0.659671434282745,0.659924410205307,0.660827579612855,0.660836965416378,0.161622135618885,0.00355039113373987,0.00365410551310286,0.0036910515303406,0.00367991972941133,0.00355549228696523,0.185850792586685,0.67390986363225,0.674374484175595,0.673731440923687,0.675618612621412,0.676665793737746,0.678088358783303,0.678987524561473,0.681101642216941,0.682765839879269,0.683270540404591,0.683152726116808,0.249788607030479,0.00292445704331114,0.00181731258800318,0.00248090581685725,0.00171064802118359,0.00267686418176036,0.0023963808427274,0.00310655608319732,0.00298721711721191,0.00339948738658232,0.00336633508959235,0.00349205510421266,0.00363084559130724,0.00368203892672851,0.00385565908977468,0.00372837718762767,0.100079486596563,0.00364888000000072,0.727768844432834,0.727281043451484,0.729593439865012,0.731206155294924,0.731584050292422,0.731760453013378,0.732483519623635,0.732725537005641,0.733503683306055,0.733546543062789,0.735253802966211,0.735707322797349,0.737943571945508,0.738928697397196,0.740110756754982,0.740503719627982,0.741597552856111,0.742072180451751,0.743629085106037,0.744789142985505,0.746001545857745,0.747459289619726,0.748146625933112,0.74953508848636,0.750022020344057,0.750830488948059,0.752217550513317,0.753709339214121,0.754570154684911,0.75593178211116,0.758467825805303,0.759364675750509,0.761169168926677,0.761497812354793,0.764492721719296,0.766418666230153,0.768467889592072,0.770024501673861,0.771789968159547,0.773393032926674,0.775158519858728,0.776930173454085,0.778897029465439,0.780153688601907,0.781789533484471,0.782803534761153,0.784636428500628,0.7864211380021,0.787123656733211,0.788433662462057,0.789140487760026,0.790718124192608,0.792572332186494,0.795765675179912,0.795835367709489,0.797012130600032,0.798528819728071,0.800462381296372,0.801703571525762,0.803138977236079,0.804631136013414,0.806228123778443,0.807336546253978,0.808735398751731,0.810156664479954,0.811523546012907,0.812816714426254,0.813596891126265,0.816121240193293,0.817816428943681,0.819556187375146,0.820624907628124,0.822040388984601,0.822271396157048,0.822866398798696,0.00338844000000067,0.113177733947204,0.003572920000014,0.0955555721681541,0.00365482000002557,0.790402742903999,0.839541325242209,0.840660355452113,0.840810288707595,0.842142877954579,0.842668958230932,0.84454522726225,0.84582596663393,0.847686357390395,0.84815288200377,0.849493148340111,0.850453441639237,0.262108205114643,0.856221000000001,0.00406557122192602,0.00371297811085133,0.181451282855469,0.870042613327475,0.87149082591025,0.872384529418089,0.873980495012478,0.874822989540289,0.876680860428656,0.878149811148569,0.879384081472321,0.879369628152731,0.879842885972853,0.879397902042701,0.880456252475705,0.880753192827852,0.882598452048175,0.884057485696261,0.885843748438177,0.887549458214017,0.185441688908698,0.003617284178691,0.00358204516209336,0.0036171277522586,0.23647459733398,0.907407428652303,0.907968978549795,0.909178652014787,0.91034489773995,0.911892528070092,0.912594608157076,0.913577751067614,0.913225352342944,0.912943109183496
0,0.000752870508164272,0.000276084281401883,0,1.03637304967454e-05,0.0027911764674142,0.00351811216653084,0.00366336244798057,0.00373226654424478,0.00373147949254604,0.138700881531983,0.185411721824864,0.253071829611031,0.674071833095099,0.675053845384735,0.676116181305342,0.677554202087502,0.678966919610856,0.680310162656886,0.681433640645879,0.682183768356167,0.682490859757975,0.204350270039207,0.00205607444206684,0,0,0,0.000362953081968599,0.00138473987404806,0.00224796469113642,0.00267193800542766,0.00316310843608573,0.00333753092149599,0.00352897015278271,0.00367500362916248,0.00378574000995477,0.00396776012829649,0.125069040502316,0.171420073516402,0.217777812996104,0.729514159059105,0.729958643342115,0.731043357433506,0.732303037334611,0.732458034465115,0.732763467379374,0.732987624884083,0.733424651816601,0.733921453247968,0.73467247134404,0.735857119505081,0.737328941502713,0.738453228869431,0.739805065914869,0.740289376295095,0.741102697416775,0.741463681092726,0.742283177113351,0.742882582141408,0.743876979762973,0.744570120784429,0.745556398736822,0.746445557843168,0.747572598576684,0.748787244391876,0.750221431592061,0.75145821179481,0.752807725094273,0.753899378293421,0.755312311203493,0.757119194002596,0.758822515932108,0.759983001740594,0.761220936693142,0.763170144526956,0.765227733459814,0.767097015224394,0.768950258862426,0.770512653896921,0.772128162609528,0.774338728354832,0.777587376230718,0.779188507305136,0.780531406889431,0.781552405210121,0.782542889546513,0.783688041053571,0.784759539600718,0.785632654749083,0.786343750044938,0.787532905121358,0.7886228278142,0.790881241923912,0.792910281887616,0.794750746296713,0.796293718993325,0.797985464189362,0.799434754355288,0.80103708309271,0.802254327371057,0.803802033610267,0.80488335806709,0.806201881042051,0.807251777235847,0.809232806022191,0.810954391877508,0.812314566772708,0.813451621767065,0.815174232878071,0.816731335929371,0.818344070563292,0.819783161429146,0.821131661355008,0.822049614169614,0.82267834250927,0.276596215892834,0.230857289822947,0.185666408660456,0.140881939616185,0.0955224378824399,0.790266248076943,0.840715515381375,0.841067412086616,0.84173699104979,0.842328589623271,0.84320434895778,0.84441427824125,0.845817793592926,0.846974666627957,0.848018640095174,0.848743692849557,0.849103546487372,0.216675147395483,0.144340395911002,0.00408009178533687,0.00390860194972595,0.211346356369124,0.795980803356332,0.795874442000993,0.795692136536755,0.795484653590559,0.795307588268203,0.795206467054754,0.880805943598314,0.881188752189714,0.881607215079472,0.88118901554851,0.880823309961675,0.881120142255766,0.881759058396705,0.88245063099325,0.883077247540394,0.384377375561213,0.184292070453177,0.137929724426071,0.00349525132696303,0.00353248691406076,0.00358655169532639,0.190720266615963,0.905639247845901,0.906637207279584,0.907756335548215,0.909207259979669,0.910535182323118,0.911619178107379,0.912456994859779,0.912625688034247,0.912863157800481
0.00196554247955163,0.00282910722011274,0.00200354722997702,0.00268657451078526,0.00253454259120718,0.00343988167476688,0.0036315553431119,0.00355435639254243,0.00375608665087021,0.00385442427923775,0.00376314388544408,0.00362796096868009,0.206671841352778,0.673359608886122,0.67449284214313,0.675036761219959,0.677158581773774,0.678840605586272,0.679838451556749,0.68031859227307,0.681532992690638,0.68205614535359,0.159782836157035,0.00318995106430477,0.149841909021825,0.69129876544619,0.691835750470873,0.692476467674173,0.692715688424143,0.693669985022253,0.132802536467674,0.00344721653782033,0.00344391304583702,0.00364687009336649,0.00368021255059067,0.00365012611730511,0.00395387886859431,0.728578000000001,0.218296121368348,0.730450011082954,0.730958384036377,0.7316760205298,0.732700025317262,0.73385537873791,0.733733591808434,0.733017819467925,0.733920774302854,0.733164597484392,0.734759910408297,0.734438155371937,0.736867006634777,0.738342284213148,0.739456559422238,0.740568092510149,0.740885302809915,0.741193160900095,0.741614449955887,0.741842809387897,0.742438514564976,0.742532997633978,0.743449975658136,0.743189769268123,0.744990762983974,0.745141062933208,0.747714740618077,0.749606619957295,0.750911855434067,0.752022047901039,0.753199811187339,0.754062589479469,0.756275263343441,0.758477223009041,0.759175917150844,0.759830419239024,0.762165822762446,0.763871543786153,0.766058125809427,0.767877064017771,0.769434174226467,0.770155634238705,0.772711191576982,0.779870579591275,0.779818732516997,0.781170168465248,0.781391964361694,0.782257235151766,0.782779739561616,0.783654512751089,0.784079176976772,0.784378008141221,0.785550207122918,0.786214892482983,0.788745412328109,0.791329222510395,0.793170446446652,0.796624773988496,0.796864255272795,0.799431821618204,0.79998929133293,0.802099429807166,0.802784204774696,0.804179878335708,0.80483193108059,0.805483617312935,0.808246021229313,0.811112838011231,0.811903042825102,0.812813678414977,0.814475554516549,0.815421033659857,0.817468362311654,0.818648380919844,0.820631254927505,0.821676012071807,0.822885937515171,0.82363697758777,0.825060356700938,0.827918603346057,0.186998982825088,0.0034569500000126,0.790150669341863,0.841502804926515,0.841193881586093,0.842604508148342,0.842331071076151,0.843234534737032,0.844199554333683,0.845896314649596,0.846375383368301,0.848108925688233,0.848324715367994,0.848071256781612,0.172131161012446,0.00388349163044745,0.00390815400760578,0.00367645724129725,0.243916873465632,0.889073000000001,0.740541484423047,0.00345601782669954,0.00352278697964861,0.00361464575699154,0.164307253241108,0.88305085416072,0.882964743409042,0.884641125411282,0.882461430994483,0.881517947880543,0.881353291480502,0.882611500339744,0.882267142084596,0.882638215181355,0.34197300192352,0.00366435773358431,0.00348282416472674,0.00335937633106897,0.00349530099132131,0.00363238044829491,0.145594940504656,0.90287678599698,0.905174744774694,0.906009954290472,0.908199919964067,0.909373062653731,0.9109572635871,0.911804270973462,0.912097534657559,0.912315511164156
0.00268783420367919,0.00289127809854062,0.00282236141140786,0.00315713493723899,0.00335024832151185,0.00363226054909927,0.00377483165139355,0.00375789087618698,0.00379762275211813,0.00376506628614832,0.00375886283344832,0.00370789179256495,0.16007113087614,0.374323731784817,0.332166120203015,0.294110955871832,0.259958229537768,0.229418601316966,0.204115156712142,0.182634805372156,0.159079460090241,0.133710071347998,0.106820425984538,0.0844260931715276,0.195582957409722,0.691546242370289,0.691754488559536,0.691974966356616,0.692110817275271,0.235032536320744,0.188629388523786,0.142255060085729,0.0958877305835571,0.00356596354179405,0.00366103763164986,0.00373571350769664,0.00391577450208565,0.125740810918067,0.171976705996534,0.218296097910683,0.732088640100883,0.733084757147565,0.733767742988982,0.73475762382705,0.734872007912802,0.735396163087947,0.735643838484651,0.73643021087592,0.736586207915283,0.737353899476606,0.737858396293274,0.739052125501088,0.739445555148151,0.740480634798163,0.74045527431081,0.741063750574466,0.740975758797697,0.741576524513569,0.741652702873236,0.74239480426769,0.742862669240502,0.743802584806436,0.744743385892609,0.74577792544764,0.747079629520388,0.749041129510364,0.750461151831481,0.751684549296589,0.752610154935598,0.753696848275419,0.755111781271087,0.756849161605335,0.758026525697343,0.759587006943807,0.761518635264066,0.76356083007179,0.765130595945734,0.766679122796477,0.768998960133604,0.770944335223352,0.773681162304558,0.777502579707183,0.779000608111316,0.780243569591335,0.780654248727258,0.781268328175538,0.781754111563594,0.782381784458038,0.78309138431232,0.783728543963113,0.784745663252594,0.785601671207213,0.78747512672479,0.788965629248347,0.791088387974647,0.792709767814062,0.794602713420575,0.796128073928008,0.798542234328616,0.800595362537848,0.802090390889178,0.803186225754633,0.804308041600542,0.805335053010397,0.807745793046115,0.810126295310584,0.811661138830006,0.813225674203457,0.81448741251673,0.815966948266319,0.817190778664869,0.818733857860937,0.82056733174232,0.822516111062299,0.823128955576372,0.823740785953162,0.823825503855202,0.738749168462129,0.738817625845885,0.73874916846214,0.790085051231747,0.839531859385011,0.83948615809914,0.840232855300461,0.840963633136037,0.842212107739756,0.8430685748068,0.84420560802027,0.844417084151972,0.261890846431112,0.216500839264959,0.172034427297925,0.128396987546793,0.00378289026978419,0.00382934197028212,0.00379185623576581,0.279563939596947,0.740545206717135,0.740641169576318,0.00353601197888097,0.00351409762981761,0.00350281947793263,0.118807089689891,0.155980954592252,0.194410235772508,0.234468666724889,0.276454416002684,0.320575165109352,0.880018602402262,0.880920829553713,0.8812545901271,0.881340980117756,0.303360073218996,0.00346853617384332,0.00344818030329463,0.00344810042661674,0.00348421161579253,0.00353023818534946,0.101134481492899,0.136006056451916,0.172007714438888,0.209534683262142,0.248935812603342,0.290491742901753,0.334399920765382,0.911113922030343,0.911323697010866,0.911406152147761
0.00322733345826901,0.00343361512059438,0.0033675512839373,0.00365270871490488,0.00367665395464365,0.0037059059496245,0.00385015280023694,0.689973000000001,0.00378955992591616,0.00358453965259917,0.00371422696609445,0.0036860797507925,0.113708190708085,0.696471000000001,0.163527048190684,0.00379376737772508,0.00377766702928524,0.00360444208918872,0.00383427640395016,0.00341873985286377,0.0939491317026513,0.00349445999998975,0.0852509249529512,0.00345780999991919,0.241614937239976,0.691647154451596,0.691730789690527,0.691634808784519,0.691793180700146,0.00359198000000068,0.235032536292582,0.721722958958421,0.162912608142254,0.00333227932182525,0.00353807088140031,0.00352661543471358,0.00374203152267811,0.00358961299894522,0.0988467858120494,0.00396913000000066,0.73238060662123,0.734628731724463,0.734842462016448,0.735974556355428,0.736103255852075,0.737270143344477,0.737451518075956,0.739440164155827,0.738488102018881,0.739582447506951,0.738893220153859,0.739545728595045,0.739574890203001,0.740380846000072,0.740214786181656,0.740563613201151,0.740466703643115,0.740881551380497,0.740929843331874,0.741802293157999,0.742353017664372,0.743957631558591,0.744759198233738,0.745893930336255,0.746032352952532,0.00367484000000066,0.0973311927600221,0.00349150000000068,0.752108418306942,0.752714909899268,0.754036066260214,0.755401588029897,0.756955288515641,0.758714930823948,0.761219382039785,0.763631918154528,0.764440670630164,0.76457625735002,0.187102689194207,0.00329084000001096,0.0962101788142058,0.00362565000000319,0.778484223217653,0.780145754359293,0.779821196937005,0.780542877559367,0.780630016809305,0.781304956499297,0.782042767221234,0.783155813082411,0.783764085557496,0.784631693499176,0.786053273929682,0.786878757969183,0.788816768972046,0.789597679159334,0.791941297239089,0.793064003242992,0.796683609675584,0.800742595786113,0.801080670368389,0.803142600623731,0.803283459178336,0.804575532987402,0.806859901673468,0.810475247909864,0.811200201909765,0.814107530534691,0.814317046228721,0.816623931546773,0.816699309127292,0.81808550656081,0.820193911056443,0.824181898624343,0.823083216873287,0.824278835872652,0.82299593658525,0.00346904000000072,0.73900067624632,0.834322119518957,0.830892392903806,0.837563557473452,0.837047739119436,0.837699799776906,0.839217577348697,0.841359922461314,0.84181210104209,0.843298645148916,0.842742800471607,0.00347734000000761,0.0958155771779011,0.00378292000000724,0.0880816300406076,0.00359251129113857,0.00375383915132941,0.00380750252955813,0.318601827735625,0.870441000000001,0.740902768490527,0.00365432075972306,0.00351604447716499,0.00339611533241388,0.0833197793344254,0.00335104999997082,0.097650846651787,0.00340258000000068,0.109482604441342,0.00342413000000068,0.87751116331944,0.879621250559042,0.880342718621107,0.880030070241424,0.268232248307828,0.00331389531373636,0.00342253055574663,0.00352791429670483,0.00349541322974064,0.00349841727610738,0.0688719660523043,0.00333045474044247,0.00273675398132957,0.00313469092669153,0.00278840647564001,0.0034130384963741,0.188154104794897,0.909992148068457,0.910597101253103,0.910290530846103
0.00329177760469027,0.00347323573241724,0.00359566967600837,0.00371519081204339,0.00381975535070508,0.00385401989713004,0.00392058666852809,0.0039256930339833,0.00387878901930679,0.00377802347543022,0.00376054473017323,0.00363793793075815,0.00347521825559989,0.0032033508462804,0.0029810927535646,0.00344334672393441,0.00383572098202328,0.00392921428559915,0.00418103276961891,0.115740546666765,0.154586442776637,0.19440327913988,0.235536849608959,0.278257003534247,0.322750765705397,0.693508360821943,0.696467121724685,0.701146816841902,0.707285456595182,0.710756828175917,0.715294651490755,0.718127423820233,0.585329478210181,0.585336067602242,0.585345200114547,0.585351182953904,0.585350065892811,0.585342023556596,0.585331323204777,0.585323889866982,0.73279897852742,0.734123174796534,0.73469369637762,0.735423317357315,0.735674959924004,0.736305754231097,0.736659426700796,0.737475694642376,0.737446648482945,0.737852423300472,0.737599941897697,0.737856740346999,0.737855465490058,0.738373552818108,0.738346974247188,0.738775407493248,0.73839951181748,0.738535456625151,0.738546332509554,0.73920860768761,0.740279490728962,0.742849226071375,0.744184002650195,0.745072303463871,0.745081149556665,0.744961103024378,0.745331495316139,0.745725027327619,0.750832210496649,0.751476413974647,0.7525517376382,0.7537442992264,0.755331042060659,0.756711360472818,0.756803692178718,0.277161977667139,0.231330946623972,0.185966990550966,0.140949400833016,0.0954458024778754,0.142478283138754,0.18880787534095,0.776338180923517,0.778131165720344,0.778043457375234,0.778399781142371,0.779094120422653,0.779930802112102,0.780904217657475,0.781875717440517,0.782941188526358,0.784396550981429,0.785852769522509,0.786935140718019,0.788564454638972,0.789798294528362,0.791503134657061,0.792761764063982,0.795436857527996,0.797545274013802,0.799367297982272,0.800611623372821,0.802001165543526,0.80314291692198,0.805305999078529,0.807322691507845,0.808911220354946,0.810453777101671,0.812084997899009,0.813865768786965,0.814628947788461,0.815734687096972,0.817394565804287,0.818901681943873,0.820255450669309,0.821165195285416,0.821100076363591,0.0975018569123911,0.739170268549376,0.825459405604413,0.827914972280773,0.830350130661838,0.833432166600267,0.834968724068917,0.836644613950479,0.838294466573194,0.839328460562253,0.840230769776724,0.840485308142056,0.188190120823991,0.141918080760863,0.0932267445705386,0.136123170659426,0.180056865557435,0.224682768266557,0.270140467507448,0.361246821645315,0.741289786681622,0.741145189589189,0.523880480754136,0.523447071851613,0.522773839186137,0.522157930643881,0.521862890103047,0.521998678907601,0.522474021093961,0.523042327156313,0.523419627636265,0.872643153873418,0.872772550944615,0.879446599335425,0.279939633465399,0.236185734292489,0.211055741338696,0.189880103712296,0.167404838775403,0.143535692607569,0.11820731523651,0.0915296867483753,0.00277007410585104,0.00228858069280935,0.00232550365372083,0.00236889300469322,0.00287308796917987,0.141906066139647,0.188154104794896,0.897516378729019,0.899555516024327
0.00327145028338893,0.00354931383123991,0.00367118850525485,0.00372262498313767,0.00383694147419727,0.00389230666039334,0.00388804312760907,0.00387435326601453,0.00386581790848874,0.00382040155660728,0.00377875878272897,0.00360446794212474,0.00360861602392802,0.00350718134375798,0.00333765502454923,0.698706000000001,0.00404442313575966,0.00380410934235537,0.00428483234521881,0.703942000000001,0.211292125827486,0.705756000000001,0.357267270148555,0.709888859736683,0.71091306175673,0.711636044792641,0.712186131431015,0.712607410363948,0.711014661771192,0.720765465637975,0.717805200351678,0.725825647634297,0.725220511934549,0.724933694761131,0.726247838715066,0.727556414090387,0.727760457774315,0.727957098797204,0.728696435689406,0.728898646093454,0.732017595420456,0.734270851849733,0.734615752975952,0.734928896364414,0.735276305440091,0.73497891006915,0.735960337226087,0.735570890389276,0.736628057182869,0.73587326550543,0.736541696810647,0.735398541239366,0.73643774968692,0.73578744765153,0.736895107539248,0.736661947394286,0.73667344302637,0.735335338448341,0.736227388018864,0.735574535213476,0.73712777685471,0.00371772000000068,0.097159439465014,0.00332053000000068,0.744390732574683,0.744566635343617,0.74565496179815,0.746380212546084,0.748999733885226,0.74941833424838,0.751308948939465,0.75126697292409,0.754226165928724,0.755558139025802,0.756386291626751,0.00361958000000067,0.110569925605497,0.00336119000001182,0.0954659024778754,0.00345019000002197,0.188807875341562,0.770195616008226,0.772526957286119,0.00329722000000068,0.775981317382033,0.776043269862166,0.777509252769227,0.778593387802316,0.779746758826772,0.780738705732144,0.78161198903222,0.00350722000000068,0.785752654131309,0.787007158504208,0.788233044282939,0.790292597559498,0.790919991125021,0.79191794720794,0.794093225910111,0.795573458053071,0.797556399450528,0.798848303491394,0.800364793773186,0.801456029392896,0.803452815030719,0.805104979225884,0.806441758846646,0.806896535132487,0.809708477170388,0.81199519451534,0.812293058034281,0.812340902551779,0.814450487469551,0.815564006157335,0.817443321888252,0.818726959514925,0.819232175881057,0.0034110700000007,0.739271403468683,0.823538478004932,0.825546782095699,0.00372948000000068,0.831709440003348,0.832032922012589,0.834287356177615,0.835616962861539,0.837161381901103,0.837662655927148,0.83859102923137,0.838009429218466,0.188190120823991,0.00348301000005313,0.181945825155017,0.845601598109947,0.84675387481513,0.848458303277382,0.849727837102708,0.851842071306726,0.853015573092918,0.855242310273919,0.855539237758336,0.856801192784135,0.857655901454467,0.859232609044865,0.859705493065066,0.860720143419731,0.862247980954121,0.864338340169461,0.868428194597684,0.871087953598524,0.878960954767175,0.00354255000001572,0.186688404868185,0.881485000000001,0.278565850587418,0.883749176903467,0.884026689110102,0.885506235279787,0.166562533912521,0.00316166065382825,0.160714696610886,0.891636385941228,0.149720448351001,0.00331724018540619,0.0958726242975026,0.00363710000000945,0.896701322226145,0.897997766956913
0.0031563261054882,0.00350105629486465,0.00374777449139357,0.00382274581055155,0.00386261152922184,0.00380746192230979,0.0038222322231006,0.00378073338436778,0.00383589590154693,0.0038242689458473,0.00386053356055847,0.00379093107503052,0.00381341798857909,0.00375729949904058,0.00382077056351384,0.00407599935985215,0.0041650911518028,0.00409007490182608,0.00432635084543012,0.118135071849666,0.164505808959469,0.211292102920576,0.313391290381887,0.710725504801557,0.711278328301066,0.711946851076035,0.712318992161635,0.712812368996721,0.71363046588179,0.717315224895369,0.717607472790391,0.72520171894975,0.725211524581745,0.725543990629117,0.726325444413053,0.727190060264239,0.727793259949275,0.728405225625772,0.729232982483227,0.73026352587985,0.732062585312977,0.733697661737767,0.734336760368489,0.734799103373831,0.735080536742899,0.735442676966166,0.736006144210525,0.736627898690286,0.73682751549034,0.736991528567015,0.736352111714767,0.73586429125801,0.735630724650301,0.735653481799343,0.735632602724668,0.735751506054612,0.735215561267055,0.734879395457414,0.734654580134601,0.734689602546264,0.735337378094882,0.735855958399568,0.73789955772232,0.741176890265434,0.74357592637395,0.74520431716487,0.746312222349152,0.747691067411257,0.749045309885088,0.750314940566104,0.751572084069992,0.752957375045208,0.754380526278243,0.75578907201774,0.756455024740514,0.742584642769876,0.742582095329527,0.742579626661146,0.742579841870008,0.742582683290919,0.742585445939862,0.769796919622368,0.771157265632834,0.772283587907357,0.774011779352989,0.77502981480225,0.776430213556287,0.77765706051189,0.778881433771631,0.779946871312343,0.781240408445157,0.782630519088021,0.784567909201658,0.785956942576937,0.787537589497359,0.788997528192589,0.790589974104528,0.792048009352346,0.794183515270576,0.795276711279784,0.797254930507115,0.798312364936763,0.799935562532211,0.800890480100531,0.802554536510387,0.803708235837465,0.805185305225717,0.806181686497478,0.80788252565723,0.809115408787921,0.80995230609448,0.81042369637744,0.81193426231805,0.812988544365445,0.814627972974846,0.815688016965814,0.817672048070359,0.820283087295687,0.822278188262889,0.823737324349881,0.825531845693428,0.827594202617084,0.829732062386938,0.830988903123614,0.832656142263487,0.834031909318853,0.835820268094491,0.83720462664397,0.83812174386153,0.838699145072564,0.839854540309545,0.841022829463215,0.842932012743017,0.844930294213554,0.846229459321938,0.847427822252632,0.848932322942893,0.850448866205306,0.852032829563545,0.853532717899996,0.854661562178037,0.855725970095551,0.857027825739329,0.858251207604066,0.859238952688922,0.860199115518184,0.861696769690724,0.863536838397271,0.866456612298507,0.870388735249864,0.878316342033188,0.0954694984353908,0.140915419862041,0.186560254347661,0.232649810292208,0.882450919210773,0.882782407740457,0.883095407762236,0.883168083841028,0.883931481782718,0.884992257145445,0.886334617195991,0.886716378651316,0.88761885029816,0.888804657075565,0.890258797734664,0.895599481066266,0.896947569174482
0.0033617854575059,0.003510887874781,0.00380219976848875,0.00388575710295545,0.00380508816783438,0.00362111559346724,0.00364900214384732,0.0035588810207484,0.003701216587549,0.00371984146867882,0.00385076844606752,0.00376981652041182,0.00391712057740035,0.00378383050751527,0.00397140263113699,0.0039498095983678,0.00405230035938533,0.00366032152787844,0.00405967720905544,0.00368183701465292,0.096158367217028,0.00343239000000063,0.271897011655607,0.711117326585458,0.711614842453137,0.712557438443598,0.156644963291854,0.00363053881284852,0.00357363972906536,0.00349514535637441,0.161164358293998,0.725018846044976,0.725279570809834,0.725909443773597,0.726429826125236,0.727136860542051,0.727851662868354,0.72865063299872,0.729578146248536,0.730851513067244,0.732321321610699,0.734040111844567,0.734353642966211,0.734644237404909,0.735051951485525,0.735304797804575,0.736399478423212,0.737505082823581,0.737588755987471,0.738123368746024,0.736694000001813,0.735107688894492,0.735382399777218,0.734449655608673,0.735118834582113,0.734344035439907,0.734431648219998,0.733309280410364,0.733560103204061,0.732561547610747,0.734079246493416,0.734176777469746,0.736709698463953,0.742123833564753,0.743754330593574,0.746275217093096,0.747045782043113,0.748751554949526,0.749544536353709,0.750772338533975,0.752164526090814,0.754184536391761,0.754937909577513,0.756485129630594,0.757256344885505,0.759097556900167,0.760747641733007,0.762508417993852,0.763598309782278,0.76496858121739,0.766536820608015,0.768118523327244,0.770163435747708,0.771825437393364,0.772916951830323,0.773748573765069,0.7756376941518,0.776822761932603,0.778218927610812,0.779009138465473,0.780777626146528,0.782109758892474,0.783855020797417,0.78491663362525,0.786759668581062,0.787888261177306,0.790097417914953,0.791903867440106,0.79486717294066,0.794686674675891,0.797328430770748,0.797900990179775,0.799663127108463,0.80024602199747,0.801789786102503,0.802419657421484,0.804221660780946,0.804907297777025,0.806542130939251,0.806491176618608,0.808104440016708,0.807080107083422,0.809819904405926,0.809289541894365,0.812102839106424,0.811270170501138,0.815107276844276,1.01823,0.822423437982465,0.823528235161493,0.825369586288961,0.827555705972875,0.828757823868191,0.829395476420105,0.831459094786333,0.83178959217825,0.835058105213294,0.837011340358052,0.838132159505473,0.838746460368822,0.839910831589244,0.840297271484487,0.842865173408127,0.845013725221064,0.845754576763976,0.846224828890879,0.848006020645743,0.849208675770451,0.850956228157789,0.852489996277304,0.853627212229623,0.854757230552991,0.856234579704082,0.857852703021642,0.858547971123487,0.859423420030892,0.860568437738988,0.862018210062276,0.864685804740417,0.870156257720242,0.876944436262632,0.00349240000002613,0.0953202538720741,0.00329575000001953,0.186872360501108,0.880777917061792,0.881501942223276,0.880905036935823,0.88247297172267,0.883665844390377,0.884796403186532,0.886568276866718,0.886764015321142,0.888149934495904,0.889361632214516,0.89248281484262,0.893901177149351,0.895871836070449
0.145752756192554,0.1001979247079,0.00393248318266866,0.00385565319645036,0.00379619442090821,0.00365630163705226,0.00359053605063296,0.00355587694896116,0.00366529714656416,0.00376995662944772,0.00393762674403377,0.00402149488441758,0.00411978100439307,0.00410967377109868,0.00414208926226272,0.00404904195295748,0.00412821808601649,0.00408280369136245,0.00423317736722087,0.102949674644687,0.145051820394889,0.188091727991599,0.232567994632672,0.199071014532338,0.167200605610786,0.136666465163491,0.107127248864984,0.00357876223071859,0.00359700595237294,0.00361643717213393,0.0391385265931323,0.0677877119195954,0.0921451704215641,0.113281448173975,0.132495484029491,0.151017314597388,0.169735032927441,0.188980338038802,0.208561199054364,0.228055581100767,0.246936994666183,0.271894777095839,0.304646728424265,0.341729436236961,0.383388529766907,0.73579492538643,0.736409169871828,0.737177250246003,0.737283611536316,0.737365652634483,0.736400753095654,0.735920146413335,0.735350131407257,0.735363361577421,0.734927706145632,0.734844752271026,0.733761225821877,0.733087870678095,0.73284847679766,0.733111598797808,0.733757711998999,0.734816190151699,0.736969763084082,0.740690136604768,0.743080612646131,0.745172967352293,0.746572077432922,0.748275774261345,0.749171834564819,0.750485385278914,0.751656184734804,0.753363091895633,0.754347317165826,0.755776883775249,0.756871982648103,0.758864071717771,0.760705563355036,0.762313875311621,0.763394521630205,0.764951573956447,0.766545914266121,0.768459388878579,0.769667560439545,0.770988048040957,0.772196320133363,0.773069965470738,0.436971749399456,0.437332536878614,0.43804300773634,0.438962730654017,0.439797616605512,0.440246639971881,0.440169125953859,0.439636919500016,0.438887227836797,0.438208602935812,0.437783887202163,0.437612256992035,0.798908090615047,0.799085008539074,0.799929619575341,0.800220430834442,0.801127534440773,0.80146077997711,0.802423435439547,0.803129094511623,0.804629899817769,0.805670312672092,0.806889450090502,0.807538661652475,0.808654049783288,0.809287615569205,0.810573298443808,0.811375385582939,0.812776653495369,0.813763881249779,0.815998175501988,0.818534194207914,0.821224297190926,0.8230847300474,0.824864222455683,0.826611894326275,0.8282708250724,0.829830689265006,0.831784105223228,0.833137046549995,0.835363886974675,0.837165443165197,0.838471058522785,0.839481901526526,0.840675567443191,0.841780428520944,0.843248213351522,0.84449182604644,0.845701476804846,0.846518598527066,0.84795739161821,0.848981224749051,0.850534930040088,0.851597034316869,0.853149725462634,0.854233458680654,0.85590135679186,0.857085384811479,0.858248602705449,0.85888443285993,0.859627304849102,0.85998369186071,0.861466005657053,0.862955739403442,0.871646341695705,0.187705943050382,0.141517902463984,0.095503400573711,0.141401329338268,0.187594655545138,0.80322348669388,0.881370238355855,0.88217900976869,0.883044409421382,0.884130510103277,0.885351124240219,0.886208523026603,0.887502239185892,0.888820556348888,0.890722032999302,0.892380899655374,0.894056476983444
0.200701940637336,0.642663000000001,0.00388452408115702,0.00368489502316098,0.00369828735247009,0.00359373954548164,0.00338788361846484,0.00341855346269773,0.00350533916795117,0.00368702049821441,0.00386284265376195,0.664043000000001,0.178476928888987,0.665411000000001,0.00412757317669418,0.00372024189319484,0.00403067332225843,0.00403817558125563,0.0042080635053532,0.675213000000001,0.234929427077971,0.677367000000001,0.273078819734907,0.00353891000000068,0.0962636716826235,0.00346879999992813,0.0782167751350491,0.00351051283665359,0.00362155967380795,0.00375909270753307,0.00362084415914166,0.00350889267890685,0.00353594297275873,0.00354823393973225,0.00360077838582799,0.00366002533759144,0.00363230220099169,0.00357508144309835,0.00362767267322385,0.00365758897108837,0.00371733046657262,0.0038141852491636,0.00365625355289257,0.00352255138496623,0.168081639169416,0.735557660363914,0.7364061275773,0.737181831659956,0.737261830255884,0.737120432082867,0.736174300663588,0.736083982705338,0.735465872138512,0.735750330020389,0.735224991667307,0.735252132492614,0.733536677827221,0.731419500630619,0.732397222989115,0.732544171695461,0.733537738764612,0.733983308411754,0.735858378847444,0.00356692000000068,0.743024075108036,0.744608492586484,0.746227403590422,0.748208577684011,0.748875929646861,0.749837901684565,0.751119348498927,0.752804388295786,0.753724541895332,0.755160188435023,0.755829522904108,0.00353516000000068,0.761034874489194,0.762727754937205,0.762829687557285,0.00355637000000068,0.76625097658959,0.769590296736096,0.769224495845614,0.770387389924563,0.771948056577613,0.773354002130594,0.16614195112009,0.00351707479926539,0.00358781047267974,0.00364373103260927,0.00360914256322161,0.00351926191548857,0.00358090419850839,0.00359400506115484,0.00368285521247266,0.0037099182361798,0.00374216675347919,0.00360651924637398,0.80251440628061,0.803189901475947,0.802741968274352,0.802315917515099,0.802843178577422,0.802499721525589,0.803202065071804,0.803369366544627,0.80551130931208,0.806367940459394,0.80794133082125,0.807990564571385,0.809861225136249,0.81053326399953,0.811925259824509,0.812510207424977,0.813782374209658,0.814734512101304,0.81636907754036,0.818207753876253,0.820724410418525,0.822672246070306,0.824421622537794,0.825739113394671,0.82793002890727,0.829756169602805,0.83277026943113,0.833372632299329,0.836217383673968,0.83757917258775,0.839245035625939,0.8398853005811,0.841621035959353,0.8428640726094,0.843852658660443,0.844105731920256,0.845911957191372,0.84647533942762,0.848057963605977,0.848706865607274,0.850210165034778,0.850868142242944,0.852646102283847,0.853893727836512,0.855503190189378,0.857138496790815,0.857934384141156,0.858992175937171,0.858732459837417,0.857842073120374,0.859423382645768,0.859402995002692,0.862107620661929,0.858853310162806,0.187705943050809,0.00362622000002145,0.0957999037578169,0.00372561000001225,0.803304896901436,0.881016235249989,0.88182949068478,0.882306608432572,0.883429147949019,0.884920135505884,0.885552219492966,0.887556805148085,0.888114753030388,0.889948308645535,0.891086475888723,0.892335428562909
0.150433076671242,0.107955420521757,0.00381169544843543,0.00371405121403623,0.00364867354268198,0.0034140947370013,0.00299864378727003,0.00316333521961401,0.00328388206992984,0.00351474351739192,0.00378537396536987,0.00400884943063599,0.00426652340197595,0.00429029099721391,0.00420694193070567,0.00397698939443123,0.0040195878118984,0.00399914181238851,0.00407943017491648,0.12924228418404,0.188097017447471,0.359599300646972,0.315781732230238,0.273276822772944,0.23308092269806,0.194969965288386,0.15862436465036,0.123641986911268,0.0895630360064597,0.00361570524633997,0.00359578681005549,0.0035727384668272,0.00354897905900144,0.0035367396136749,0.00358904099556764,0.00364209158119901,0.00365253400956119,0.00364644694009688,0.00363312801412132,0.00361638855395083,0.0036539468011942,0.00366719473808984,0.00360596917129275,0.003521907881831,0.0986302111546619,0.14515702335715,0.1916636631223,0.238069951560552,0.730358399227304,0.735111564196098,0.734724024398305,0.734417541226615,0.734002400956148,0.734395863878745,0.734021475483594,0.734027784981833,0.732684779421467,0.731979758022671,0.731887474649126,0.732551481965966,0.73328488977982,0.734685505467096,0.736481460672266,0.739211145523589,0.741439499926701,0.743354456885957,0.74518668706695,0.747262740832598,0.74779706517229,0.74867469415007,0.749671555499966,0.751089093221493,0.752215311413559,0.753649660693159,0.755415883437157,0.757719457302935,0.759774070714778,0.761422700166214,0.762472756926721,0.763932452553052,0.76587427816961,0.767935882924209,0.767463975352221,0.240788666130122,0.194108987945737,0.14753180820144,0.101167748900518,0.00350909202965706,0.00358651634844165,0.00364673719408919,0.0036274991274357,0.00357598121842119,0.00358438805450455,0.00361696577509455,0.0036739783193631,0.00375011317728439,0.00381245576843392,0.155478882645347,0.805328832169724,0.805725526133848,0.805627728615166,0.805837456086787,0.805749937065814,0.805727916305839,0.804901520373952,0.805515260753134,0.807891864286459,0.808214035010554,0.810558890593486,0.81115255937402,0.812052442792345,0.813081675076318,0.813801963443755,0.814556922590993,0.81488699521564,0.536430527922425,0.536028018964161,0.535412082781808,0.534871900381969,0.534661178667257,0.534879694001136,0.535426736826668,0.536047772773514,0.536452998895895,0.835993986052021,0.836832228462648,0.838314548449391,0.839800885851026,0.840845321058835,0.841850907871778,0.842955079410893,0.84411438549413,0.845226062961148,0.846344653205448,0.847586448394856,0.84848346239987,0.849548782921674,0.850210735462068,0.851413886837467,0.85215947543725,0.853531756291515,0.854416490206671,0.856034310980847,0.857146435752057,0.858307190838114,0.858909193699137,0.859364672041589,0.85937928769991,0.860291161647367,0.860837604175161,0.861160578153569,0.859837104000935,0.808024195528774,0.807457270849195,0.806402491826115,0.80500664543209,0.80346425123498,0.802221592387331,0.801254502675092,0.800725871437443,0.882561261069957,0.883201297436486,0.884065184709751,0.885268148475106,0.886822475490834,0.888596621079279,0.890286387608617,0.892006258566369
0.00359888351381446,0.003596420850364,0.00362694906409388,0.0035920049149767,0.123744216427886,0.645007000000001,0.00206015365347554,0.00306823830880653,0.00298635555173301,0.003298025427349,0.00355629959275026,0.00367451481585245,0.00408298575350763,0.00402027745129917,0.00409515380677221,0.00373795379439971,0.00385406752506627,0.00368187095398741,0.00380509548120623,0.00358849263446463,0.141732098387535,0.677076000000001,0.359599300646959,0.677624000000001,0.313239779037303,0.681531893832616,0.682648944864233,0.684641102125675,0.155428937747452,0.0034937804338608,0.00357519989452872,0.0036370768016343,0.00354828101962376,0.00345704845984142,0.00357009882134493,0.00365916544008177,0.00367726926754455,0.00371073700831396,0.00361938979326338,0.00349541717737443,0.00357923608320383,0.00356254361608965,0.00354302142569883,0.00341155789124642,0.00345661837937726,0.00344807312411331,0.00349267270805245,0.00353841622901583,0.727206209600592,0.733875739006933,0.733685507400641,0.73262123776067,0.73227239639085,0.733153794046993,0.733060272915813,0.733262022926343,0.731931588486352,0.730998597434074,0.731334728706577,0.731731002863672,0.732962217201542,0.734556116478947,0.736566502882257,0.739687802532319,0.74055771882476,0.741917835034096,0.744359779306156,0.74742267766385,0.746875787210316,0.746884381374878,0.748294246643582,0.749215233879887,0.750794965567701,0.751549522507596,0.754709205147263,0.757996244145803,0.759086034705491,0.760755108461835,0.761850884706645,0.763515021014756,0.765409746139443,0.768972933338352,0.765531642090492,0.00346083608000063,0.00331719156248289,0.00342239810107515,0.00338852842041173,0.00341027597110121,0.00357478149455038,0.00369871566514581,0.00361859735514597,0.00353265317427429,0.00350651500315834,0.0035569915780251,0.0035525100451979,0.00369836936834734,0.00378173371141124,0.808608733351607,0.807569517382827,0.808678923834448,0.808045250341505,0.809801323512275,0.808513008432843,0.810063289026715,0.805327045496351,0.819644051424603,0.81798503318582,0.820081069165301,0.81518624405056,0.81393966334649,0.814322638663737,0.815691369567086,0.815801486818069,0.816830384939102,0.81634604878981,0.00370914000000068,0.108284036304093,0.00339953000000068,0.105555118811997,0.00365633000000066,0.103712659020934,0.00351916000000068,0.106032096843749,0.00365164000000068,0.83829776832741,0.839433996514125,0.840444607978294,0.842247962622926,0.84258329794604,0.843565952373053,0.844303344833253,0.845371336985215,0.846574975797879,0.848569374725994,0.849443686708093,0.850656872053479,0.851126230266885,0.851777327162504,0.852583543068789,0.853655486584406,0.854272209349815,0.855197233385237,0.856351750218472,0.858165487949481,0.858501776757768,0.860000239921135,0.859796470269134,0.861012701916649,0.861397612710555,0.86363227859729,0.862557107560726,0.863162357185516,0.863548098567365,1.18413,0.949699347762194,1.18934,0.803394416959349,0.00384524000000066,0.0973388492886979,0.00355921000000069,0.881032846081427,0.881564525141598,0.882254112940554,0.883149781764027,0.885345685729191,0.887842775377444,0.889406160763697,0.891924936029549
0.00355271759328001,0.00349209881981521,0.00342955934751496,0.124133957074637,0.170580121741379,0.217054137803027,0.00022669056635527,0.00194146732822709,0.00244229852737708,0.00305561892846601,0.00340835712884237,0.00368042410274925,0.00408531302303677,0.00419163710642184,0.00415755288976522,0.00388507146663406,0.00382483254788327,0.00371469819188121,0.00373961155940989,0.00366769802394706,0.0946176218745588,0.137152858283486,0.180061697661752,0.223586635716473,0.267928865280195,0.68099219486266,0.681778355265618,0.682567444864843,0.344610944060101,0.306027130007334,0.271077778516785,0.239476256664696,0.21087161702615,0.188251734157941,0.166552992056232,0.143750440140273,0.119816776866971,0.0946565751644786,0.0682378539496475,0.00350398453528493,0.0035696147015616,0.00357902382877529,0.00355790648582827,0.00350815498403661,0.00349886685777072,0.00349262917035578,0.00349257856617279,0.00349485274616349,0.712857826444378,0.714659819057028,0.718115989744703,0.722653654919086,0.727933335050011,0.730420373006805,0.731016954912893,0.730867333387935,0.730000669176913,0.729951830096919,0.729911916839789,0.73078095105559,0.731645901592243,0.733431951533497,0.735197458599427,0.737704337810526,0.738937973131918,0.740703361868897,0.742532765018599,0.74441468768187,0.744942935531638,0.745784527628757,0.746982403570661,0.74862079097485,0.74988477970311,0.751366919796566,0.753707979612095,0.756186010185903,0.757783636340605,0.759302078324691,0.760667362770123,0.762060363405042,0.763265140786472,0.763967244166036,0.763895790305098,0.159446666014304,0.0029237445156024,0.00322122533453118,0.00329810467630378,0.00343890035510888,0.00357606934939834,0.00364235436469337,0.00357415008803165,0.00345356023034442,0.00333885881317418,0.0033323712891735,0.00323062354835612,0.00347936922082798,0.00365447383266639,0.0979429196495132,0.133039908574657,0.169211068232273,0.206863980649633,0.246350509586479,0.287959640702513,0.33189432720741,0.801533916959801,0.819568198595021,0.81907730933847,0.81902231603736,0.816237528043938,0.815275957717649,0.815423997356667,0.816334682824173,0.816682211747936,0.817323136821769,0.817253197488719,0.47202661557064,0.471314731572423,0.470423754119065,0.469421585431009,0.46932200124778,0.46953274677239,0.470571635673226,0.471471326509118,0.472167660170233,0.839331888996219,0.840535746559457,0.841591706321892,0.842708278970412,0.843512712034077,0.84433389151611,0.845227635907943,0.845930059633215,0.847160066161913,0.848952009680905,0.851135411363635,0.852452402091055,0.852989501983671,0.853279429314291,0.854226361102266,0.854958732483272,0.855651708745951,0.856072117134682,0.857091350017353,0.857784443471683,0.858655271030843,0.859165417020991,0.859870522254031,0.86043339654938,0.861630747326128,0.862823329611367,0.86309085418314,0.863582300565682,0.864227509643003,0.865369423362613,0.866291680111272,0.867435977113741,0.868620516104924,0.870070039490713,0.87143878647922,0.872786577761041,0.87902751706424,0.879665385489892,0.88059616610583,0.881829925637498,0.883980215868545,0.885941830843127,0.887907654528536,0.889635865383626
0.00347665907740908,0.0033873137359392,0.00317810967445058,0.638329000000001,0.217053690235375,0.640456000000001,0,0.00216058425221289,0.00197598649098163,0.00318599540278254,0.00333277474934382,0.00343909855514002,0.138142050212675,1.37928,0.140465460502044,0.00364912483541692,0.0036904913669899,0.00349751478911897,0.00363446996587275,0.00357996678014558,0.00349169325857982,0.00347986821469131,0.00351304098684086,0.0035855046709762,0.161454164349043,0.679670852131283,0.680910694863271,0.681287393830441,0.38703176290814,0.683145582745182,0.682553324343524,0.683004871488628,0.682597281367049,0.6830617054143,0.682900851870815,0.683274041242164,0.683485072810746,0.697832149355733,0.162999509250368,0.00341823150095769,0.155449280587111,0.700727004934775,0.154802501019562,0.00354201647082364,0.00352527166915648,0.003527108963046,0.00349140620266566,0.00345588294339743,0.711990934505546,0.714002727524467,0.71134121256878,0.00366092000000065,0.72328120246704,0.729209400109148,0.729722285067789,0.728579921407976,0.72770028523052,0.728249149035386,0.728145700669251,0.729138880934587,0.729965734406234,0.731843056493267,0.73348004006262,0.736818741645245,0.737157563947162,0.739133020763503,0.741000892479954,0.742381530151161,0.743123292064103,0.743966226735695,0.745550757781936,0.748245148794421,0.749000619508022,0.750136513776962,0.752796169340568,0.755170619785382,0.756713633880275,0.757979345252018,0.759555045159341,0.760754306552128,0.761602952559073,0.762119455214466,0.762253490265036,0.762287726963496,0.00205773780052776,0.00312475883828053,0.00310669842000074,0.777372000000001,0.00359202199445504,0.00367380661877385,0.00352003375542831,0.00336356139672905,0.00309417182766215,0.00324042232787129,0.00257040251449798,0.00324953883102754,0.00349939531278694,0.00363207017452271,0.00388983317529575,0.0036608028392644,0.00380089927628882,0.00353738651740963,0.00351169362216563,0.00338121128542388,0.798675610466767,0.820132081491814,0.81996927924191,0.820751573212611,0.815668376154596,0.815396302363562,0.815895549626499,0.817353879565101,0.817387381778126,0.81840530669194,0.818134904562567,0.818887659262325,0.471018306841476,0.835625000000001,0.468798342518558,0.835568000000001,0.46893678757878,0.837025000000001,0.471237612173063,0.838974157219082,0.839137414074957,0.841680098635751,0.842672401377849,0.843326034310066,0.844456565326042,0.844912557277822,0.846360161168909,0.00322908000000068,0.0969518843250846,0.00363567000000068,0.853514374776691,0.855249289863054,0.854835696374123,0.854679211088097,0.855637234190983,0.857106305797145,0.856688690245161,0.857335262040947,0.857425972132901,0.858323067672219,0.85838178075655,0.859258773835656,0.859315637406933,0.860280995334145,0.861226917469616,0.863867585865048,0.863042936874627,0.864499791911791,0.864291905702919,0.866007567404819,0.866071920099481,0.867740016128513,0.868375634474086,0.870510636101729,0.871572856149121,0.874482615117138,0.876172661416784,0.877741829792937,0.878419171658601,0.879917231273207,0.882662252723445,0.884231353295456,0.886524212654484,0.887463270051891
0.00340996565885752,0.00323521052887401,0.0028200238820623,0.00192947123606047,0,5.81910836911277e-05,0,0,0.000238047413676857,0.00216727421535707,0.0996626080884054,0.145865957415769,0.192228400209025,0.249914357859768,0.203441609683718,0.156663073308745,0.110296249784517,0.00347383794277764,0.00360274713651231,0.00355114243678494,0.00338451022321429,0.00340413372698334,0.00343547435976081,0.00346890647126291,0.0958630410494331,0.141144310626989,0.186441537252853,0.231904617617346,0.277741389971938,0.681460682221114,0.681510913659638,0.681585982237897,0.681727986142632,0.681934910216835,0.682377225772273,0.683149131192606,0.683957129160019,0.685642740113291,0.68727647907458,0.68964093198304,0.692048049557061,0.694742337783036,0.698352586102902,0.70177330137813,0.704699102137447,0.706319523943391,0.708518838721234,0.708810268363068,0.709279106631822,0.708542157293887,0.708776885821528,0.708299566710597,0.708408044171453,0.709931897451026,0.712680571714007,0.716623862894481,0.721366664088981,0.723939174062047,0.724683501221719,0.72575256049014,0.726663604063322,0.728152794716699,0.729757198968558,0.73281550827755,0.733652149075343,0.737846300039289,0.73944174593908,0.740096886002576,0.740884859861851,0.741547384332008,0.742839328944311,0.743750098908421,0.747618970272756,0.749980835736038,0.752057358155451,0.753476066100022,0.755882589088636,0.757546523722953,0.75879200275397,0.759304273784152,0.760153819180122,0.760592395826406,0.760641518074864,0.761171074650392,0,0.00218822041413158,0.00287259219033354,0.00324856185439087,0.00345426349233005,0.00353218877181591,0.0034266069617431,0.00308424677194392,0.00258794551193563,0.0019063630000771,0.000711519055176479,0.00239205660132165,0.00327181460157149,0.0037193570117361,0.00403624126361622,0.00402658808086988,0.00394986740507751,0.00366201771569258,0.00356546312134734,0.00349850386927438,0.797007134971641,0.799237831968373,0.802440041189985,0.8061880846158,0.810305939033686,0.813796302917867,0.815276345675152,0.81637521391496,0.816986435343978,0.817615513646899,0.817946272852136,0.818331594916181,0.470294417058233,0.469394037984889,0.468691641236153,0.468413132850416,0.468803408535212,0.469602755319046,0.470694999726285,0.471168924480525,0.471443067623549,0.843497495426975,0.843992213877665,0.844839139869793,0.845975155472376,0.847388405022581,0.84892198514161,0.85276494419149,0.854385537955834,0.855119990791309,0.855217847768306,0.856558492090477,0.856742543714499,0.856963645870162,0.857148007803392,0.857171727190693,0.857492580664588,0.857489052661585,0.857943835583602,0.857914730289775,0.85837699085006,0.858383821555671,0.858965762395205,0.859295812368003,0.860196663595858,0.860916834491126,0.861661758358713,0.862344871965891,0.863229569835976,0.864186522133374,0.864907552111622,0.865795457588229,0.867209426887663,0.86884447486111,0.870407627623039,0.872200486033523,0.87381400151721,0.874979455079962,0.875804054494367,0.876073171753067,0.874732319527409,0.657159811944695,0.657176305841879,0.657196680083736
0.00342503424155229,0.00341098140890449,0.00309290356933603,0.00307035229114018,0.00197164934308306,0.00286965754890952,0.168881598556043,0.629483000000001,0.148490342974773,0.00315170631072484,0.136343170766906,0.644894000000001,0.305913137139981,0.646825524752146,0.647068911170306,0.647784037573863,0.160875178757573,0.0032231600253617,0.149284957809828,0.656630999999714,0.00309505614791083,0.00334123812543478,0.00333807447330484,0.00336594517675669,0.00338276342549516,0.00335767189294258,0.00348683640406748,0.00355697154209218,0.159601715249227,0.679726384998687,0.680446194974734,0.680102512733104,0.68080129987619,0.680573581763739,0.681579652788301,0.683151871266248,0.683885936498753,0.686162511097876,0.686928618730199,0.689464024601044,0.690806416486767,0.692107327903669,0.695762725282716,0.698809313104838,0.701383999453619,0.700573973807574,0.704702705695974,0.704727620565814,0.706264060869972,0.707086504559333,0.707101780599411,0.708209036617041,0.707946713578272,0.709571634341244,0.709492712850208,0.711061842681433,0.715221824937782,0.72118742618839,0.721217052243532,0.721963980554639,0.723179614460494,0.723910006013212,0.72492820645745,0.724440523089766,0.727111220876987,0.738924573216855,0.73864781049941,0.737226118611223,0.738839405624657,0.738271528820452,0.740457044288734,0.740131239724733,0.181457373601965,0.00289675185633655,0.157269216428348,0.75077442054544,0.15593585446881,0.00319603861342729,0.188425245807328,0.757420042145259,0.759007507581288,0.759340184196658,0.758491415041006,0.760500684561632,0,0.00273263158112982,0.00294455003160044,0.00337711933691133,0.00337788175661467,0.00350987521867165,0.00351994917447294,0.776687000000001,0.336261803899904,0.77878116960565,0.777737790731378,0.77934646884227,0.165976709091719,0.00364623188539137,0.158882265555712,0.781381812459391,0.147808223074972,0.00344104903937922,0.00352170842711607,0.00352489337137663,0.794120421936452,0.798954530637969,0.799936424455584,0.801369993151557,0.80575691152291,0.814235840270579,0.815100644298419,0.815796509466728,0.816623996360504,0.817069895450289,0.817726423881786,0.818154980629037,0.150211144586586,0.00341453171123385,0.00351376129309951,0.00358328230161275,0.00358347863314029,0.00358787920829673,0.00358880044266259,0.00357771729904653,0.163768543089015,0.844773622073319,0.844930143253667,0.845985215956538,0.847234627926336,0.849748418120455,0.849233663442567,0.854891445180314,0.854990172299708,0.855529155936632,0.855469732737915,0.859094555337628,0.858452342727554,0.859650609066514,0.858509458294898,0.857556875860136,0.858138280646445,0.85798806903372,0.858329913496151,0.85796128794135,0.85811945353888,0.85797778786893,0.858109914224157,0.858831643732265,0.858597976938351,0.859026411631989,0.859686730394768,0.861001842951547,0.861569310575082,0.863526929488528,0.863125935235521,0.864158401104398,0.865412478874982,0.868002468693951,0.868659825071046,0.870731876312853,0.871538917803096,0.873089000766721,0.873552035606761,0.874307956420965,0.873712539403796,0.00342864000000068,0.111624644813479,0.00346550000000068
0.00338909216643947,0.00334386793734364,0.00319966443337569,0.00319190363969095,0.0203405192002691,0.151780841639917,0.21524468918767,0.301625182769169,0.256706402390962,0.214590170216113,0.173595966975654,0.21666578794052,0.260732788672907,0.64626001349865,0.646672761767622,0.647157953622153,0.647356967231509,0.647565760741162,0.647484911268166,0.647409748041607,0.0029040585998727,0.00314454255966644,0.00326280605300319,0.0033333378778506,0.00341668384008703,0.00345300911540046,0.00352528769166202,0.00357427936617799,0.0913636841125792,0.136740568837281,0.182276509920495,0.228025739835293,0.27406554744366,0.679096931840558,0.680220356567139,0.68139542454265,0.682483422125506,0.683830708214332,0.685062359587563,0.686770892275635,0.689105639550634,0.691341105320281,0.69439880448052,0.69686433836381,0.699074449574194,0.699913137020508,0.701969511185827,0.702441348494559,0.703154373838935,0.70382405002956,0.704357406062498,0.705252228036581,0.70587969368572,0.707182246932708,0.707921758300484,0.709517165426709,0.7119212158576,0.714367458732391,0.71674678176047,0.71870954390803,0.719772221878755,0.720657899931479,0.72136028628634,0.721559307491426,0.721659843444917,0.72052967556056,0.720193575732846,0.72043089289118,0.720261258874206,0.270389088223568,0.224784303480951,0.179885569045755,0.135593897870182,0.00209331004074232,0.000432578093272328,0.000892944910315249,0.000743598340574332,0.0023002614935829,0.142133511271017,0.188425245807328,0.746050598108976,0.750138691971421,0.753492142471254,0.753067188437264,0,0.00219129208040235,0.00278203622553851,0.00309899330382809,0.00313120586908174,0.00337379892634121,0.00349462066350379,0.151389184738553,0.292104504277735,0.774322981519559,0.775059103726196,0.775620010884481,0.774990491363391,0.775767294113514,0.777019269042696,0.779141151464785,0.779204298827434,0.779884242087541,0.780060091420849,0.780687859592639,0.787195843272099,0.784594303914773,0.783387612063039,0.363229544305024,0.320962275769381,0.282652175680232,0.248032993821379,0.216723345238199,0.188241374625697,0.162024606358008,0.137456046971942,0.112650735509176,0.0884896966038998,0.00353843814705133,0.0035401782807416,0.00353920865302378,0.00357262452093619,0.00359909419673582,0.00359003068889994,0.00356704017850023,0.0876021029001154,0.124780795216162,0.162695348820879,0.20172284537933,0.242231692750663,0.284517166366651,0.328785330655687,0.760291207037933,0.760288273434883,0.760285135912531,0.760284578795033,0.760286751361974,0.760289127848218,0.860252942924369,0.860056983544065,0.860029974600263,0.860098906827919,0.860212483210848,0.8601777680599,0.859973996925876,0.859055241377788,0.857884292270229,0.857672473143376,0.85714735975126,0.857428608113218,0.857203500822975,0.858193007148854,0.858606208050321,0.859654005595881,0.860129781074663,0.86099343067594,0.861435447971349,0.863272183325134,0.864735396798295,0.866376160810612,0.867629314439761,0.869225077647953,0.870424028910428,0.871554059294119,0.872290783908637,0.87252452275149,0.65791600793237,0.657932726736739,0.657953506435252
0.00338226690738785,0.00345229418104358,0.00332252084678544,0.00342757664656032,0.0225376831396041,0.624950000000001,0.261828239874974,0.628548000000001,0.301625182767671,0.629733000000001,0.127592894966136,0.00359836000006177,0.160870217954178,0.645353986427857,0.646277259409878,0.646854449167078,0.64736066486639,0.647882806774748,0.647603361389232,0.647517334562346,0.0030984708712087,0.00339009259735122,0.00334146226735726,0.659312000000001,0.00348521863196812,0.0034902382002964,0.00355909669361551,0.0036193388543096,0.00358019271362114,0.00351180045249289,0.00346176480971372,0.00336679176688151,0.177010455539009,0.676491636473812,0.678820867249911,0.67974056677545,0.680967360331471,0.681714724730436,0.682897724560256,0.683419691110189,0.687303056715123,0.689312411283397,0.6928019749161,0.694363316769155,0.696929423945259,0.696950981364283,0.699482883288031,0.699154643721394,0.699932298535982,0.700554638198363,0.701473384368398,0.702546597772131,0.703556667667979,0.705482727390733,0.705754545194471,0.707135440705036,0.708639226947326,0.708217468135222,0.712874387464937,0.71603568985237,0.716839996732539,0.717243065270202,0.718551038304827,0.71877528714307,0.719791477532677,0.720304684468498,0.720461701278016,0.721532411802967,0.720819562284572,0.00360831000000067,0.10155894886301,0.00369365000005497,0.0922696489465166,0.00306345673974569,0.00202020390572344,0.00270534079755672,0.00212951802305211,0.00311067310651146,0.0959743387369646,0.00355182000000612,0.742608240771985,0.751232981680001,0.752463192087588,0.752842304989974,0.00196224528069899,0.00324916559953717,0.00294897697966731,0.00312529322094417,0.00271918390057355,0.00329645001960501,0.00343728019051938,0.0036266480492823,0.250020061578463,0.771722038354712,0.772482044776662,0.773121375385904,0.773747967555256,0.775504054964677,0.776442411144412,0.779258996250624,0.77918013370041,0.781168174070375,0.780617271050761,0.78225887924934,0.783642118502341,0.783904638979764,0.783059519358698,0.00340103000000068,0.108104005720405,0.00347280000000068,0.103166313926839,0.00352489000000068,0.0966113735769681,0.00343479000004994,0.0923278788939192,0.00347794999977758,0.0653280146235268,0.00365763557772977,0.00356351288377781,0.00345584759908253,0.00355679662995949,0.00363548955033865,0.00358598254031373,0.00351744769325898,0.00355133590798617,0.00350865557057895,0.00351968524673271,0.00352469276282099,0.00338255749042227,0.00352681107986467,0.1494971251396,0.843328000000001,0.139812689039892,0.00368716722319451,0.00376072784874958,0.00354219046021535,0.219520197197006,0.861172716052609,0.861292675156463,0.862757615684751,0.861715852249601,0.863109458189918,0.861774834971929,0.863379119235428,0.859708831478852,0.857662606821293,0.856903880187665,0.855627055367282,0.856043238934059,0.855262029127205,0.856517417743774,0.856758550178617,0.857565950027634,0.857552256061646,0.858572796439527,0.858484196556961,0.860841152496727,0.862355130504425,0.863891983461637,0.865084714956117,0.866831238933972,0.868525065641776,0.869696848943561,0.871252959225573,0.871688010063918,0.872776513318567,0.873272265420215,0.874442724309716
0.0351216963367369,0.0330501352159539,0.0307358463096725,0.0284021045592959,0.0262815190031347,0.0285023172117429,0.0308842136994972,0.0332614587163005,0.0355422051124949,0.0374686458438919,0.0386046970308828,0.0297029886427192,0.111247777337272,0.156808313631263,0.202599000945942,0.248658665473047,0.634138915853299,0.634587576506467,0.634199238542473,0.154902196674878,0.00333045763590345,0.00339373099775354,0.00343702828472939,0.00351920012238441,0.00352192696943921,0.00352304515597431,0.00357589083275163,0.0036153108447168,0.003587744597198,0.00353223030235545,0.00348794518733063,0.00345148572582065,0.125396749919295,0.171891493128352,0.218386238830744,0.679053938483676,0.679935418110636,0.680694337587532,0.681442572198124,0.681729602149244,0.666027004607361,0.666045407729373,0.666069223870661,0.666082081709433,0.66607624666257,0.666058060270754,0.666042779976029,0.696241365255364,0.696807081467244,0.697241406298188,0.698308592028857,0.699184946712219,0.700229513372242,0.701095128859321,0.702583473020189,0.705499750713298,0.707392191574971,0.708566827723231,0.710401650666057,0.712280826730977,0.714029205271413,0.715479285105679,0.716544051903743,0.717362753468571,0.718460905073587,0.719587891301822,0.72012093300605,0.721091523401199,0.721049100128752,0.461733537604375,0.461281483496901,0.460570126700357,0.459866621331025,0.459379617120184,0.459210709476547,0.459385702439412,0.45988080050637,0.460594270440172,0.461315015633919,0.461772765521587,0.739836805237558,0.739001183651204,0.738704505665918,0.162550410417166,0.00266424746652555,0.00295274908389526,0.00268626706640069,0.00234269872040202,0.00151146886892342,0.00262066649743115,0.003220240128431,0.00352197801032429,0.209752031717887,0.769583095377347,0.769997543797488,0.770512015603805,0.77148931452079,0.773662694098539,0.774260560446966,0.777063072157299,0.777421439621312,0.779251311699127,0.779613321701105,0.780708018363018,0.781671857571013,0.782457365767674,0.782518146226218,0.364198711043846,0.321896704243254,0.283518568296232,0.248800584789704,0.217364639731721,0.188733216247453,0.162349589434909,0.137602681281095,0.112760904597925,0.0885627878227512,0.00364609054513403,0.00359691225905825,0.00354950134709908,0.00355454474885253,0.00356023478241715,0.0035789475658366,0.00357621098303288,0.00357999253666915,0.00352491679511223,0.00345628600617959,0.00332874978991204,0.0030648422705416,0.00309005621001599,0.00296434222116822,0.00338302572106733,0.00364852054653212,0.00374025453344974,0.00390812963344769,0.127738569095495,0.17333757888335,0.219282906259406,0.265428012227986,0.861609312365739,0.861191117037017,0.860978322027539,0.860892065225907,0.860782147632215,0.859355478590904,0.857974849186298,0.857435162211752,0.856734638260438,0.856814063874544,0.856641964034879,0.856981254514336,0.857011038873422,0.857540328963714,0.8575735149623,0.858536933510368,0.858937030330965,0.860470955160652,0.861423816732323,0.862827245350755,0.863674779194359,0.865343538278102,0.866545974416253,0.868044462269227,0.869201737064156,0.870501270781101,0.871693686861576,0.872627927919771,0.873689067376634
0.607846326961431,0.60906578835892,0.609853958701734,0.61030112689639,0.191852663792886,0.00354460000067609,0.00374290220487952,0.00385599992234826,0.00378375088519716,0.00363224353186838,0.00374006239960241,0.00374279389996554,0.00367132297642378,0.00355951892341146,0.0957419229131546,0.00345202000000847,0.634567297601397,0.636284123670096,0.634725757480261,0.00379333985733623,0.00353140325615121,0.00344126616870116,0.00349318730525196,0.00357213172288359,0.00353041491720961,0.00348024421162297,0.00357728805135621,0.00365395580090059,0.00359425948696891,0.00351783459552914,0.00347377364352376,0.00348163087966718,0.00318316581290839,0.00329570980309417,0.163509179512961,0.677470391519382,0.679032866115842,0.679682399151134,0.680487976762943,0.680344596512732,0.163039236493247,0.00336588779031897,0.00342319069696939,0.0035817615391661,0.00357121666873839,0.0035769370407706,0.231918957909608,0.692859165197252,0.694008268081255,0.693249501358526,0.695536683806227,0.695466521499452,0.697251896251053,0.696446766470016,0.698369505818852,0.696514931281002,0.698050267546514,0.00332728000000068,0.708131715859219,0.708531614074718,0.711780579275807,0.713825568543164,0.714979365473181,0.715415486449425,0.717307665572792,0.719404629451434,0.719752658930506,0.721775001745311,0.721519891142079,0.723709019137941,0.724266780697609,0.726209626660235,0.727647536573833,0.729015645244186,0.730200866341047,0.732213054088773,0.732449700146321,0.733149690254418,0.735085579621735,0.736989389990855,0.738444532971877,0.738986840667617,0.739057940895053,0.00360486478511437,0.00316088886341929,0.00325831265829261,0.158611628871607,0.773683000027841,0.757342818751143,0.762150066469752,0.13458034821377,0.00360191628483488,0.170935144525025,0.767032551032001,0.767460131599911,0.767493790442657,0.768203618885445,0.00352604000000068,0.770331641874404,0.777621825151343,0.774552705879518,0.00331844000000068,0.778535065673034,0.779674466018793,0.780451558265757,0.782027665713763,0.782603640156181,0.784563860024504,0.785261133877133,0.786745079338302,0.788427646038819,0.791043562135627,0.791539707034177,0.793309205025716,0.792930868233377,0.793805300513491,0.15932300245747,0.00368032612833454,0.00362173133900299,0.00358369432071706,0.00353429494111643,0.00345212149032604,0.00355289065912609,0.812849000000001,0.00358291738034421,0.00346892770261273,0.00334148392954734,0.00319970042087517,0.00240856268104275,0.00273730933057955,0.0022734156553529,0.0033164457270556,0.00353640291123369,0.00348827834966635,0.00394100515654785,0.849996000000001,0.125960326574689,0.00357028030246329,0.158836471430879,0.860966989957619,0.860355795720186,0.858950368332627,0.859863024253973,0.859863879543855,0.8586400458627,0.857987898280035,0.857677309223708,0.857789754253058,0.857241662015647,0.85846103805146,0.857029264393457,0.857909431114546,0.857208090311424,0.857927607035973,0.858245394063877,0.859533096954241,0.859903355056486,0.861224545107508,0.861637259172795,0.862431405110378,0.86378972324929,0.864988730292912,0.866401563858573,0.867422891736656,0.86930064237359,0.870989016952611,0.871821097565669,0.872870222521639
0.607235917611626,0.609179036851251,0.610144387960693,0.610757564358256,0.237981464773301,0.150366952633113,0.00258282943308738,0.00355086886393796,0.0037224210404317,0.00374257045135701,0.0037956918772097,0.00372417068296429,0.00368345504251875,0.00363688126410621,0.141811927665908,0.18807267323129,0.633801552877999,0.634279125162798,0.634237728912796,0.357443392291957,0.314729219275819,0.275551938312402,0.239697664803977,0.206864525848307,0.176679433164659,0.148717111928919,0.122520836698924,0.097612893266077,0.0735205314352292,0.00349861114205312,0.00336376569458005,0.00316149547388054,0.0027890849123782,0.00261050014065893,0.00158507991399379,0.000506198276730247,0,0,0,0.0010185269882221,0.00215079002748275,0.00300517712029825,0.00330104226529738,0.00346204209605263,0.00354294827436274,0.00358998143082356,0.185856353746072,0.692344982610636,0.693125291347722,0.693698912069709,0.694996979381496,0.695921467601567,0.696746801270552,0.6970795790597,0.697908112002521,0.698216768583692,0.699527867010353,0.70188226709963,0.705479929435755,0.707810790641855,0.71054216611961,0.712910168496836,0.713880972948374,0.714639097693416,0.715699646166358,0.716786536772676,0.717609147929206,0.718565003922019,0.719510446122929,0.720886650289787,0.722671843454756,0.725573453135115,0.727474915857169,0.728159776970347,0.729316717410506,0.730755882667291,0.731978079100599,0.733378709027612,0.735142134540047,0.736943738965376,0.738197292367318,0.739220401433824,0.739908135943711,0.74127373193043,0.742339822628002,0.743439292798231,0.744451820814197,0.750639379424149,0.752677518405484,0.752225949360359,0.180945466242816,0.0908574388099082,0.133117276793558,0.178961604697314,0.765361091421712,0.765535185872942,0.765727390959287,0.765452621373901,0.767219275733766,0.768034265724653,0.770129701975785,0.0966467527592736,0.776766831714369,0.777546380141804,0.77857545146258,0.779918850686062,0.781412839852755,0.783303274685488,0.784451574325784,0.785912081677375,0.787442460866278,0.789207907090237,0.790215431041215,0.791285105168599,0.791646771405067,0.792017515820777,0.279763241745923,0.233988628375496,0.18874444748011,0.143913712262586,0.0993749697377222,0.00355754025798431,0.00358830751755918,0.0036017747534593,0.00359257859749824,0.00346831777550463,0.00311407314178418,0.00234167530518323,0.000635411816868629,8.18630686928714e-06,0,0.00231119945201716,0.00340414039295032,0.00373646907327742,0.00405101099312239,0.00413650604512865,0.00405896027200009,0.00379660179419503,0.107937421723902,0.151293311022635,0.195199908624799,0.239825291496819,0.285289736204139,0.856716975555798,0.857571923273568,0.857826039840228,0.857960604626756,0.857790391934603,0.856610605274199,0.855769471038432,0.855727328476599,0.855774449860851,0.856617192665699,0.857249035679194,0.858242779312743,0.858889429330251,0.859616696482105,0.860010231509766,0.861150571217364,0.8618902805125,0.863231789872682,0.864125721004611,0.865690367777343,0.866931591943177,0.868549872490317,0.869912925894529,0.870866905331263,0.871623033263415
0.605648894803328,0.610209478158359,0.610723874778208,0.611791240880637,0.284202754603373,0.613710000000001,0.000932657241653183,0.00281973535982952,0.00342457498790732,0.0036379193605535,0.00383512626702934,0.0036234652522424,0.00366133929862474,0.00364219146056369,0.188072673231102,0.631635043328846,0.632808035151957,0.632981194952512,0.633948766655426,0.634075447018687,0.635819523684637,0.636653444860562,0.638004784367196,0.638428209668179,0.640936402306859,0.644649322912951,0.645656001657403,0.646981103178561,0.127557723216541,0.00354106939105642,0.00324660650326675,0.0029897499345347,0.00226892595142442,0.0028787243425868,0.00181096880705324,0.00235988278513409,0.00114028359887601,0.00221374603387748,0.00118253693702138,0.00252157201192754,0.00250686343314293,0.00317953848042997,0.00328729137504654,0.00339928065037886,0.00352941861277695,0.00363473700486208,0.140115918518444,0.691069786159921,0.692521055986025,0.693374368551929,0.694921091310709,0.696379112786689,0.696759067700668,0.697122052915127,0.697978278120624,0.698794362967563,0.699964190463541,0.700581936125054,0.704173907236198,0.706548134008423,0.709836368226896,0.713184604109132,0.713201902919512,0.713321896767782,0.71428996589266,0.714200691877651,0.715593948131298,0.715187225080394,0.717264976970664,0.717473086961052,0.719850385532088,0.734845309704406,0.728332944392267,0.726620688348377,0.728169818642418,0.729431512187567,0.731389392705689,0.733217833056622,0.735251501254166,0.737461648065254,0.738404317489882,0.739904305165241,0.740412623569746,0.741713247277775,0.742450283390065,0.743553653350603,0.745517939331509,0.748818715415553,0.750768208431601,0.75208071162517,0.227380243250888,0.00340880000001688,0.0922026249330654,0.00356996000005265,0.763207689686743,0.763579616590702,0.763936319452385,0.763709012268162,0.765678319980831,0.767198481559957,0.768219988235276,0.00363585000000068,0.774708072447291,0.775257400703013,0.776836271181493,0.777546715258606,0.780207868141879,0.782609474462989,0.783574534098841,0.784778445881345,0.786423521374977,0.787895518359632,0.789005560838259,0.789769477691407,0.790480388901519,0.790509589136523,0.790860837645459,0.790742936005219,0.791713002214418,0.791761981869997,0.163705153982014,0.0036039119491448,0.00359104901563666,0.00354723143634155,0.00359625382530462,0.00357138674826739,0.158765331085513,0.817413401418202,0.812148500228985,0.812744779842933,0.220071624186748,0.814320000000001,0.0037531858247438,0.00363018157858965,0.00403359284978777,0.00391958871490442,0.00396870574565641,0.00361395256306159,0.00369317410345579,0.0036756902238239,0.00362636180363326,0.00355277630027084,0.16290853739675,0.854927870295033,0.856839787080459,0.857930339103037,0.858327209343688,0.859167265152371,0.855270760596976,0.852972230938379,0.853748289030165,0.853812396115467,0.855498940251891,0.857355835513272,0.857789430071547,0.859363888916077,0.85889648471587,0.859164475174739,0.860406221327345,0.861655909378378,0.862616849217005,0.863220909819799,0.864983331721166,0.866403878497779,0.86790805259616,0.869361624501297,0.870064917066853,0.870524975794525
0.279761009581914,0.243650376681743,0.210434392391513,0.179701328607475,0.150980148037502,0.123748062544751,0,6.92879196609981e-05,0.00287449627355699,0.00369001154253416,0.00403754075549171,0.115960411179294,0.162327826754818,0.209056111973166,0.255419758550905,0.632305275584783,0.632900887336389,0.633541256102468,0.634561477129299,0.635637089225588,0.636745800459658,0.637860918960029,0.638897307988282,0.640013286049344,0.641671524498617,0.643682401964422,0.645357398582457,0.646622695953149,0.174299894238661,0.00341432454914752,0.00298675796961866,0.00216252113272333,0.000530530599996481,0.00119727975987496,0.000613772723316907,0.00150693661653731,0,0,0,0.00114535906363831,0.00217269552940611,0.00294799179958048,0.00324214810497258,0.003398016236811,0.00352053108441532,0.00356900862969202,0.094735732927628,0.121442831454315,0.149104657687416,0.178250095575869,0.209379894594881,0.242948595784441,0.279347075368472,0.318885521105048,0.361780256722683,0.700275969921829,0.700881734323486,0.701895480914755,0.703984920391857,0.706169122742986,0.708922976245906,0.7113510068798,0.71222048503816,0.712786108618991,0.713690785347754,0.714395999358518,0.715129381773019,0.715633888246998,0.71671069238924,0.717665337916528,0.71941084011545,0.721418618344183,0.724371303417531,0.725344959633159,0.727164411656866,0.728966725956195,0.730838583837826,0.733069404859416,0.735136697327292,0.736744076117712,0.738043698796003,0.739355614103411,0.740199460130096,0.741284979687819,0.742254909628977,0.743616636468254,0.745324917004849,0.747654235370236,0.74968187192984,0.751454134812532,0.752603994621086,0.754023483188803,0.756009060112252,0.758212017730837,0.760711680138108,0.76187849622344,0.762690273532389,0.763314960066472,0.764773330590584,0.766235465549156,0.767599719678576,0.76924884865019,0.772264217418018,0.774260299506319,0.77577297535365,0.777224290052648,0.778926734936989,0.78068935507325,0.782049678393572,0.783518634058289,0.785155265648236,0.786856839963128,0.787754453320845,0.788687109964609,0.78970212655386,0.790716133973933,0.791215152363703,0.791795817198175,0.792587310979939,0.793153013611732,0.655382686354754,0.655398171160888,0.655416726240404,0.655423021204188,0.655410623282344,0.655387175828773,0.655368977218185,0.807530130726915,0.808629038674009,0.220071624185682,0.173827871031354,0.127805455937842,0.0038799898651982,0.00394671250562494,0.00417341371792277,0.00416093176356716,0.00405965721689407,0.00378863529766465,0.00374491285040912,0.00372014293150099,0.00365215926540925,0.00359145719758297,0.117364342850355,0.154664784238544,0.193184290654409,0.233299248734421,0.275315972204286,0.319449352615384,0.852608677058244,0.85261784371011,0.853173332931256,0.853786535553728,0.855166454177621,0.856549637637481,0.857289536794458,0.857920469478446,0.858536031027995,0.859194503376035,0.860610604999089,0.861946177993404,0.863060716646611,0.863785826910406,0.865043090649775,0.86621102951317,0.867503970545908,0.868678896528695,0.86955016445801,0.870250989700769
0.00253100049661357,0.00209063625242464,0,0.00198428258455732,0.000202676215073656,0.00221838448424685,0,0.614800000000001,0.0031353644794856,0.00359419596724288,0.00398577601219092,0.617952000000001,0.23851729112486,0.621085678839682,0.622086031609008,0.632429019530401,0.633016069638313,0.633768306571815,0.635162407718442,0.637193731233316,0.637690399016915,0.639152038110817,0.639678861432599,0.640979536833219,0.64191056867194,0.643005922604216,0.645462958020977,0.647545496358069,0.220715720332217,0.00357558556014053,0.160791726942201,0.653087472096185,0.654118238303494,0.655400769272033,0.16706955680642,0.00316509701536819,0.16428398887684,0.668393573149938,0.667749475559854,0.670461662876643,0.129160424404212,0.00317231324608287,0.00330628198670703,0.681276000000001,0.00355732256643295,0.00353084287855736,0.0640743435951383,0.00357578999982277,0.0908917262029438,0.00370004000004267,0.0960549576184338,0.00333011000000068,0.0975680512022307,0.00351575000000068,0.302742777610133,0.701101838131011,0.701362411448305,0.70207179220416,0.703740081683276,0.705127766884435,0.708414255973501,0.710971500866015,0.71167051157192,0.711716572556768,0.713498901413712,0.714306145268499,0.715169852233626,0.715246358098722,0.71663667124396,0.716994335952145,0.719168488781209,0.720739447923647,0.722766618370913,0.723161343006823,0.726369975893366,0.728290995824352,0.730012888244566,0.00345108000000073,0.735582958541195,0.736286962151277,0.737866313336926,0.739266560250677,0.740042703143454,0.741049026735501,0.741998008411121,0.74347905490045,0.744841660222119,0.746986831770258,0.749137076490332,0.751590001562122,0.752457387419541,0.753482052507357,0.755834561873323,0.757900260429868,0.759674105579438,0.760438332866169,0.761844146193187,0.761967805635569,0.764212649117458,0.765322891930264,0.76707826377878,0.767921190329815,0.771218976500861,0.773502248956146,0.775186042190227,0.776216261466041,0.778005996477456,0.778645370014333,0.780823576482835,0.781528685354057,0.784226027174286,0.786073370035268,0.786851967693461,0.787038634311651,0.789243305064866,0.791084275345628,0.791692283234305,0.792445383935601,0.793750874364719,0.79546377484413,0.796392559607208,0.797001463692661,0.799418887937315,0.80149432816392,0.8034889318466,0.804903695562786,0.806049543376973,0.807099372046016,0.807326159837376,0.00329185367567789,0.00230600180770705,0.00314696893018222,0.00366513527612044,0.00384708099004924,0.151117072678221,0.822571000000001,0.14252374303482,0.00362404446888989,0.00372984132481257,0.00379325440472838,0.00367241429529663,0.0035742694309902,0.0816774236658486,0.00322610999989737,0.0853431161414143,0.00336176999993206,0.0960534760168531,0.00359452000000545,0.84996882134647,0.852060374868222,0.852149453934019,0.853694822274866,0.854238679195415,0.857309115898679,0.856237007232819,0.857499515118924,0.857525681381941,0.859411619748509,0.860426348297032,0.863187506188263,0.863542131107425,0.864295140407991,0.864974783185607,0.866128616327949,0.867125124225581,0.868364506186734,0.869188143137861,0.870035313782921
0.00206739993650198,0,0,0,0,0,0,0,0.00211420918083994,0.00318925673156476,0.00360772891185594,0.138237109100106,0.192210047709306,0.622554187700133,0.623080930032338,0.623907564603699,0.543619789821292,0.543211521865672,0.542584776791637,0.542030053797316,0.541802813592613,0.542004810433822,0.542537312658077,0.543147539705496,0.543547006825458,0.644886638780952,0.645938872548928,0.647132192518758,0.647898677143245,0.648762720247194,0.649999682350178,0.651645087066619,0.653754197874009,0.656343273362521,0.657969410329677,0.659345750887086,0.661077501421023,0.663898156534147,0.664394467328545,0.663260897343389,0.175522805052227,0.0034612196875138,0.00347728942920908,0.00353868188896793,0.00359031046809229,0.00361883324003597,0.0807205787590305,0.104234375841646,0.126128639547005,0.150843788091969,0.174204706620918,0.19641391243749,0.217643158841592,0.237905669623636,0.25982093364816,0.288144227977657,0.320411043922461,0.357097869538498,0.398537181786743,0.70701442880058,0.708577205012937,0.710277273251446,0.711666653704799,0.713053632986935,0.714076505302438,0.715021680547352,0.715719448728239,0.716565451687611,0.717323540486998,0.718309747111456,0.719460235252387,0.720859649774569,0.722731566634059,0.724515880320738,0.726660745356016,0.728779586855983,0.730826884156648,0.733351391896848,0.735320525938871,0.736702908232283,0.737835187772207,0.738918469992116,0.739726874657842,0.740648115934002,0.741443028476963,0.742644884577156,0.743933812234029,0.746297351779036,0.748564639861307,0.750538650085424,0.752224452193027,0.753821816088081,0.75590644936869,0.757953833951835,0.759540173655174,0.760881690166739,0.76210814064607,0.763180284891041,0.764576019813509,0.765947215683851,0.767270196807561,0.768705601324675,0.770882145236071,0.773079233375464,0.774767464788751,0.776478733170234,0.777622124265799,0.778897244967312,0.780389911878775,0.781987685284545,0.783458982932995,0.784940941723718,0.785900359302585,0.786941195479488,0.788606642090106,0.790398684600294,0.791633827515705,0.793068895020701,0.794308115148432,0.795816056080133,0.796676020717866,0.797805242824292,0.799763223955499,0.802325418493349,0.80392668386163,0.805382052469327,0.806269397540874,0.807159394558906,0.80733237999681,0.159627912071968,0.000622084682753132,0.0020306173884252,0.119966979474376,0.165616208780234,0.211608450895179,0.378174637259948,0.335994135275864,0.297892441259045,0.263667305545214,0.233024518421745,0.206769427544262,0.185349134205438,0.161933404926869,0.136755792222861,0.110168098232993,0.0861983436412458,0.142237148126528,0.188537397135534,0.845691487704122,0.851037042792341,0.850001766529963,0.850188471325347,0.851461267617929,0.852800790497493,0.853697441840097,0.854436335474755,0.855540927662859,0.856822263609526,0.859261122004266,0.8638934037837,0.864129358782778,0.864256171165744,0.8647371410499,0.865600594080214,0.866612345698093,0.867726287814108,0.868814567744036,0.87024725195562
0.00314225621988764,0.601990000000001,0.177433056021673,0.603857000000001,0.178650583928115,0.605122000000001,0,0.00172238596065681,0.00168048825411414,0.00275787578234379,0.00262795422956974,0.00315423353076413,0.145950609129713,0.623490514124587,0.62376654217208,0.624721021553001,0.147727166342215,0.00330159390028553,0.00285615796995936,0.00331393678842159,0.00319370414502995,0.00341663050275387,0.00339764071642687,0.00337697302272996,0.183027384298951,0.645696804628636,0.64625765817701,0.647116882071232,0.647759274942758,0.648327545484988,0.649493275171979,0.64960010279885,0.65275795019478,0.658182983138017,0.658215546702287,0.658915796152344,0.660565124441614,0.66127512909668,0.662657903739832,0.662141550584315,0.221985948748449,0.00372129752775306,0.00357850773910242,0.00352483617005977,0.00361628901316754,0.00371233939690681,0.161998464980701,0.683791076624266,0.683931558671542,0.685748205779915,0.685832943270618,0.687019733198295,0.686910547451142,0.687570686997405,0.219190760504303,0.00349569341930881,0.00354337434568827,0.00359275798553922,0.154560704170399,0.707297180916948,0.158908372018553,0.00368495232965989,0.182728556310982,0.714650483054387,0.714858633172132,0.715787014349445,0.71635531994203,0.717681124642815,0.718084965136501,0.719191059249958,0.719888645983457,0.720323366147952,0.723096593284219,0.725282965401799,0.727112163194615,0.729160200466643,0.731234187956747,0.733857913696,0.735719155228951,0.73733539441333,0.738075661206747,0.738897680695368,0.739707227151508,0.740636373815075,0.741136682090948,0.742245604369147,0.742770605969928,0.00344024000000068,0.74884612378254,0.750031002408556,0.752285293848153,0.75370436718294,0.756108860006231,0.758392742043003,0.759765592165896,0.761298491858936,0.76277426812346,0.763843680696206,0.765262593774515,0.766328766984327,0.767676692131118,0.768398245248511,0.77086447446925,0.772677648985934,0.774700434589253,0.776691614586444,0.77751254253741,0.778224123044834,0.780282504414844,0.781824071173113,0.783142838121216,0.783596664840323,0.785344694322894,0.785554279808153,0.788285274776091,0.789725624349961,0.791729069780978,0.793512284665431,0.794812881132931,0.796654141298631,0.796765158830751,0.00357674000000068,0.799583874513928,0.804030074184118,0.804412983787334,0.806285081176814,0.806652693349026,0.808270376131522,0.80836897427277,0.810929365029756,0.000749106552605406,0.00249950817485755,0.164897977203124,0.820178377168729,0.820218945993549,0.821533118817154,0.822590607483123,0.824762660788235,0.825415327093029,0.826861490440963,0.827531170868699,0.828667475669114,0.829480408989643,0.830198162915805,0.164024343089027,0.00365883000000131,0.188537397135534,0.839206712288074,0.841763029201875,1.2134,0.846395938674457,0.845998345186749,0.848210715510358,0.849383986446364,0.850872334341879,0.85177336899578,0.853065408095595,0.853811230256006,0.855832076111419,0.869428744776217,0.864744628934952,0.864183200128005,0.864115274669457,0.865097540140187,0.865997553223492,0.867143233742508,0.868111753530572,0.87034628519743
0.00303732217953005,0,0,0,0,0,0,0,0,0,0,0.0018437103219028,0.000477333457688672,0.00100148139554592,0,0.00047892792655144,0.00107123605925699,0.00233322480435336,0.00240460361870139,0.00275319971345564,0.00299773537216547,0.00328443429061297,0.00339302630766115,0.00343837017734434,0.128946348407394,0.175497027645238,0.222047710531589,0.646682117530917,0.647653842447729,0.648785083442779,0.649953826784584,0.651167506477661,0.653236835409694,0.655831917066884,0.657763324963313,0.659633612991496,0.660841341407397,0.661995201832405,0.662745308943237,0.663162294189485,0.662527306400865,0.662542866211846,0.66256155650808,0.662568020146998,0.662555790900266,0.662532478663359,0.662514355057574,0.681121842004057,0.682265600194312,0.683891309348984,0.684736284115151,0.685738856287205,0.686148875485313,0.686776964568115,0.181438211303482,0.00355293057967507,0.00353829143899847,0.00351802639035122,0.00351974776615863,0.00353423853578242,0.00351830963513554,0.00353641820846102,0.131397709505101,0.177786526032613,0.233316946358701,0.715509177881189,0.716025107984854,0.717087480433845,0.717837097773737,0.718870665189714,0.72031974816733,0.72227626329571,0.723809132201122,0.725417743300823,0.727124968613957,0.72901674624868,0.731056254159772,0.734571648319887,0.736249222555772,0.737510877493006,0.738257841609478,0.739047967917762,0.739773804794103,0.740586808234679,0.740813431810018,0.741703129176547,0.743163336635413,0.746360699263458,0.748599667179565,0.751547336301462,0.753323901733864,0.7549496194192,0.756402067995148,0.758189625071724,0.759684506964914,0.762623068334266,0.763700329203192,0.764914760104284,0.766018987918111,0.767315652123419,0.768328652545645,0.769578658693038,0.771021663834794,0.772682107302645,0.774097898355051,0.775741850823021,0.776862963684444,0.778366117179256,0.779957390030525,0.781832278588686,0.782911927777453,0.784136616069602,0.785580347808047,0.78722875362141,0.788599230795587,0.790171899707999,0.791522833080165,0.793043612805745,0.794436538982556,0.795947245627868,0.79686540426796,0.79814588310985,0.799614068164324,0.801801415323145,0.803142338960792,0.804538086230074,0.805608929365381,0.806780839008682,0.807142465091232,0.149043594629439,0.00143370743563359,0.00231206799242782,0.210235667803609,0.818402681973731,0.8188970957365,0.819838828080571,0.821452734053553,0.823416378964719,0.824609853558799,0.826008963705106,0.827048701770576,0.828354272287452,0.829557321503886,0.831044631164091,0.832369845605537,0.833654525928345,0.834400500583156,0.838722038194784,0.839828990145704,0.840804799337389,0.843291311154665,0.844614354716168,0.846405644469041,0.847802432197253,0.849202258417027,0.850294343252665,0.851759153361162,0.853164129972512,0.854906996303773,0.857195437670171,0.861472399989187,0.862687497517777,0.862710584024504,0.864771809233206,0.865222770367261,0.865824930776332,0.866159247027782,0.350543859612689
0.0035513984676798,0.00261933501086874,0,0.00213673609989503,0.000265370790966716,0.0015251716546415,0,0.609872554858669,0.610449234603503,0.611185788076088,0.159316209664198,0.00326259748853112,0.0021139538958947,0.00259701281018487,0.00179076508471518,0.00279827223869084,0.00220545344154496,0.00297720511437647,0.146648148840105,0.629330000000001,0.129811750451175,0.00338852681079294,0.00345128603425145,0.00353216654915963,0.00342938555344287,0.00333245941105343,0.165391995081578,0.645252569788914,0.647362195538177,0.649158856276397,0.650299645337036,0.651739954023027,0.65305315733685,0.654038979820936,0.657429503565283,0.66089006766241,0.661246409858014,0.662934074728996,0.663199693873169,0.664469354214158,0.665738406521346,0.670875983786972,0.670843823127452,0.673176613919744,0.673218065696056,0.67521327841072,0.675766224520032,0.677321425302192,0.680137501442533,0.682826346153427,0.683501286203051,0.685048345810017,0.685170681193827,0.686619506348327,0.146015917966966,0.00362073596842689,0.00353419345012611,0.00341874142650154,0.00350680474509677,0.00356665926844422,0.00348742387922466,0.00340802882682015,0.00340485109137328,0.00339168395902978,0.187142598070831,0.714656454360044,0.715271322385952,0.716571336736561,0.717456613062938,0.717868854296504,0.720424184139182,0.72447286035794,0.724543665562455,0.725281862030209,0.727051729071229,0.728747785215663,0.729686105873355,0.737172630812068,0.737204075388129,0.738145553580794,0.738579906250905,0.739413709412672,0.740176333380217,0.74158304285574,0.164319167157402,0.00347115370659242,0.151471304588472,0.748761797555979,0.748202046130755,0.754634457328978,0.754754535414444,0.756435322645642,0.15785960326071,0.00300219452801346,0.258158605258358,0.764190707488635,0.764711754201739,0.765928217854864,0.766820427384252,0.768269451643007,0.76897556377133,0.770149962297816,0.771226609782694,0.772460301844247,0.773639322953382,0.774817146961049,0.776293708619778,0.777847116000185,0.779799327109355,0.78194683282503,0.782951685616221,0.783716321176729,0.786045056567719,0.788487651773855,0.789153083072559,0.790251164912465,0.791539821257441,0.792248736788547,0.794240816859963,0.795541971993745,0.796782819993228,0.797905998997209,0.799119555798587,0.800212227092726,0.801786172758063,0.8027175807126,0.804401774182853,0.805809537836225,0.806204064575864,0.00333996840021595,0.00259806611321043,0.00326241172750279,0.25606376161782,0.816059757852938,0.817103467601586,0.817361090406575,0.820031372190143,0.822741109442749,0.823705753601737,0.825415475254984,0.826410288848707,0.828035825190975,0.829442515640756,0.831929563530506,0.83237299526967,0.833948836301935,0.834886533921641,0.837270394898166,0.838272930468814,0.839420048680944,0.841304337767442,0.842984237656017,0.844794963945449,0.846610366559647,0.847616134830499,0.848934160646335,0.85043375433644,0.85267306643244,0.853614553303419,0.855513710863441,0.854605398134159,0.00355710000000068,0.85959473463806,0.866254925899417,0.864413120565747,0.864817466623378,0.86460773296487,0.0038170000000051
0.259981520254331,0.22220434188556,0.186696859478403,0.152983405133699,0.120508085692348,0,0,0.609984392551996,0.610304041032343,0.610756820170698,0.501292455470875,0.500398808630551,0.498938969748837,0.497451965101107,0.496490968156669,0.496411832900513,0.497231285619079,0.498617865744655,0.500022658380598,0.500894974575784,0.176173365218308,0.00347211167020099,0.00348925836750722,0.00350380026696556,0.00343004743809182,0.0033596293769792,0.102856847219646,0.138128864577008,0.174514834243564,0.2123710545433,0.252025026876293,0.293749723107514,0.337741986748896,0.655574460891233,0.656921445028167,0.658834316891641,0.66012875842134,0.661645801677167,0.662414475486053,0.663647723972559,0.665038933116285,0.667313811090037,0.668534575942875,0.670031332204127,0.671310951577548,0.673755553911435,0.674804438831522,0.676373872652837,0.678156395149037,0.680777640550896,0.681457922537977,0.683909907016534,0.682857767695753,0.160831819364535,0.112322234243561,0.00357350308121899,0.00355357862338257,0.00352805594765963,0.00351951779169917,0.00350323449425507,0.00345642939656793,0.00340709435893572,0.0034119760743996,0.0034230620494908,0.14113957555004,0.187348885159951,0.713745497433272,0.716259327605856,0.717315629598294,0.718011065299438,0.718926587424826,0.718845215636556,0.447381571355385,0.348488396254245,0.307687756410277,0.271876460933941,0.240440483594165,0.216848675412341,0.196855270201831,0.176096762022853,0.15479577222768,0.13275531712252,0.109466741079487,0.0843306724254796,0.0567676894726055,0.00277735182498607,0.00189155344507936,0.000950363476368743,0,0,0,0,0.000388556144750939,0.00201484124126222,0.21252227682579,0.76452882001196,0.764986449544704,0.765835796119769,0.76685594470615,0.768044033755274,0.768817751232257,0.769883962814061,0.770901743512457,0.772159278163303,0.772911540560778,0.774086645817588,0.775431375431183,0.777451033431515,0.779062672988601,0.781137444131846,0.782622430261001,0.784373584917305,0.785725237158945,0.787412868198489,0.788666813481937,0.790268494144956,0.791632486599533,0.793254716047812,0.794348370918277,0.79561792376865,0.796543913846651,0.79765662257091,0.798531897722282,0.799564290159735,0.800668135678539,0.801712279320127,0.803029873441645,0.804210652716633,0.805288581887362,0.806282683917717,0.807912147045812,0.809606524549711,0.810382092428597,0.815290838581591,0.815918233712274,0.81674030718898,0.818386151232692,0.820212624809403,0.821876784002089,0.823691694678182,0.824951922130623,0.826494751669754,0.828054195738077,0.829969223111223,0.831033320534981,0.83247737750518,0.833697754182862,0.8354342473674,0.836652884517551,0.838021110868756,0.839613194490793,0.841570862718578,0.843399138984283,0.844849045440868,0.846023133918157,0.847148701759598,0.848722200762148,0.850389955854634,0.851699382644904,0.853664694731046,0.854084754760687,0.855242742688023,0.857111817597448,0.85906597380849,0.861454909266997,0.86265065934378,0.862905020323386,0.188796906496573
0.591346650113238,0.592423852981624,0.59228005743911,0.593431797916619,0.164274557815363,0.00237742856698649,0.000381406727177529,0.609792161814408,0.610050639849202,0.610796376094162,0.611285196565982,0.612493249807568,0.612832127082507,0.618637553798131,0.618439710371404,0.619637340849313,0.619753493641145,0.620694992227251,0.620885806340367,0.621514314485149,0.222535066228558,0.00354178233155929,0.00353176757304039,0.00356855081111554,0.0034381926924165,0.00332544939170619,0.0683369563439597,0.00337082535838829,0.00341381887371026,0.00345463222054647,0.0034605971506017,0.00349525998108077,0.188011583057481,0.655712727980635,0.65592865842585,0.657259488772664,0.658955228715858,0.660885518087964,0.661281284141414,0.66234584296794,0.663396071640857,0.66464508342423,0.666096064791147,0.667104455668338,0.668355850239264,0.00355146000000068,0.673404588816464,0.67524159464053,0.675408133437578,0.00339027000000068,0.677888837535175,0.686432499460908,0.679576875108779,0.00376107999994535,0.0797125038104663,0.00354052476999448,0.00357155508053595,0.0036148002133035,0.00353525034952212,0.00346685457860675,0.00342511049628376,0.00334878555389249,0.00340884475245072,0.00346224651499728,0.0954290516603833,0.00362538000001697,0.709781567345512,0.717269800025875,0.71750341571345,0.717804385733448,0.718531805107095,0.718892144691141,0.44676011607594,0.00346418477417955,0.00352144998930028,0.00345768290251085,0.00353546544364896,0.00351177814081051,0.00353813402044048,0.0035084776585021,0.00347484602794671,0.00351145138234343,0.00336792852621899,0.00331402693805422,0.00328019969592346,0.00323340605638074,0.0026446945575917,0.00272924383747998,0.001866652682343,0.00247316053096911,0.00113057255275468,0.00204365746345875,0.00129541220766422,0.00268548720035878,0.167581350430141,0.764431290728129,0.764966052080285,0.7654880761497,0.766810325895562,0.768036623947691,0.768445888191197,0.769390488611507,0.770565807598111,0.772240766311703,0.772401352100039,0.773334072321477,0.774830500337807,0.7775851870165,0.778630447793016,0.780680358773409,0.782461201900238,0.784913894107034,0.785403770144979,0.786217419658596,0.788174631156336,0.790047523277599,0.791789397855268,0.794405640829164,0.794559399258385,0.795737731344071,0.796349682671568,0.797393565000447,0.798004038271402,0.798516945462575,0.79974903143746,0.799989768980322,0.801805751447971,0.802231844129166,0.804275619144595,0.805274010068238,0.807716917358739,0.810410273023615,0.81125507195635,0.813702849265441,0.814551365077507,0.815016971616458,0.816710604099835,0.817591242058098,0.820119221001363,0.822267828404252,0.823446736729369,0.824672507598015,0.826536328174958,0.828598510213415,0.829495967268767,0.830982283323366,0.83212682810889,0.834048628957278,0.835138386585322,0.836492991736636,0.837623921227001,0.840399458588404,0.842331263294758,0.843555556621582,0.844423080260389,0.845128354071978,0.846927316277041,0.848687312287745,0.849299383325409,0.00353413000000068,0.853170768853601,0.854897825355967,0.855045549297084,0.00370821000000068,0.859937137648078,0.861476338723627,0.861577950012541,0.862637798849541
