1.09778929907469,1.11975143484946,1.08497903279435,1.08478297206857,1.08479545238507,1.08543834847164,1.0854963333475,1.09740625281417,1.09582515152274,1.09735466507841,1.09588797517231,1.09722504587235,1.08748101595913,1.08881380871515,1.08615114388921,1.08484583082599,1.08562523188732,1.08660434986726,1.08715838928524,1.08830666213671,1.08836425399263,1.08900506664433,1.08941508271971,1.09014218220738,1.09121958622477,1.09221747952842,1.09230369007533,1.09206521782567,1.09386593852203,1.0966610597467,1.1015419597503,1.10310992705479,1.10554162144491,1.1084592079066,1.10548222659599,1.1042715187141,1.1024881204882,1.1007240836368,1.10123699927779,1.10076887985331,1.1038557343219,1.10609430297676,1.1070916617817,1.10976450750788,1.11089748211878,1.11107640521369,1.09324996103081,1.08946726265724,1.08957471524874,1.12023558660607,1.1055800503505,1.21315153821635,1.12955368123209,1.12334296646874,1.12250398288241,1.12214956059647,1.20636993840808,1.38247536051889,1.18899266821534,1.11152358129325,1.18070497636195,1.24490622648127,1.18647540219091,1.1341442351425,1.13396087584562,1.13466018266863,1.13350916103234,1.13441623628627,1.13251134161338,1.13340534123501,1.13206186736307,1.18400496614291,1.16002554991541,1.28542217688001,1.13331527841007,1.13303172020361,1.13400869229895,1.22038138352179,1.13423588446536,1.13488595029009,1.13174256759992,1.10863925452791,1.1036585775788,1.09891162565968,1.09760384322574,1.09529103412802,1.09226684485967,1.09036510501071,1.08790890008112,1.08478529511679,1.08460663429827,1.08334174797567,1.08301570176762,1.08263844953249,1.08116684676956,1.08032126073687,1.07957770570303,1.0798453862193,1.07870156770381,1.07881787434471,1.07755088824047,1.07755885762654,1.07691498044313,1.07737890791114,1.07783867003108,1.0794198916736,1.07966719444477,1.08019173356075,1.08169280752273,1.08246166073688,1.08386131153481,1.08365453096365,1.08497458818672,1.08534727793735,1.08529440832945,1.08297040548356,1.08485983010303,1.08375290240589,1.08438494283913,1.08336672461076,1.08440706608909,1.08457936882161,1.08674005188059,1.0888513877046,1.09017006675533,1.09269323779991,1.09199088372632,1.09269723878981,1.09053115166412,1.08880127554744,1.08848273094395,1.08824633431073,1.08680653100058,1.08486409618493,1.08577138838373,1.08553616338617,1.08630047321443,1.08606822331845,1.08651880564756,1.08585966436144,1.08473215272683,1.08277207747817,1.0827344564776,1.08164243763684,1.08161677472045,1.08083370578713,1.08008217922365,1.07944506359385,1.07810646197096,1.07694823601547,1.07685041241361,1.0764391823933,1.07736511744437,1.07775315054345,1.07885542604555,1.07922888042443,1.08013318242477,1.08026046195161,1.08281568362033,1.08504165155738,1.0875442430898,1.08921707839186,1.09013496839445,1.09038999158951,1.09203792526641,1.09384652249551,1.09443636903884,1.09509923326623,1.09744247965548,1.09979277245073,1.1016641369236,1.10395572852543
1.08779485331415,1.0866191524289,1.0862136684716,1.08599142777921,1.08648432816807,1.08702619975123,1.08844227187166,1.09146203488587,1.09307343571553,1.09320790814961,1.09293198324948,1.0914500813978,1.08893476109004,1.08798474498645,1.08701947237395,1.08648647778109,1.08733624821882,1.08819524164398,1.08900981530052,1.0895541715445,1.09020684701713,1.09048735772918,1.0913477655036,1.0918222339749,1.09312645102416,1.09384894309623,1.09445285576193,1.09490943897177,1.09591141587888,1.09786124912632,1.099528115021,1.10070931590988,1.10093053137062,1.10120145187075,1.10144181588245,1.10145765407773,1.10102745038255,1.10068728680186,1.1008878685249,1.10165002145628,1.10313975054782,1.10549654600954,1.10711816601209,1.10983858586775,1.11111599578128,1.1120812908717,1.09198606271979,1.09045801172357,1.090224105321,1.09432369924078,1.09878619075831,1.11421088343001,1.12237580801952,1.12271876747723,1.12185253835896,1.11928627225909,1.11459339878179,1.11185435100467,1.11063842499945,1.11111040279915,1.11368804220989,1.11627886675124,1.12086013611109,1.12852150874792,1.1314174545326,1.13179201330163,1.13181888876061,1.13133696233983,1.13093360723578,1.13049489176213,1.12987086795132,1.15182983497523,1.14185421067943,1.13693744241686,1.13269374486453,1.13272221232627,1.13281950155406,1.13189148381397,1.13125143080995,1.13170369173301,1.12955806838366,1.1040745995069,1.10197672003643,1.09881900443219,1.09731453555732,1.09559735773727,1.09357735976725,1.09204938978795,1.08991703797742,1.08815432733404,1.08634938135736,1.08480541946769,1.08385848604609,1.08298745297028,1.08172062188738,1.08051324290726,1.07997066810847,1.07936568457552,1.07910866909714,1.07843484661259,1.07824156577901,1.07742915017589,1.07741265308395,1.07705439001739,1.07788282282899,1.07900476430869,1.08020702380932,1.08133076259351,1.08215863902455,1.08317006458278,1.08369787833905,1.08455814516828,1.08453174447988,1.08520925205078,1.08465465663041,1.08474160614808,1.08445062247524,1.08462891418403,1.0842300130989,1.08446031695554,1.08471468481305,1.08574767759392,1.08703079695703,1.08873031337369,1.09019219198907,1.09160814310869,1.09230516372258,1.09262693264371,1.09142041342469,1.08998029153049,1.08929344873584,1.08876686555799,1.087914892127,1.0873876676699,1.08734910865748,1.08765613695419,1.0877206631443,1.08772741409032,1.08802652425025,1.08688536963373,1.08543713160412,1.08369430611023,1.08289700555099,1.08238741243427,1.08166556995632,1.08113817065079,1.07993268998125,1.07925951577565,1.07805603319692,1.07748661270616,1.07693785919257,1.07708848481747,1.07790254434869,1.07936314025625,1.07986752999289,1.08049146908831,1.08087066514307,1.0823248207038,1.08441607036785,1.08660176211176,1.08844711690314,1.0901683373744,1.09217728608864,1.09265695086262,1.09372439440303,1.09465355383193,1.09584191449456,1.09677965323461,1.09846394201855,1.10009785266169,1.10221715552075,1.10475541220117
1.08739301538495,1.08578418359214,1.08661148773785,1.08704107858436,1.08751307642671,1.0888384776232,1.08921216180715,1.09086464286681,1.09118990801508,1.09103594129021,1.09047609245464,1.08985127897085,1.08810457695991,1.08857935870389,1.08680186986069,1.08824115214376,1.08819704062477,1.09102992116865,1.09046431387345,1.09193526284624,1.09155665144838,1.09261516785598,1.09265077557587,1.09364118510119,1.09465724281544,1.09574041141743,1.09631356317627,1.09669464621837,1.09754363365898,1.09790135850069,1.09886211472641,1.09834900438399,1.0987828127683,1.09717335861801,1.09903040901763,1.09891040280407,1.09989690920824,1.09955018823561,1.10080131280128,1.10043704504397,1.10307442453295,1.10337363228741,1.10693144219698,1.11017107617596,1.11077148036404,1.19511285363233,1.09222852281069,1.09118490968259,1.09100438348344,1.09220003042033,1.0952326254004,1.09303712729989,1.12153112921128,1.12306228365342,1.12229448116825,1.47959925042032,1.11449656307027,1.11323002466453,1.1124147370821,1.11343067604427,1.11459711870618,1.11703327885013,1.11993485037267,1.19037580435876,1.13098265916159,1.13036759016556,1.1297213516872,1.13077605423377,1.12862136022195,1.12766367696086,1.12699141740436,1.16466594439658,1.13692877009943,1.12755737229366,1.12268842898071,1.11466161375888,1.11505371992893,1.11418785848853,1.12731291887365,1.21821604442705,1.12579599774019,1.09693498106233,1.09764539801613,1.09661708436843,1.09618326331599,1.09538002945581,1.09422519201075,1.09401751879899,1.09204934119465,1.09107800311055,1.08835685809889,1.085415064445,1.08497675748056,1.08373026436564,1.08225862882861,1.08056512583158,1.0799499952045,1.07964827619155,1.07897803733093,1.07903936017574,1.07839876385045,1.07780548181699,1.07752873023261,1.0761304662659,1.07746964920903,1.07865247027514,1.08097152665942,1.08219577445936,1.08308638775458,1.08321184868534,1.08435972926283,1.08450070295747,1.084990975451,1.08387781794635,1.08503293466738,1.08398514861347,1.08491392441014,1.08367014195774,1.0846450874459,1.08382214218796,1.08529094246422,1.08589529707966,1.08742945604518,1.08892377031334,1.09025263138621,1.09164358999415,1.09285535466277,1.09431366318414,1.09241662658688,1.09046143090712,1.09000101449947,1.08971629112817,1.08891731576317,1.0893496031337,1.0889248119317,1.08945363659595,1.08908864958548,1.08817266901711,1.08977657681516,1.21124256920748,1.12516692282663,1.08253121153659,1.08279649705844,1.08242078408877,1.08225340662802,1.08131641478667,1.08011124319018,1.07872991848265,1.07819988867393,1.07696815720392,1.07705129859464,1.07609620795447,1.07828890664288,1.08099595330476,1.08090154161476,1.08143113892637,1.08531779394595,1.09606072227074,1.09558852886419,1.09665609734209,1.09657477597232,1.09714743125551,1.09514273267367,1.09408475575765,1.09508784711786,1.09536249252415,1.09694952750909,1.09783974370683,1.09916702343913,1.09920565916086,1.10196615555284,1.10708198158333
1.08829823786305,1.08780331756578,1.08784323199324,1.08793564172593,1.08839070307853,1.08893982604298,1.08947941733078,1.09008728079427,1.09042611418117,1.09012677083176,1.08935577494891,1.08799461953649,1.08697237621496,1.08636883861092,1.08588425331534,1.0863518387551,1.08779369869958,1.08977169315095,1.09088643099599,1.09185719128419,1.09243444158359,1.09296992428192,1.09409694108837,1.09542942953224,1.09662721105075,1.09753590229948,1.0980924840015,1.09871626076654,1.09898299005732,1.09931910398036,1.09907332128645,1.09841135474253,1.09850101410503,1.09806868498363,1.09873265741743,1.09892968294411,1.09975673909091,1.10038231727394,1.10137458230636,1.10261403455547,1.10359296738656,1.10531048566756,1.10686937821371,1.10905405510776,1.10993312144561,1.15682151266074,1.09272583615155,1.09247973561661,1.09611004866221,1.11075159382831,1.11162093731606,1.11428991424724,1.1192624079506,1.12070626301968,1.12085053567473,1.11859655968866,1.11629360001319,1.11491977134148,1.11441212428276,1.11496632459976,1.11607847266248,1.11728254730241,1.12144783639288,1.12341014868485,1.12527394844861,1.12717693483611,1.1279841827956,1.12767576975752,1.12719058887476,1.12581848837894,1.12422348222743,1.12154796594415,1.12113846727673,1.12356883528377,1.11887117315034,1.11514581504756,1.11506976300112,1.11431226840199,1.12401319816198,1.17354135297712,1.12284355414819,1.09589063261929,1.09621833351267,1.09557299436761,1.09525000585507,1.09448338678752,1.09420689744301,1.0938321044045,1.09305756017213,1.09216022906692,1.09017711631635,1.08802322910126,1.08655216266843,1.08499727617914,1.0830122536692,1.08118470553805,1.08016176373524,1.07929380991826,1.0791180023816,1.07880451520347,1.07944701001382,1.07962423446776,1.07941047326696,1.07903795135235,1.07987458532726,1.08097399308161,1.0819943961699,1.08328012676101,1.08382438609967,1.08436626623211,1.08472426573825,1.08530939045981,1.08514241717907,1.0853653736746,1.08512138038274,1.08545489699195,1.08503220460846,1.08525047672977,1.08482149820292,1.08505915928707,1.08554904464959,1.08657812718898,1.0875286131551,1.08875045431034,1.09042097808305,1.09218578170023,1.09339079703882,1.09435186753081,1.09362184543236,1.09255126371835,1.09122989479144,1.08980374065165,1.08927950265139,1.0891069508773,1.08972954608791,1.09047784956816,1.09056154794376,1.09055202548502,1.09155648969339,1.15955823992786,1.142556889086,1.12587717601333,1.08779126626149,1.08559241233573,1.08329684038154,1.08081546344545,1.07974695774673,1.07880856323718,1.07798998004046,1.07750772318522,1.07706335920958,1.07694187949796,1.07761744496207,1.0811437925542,1.08107411745084,1.08219383474711,1.08604017240101,1.0918219725385,1.09429198104244,1.09568611945243,1.09621505197628,1.09680724019513,1.09625559968612,1.09631472656076,1.09673832405948,1.09706429088955,1.0984360796019,1.09929435958349,1.10043575853609,1.10178648045807,1.10325585300766,1.1055243233785
1.08877702861734,1.08946750776067,1.08886591828347,1.08882587022703,1.08905302177204,1.08930489837115,1.08959081838834,1.08979194384164,1.08995588440313,1.09041390141529,1.08846226079463,1.08759994094266,1.08577159009267,1.10498605797575,1.08434786257092,1.08611185033275,1.08597957196048,1.12411617645069,1.10790709880829,1.09255531174143,1.09280825985147,1.09349057053133,1.09512904200678,1.09810354024511,1.09863107361113,1.09974368085768,1.09988287422443,1.10065977061406,1.10060102956251,1.10088753634978,1.09977551379524,1.09719506086077,1.09871549805325,1.09815914492171,1.09893328941745,1.09826515485833,1.10005545895072,1.10030232062438,1.10251871567351,1.103746886949,1.10502900937697,1.10552110528879,1.10735404175561,1.10815446250442,1.10954039190037,1.28510399869852,1.09526886655882,1.09512097310254,1.09807518099695,1.13121498558002,1.13232983659669,1.1331818914477,1.13344613926893,1.13290338338945,1.12081308437408,1.1174410420958,1.11704327340715,1.11481982130496,1.11575179676894,1.11478923813531,1.11709342419243,1.11751178112629,1.12131026030738,1.12382317465235,1.12462073125811,1.12641538879291,1.12625192864782,1.12700321667469,1.1257718739619,1.12577351653862,1.1231629092686,1.12149500461432,1.12055685319872,1.1877331297418,1.11629246453568,1.11438100713239,1.11414466531526,1.11237183119951,1.12183787485807,1.26579235073832,1.12039033320101,1.09399544886566,1.09452706834779,1.09402909250073,1.09390723872485,1.09385032277713,1.09378175457216,1.09446980832072,1.0939257610307,1.09418703281948,1.09178241531428,1.08970579054343,1.08798329231418,1.08646348098973,1.08381163497856,1.08097385670153,1.08024911532763,1.07872072105339,1.07896487926902,1.07827375488184,1.08041942109231,1.08259539748236,1.08201056965775,1.09196279187876,1.0910715246522,1.10948135809409,1.08372390272454,1.08413590400089,1.08486851470467,1.08483363269933,1.08564586147792,1.08571080322562,1.0859921781597,1.08563326383714,1.08601220836556,1.08564066494833,1.08601340386236,1.08559974418661,1.08566287028632,1.08464786109464,1.08624752798564,1.086624851882,1.08784229401964,1.08795190200657,1.09064830930409,1.0932863397121,1.09418669922707,1.09600529459487,1.09511485599144,1.09550105048066,1.09312476997073,1.10792478606295,1.08943355196927,1.08888862196085,1.09031352430033,1.09219672798808,1.09151432301485,1.09106578669856,1.0924446627688,1.21217947715249,1.15927022139417,1.21029687926557,1.09555969090241,1.09888120957415,1.08486746270841,1.07888384600636,1.07978170233544,1.07795718605475,1.0783395548894,1.0768261405428,1.07760527909555,1.0765553442456,1.07808952056033,1.2753023430519,1.11475064100441,1.11844606849467,1.11218876700034,1.1111567583259,1.10641385296784,1.13942073998475,1.09711228900466,1.0966148886946,1.09732257716676,1.09740921338879,1.09800034459702,1.31560491270797,1.09973925184008,1.10010243403512,1.10131814916099,1.10306976065086,1.10394634166689,1.10472195099149
1.08875878661914,1.08944592984307,1.08931721349494,1.08955562012742,1.08955594567804,1.08987563047793,1.08956391868411,1.08942502976515,1.08934561660376,1.08905168862641,1.08754390918322,1.08557260428956,1.08433543416419,1.08318366866834,1.08325069625998,1.08417961687114,1.08468572234936,1.11680291583063,1.11186212362519,1.10783204972513,1.10528263382799,1.10342336775581,1.10206910628975,1.10051938871296,1.10011676205267,1.10042550466471,1.10078165502238,1.10132521991582,1.10164864158108,1.10194811829292,1.10157115226968,1.101415973832,1.10090561590726,1.10053025816503,1.10085255183798,1.1008793764999,1.10171810266911,1.10257839510015,1.10375890462578,1.10521597933995,1.10573332079456,1.10694883087797,1.10746593698179,1.10860828297465,1.10927963988756,1.18362860978751,1.09901598550997,1.09939318346331,1.10190524587907,1.13202722735583,1.13246660375273,1.13278073235889,1.13304794387779,1.13309866626349,1.12070799630846,1.11947132021467,1.11845833054792,1.11766108248697,1.11745079510281,1.11763169740954,1.11828254563762,1.11898355072931,1.12083485329805,1.12248446256729,1.12384490914705,1.12459692694463,1.12524417278249,1.12528984317081,1.12477609779148,1.12390543870785,1.12249139637574,1.12138756124375,1.12065857827132,1.14956464292368,1.1151177560038,1.11315755901158,1.11327935821002,1.11235971333411,1.12122159579949,1.1750786138785,1.11825846187334,1.09363831577952,1.09357072102959,1.09295299726611,1.09312653244401,1.09295079133882,1.09356417532334,1.09384804056087,1.09420201862379,1.09400636173527,1.09274100127762,1.09088715801417,1.08877682316327,1.08671003105791,1.08458344996386,1.08259603351155,1.08106226846418,1.07994560302341,1.07996543075812,1.08026439025717,1.0815650666283,1.08304036411576,1.08446443912185,1.08798000718773,1.08896172580002,1.0942046102292,1.08478661922191,1.08549260783356,1.08614783016495,1.08657866836432,1.08667952148978,1.08677639881621,1.08653832119486,1.08656597612468,1.08633281454372,1.08652689067947,1.08630637048934,1.08654035727448,1.08627297623526,1.08650132182477,1.08725391551347,1.08836098597256,1.08873716462159,1.08938797033536,1.09061089728746,1.09221295533243,1.09376967832136,1.09543822531927,1.0952339808067,1.0949031605877,1.09357408068953,1.09284683181011,1.09115972894523,1.0904469727981,1.09114872658686,1.09193449760464,1.0921121527277,1.09229223350955,1.0931741439532,1.09376305108346,1.09361127776144,1.09270494442673,1.09213196905589,1.08975188929361,1.0865010982873,1.08581047897085,1.08246356127774,1.08040148847381,1.0796335846092,1.07925732742153,1.0791075020502,1.07877255508141,1.07996049155551,1.0946575009239,1.11083778929047,1.11620796495896,1.11465863149969,1.11341546357241,1.10239762047339,1.09934813652726,1.09790685801989,1.09770303257797,1.0978207714474,1.09844968543953,1.0990071922814,1.0997502091166,1.10008805410509,1.10026074551159,1.10114817254303,1.10230179524339,1.10355333271098,1.10520043483471
1.08859051653896,1.089918438199,1.08987997984141,1.09009741570659,1.0903432152937,1.09044742226776,1.08990766007839,1.08855273402749,1.08915859371525,1.08918777418737,1.08689805062752,1.0842014538702,1.08314129200362,1.08151319655793,1.08163172072062,1.08156024060793,1.08325557805491,1.14527191802568,1.12669535594671,1.21175508957124,1.1185515997322,1.13043120919001,1.10204915527075,1.10166675353289,1.10099833015639,1.10078639231182,1.10166725356054,1.10195951971685,1.10281880166102,1.10392802560662,1.10334651983341,1.10417725092371,1.10286646388609,1.10300462955831,1.10259691671412,1.10306838108114,1.10334456122094,1.10429370590481,1.10525985763655,1.1066394401077,1.10704144836234,1.1076089999895,1.10810028149375,1.10836352867209,1.10907362358111,1.2982288486852,1.10336491899605,1.10074349763214,1.10638411871901,1.21321188395681,1.19438668223814,1.21850849633902,1.21954989495394,1.458679034987,1.1215561681321,1.11992724248929,1.11975455647809,1.11851649115882,1.11898200766553,1.11921790906998,1.11907519162507,1.11891774270078,1.12048504344738,1.1220263401129,1.12291365646875,1.123870618505,1.12439873908616,1.12524813027444,1.1240386267055,1.12338191252926,1.12191985727713,1.121581427088,1.12103942678068,1.16987201291723,1.11497567633214,1.11045509870658,1.1117055743605,1.11012042503211,1.12214590461709,1.22459727523053,1.11668460489395,1.09294413231736,1.09236968203652,1.09134000696936,1.09167804930504,1.09253264771156,1.09264019683004,1.09367942265041,1.09387747650283,1.18790952340867,1.13989288816443,1.16089601033165,1.08828114794917,1.08672494318134,1.08497055615277,1.08341653549853,1.08183147827017,1.07985656104765,1.08079595473362,1.08119749365146,1.08243822971376,1.08361473857874,1.08499628700931,1.08653622990056,1.08746379635332,1.10487734343992,1.08615995526065,1.08777073408403,1.08764955199075,1.08854255699888,1.0878187191942,1.08787118304631,1.08725408198144,1.0871111221718,1.08694225230304,1.08687647462863,1.08703808316805,1.0869427524915,1.08728079087984,1.08691053154552,1.08864188915408,1.09012388974781,1.08989749040755,1.08968680193528,1.09064165097674,1.09062558722025,1.09360439482353,1.09612782384179,1.09568917019094,1.09578528163377,1.09449045390957,1.09481998230917,1.09239681907172,1.09177134056248,1.09166977642568,1.09264761106349,1.0921857076038,1.09237128643595,1.09278026019694,1.09298988068307,1.09246307304503,1.09111676320929,1.09068140358902,1.08952534945942,1.08814528929319,1.08912534081488,1.08348658319015,1.08128962919519,1.08113625724968,1.0805360244171,1.08093245466523,1.17216846753669,1.08231381130876,1.08128757636639,1.10723108597969,1.12629649239572,1.116002784538,1.14312873615609,1.09988039345359,1.09650994878353,1.09759041474187,1.09679921298176,1.09835974652135,1.09855239531991,1.0994486984102,1.09958237363461,1.09990323047798,1.0994375649891,1.10063540815689,1.10066298944844,1.10347744220198,1.10494271229855
1.08787501811126,1.08912007500403,1.08949451722455,1.09026963528851,1.09037970939187,1.09086878557673,1.09019265321128,1.08981184328513,1.08917181261979,1.0885581202377,1.08722525007627,1.08550089341461,1.08381892350311,1.08127348494983,1.08129368633826,1.08124890215705,1.08327124004353,1.11299918806079,1.11637824361654,1.13412022330602,1.11156409262968,1.10774982631181,1.10175948655342,1.10175777077906,1.10166841454895,1.10238955821245,1.10278525193176,1.10336236625021,1.10387761166242,1.1043875577032,1.10452851188497,1.10442951736312,1.10453747021799,1.10430041980692,1.10441549459661,1.10423507977173,1.10468809893469,1.10507725366126,1.10599862563048,1.10696447749317,1.10727148380215,1.1078109514999,1.10800766966048,1.10838505987474,1.10853357942486,1.10792158687143,1.10843678173482,1.11111917297367,1.11324066097363,1.16303567797045,1.18185642873546,1.2195459766636,1.21968263964674,1.17650099907378,1.12241989528468,1.12159630414005,1.1207646530578,1.12032158194353,1.12014262557711,1.1203254433674,1.12014279032944,1.11996487035942,1.1208175480134,1.12148506123289,1.12251329721784,1.12321394173126,1.12374106606292,1.12397847899713,1.12311124481932,1.12220904206112,1.12047654311893,1.1189317183475,1.11654401629793,1.1154974158092,1.11512453449198,1.1136335834999,1.11181630575819,1.11077117027539,1.1238868213185,1.16824985488951,1.1160337965421,1.09198388689721,1.09154412975176,1.09032423501654,1.09069587911638,1.09042931200158,1.09194834893931,1.09267000045917,1.09345665752429,1.11494550193615,1.12800579132,1.14080106196019,1.08806370900364,1.08640236312444,1.08509508050963,1.08373269708747,1.08261877561936,1.08204607064639,1.08180513098265,1.08206375743373,1.08306925350278,1.08432993899043,1.08544663247235,1.08650862871058,1.08714467541583,1.087345954629,1.08757200463385,1.08823709912836,1.08874535032027,1.08874270138169,1.08845320861547,1.08773648352937,1.08747858457405,1.08708580757811,1.08710033732128,1.08718578997727,1.08743782446014,1.08786922996749,1.08829761437239,1.0890361066039,1.08956499000499,1.09037903328214,1.09032169929538,1.09056675080438,1.09088364332257,1.09166152145689,1.09309593351362,1.09479746287113,1.09491990796651,1.0950363101442,1.09433631832955,1.09386647665379,1.09276383261092,1.09197779714835,1.09176197768795,1.0916966267946,1.09189239738703,1.09202683331401,1.09213751728376,1.09178102834517,1.09137683360025,1.09031155788997,1.09014051552577,1.08928012266446,1.08878449119291,1.08788066956124,1.08574672051185,1.08366676096162,1.08280734430917,1.08207641274971,1.08268649739509,1.0840541636357,1.08443080020547,1.08494565727566,1.10427144810438,1.11180191409999,1.10780006178231,1.09935845529683,1.09870214368186,1.09798108548609,1.09801883860636,1.09849361736164,1.09890259211237,1.09974335656328,1.10005390218034,1.10032601664738,1.10028012454097,1.10012530595523,1.10084686132887,1.10185612553974,1.10372860378162,1.10598099176009
1.08744989257882,1.08848245512273,1.08944350984544,1.0902388151194,1.09088576376294,1.09144649121167,1.09095792037686,1.09059229240804,1.08958050560442,1.08857780172908,1.08794686475304,1.08816283240931,1.08533382276177,1.07965216886055,1.08043869898678,1.07948503383972,1.08440806473279,1.08513052873648,1.11191881213928,1.16014603393441,1.10633412840233,1.10467420852363,1.10236474615353,1.11809618686357,1.10256070957189,1.10439692961573,1.1040999713154,1.10448454616217,1.10486727503276,1.10575980546281,1.10534183482368,1.10575295937924,1.10560234822698,1.10666185540909,1.10568634264365,1.10575649092495,1.1056649343302,1.10567808190839,1.10673251394191,1.10769303166893,1.10787158151493,1.10769531773273,1.10839813773596,1.10802128439035,1.10868637735819,1.10632443713457,1.11101918682166,1.12163053206268,1.11853072838963,1.12223207522612,1.16952168670409,1.32011244844253,1.2260279441206,1.12359084002219,1.12313144630691,1.12183530095783,1.12166994832806,1.12123551877251,1.12124553521986,1.1223631499367,1.12106478712916,1.1209479730873,1.12103815125638,1.12123715588568,1.12228058163504,1.12295823840351,1.12351519900381,1.12393625596188,1.12277449795417,1.12208494920608,1.119930031568,1.11733538660547,1.11606950867352,1.1148448756447,1.11580560560669,1.12343082615832,1.1103606050597,1.10960983990296,1.12562053838516,1.2151668399198,1.1144387210726,1.0911023055114,1.09069497684654,1.08812720167302,1.08916662881199,1.08803563183999,1.09073071897205,1.0924820838457,1.09271723070079,1.092880361889,1.11371675077863,1.18535527230071,1.08752291648469,1.08556631749903,1.08472557998983,1.08339720818895,1.08336920598767,1.08337103540175,1.08272917136421,1.0818100555556,1.08356532934956,1.08506634119824,1.08599124145788,1.08761815690344,1.08764708546707,1.08889539548626,1.08876359025724,1.09032796938455,1.08968196420204,1.09010348233999,1.08894232141643,1.08766672165364,1.08761371004293,1.08682489884371,1.08725515613102,1.08717806248397,1.08795804675135,1.08839495998636,1.08945935345108,1.09079175088744,1.09073948566271,1.09080287352644,1.09103069246469,1.09056643785124,1.09131351916417,1.09116264128493,1.09299528715026,1.09415609037942,1.09454515887632,1.09447985459115,1.0941558629558,1.09360157041616,1.09276325962144,1.09208725818907,1.09149726025869,1.09104354554629,1.09143775943689,1.09208099771585,1.09145983917757,1.09068022406017,1.09018815494921,1.08878985443822,1.08930258928358,1.0896643299578,1.08910422839961,1.08972694575919,1.0871687464595,1.08472642946463,1.08412309705717,1.08194130509244,1.08335341945249,1.08438846604627,1.08572613746361,1.08603623402819,1.10221848446137,1.17696789253545,1.10748524728493,1.09634587287594,1.09859403623084,1.09799472018687,1.09900648822839,1.09865953375666,1.0999064773588,1.10062992296118,1.10086339273936,1.10110872363766,1.10066326551269,1.09957725578623,1.10104725473136,1.10131471114839,1.10429469463552,1.10592432633812
1.08671132063057,1.08775802766819,1.0887752901474,1.08994868808431,1.09054397732633,1.09122635860139,1.09074505827012,1.09037589984708,1.08955562496033,1.08884637310262,1.08839803278716,1.08755544879311,1.08643139972083,1.08117652890725,1.0821300932488,1.08252140345306,1.0844264947065,1.0847563126479,1.09648191835244,1.09679804191379,1.09779379257971,1.09907511425682,1.1002457568464,1.10118951662483,1.1021645721584,1.10380178646505,1.10416196100776,1.10496886871606,1.10537952865496,1.1060026426808,1.10631308018351,1.10646461362483,1.10699691268574,1.10708633987986,1.10735220219223,1.10717173244225,1.1074808813619,1.10750143266687,1.10796270779145,1.10824257493229,1.10881202765745,1.10928358942326,1.1097375293814,1.11032109092647,1.1117196041446,1.11431440692407,1.1146653938795,1.11811663951945,1.11836807628799,1.11932715325448,1.15906403613193,1.25965172265027,1.23145369471228,1.18727739922366,1.12348183157198,1.12276999186361,1.12210569952865,1.12165591904379,1.12172080748548,1.12197654498315,1.12200620544372,1.12189979096009,1.12200975394279,1.12198894389005,1.12252345934887,1.12295991178335,1.12319054391903,1.12306711222111,1.12202794822134,1.12081592928493,1.1189166068615,1.11714932574818,1.11559378354191,1.11341962473088,1.11184827236874,1.11027533029391,1.10941004991093,1.10928907289105,1.12420326272139,1.15861907779985,1.11269796542417,1.09246950987282,1.09194549133829,1.0907734808459,1.09088849492453,1.0904710120111,1.091792400718,1.09224936851235,1.09256797717709,1.09185290829856,1.09093403283508,1.08948968697036,1.08787675121381,1.08582126581384,1.08478794565989,1.08390752864066,1.08360390422516,1.08376116028413,1.08341060677787,1.08343393733507,1.08405473413573,1.08489007958314,1.08615656378762,1.08717115563129,1.08835196345877,1.08908284742589,1.09007547952968,1.0905581877182,1.09096423425119,1.09066149361854,1.09060421771787,1.08997170132001,1.08918708212216,1.08806998324899,1.088251693892,1.08829533685002,1.08882471967032,1.08933544649513,1.09005457735537,1.09091248316447,1.09123977800512,1.09174113179256,1.09166722688854,1.09183873178617,1.09174527635847,1.09203671287925,1.09265028153496,1.09352872243331,1.09380380981041,1.0941181022458,1.0937064432196,1.09327478075806,1.09262045420176,1.09196812501349,1.09150195004111,1.09102205828549,1.0913566018571,1.09139220371108,1.0915440139591,1.09105645978932,1.09059037266446,1.08951876344864,1.08972001846109,1.08936675943579,1.08981894405743,1.08962905636451,1.08916502112966,1.08865202123893,1.08817481965121,1.08793402651393,1.0866268229662,1.08690720866732,1.08738917694678,1.0901314785665,1.10093468171694,1.10652332350221,1.10562518228421,1.10277982001144,1.10064989294657,1.1001833677758,1.09993978119405,1.10017398900107,1.10031906827992,1.10098020592871,1.10112354951469,1.10155840001005,1.10117406313344,1.10113279797807,1.10169247379547,1.1028360074959,1.10514701548086,1.10734667746508
1.08643988319448,1.08651460704605,1.0884834853335,1.08956348084067,1.09073167329481,1.09141526955984,1.09097484353991,1.09013379847894,1.08962750994207,1.08885515518749,1.08899218314089,1.08883111470475,1.08810827972047,1.07382032379926,1.08346203282704,1.08463545763473,1.08537770552542,1.08417965281552,1.09507164457542,1.09521590998552,1.09662104390773,1.09706819041018,1.09925713451417,1.1012168167601,1.10218983957122,1.10381456305071,1.10450937309797,1.10509128663367,1.10587299667388,1.10682383719707,1.10697532945444,1.1080363270826,1.10789467670091,1.10890506879068,1.10849350271999,1.10937546902664,1.10891178866799,1.10971009507466,1.10900741554459,1.1090224751009,1.1097495792796,1.11120688996099,1.1111526068693,1.11198081956069,1.113492878047,1.11589940812524,1.1160518488555,1.11663154313792,1.11767965624243,1.11731594800077,1.14947097828609,1.37366359254803,1.24603288383357,1.28947027963779,1.12361640803007,1.12268112952888,1.12220621299265,1.12168172732452,1.1218147766703,1.12312187754333,1.12256729942321,1.1238946135174,1.12265318826683,1.122607259004,1.12259974221365,1.12293733155459,1.12282884417113,1.25632654983884,1.14769096126881,1.14799210495075,1.14735800440985,1.15563866040272,1.11433313371173,1.10880946283009,1.10906384635921,1.10771617209717,1.10853315703832,1.10887297743858,1.12335843331684,1.20044228455418,1.11164981143042,1.09397498013696,1.0931978111097,1.09245639344081,1.09209837171084,1.09283293692406,1.09235214808346,1.09376627150706,1.09211726115325,1.09133275115529,1.09033300955163,1.08896209285593,1.08738824536509,1.08498356114081,1.08450646364116,1.08342868142456,1.08388336283017,1.08416133014491,1.08409481871434,1.0841998741333,1.08436622546778,1.08442687447601,1.08615010417947,1.08750763316867,1.08878206119378,1.09070691446183,1.0908236376411,1.09259829867614,1.09171266176358,1.09237209835282,1.09191470158055,1.09347859796619,1.09051584627295,1.08868498617851,1.08908110444035,1.08926238929982,1.08964468908944,1.09007828852863,1.09067525681153,1.09125888666674,1.09193886031322,1.09268179592811,1.09259501567211,1.0926160118236,1.09243469415461,1.09174809077923,1.09272952471452,1.0927054640535,1.09364118537838,1.0938602370551,1.09363354773184,1.09290101107459,1.09258432819526,1.09171507071996,1.09147724788945,1.09050233525102,1.09137742153194,1.09126129418962,1.09194994071192,1.09229914722466,1.09112148384693,1.0902090014709,1.08987609368374,1.0900197422262,1.09020648086551,1.09157704087428,1.0907453231866,1.09211136438121,1.09018806159412,1.0904601820668,1.09176090383688,1.10213164471974,1.09489028073916,1.09159471766756,1.10022810552235,1.10870096902623,1.10623221961988,1.26945139982552,1.10161464997937,1.1012038844182,1.101086255675,1.10073413666203,1.10103678292241,1.10125710732178,1.10173376904704,1.10214628739968,1.10194574742844,1.10114395540243,1.10237734424196,1.10228442556879,1.10674864785645,1.11584868965156
1.0869628148644,1.08748291625753,1.08867883564837,1.0898807975066,1.09089965565817,1.09172456776643,1.09120848345998,1.09045675455708,1.08997291768986,1.0893572629848,1.09009386546308,1.09020812681275,1.0895171904446,1.08979373822581,1.08905784131908,1.08780352790151,1.08827999276327,1.08921544058981,1.09350956625896,1.09468051572128,1.09615525440357,1.09707240350929,1.09830698194359,1.09980159068675,1.10082057166355,1.10260365097601,1.10361486616503,1.10506097215739,1.10558299828306,1.10653408885015,1.10729936036893,1.10838519378493,1.10899278244425,1.10931269195629,1.10974931999302,1.10985577166216,1.11019368964736,1.11024750059731,1.11022193358689,1.11000012907045,1.11075245901758,1.11136572116699,1.11236055275431,1.11333444695803,1.11447895410579,1.11577359746355,1.11616104145972,1.11691119073771,1.11715674798694,1.1177965101671,1.11926986807711,1.12077056292451,1.12241251649518,1.12343851454641,1.12349912599755,1.12302913144752,1.12223433820355,1.12147964405769,1.12178893360775,1.12203738423422,1.12269642149945,1.12296629255096,1.12296613270297,1.12262724187301,1.1225632803512,1.12305529857264,1.12572358885043,1.14679491842227,1.14714063949912,1.14691421775294,1.14697061506174,1.14730960022055,1.11346002685792,1.10799026011422,1.1079980410872,1.10759996658215,1.10768828784799,1.10725711358545,1.10492435170075,1.10244659582457,1.10114455657318,1.09466730271572,1.09418782558924,1.09359753713523,1.09319353235334,1.09274353239439,1.09291383908632,1.09258184846765,1.09222400317743,1.09103333613549,1.09048223428958,1.0891216587131,1.08757429806671,1.08559647560735,1.08464176689246,1.08392542462595,1.08396330284668,1.08426112583143,1.08437680882596,1.08459853569427,1.08495748624145,1.08532830960562,1.08729060453922,1.0887180969486,1.09008463426043,1.09058068745181,1.09177651380004,1.09217735417239,1.09260622910028,1.09239390825372,1.09256389799796,1.09231864552417,1.09166926564063,1.09082069994851,1.09074479013008,1.09062110839949,1.09072876463095,1.09082878530433,1.09130637361055,1.09184239232549,1.09226576877938,1.09276091095965,1.09286619729945,1.09315521970162,1.09294118686429,1.09301797157942,1.09309656818001,1.09341324489444,1.09356400527544,1.09381349352489,1.09360462912706,1.0934134900654,1.09281872529698,1.09219357455093,1.09202796595054,1.09168821612654,1.09252593289172,1.09299904033465,1.09339816822789,1.0932822875059,1.09255640807371,1.09148972402357,1.09117283651673,1.09058748493241,1.09127013996357,1.09148688336655,1.09186034589273,1.0918211963814,1.09127591814273,1.0914477579696,1.0935958866208,1.09795571932092,1.09787749123213,1.0986639073933,1.10038824874326,1.1017059803469,1.10369338832323,1.10309348148858,1.10249149259574,1.10220364029699,1.10181509543298,1.10168323655017,1.10136090127461,1.10144229142929,1.10160669705264,1.10211907005501,1.10198628254836,1.10227553028076,1.10302572004932,1.10347208973009,1.10795325683336,1.11718588839475
1.08785716739077,1.08755846453283,1.08907059414229,1.09006503971792,1.09155348663423,1.09300066142459,1.09191388961645,1.09041683991329,1.09027844251602,1.08889846306061,1.09091081638967,1.09266511115568,1.0934794224725,1.21551135977925,1.09169256325985,1.09025774307082,1.09001732483633,1.09067405404535,1.09291821083855,1.09471051221517,1.0957311465179,1.09685126801612,1.09745330404426,1.09824916061075,1.09981525096831,1.10068744533841,1.10323984395826,1.10440149017894,1.1055765988239,1.10604032804012,1.10749778252027,1.11000349236652,1.10991926866152,1.11088941743569,1.11066654703856,1.11126143049207,1.11114861138483,1.1118248646508,1.11110840086636,1.11100575171666,1.11136801848946,1.11219848765449,1.1132046842945,1.11534412271269,1.11541091985093,1.11648110967538,1.11661043478276,1.11625915340021,1.11691795310949,1.11555703689396,1.11831804960158,1.11826411513052,1.12141713150112,1.1225682336725,1.12302748684268,1.12299488758798,1.12191559163771,1.12079347226354,1.12128755667144,1.12207620461182,1.12237838523642,1.12348268194339,1.12291331449244,1.12281415987,1.12242787606108,1.26465221225463,1.1458629278786,1.1439329977883,1.1456269470331,1.14495921238213,1.14635342234989,1.14748768162805,1.11257892154421,1.10675060275178,1.10702905313857,1.10592238492434,1.10704902489922,1.1066380503199,1.10498260910987,1.10025983754902,1.0999958234186,1.09471752742265,1.09526231335648,1.09435891497052,1.09394915457918,1.09333037465917,1.09305272942962,1.09315999004179,1.09204766569569,1.09122380119113,1.09051848113996,1.08984398205305,1.08768529475086,1.08526348448581,1.08463678582444,1.08348028322811,1.08407592589831,1.08442204523462,1.08462763983131,1.08507718041763,1.0852149887045,1.08543614721721,1.0881006070315,1.09149763393084,1.09090828950759,1.09168868006274,1.09203124265499,1.09360372154288,1.09289157452999,1.09351008889106,1.09278292959395,1.09257336448597,1.09248308334212,1.09286080361782,1.09210737457151,1.09220771480273,1.0916164862951,1.09144423603789,1.0918479379409,1.09252576038727,1.09269586354759,1.09296444450026,1.09331704379887,1.09373504885654,1.09364610173803,1.09370099388461,1.09380047586379,1.09364033630534,1.09400377423441,1.09361239473162,1.09406156357848,1.09379626850007,1.09332784301837,1.09166427427203,1.09252763244322,1.09136579776955,1.0933864730693,1.09488352861576,1.09497624144176,1.09546380618523,1.09395073994227,1.0931255307591,1.0920886302743,1.09143666136437,1.09194741712513,1.09275829886945,1.09290452277698,1.09339500008849,1.09180166312132,1.09125686482951,1.09441355617502,1.17529744585234,1.09915627602928,1.09698295456541,1.10043398742254,1.10177432556184,1.10303245887648,1.10228797280299,1.10277315963811,1.1029688688405,1.10249360202037,1.10257951492203,1.10193063194553,1.1007280165567,1.10202044733764,1.10110585640064,1.10249811416357,1.10073991492777,1.10410097652167,1.10473138845081,1.10969340912638,1.11765980499348
1.08902933365758,1.08912903819329,1.08983046603095,1.09067391962751,1.09198554046506,1.09320747422489,1.09287295598355,1.09237235977092,1.09214187713101,1.09183044133217,1.0927434144985,1.0931916145671,1.09396905741836,1.09367887010088,1.09309468894561,1.09191724748496,1.09258665270978,1.09289702287596,1.0945283423653,1.09535964294904,1.09592287368907,1.09603964438772,1.09654713492496,1.09766007618721,1.09892083611758,1.10075253166893,1.10244694754065,1.10436107013003,1.10490120315132,1.10577887153301,1.10655190934195,1.10914292139538,1.11027019909169,1.11150248571929,1.11178734908306,1.11202494622199,1.11228599169397,1.11230531695402,1.11241282976798,1.11222922489031,1.1127545936389,1.11296783924136,1.114130325265,1.11501343841127,1.11601091840876,1.11685962452875,1.11700748036745,1.11734256836767,1.11694866629995,1.11725885695291,1.11780516236779,1.11909697718257,1.12040981259442,1.12195336414618,1.12203529201636,1.12209474538717,1.12178001910752,1.1214458126994,1.12176447574958,1.12182888986677,1.12262386681526,1.12286244953807,1.12297002728593,1.12254097235401,1.12249941357388,1.16717378305081,1.14612794421338,1.14534350497216,1.14558432368097,1.14545351017959,1.14612583137414,1.14662644319176,1.11143437002484,1.10638851885673,1.10658278757649,1.10666264528929,1.10678620438251,1.10601519812745,1.10374610065749,1.10130807374376,1.0993349227381,1.09743052698532,1.09633600977421,1.09600163954786,1.09501736491671,1.09442500874935,1.09401376645772,1.09355150603862,1.09293783337299,1.09197419772091,1.09139986093241,1.09032840675402,1.08842235901469,1.0861916371376,1.08526657592471,1.08438113819527,1.08447960175602,1.0844547595407,1.08490575218107,1.08508288537029,1.08618048603008,1.08700479977143,1.08959558124686,1.09159890251452,1.09237281505407,1.09221918430527,1.0930625550756,1.09315752895626,1.09344730481291,1.09319838241015,1.09354036733815,1.09360306154651,1.09348199414097,1.09326533450523,1.0930752615301,1.09288926834579,1.09243742817322,1.09201918440764,1.09232887795967,1.09270867126351,1.09304682965751,1.09342309556332,1.09350713986197,1.09374637316523,1.09381149288873,1.09418013059455,1.09418966808677,1.09454854135467,1.09451889840254,1.09472120437913,1.0945211712818,1.09454774611273,1.09424837092291,1.09413456819885,1.0944769726498,1.09505447388437,1.09439958630302,1.09526369993647,1.09605164890431,1.09611774188132,1.09513744321939,1.09427020197012,1.09358654953609,1.09311839274036,1.09350212628091,1.09394379856786,1.09459517278555,1.09512205991254,1.09798302887225,1.09916304283846,1.1007569441462,1.14026287720668,1.10171915774755,1.10199709701152,1.10210404615549,1.10296044651412,1.10335694033107,1.10326682968802,1.10323282851377,1.10297284876915,1.10269242695978,1.10251944968041,1.10248491285602,1.10284547251297,1.10286007976069,1.10344180118609,1.10366568811316,1.10450893630518,1.10551778178521,1.10791727501315,1.11132307832839,1.11456266019063
1.09029288900559,1.08995977842521,1.09060446771492,1.09045218966659,1.09283595306304,1.09448241567149,1.09431979111089,1.09381415369772,1.09397803740105,1.09394828811211,1.09420761336824,1.09441691174335,1.09460233304155,1.09456264193574,1.09400907402678,1.09362248204749,1.09415253609113,1.09568106243398,1.0959366034786,1.09774349933392,1.09624799336891,1.09579211217308,1.09578772137918,1.11611999144367,1.09910436502414,1.1001275612036,1.10268716200348,1.10379954308171,1.10502351503501,1.10457189618481,1.10422354352729,1.09966684910101,1.10973121343834,1.11333499817218,1.11270945196482,1.11365259868485,1.11323362053666,1.11367426781797,1.1134140757026,1.11396461908572,1.11371849620706,1.11423061881533,1.11469759130095,1.11567501111528,1.11663070544832,1.11808048285068,1.11794372711869,1.11792393742825,1.11772694308983,1.11651367474683,1.11795443963744,1.11764846727694,1.12010519526111,1.12143416693156,1.12158188415666,1.12123554116309,1.12165099198967,1.1224171116401,1.12181299328306,1.12247117863912,1.12237543930964,1.12320120746484,1.12278600176079,1.12245515724583,1.12294225112171,1.18633865675874,1.14671205642979,1.14478908309677,1.14509681086342,1.20515319939835,1.15629943814819,1.1636477334551,1.11037105953216,1.10528233239947,1.10597209076491,1.10655713953462,1.10682982617221,1.23921563430065,1.10301301113876,1.1002232557935,1.09972737046209,1.09721662350099,1.09768537460939,1.09712748314252,1.09634734068819,1.0954180353335,1.09505535213845,1.09489847379246,1.09381329430853,1.09322068897401,1.09236077404505,1.09224195366065,1.08962085484675,1.08574818350565,1.08586828941993,1.08441831718291,1.08496222972296,1.0842603471744,1.08508162732039,1.08490041960326,1.08649514248935,1.08820723620793,1.08993799275545,1.09522884301023,1.09318645461037,1.09387514653423,1.09346440848034,1.09417498783408,1.09363163407616,1.09326553426983,1.09414486102008,1.09524480550177,1.09442312546102,1.09384893026501,1.09394713555724,1.09404272887047,1.09310459996092,1.0921012862658,1.09264704193323,1.09309824541217,1.09340534422304,1.09414384700891,1.09374738492561,1.09366683846284,1.09400495894309,1.09453369779011,1.09471703393076,1.09506473185274,1.0954919043669,1.09526101189272,1.09552796828794,1.0945382163323,1.09547466622767,1.09517409225184,1.09602256454868,1.20220090585337,1.10219238213574,1.10475277158125,1.09735105791266,1.09721548807677,1.09633839967797,1.09527497888443,1.09495650839642,1.09442792361353,1.09493659941403,1.09557590542245,1.09565585670159,1.09572647356021,1.10169972794141,1.11946594944987,1.11679575006133,1.17225724155789,1.10358058109328,1.10213927630216,1.1033969879128,1.10389477267421,1.10426407421512,1.10408554255635,1.10389172166051,1.1032348314205,1.10292819959072,1.10209767359352,1.10332755268544,1.10368594367489,1.10378970945198,1.10427876011309,1.10463624016673,1.10501440003866,1.12461559458696,1.25461192297189,1.11300406396878,1.11253834777004
1.09156695498637,1.09155161179268,1.09178599308829,1.09240486902863,1.09373615726732,1.09544467791477,1.0954219282298,1.09582952421852,1.09577861680015,1.0961731952514,1.09627059470104,1.09629462078138,1.09660919545366,1.09633891927562,1.09642961844936,1.09595385269121,1.09671977241873,1.09707063686777,1.09764229999988,1.097687384422,1.09691178182144,1.095905248988,1.0960678681819,1.09682981509903,1.09884448551875,1.10105383613786,1.10288104213087,1.10460582341911,1.10504455591125,1.10558517405499,1.10546098010008,1.10712929530335,1.10908927306864,1.11121393144703,1.11249646017562,1.11369079988746,1.11419312834074,1.11451924052019,1.11470972316668,1.11470297913462,1.11530397110484,1.11540238896363,1.11610072179611,1.11654161748357,1.11737321121092,1.11823798684979,1.11814577314155,1.11849191009917,1.11768072090492,1.11782071777813,1.11737143898186,1.11820132129888,1.11888936505467,1.12054919589055,1.12073280771471,1.12133451611872,1.12165978076211,1.12201193077537,1.12213381495045,1.12201080317886,1.12246677035082,1.12250505034925,1.12270744759965,1.12253836382153,1.12457748335234,1.17084455703395,1.15304980213762,1.14726041949622,1.14417243296438,1.13855566057728,1.13424867988109,1.12903596854893,1.10984911983613,1.11085896779037,1.10580962001188,1.10668973626398,1.10683686256803,1.10702931629312,1.10288823687609,1.10154516542386,1.10013187292777,1.09925411825413,1.09808200416741,1.09780147569956,1.09664989836572,1.0962926010726,1.09562550972139,1.09545906596032,1.09447155447993,1.09375375536413,1.09302004404605,1.09236690467081,1.09072865718256,1.08904511811071,1.08792682201601,1.08690046150508,1.08692752819961,1.08677010020928,1.08694103006824,1.08680722759264,1.08789779251016,1.08896375040686,1.09114964138925,1.09247528099544,1.09364130047903,1.09380369668452,1.09446850657599,1.09448044198572,1.09461841778381,1.0944865157784,1.09480648363647,1.09517795608255,1.09503270315498,1.09504514073286,1.09472552867719,1.09453329553948,1.09389093593515,1.09335701817608,1.0932135650927,1.09320333705985,1.09338954578498,1.0935972708924,1.09347194768108,1.09349024509047,1.09365264484539,1.09396461862345,1.09440473056414,1.09523315440628,1.09596451772815,1.09663059391694,1.09644987956992,1.09656154355392,1.09660317596255,1.09719794601134,1.09769400783233,1.09896061032858,1.09999562428048,1.0997998917293,1.09846888816898,1.09778292109984,1.09684183647824,1.09653837961671,1.09608789575119,1.09625447584324,1.09624571031099,1.09679487312404,1.09736136669914,1.10263798060271,1.10658096829241,1.11476497568938,1.11295923533491,1.10907650107658,1.106255130699,1.10519306729849,1.10508375322357,1.10540163999354,1.10549168762766,1.1056607890723,1.10521669686451,1.10461819894328,1.10370137301109,1.10317951087392,1.10404931593579,1.10532844414793,1.10948997450369,1.11217078273378,1.11934306786551,1.12134668041233,1.12621539994887,1.13429492985296,1.11459339446481,1.11446770202579
1.09265104787671,1.09254055945911,1.09306530126599,1.09270214452405,1.09509045452361,1.09687810196892,1.09702193286965,1.09719469127075,1.09772749974651,1.09821927836233,1.09825862290348,1.0982501095572,1.09836319272537,1.09866885808798,1.09827025350265,1.09852463129199,1.09859318691933,1.09989067042067,1.09910574869498,1.09990288788578,1.09750280824797,1.09589135986097,1.09613559758465,1.09613808220556,1.09964418089819,1.10193822697354,1.10390689954907,1.10491196792415,1.10592704136641,1.10595538414187,1.10656299069551,1.10698019177432,1.10879680200501,1.10988587074987,1.11224514959466,1.11517595111478,1.11484339977832,1.11654966460695,1.11542783107752,1.11600054839623,1.11641302937722,1.11744623405019,1.11708648959823,1.11792083978089,1.1182459114131,1.11903815784287,1.11901319773525,1.1186430492874,1.11852135022057,1.11735897199963,1.11771922900986,1.11646031483104,1.11864134394176,1.11971557285319,1.12048989686949,1.12170186812735,1.12161350910403,1.12321064298378,1.12188801093616,1.12269697000814,1.1218894634341,1.12237055392354,1.12212519908549,1.12217241427947,1.12683636863929,1.20225447860683,1.1563449836741,1.15521652882437,1.14268902134322,1.10166398456219,1.10209543732886,1.10168360522179,1.10873925615619,1.13885148427363,1.10593220958433,1.10858057240306,1.10712026627609,1.10817659015466,1.10351814090647,1.10124140049294,1.1008857908842,1.09951832623701,1.09911391730637,1.09753297197011,1.09748077358053,1.09640709366325,1.09657642926532,1.0963603286222,1.09531453827889,1.09414568805509,1.09375273830009,1.09351585782944,1.09228606815448,1.09151674302617,1.08990497687069,1.08840254305933,1.08881792437893,1.08939721964399,1.08869117353875,1.08814406847432,1.088222502426,1.0896949602142,1.09136743811797,1.09179812417975,1.09359774799918,1.09491013946523,1.09506331543008,1.09562915803488,1.09551798952195,1.09537343957078,1.0956033550059,1.09519160142186,1.09591472640359,1.0960233516511,1.09576133076226,1.09511434389455,1.09478845572345,1.09409894149605,1.09378262328225,1.09300301724767,1.09348054287347,1.09303520490594,1.09323528827217,1.09274449087311,1.09352839545873,1.09293031115164,1.09419468014379,1.09461668189007,1.09695526132987,1.09745351582965,1.0980104083503,1.09690418491894,1.09822227029348,1.097827470831,1.09900889555982,1.09891180777558,1.09906844373901,1.09729619006268,1.09813826734318,1.09716024282194,1.09742844201679,1.09679588138815,1.09747373917666,1.09745734797721,1.09768573693169,1.09748637113871,1.09798127870832,1.11421151820565,1.11292748647362,1.1161836052598,1.11003837563831,1.1074698451307,1.10719546156017,1.10681075220761,1.10667920850637,1.10677840370317,1.10699436549776,1.10803227206521,1.10684268085919,1.10658943105557,1.10429662874199,1.10268883915791,1.10404885393852,1.10531104894421,1.11233094859134,1.11849093345329,1.14329543136263,1.18404268827795,1.15029276251276,1.14818603139679,1.11624239281459,1.1143859094091
1.09374672694822,1.09412372451631,1.0942809615425,1.09488492080954,1.09546559666172,1.0967594054174,1.09684482265729,1.09781037149244,1.09831303382802,1.09960244274457,1.09959856799607,1.10003021152482,1.09998344521985,1.10012142381894,1.10012432941418,1.10016641184612,1.10032345019815,1.10044254026213,1.10019381157388,1.09972986383324,1.09819992059251,1.09671085335488,1.09674634249197,1.09730556103802,1.1003281407427,1.10259002793002,1.1046864331918,1.10572609083361,1.1061539571845,1.10682764835526,1.10702816042404,1.10795378542944,1.10892550514857,1.11017598060987,1.11189513961175,1.11350248413298,1.11445021178105,1.11518334108058,1.115542538632,1.11641866834259,1.11763210875691,1.1177517034955,1.11799822526166,1.11835417552082,1.11860326017555,1.11922883386824,1.1188483049367,1.1190847907514,1.11813847061907,1.11779782669903,1.1171016613244,1.11717363783764,1.11744610799055,1.11851364911733,1.11914188240735,1.12012735189508,1.12079355373924,1.12134490633362,1.12130789526581,1.12091463877016,1.12134902599506,1.12134601437777,1.12141207101979,1.12222910885671,1.12873282550177,1.17660510235908,1.16073175605977,1.16110724039723,1.14082826223332,1.10200146990147,1.10209701951447,1.10181126699289,1.10854931120065,1.12565369503693,1.10534199285535,1.10659292619283,1.10636994530297,1.10572501757055,1.10404319163535,1.10228501449287,1.10129428748483,1.1007028059752,1.09949298299584,1.09872174335583,1.09781772197234,1.09749456161188,1.09687713492995,1.09667655660639,1.09551210482074,1.09464638975158,1.09376750232096,1.09366147487856,1.09305314392849,1.09273939783598,1.09165867064406,1.09085651260226,1.09071294269558,1.09073130299617,1.09100420508887,1.09180342597719,1.09257548997313,1.09346687866794,1.09361809131193,1.09461656651702,1.09556318394893,1.0955718915794,1.0962082353505,1.09647808685618,1.09654925248345,1.09661913313425,1.09641363630358,1.0965118572342,1.09648148508853,1.09678866830372,1.09635289426681,1.09620516502332,1.09550190606093,1.09506426747172,1.0944105611999,1.09394041273822,1.09391743605348,1.0937856741247,1.09321310995547,1.09328987590136,1.09431721744599,1.09411132477479,1.09458179349185,1.09601443321281,1.09854483163918,1.0992026285309,1.09946066059275,1.09969878709721,1.09962071008819,1.10019857739643,1.10033482717195,1.10054585529733,1.09946077816794,1.09870648702715,1.09838056380876,1.09776526248004,1.09747582398584,1.09764664389099,1.0980277932782,1.09898534617398,1.09872186652312,1.09900251475653,1.09887477347381,1.11284671442159,1.11064985385775,1.10929281173805,1.10895971621016,1.10795182534486,1.10750933745875,1.10755293704785,1.10761455656159,1.10793587264617,1.10775180921303,1.10779437488001,1.10781723949315,1.10880023895978,1.11026984909825,1.11257974965163,1.11604536535541,1.1202952935691,1.1234339747785,1.12521232048004,1.15735818784879,1.16913612190125,1.15834390337999,1.13183145212358,1.11968102644005,1.12033709540081
1.09472821092345,1.09525546006589,1.09584456810528,1.09544073362708,1.09653792642819,1.09568408804005,1.0973905742543,1.09678303166227,1.09950046232653,1.10067224937561,1.1013891804124,1.10137664000346,1.10177376618051,1.10141452199605,1.10198788889587,1.10188261193773,1.10204262332001,1.10188619453163,1.10143798532275,1.10111887821945,1.09881021163557,1.09611233621138,1.09662300086994,1.09551171826678,1.10157732146824,1.18371127375441,1.10641820095784,1.10583815505767,1.10677130437392,1.10673748008295,1.10765850804727,1.10828143639002,1.10916110098134,1.11018831652725,1.11149251836314,1.11342605695826,1.11372324953411,1.11530920586819,1.11460504453587,1.1541093006289,1.1209348697387,1.11816901500539,1.11865698765918,1.11924150970953,1.11920808721332,1.1191751223754,1.11940266558403,1.11865180609629,1.11845459013939,1.11631017525045,1.11706714202031,1.1153224054158,1.11682758561635,1.11631576804895,1.11814126775334,1.11910549304557,1.1198924305068,1.12171237379776,1.12026236176138,1.12014569105267,1.12026219980934,1.12107103091463,1.11901677739815,1.11560996886408,1.12958507198752,1.18331242580405,1.1646763744855,1.17055142339401,1.13885649298242,1.10128841015368,1.10154291256385,1.10071002997439,1.10756436187685,1.14175675771735,1.10492822136691,1.1073138537062,1.10587533482626,1.1058825568319,1.10372983063511,1.10243237014888,1.10180659862942,1.10144444482938,1.10042076543041,1.09894358299246,1.09854668535119,1.09809391078408,1.09763262213671,1.09729530012824,1.09633141002629,1.09442682870695,1.09396580732306,1.0934726429669,1.09396445832683,1.09411980432154,1.09336985803752,1.09236075525708,1.09252836636595,1.09238064210614,1.09288112507819,1.10335095275275,1.10214106456877,1.10198342413181,1.10097049210535,1.10304426830205,1.09776333549572,1.09671117928808,1.09724744211555,1.09765289800364,1.09778974521443,1.09746946727078,1.09762673909188,1.09682167079503,1.09760518959097,1.09711452228565,1.09748080034173,1.09689680632488,1.09661818126048,1.09549316425807,1.09535845827352,1.09354512490426,1.09481966069869,1.0945878323251,1.09334807840718,1.0925935903048,1.0980398194628,1.11015052485513,1.11027886463296,1.21706689755545,1.10164308445694,1.10012333450261,1.10132004063409,1.10082484995583,1.10174257852273,1.10116419115832,1.10241354371915,1.10258696353197,1.10432737976366,1.14134062218892,1.12081092831253,1.09702814926266,1.09736339742984,1.09710111163967,1.09875922401415,1.10041234718677,1.10048145913986,1.10047718691817,1.10036615120003,1.12081467046211,1.10807847529673,1.10685704775839,1.10797369735413,1.10671565553655,1.10779566100911,1.1077912874756,1.10863105759146,1.10958959531433,1.10864039569847,1.10795985829751,1.10818568045588,1.14871468034868,1.12660937379715,1.12126178648989,1.12184325711194,1.12116511596414,1.12378806092429,1.12572931777164,1.17438941141672,1.25279139792084,1.17801513485102,1.12381684022608,1.12251401769353,1.12068036811288
1.09604192595364,1.09675156043971,1.09714734998268,1.09757791081357,1.09732427823651,1.09761112826844,1.09774254650192,1.09872513698096,1.09996806688675,1.10200484883326,1.10213029720263,1.1029538495118,1.10305217621422,1.1038884950151,1.10372779708051,1.1042390332423,1.10368417517194,1.10364885971832,1.10235631305272,1.10122771295698,1.09945639683788,1.09792313509865,1.0975060114215,1.09660271515007,1.10264484653552,1.10902813694284,1.10795961365552,1.10746383229209,1.10725602860623,1.107498361698,1.10766278613232,1.10830584263834,1.10912765796842,1.11014285711084,1.11121214015102,1.11198525946088,1.11292894560051,1.11343745045545,1.11374043297675,1.13070818588914,1.12709727827804,1.1229516729118,1.11977713576023,1.11934825393187,1.11898220049493,1.11923835042085,1.11896070828397,1.11895851811541,1.11858439953465,1.11797109381609,1.1173595225726,1.11651912120462,1.11639390148286,1.11657418015469,1.11733998275425,1.11807516036159,1.11892783517603,1.1194372012838,1.11974174095497,1.11955779823536,1.11984768140658,1.11936210794372,1.11822329925563,1.11638450324213,1.12927611298927,1.15085152066966,1.15130587102193,1.15170334150709,1.13673934421134,1.10121096885381,1.10093521216521,1.10053470627198,1.10033911798966,1.10121209645287,1.10307419997889,1.1049958439684,1.1050539424564,1.1046319616963,1.10353692511451,1.10215150158545,1.10215348196519,1.10223390382596,1.10136227088558,1.09980849448313,1.09889311002376,1.098359978419,1.09785591177521,1.09763707253597,1.09679127901983,1.09521542390135,1.09377142517407,1.09412372357379,1.09417458149401,1.09484850718467,1.09460340237335,1.09479642973966,1.09444161592657,1.09457523942092,1.09576128286595,1.0992649839859,1.10023118636046,1.10019205661028,1.10019360124979,1.10037182581703,1.09917280576478,1.09827351626589,1.09856068300539,1.09912689062862,1.09889002190743,1.09894879399737,1.09863681328986,1.09883384309259,1.09863825718558,1.09886985725988,1.0982897053768,1.09805283539952,1.09748472991403,1.09734002974502,1.09678033977852,1.09656774381613,1.0966462151876,1.09742423074624,1.09846353713457,1.10032154716931,1.10295706470817,1.10662486529313,1.10811719849034,1.10696515239966,1.10496836162515,1.10326383338333,1.10341608155546,1.10340758766472,1.1035087592943,1.10426417866989,1.10437836143098,1.10500877844867,1.10553182319668,1.13200457264537,1.12527646206184,1.11922540334515,1.11381450484482,1.10962414432165,1.10679431611936,1.10122282522094,1.10127251031187,1.10214648012541,1.1026631537273,1.10470097001795,1.10637239034921,1.10737237735494,1.10791776770144,1.10835353854894,1.10849540949228,1.10874044249843,1.10937272609459,1.10984161438206,1.10976336961282,1.10963209571762,1.10948507711438,1.14007583811281,1.13669751286116,1.13564161240606,1.13307945977637,1.13004431815097,1.1279121108589,1.17104883739005,1.1897535178877,1.20707476386745,1.19345099659382,1.1703135012362,1.12470552700362,1.1248695300231
1.09770378823112,1.09838112463111,1.09881927219182,1.09860920256815,1.09914975903754,1.09710100212485,1.09902263184049,1.09798015333789,1.10127921682552,1.10315034678044,1.10356351657825,1.10350417202864,1.10480199264102,1.10588346479504,1.10591978917267,1.10642901643213,1.10577299182529,1.10567071096633,1.10370622283172,1.10110577928707,1.10012805595177,1.09748495100168,1.09821229431537,1.09586041319798,1.10388463539703,1.10862115430269,1.10836500455186,1.10804230500889,1.107808309842,1.1074035491416,1.10781757331616,1.10784632685461,1.10907630583454,1.11064276283018,1.11087002626933,1.11171705914923,1.11224122875958,1.11288201028842,1.11366920977472,1.13656893882887,1.1310133847275,1.13401916637623,1.11935176923025,1.11946406631131,1.11928765889021,1.11795969766052,1.11897212063973,1.11799697898456,1.12434343505985,1.35129389873235,1.12449738434831,1.11539615643233,1.11585168207157,1.11490695830775,1.11668962226666,1.11683172783179,1.11801506105846,1.1187101018044,1.11906127147185,1.12008899915616,1.11937752089331,1.11885468624966,1.11742766550893,1.11510212843885,1.12848264346337,1.14944876666312,1.15045586827291,1.15121046200356,1.13475851166783,1.10029561249203,1.10043739718989,1.09895592298342,1.10018170499175,1.10046394561855,1.10173560559145,1.13827883805462,1.10420158599704,1.10557851280992,1.10283025873756,1.10165518703347,1.10208775826916,1.1041426809162,1.10294666736766,1.23043921946107,1.12567023763985,1.14233466407801,1.12763311704363,1.1519275286127,1.1032013765731,1.10935995250232,1.093602578486,1.09451554135743,1.0949119078662,1.09541866277645,1.09609149183124,1.09694925835323,1.0962391458912,1.0957597516413,1.09688221828787,1.09834318038825,1.09899726240297,1.09891611813897,1.09950868663165,1.09998410587916,1.09933193802422,1.09877638767698,1.09962923352692,1.10098973249173,1.10020866351597,1.09982441546176,1.0999360775324,1.10001536651698,1.1001274694033,1.10022076408056,1.09961820517676,1.09841219513708,1.09878021547187,1.09834149065029,1.09860494540387,1.09818136839712,1.09894442885362,1.10787579645902,1.10813175118886,1.11354840807779,1.10451880275225,1.10498454093047,1.10667538990663,1.10600262241359,1.10646840992686,1.20518824544629,1.10537336085524,1.10423164318557,1.10576645759927,1.1064451872933,1.10678091611396,1.10713752523784,1.10741264691815,1.18257064265266,1.16091909647246,1.17967860194298,1.13758541922334,1.12919684389142,1.12006424637395,1.10142798717251,1.10209434292863,1.1033191749993,1.10474528912285,1.1047016518303,1.10710864896085,1.10719391121489,1.10903523832768,1.10930717526086,1.10957612938606,1.10908532009512,1.11032358423774,1.11105316187492,1.11124562469175,1.11204060642953,1.11135053389774,1.30718202918116,1.13717968617935,1.13784019495816,1.13235057568213,1.1256305016157,1.12666050787433,1.33507564975891,1.20605572807862,1.2415760218354,1.20726428002532,1.29718593131252,1.12680965865294,1.12691883421728
1.10371938769704,1.10308178992712,1.10276798765686,1.10216620709344,1.10138010891407,1.10133249705728,1.1008217912358,1.10112035903629,1.10185708972538,1.10319562981586,1.10350421269477,1.10445728256105,1.10489006097089,1.10611082259969,1.10580083675178,1.10637479508933,1.1055447337899,1.10550477726206,1.10411997812298,1.10245858531198,1.10125217362331,1.09925068587948,1.10096898145189,1.10379496194176,1.10589725008201,1.10779043808927,1.10817032078232,1.10806369002096,1.10795597603008,1.10792016704222,1.10803483081934,1.10824467548765,1.10915133107309,1.10987669901036,1.11112956945244,1.11183466227222,1.11273548864033,1.11318712121575,1.11433580578058,1.11560421898518,1.11741456412859,1.11921169204062,1.11949052666824,1.12016666510473,1.11934792026621,1.119114641428,1.11931792215553,1.12406116669959,1.12608067467076,1.13109645862408,1.12694597636535,1.12346997040969,1.11676397704131,1.11615125697021,1.11670900196609,1.1171708121447,1.1178148952097,1.11815213793424,1.11887789820848,1.11935021361229,1.11955721231228,1.11934078048304,1.11728008653671,1.11528461123002,1.12830734103967,1.14942390018361,1.14981179626345,1.15000620098377,1.13150635118933,1.1000089688438,1.09976839816593,1.09978768271467,1.0999384061202,1.10051802080112,1.10107192307193,1.10159675126467,1.10279542063833,1.10291469165021,1.10238593378631,1.10137706099691,1.10169919761417,1.10293326183761,1.10322053173077,1.10783610596416,1.11721449518953,1.12269329841181,1.11874662956031,1.11001589553488,1.09952606114603,1.09593829505607,1.09343719255899,1.09380535995452,1.09453311963139,1.0958151854427,1.09634973826318,1.09727266062878,1.09705230615143,1.09729987730285,1.09769502962265,1.0983863595064,1.09884609350754,1.09898680434313,1.09935322332991,1.0995058655594,1.09947516658297,1.09949797838246,1.09988844893741,1.10056554678541,1.1003621183267,1.1004372496967,1.10027684840434,1.10041825834148,1.1006238950501,1.10097172744429,1.10055422303325,1.10026183205176,1.09976777687822,1.09971726937074,1.09967297619317,1.1004348747833,1.10186089960119,1.10578309369041,1.10779901028318,1.1098277598965,1.10656139836848,1.10559045005373,1.10633591798677,1.10649246123047,1.10722170889709,1.10767882153236,1.1074282824966,1.1074663640508,1.10763883630064,1.10826022707125,1.10842698994586,1.10889855751086,1.10922958839832,1.13388697090537,1.15396382843863,1.15824263132452,1.15102097700788,1.13996541715255,1.13106846153242,1.12446935750019,1.10884823794156,1.10771649991896,1.10709495545714,1.10788408252205,1.1086215601556,1.10991417561748,1.11023452862731,1.11066888336687,1.11097369752479,1.11114963270439,1.11190972399102,1.11213906359865,1.11289070348143,1.11323055623823,1.11337610054166,1.17573790979148,1.13585979720272,1.1347984444016,1.13157956862356,1.12741294017761,1.12544133316712,1.12527365146781,1.12558572662491,1.12579765706246,1.12655120317005,1.12785356274443,1.12779020063498,1.12759237253596
1.11179887331301,1.11057977019572,1.1071359315349,1.10444522663801,1.10421505914888,1.10348578349705,1.10327581550293,1.10202303208813,1.10305991036278,1.10261092702849,1.10400493377241,1.1042302144937,1.10555514253002,1.10597070976474,1.10637417069128,1.10562224400755,1.10595924960039,1.10465879584216,1.10527797811174,1.14808477947926,1.10351528266173,1.0963578619908,1.10284808112607,1.43335735470967,1.10741929979614,1.10804432142134,1.10820993494623,1.10788939073158,1.10829025644887,1.10805394404539,1.10838909239354,1.10842480141861,1.10911211678713,1.10981379071143,1.1112050332452,1.11354361418116,1.11299880883609,1.11415724031682,1.1144294359449,1.11529061982614,1.11873015585265,1.1215976870823,1.12057545166126,1.12152923024236,1.11985528842451,1.11779926092621,1.11933345520748,1.19815305964616,1.14187908800047,1.1493076727197,1.13367243049778,1.45261597297296,1.11746924491922,1.11583561225682,1.11630077566061,1.11634935616807,1.11752031363934,1.11735866180137,1.11864975688748,1.11933650801458,1.12001572007265,1.12169774919544,1.11646112096385,1.1123177155562,1.12622629600204,1.20901547547916,1.1625656582759,1.16076232546366,1.12617292417124,1.09930434955546,1.09943544252676,1.09894792733346,1.10037788968828,1.09975418862813,1.10082563435353,1.10129884660869,1.10183994997786,1.10286730289315,1.10132589170845,1.10192984533206,1.09997983837139,1.09194854362932,1.09149643127344,1.09095057128865,1.11182147226498,1.1525197221736,1.11230539068361,1.09034148752498,1.09024593929977,1.09081879805871,1.09214067823969,1.09267242295939,1.0946486875052,1.09626980488692,1.09711078806751,1.09798427997577,1.09804876197737,1.0981020595828,1.09849538060775,1.09858272863199,1.09907787841112,1.09913695048681,1.09941388520852,1.09936096680439,1.09966334887222,1.09962824555178,1.10016844734244,1.10044356949726,1.10066528924035,1.10059933563997,1.10072364756913,1.10016490046962,1.10131519315408,1.10197152533861,1.10175454034476,1.10164707257628,1.10095075568609,1.09994061801958,1.10068565245915,1.10045894651209,1.10298882998416,1.10450581810818,1.10653072727832,1.17253991876799,1.1059679174695,1.10387163884431,1.10587897695755,1.10563914014537,1.10744645798327,1.10785289273243,1.10891107067009,1.10983062927671,1.10964821522712,1.10987477994764,1.11014473242594,1.11071372780539,1.11098261218115,1.11148705261326,1.14866189286956,1.16905440907683,1.16339156794688,1.16585756195838,1.16436218184616,1.17217049094048,1.11125274703011,1.10840258617395,1.10930755195571,1.10903867113152,1.11116576104,1.11153270308417,1.11228138135186,1.11112193506756,1.11268889339954,1.11211256651335,1.11354631959345,1.11314758181017,1.11464041632638,1.11491820421542,1.11577848748983,1.20759263672222,1.13421745198138,1.13344023547471,1.14352224657264,1.1890493555696,1.12483930588988,1.12622155096491,1.12708632320891,1.12703946951978,1.12832909860749,1.13050956033372,1.12901736756189,1.12843283982514
1.11245220138897,1.11049015155016,1.10832294421691,1.10700977832336,1.10615316489406,1.10599130897017,1.10543798241965,1.10485133057853,1.10451529860802,1.10401706644435,1.10436450855928,1.10503891840085,1.10549864536264,1.10632750442727,1.10606853707883,1.10639793688569,1.10578965956681,1.10592159377831,1.10574177292045,1.1060338204985,1.10555529936681,1.10619038612569,1.10578232624562,1.10704304436531,1.10797176510352,1.10833067715128,1.108895807177,1.10890243998889,1.10933383803751,1.10941854740375,1.10956504747101,1.10938542626327,1.11023245376161,1.11057327762538,1.11205265871784,1.11281031366339,1.11360542989227,1.11386346035451,1.11510334974584,1.11605760935736,1.11777635564295,1.1192201698716,1.11933347375995,1.11997139794157,1.11904037799123,1.1187506627535,1.11909636363594,1.1728073194181,1.13596429904035,1.13058308551739,1.12697838116814,1.12342944834098,1.11879619296258,1.1161574841392,1.11579385112535,1.11664808318173,1.11754600275053,1.11793684664121,1.1186216298166,1.11920595188794,1.11922030628017,1.11908899621222,1.11641571357687,1.11412575319536,1.12015714253222,1.16644821242305,1.16377648523418,1.16289075848282,1.12116313250348,1.10864425921391,1.10638466827463,1.10410592121295,1.10195765956416,1.10088473018953,1.10113999328173,1.10165812740144,1.10189024345858,1.101548745124,1.10046134618198,1.09859804433538,1.09667068316122,1.09281403456851,1.091668942969,1.0906239802855,1.09026421313822,1.08976476424689,1.08963399498425,1.08954889987323,1.08983660944407,1.0907933342406,1.09196473665449,1.09320917663589,1.09469285193901,1.0961998986921,1.09732123848,1.09817269502888,1.09840549256549,1.09880973798969,1.09907196761647,1.09956489149978,1.09962157385835,1.09978019300187,1.09975811321082,1.09983194111868,1.09991613003749,1.10013449808797,1.10021782231277,1.10042929768241,1.10076551051706,1.10109076060813,1.10159199405003,1.10193280925182,1.1024580369827,1.10271140966431,1.10272574914818,1.1025427446805,1.1018736195363,1.10142692209972,1.10140050491186,1.10213737687434,1.10356012873162,1.10559138632104,1.10645955522794,1.10704194257576,1.10686873627854,1.10650508926886,1.1071296059975,1.10763475294173,1.10881859000687,1.10971574476691,1.11039296006637,1.11092700530564,1.11114866513092,1.11149372204408,1.11175974469071,1.11201880541363,1.11255095853678,1.11281708999276,1.14228702362186,1.15791275350571,1.15993069097129,1.16187234728596,1.16232364895657,1.16783191196339,1.11404636020483,1.11038782208154,1.11121048570826,1.11239229062804,1.11309922852277,1.11438750042333,1.11452525826121,1.11447297455699,1.11551491793045,1.11662499513196,1.11680785541796,1.11761388590378,1.11795955145106,1.11880143077865,1.11901388509933,1.13128271369988,1.13205998138077,1.14595894591122,1.14828079956163,1.16883219255874,1.12657368826985,1.12832937487965,1.12968134384815,1.13008461715691,1.13022893405323,1.13016831312112,1.12913648286766,1.12782300985397
1.11399721171401,1.11716463724666,1.10902212756143,1.10789040607741,1.10799375813572,1.10789922968779,1.1077874190391,1.10902975114144,1.10619956962236,1.10384905633509,1.10504560824894,1.10504305281922,1.1060839811259,1.10624186512746,1.10661286411243,1.10607831423449,1.10634881963374,1.10539532412683,1.10633967119033,1.10594495929713,1.10665414472391,1.10672653699546,1.10709013367104,1.10735323135318,1.10840842806053,1.10883952755562,1.10965194544897,1.10972810890516,1.1105539746898,1.11120754117058,1.11073021869481,1.11037514296942,1.11105010656171,1.11158999126912,1.1125437309073,1.11385571758842,1.11376937805073,1.11438505084536,1.11517718435357,1.11655785154028,1.11730743817963,1.11771293839466,1.11864253223071,1.11822448372966,1.11850704971799,1.11715703009134,1.11821728279606,1.20572759150101,1.12967997247926,1.10873680740982,1.10817489119199,1.10821586283167,1.16014276651386,1.36086575902567,1.15620721558036,1.11669209191219,1.11748864048989,1.11737265957985,1.11849974814556,1.11860814755159,1.11879170884805,1.11789104793206,1.11569931853742,1.11231875375417,1.11335817396527,1.16978445365819,1.16350219456815,1.16433259701243,1.11814059892357,1.11065749721208,1.11060420727278,1.12202046441389,1.10298671057736,1.10002404779537,1.10178280643208,1.10299022906649,1.10218339710315,1.10286283324393,1.09953926508963,1.09756486519253,1.09502046111863,1.09191243794151,1.09096374103579,1.09004093122637,1.0896768005792,1.08950440403831,1.08907950886763,1.08892060634649,1.08897115888626,1.18990706295012,1.14876067325922,1.22410217067947,1.13407287627323,1.16405371467698,1.09791032846673,1.09865704273617,1.0989781014002,1.09907624067703,1.09988834775449,1.10051303454941,1.10044173918393,1.10030263753019,1.10033848610367,1.09991461195661,1.10039388608777,1.10025231953949,1.1004796864506,1.09982478805579,1.10102840352325,1.101303338732,1.10244947555254,1.10386977260407,1.10347737593755,1.10419259808501,1.10363253087672,1.10401266518239,1.10284625742331,1.10175099365733,1.10218744146512,1.10165928520509,1.10427194101308,1.10649360362373,1.10684346122212,1.10729349775432,1.10749463808334,1.10787901708752,1.10819292975778,1.10903600142767,1.11008954153232,1.11212747177076,1.11172773021013,1.11261770526786,1.11250585782573,1.11355893611992,1.1130902209454,1.11379855127089,1.11379973687707,1.11447286253939,1.13545472493602,1.15528365419046,1.15679185797253,1.1555182389086,1.16022360697375,1.18165003838729,1.11601984054799,1.1109529499864,1.11311551412126,1.11395513572524,1.11565891793944,1.11635502479345,1.11788306196444,1.1199869908068,1.11890550884209,1.11952740170735,1.11958194358828,1.12189505628849,1.12060098208412,1.12033407528449,1.12258870853441,1.12489496657497,1.13147625042632,1.16461772797151,1.16565181341338,1.23573362210229,1.12926681036476,1.13110084364954,1.13213732904668,1.13214393784528,1.13180053856617,1.13099738947632,1.12898142052801,1.1265809318905
1.11316317928172,1.1134073270279,1.11077482342378,1.10991936142315,1.10931116235888,1.1092083612492,1.10882779397549,1.10874718807455,1.10761091453151,1.10668112948407,1.10650369531961,1.10652631434491,1.10666286031155,1.10690792125724,1.10661155687947,1.10659518819867,1.10627660360938,1.10648443853174,1.10661802368693,1.10716018703794,1.10751886291578,1.108062311771,1.10843166505957,1.10882019588276,1.10993453270844,1.1107214212949,1.11155400871785,1.11196147164979,1.11246615077062,1.11249191549943,1.11272504598267,1.1124931972768,1.11309684999289,1.11279325082038,1.11395770157984,1.11401727088508,1.11476516806938,1.11501896133028,1.1157184552361,1.11640716225897,1.11690560793302,1.11765318963579,1.11781047389881,1.11847408745544,1.1178205814608,1.11768080558834,1.11670750340863,1.11459822982293,1.11191324168478,1.10879463144495,1.10741467496598,1.15782886305888,1.17131766389419,1.17806483210752,1.17365057218442,1.16519228417637,1.15679065705472,1.14754412614632,1.13749736258805,1.11825244881627,1.11778711506061,1.11677252237318,1.11485774560265,1.11251468883345,1.11198075860861,1.11213131603023,1.11406537760156,1.11528154190324,1.11550129629259,1.11312463977435,1.11067444090387,1.10693111760376,1.10436056121356,1.10393671314238,1.10291561352563,1.10286612878965,1.10184705388806,1.10075627198468,1.0988820199699,1.09661371669622,1.09468730438533,1.09220542497441,1.09112693796388,1.08996923088985,1.08984244207816,1.0891227471362,1.08911324175186,1.08864348149818,1.08899490502124,1.08947828051648,1.09084898646547,1.09285746586498,1.09451270189383,1.09602035957997,1.0975418630928,1.09865763701005,1.09945777294532,1.09995469268797,1.10025871777092,1.10073370046262,1.10071781141295,1.10093676913683,1.10081278970311,1.10091450420808,1.1008831559899,1.10099341696217,1.101109108314,1.10131105557874,1.10211304260895,1.10279446679403,1.10353847878001,1.10390756574465,1.10431130378254,1.10428291638545,1.10433899228153,1.10410063038419,1.10367266572202,1.10339328983867,1.10291048496392,1.1031606749388,1.10398013491058,1.10544695840764,1.1062557253684,1.10706224194266,1.10775081585184,1.10822508555509,1.10906624149091,1.10985482351805,1.11095516571586,1.11192253547282,1.11241152722066,1.11279526443647,1.11336869919002,1.11389916437625,1.11423854448011,1.11442357434868,1.11521150745291,1.11573087726896,1.12896236210633,1.13597592102757,1.14433370791905,1.14715149812778,1.14773755245501,1.14822822614069,1.11872026959063,1.11541147698107,1.1152842513073,1.11654403423118,1.11742230643246,1.11864482960937,1.11942760139012,1.12073773984156,1.12056903197548,1.1206853550239,1.12131259388165,1.12192631292208,1.12344439468967,1.1255343564441,1.12578719778544,1.12656162438982,1.13222134079991,1.16432165477936,1.16499271021847,1.1958640623235,1.132099970345,1.13318035335257,1.13413414245626,1.13405908548946,1.13360030285038,1.13208446846224,1.12990230333317,1.12879333952448
1.1128552640544,1.11187410249039,1.11155801112092,1.1109496588633,1.11047543157671,1.11030613723077,1.10979791267504,1.10988825155812,1.10889437556788,1.10875731609567,1.10790369079359,1.10763520002946,1.10761063402064,1.10732326563552,1.10725578259857,1.10614358979794,1.10682762461406,1.10621633808138,1.10737722706244,1.10765418749303,1.10852948376826,1.10939740765133,1.10950435749932,1.11001113723967,1.11117334062035,1.11290964346779,1.11323034527408,1.11438082401714,1.11423922045053,1.11430738768497,1.11443180016648,1.11456686317002,1.11517123401103,1.15722296382905,1.11555022926443,1.11377755822586,1.11555114546434,1.11605041358274,1.11618272810147,1.11640975841546,1.11697763141477,1.11685341378876,1.11803646573884,1.11788125155122,1.11811260794029,1.11699395891385,1.11643927655365,1.1144424104495,1.11265179758729,1.10728690707586,1.10549840128935,1.23598973629709,1.18100033934372,1.19967195832102,1.18334559981136,1.19970846130299,1.19843944047489,1.19708444019046,1.15729044249091,1.11732204948631,1.11703758099653,1.11524934134143,1.1146803578738,1.1101816772965,1.11084583904065,1.10995719521004,1.1149014437325,1.11529011820386,1.11564600903616,1.11502249230576,1.113456768408,1.10628046097652,1.10576545485922,1.10519646438715,1.10420911553815,1.1035173439467,1.10192866906162,1.09992789345627,1.0985146096966,1.09631431283775,1.0945735485623,1.09162648686846,1.09089704736411,1.08989429388677,1.0897864954605,1.08914012693038,1.08904140492465,1.08859225030661,1.08926285401908,1.08951653637964,1.09144102579427,1.09420989093608,1.09482633125396,1.09588379475898,1.09712220241914,1.22524230916331,1.10011472787211,1.10034049285915,1.10080275040857,1.10061797692627,1.10127992041909,1.1011577879577,1.10161835281749,1.1013229903784,1.10173394524856,1.10108089611465,1.10196312629826,1.10190062539506,1.10323439226454,1.10460106392628,1.10442373017335,1.10496656071133,1.10471683781375,1.10549951470242,1.1047295691003,1.10492893659927,1.10453502699773,1.10459241953789,1.10388357009753,1.10257280820639,1.10403516194162,1.10375072204974,1.10592191236213,1.10659489847313,1.10794936004658,1.10861091967945,1.10967665931262,1.11110876559357,1.11163690139944,1.11300653753483,1.11291546852467,1.11344197390051,1.11406294036124,1.11515774955329,1.11505237253295,1.1157624880865,1.1162705096733,1.11848526459017,1.1180607585418,1.11845372128646,1.14194146344501,1.14800365389877,1.14810801694287,1.14887033139346,1.12270215820755,1.11532850941775,1.11642088663662,1.11825314102136,1.11959145596521,1.12027315827547,1.12147974547562,1.12258105710019,1.12240698158035,1.12174036582556,1.12279288009835,1.12245286629531,1.12561492089088,1.1286539103835,1.12834770487104,1.12898343045642,1.13438082453808,1.16330083773941,1.16413467373825,1.27561168295058,1.13527113650495,1.13602286048564,1.13614401659658,1.13583918571696,1.13574906997474,1.13492268367074,1.13763245779244,1.1496361614149
1.11277224470325,1.11257062903599,1.1117297746051,1.11134060221933,1.11067095416931,1.11046557899867,1.109994381829,1.10977665824296,1.10945665492774,1.10922759589342,1.10888628408588,1.10861752600243,1.10865643065724,1.10869113165077,1.10830884599296,1.10794766020753,1.10777616992287,1.10777423975339,1.10826809250617,1.10884530028653,1.10938730262587,1.10986635238114,1.11053235990846,1.1111166797887,1.11210645365536,1.11297061033954,1.11412845385237,1.11500592014563,1.11622692135557,1.11641661961904,1.11681787909824,1.11697118938799,1.11784669370322,1.11911906505039,1.11825492909872,1.11825422295847,1.11740154836769,1.11705284351034,1.11629576806469,1.11596621782446,1.11659029848065,1.11744056858171,1.11755819521559,1.11824040935463,1.1175004424634,1.11738879010733,1.11576609680736,1.11423880454408,1.11136539505256,1.10666915137053,1.10392583974234,1.14870040728396,1.15939366052186,1.16770150485398,1.17490752990791,1.19895520885259,1.19886905109948,1.19824346624799,1.17748685034695,1.16951473758017,1.16413230643746,1.15908782946574,1.15274178774095,1.1448794407561,1.13602228464349,1.12676671853754,1.11515363561439,1.11586049659149,1.1150684756015,1.11483492812542,1.11309667771921,1.10995163689504,1.10719140771605,1.10574637049363,1.10438222102825,1.10343089245372,1.10176016134829,1.10051937694299,1.09883169163878,1.09738936223427,1.09584690742062,1.09461232959861,1.09206479101027,1.09153256076408,1.09064182194839,1.09000115027449,1.09032421503494,1.09026245791518,1.09084137950649,1.09133575282595,1.09221399228436,1.09364033725851,1.09502532916086,1.09650191463764,1.09766679851052,1.09877859449754,1.09995528209324,1.1007397416215,1.1011171349598,1.10151660729059,1.10169786426718,1.10205767664682,1.10231617239536,1.10281713460598,1.10289580425916,1.10310387604308,1.103304748007,1.10358148228717,1.10447228869605,1.10522285582752,1.10549968482912,1.10531743060924,1.10544630106519,1.10507100511098,1.10518388562579,1.1050341908098,1.10489252947899,1.10495273485974,1.10421000915855,1.10415840061009,1.1042038941415,1.10486756541675,1.10608697497887,1.10736819053094,1.10891433881823,1.10964858004751,1.11068373045484,1.11153294483205,1.11236784183828,1.11299287357769,1.11350015368129,1.11383223906657,1.11484892250407,1.11571552805058,1.11597622372457,1.11612858080879,1.11715756014739,1.11795794656102,1.11840231616364,1.11889405640613,1.13543563595491,1.13461260358058,1.13368147469047,1.1334886931186,1.1268820915354,1.12545727461703,1.12354532224751,1.12149141045508,1.12138772342064,1.12222337477284,1.12324149580212,1.12424559097179,1.12463775355853,1.12546627832374,1.12662032087421,1.12792872140172,1.12914480649686,1.13020805602192,1.13105449535333,1.13187827023237,1.13733963506493,1.13952834385959,1.1403542560408,1.14007846371944,1.13848609074384,1.13823859577292,1.13843516637329,1.13844423211295,1.13933392570939,1.14067997187913,1.14327918380653,1.14698713725228
1.11321846814591,1.11277183360811,1.11218552697144,1.11102174886636,1.11099604735191,1.11036320683283,1.11023385795752,1.1097330841829,1.10990106700503,1.11016606766549,1.10959502913629,1.10968054535501,1.10968622360825,1.11036382666168,1.10971683613563,1.10904231410748,1.1091406855405,1.1083092025319,1.10956556177205,1.10994388664778,1.11047197330187,1.11050494259822,1.11144052100173,1.11214415417115,1.11272196165941,1.11257114812166,1.11463774743046,1.26597795467753,1.11846719922991,1.11877757568355,1.11876556616557,1.11890490320772,1.11964441410759,1.12090804185059,1.12036952276481,1.12035161440555,1.11941753707242,1.11795631686019,1.11640699428371,1.11330390740289,1.11695308344697,1.11696556811423,1.11828367078242,1.11785863301138,1.11818277767694,1.11722818996864,1.11629534422583,1.11453237361756,1.11320445560403,1.37810041052333,1.10283440604057,1.10229057700299,1.10226363937546,1.10169559521891,1.15502165178615,1.2884802227355,1.20017367328073,1.20247689509621,1.18769557898701,1.20773310400335,1.1827314625626,1.19114917186228,1.1599080599692,1.16023763443556,1.15862449906118,1.15894351879239,1.11638960962659,1.11675737996784,1.11601373449502,1.11392188187308,1.11542300776862,1.11798233312743,1.11646794652966,1.13821248447837,1.13781656170784,1.13949462160416,1.10157184899405,1.10060525495296,1.09967004515805,1.09795543229045,1.09780815508342,1.09783366935479,1.0995690537507,1.11124321834239,1.09618407652583,1.08982619510616,1.09111218182619,1.09199544244561,1.09267021311039,1.09337084744081,1.09314653160646,1.0935424042726,1.09540546038611,1.09735402247699,1.09808051958243,1.09815232164496,1.10012205258625,1.10067799771826,1.10177062515339,1.10165148083536,1.1025311550583,1.10212402042018,1.10338543541588,1.10393409960968,1.10441353492384,1.10455798347872,1.10479471237352,1.10452308541201,1.10565303138912,1.10690399537645,1.10636507939946,1.10659142857735,1.10580465295705,1.10544344224993,1.10539994600136,1.1055974113068,1.10541305905679,1.105240332274,1.10486048384284,1.10393634671033,1.10454882631088,1.10397992334212,1.10608044901368,1.17027742070691,1.11024381653458,1.11075770125537,1.11160298638975,1.11267616309571,1.1131789755637,1.11368045610845,1.11420996109337,1.11384428309399,1.11580526651286,1.11715554119817,1.11680916228808,1.11637403215511,1.11777034411187,1.11941739572083,1.11925868507742,1.12085762043571,1.13564934065892,1.13632286234481,1.13434743056146,1.1356665906706,1.13141570178041,1.18498440318081,1.12610374304197,1.12153465826868,1.12216813560844,1.12321027961872,1.12523462831577,1.12649472927372,1.12704297208726,1.12777916134357,1.12952544047966,1.13226737596653,1.13206160907228,1.13337193613934,1.1335670229021,1.1346596998448,1.13854187183281,1.14090214157638,1.14082171119213,1.1411393234973,1.14027081580398,1.14013281346045,1.14020865115961,1.14077744439423,1.14198411217851,1.14496142312375,1.14424329731362,1.19491628773113
1.11292144845799,1.11286854340357,1.11198674617163,1.11168197655785,1.11101198198219,1.11081984044465,1.11044785480167,1.11031567888657,1.11044835329187,1.11040351413203,1.11027685726904,1.10994658412262,1.11047118878626,1.11082432318693,1.11107959016349,1.11119066162961,1.11116124267745,1.11122755837565,1.11170184147239,1.11218599559898,1.1124165871718,1.11249709867512,1.11299768937036,1.11333140358608,1.11400252832761,1.11461621023776,1.11621844297582,1.11979713381682,1.12023298750565,1.12098081396882,1.12077691586178,1.12066386037513,1.12075456045137,1.12109724819903,1.12164847444981,1.12214371604382,1.12130800140761,1.11999381609475,1.11941036708733,1.11958019554504,1.11905656892558,1.11910002100351,1.11879931640801,1.1189111628227,1.11820126458336,1.11788690543159,1.11595834491272,1.11307302777817,1.10824302590336,1.105139341276,1.10334788101629,1.1027865095715,1.10246958555869,1.10192241850114,1.13361836552249,1.14725489757105,1.15577069462929,1.16488092766169,1.17644612374054,1.19007091110149,1.17630290903954,1.17270690123843,1.15918268362128,1.15951617044172,1.15811667096443,1.13754445560763,1.11735010593049,1.11766436577823,1.11616699281521,1.11545628076795,1.11477590933099,1.11516075032123,1.11477238001559,1.13809738675048,1.13613430748028,1.13326937920876,1.10162654306484,1.10097006967086,1.09990461846602,1.09938062286058,1.09890678865171,1.09965927483606,1.10129663838811,1.10667619413538,1.0998007839662,1.09919436007513,1.09755582723755,1.0951944985471,1.09474003298456,1.09436852459905,1.09368583218301,1.09386598624939,1.09551912311111,1.09747158212969,1.09864512505866,1.09982919688354,1.10091630769177,1.10203547701554,1.10277563099577,1.1036406843159,1.10374658041845,1.10402214239099,1.10435561345619,1.10494339923264,1.10566521959372,1.10645922160334,1.10653105143817,1.10658700815216,1.10699186022679,1.10732375997231,1.10736548382847,1.10713446492962,1.10693076453309,1.10640025088034,1.10613181154414,1.10573541712379,1.10556027833346,1.1055276665999,1.10473669582147,1.10448714297928,1.10473486828412,1.10582738947203,1.10731015018121,1.10940632086812,1.11084790633944,1.11178508967984,1.11264841773891,1.11352131913464,1.11437178181361,1.11532091224317,1.11593423423174,1.11662052244701,1.1173112204888,1.11801513062511,1.1178203537962,1.11774465851342,1.11859784881459,1.11936659685363,1.11963502879065,1.12017508074252,1.13399542658984,1.13594299099164,1.13416727862156,1.13288303136593,1.13199593826776,1.13127371447618,1.1291973502975,1.12812443954895,1.1281952935322,1.1280581003928,1.12790148942244,1.12877353588713,1.12934795073793,1.13024432980938,1.13130198125527,1.13284507340244,1.13367200099708,1.13477953706093,1.13580106102385,1.13705917828958,1.13897969685373,1.14046281972215,1.14111917878846,1.14130108899666,1.14151695583679,1.14178255362417,1.14200135347595,1.1422834372186,1.14313928663091,1.14404448566522,1.14439030366594,1.1678577273246
1.11309757659328,1.11246141234772,1.11224513934098,1.11148753749359,1.11139926852122,1.11070155254274,1.11081381621038,1.11061367208407,1.110920802706,1.11157004594048,1.11067014356773,1.11016183254488,1.11104790063803,1.11179599586473,1.11256134405862,1.11326635844061,1.11334724530541,1.11355384393576,1.11399472732115,1.11491411850399,1.11445927668515,1.11460766093417,1.11452075052931,1.1144158443228,1.11506272032623,1.11487076857216,1.1178033622739,1.12044487730971,1.12175660265824,1.12397341489172,1.12261154720729,1.12192005206775,1.12169962932427,1.12080317596847,1.12300168677038,1.12480607456984,1.12590442729432,1.13039942249283,1.1293375762771,1.12924116539724,1.12084459935108,1.11986579061757,1.1200036448151,1.1193013300139,1.11915975472344,1.11863183339884,1.11742848354493,1.10305462492406,1.10628388428022,1.10372982047246,1.10388439686833,1.10276238580251,1.10246237788695,1.10015344540023,1.10055517503936,1.09983072500924,1.14184459765625,1.15658056860631,1.16486448168571,1.21160364289118,1.1727191927776,1.16874473157072,1.15799082614352,1.15903210903964,1.15705403958014,1.1195111454099,1.11918379206054,1.11864096897542,1.11750421874919,1.11480594127681,1.11457884848759,1.11226681862299,1.11334258245878,1.25584928256659,1.13344714990716,1.1289716244904,1.10245477506649,1.10058843845344,1.10078794764157,1.09889141027673,1.10024065382751,1.0999672376194,1.10147374750548,1.11355578109851,1.10153462893017,1.10134916943611,1.09919611488132,1.09712668504209,1.09666243509481,1.09546028302518,1.09363338210122,1.09226330148682,1.09565242039266,1.09785158707641,1.09958430943174,1.1010013557844,1.10198638946035,1.10318831580056,1.1041554541928,1.10576556411729,1.10533722659482,1.1051846441524,1.10553200178898,1.10529242322186,1.10713684832291,1.10878935464341,1.10836494917239,1.10834917005802,1.1081933853788,1.10857326294561,1.1081222487068,1.10861404861302,1.10779243096066,1.10800145378047,1.10676743480091,1.10577222227205,1.10591961691642,1.10576087857893,1.10492306436077,1.10359503084618,1.10492292017194,1.10659971757108,1.10790845545119,1.10972138186462,1.1116622243514,1.11273948229218,1.11385616451969,1.11428345873997,1.11594753298911,1.11705446510654,1.1180629329794,1.11904133070463,1.11921635449102,1.11947458869183,1.11899171298408,1.11809581464581,1.11944638224995,1.12034536075927,1.12046800802534,1.12056845680845,1.13049653641989,1.13710662556711,1.13254672636672,1.13128332771882,1.1313363282011,1.13313534080798,1.13085526984931,1.16264503308402,1.1293018454384,1.13014316154379,1.13019171162222,1.1317062086071,1.13166030369248,1.13240320825352,1.13323060847058,1.1337515545576,1.13543536043589,1.13666093086419,1.13771149735897,1.13903200630431,1.14008123889606,1.14146218601857,1.14153325687726,1.14165623457973,1.14249449206678,1.1439660197028,1.14336661703,1.14386464342163,1.14375572722992,1.14353033290515,1.14452275129042,1.23804899600169
1.11255261624203,1.11206993352124,1.11171824649543,1.11179784544425,1.11135904179521,1.11120941626739,1.11113585903193,1.11103988241388,1.11172560014105,1.11187581385499,1.11195845425961,1.11184448079629,1.11277931701895,1.11361995079971,1.11431770141897,1.11494474755551,1.11515979577466,1.11560436669787,1.11581758386504,1.1161945940842,1.11632436342915,1.11643892283932,1.11649567883217,1.11653668324347,1.11690811114007,1.11742745491066,1.1187553596651,1.12029303297848,1.12179419885184,1.12340826161058,1.12313630529328,1.12326183518244,1.12301313186368,1.12387994457341,1.1242289092306,1.12600968491147,1.12693253122758,1.12799017823153,1.12778296396603,1.12676393470665,1.1236128521084,1.12210666721018,1.12102890918307,1.12029753803072,1.11962500136214,1.11906225464706,1.11778567945301,1.11312315172845,1.10951701545013,1.10708592513202,1.10520972791494,1.10387620427427,1.10246672192172,1.10125697944894,1.10042058818637,1.10000967764926,1.12643254732241,1.141598122058,1.15160214076289,1.16649418876697,1.16789503348138,1.16905605030991,1.15632532439217,1.15634198829326,1.15523597212217,1.12056489175533,1.1200522535892,1.11994671108685,1.11822305852126,1.11689905718179,1.11519490595993,1.11379190201881,1.1130719419552,1.11195818414275,1.11024786396499,1.10844385630534,1.10340859355103,1.10290611794433,1.10206180430413,1.10198017661246,1.1014156297857,1.10193828842302,1.10295910329499,1.10460474426533,1.10362624604617,1.10267944751727,1.10124705347343,1.09889048882194,1.09898244888089,1.09399455589894,1.09237658955314,1.09370384550579,1.0960277090904,1.09761391557844,1.10018237456819,1.1018901793885,1.10250692416983,1.10338708084711,1.10475614735333,1.10601694644493,1.1063067822675,1.10666370781875,1.10690956428575,1.10734032202696,1.10857671253224,1.10983494985174,1.10977573992508,1.10962906198496,1.10912919199589,1.10867302851684,1.10853194963516,1.1083627765024,1.1083398907367,1.10810726004442,1.10750207317887,1.10663255777892,1.10628525009996,1.10571212668788,1.10527981381439,1.10433655534247,1.10472498848936,1.10612493364415,1.10781888277934,1.11012245641963,1.11248351902362,1.11436508030359,1.11525219565178,1.11643824199826,1.11740530778215,1.11900979234722,1.11951265235253,1.12048435522877,1.12047432263444,1.12067250746462,1.12022416417071,1.11998624881405,1.1205194078773,1.12127177356726,1.1216512816954,1.12272264331354,1.12594347312161,1.12645851971811,1.12878099243942,1.12923604512624,1.13020859555933,1.13057296589942,1.1307795328927,1.13076683964769,1.13083718498052,1.13126662391666,1.13186343454674,1.13257310147751,1.1331602670806,1.13406148973569,1.13496234360745,1.13626105437126,1.13719464348606,1.13844497392614,1.13937304058673,1.1405155243205,1.14125503618516,1.14191779996028,1.1422813780367,1.14251635749301,1.14332561697424,1.14400394140372,1.1443167900409,1.14444343951521,1.14484831799565,1.1449309882029,1.14531812765615,1.14490003463289
