0.954896932341532,0.955437235922034,0.963951172293857,0.963547852425106,0.965146352237587,0.968588425163088,0.958619526847372,0.959684372931805,0.960072441333885,1.02825448125824,1.02730711375546,1.07122104162622,1.10191263387134,1.10195943265288,1.09922482026743,1.12456910277349,1.16162437264114,1.1595555233834,1.15804879596976,1.15454965432696,1.15106289042152,1.16877877957079,1.17406497151767,1.17720100668816,1.17909278103502,1.17476198789426,1.16533052761918,1.16727385475874,1.16571988087842,1.17748762937903,1.18612928422292,1.1870602347401,1.18852852339492,1.18839836576826,1.18832747313458,1.18644810811104,1.1873008850856,1.18881747332338,1.19119049323258,1.19622894906539,1.21301663609667,1.22973093962878,1.23847591730272,1.27063427085177,1.32512720338064,1.36833105133949,1.41100560528808,1.42024043488112,1.42269854105669,1.42173159576483,1.42169459400473,1.41435125645719,1.41759477911848,1.40969849874791,1.40978980314183,1.32856433236603,1.32477539804457,1.33788545874314,1.33672559925697,1.34009776526843,1.41028088445395,1.41037249693519,1.41046047157705,1.40570991007474,1.40427039320315,1.40277364685462,1.4111729841261,1.42806552490754,1.48429872530004,1.46179407133454,1.49731006769026,1.43102884458931,1.4073808010442,1.41802707834217,1.40562781280638,1.47966736005894,1.51389206773136,1.51649422164255,1.52111121578027,1.54449269273294,1.54397183413912,1.54245598017946,1.54420900444105,1.55236135935983,1.56433399869228,1.50301461437361,1.46543351725941,1.52872351732361,1.5531987795706,1.55174543362096,1.5514734756824,1.54899470780407,1.61923074540349,1.579752524475,1.58210932872017,1.57994844552315,1.58105873942058,1.57916897635988,1.57989167865707,1.57755374641793,1.57651765437113,1.57732580558607,1.57807793253043,1.55546757791257,1.52145791539827,1.49850818397988,1.48905695438264,1.46923124804572,1.45583645538362,1.4562715382655,1.45596719452723,1.44802579320164,1.43646181642292,1.44998810340719,1.44872308933312,1.44759647609691,1.44714689628441,1.44498929431972,1.44221756775012,1.42981607756415,1.37192645307928,1.38367461010655,1.37410192895981,1.37377870324587,1.37233716083881,1.31651654973144,1.26271357144855,1.26636388004107,1.25316805301815,1.24613897859052,1.20959467172923,1.20858632462097,1.20729230437079,1.2054628806424,1.20375338663272,1.20152356443294,1.19933767019065,1.20022877776688,1.2155914519611,1.15798449301067,1.12644387705406,1.10884132827301,1.08023988296666,1.06227319819202,1.06201136222741,1.05209996666855,1.04550713715191,1.04090692652371,1.02275180443888,1.04154995811841,1.05208279351502,1.01920513753804,1.0067749967025,0.998956585196638,0.997492358013135,0.968803179854073,0.959502173704442,0.96161715361037,0.947167324073344,0.94691803177944,0.940056292819344,0.940540217220139,1.00030104434911,1.00305176458964,1.00596727534223,0.980200104944021,0.977670200818471,0.975620481200067,0.975509856589211,0.975790281103981,0.976067197542382,0.977295904895477
0.956520142386918,0.958291146071085,0.961910461357615,0.962433791380823,0.964123758609527,0.965127628523075,0.963385570344264,0.96119942226873,0.960125726074124,1.02928480883715,1.02890933336403,1.07985098656609,1.09847302146717,1.10590726461993,1.10836373834701,1.12566079311394,1.14536025824095,1.14749895427247,1.15000622392607,1.15302812260956,1.15279759180525,1.16649454841213,1.16688003139504,1.16690931687929,1.16927868574261,1.17106760192088,1.16856103553623,1.17234429717291,1.17656231122045,1.18043910906525,1.18553996177412,1.18680391244353,1.18747177741157,1.1876598818987,1.1873685073587,1.18659405503132,1.18667016586078,1.19361086796559,1.19808935635085,1.20327199011729,1.21361416449364,1.24558360127747,1.26637411226434,1.27845929170622,1.31074451546131,1.35150151276046,1.41336545948445,1.41421562034587,1.41527596553554,1.41568482813793,1.41485137384506,1.41384826700178,1.41311675248945,1.4110184038469,1.41099503414409,1.32520832869355,1.32389365192147,1.33978993359657,1.33979115767057,1.34494709972886,1.37946024320321,1.41061455082508,1.4088567467162,1.40441812037845,1.40310176250403,1.40158166321922,1.41681507368946,1.42651418510519,1.4249282357376,1.43296917148371,1.43298376264814,1.43210255068593,1.42291200570223,1.43568719738606,1.44487876068943,1.48727946588719,1.5075152650365,1.51394005427303,1.51688063085498,1.53708067513697,1.54025799113574,1.54001277089494,1.5417565305513,1.55417908439931,1.55768876426114,1.5531682433406,1.55262987792641,1.55148411584639,1.55238116432284,1.55115380070059,1.54996168574509,1.54757872302621,1.57904848234916,1.57986455640743,1.58093635096089,1.57787564684092,1.57754827783728,1.57765347322621,1.57927057765233,1.57742838863982,1.57713949164452,1.56715664943724,1.56151939783159,1.55109852653551,1.54042888092838,1.49725254974176,1.49190160548084,1.46101266536361,1.45508141714745,1.45571923663409,1.4559960659646,1.45374313089015,1.45237328765079,1.45114561085813,1.44929681987464,1.44800873745273,1.446657600171,1.44491805323971,1.44341040337266,1.43629992289121,1.41610145547716,1.39436477039087,1.36300302381624,1.35680361677894,1.35315827325435,1.31886265448363,1.27444719204714,1.27220120611246,1.25060087226834,1.24717795607781,1.22451219580178,1.21814996838808,1.20679954989605,1.20488147890473,1.20382156721406,1.20320522874428,1.20266832337805,1.20169219748636,1.192560542386,1.16324140234697,1.15108722838745,1.11311978862979,1.07206822263367,1.06394714416891,1.0620069546745,1.05442577308241,1.04532420887974,1.04814930799527,1.050180362043,1.05178161463127,1.05193034032037,1.02459688548508,1.00157532360826,0.999085584395001,0.999069949718446,0.979439731292677,0.968337608707578,0.964126623458776,0.947053993600455,0.945598261688716,0.942327198726415,0.941641452586596,0.973979071301113,1.00486006524775,1.00648238894071,0.987901673902147,0.977457343445408,0.976606616250542,0.976551992593163,0.9770585159601,0.977569491633087,0.978446888317595
1.0059390786428,0.960884141156326,0.962843641407168,0.961652768525257,0.985274692876621,0.974279740478858,0.983286859449334,0.970731479570814,0.958804452515855,1.03135115313656,1.03068509310721,1.08904427101872,1.09600669941166,1.10765375378576,1.11131536824632,1.12730074225862,1.14417426752147,1.14341243993967,1.14316587901055,1.15564312986363,1.15416337653445,1.16516834185605,1.16263685919945,1.1657108136906,1.16998084184079,1.17100889642881,1.15648315271132,1.18300721009279,1.19801318788456,1.19643921533503,1.19451597475339,1.18938048901594,1.18672049941279,1.18714905687419,1.18709133532474,1.18666827136139,1.18707829079636,1.2009218605619,1.21362708392052,1.21404763959786,1.21177395113518,1.26144017135003,1.30127686629781,1.28791863667038,1.30091121466479,1.33395487121064,1.41546464542378,1.40914074661372,1.39478063803846,1.39580141150064,1.4012716312725,1.4104983258528,1.41357595860998,1.41202555708225,1.41283432057685,1.32045048846935,1.31964760559828,1.34088837256276,1.34285623772138,1.35229854445277,1.36350128127834,1.41214627710074,1.40990048718044,1.39993631696223,1.39850350268345,1.39972934292615,1.4212275122671,1.42374247982487,1.42075894926295,1.43359459946386,1.43447809658968,1.43295503376365,1.40773106763168,1.44855692144908,1.45647893898854,1.4919470920307,1.50076083293774,1.50833101983367,1.50169207004043,1.52614185721875,1.56863875201953,1.56149630095757,1.54454220539373,1.55591037339463,1.55929315271709,1.55525085148262,1.5581493113242,1.5523917742583,1.55516590664451,1.55233492630271,1.55227570836202,1.54807417191288,1.54801092196446,1.58153141031002,1.58534002551874,1.574529568656,1.57454140803996,1.57544654550449,1.583394159468,1.57719042153033,1.57837999408305,1.54105212563189,1.51919197256596,1.54208297330107,1.55121095876145,1.49615180124098,1.49546352133954,1.45557828868109,1.45410558585892,1.45574050038723,1.45940511936502,1.46028516556808,1.50615765825781,1.45198472759542,1.44886437697037,1.44788542217043,1.44703501055556,1.44426527403486,1.44308385203909,1.44743231180346,1.47839458278482,1.39956861244075,1.35719837568689,1.35616361225333,1.34733074566505,1.32265151475355,1.28364392347762,1.2750141069407,1.24688077062524,1.24759346266666,1.2340385277848,1.22417031101272,1.20909131622053,1.22702664003496,1.24450039224638,1.2405246017625,1.23328561247165,1.20725432243331,1.17123809279612,1.1711126206686,1.17131530903075,1.11811353152468,1.06650716946537,1.06527806213079,1.06118709185366,1.05642385551066,1.0426223690378,1.04993750346712,1.05368662096435,1.05276330200847,1.05110305960278,1.0308522659975,0.99266074367292,0.997701428568886,0.999599993882772,0.991368513716876,1.0007387941471,0.964747662147525,0.948653092613729,0.946522088212299,0.936477479751133,0.942707919159255,0.944401807615486,1.00343416547105,1.01190114684624,0.992327834782078,0.978127182021607,0.977015638711387,0.977371568367957,0.978568002611502,0.978700140050797,0.979744583012272
0.963158235155546,0.96167341352243,0.960589173876184,0.959571291560712,0.959309642692896,0.967292220314678,0.971488576460628,0.980961801283356,1.00044354992459,1.03412339637545,1.09490704874582,1.0947074885011,1.09458230003572,1.12263489231935,1.13217215125577,1.13028301725853,1.14558052424174,1.14370948073522,1.14253518908932,1.15952019478394,1.16457379899099,1.16421793473326,1.16336892463723,1.16276665969371,1.16095399184768,1.1733773483816,1.17963644806197,1.1902403677697,1.19841980043916,1.1969087547962,1.19578326308096,1.19931162784265,1.22510696377255,1.19844842920843,1.19161492044085,1.19939502365566,1.21265992412887,1.22115447783853,1.23400875834645,1.26004038601356,1.30286135217246,1.28505773150917,1.2647313026917,1.26495930061653,1.26253761727891,1.31360291818802,1.38665343926019,1.38415784609762,1.381371215046,1.36622227959399,1.34752790571744,1.3451831700924,1.34211138812678,1.34723997205221,1.31894297356205,1.31952571231003,1.31832063166499,1.35121881483533,1.41976831926814,1.39113842918207,1.36449896851872,1.41618689818187,1.42011595597586,1.39799854839964,1.39739053560697,1.39794578266586,1.39699844071688,1.42572829086471,1.42670589776406,1.44446785152691,1.45570268970522,1.44705997682408,1.44081188754125,1.45688351267552,1.54254952832108,1.52283427832922,1.54889827151493,1.5285690715453,1.501964891854,1.51432116752533,1.50141266871285,1.56937123948662,1.5730482472988,1.57123253359435,1.57287975485156,1.5683581462056,1.52692119600775,1.55189342302998,1.50951561872021,1.53195129162072,1.53448652497469,1.58314857944595,1.61525153408262,1.60429623658824,1.57261979409376,1.57259837245531,1.57453181128373,1.57520323638441,1.57564176879381,1.57485911726569,1.55797523574194,1.50833885128563,1.48285840729041,1.47670958784953,1.47425687591738,1.47017978459422,1.44980984570189,1.44891869706674,1.44330970503767,1.44879008861262,1.46235589048464,1.46156153825816,1.46261971150094,1.45797336149115,1.45883300732392,1.45349004735596,1.44054699833202,1.44263396756173,1.44249534692192,1.45205409930846,1.45943091162633,1.40433830055563,1.35555212618601,1.35468905416456,1.32815345735259,1.3275814618912,1.28042699933321,1.27784279230046,1.27277587901495,1.25908772911044,1.25696480413375,1.25659747709757,1.25540902767408,1.25374521385121,1.25415158708585,1.24468623205628,1.23154290194029,1.21086649028854,1.20213844824411,1.17016363326536,1.12499008254742,1.12054779813477,1.10504136436269,1.0771823385601,1.06058536404398,1.05774450604837,1.05626023917509,1.05552368965546,1.05482717521142,1.05379104398366,1.05175410339429,1.03620661148103,1.02759983039139,1.01565081418184,0.979100476585643,0.983425823085822,0.969345436513958,0.967029734640234,0.948401805783735,0.946569015140545,0.966078136582976,0.967607761129053,0.967893360337102,1.00199152113277,1.04874205936217,1.005392442394,1.00540384304839,0.982904033592266,0.983270513458374,0.981162518227145,0.980907291043385,0.980837599979749
0.963813141073458,0.962161196271846,0.957662022819266,0.958192805880059,0.959696842888164,0.962425340014307,0.995458631536491,0.997392672741086,1.03489218201869,1.03653985623489,1.04009515449081,1.10835518312981,1.13704802076831,1.13570350762792,1.13577165658561,1.13218268009862,1.13149757641812,1.13257160304661,1.13468118092922,1.16190038299174,1.16150094201375,1.16229071025745,1.16027125935196,1.1608495220757,1.15929000473952,1.18055123136252,1.29843767140006,1.20736018453862,1.20262943494787,1.20691039489905,1.23149977171276,1.20377913616566,1.19316008762181,1.20359512366794,1.24462669705207,1.22519948194051,1.23128965832847,1.24491861885247,1.2943805662682,1.29691693157649,1.29894648064087,1.2918064419923,1.32995432657379,1.26717689997416,1.25848563708682,1.2788853779777,1.27946547737627,1.30884594056962,1.30880051248145,1.33173393904884,1.33199016427535,1.34495982427095,1.35106870408461,1.35201628316501,1.37260229126583,1.37486243376092,1.38805222890299,1.35611971399152,1.35117137687428,1.40501257015782,1.4205096794499,1.41800640032526,1.39213364892061,1.39668197171432,1.39573544751818,1.43693291042706,1.4874725786998,1.46196418014966,1.46427678495487,1.46169108892614,1.47463536548368,1.47389521672241,1.47350028784172,1.4730264962984,1.47235665308702,1.52153546124913,1.54189561167458,1.55256925620463,1.56315798890411,1.58371954679166,1.5906886416347,1.58587143472482,1.56350419784658,1.59742607403319,1.63351480992627,1.59583033464314,1.56945915700611,1.56131002008939,1.52985117975743,1.53418286541535,1.54075124690598,1.59549939139004,1.67313492542694,1.61416607395284,1.60847072577046,1.57015340312338,1.54678560539079,1.54498916245842,1.54446047768379,1.54349698010958,1.46925658417433,1.48571025547606,1.50591002497686,1.47590839897273,1.47372276946472,1.4667171208296,1.44906634949786,1.44771103007935,1.43784548943572,1.44815801605535,1.44807852675766,1.45505960069917,1.46176806472454,1.45786251232841,1.45996966800091,1.46319712166405,1.49880963171052,1.45716327983455,1.46111804041969,1.45866687582141,1.45982193121891,1.41171888690329,1.42984028476071,1.35290492170642,1.33926290663362,1.33189935245299,1.3221226600379,1.28387278367762,1.28134993642261,1.26139392177414,1.2577679764568,1.26023718261126,1.26574664738963,1.2522715143702,1.25223657245192,1.25487799419921,1.31397596254034,1.21864507916386,1.21986188563254,1.16930172331795,1.17241381186719,1.13011700771459,1.12665753535077,1.08553580553884,1.08486094087508,1.06219858572018,1.05496423650407,1.05535248637041,1.0856062984631,1.05512406210731,1.05710296623276,1.04191559318333,1.0419947242961,1.04220291392039,1.04347261818139,0.987076627287863,0.985467840795341,0.968890284015637,0.945585646630135,0.945654608212588,0.945519597691309,0.969450179050697,1.01564477853975,1.00152201853185,1.00173196708455,1.00300571828964,0.986664829113595,0.983989885578538,0.982751756152414,0.982724003500976,0.982119359328425,0.982050921579993
0.965802386663294,0.964593663678306,1.01374788853598,0.955210732255168,0.947489868723604,0.954278218824002,0.948473892173887,0.998636059220496,1.00584839048003,1.04013875476074,1.1343528013714,1.13342626633478,1.13506496561333,1.13527050480597,1.13533674701868,1.13286324350219,1.1320806893635,1.13237940433547,1.13367299921601,1.16374692450982,1.17923583509824,1.18047823782895,1.22266523938504,1.18639979197878,1.19102107761389,1.18776257539771,1.21628014144363,1.21378254968161,1.21260759529997,1.20963244878054,1.20874322196084,1.20940438449271,1.22002015859177,1.21754048426268,1.21487442341786,1.22228820069193,1.27293058408103,1.26036772730113,1.29926896725262,1.29921717522274,1.31015775985033,1.28430889479209,1.26651638422647,1.26741056608872,1.25780148865863,1.27689986713725,1.27114014908365,1.30886687905093,1.309708721896,1.3309911258317,1.33167963371698,1.34297347699821,1.33757715063492,1.35473935131821,1.35444323644773,1.37568710211265,1.37314723560654,1.3625762034174,1.35894633867303,1.43656774719691,1.59480965930131,1.56061684942693,1.59480965853918,1.46011981473417,1.46056384075614,1.46016559651368,1.46055218302423,1.46111448963611,1.46247371818793,1.46218152988195,1.47562905804241,1.47368873064038,1.47382649836489,1.47316737584246,1.47310603873496,1.51870649945747,1.53087997073633,1.55771442744014,1.56309985358538,1.59180775558189,1.64555796807814,1.64565679080604,1.64584471434931,1.64481661740764,1.6161803821347,1.6208666657107,1.63031562994732,1.58215508438325,1.6355437497148,1.57860550133867,1.66348140888268,1.63519415105341,1.64205531853331,1.61845410051496,1.60688027504199,1.56990912372921,1.54632780824842,1.54375811220129,1.54371681640695,1.54250325112631,1.46975490507431,1.48077492824158,1.45941917328281,1.45932851647524,1.45899770898118,1.46135242773421,1.53173212937827,1.44546122050635,1.43583805056319,1.44703045015621,1.4484671280752,1.44970943392744,1.45098268324306,1.45244539541166,1.46554861648196,1.46483337380883,1.49920872979691,1.45314471485298,1.44763708399277,1.45410016956505,1.46125425920509,1.40663546647319,1.3504461741891,1.35127409737845,1.33945259825232,1.33535097872572,1.30297198808228,1.28519455579979,1.28583229732892,1.26445052519267,1.2594185402456,1.26150736680022,1.26273609967492,1.25166781830491,1.25432917361938,1.25556991689883,1.36559125958959,1.21685199327986,1.21450917357745,1.16659433568048,1.14516131713061,1.13829830313237,1.10742278845274,1.09620660351155,1.0662721903051,1.06937904883401,1.07117141270571,1.05575856961897,1.03283267474989,1.05314283371958,1.05551843685699,1.04151119914667,1.04099553644376,1.0406462408785,1.00338988079425,0.989448510393647,0.972640600843281,0.971377774984507,0.984369903485758,0.984195655900731,0.98607536000773,0.987626366983153,1.02743278573211,1.0014233401689,0.999175693843816,1.00055829618776,0.985958113447261,0.984766381708563,0.985313873754819,0.984538553658931,0.984503755980128,0.984001993511535
0.952917184037807,0.952665465901925,0.952421854696006,0.95224916664899,0.949415379422358,0.966850256358766,0.984365717507152,0.999109965016834,1.01442986745849,1.04304924336573,1.08640694833237,1.13230948241994,1.13534725590785,1.13630565710364,1.13829091380082,1.14047843299954,1.14215615965385,1.14320435986367,1.14413464968115,1.16557648242494,1.18007727115866,1.18068181231008,1.18138359466405,1.1831915464912,1.18404025169203,1.18469425259549,1.21578744385921,1.21381354067371,1.21169551913249,1.2098645650549,1.20938256732681,1.20965183212098,1.21910844592513,1.21726531216654,1.21569486523284,1.2200371190508,1.24546282520873,1.2514129760685,1.30054086716769,1.30040254526938,1.30633661430456,1.27774330133178,1.26898604611551,1.27153694538994,1.27651505466106,1.27934330829809,1.28149339182499,1.30818356033251,1.30839004551849,1.32931406996536,1.33115039242969,1.34581137635399,1.34707923165757,1.35726298691005,1.35719209746003,1.37649947545316,1.37555267504166,1.37633237270409,1.44081136580567,1.47080855354345,1.56073376550406,1.55554768585883,1.54751844452079,1.46036240946425,1.46032463626926,1.46008034548487,1.46016761461276,1.46037311090582,1.46210859473437,1.46375337758969,1.46910310290541,1.47116670326703,1.47406433714683,1.47248101316793,1.47330098978457,1.51403996178009,1.52370212260452,1.55968098868081,1.5638627278265,1.60487366279176,1.64184319184154,1.64671806623412,1.64792521168031,1.65102136328383,1.65507840456501,1.65791680062592,1.65897955623481,1.31983850229135,1.3198166859297,1.31983850229135,1.6319286685001,1.63370971710555,1.63649722465298,1.62106451856545,1.59203881755594,1.57053960922948,1.54316307757079,1.54142635035008,1.54099619189487,1.54044669807603,1.49750556747776,1.48932398139719,1.45939274513442,1.4592820079737,1.45917036081737,1.45860392121295,1.45073619182011,1.44446921387974,1.44203082790622,1.44439097147058,1.44704055607631,1.44903855280643,1.44926527289495,1.44888845989253,1.44724704359291,1.44722254280882,1.44794767601663,1.44917221716351,1.44830198787814,1.45042579988889,1.45461438098077,1.40382728708742,1.36196750885002,1.34997289409216,1.34307111662696,1.33725949135966,1.3051809750899,1.28546589102979,1.28155767864771,1.26878379591531,1.26622392628998,1.26353125970644,1.26219345454463,1.24930444072035,1.24876320042159,1.23008299182678,1.2191570221607,1.20775664952112,1.1951175603894,1.16598162194231,1.16609528360524,1.14665845148064,1.11026798370568,1.10413081839022,1.09205171068089,1.07029515500773,1.06284481530842,1.05662428610674,1.04716940923049,1.04758883725116,1.04419346199067,1.04186568902345,1.04058661084487,1.03802279405884,1.0026697058612,0.990493679099593,0.972914234167064,0.973377516916095,0.978544829548905,0.982872110037518,0.985108336835178,0.98722673046714,0.988227518937187,1.00204146405825,1.00043961262468,0.998918055384373,0.994330799022188,0.990958932747519,0.98816625064483,0.986363844871452,0.985751656333452,0.985419639516702
0.953789481445682,0.953330434222111,0.951981638669303,0.952176946917203,0.945151561960991,0.975049876215323,1.00219591652101,0.999241101758194,1.02237399776705,1.04537893582471,1.05609540167767,1.1307093619026,1.18441378515893,1.15139416145747,1.14780625803569,1.15184563998698,1.16164252736933,1.15203003085545,1.14539280471936,1.16805115067093,1.17964527448722,1.18020349475671,1.1794717696333,1.18041171261114,1.18043576902059,1.18189676577247,1.21699085370672,1.21286256242918,1.21005282879141,1.20874962578944,1.20857972974027,1.21158358795917,1.21953906769283,1.21639415813963,1.21402699232774,1.21676128222661,1.21622559540898,1.24407577015596,1.30182483777988,1.30103101093938,1.32052965399,1.27276735867983,1.26815634313595,1.27057140491199,1.28064808276058,1.28177421077881,1.28676462926781,1.3076491203087,1.30751563890778,1.32525661613473,1.32131233210011,1.34660500942689,1.34704628075681,1.35866901444202,1.35885151883584,1.37551882456842,1.37445059077764,1.37425743860463,1.58717696844856,1.50761453321055,1.58759953935656,1.54792259019238,1.52825368874764,1.46071827938678,1.46059168516924,1.46027076456674,1.46034395041164,1.45847249674191,1.45492265909604,1.46681637322336,1.46762634264639,1.46822517258572,1.47773902688034,1.46935503192504,1.46317914050312,1.50381028608685,1.49296534843169,1.55762337513762,1.5719164789213,1.6124527420519,1.62871823537704,1.65642236462351,1.67017808790739,1.68477724247061,1.72715360246179,1.71902339148762,1.73167863518362,1.31987379679571,0.00388928006844416,1.31987379679571,1.63605270297889,1.63389459925461,1.62157188097714,1.62103656928105,1.55698677772013,1.55299519581281,1.53385742480066,1.53534109269623,1.48765819948457,1.53764073394421,1.53911849398465,1.49146534758474,1.45962230995427,1.45931967463813,1.45921550132135,1.45878407058163,1.44611006261416,1.44482260952781,1.441367784348,1.44231070967901,1.4362227147905,1.44864327644042,1.44860180707355,1.44818800623709,1.44332323474013,1.44884715978804,1.44866459973379,1.44813618906287,1.44730772439686,1.44624073823463,1.50548862522089,1.40182192877524,1.3826988924945,1.34847195508764,1.3460639829717,1.33785153595886,1.30709897811313,1.28628544322977,1.27693549566435,1.27359280093364,1.26836569259843,1.26474014217034,1.26042057411482,1.24899663833864,1.24417224688363,1.22443749048509,1.21043658788894,1.20388935215289,1.16902853151857,1.16585949000647,1.19722192848033,1.15389010580935,1.11210113545596,1.1117699438053,1.11023522062732,1.07572765966587,1.0570781943852,1.05663069096907,1.0455800166218,1.04562365161056,1.04444587437928,1.04284617274908,1.05645055733472,1.03397571241368,1.00181698022029,0.991445181291002,0.972449702100558,0.97083569624968,0.958456566652982,0.958889965541448,0.955111164341603,0.98630939496344,0.982028571183471,1.00662040450208,1.00997598165648,1.01173539045656,1.12175894415115,1.00568978551732,1.01506011254227,0.987425089042655,0.987033304582982,0.987144430582566
0.954856035845957,0.95422290035937,0.952755568022325,0.953370962440659,0.996756100406843,0.98334317878511,0.974455061183817,0.996799091362886,1.00229854438579,1.04735863527934,1.08022448294914,1.12835560707337,1.13872252845584,1.15328280130082,1.15588167473966,1.15840477465664,1.17791793941335,1.16768261676406,1.17356830682725,1.17104177493237,1.18065488576906,1.17987500061852,1.179321396133,1.17772276931854,1.17521632428666,1.17997423026372,1.1918527588905,1.20048424263156,1.24705853750208,1.20604174444464,1.20139314932637,1.21410726321939,1.214911332775,1.21476480241121,1.21299741566837,1.21701873337451,1.21674738405477,1.23894129879007,1.28559272334874,1.27342117041737,1.25960180257218,1.26657662510485,1.27226318888944,1.27208112508679,1.27217432251336,1.28450533256765,1.28645916270672,1.31729105254287,1.33076479947856,1.33175187555123,1.41886158643996,1.37393541838214,1.38057042335936,1.3776390592429,1.37583873351246,1.37432982991964,1.36879425378925,1.37044562660961,1.36697699029725,1.49552909628917,1.5878108248954,1.50836869002659,1.45081499351556,1.45102787067659,1.45032131777226,1.46036532194415,1.46059521722132,1.45930246429567,1.45225311813857,1.46818221925705,1.46785885111849,1.46702635763916,1.46614023316632,1.4672203564676,1.46331209819582,1.50757635998038,1.50907327185361,1.55805019283512,1.63073700370618,1.61968396703353,1.62741353619238,1.6572395401707,1.65794138965546,1.68512188267469,1.68689951355113,1.68949209008866,1.68558344341612,1.68755843734495,1.77148832342015,1.6872704486932,1.82221452328038,1.7081767949715,1.68287408704114,1.63861395658311,1.55570168582304,1.55267197448501,1.54067723703625,1.53638990991545,1.52208188240247,1.53171291979982,1.49590078468186,1.49309808403947,1.45977063688558,1.4593511373789,1.4592522886398,1.46344619432616,1.47506955077365,1.46117154044462,1.45104404885173,1.45703730464502,1.46596507778092,1.46764508793364,1.46815474871765,1.4619620722573,1.44154599023844,1.44980563218522,1.4505978818271,1.46166551267899,1.50867037240799,1.44127360713707,1.40474790385333,1.39948123027924,1.33711192457614,1.33469256748219,1.33574416873153,1.33733180316186,1.34074586965978,1.28824256449123,1.28573036331326,1.27875457817736,1.30517698990862,1.26689207253431,1.26963836889703,1.22919679641427,1.21520861435132,1.20526453402368,1.1927569478956,1.19060728535676,1.16245560544965,1.1635545515086,1.16164359135307,1.15839516559385,1.13414354806749,1.12526188132862,1.12415944795703,1.08156971474149,1.05577119538209,1.05568031362917,1.0672855338158,1.04519820372228,1.04402784826411,1.04309466381247,1.02353558885411,1.0289621618589,1.00953642303862,0.993351092144126,0.963514675752815,0.967109971646917,0.961948029998583,0.960419319492399,0.99048366834542,0.988776440543158,0.992505735937093,1.01204248105746,1.20383457247895,1.01186787987811,1.00894770278937,1.00320179749739,0.988475887687206,0.988807101391209,0.989183263304537,0.988434234812831
0.956485969094084,0.955136797598739,0.965909196761275,0.960193192620011,0.985875867140762,0.989172171762071,0.996194447170392,0.995325266247217,0.995929381894475,1.0497209977607,1.06883869194984,1.12525478569281,1.15041240559289,1.15394693102371,1.16035373749569,1.15905745150083,1.16444121769396,1.16261192631471,1.15199357496769,1.17118445756501,1.20960659025426,1.17931880592328,1.17692586867911,1.1768353442126,1.17631940997871,1.17958611442028,1.18188395377977,1.19611272416879,1.22406621191887,1.20410941680302,1.20201790670914,1.21507089948788,1.21501195687669,1.21469724208833,1.21313918178835,1.22077074217122,1.23026596173139,1.23641110114809,1.23631121033744,1.23602235742363,1.2359320003942,1.24041646733355,1.23538696709744,1.27377414777468,1.27519020852454,1.31299531505154,1.35087132489844,1.34120005473996,1.33296882177617,1.33281868594716,1.33217476934939,1.36920617446669,1.41726678132757,1.40289916893325,1.40489350967239,1.38001281610233,1.36981659178573,1.37884012807025,1.42273800634617,1.47728026612766,1.53683491358821,1.4903633995945,1.45321231456337,1.45254814054391,1.45338000117733,1.46046643869247,1.46016437723738,1.45905766360998,1.45850205318704,1.46822124954644,1.46625177835766,1.4667816303622,1.45854354763808,1.47050600221277,1.47256253807027,1.51104773483464,1.56607678335928,1.56119713132788,1.56133459118952,1.59615964303894,1.62758179572611,1.67464049050777,1.73689914430255,1.69958372342111,1.68879668107228,1.69497620257379,1.73320165627566,1.68852789859612,1.74567049567732,1.68826222224212,1.74735768178607,1.75756630997694,1.77882762461407,1.71048468725593,1.70657718914735,1.57739798366252,1.55422498837748,1.55151302984783,1.53334230396304,1.53258581979756,1.53255927182544,1.50980436561921,1.47196332922986,1.47868667713301,1.48502961732016,1.48305657302837,1.51740857917687,1.48139355785646,1.48296119340163,1.48110671860812,1.48172741650321,1.48430183325353,1.48190969557612,1.46871991280673,1.45137192266959,1.45077857298162,1.45112911702587,1.4710911557007,1.50931537831685,1.4391947663975,1.39180802214204,1.38909851250758,1.35761192181868,1.3314738430731,1.30229147105073,1.30279469610576,1.30147633154266,1.29097760368436,1.27204118723733,1.27409241740043,1.24546307798168,1.23956958364986,1.20382655640111,1.20314325831233,1.20447570418809,1.2026973003373,1.19297899824434,1.19073970031431,1.21836314577738,1.19442642372544,1.19584931691483,1.17987374789417,1.18220519232518,1.12693991483922,1.12282659548675,1.08377069215873,1.0642440113775,1.05516053691202,1.05410656687014,1.0466362392988,1.03744948547935,1.0415200196605,1.03003845379687,1.03873422163773,1.04958703107469,0.995938253186779,0.999415594033865,0.966835858033452,0.962991979741118,0.96145725908148,0.954256151159151,0.970883822487409,0.960059502748706,1.0181024220987,1.03481859863936,1.01252985516774,0.997220915160132,0.998202614985927,0.989046832286638,0.990337800932958,0.990278693685579,0.99005464641779
0.983433235284441,0.955851552810062,0.954878470288603,0.955766937704032,1.00677156122295,0.992755088461778,0.974048320811957,0.992598987096474,0.98989680594853,1.05268095872245,1.08174740033422,1.12176476981154,1.15378364854392,1.15580896281422,1.15786188350497,1.15847789980186,1.15822966856648,1.16105866178574,1.15012219807224,1.17039554742536,1.16906114843066,1.17533170934452,1.1766005651491,1.17559545901388,1.17596616944832,1.17815048827215,1.18215301479538,1.19538147145862,1.19082964758271,1.20455830080925,1.2136521992889,1.21484878453506,1.21580975752774,1.21636813657849,1.21892500096257,1.22510530402154,1.23008860743806,1.23625706043201,1.23580063067452,1.23610665412235,1.23670441558501,1.24689768727867,1.25682066800315,1.28372033208527,1.34835369334909,1.34798778778316,1.35109567914275,1.34448880146819,1.33807079309731,1.33467129099718,1.33065756619531,1.36557316798915,1.39961174244736,1.40058013043442,1.38623717565955,1.39044836716291,1.40463080817944,1.4038986604289,1.40305730730669,1.4620072732962,1.53244848487761,1.47261739747981,1.45541412257188,1.45310351038082,1.451245657178,1.46554102252706,1.48068611444237,1.49067627762879,1.5139459510249,1.49211009278081,1.4916801709449,1.49159287918339,1.49193434672074,1.48917461868325,1.48765044930186,1.51430141215274,1.55060425091222,1.55925760943645,1.5618183068581,1.59159745587414,1.71283023910983,1.69267182641649,1.7101082540541,1.71232228993937,1.7377179040512,1.70928962778291,1.68831020131471,1.68991457506536,1.74578788349446,1.68969648506991,1.74839472713038,1.75771104855471,1.77835810119443,1.70803850625002,1.69770433685227,1.6086895586568,1.6121102489477,1.56026813241329,1.5626251859062,1.54502549384416,1.52986393783464,1.51608210329397,1.49610282349296,1.4860819951517,1.48131964086042,1.48120580261445,1.48037845368901,1.4802640882656,1.48024948144245,1.47916269220143,1.48948761716435,1.48804549033771,1.51966229637778,1.4754056105859,1.48532565558633,1.45712406314992,1.45149312620447,1.48130943321892,1.50914122872817,1.43804018307778,1.39999326584992,1.38781828289783,1.34842561160652,1.32869375897849,1.30190080604696,1.30401679186986,1.30200894254273,1.29331461200997,1.28431744412702,1.27508277108856,1.2332694923141,1.23058380178226,1.20045461569128,1.20082051856803,1.19927736314563,1.20022175822329,1.18578304433967,1.18801421292205,1.186345980135,1.19119432557133,1.1718693006989,1.17721657086709,1.1542903069104,1.12960390112199,1.09755478995377,1.08466961120732,1.04387085305684,1.0503013148966,1.03526325512048,1.04871287508761,1.04915592064202,1.04935189506506,1.04993644410815,1.04277585381043,1.05737706539069,0.995139672422461,0.992111993019428,0.968304729853353,0.968698827971054,0.967344848712022,1.01527720020907,1.01723400420843,1.03023023341056,1.03107091703002,1.03038441808828,1.01291011341808,0.995986095514393,0.996067404631756,0.994530980528557,0.992665199362514,0.992893656637375,0.991656868108997
0.959143428871368,0.957187825440886,0.954741722565702,0.953818618194731,0.98178327464947,0.995856371316431,0.997317001267861,0.999803685141338,1.00387812967291,1.05588134073118,1.08806652430876,1.11840166549789,1.14614932434302,1.15766647216517,1.15828066284954,1.15876786720053,1.15955401691301,1.16270371543206,1.16633929622518,1.16947690676976,1.17043715702508,1.17397441356174,1.1738643633268,1.17379101906712,1.17360719392704,1.17567967460189,1.18390957185107,1.19835287835738,1.20040997239017,1.20648696892142,1.2095562654175,1.21963950133769,1.22232993432883,1.22450302528314,1.22672417506542,1.22954609228343,1.2329783733172,1.23646404806948,1.24011079109154,1.24975520576009,1.25828868787817,1.26486551831609,1.26956758695293,1.2908188529338,1.34589057142635,1.3459069248891,1.35146728572416,1.35446376283693,1.35704557285286,1.35923822959348,1.35964018113593,1.36264549908958,1.39790673376933,1.39878399566677,1.39798191552987,1.3957311630444,1.39774621035503,1.40204763750277,1.40398674909821,1.45193300294924,1.45279596604142,1.45314724638307,1.45385561421962,1.45330312638864,1.45225272138398,1.47043145980191,1.49020285857735,1.49469903575696,1.50383509026864,1.49309444251498,1.49264739080691,1.49174865509439,1.49098788051312,1.48944023075091,1.50839926272058,1.51651921640701,1.54066310046958,1.55470434860216,1.55548589363887,1.31981841027497,1.31979659391332,1.31981841027497,1.71972098166413,1.72268788197383,1.72892371427045,1.7214713086581,1.71250787644155,1.69100769139881,1.69148057579961,1.69086274767801,1.75239436576331,1.75695734724059,1.75636706952171,1.69823838702616,1.68841842421881,1.60828172134255,1.59531853998774,1.55967530648619,1.56001650247201,1.54403250487858,1.53107022386174,1.52911485006496,1.51241934537033,1.4903055200471,1.48064614450403,1.48037886530896,1.48003340792461,1.47937218187751,1.47869097163357,1.47716903186832,1.47412692447794,1.47208363718327,1.46997113186847,1.46696886841597,1.46412823667967,1.4612108364619,1.47932313289722,1.49069947339226,1.50162611583779,1.43726823703024,1.39410042581907,1.38605711563377,1.33806462793271,1.32614088736225,1.30936745096214,1.30896808986823,1.29859187646491,1.29447861232925,1.28281788473325,1.27562057369575,1.23002384022879,1.22862405920381,1.19964945879388,1.19955366314705,1.19890585477871,1.19843125448339,1.19507034312351,1.19199373356437,1.19067733975204,1.1914980395452,1.181492409058,1.17983378254594,1.16773743228872,1.13295197604709,1.10440052568512,1.08744131060859,1.07634461536923,1.06319685316417,1.05067911638562,1.05019866949509,1.04971019191773,1.04878636065087,1.04426764456178,1.03986084935732,1.0162789994374,0.994236969915627,0.986231234578866,0.970589256480503,0.96708898418241,0.967003572678097,0.997904968772688,1.01800007650718,1.01880404812021,1.03208663863636,1.03096050785721,1.01478051251291,1.00835426703702,0.995021155242585,0.994361670295997,0.993425627789058,0.993064972042273,0.992773543368586
0.961784511280092,0.959325447209987,0.949819928135589,0.953199868071331,0.954359967004115,0.998044127693202,1.01039099759097,1.01120797961035,1.01062608432563,1.05924279140246,1.09754002729312,1.1155734193085,1.13201937851916,1.15838549912591,1.15892176500237,1.15877400398588,1.15854555446272,1.16434139027669,1.16742874521645,1.16877569417284,1.15222970054742,1.17245002841341,1.1718028503908,1.17227386754234,1.17128303587941,1.17474538147996,1.18630235103763,1.19920324408574,1.2021374765262,1.20510456018206,1.20229233105021,1.22380000884648,1.23867659066588,1.24171327465252,1.24176002068327,1.24450423007582,1.28998606506688,1.24680036498407,1.24375364140865,1.26010949216679,1.26869203786941,1.27307748789997,1.27773794157405,1.29453998887343,1.3437514560418,1.34318781293646,1.38297204327858,1.35526541503585,1.36080844419265,1.36059728610256,1.35944852846131,1.36160126155439,1.39643858895146,1.39763970951257,1.43386555715934,1.39479630107515,1.39484239745789,1.39957981979653,1.38441826144531,1.45283551317502,1.45449755131796,1.45333720439061,1.45360273651767,1.45383585968188,1.4518308717828,1.4747804821508,1.52630742313977,1.51517457422276,1.56404117688947,1.49511500930581,1.49497899446625,1.49225405945503,1.49196756160386,1.48993436118583,1.51960402156243,1.51755196571085,1.51510583647602,1.55447541574781,1.55700294197925,1.31985370477933,0.00383976882141982,1.31985370477933,1.71222641283184,1.71700436511024,1.71965475194783,1.72884277031143,1.79831280776194,1.69093426629437,1.7341847509699,1.69073623917941,1.74832164114931,1.75362887858611,1.74547547468035,1.68615731700392,1.66108493217062,1.59792691570507,1.56449871729947,1.56112748105034,1.57842773578711,1.54504512350161,1.53199655071118,1.56383879685119,1.63915623949735,1.49368843537755,1.48058060315111,1.48007494028182,1.4804803025796,1.47867724663343,1.47815063392534,1.47756184282002,1.46610597112659,1.46567817766383,1.46815955125658,1.46270243729274,1.4585481442003,1.45937874075371,1.81122767526068,1.49874271628608,1.51411720771436,1.4364321465634,1.38930940460749,1.38033122645689,1.32859636574576,1.32335305079666,1.31304954122205,1.312583408865,1.2951716346426,1.2948953300867,1.2815143902986,1.27524819440809,1.22744048126939,1.22612106364818,1.19838414839546,1.19856431014666,1.19845423453859,1.19814718649377,1.19569480685503,1.19421509326127,1.19260618377112,1.19132944807242,1.18237002123298,1.18050767656396,1.18199377996439,1.13610579930145,1.11268744251109,1.09205309540289,1.08940885660845,1.07360845912756,1.0497516323197,1.05064632262923,1.05027233877802,1.04973783619786,1.03255026689268,1.0352768493124,0.993871055372838,0.99380918320894,0.979929223571116,0.974900249489755,0.966415919740294,0.967796916118931,0.969569639025288,1.0159931367494,1.01216144221078,1.03159784618462,1.02984346048484,1.01815241032909,1.01873674888561,0.995827471940775,0.995177771669303,0.993990625155991,0.993421940917546,0.993228955000612
0.963094699387532,0.965821170729133,1.00072969926423,0.991601913697284,1.00111578615138,0.999596334677096,1.06723837460118,1.02387006642215,1.02252894839574,1.06262441109638,1.07953972062194,1.11346895691765,1.14940805005993,1.15868043594825,1.23768420654003,1.18221440896651,1.18584852046343,1.17643273316983,1.17648267329649,1.16814477478348,1.1519489309988,1.17183885477005,1.17119268015254,1.17237662733917,1.17046176780854,1.17443000248619,1.20360008417501,1.20132905767852,1.18935926584002,1.20610602634508,1.23326395887767,1.22979626034308,1.22838484891997,1.24320507461334,1.24655174761101,1.24544200008272,1.25154042442521,1.24813162741564,1.24471527144472,1.27022869236825,1.28504155011924,1.28745312385424,1.28925746856415,1.30072754509405,1.3110835660202,1.33963136374709,1.37327333383064,1.34024958906325,1.3229948707659,1.34753089271904,1.35977737976153,1.35174477412446,1.33446520207012,1.38021092647343,1.44846481197507,1.39292335279705,1.39277740607082,1.39889722784531,1.43348899533808,1.45297513411995,1.45302090165082,1.45246990365607,1.4530522281369,1.45614471325311,1.48626496037545,1.48726848551903,1.51529390605885,1.50913039432701,1.49914859858677,1.49826224173269,1.5034450957955,1.49142248760598,1.49158723932932,1.48975745034016,1.5186998101268,1.51819925327062,1.51915947788087,1.55323010959141,1.54899537176232,1.5826444790354,1.71254919804964,1.71876966569179,1.71199440498164,1.71227125612952,1.7105329412853,1.7261176537438,1.75902911041034,1.69066111171651,1.73438429842325,1.69043539452878,1.73926319871515,1.7550720773389,1.75959186307984,1.66051580982761,1.63494512849804,1.5923384004516,1.55123450573226,1.54994360634574,1.54923618349628,1.54769520489689,1.63885021168144,1.63791916840895,1.63789510740179,1.49448039660131,1.47894786972217,1.4793878981126,1.48039383538954,1.47713245548685,1.47643934794043,1.47716565935345,1.46808363484496,1.46389403816134,1.46327145984452,1.46147485391228,1.45860330554224,1.45684162137212,1.43859018553708,1.43666887168398,1.43493622321168,1.4354174133666,1.4348241184971,1.37610784843514,1.34552432688726,1.31624752612411,1.31404521061333,1.31418555033182,1.31681379073783,1.30367339638874,1.27170138225593,1.27380313199513,1.26538626960161,1.22240721599369,1.20750644654906,1.19792082358389,1.19873245483252,1.19944028777945,1.20428995091788,1.19805463526593,1.2139834258328,1.19028072837859,1.19038071456376,1.17946711796439,1.16538985144335,1.14040215835264,1.14757947233879,1.09709093984583,1.09882490393335,1.08070090868475,1.05311458352333,1.05156014659927,1.05349693592286,1.05019443515852,1.03534295585689,1.03643980839283,1.00738113623367,1.01357383422381,1.02140341728427,1.01858557417092,1.01826615198263,1.01411034301256,1.02508353285101,1.02211342175152,1.04926721582245,1.03201365726333,1.03096932724803,1.02103149718749,1.00198294783493,0.998468410777526,0.996041964194856,1.00024217894398,1.15265065069484,1.03655874469212
0.97032833156926,0.968249000661607,0.966025527592618,0.982388725136309,0.993998398899723,0.999589131872598,1.01833541951267,1.02550723542648,1.03396948598073,1.06576954032097,1.11254670592607,1.11196847240167,1.16214298642028,1.15959348822721,1.20291575886106,1.17815358751314,1.17612026526802,1.17548651437704,1.17488370038025,1.16693523157214,1.16506380273599,1.17130261397926,1.18154225929633,1.17464674585448,1.17246356015762,1.17296020539774,1.17171442414411,1.20669349431596,1.20836612906991,1.20825959028803,1.21145617608733,1.22771390578406,1.25146406467725,1.24348521944668,1.24306511439061,1.24360691138906,1.24239482553561,1.25737334528581,1.32175994228446,1.28896014220905,1.2872727415639,1.28822109101775,1.28956942920068,1.33957573822721,1.37347036506459,1.3379757727831,1.31651228153213,1.32703197438008,1.32493090459542,1.34186827798566,1.38530178461771,1.34627873182802,1.33425906046523,1.33430095312012,1.33377962528048,1.39057555174287,1.41888983264502,1.42264446963007,1.45856785993731,1.45235985074099,1.45056340475318,1.45028553379313,1.45628898262679,1.45928364570933,1.47245076756209,1.48663954579089,1.49562605324976,1.49514410974487,1.49517565539531,1.49504691873084,1.49425573749605,1.49132603434445,1.4898988106062,1.48901019345924,1.50300933605003,1.51772915125804,1.51781755962648,1.5552015052931,1.55329347826311,1.58887688878289,1.74191717864599,1.72219950712431,1.71268205265685,1.70977748964576,1.70391123515892,1.72471780006725,1.77070198315131,1.63666036862492,0.00417616182640687,1.56592469987009,1.80632262261638,1.75746584194171,1.74168199905388,1.6522444476008,1.6088912158376,1.58640714996268,1.5511241939009,1.55003601606998,1.55036294235381,1.55065657981011,1.64007701691823,1.63848206801855,1.63893975882287,1.49667644821118,1.47799202263285,1.47849460412141,1.47186066190793,1.47369992932359,1.47542929406082,1.47648184244216,1.4806986646597,1.46115844267447,1.45580727189955,1.45384860266654,1.45326782018618,1.45485276051112,1.46581756706698,1.42574549241901,1.40427757258293,1.38314967265445,1.36614816074844,1.37245006473548,1.44221746041308,1.30824961656118,1.30771050089528,1.3042322390987,1.28619677071662,1.30783399398999,1.31577438695648,1.28429801438418,1.24273315266077,1.21929415166399,1.19504539919689,1.19637936718333,1.18786766490575,1.18854472308735,1.18998254170011,1.18926623979781,1.18865821277394,1.18923800971768,1.24960427235306,1.17818186662795,1.17576054081022,1.12947689890181,1.12042891986907,1.09911449135333,1.08971175876043,1.08517946483197,1.14236804980311,1.04970344715147,1.04700253137377,1.04907319737716,1.04962734552525,1.03891311671044,1.02564964264958,1.0198974015419,1.01318141522651,1.01631602582542,1.01658770634278,1.009306837423,0.974140091050482,1.00315778057075,1.00630356366742,1.00470507979761,1.0050045749493,1.02208841203836,1.02192060444412,1.02239191197263,1.11403821847174,1.00729414934027,1.00689963210444,1.00587869887516
0.96653041061225,0.97070897613707,0.975704839630971,0.975977970997594,0.974647702839429,0.999513710672209,1.01016487401033,1.02753137571765,1.03587555427243,1.06854882173436,1.10701869116847,1.11024985140521,1.10766955976059,1.15175285418395,1.18552768767971,1.17607643222568,1.17402302302921,1.17399690534756,1.17205427616127,1.16814747318166,1.16462715416862,1.16944864020146,1.17484101831568,1.17624248186445,1.17760413492995,1.17991502662935,1.18235064651621,1.21169513537344,1.21754829253103,1.21788896282984,1.22765618669936,1.22595534966326,1.24755536759179,1.24479769426651,1.24273221845943,1.24302297453072,1.24264502591943,1.26282278638978,1.31773524095287,1.29467570463417,1.29516532507235,1.30789729599357,1.36417706415566,1.35149877071769,1.50915978323171,1.33645705497014,1.31622790220864,1.32775898355131,1.32608599420543,1.33924834557202,1.37498005068961,1.34160947605786,1.33628895570857,1.3354193323616,1.36363599116232,1.38856050959466,1.40585072360355,1.42345915311266,1.42423357706243,1.44713866646769,1.44780517723008,1.44830964112466,1.47201179737344,1.4664877701507,1.46605940216378,1.48541539761825,1.48471356108082,1.49337085721662,1.49306340604978,1.49326818062895,1.49285898510059,1.49055748812581,1.48934022788656,1.48881330299232,1.48967134175515,1.51807774411323,1.52547696181653,1.55864287243297,1.58838088512225,1.58706607337351,1.59990141854251,1.66523688639798,1.70250177678415,1.70529392846042,1.70331955366477,1.72526829843,1.76981206366801,1.63665443311906,1.83020815949985,1.56543629632045,1.80631675357363,1.68470171774192,1.65072523700231,1.64622538381474,1.62290459913501,1.57914123217459,1.55008682330057,1.54901964808104,1.55953521817925,1.55572528791839,1.56096432584001,1.5555567413979,1.52485945537981,1.49997615129788,1.49540913425312,1.48708018465765,1.4714265451758,1.4708828647261,1.46874499012131,1.47433215140862,1.49243592791673,1.45880592746967,1.4472822507114,1.44582977969938,1.41452530495852,1.40846771990913,1.38521681661975,1.3797042841725,1.37062533512097,1.37172645774514,1.37033480999376,1.36232801428395,1.35648908343143,1.30215155728922,1.29093721165499,1.30182064397755,1.34878508767481,1.30972095624716,1.32473982080381,1.30502751200367,1.30482301003193,1.21707179633996,1.21739836808093,1.19621001798538,1.18702698481357,1.18865929277885,1.18939732916409,1.1863690973635,1.18207363163826,1.17534526189371,1.15653477795702,1.15151949517653,1.14019076312246,1.1232591915408,1.09895064914834,1.0994672865354,1.10584106328365,1.08074353778565,1.05983756453087,1.04864621653724,1.04828547891331,1.04855411799752,1.05091516763578,1.0415242644395,1.04159532538417,1.02579195687341,0.996286206591432,1.00290315194141,0.986760585889864,1.00211224571537,0.999680510951784,1.00086201844167,1.00076916001473,1.00275900424789,0.988872295711115,1.02237997281911,1.02474902641311,1.02342360138519,1.01116116394665,1.00610762460127,1.00508164759508,1.00540350215701
0.975447061844928,0.974606529821976,0.975768341049255,0.976434374836626,0.976235243652862,0.999515719266626,1.00915137715932,1.02978207911113,1.04421469675678,1.07131458602009,1.1037231934515,1.11374433825764,1.12535384810095,1.14694746704546,1.18024195435331,1.17534488194331,1.17455035035328,1.17342109299512,1.17158225445436,1.16938964107288,1.16873672593147,1.16874474535246,1.1796310444098,1.18336452580695,1.19061094549655,1.19888430071607,1.20718917930062,1.21392421871734,1.2181307076165,1.21898495205053,1.22237925674355,1.22375952163269,1.23361535211284,1.23609267899301,1.24827952265118,1.2595715619562,1.26849436021484,1.27025956509561,1.29467090260442,1.29530241059181,1.29592611189639,1.3240134739289,1.35070788008867,1.34359017784111,1.33544523819068,1.33464167767569,1.33304596454364,1.32904501988755,1.32735496865419,1.33887296988264,1.33873460021862,1.33804284394631,1.3372049688249,1.33662358454622,1.34805188624818,1.38813292559122,1.3973172001726,1.42169531049205,1.42517581895331,1.44672361239863,1.44688917724924,1.44701364849369,1.46961555916866,1.46743676668204,1.46607353128468,1.48476294682856,1.48436114605471,1.493306829305,1.49311744476401,1.49248416950894,1.49157457240229,1.48939369865965,1.48809309520843,1.48834420690987,1.49126015440751,1.51981764465139,1.52302814306847,1.56113160667643,1.58933061568054,1.58901609760358,1.59278091936,1.6567801552266,1.67172704826567,1.70084578027827,1.71128650502247,1.72268485765704,1.74487542063516,1.63664841652328,1.63664584325409,1.56433339673052,1.5627226408669,1.56196261178267,1.64357902103814,1.64367339783752,1.6183184163436,1.57230161825898,1.5478065965847,1.54747509496505,1.54682198823897,1.54700776517078,1.54658216301532,1.54517913363729,1.54619720715055,1.50264472365679,1.49802514375493,1.4894698427477,1.48465621878355,1.47043217103254,1.47021567534206,1.47286261222665,1.47795450382844,1.45631401135844,1.44586472739741,1.44223008599569,1.40849165709062,1.40698299931999,1.37970376686962,1.37873297124168,1.37662516752933,1.36090758707977,1.35685197260414,1.35273607730691,1.34858948803234,1.29861872752661,1.29462040023231,1.2983133297119,1.29991301352942,1.30253644158403,1.30377498065624,1.30450560546372,1.29651183659013,1.21527541449276,1.21417857141076,1.19598141415199,1.19037714525859,1.19045812822721,1.18494204190971,1.1781771270715,1.17545183479606,1.17093951134597,1.15883442995724,1.14648149454993,1.12940205672053,1.11696720200866,1.09784890143753,1.09545711338685,1.09255212651424,1.07652584336678,1.06099744589097,1.04833552122895,1.04781092605118,1.04644035733561,1.04467335925887,1.0430758664386,1.04331584773126,1.03042296453672,1.02213540345508,1.00713569193188,1.00635707906023,1.0045783494927,1.00081151137842,1.00088096985959,1.00652556317116,1.01058253656757,1.01506890314556,1.02285139312788,1.02331677669881,1.02349362276977,1.00876972860059,1.00553645755811,1.00441016973402,1.00426815883256
0.97668754899937,0.974933723691831,0.953096233803026,0.964400812036057,0.962622334889455,0.999734444259944,1.00816961976287,1.03212715621597,1.05671096355599,1.07421626521744,1.09955406759914,1.11756400599588,1.14342071586678,1.1435833871701,1.19169098774451,1.16728613627096,1.15963006678075,1.17243537806432,1.17093692430943,1.17009969103337,1.16930510153264,1.16929120743504,1.18653266421617,1.19400595797994,1.22920602653619,1.21946715667979,1.20938506224154,1.22253017768613,1.24672033168536,1.21800423674757,1.21221906532502,1.22288922065248,1.22262762281711,1.23253220072295,1.28757102219113,1.2807957856284,1.27438408548496,1.27901963675932,1.29368933232497,1.2964353283662,1.29766477094703,1.34207172621318,1.35699785298579,1.33615396881915,1.33029551411291,1.33335687299691,1.33602833899039,1.32780327434511,1.32666073052004,1.33804441076071,1.33334564668935,1.33838135264604,1.3380554095444,1.33816820597898,1.34072954223773,1.38938151265736,1.38748459448875,1.42033042531967,1.42640618255692,1.44560599884755,1.44580131937996,1.44632929434244,1.47078022930518,1.46015218121056,1.45183868416784,1.48466238213188,1.48413802488835,1.49301408588034,1.49347195425369,1.4926517424063,1.49237948894142,1.52202503794459,1.55416405457027,1.52749880447716,1.49650620682997,1.52095168900276,1.52278805120145,1.56241476536862,1.59935000372303,1.59342668103857,1.59735291998892,1.6353711581463,1.63650339604401,1.69479682607726,1.70465369163336,1.71275262493901,1.78564451793274,1.74911963049198,1.74609925587939,1.56452629306858,1.70885983169245,1.5617697359779,1.70722236876644,1.6316678885554,1.6061185832256,1.56614138071577,1.54306117848327,1.54385021063382,1.54630684623794,1.5445911522371,1.54503609730902,1.54448142367025,1.59274962453548,1.50401292325782,1.49903496494044,1.49872683011762,1.53442593219458,1.47087475855915,1.46159563036938,1.47149184449021,1.48436115017189,1.45348323162264,1.4449440146579,1.43558629356734,1.39829442931616,1.40362013152283,1.35924366952339,1.37748995510649,1.37861727514387,1.35297614638029,1.34435464022513,1.34338070849904,1.34249161450382,1.29718329271115,1.28962476079862,1.28983436170302,1.28955641884129,1.30397279034917,1.30471540238412,1.30473358536009,1.2804176727324,1.21567084881424,1.2110409327117,1.19587554034031,1.19257009141461,1.19224305772751,1.15925617431494,1.16733539128825,1.15833189015423,1.16397726514062,1.16153848364436,1.14074538180824,1.11252349980219,1.10607174861236,1.09037293571017,1.09420767127948,1.08987228301833,1.07114688971001,1.0596652474625,1.04878412219501,1.04937422212578,1.04059098812522,1.03742136120082,1.04153781145603,1.10932827855885,1.04288208774295,1.06999720149583,1.00738249705744,1.00808661476416,1.00634790477828,0.976298252868732,0.996311402847232,1.01953274284549,1.01861661718811,1.03121787604779,1.02441615674545,1.02296357183603,1.02376625032013,1.00146961692776,1.00279147865417,1.00179274691597,1.00246954487094
0.978895348343832,0.973539727529536,0.951635497170243,0.964853947373407,0.965586229153028,1.0001858047439,1.0002138979651,1.03437114442411,1.04340445619897,1.07759012697401,1.12650307067482,1.12249912154204,1.12152490860604,1.14104589984826,1.17050136184492,1.16279091765146,1.15033676279623,1.17162938313787,1.17139419339361,1.17062092296587,1.17080423863968,1.17040226448755,1.17047434857397,1.20416464763774,1.26463957768785,1.25790678547193,1.26125461485639,1.22469939298926,1.21793467337899,1.21895310136794,1.22190793350028,1.2226561938898,1.22277349041733,1.22896396994458,1.29903304187108,1.29321248968677,1.29568733872853,1.28664102055999,1.28228986090346,1.29911345801399,1.38333036925241,1.35787015266437,1.3848091598531,1.33515307485959,1.33099769658661,1.33196862554572,1.31565531829437,1.3162780034766,1.3165733385108,1.34048127782087,1.34002200132937,1.34181162792102,1.36531518319392,1.36533620216321,1.38630972024215,1.39271576590156,1.45663663154068,1.42139914167311,1.42379892799069,1.4425272392668,1.43933287662617,1.43818259610012,1.43773776642674,1.45692896790386,1.44775056248781,1.4851525141773,1.49093855548156,1.49235736055229,1.49320403468817,1.51463221814433,1.54164469018155,1.54020460655593,1.56429097216121,1.53477069356319,1.53572007670824,1.53235170440904,1.55118717798658,1.56252498090029,1.59818542225978,1.59491664543231,1.5977949378438,1.63352291485319,1.65937815675241,1.68726769111978,1.68234762536972,1.70170352175502,1.7121084195705,1.73282093146036,1.78540678177257,1.12253787931906,0.00410336515115006,1.12543717123479,1.64128286641313,1.63263632820303,1.5760163034766,1.55748139153638,1.53733460488735,1.53454106476868,1.53423635510587,1.53367542977516,1.51816533374762,1.51936137089635,1.5186760303846,1.50498157836933,1.4992265374872,1.4983003817112,1.46314358077051,1.47159408553579,1.47232369264699,1.47156008007415,1.44921013424856,1.45046102832554,1.43013717746418,1.42671335799301,1.42048198079883,1.40765099117921,1.37811998254308,1.37394353447718,1.33532430387499,1.3481315849977,1.33331278052553,1.33369164020821,1.28029269829016,1.29205841261485,1.27897735856024,1.2886489719063,1.30463570787921,1.30457877164355,1.31684698539712,1.30513275182249,1.30588299422175,1.21737730507688,1.21932245555136,1.19596003871148,1.1917397035539,1.19231899092189,1.20081259259103,1.1943750766605,1.20331631489234,1.16751470353112,1.12138588277631,1.13311723508817,1.09814784306611,1.09867400642732,1.10093354587481,1.09804941022405,1.10075071693126,1.06282119516882,1.0345753862968,1.03345689933212,1.03173218686504,1.03656615747414,1.04092548530671,1.04226146449383,1.04608310312124,1.02863056324132,1.0105713314461,1.00784402055156,1.02128471625759,1.01379629347849,0.979238386748351,0.992377068248401,0.98579607072229,1.01671043453586,1.01762282252001,1.02582925355203,1.14696354827439,1.02395428387712,1.00159551413992,1.00164796180351,1.00121104086089,1.00104796303887
0.99419386118981,0.97263595781195,0.959948848813151,0.963511036473349,0.96371968854932,1.00026449966179,1.0082000506198,1.03640442927593,1.03793761415308,1.08161332636037,1.10714992468025,1.12139653054967,1.12167333161732,1.13672264722853,1.13182219525488,1.14572028542246,1.14441673416386,1.17022007981429,1.17061587656464,1.17069503650239,1.17141018406532,1.17125335400124,1.1722383907399,1.21161660888207,1.2188617715753,1.25223507453569,1.26411061765795,1.24261248775546,1.24100008601118,1.23716122415321,1.25106407610484,1.2233777504102,1.22275404707019,1.22604295771542,1.22337919009262,1.29085152372735,1.29571930265263,1.29109126574239,1.28229395040092,1.30098909570496,1.30125811461142,1.31199432188724,1.3216276083164,1.32290590465325,1.36834620087903,1.32960800962493,1.31902055690252,1.31806994557366,1.31878821095198,1.3418989670875,1.35072623028368,1.3519351747428,1.36572310598308,1.36452455756333,1.36278729393262,1.39496545561233,1.39264514246908,1.41957399494303,1.44193500745256,1.44141301786317,1.43929174815417,1.438197149404,1.43777294495588,1.46269055618865,1.47737150944856,1.48628717108139,1.48816722876944,1.51094779680246,1.51864166522642,1.52765254795589,1.57308801894594,1.54120122762319,1.54688758322045,1.53480485789985,1.53290263083825,1.53156660521924,1.53212432762031,1.56221384137845,1.64351095508479,1.62007325757073,1.60702569302675,1.62675572120838,1.61945648860059,1.67825591689197,1.67939273050093,1.69275414151725,1.71531003500537,1.72684379634505,1.74736502733575,1.12253787931906,1.71521600498591,1.12543717123479,1.65797602097686,1.63127842000849,1.5364121644111,1.53440662378788,1.5357376034732,1.5336276028107,1.53447235970595,1.53358276978942,1.51934340549731,1.52035612560004,1.52367229625456,1.50625196405232,1.51032611822111,1.49746803772434,1.49831642420603,1.49837116856864,1.49934562170224,1.48704368848575,1.44893236057544,1.44923952090438,1.41151101602927,1.42206655552559,1.42336875870093,1.41023015099071,1.36511556938684,1.3692627922575,1.37017157648939,1.3624526195211,1.35580258561036,1.33536017037792,1.31229918940796,1.30348999784114,1.28619843661193,1.28671102164225,1.30309884486716,1.29826088845037,1.29253945066898,1.27205267776123,1.2385184553255,1.21234199804017,1.19740662842639,1.19652273341357,1.19743780076183,1.19256677153833,1.17753154201203,1.17675151849323,1.17796409189641,1.17064500942936,1.17298282088927,1.13442801989196,1.13393537491547,1.09725184268469,1.09049721444911,1.0861236731055,1.08341293832968,1.05425191876652,1.05422277733845,1.03317205141489,1.03381137993249,1.03395955446594,1.03155039839154,1.03025719166631,1.0225727177615,1.01015111547105,1.00310500863869,1.00556952137711,1.0556773794806,1.02872456205656,1.03760246117194,0.999412083779303,0.990287654593974,1.01447807465762,1.01419773927748,1.02642352976675,1.033793856065,1.0248613018781,1.00156114306579,1.00149027532371,1.00051089386555,1.00080146470298
0.970734016467377,0.972250840746094,1.02164463657937,0.982617811516799,0.988668045829957,0.999562060079648,0.999320888612296,1.0383083531931,1.03753247378369,1.08598643691495,1.13451295200836,1.13461328402071,1.18092754397386,1.14070091765034,1.13299218544055,1.14828254483472,1.15147478283767,1.16837953553368,1.1637561293503,1.16978620128811,1.16968046858782,1.17564718050734,1.23479598731753,1.21774419592834,1.27673676753404,1.24527810589415,1.23854039334821,1.24124596470662,1.240244568322,1.23250738379535,1.22448598292685,1.22482485699997,1.22537173053919,1.23062297811889,1.28364786487258,1.28826716578097,1.29778894148424,1.29429719323851,1.30176957212937,1.30137059134468,1.30048931116312,1.30563044679631,1.31965221909206,1.32242793237646,1.32780539096925,1.32636146792953,1.31941689796038,1.31924399488595,1.31084703921693,1.34290805830998,1.34232882508236,1.35274974367275,1.36425608885105,1.36346386807861,1.36180438566378,1.39798756939568,1.40492185959388,1.41002861418744,1.40862486285551,1.44905088213239,1.45648632322607,1.44690234420361,1.43668654551407,1.46593231869131,1.47222203426182,1.49958770713732,1.51372292470992,1.52447907618684,1.53309859279048,1.53296908290385,1.54050490244958,1.53875600944215,1.64859943530232,1.53589988537488,1.53228329682478,1.53102425358319,1.52686849838116,1.56196495288041,1.59804361202482,1.61549837756655,1.65280368042307,1.64951147780453,1.63464976738506,1.67126536262833,1.6653352916479,1.67499316996374,1.66808986338929,1.72493043467593,1.73471751953124,0.595815377646533,0.00392849994851056,0.595860270188786,1.6260671364167,1.62802160232228,1.53708159259887,1.53438503541728,1.53521083444299,1.53224828719617,1.53422625455086,1.5331304609278,1.51979821662289,1.51929067797435,1.52407958552793,1.50438018805118,1.49882188834804,1.49730164737782,1.49810403048683,1.50595337153027,1.53322774329194,1.49464837359402,1.47180759265342,1.4590829527955,1.41327953863439,1.42026036263197,1.42695693125165,1.41228955641747,1.36628475364085,1.36741873485681,1.36009431978287,1.36694622649225,1.3728476679823,1.3376221606454,1.31825197355347,1.31187414045864,1.28637254480157,1.28621325528343,1.28664453529644,1.28336807679755,1.28273940678541,1.26024599631416,1.21068195567462,1.21139252511938,1.20758969026212,1.20897396649185,1.20769932207715,1.1922585562918,1.17947338493928,1.17622148772061,1.2110217223041,1.17116304276789,1.13752975954765,1.13563609837339,1.17246243749275,1.09591116605675,1.07690706674997,1.07653217744495,1.04091362954043,1.04693712229951,1.05722871429952,1.03352534195294,1.03374295172142,1.03426116899457,1.03362755651048,1.02879499322674,1.00177322617218,0.999127955118329,0.99571211735247,1.00305561728342,1.03202338310864,1.02119735546197,1.00575709744876,1.01281077302479,1.02473582329456,1.02623609564383,1.0271461543056,1.02736240303298,1.02772315982508,1.0265523369528,1.00114195024797,1.0015857606218,1.00114725618245,1.00085883840718
0.970868233981846,0.972101571268833,0.974944815201987,0.978116918381936,0.992606464816163,0.998207908467695,1.00666423973636,1.04116075865649,1.04740499862948,1.09055836584304,1.13398380645974,1.1341273865585,1.1378678356199,1.14341534954839,1.14820360563866,1.15254619179916,1.15728059604379,1.16990048009345,1.17013050746973,1.16986421957423,1.17607213530215,1.17885102041371,1.20300831789589,1.2103387824153,1.21338705599214,1.22135517160524,1.2232749670813,1.2236786944057,1.22520066413857,1.22704558173181,1.22624146328846,1.22600125275222,1.22609892633434,1.23676451335122,1.28574964276618,1.28817743363146,1.29199025673043,1.29528252731149,1.29721312546029,1.29799297883125,1.29794751090286,1.30381119641651,1.31142238694109,1.31538299754362,1.32495561015222,1.32223411561616,1.3197687498892,1.3203267879485,1.32147536992303,1.34411531898445,1.34385530651202,1.35476397265859,1.36242642852615,1.36222776656179,1.36198173612375,1.39946344831331,1.40267793229166,1.41289018262915,1.42797175366037,1.45311323208656,1.45668716860474,1.45639995411526,1.46524390814987,1.46902607695677,1.47200317509667,1.50937593932344,1.52472942808618,1.52927762918908,1.53352065059746,1.53331077500033,1.53992506707701,1.53789467816346,1.55991381060434,1.53835050022406,1.54172962009402,1.54662017585166,1.54863473019351,1.56229601062957,1.60958940177814,1.61288888833063,1.65079251162892,1.64860139775645,1.64896115904122,1.67303187575308,1.67817390401116,1.68208424463155,1.69102918288052,1.71163472860948,1.72969792664761,0.595817055123463,0.0764641868696025,0.59586194766565,1.62594831453352,1.62662202985069,1.59006819839831,1.56616335436994,1.53219939925278,1.52983907920388,1.53089256670197,1.53233858980406,1.53392099782814,1.51312702854795,1.51130260701697,1.50342285873541,1.49816516478917,1.49696811792952,1.49718801945017,1.50943655822688,1.5188389625528,1.50239817319245,1.48611359051891,1.4646396086454,1.41585889126934,1.41763288057165,1.41700738805367,1.41430330199449,1.37698857712743,1.37646074501561,1.37447000619461,1.37115338488133,1.35297501087594,1.3389668734941,1.32190676462152,1.31678752398316,1.30729169543364,1.29717520697554,1.28365715601086,1.28153905473069,1.26041245778712,1.2454462868606,1.21036481654742,1.21071283869738,1.20922895227716,1.21001174722665,1.20859718500958,1.19193463022254,1.17942136434711,1.17429231353276,1.17392660962407,1.17109255762329,1.15634427198639,1.13441673007143,1.12874803260926,1.09407944250802,1.08020256212584,1.07603203203779,1.03954809536797,1.03729280077087,1.03625095836441,1.03494584694923,1.03506728947062,1.03550873183523,1.03588973112694,1.02720741758242,0.999037020591831,0.997390174302066,0.995817315541769,1.00143754830375,1.0066054493577,1.01653544278352,1.01812936177949,1.01849791352258,1.02531564259617,1.02676283456592,1.02754763941502,1.02811764331618,1.02817599030656,1.02777419102481,1.01170078372433,1.00290367767591,1.00178816562054,1.00150411255127
1.0056987947191,0.973410666139847,0.967943101941926,0.978632466740705,0.996473470060507,0.995972198512389,1.01272141185888,1.04432964172356,1.06399008274637,1.09492727116092,1.13256173030462,1.13269704801659,1.13196665187073,1.14532217099367,1.19072867914916,1.16387244782759,1.16175057136351,1.17054614871562,1.17270549332116,1.17115389530732,1.19142237647286,1.19010315744111,1.19409026765837,1.2055168849745,1.20694778866391,1.21912888665739,1.22360632549043,1.22432950422381,1.22599106127195,1.22659705424013,1.22717023285022,1.22679616375805,1.22686862256135,1.24318087411829,1.29270211824724,1.2763863990232,1.26032594228932,1.26024496711781,1.26011377930553,1.27931773309044,1.26482779101957,1.28020894020007,1.26510319949235,1.30954480232807,1.3512771545087,1.31853376182575,1.31749280573768,1.32152653301823,1.32331478693041,1.34494110240996,1.34503041180483,1.35733129096511,1.35914978753189,1.35961507960043,1.35544564331214,1.40006128088437,1.40003694427188,1.41647966269226,1.45789817075671,1.45744091176851,1.45695318351167,1.45674361882552,1.47835625969957,1.47546516389338,1.47246803076338,1.51547745057551,1.53399075253417,1.53497713113411,1.53424747971015,1.53340747339899,1.54079262926764,1.53828558363942,1.57226477749714,1.53895539663676,1.54106540908602,1.54954899422952,1.55124720349737,1.56251948101898,1.61600181601076,1.61319384361842,1.68217393595054,1.66765665619337,1.65321036276618,1.68174798408494,1.68348741474225,1.68418367294542,1.68865282459174,1.69753119338691,1.931008968655,0.59581705512531,0.00400782660967245,0.595861947667404,1.66051061927121,1.64635989958849,1.64809043017704,1.57446043371706,1.53554998690155,1.55641188179225,1.5635421770987,1.56073778635058,1.57166271110622,1.50990299583188,1.5041769421316,1.50363709691296,1.50087156711825,1.49809466921347,1.49839929308331,1.51336042318721,1.52585801055809,1.52369290631694,1.55661535459781,1.46946698440829,1.41648792484684,1.41758918680779,1.41653549558571,1.41615615774527,1.38477497336053,1.38495052396285,1.38461096674558,1.37486831906768,1.33844564479266,1.33907233775351,1.33162199769346,1.32989620044949,1.32858220855073,1.30187485795758,1.27809628371328,1.27876141667741,1.21010801515118,1.23182906531527,1.2099061368501,1.21222802906253,1.21574974338959,1.21287939796035,1.21428865045297,1.19135065880697,1.18233947556631,1.17197103182325,1.169680415998,1.1705484411235,1.21319268479024,1.1344903811797,1.0921783156219,1.09194103514988,1.08420132576762,1.07538704451685,1.03579408587099,1.03616788028236,1.03619765678964,1.03542298190115,1.03611751945857,1.03671293415927,1.03846301236022,1.02580979825776,0.997262019238259,0.996656443365465,0.995678302880391,1.00135071720276,1.00194382818894,1.01423800970163,1.02031000849032,1.01954510173622,1.0238201725532,1.02677180216958,1.02704066387802,1.0276910896577,1.03578580773638,1.03383681492357,1.0708279070383,1.00495494169121,1.00192917204675,1.00168568305872
0.972858396987601,0.974292137347036,0.977280784993873,0.974583229611919,0.967730744755394,0.992709083107997,0.998774054637726,1.04717956163113,1.05429887431205,1.09955454761567,1.13000781332915,1.14001571346897,1.14382201706767,1.14858078806269,1.15528491300853,1.16672671643023,1.16959087385799,1.17095624844411,1.17217740969073,1.17286082405002,1.17288123977911,1.1889170533942,1.18967878984547,1.20469952109816,1.20904375718104,1.21556295012714,1.21078946855181,1.22488104333423,1.2256726465251,1.22624854787589,1.22656933571876,1.22713967652821,1.22798381085186,1.24610336590274,1.25374186601976,1.26951689928028,1.26078360960224,1.26102810497053,1.3130455378908,1.29220302681351,1.31767534096477,1.29175768175961,1.30568635685335,1.30530267641235,1.30414509007091,1.31679727565414,1.31714999071077,1.33032705511105,1.34981635735792,1.35069740748345,1.37109827077536,1.37119748158082,1.41123760175986,1.40602328168152,1.41214070783169,1.40388212160788,1.39674731758986,1.41948444365402,1.45770014344644,1.45713417974141,1.45707686608427,1.457166091123,1.45505103367663,1.4837508799068,1.52665188257545,1.53028224657969,1.53867392717188,1.53662074995869,1.53450774127158,1.53429617700079,1.53282395524167,1.52631686822433,1.5142101988032,1.53292088527786,1.54118497935295,1.55109545261193,1.55904085790734,1.56146165620534,1.61734866500736,1.61646343972395,1.67381591332533,1.66997695727441,1.69747314751957,1.69596883424301,1.71701632301282,1.68570968883894,1.6754214542083,1.67493843271254,1.67395513614886,0.595815377650992,0.00404697312358673,0.59586027019302,1.62957318708464,1.62851126596351,1.59343394637305,1.59197762815869,1.57275526852922,1.56126889030442,1.56240706744728,1.55948209924201,1.50631214595104,1.50811907403904,1.50573161882157,1.5113760184225,1.52044762905198,1.52237281024401,1.52457574076328,1.51917586692693,1.51916906986217,1.5216098918743,1.55589346306479,1.47517154194708,1.42208546536114,1.41951912945658,1.41821703955375,1.41793121195276,1.4992117707084,1.38475689363606,1.38421604037347,1.384167330002,1.39908841171712,1.34476394359232,1.34228792114344,1.34578457509842,1.34693376554855,1.30615359932578,1.27881900230179,1.27784440523326,1.26215865840145,1.24831722579463,1.20776344263981,1.22284881625891,1.23168395435817,1.20284913469944,1.19579836108865,1.1912375380079,1.1918918724463,1.16988444681475,1.14529339591033,1.14833688052853,1.12189605075457,1.13566421400501,1.15710510769822,1.09011286714365,1.09188273996278,1.073881326266,1.04370207459624,1.04671103243791,1.05002436023226,1.04301605125796,1.03779579983,1.03689550241529,1.01802057285322,1.02405927842654,0.998889204523056,0.997007200614809,0.994816800531638,1.00109442085755,1.00374422956088,1.01218386332274,1.01635762446747,1.01779953643797,1.03708248153406,1.03257458905412,1.03617175337457,1.02681337329453,1.02682215220998,1.02964573990419,1.06405378245826,1.00699591594891,1.00217597597163,1.00200344230906
0.973412967638404,0.973565737546043,0.972449008767488,0.973169215917255,0.969297963510357,0.990652140585419,1.02259587028903,1.0490250964771,1.06443280697967,1.10397738275498,1.11849650441899,1.14424429101586,1.18802969143625,1.17728025012318,1.17887632643782,1.1768020531361,1.19676819270952,1.18033606410418,1.18177370360877,1.17575192987448,1.17482961738736,1.18876981693442,1.20239903836564,1.2037696059577,1.26688140739004,1.25117237042774,1.26460994264749,1.2430838540753,1.22399641859836,1.23377477710514,1.24612720420362,1.24867351640451,1.25051026985107,1.26042476624186,1.2775252986092,1.28200046788824,1.33369585362745,1.2636431972688,1.24471269289504,1.27403382701577,1.27748832066238,1.28586747911344,1.28188946066021,1.29589186821734,1.29528811774829,1.31605785997773,1.33454269478086,1.33949983744795,1.34848465127982,1.35005241431137,1.37260828890228,1.37206045650086,1.37868254483717,1.39955362654337,1.38947306743955,1.41120739552294,1.42162968705343,1.42139496723964,1.45599918895303,1.45624770708207,1.46119279627348,1.45952230332429,1.49372851006911,1.50242514692985,1.54857877111861,1.53225420542728,1.53792764105245,1.53754075492504,1.53757326617664,1.53643836327351,1.55754761040931,1.5229316227917,1.51314646415504,1.51182538242887,1.51099400942136,1.55193791371847,1.55882362611123,1.55956294793709,1.57179228864507,1.6186414336898,1.64849128594805,1.66924676744547,1.6715625705072,1.69955712120045,1.70588571888021,1.69300829347053,1.67582849860157,1.67630540283343,1.67489777428732,1.23830126219656,1.6545482024536,1.23827605711112,1.58845824039205,1.61576346563159,1.61513909948278,1.61641699527344,1.61696087599223,1.56066176128621,1.56199568988397,1.5544028460638,1.50623937339861,1.51586626929184,1.52307677446931,1.52530778658929,1.55515289325606,1.52408606468018,1.51715547323784,1.51842409564284,1.51831638892758,1.5125279528271,1.48421445356141,1.48574005390896,1.48765652023944,1.4411492616066,1.41546326078246,1.41783501909375,1.38306007799017,1.38408059366318,1.38370537053561,1.3852344319069,1.38883113487182,1.34602477390858,1.34537211247273,1.34737625341499,1.34766236965227,1.30978966998525,1.27714722873346,1.2769653030771,1.31520641427553,1.27263125554725,1.31459216110319,1.23100490539311,1.24566810723596,1.19795683695456,1.15924596297849,1.17696949178094,1.19187803484778,1.16631581150747,1.16601956542549,1.15207474073614,1.14091075597513,1.13753789095256,1.12606268211945,1.08760059977952,1.07176298473936,1.07164564801043,1.05685852054564,1.06055973729812,1.06743583015722,1.05414140570006,1.04977255453445,1.04242425057187,1.0374585765735,1.02721964524158,0.999544070694968,0.997199840479395,0.988445271205348,1.00012069691286,1.00582958151438,1.01096696504893,1.05808259524717,1.01716211323617,1.0170082028127,1.01886346212815,1.02153254036163,1.02409767705277,1.02527095690834,1.02704098068591,1.02625823246161,1.00979513549731,1.00101453547632,1.0019389691896
1.0239220169136,0.985952212250276,0.988646496309709,0.97858811732817,0.971247967938264,0.989932175638176,1.02414525353476,1.05083782581676,1.06374279225845,1.1094394548426,1.13524450602216,1.14780934334529,1.18571321405525,1.1764431699627,1.17650787898053,1.17524126303878,1.17269510980461,1.18014147657559,1.1821256144395,1.1774448616385,1.1739867022916,1.18868081607,1.18491280686921,1.20336858102079,1.20134699469366,1.23850678916592,1.269044043943,1.25804625386903,1.25708415264419,1.25828849968347,1.25801455277986,1.25941051008001,1.26036474774826,1.26371560743068,1.28792622562375,1.28570911659926,1.28878289277972,1.26815363348019,1.27067762213075,1.27243451529967,1.27336767055692,1.28863316997303,1.29107155787374,1.29760095813171,1.30451909171428,1.31732659717878,1.34200475037772,1.34439309875337,1.34783258939505,1.34959026320498,1.34944885186094,1.37251104337607,1.42432491919297,1.42519054942691,1.4317642161706,1.42453936782345,1.42261799781854,1.42214126723572,1.42030732033003,1.4272607283353,1.4261611621686,1.44511437785721,1.44575299818077,1.5060225865945,1.51752617517478,1.53025522128164,1.53944643884402,1.53812707914151,1.53781323045029,1.53745730436657,1.517052619699,1.51404758065466,1.51449115135084,1.51211482227333,1.51101513040715,1.5506392646682,1.56311821299924,1.55868640547402,1.59486760945687,1.61314393076926,1.64882149961115,1.64661319713085,1.59334168356871,1.7006401402708,1.7057270182981,1.70283325369984,1.67633711841979,1.67752080350734,1.67566203595418,1.23970324550504,1.64782716351326,1.23967826474603,1.59039891056796,1.61516067662085,1.61713851023228,1.61731548983123,1.61857164213285,1.55872364136113,1.52857655827413,1.52791947494118,1.53167584584048,1.52683314911603,1.51655276108746,1.52811353328494,1.53308335388519,1.52795566128544,1.51773752689738,1.51846396797755,1.5074983865374,1.50318453179238,1.49018998473242,1.48434913417797,1.4709385741239,1.45863485784154,1.45719493666795,1.41909416477838,1.41405408889382,1.40976360388814,1.40233069707131,1.3848058701143,1.36774261193247,1.35393479494018,1.35029142877322,1.35102846958615,1.32949684289464,1.31445805354199,1.31216986238551,1.27641295582023,1.26231611281345,1.26071626260337,1.19268731129502,1.21669449564284,1.21422877254906,1.19469365913609,1.1608166369267,1.16198931853304,1.16368316872374,1.16246969106223,1.15809344261501,1.15595193356383,1.13576040007311,1.13650913657821,1.13565809404528,1.08756590835293,1.06892049427666,1.06930865937169,1.10583511784569,1.06194575004316,1.05776557289809,1.05687492407192,1.05719790455844,1.04456571252347,1.04745933147639,1.02851316215773,0.996095559874329,0.995725067053824,0.991586683945881,0.998624424768903,1.02405097477315,1.0109446534961,1.00239346767192,1.01624791880616,1.01646012793514,1.01868997935426,1.02202780135348,1.02318202204231,1.0250238321639,1.02577005294353,1.0267681025411,1.013477948359,1.00314364632199,1.00363625998665
0.978303172336021,0.982449192647577,0.987310116442827,0.990052700975025,0.990878078934926,0.990565670377389,1.04318623585582,1.05523167340695,1.08658097912151,1.11572156830832,1.14558505311106,1.15140367569433,1.1710139599686,1.17352710177101,1.17496914258456,1.17523647103203,1.17655388008855,1.17908031436934,1.18027871790257,1.17796894675461,1.17519031601986,1.19126616086039,1.19211295627272,1.20307469305981,1.20236330889686,1.22772744432864,1.24368431378135,1.25952797839392,1.26186573955589,1.26371274595274,1.26490435987404,1.26644530352078,1.26834817350753,1.27222769541109,1.2786759081185,1.27612028592829,1.27379230003272,1.27095209919491,1.27105537307634,1.27216470085043,1.2731188829947,1.29056426269843,1.29109944932475,1.29919451386838,1.31019237200316,1.3200941150589,1.34424665027476,1.34622593435725,1.34884044704368,1.35003928702396,1.35045208183458,1.37264588646852,1.42548261770694,1.42702258984446,1.42832872479802,1.42642883988454,1.42512950562225,1.42348935525775,1.4214915708952,1.42682165980092,1.43074946721298,1.44422532232006,1.44525629026666,1.50957800009677,1.51586984065817,1.5287154633534,1.53236378110033,1.53719368833703,1.53755670483572,1.53750935686104,1.51464824696183,1.51324510211595,1.51350043972448,1.53927840478626,1.55316703699895,1.55126287559776,1.5555131325547,1.5555144460911,1.58445234332756,1.59720377656447,1.61552789880421,1.64745902917033,1.6452567833944,1.69714229445779,1.71037790716749,1.71036231637652,1.70939179596029,1.70601310701733,1.700945691456,1.24157541620881,1.24197010843803,1.24155520789639,1.59746078897673,1.6127386578168,1.61514305435079,1.60076450699251,1.57671766877593,1.55852547803075,1.52689459773405,1.52650021150715,1.52804615926434,1.52757472214052,1.52784264772374,1.52780321088938,1.52912466920612,1.52827071310588,1.52852035589841,1.51861553878889,1.5022431645606,1.4991703632178,1.49008067309732,1.48239544126088,1.46753851254097,1.45934808005853,1.45864809967206,1.42082944522165,1.41822174922577,1.41333929686495,1.40976373300912,1.38422453988132,1.37466563559654,1.36303577228586,1.35494126752678,1.35516974671039,1.33300899923297,1.31963140850451,1.31236545528018,1.27626624023496,1.27099482438944,1.2601220057059,1.21600595353309,1.21650732461133,1.21551384567095,1.19159447583668,1.16089075990746,1.16157985620426,1.16217722246691,1.16158600135177,1.15940387572352,1.15816616159959,1.15289128152609,1.14788058137685,1.14312258419585,1.08971200826888,1.08563258648049,1.0679826747607,1.06812424490165,1.06310667637614,1.06120802842862,1.05527298031322,1.05544230406761,1.04298977511946,1.04222902291858,1.02878395121323,0.99802901418414,0.996277582081353,0.99430776194055,0.996977145473611,1.00138256142692,1.01186883448074,1.01375317536982,1.01666671234984,1.01720232557318,1.01842261227538,1.01978092700761,1.02186519246521,1.02399222749939,1.02467273256233,1.02510639918071,1.01706707197708,1.00942360176696,1.00487587094705
0.976357953138114,0.978281920851639,1.03335337808772,0.99081797028688,0.991272545906469,0.991020572524577,1.07020532144508,1.06141374479948,1.13074326911405,1.12231858062675,1.16558516567359,1.15756406836337,1.16465926551552,1.1718807351502,1.17481366333218,1.1748612407395,1.2051428590782,1.18035194749202,1.1832005952966,1.18024005089112,1.17420004221767,1.19194391372725,1.19923548153664,1.20132702344668,1.20104728146535,1.21860255588033,1.20230250697308,1.26456167414561,1.32529069244872,1.32080763559321,1.3524401539176,1.27576985246691,1.28470159677939,1.27619072094494,1.42566678113324,1.26592960894825,1.26027289483342,1.26112791233232,1.26043958341411,1.2725009337386,1.27397678723127,1.29107801267207,1.29146878945963,1.29943140104619,1.32276671966719,1.32318312759282,1.34392300837691,1.34809505137141,1.35010070168205,1.35062849334666,1.35128600936017,1.37256120158695,1.44256924457957,1.42918597961022,1.42747391443717,1.42720092332871,1.42722054408228,1.42480051973418,1.41999860621837,1.42592849115966,1.4418182562367,1.44176809647619,1.43634260898104,1.51501927000466,1.51577647417882,1.52224444183247,1.51497495465524,1.53514313067923,1.5457393461143,1.53693129028936,1.51584508227399,1.5133338110456,1.51495602545728,1.54812521891198,1.58541618450842,1.55065482551896,1.55268916834489,1.55537434355032,1.55816519295402,1.55791446815873,1.55817424535998,1.65171517816382,1.66123741004397,1.68873277982577,1.73477752445689,1.71576770758466,1.96521961881893,1.71514694547553,1.95550048403226,1.24258455109802,0.00392395730920321,1.24254630473694,1.60551771109818,1.60874363590567,1.61763965744764,1.59125738941204,1.53828599467265,1.53026374985133,1.52895603094973,1.52697148096252,1.52847816745791,1.54017409201468,1.54696471027387,1.54634369525341,1.54634819191653,1.54418817349609,1.54312298042013,1.51737764152786,1.49225968525125,1.49155726462302,1.49034682902298,1.48099251244768,1.46544159834285,1.46207501684949,1.48434239436837,1.4234198886945,1.42246177649632,1.41702587827681,1.42081822756,1.38273195084998,1.38013402274865,1.37145225706953,1.36036888488713,1.3582609059558,1.33721158018438,1.32517855781813,1.3129373016158,1.27677131881066,1.2791241631352,1.25843929391609,1.21275310917426,1.21503103429401,1.21390166138188,1.18864409310815,1.16053249364398,1.16141041371595,1.16184695939504,1.16197548366879,1.21018868081996,1.16941050662816,1.16804970954338,1.16822059146916,1.16827738314271,1.09319350954521,1.09656974104311,1.06788990496816,1.06979100926482,1.06462660417356,1.06944393871879,1.05326336647276,1.05394090779764,1.0428470015609,1.03059681978303,1.02986671565875,1.00119009921578,0.996321968854577,0.98618757141317,0.995677478810192,0.99528429355955,1.01247953381847,1.01961934217189,1.0193837797982,1.00357747548098,1.01777282270977,1.0172580605875,1.01946395087798,1.02526418118384,1.0233805562086,1.02309014937935,1.02075447806465,1.10486490457028,1.00566866981861
0.973228692090668,0.974482195460432,0.989439375174698,0.989981880201674,0.988948080570553,0.985518905096067,0.980548099491696,1.04077423802207,1.04216924972183,1.08173227431581,1.0805043510697,1.14535851291059,1.14814636957949,1.16951877563189,1.21524036696605,1.17539622257573,1.17406324041657,1.17999934893879,1.18125299421313,1.18977969711665,1.21749710830998,1.20730251495896,1.19905291456512,1.2007369648083,1.20091419339131,1.22982582916452,1.27065511243872,1.27348556176949,1.31090106024292,1.31665161973611,1.35068531417104,1.27164274380382,1.26823382809747,1.27096144007941,1.28415206394494,1.26203011125265,1.26036001541429,1.2625530840727,1.2663049177549,1.27208735548342,1.32227007213214,1.29760807549899,1.29667201095318,1.29770474412807,1.29648386687557,1.32619376060414,1.38947669981463,1.39124797431166,1.41301421194814,1.3704998091319,1.35825089081356,1.3733163721367,1.38419610111372,1.43221021645412,1.56313444626877,1.47056853510854,1.50764547311422,1.4258224140174,1.42616982830013,1.426010685786,1.42682700135074,1.44372533993902,1.44450628697581,1.51839600206743,1.58475590554573,1.5418821076866,1.53324664213979,1.53422880584882,1.53483196481057,1.5357587907349,1.51102843525188,1.51156004750256,1.51007510429121,1.55265091119779,1.55280583642385,1.5512688701195,1.55253329387637,1.55538291316041,1.55846487368463,1.55822297116333,1.5592036022327,1.65464927309598,1.66094283410495,1.68130314648353,1.67970036211946,1.67423825590651,1.66746858800553,1.69471385430402,1.69679807083616,1.60110189301322,1.74354587431877,1.27383400407425,1.56048821565179,1.55575684976735,1.55851574015943,1.55833223291889,1.52124126643934,1.52652186290988,1.52131653902496,1.55683664970926,1.60534757236007,1.5566658299019,1.54763005703324,1.54523286659776,1.5458434885558,1.54322356100506,1.54200965522663,1.51500077088641,1.50605610949727,1.4906980214912,1.48128653528373,1.48095152081071,1.48099556761098,1.46248594099932,1.411616503086,1.40322755512556,1.38054842731556,1.37443694981856,1.36626684599911,1.37426381090649,1.38781152450556,1.37832832604355,1.39588751807631,1.35949236314045,1.36061976216812,1.33122051730037,1.31236820514558,1.27570631601052,1.25240044426929,1.25195534301481,1.18680577247473,1.18826319891455,1.18529818194864,1.18557630980535,1.16030335772519,1.16141058937458,1.16053495214072,1.16181178591913,1.20152106802306,1.1687533845662,1.16657419194022,1.16813438432911,1.16949904649503,1.09397089785596,1.0945154083355,1.06729177758145,1.07065858839812,1.06076053581618,1.04885171919239,1.0503105375874,1.06525457178114,1.04363320262566,1.04437821302811,1.03249813472374,1.03583000269691,0.99646402875897,0.979231109102739,1.0051789339632,1.02767471913629,1.01407152759512,1.00437229762339,1.02101684650633,1.04518722857987,1.01771765301392,1.01687013946847,1.01857657602171,1.01957794808985,1.02144725359629,1.02055322796766,1.02025706865308,1.01763396771649,1.00677761580613
0.991279865218363,0.971637823078317,0.971017661706237,0.966697223309006,0.962114929564693,0.974764334117413,1.00727268443377,1.03882000058563,1.07036280839892,1.08225562354189,1.08172213852411,1.14274173835499,1.14119196696307,1.16607289979437,1.16538334594582,1.17721969257577,1.23360806743304,1.19758991356479,1.19689105689639,1.1971510040829,1.2177000703522,1.22565601019823,1.36481654562169,1.21843928702001,1.20100089692685,1.24301596982968,1.27682050494495,1.27568060756139,1.27759867813333,1.29479600062233,1.3244433662524,1.26670462764247,1.26586100695634,1.25985995386467,1.2558619295297,1.25693358876507,1.25431191086998,1.26333939390686,1.2691899235286,1.27085862927343,1.30187452485257,1.29924735817881,1.31229623100206,1.30088526044359,1.31691048741912,1.32774777793188,1.39423346930885,1.39241707025915,1.39853146787381,1.37811636559214,1.376708040766,1.37544153912331,1.43053642293941,1.43279902967871,1.47243507233801,1.4544808261373,1.42625245275856,1.42643353006087,1.42632761795413,1.43459735257959,1.50628969131948,1.46641786619294,1.46468313733097,1.5198725336374,1.55694408238843,1.54782342082378,1.53296872624889,1.54025329591039,1.56497189404552,1.5599531698714,1.61430074949721,1.60829682580374,1.61374612495776,1.58096202837251,1.55217006930242,1.55126354376228,1.55180635714735,1.57215831251356,1.66621536710315,1.61455178301529,1.58702381527114,1.6556763798576,1.68452321222722,1.68062689093133,1.679624789839,1.67480534409863,1.65784693881561,1.68553245598853,1.68768813732322,1.60147355634097,1.65865221178476,1.27315305017003,1.56724430046324,1.55588144286042,1.58770602213676,1.55822042394355,1.558603965142,1.55379139973596,1.62143163643308,1.5960828664774,1.62648460885789,1.55180910606954,1.53825041863827,1.54084944909589,1.53831913522062,1.54043989922921,1.54009253844265,1.51259859966575,1.49216372169316,1.48969719726048,1.47842476878293,1.475014457703,1.46215443436388,1.45679888058247,1.44022564227847,1.39733448505745,1.33890123593949,1.3399343297348,1.33820843606193,1.34405451692236,1.35726603471247,1.35045854663768,1.34313931357821,1.34392011651502,1.34475944177564,1.33720923291257,1.34434466564385,1.27590018762982,1.26051790019234,1.24830291838541,1.18892660678251,1.18921793880331,1.18163061564845,1.18558120888989,1.16284090377833,1.16264107988118,1.1509242256836,1.15304659881316,1.15317482748911,1.15410937402434,1.15488986576205,1.14908824598221,1.13749690936032,1.09416814209047,1.09362301938882,1.06384684710884,1.05304074482595,1.057182092634,1.07685754433502,1.04888931588509,1.04424527343556,1.04424833985403,1.036664993608,1.02598790215785,0.99676537182662,0.996654704301974,1.02245175501978,1.01131120679306,1.01796046349849,1.01528252663349,1.02437709699072,1.02240151737595,1.04434216710583,1.01799184188829,1.01709551157899,1.01819474375619,1.01019996357641,1.01230178831408,1.01004018951777,1.00897443586259,1.008116117818,1.00799993497161
0.965995686032214,0.970575958577227,0.961503337357849,0.963747657149467,0.963075200758876,0.968630089962975,0.958393504378894,1.0364490752444,1.0692007723309,1.08680314952622,1.09835542036385,1.14790313217355,1.17389038561176,1.16376675297479,1.16282661183949,1.179983090361,1.20087813573436,1.19699756429745,1.19389439172114,1.19659971720641,1.2462536074591,1.2357101263217,1.23213280991983,1.23254846397132,1.2757357923471,1.25382465314484,1.27649285090352,1.25666000702772,1.23680412713634,1.26368743593967,1.28053611428187,1.26553921147204,1.25532796980793,1.25921355371596,1.248357727663,1.26010191517838,1.26226379635406,1.26276562251246,1.26101053433973,1.27078714294813,1.27204682201233,1.27251412914796,1.27308225204491,1.29618526421452,1.32661623916063,1.32742255864313,1.32674501884357,1.38556897393035,1.43317384104299,1.3785898696225,1.37838627051609,1.37725559760166,1.37809796552711,1.42237261047536,1.47256413408524,1.44406472185743,1.42646281518875,1.42708384152183,1.42688115351155,1.44111903783506,1.47413428842107,1.46932999946348,1.54927526490005,1.52725997199139,1.55935211035812,1.55314475333009,1.54545838073851,1.5451451162539,1.54523990721052,1.55993942725271,1.56448243064716,1.58092847510519,1.56548293057687,1.58454161050613,1.59253469240411,1.5704891605539,1.54973777307878,1.56881372088418,1.61107169023704,1.62439955836838,1.68639313606241,1.68146779323709,1.6833775394305,1.68223130597048,1.6875550959352,1.67749402073369,1.64122917765186,1.63514703217645,1.63956913931786,1.60199108302329,1.66585531403628,1.27230776092043,0.00367363675481306,1.27389965691668,1.55084296495088,1.55902936716117,1.61707387219449,1.55279542532141,1.54250379883481,1.59072223736279,1.61825377491552,1.5482463460639,1.54962155999682,1.54251459938238,1.56937154257445,1.55762720923492,1.70591063771281,1.51147599826,1.48411055635584,1.48674682354122,1.48687686821144,1.46966255894435,1.45936957545611,1.44887477933388,1.43986299156192,1.38824794189848,1.37460739779338,1.34149883001794,1.34067249588817,1.33233006053308,1.32597803418342,1.33752516973174,1.40859665162497,1.32910263600002,1.31418542679051,1.31408618388701,1.31210862398638,1.27716892811095,1.26138974902304,1.2429990930362,1.19450970671909,1.19588589288509,1.19772416959169,1.18770644563178,1.16384823602179,1.16256283158301,1.15064227836967,1.15594306147424,1.16349686655797,1.14912394744377,1.12096283220696,1.1239003191289,1.12587847294931,1.08657139733476,1.07605872901061,1.06227299573174,1.05251674786917,1.05430695328638,1.07093277614991,1.04690257893899,1.04508542722667,1.04491616399979,1.0452748702716,1.02000535516886,0.997332899018554,0.997164402521995,0.998005924458576,1.00030552367643,1.00776831246387,0.999139067043209,0.990045768803055,1.02155189031144,1.02108627600271,1.01952754027796,1.01899440979742,1.0187077789697,1.07662295283051,1.01653376926608,1.00776569550125,1.00931259786505,1.00769013147701,1.00915627489986
0.98996224874524,0.99053443945915,0.991989348844257,0.991621333769153,0.9910815273918,0.990265600200895,0.996932387008542,1.03435124498829,1.04863139672165,1.09058025070449,1.11902134334359,1.15144211128693,1.15838722983537,1.15866925958361,1.16073055655008,1.18292679222531,1.19260230151103,1.1962888738804,1.19699819509653,1.19816528078777,1.24324587827585,1.23938978758931,1.23153870820596,1.23220741687603,1.23160260487763,1.23041362491027,1.23002795087899,1.2310130636061,1.2334207989799,1.25414660644872,1.26466689798577,1.26404486603239,1.26182160241969,1.2605963002612,1.26047761285872,1.2608961585181,1.26312571080389,1.26389307321154,1.26569183817618,1.26953748593298,1.27101266591315,1.27214433226977,1.27252453787927,1.29117409913498,1.31314759368243,1.32773494880899,1.32720373637877,1.37967723603055,1.40951931571612,1.3783774037267,1.37786225538404,1.37739681395057,1.37755086809011,1.42084904433475,1.42211147260963,1.42898046862122,1.42802942716273,1.4280625178297,1.42754200426383,1.44948992739019,1.46434435501448,1.46668609801008,1.50021746513827,1.51581387967162,1.55277533232322,1.55218085359777,1.57103815635773,1.57829217312998,1.58344453614187,1.58124722013436,1.5799098858016,1.57992415046068,1.5807050484141,1.58539097498995,1.58977296363449,1.56969046456629,1.56851192442701,1.567416419527,1.60779935326113,1.62928092947301,1.65631112528098,1.66811943007132,1.67824069145112,1.31959714383044,1.31957532746799,1.31959714382884,1.60587891791268,1.60467764715957,1.60385491250267,1.60245070567062,1.60191486145443,1.27194120205924,1.27233727235772,1.27320593010359,1.54987389069327,1.55917889583178,1.60209285707622,1.55487523154957,1.55593803391849,1.58192384537539,1.60469968331103,1.54641760789309,1.5499504747999,1.31984907346426,1.31982725710262,1.31984907346426,1.54319221405901,1.51188281077355,1.50647873813696,1.50022849829252,1.49479080468622,1.46427281407371,1.45165884450567,1.43155158070243,1.41273549286742,1.37621061215603,1.35416110924721,1.34235127776471,1.33434413752196,1.330398822268,1.32523161376383,1.32446561894024,1.32238272142762,1.31999395012077,1.31690221143286,1.31595297898354,1.31476376341589,1.27870358520294,1.26985018428521,1.24107469938316,1.20752676726598,1.19471809252111,1.18867469738997,1.18765387134801,1.16256545672243,1.1619161871059,1.16073061221284,1.15884862439618,1.15958689943399,1.14017228968551,1.11274221799118,1.10851679448938,1.10559186401669,1.08442636694755,1.06520650440815,1.0608061029625,1.04817468778601,1.04569089265676,1.04451761395736,1.0445367106047,1.04426802750433,1.04501531108236,1.04620014998859,1.01352117048312,0.996825913375422,0.996798890121407,0.996018735176979,0.993600857769798,0.992598564572865,0.991351739478942,0.990958809269593,1.02067331705438,1.01997070337163,1.01957558480873,1.01965593369139,1.01930904617836,1.01927562972005,1.01824927950459,1.0163522390626,1.01282097193086,1.01077003477101,1.01091670072793
