0.76946888155958,0.773082176582357,0.77408334752697,0.774497500570272,0.78382437765823,0.782850777724032,0.781685332319028,0.779449049272876,0.779997055644212,0.779397498940223,0.776958193981951,0.773199163416003,0.776211583030425,0.776924306615279,0.778378036908098,0.86300507026181,0.817223368626638,0.780981755847827,0.779986569116565,0.780475932331495,0.780565887094267,0.781781656049449,0.782390983724531,0.783508557519504,0.785496607606465,0.787494332034696,0.823363594677445,1.06044897717138,0.788478896376091,0.779148029720964,0.779252844956243,0.778798384397049,0.77967956638834,0.778899338179368,0.780674192989601,0.780876905501135,0.781469007282277,0.780837843419791,0.781820905610962,0.781768760731683,0.782240909812373,0.782698364807572,0.781938993680134,0.781370040106629,0.781481193982855,0.78116495211408,0.783413780758906,0.785957448378349,0.786016211045904,0.786638883632627,0.785892400460461,0.784565322331411,0.785087201513414,0.78477393057246,0.785055374809913,0.784105841888653,0.785940706117644,1.04379069547398,0.795583182885508,0.795453011289604,0.797058164841054,1.03487870845416,0.79101657210979,0.786853106532333,0.794458104279803,0.795142366103568,0.795764555157843,0.796161390978884,0.796259167701312,0.796946097817955,0.796837842695158,0.797191950646528,0.796621045770596,0.795960419131372,0.79823222078907,1.02110174600069,0.87341909024474,0.833363840915645,0.82790244915604,0.838880019908388,0.841044646826093,0.988042764308867,0.922825000536734,1.08018624547018,0.882387786529777,0.801595731567029,0.801759591940799,0.80134206687716,0.800249488002073,0.798908274290923,0.800247191080885,0.800386626069609,0.802561832632648,0.803686564105709,0.803531145898385,0.802645673851563,0.803231134444798,0.802576635679866,0.802979704973567,0.802361512111545,0.802790824071382,0.802184877133398,0.802104974595809,0.800249772862938,0.800162074007905,0.799388946014536,0.798314042047503,0.798232148675107,0.797740336726834,0.797269276884348,0.809551711268669,0.823260850567502,0.799901596136877,0.794441126896072,0.795766547122589,0.794685497297463,0.794947383065615,0.79507799606424,0.793555570173306,0.793252331750842,0.790612411030884,0.784218015529007,0.784458482226941,0.784946514563429,0.7893016556497,0.790575743109212,0.793314535226334,0.794833626301961,0.79578459669043,0.79634778365546,0.795245763510279,0.794729858323508,0.792335611566139,0.792612508691779,0.79940572175191,0.802298011999529,0.802111014818621,0.802654533152425,0.80362998816539,0.803140048958571,0.807316732746009,0.946376170089028,0.873900539496443,0.827896451021495,0.891154274309392,0.912206166114973,0.942805042773113,1.01897479219906,0.847146524083827,0.803097980430779,0.80234217113776,0.802182735352975,0.802643875391397,0.802957938170815,0.804525679529434,0.80544473612092,0.805785358371429,0.806094808426802,0.80436026284316,0.802272367790789,0.802426761545346,0.802368219332984,0.802580187770637,0.803964172401263,0.803645637008632,0.804550419525161,0.802353264262933,0.800111943522977,0.800461933505957,0.801148344537469,0.799332394867168
0.770299627504069,0.769803710078391,0.775135079207821,0.784479684342702,0.783897809768636,0.783115859260228,0.782085276939881,0.779380894022519,0.78046360277242,0.780149116327785,0.779540681304994,0.779819958508438,0.779179588849077,0.780148834166865,0.779563530319786,0.860846472366334,0.835677017284073,0.940946095508998,0.861023651533101,0.915251695442801,0.791127730192069,0.789332196324191,0.790164581764038,0.789068463490254,0.788019372985189,0.788289723776216,0.799603431085698,0.799837827246087,0.791814227051676,0.777901818159643,0.778820619638104,0.779603190685962,0.780025551505527,0.781240490765982,0.781221053569625,0.782925305384218,0.782708010611977,0.784413986019476,0.783982784892216,0.784638803328728,0.784453574239806,0.785121709303542,0.783095360153174,0.782835104672232,0.782384502872758,0.783379030720116,0.78508060319914,0.787413585092768,0.787647773699424,0.789022721440427,0.786810383544035,0.785901665645938,0.785813615152742,0.786159661704391,0.786355449878723,0.787461689732777,0.787983428878618,0.790678344213717,0.793793894865209,0.79570824912441,0.796808319071414,1.01826178089023,0.79120840799439,0.789812317141034,0.792680215093266,0.792613826987322,0.794737975400854,0.795121339100211,0.796050245646503,0.796766745368994,0.797135932746748,0.796801468112931,0.796972501978649,0.795784090623122,0.800638698328226,1.02656168317723,0.904396428837177,1.06022307380331,0.819934673007559,0.808064863535005,0.808407786162926,0.80913340267222,0.80817946765942,0.807658266264625,0.852887936856162,0.958340654803214,0.802581959817685,0.802238715927795,0.801401922228606,0.800082941911868,0.800970858978647,0.802850999148059,0.803339052948052,0.805438599973474,0.804929402713794,0.805352241081796,0.804791023619867,0.805135222926547,0.803628200728851,0.802399715690332,0.803257397803934,0.804271284499863,0.803283041859021,0.803220837635274,0.800846836473826,0.797783027072285,0.79808314029176,0.797156741341107,0.797791213047603,0.797187833753108,0.798147913844397,0.798043358578767,0.798040613718416,0.79699263522514,0.7960903133354,0.795803961495826,0.795222342421409,0.794505866188722,0.794304197880206,0.793838767662374,0.795665142421647,0.895648286767761,0.795925123761466,0.79526326736457,0.792514404925475,0.790370512074605,0.794050131930756,0.795923355687766,0.796981709284145,0.798097656545853,0.797548411038974,0.796851830093294,0.799082450043619,0.912642416266362,0.84361017649678,0.80184841130725,0.802050261749752,0.802817186267189,0.803327855928434,0.802708506796155,0.803069622749803,0.801896912133147,0.847795500037577,0.896065272287036,0.893784013839668,1.20183101841829,0.973612107727587,1.15730295453404,0.869461116170902,0.803262369312412,0.802423341676602,0.801476694028797,0.802385672105696,0.802759550755678,0.803942569338129,0.80560803810134,0.805148877460621,0.805965943674551,0.804876226541176,0.804784888141744,0.803577943989198,0.801971787191637,0.803098395460202,0.802711206885575,0.803446489826819,0.802888703525744,0.8022127187084,0.800704620733837,0.801327174924972,0.800879032583449,0.800794649399773
0.771420242171598,0.776249877676591,0.775620816880438,0.783504395231966,0.783330881823565,0.784532554640279,0.783997428571783,0.784726367816121,0.782713551100456,0.781018686544977,0.781234557290127,0.781260727337642,0.78135728862271,0.781823497773596,0.781032183540161,0.794987968769363,0.821541407232654,1.12195326082661,0.836213931608743,0.791197077989379,0.792391178551302,0.792956444757076,0.791707510768759,0.790100672840678,0.788603350365636,0.789284119939146,0.799270395623766,0.79892978713567,0.794145913375601,0.782557448346936,0.780196527500681,0.779120415114838,0.781152066708877,0.781860429390105,0.783278820145119,0.781575191295684,0.784691456247649,0.785234061496955,0.786644504251572,0.787170015824254,0.786657263175772,0.785602107330864,0.784149843311585,0.782179537300164,0.783457039858056,0.783763944450519,0.786277366244999,0.78751439938957,0.788543803690343,0.788806050959729,0.78811113004457,0.786025897283594,0.78734298434878,0.787692196306678,0.788100411674855,0.788166230014643,0.789743884152555,0.789866279971911,0.793967106867121,0.79535785207227,0.796803639383466,1.02390656456906,0.793630774816342,0.791882192128951,0.793067333695857,0.792294036349282,0.794955530813659,0.795273235479448,0.795885415525276,0.795826449819209,0.797741816328376,0.797544541766925,0.798642019944638,0.921426371102104,0.805070895657735,0.820970382374561,0.820905883652801,0.821261665891427,0.816906944604877,0.808258340102408,0.808973221328912,0.808778627651332,0.809191979716991,0.808313392518116,0.807776279637241,0.803439792582338,0.803983410994833,0.804608219762216,0.804378642741893,0.804932094308489,0.804111595100823,0.802685822678178,0.805064737755701,0.806080528994026,0.806959939261431,0.806905313253949,0.807132021426926,0.805708870259216,0.805123872383329,0.802182765465147,0.804271462099708,0.804895823031433,0.804717279681435,0.804335183621664,0.802211104506554,0.799337566422698,0.797943118738448,0.797669313873548,0.797698695480738,0.798002673785074,0.798416656273829,0.798585506848378,0.798258631105835,0.7966890832582,0.796972497364981,0.796599566119768,0.795902580211346,0.794811183566425,0.794510720192827,0.794180122054912,0.79602737367294,0.797412094925654,0.796551704595242,0.795243326309023,0.794669495730135,0.79542776472936,0.795558711949137,0.796007432017021,0.797901818710068,0.799501059912088,0.800305330870336,0.801799943878338,0.801138019857238,0.924529277917866,0.869670248872221,0.905382998564954,0.843253792148822,0.803497562262614,0.804196226669144,0.804735675504263,0.804471045382909,0.802744045029092,0.806265026761912,0.805460213247872,0.824493798097436,0.824131085301803,0.868196786158962,0.807917455274737,0.891742354375222,1.0156936083963,0.840164100480255,0.801766820029039,0.802217722686368,0.803197679338093,0.803152914803227,0.803317162684209,0.804452718643089,0.804975181180651,0.805069198587415,0.805466794987599,0.804400537606122,0.804627484516868,0.803589436612615,0.803697242316392,0.802819446261757,0.802639013652764,0.802123934806571,0.802158493656044,0.802060642266982,0.802930167336228,0.801638105672022
0.773129703163049,0.776061530441589,0.777001221344572,0.777852338887694,0.782204066555054,0.784091420085497,0.784353094495183,0.78504959071932,0.783694954207408,0.783516934302805,0.782583656887226,0.782673827582257,0.782167172253576,0.782887286497438,0.782053617693598,0.794347185060741,0.794554713309214,0.794708611697276,0.794299501489953,0.793522319899199,0.79403156933978,0.796507294678735,0.794187802900337,0.788397519987978,0.789316703320773,0.788759395018443,0.798260421500645,0.798941066277228,0.796857157187181,0.799449614010815,0.789559296255175,0.78543511311383,0.785507106130611,0.786346994605577,0.785772611425559,0.787786040677857,0.787163596790409,0.788744824753412,0.788371983921492,0.789108164503868,0.788138271796166,0.786633018260765,0.784295076900822,0.783547843643242,0.784008150257172,0.786045694693859,0.787723122805581,0.788121204836497,0.789128692703841,0.790121565768037,0.789086359906995,0.789481218687772,0.788691084863234,0.788640224126794,0.789058669271197,0.789544675468484,0.790911252135428,0.793796691883162,0.794437463261471,0.796188793441284,0.796733757867198,1.01426374461283,0.797805182434676,0.793928705921429,0.795112148242553,0.797907702619498,0.797363258597154,0.796479032120552,0.796105186256134,0.793919860474073,0.800188731984642,0.883792553238771,0.801388107609411,0.802170431256109,0.803008103019484,0.803275243343188,0.811266573113488,0.81986139067717,0.813356195545113,0.808647491386351,0.808417642371416,0.810198977028199,0.808561091649566,0.809893940422525,0.806880921142241,0.805394836441069,0.804947867772716,0.805711552774104,0.805061377407837,0.806034144357525,0.804795081819546,0.804857018056925,0.805493523346632,0.807150156727389,0.807786863031882,0.809179340555653,0.808850219569175,0.808678908891149,0.808032670040043,0.808086569532207,0.806496280856813,0.805541533724228,0.805377011459173,0.805128623383101,0.804085722521604,0.797775788157259,0.798052127092554,0.797681033538475,0.798152964548502,0.797560844055927,0.799052923657596,0.799378308982241,0.798932112612002,0.797845836157866,0.797044178671715,0.797256978571868,0.796649058620129,0.795251367479641,0.795455971951615,0.795756503264045,0.7970571664435,0.798974712045405,0.797342513786289,0.796659791072405,0.796135264155061,0.797541862887189,0.79745123294246,0.796766612381431,0.799320355245443,0.801479839151145,0.80147084099047,0.802458624475181,0.801832493913149,0.802779026167263,0.85188207690123,0.898564248971266,0.863903671478566,0.971953424427354,0.806095900488349,0.804224837833187,0.807237589495694,0.809367983874767,0.80786104731409,0.806572108433416,0.824122524591231,0.93949029924835,0.88954357574706,0.965042478120905,0.914041264199368,1.01280985449943,0.861665223445093,0.802486638615355,0.802828688363113,0.802644429032917,0.803045331723323,0.802902449253217,0.80335843393929,0.804558940611174,0.804233477067825,0.804356741087245,0.804893392829791,0.804770870338131,0.804469000534076,0.803178261445086,0.803552146175704,0.801883752225719,0.803170760483442,0.802197167764357,0.803618996991267,0.803248332822008,0.803267429542577
0.774012345071295,0.775856767919939,0.777619013308664,0.778382230411152,0.781372127401116,0.783655145425389,0.783948475985129,0.783777097523201,0.783990117152595,0.783765883982263,0.783502837968545,0.783105436402912,0.78287413932326,0.782556221487229,0.783100635577722,0.794822447457803,0.794414363880612,0.79419422894904,0.7948294949568,0.795955911390859,0.830550394376257,0.885647189314266,0.82675312857577,0.790245289780722,0.790473707115169,0.792533572650691,0.79504251915151,0.795593779420733,0.796207133925792,0.796710515733213,0.794355880808149,0.792240783122955,0.790505051186749,0.786447824347545,0.788383163566435,0.787531488059663,0.7895324213509,0.788809443394646,0.790834012833891,0.791133210629354,0.791324055966015,0.792165585870541,0.792837606989979,0.852500789285077,0.79186120911966,0.791225151344826,0.790273610942892,0.790990095256738,0.790347562854272,0.790339939858632,0.789651353861967,0.78925797464218,0.79009834936498,0.790803184073027,0.790641700610537,0.790074951739525,0.792023721512211,0.793205665700491,0.795518251451958,0.797064728759924,0.79773458846864,0.809327559127661,0.8017228956036,0.802723909469493,0.802236344366347,0.802338938187934,0.799929486249267,0.798976294326631,0.799250464525493,0.800391053069537,0.801785018650336,0.803696757375839,0.803068093052687,0.804012551640859,0.80332459958646,0.8025934190837,0.805924082771236,0.808992545758829,0.807919576223559,0.8072961481041,0.808709822836509,0.808118902615805,0.809035386239315,0.807937768169034,0.807378635142361,0.805415116451652,0.805704216654985,0.805094049936105,0.805901991533009,0.805459802355446,0.806669356567135,0.8057948055492,0.80726657837067,0.806138326449757,0.809751646550882,0.81218450575538,0.81246856418466,0.813275061369589,0.811242924197279,0.808594205191689,0.808058608617602,0.80542184832036,0.807027059126715,1.04664237690321,0.849782153337241,0.798089116295111,0.798046910289018,0.798373504079142,0.798755172903813,0.799675621849148,0.800216710907891,0.80069888713231,0.800714547798574,0.851990470535261,0.800841874490454,0.797732093250836,0.797247995392935,0.795512579436211,0.796287535491824,0.796620598615046,0.797281759829069,0.881378402099353,0.880737275515942,0.893712955858619,0.802861118970688,0.798831301012491,0.799247941044773,0.800098127938663,0.800416693740888,0.801612154994586,0.802561892170505,0.803886007538087,0.810328471155313,0.826253800467277,0.826701143517808,0.826761960710039,0.827472382643345,0.810485471251545,0.808680670305911,0.810219084591212,0.809703358770777,0.810654430418479,0.810231618815236,0.811796917379257,0.823241427706044,0.83651268482609,0.82787494295084,0.821444900201856,0.88303561652219,1.05674250257719,0.883155788456141,0.803861065854346,0.803229393041459,0.803775868360132,0.802839937560202,0.802419481275867,0.802777146569278,0.802114767874732,0.803626161746376,0.804977067139551,0.804504741753335,0.805161451226879,0.804500101895565,0.804949641385346,0.804000248170064,0.8044882516636,0.80390911604461,0.805483143332263,0.804352512376568,0.805495589108223,0.804336434627389
0.776750678903787,0.777367076511931,0.777874282251894,0.778823484063924,0.781357159991689,0.783576164522511,0.783494857059583,0.783974936003047,0.783392888678793,0.784159162366683,0.783246497869791,0.783525384275516,0.782673100163243,0.782833449593914,0.784719549114494,0.793676806288033,0.793829414144813,0.794307101860941,0.794930063386759,0.797420028805479,0.846653248910526,0.883962675478425,0.846637729991433,0.790586544715013,0.791703691353883,0.793007998026268,0.794987760932269,0.79560659825205,0.79570470580284,0.795532088852269,0.794402559218038,0.794056751822038,0.792059727297319,0.792784012616734,0.790956179425158,0.791519489819775,0.791182945311433,0.793474911079271,0.792501635295114,0.793274980585961,0.792702163889823,0.792951441183915,0.792849035910482,0.792617503764153,0.792277656078754,0.791931384299989,0.791845335216025,0.792138967314531,0.790805038852386,0.789428319569947,0.789192765046544,0.789130329609128,0.790523923727218,0.793168472192871,0.791882403295723,0.791642705392701,0.793043878333294,0.794015477729473,0.796204434334372,0.79799689566238,0.799139080455847,0.800854379229021,0.802239418522585,0.802491392473849,0.802065161393641,0.801623021925319,0.800907349751667,0.800937219489627,0.800833345195083,0.802007441950236,0.802535717882602,0.804053225864386,0.803780261705653,0.804222134815476,0.803801564093629,0.803308813567031,0.803889350243188,0.804438230109211,0.806337669776442,0.807522882196358,0.808070730651044,0.809559166607218,0.80807622996237,0.808000167593073,0.807088866327806,0.807507779987015,0.80589837110486,0.805738754582638,0.805736338023753,0.80717363880182,0.807790797483595,0.811043744798463,0.809032108089327,0.809762342775901,0.811053900058851,0.814069430726686,0.813454490549204,0.814743290496938,0.812926318244662,0.812891945784934,0.811105351647155,0.810551271605667,0.810174971423289,1.04603439006074,0.883965530005598,1.03786700715567,0.804309460514244,0.798845593115214,0.799417360391077,0.800445654931271,0.801564623254338,0.801927401458713,0.802079919962884,0.802888189620085,0.805192078374285,0.813397088928131,0.80136008372197,0.796808925551518,0.796993706733875,0.7969597157333,0.798876077003401,0.879509258315567,0.879625110940018,0.878306770732755,0.804908820613597,0.801630987450251,0.800645461953638,0.800233930712392,0.800851194807642,0.801878784632679,0.802254063617022,0.803266376219308,0.817985842437508,0.826802113263742,0.827814262826332,0.827802538828544,0.828552939673311,0.810928355317173,0.810454308471134,0.811230037725515,0.812675019909691,0.81313971627453,0.814527862811152,0.944108742614731,0.822115693828047,0.820873985947633,0.820770209857653,0.821107276089641,0.821121898059363,0.820792877808365,0.905541151679842,1.00639117371168,0.963229258356244,1.01381249534912,0.941088158061066,0.941652627054739,0.856785891710982,0.802357880387183,0.803400621656638,0.803904974532837,0.805394827691698,0.804597566662296,0.80567296731247,0.805163884594125,0.805265353096651,0.803854792888612,0.805351140736302,0.804978264284113,0.80584232026157,0.804805297391113,0.805681562187777
0.777548003386869,1.02586902827367,0.781510078547712,0.780496289660976,0.782289815975225,0.783689122625207,0.783610963406842,0.782589547432185,0.783037610444122,0.782050153761567,0.783112380066251,0.782493006260185,0.783198339931567,0.782609004038467,0.786273773036878,0.792586160358009,0.792934304214113,0.793070337319454,0.793700341238898,0.890351710722501,0.862737179070032,1.09724612579275,0.882727550820101,0.882281146420673,0.824129629684439,0.794743030439407,0.795105329306001,0.796260155044503,0.796101958522244,0.795125629881165,0.795309308792212,0.793443438197963,0.794168210405196,0.792791414161535,0.794002211376399,0.792784061445029,0.792581712855074,0.793722137311571,0.793547057119374,0.793815120481297,0.794021743728517,0.793493666072109,0.79333889767978,0.792140196461169,0.79288357278025,0.792826723398616,0.792727938430732,0.792420396294311,0.791054156216825,0.788156279904664,0.788842374133159,0.788295465607262,0.791031318582686,0.792648032236629,0.79301490120214,0.793100071878973,0.794509925240497,0.795154074625577,0.797501651464635,0.799367992552862,0.800223494240798,0.802072984584382,0.8024280875019,0.803180274750849,0.802462342681838,0.802076885693376,0.801489431728746,0.801383171422656,0.80125751081163,0.801858642678177,0.802079157012789,0.814968237861743,0.809402831268979,0.805965393142413,0.804036588818744,0.802594064760544,0.803689004802464,0.803355914448731,0.806560995410046,0.807450865750401,0.808845241430003,0.808353416190116,0.808602257123955,0.806739300581707,0.807902408025161,0.807204516725043,0.806815719018814,0.804249120886599,0.806715461992557,0.807063817523052,0.809248225094261,0.809437393016459,0.810810814871514,0.810180681846467,0.812763445318992,0.814125362371706,0.815215766052517,0.816237206991871,0.815032278978113,0.813066781123906,0.813331191864017,0.813734889562384,0.812768559854903,0.813149100753692,0.812390536842889,0.812375206270489,0.820780657811042,0.831008692227485,0.817257745472361,0.805406014919591,0.803237824129655,0.80210573497963,0.8023710162822,0.802600671917529,0.808877472327224,0.812064936850717,0.80594000454018,0.798477258656988,0.798675131862474,0.798896508978238,0.800922554606479,0.80382349201046,0.808216281387876,0.809486323848238,0.809512485555756,0.886905014143741,0.803764894107523,0.800793203147171,0.801008191596885,0.801238010302846,0.802497480470457,0.802869755971116,0.824946576561928,0.844271277348765,0.829717230168273,0.830361388281196,0.829852672093395,0.830292042031573,0.817468645365626,0.813601394805713,0.814628509717543,0.816970243378701,0.816341148776711,0.816899086505862,0.821919871280665,1.13744855851801,0.821578321612265,0.821824653104883,0.82195934667311,1.12735820807749,0.928311124062196,0.959298268903884,0.949750558512757,0.940228733046477,0.940620443822639,1.01546073975958,0.922279273093737,0.90907385691348,0.843337081485334,0.804711371975974,0.805680848767979,0.806612148871552,0.805404651845967,0.80644674667394,0.805641304508833,0.806594538208999,0.805711010988083,0.806843824122113,0.805914743686664,0.806965060486278,0.805757372567739
0.779551424418478,0.785239531501897,0.78337189001583,0.781496704201253,0.782694139003955,0.782286527287302,0.783282584509651,0.782975738561837,0.782174324285809,0.782110490760164,0.782994493838967,0.783308405734714,0.783909860136097,0.784949555723105,0.787146497699699,0.789702569215218,0.791309055908193,0.791908695709949,0.79264863482493,0.804513003164896,0.853134997980183,0.883753917466135,0.883447630328988,0.884054520176161,0.838006649888227,0.867142314995515,0.797929797638935,0.796759261248948,0.796920761643179,0.79718871971224,0.796155775687987,0.79665864355365,0.795118435546449,0.795567162037553,0.796665506535016,0.800478064511404,0.8010988878378,0.800262260608207,0.798827125323608,0.798530471229061,0.795694357278215,0.794187280410333,0.793897860271288,0.794350133178833,0.79361945687628,0.793622610474114,0.79399872036906,0.830770508673856,0.79307483173591,0.787090519871484,0.789185168891479,0.788341765520403,0.791748589947875,0.793630254658502,0.793406188681387,0.794478307541452,0.797072808159749,0.800331600887763,0.799447482477852,0.800422750197102,0.800304674983057,0.801297745824859,0.802443167263599,0.803576004349259,0.802740871530656,0.801282248080638,0.801309883543869,0.800834213576814,0.801077625348905,0.800826453705132,0.802845731524427,0.894883797713612,0.849209180083947,0.867053647640507,0.807818946432455,0.802819563293989,0.803968949036028,0.804597684207971,0.80670087780454,0.809405811189592,0.808929770198149,0.810385791418239,0.808505305530148,0.808615632755879,0.807796647568111,0.808972663229229,0.807092354627753,0.807230334297274,0.806710369447136,0.807749723626583,0.809627661342001,0.813406843244035,0.811836807905553,0.812644876294324,0.813472513016236,0.816279396647733,0.815843741011199,0.817112465417068,0.816232883498917,0.815232841532924,0.81444725675925,0.814886619578939,0.814264954679989,0.814112323739297,0.812511425361483,0.811956599552488,0.823086391163885,0.834722142811517,0.832219054509454,0.829977690488701,0.824584682656284,0.81700169514383,0.815940603954946,0.816429603837798,0.815561640901036,0.814940063997047,0.81041948442215,0.799700866513493,0.799211187561055,0.800743716984657,0.802304501350844,0.802505299826378,0.808760975600076,0.809371751155288,0.810655354226102,0.811820080826111,0.81365773344256,0.884162045687538,0.837542360937321,0.802867776858895,0.80278031290319,0.80348344088286,0.830920575550925,0.836277923801209,0.830766456789804,0.830281617037846,0.830462091327448,0.831292005130881,0.821979817515266,0.817269514136202,0.816447666520526,0.818254480610291,0.819249957813297,0.819203264179275,0.82132611338553,0.821202130645003,0.821869239700643,0.822121978006039,0.823081211492606,0.825041537463545,0.825041340911668,0.814131348733811,0.875542896549594,0.994309529593619,0.931773547140058,0.831382962137221,0.929821710720253,0.940533332836821,0.858596679900669,0.884804301150698,0.808550271957334,0.804646882623803,0.806114054335105,0.805683342356631,0.806665496046799,0.805670380636932,0.806837822040107,0.8062767404108,0.807310401864592,0.806329485575604,0.807187321506691
0.781926227294285,0.78523825512992,0.785443927997334,0.785643469589103,0.784652632869939,0.784095526516196,0.784936259117648,1.00221179278744,0.786335914562359,0.782909363222199,0.783107281520352,0.783333168464243,0.785337177673085,0.785317419189087,0.787956967540481,0.789336329006348,0.790972985223807,0.79162092922645,0.79218822297372,0.972723169237078,0.835618100376463,0.809892523496722,0.819187169417136,0.818697101906084,0.818395273993337,0.8090096470024,0.800734908503874,0.799190128548625,0.798612784579691,0.797152221425796,0.798003427407178,0.79728089336033,0.797388031268917,0.795848103214606,0.798830879226919,0.802069262808028,0.801965261419778,0.802323891559355,0.802781379593589,0.826616944924606,0.80607725706596,0.794354289154714,0.794403468144878,0.793906517570927,0.794801796467339,0.794845612074046,0.795534499524558,0.795667556308329,0.794491395512082,0.792747265829719,0.791678015278163,0.790971910521194,0.792096570741692,0.936846859614414,0.80214717952825,0.799662522148705,0.799140021315735,0.799953351051704,0.799921358920799,0.800178548683928,0.800116849505159,0.798622109867088,0.803387920900699,0.804853599688756,0.803681523747791,0.801937982076401,0.801707085405981,0.800628515272011,0.801578279454055,0.801070303411568,0.804565570649699,0.910176163562154,0.838097933914063,0.8335687101066,0.81227911602482,0.803251851900195,0.804849248023089,0.80657940339608,0.808188857541506,0.808910514659226,0.80971642429952,0.808682236933395,0.809306808635664,0.807722163771637,0.808867983005243,0.807783272252559,0.808498142429078,0.806248016162096,0.807754328318451,0.805952636772084,0.812297076390791,0.812714377146909,0.813746487110247,0.812552397713087,0.813918389676046,0.831739954653767,0.830374641208001,0.831387845250268,0.819214770150113,0.815138811063928,0.815245774826849,0.815034614193955,0.815777648194161,0.933939925084339,0.893591174436585,1.02576862677675,0.846660430039386,0.84617057332707,0.836895214484051,0.834506010064026,0.83352344784092,1.08244527178838,0.829375443516333,0.835984957031699,0.81495794933589,0.81440579200848,0.814438193169863,0.991966789480177,0.804294527434235,0.803081629516288,0.803813348070045,0.804689409988973,0.808365246250391,0.811307718246636,0.811208956227825,0.812294340563633,0.813723167135949,0.883498293658429,0.860957427984248,0.880571743563485,0.866806755394415,0.927642897102162,0.834512572507659,0.834179027686007,0.831541233596626,0.82783559614896,0.831083309595788,0.831200852502573,0.830627364467199,0.827653058817021,0.825291362213126,0.820578319287386,0.820856236699302,0.821769583873569,0.821939559641168,0.821749014896869,0.822996024484592,0.823241410555278,0.82437710458088,0.824968960769415,0.825243058063004,0.816477413675401,0.81736532863987,0.817414694782835,0.911206443871648,1.00837406743527,0.933968060236817,0.942307709386752,0.845195925144608,0.814425370056403,0.811258634155191,0.805462828875072,0.805421868587854,0.806762838959005,0.807070391945082,0.807315207833247,0.807015704895053,0.807798561359027,0.807497075713289,0.809077678184557,0.808010067954771
0.791625371989162,0.79121603476379,0.788620459254486,0.78692631599918,0.786907215289154,0.786274052288117,0.787935365883516,0.995250887930222,0.790880187503124,0.788703847700111,0.788344361957881,0.788087026552259,0.787304863132884,0.786641659095194,0.788896429967691,0.788939880930745,0.791337769920799,0.792180139998383,0.792021148564599,0.791350769976781,0.807243571131918,0.818341472291024,0.818869215379014,0.818085558513458,0.819475610243424,0.811193535200807,0.804162596470806,0.800778589597933,0.799832417135216,0.800340845473702,0.798646427190055,0.799286493323257,0.798239077322522,0.799758432370172,0.799858708134508,0.802634778932895,0.80182294374337,0.802713967785434,0.802293112992071,0.971627119562362,0.819716784552283,0.816970185032787,0.802067742910487,0.794909410486653,0.79561781705801,0.795902079557149,0.797259360828428,0.798916275262976,0.797106305031233,0.795638795085285,0.793826852035238,0.792163119710584,0.793379060899941,0.930035307566702,0.804682035336067,0.80020835566677,0.799883315721121,0.799987532776155,0.799982187145005,0.8007825149714,0.799306657377051,0.797688437172191,0.804463487439372,0.806179448344353,0.804855222638365,0.802622850474231,0.802758745180072,0.801371256892537,0.803169024043065,0.804129647239371,0.806388851790798,0.828552308599633,0.828230036998474,0.827338001109866,0.822323524464505,1.00521978707369,0.808624453040568,0.808591262455739,0.809016878195399,0.810125491298555,0.80941749668638,0.810143696865965,0.808985393572923,0.809597776569498,0.808637363427301,0.809764062791433,0.81014164734824,0.813242197124738,0.812076508998593,0.812912916743372,0.812927843441028,0.815486614421361,0.814677907959355,0.81534466656733,0.815035657085005,0.824456738815696,0.826895700808485,0.830710252960375,0.822758189484202,0.816815568423078,0.815676691661649,0.817087969745752,0.817891417745302,0.925487468598881,0.875148009281976,0.854571469256211,0.846031784945639,0.844280661848013,0.839042515453533,0.841201020831656,0.832266840922926,0.830362532991276,0.823538132974064,0.809451058645838,0.813221862226233,0.814546139468266,0.813338767254003,0.812669489771026,0.805144344669153,0.804777934521712,0.805917847715734,0.806266951511527,0.80905112400092,0.810210563055173,0.811828225392951,0.81257554132776,0.813851623404719,0.81444718056879,0.846285219679858,0.87833814299543,0.854770753150958,0.83802469003682,0.834612180855755,0.834676615503954,0.830907524405335,0.832711146490298,0.832885485968456,0.832761232009199,0.830858670458271,0.829384860360023,0.826870143227739,0.824617732776686,0.823794462121735,0.822728170881005,0.823701933559429,0.823076751539011,0.82423468061698,0.824837310977827,0.825153458622609,0.825345657611044,0.824421350328088,0.818397228807655,0.818252915672971,0.818030829838172,0.890850854724312,0.925047986463875,0.919638744738784,0.815748817988552,0.817319284961462,0.815526909446678,0.817691841297293,0.86054971144117,0.812676832872942,0.810304239300819,0.809353827097732,0.806412872359883,0.808533796212023,0.807541511255704,0.808818955258574,0.807929290583395,0.809542744770045
0.791675242638529,0.789011815802413,0.789265361600878,0.790374554241765,0.788676780787333,0.787134933920289,0.792522344155778,0.79559022166518,0.793816364939906,0.79487940628227,0.79428326410537,0.792984338796671,0.792687826698979,0.792493831779639,0.792577392139018,0.794209410363797,0.793353610722492,0.793515846996849,0.792445278314194,0.791286947659458,0.801113457302113,1.0407200830265,0.818797168597773,0.820122961742432,0.818982537930994,0.819525749094256,0.807305724879462,0.802306354510927,0.801731255945357,0.800648360254873,0.799865946873213,0.798556161528735,0.799045041383016,0.799096789810802,0.800319568411835,0.800786587937655,0.801632497392951,0.801576283663391,0.801588252439507,0.800526964312675,0.822478190589031,0.824807749893641,0.825134044756998,1.18268779967211,0.797614524793638,0.797120841880072,0.79881802148326,0.801215563949509,0.799029228414447,0.798905178157767,0.795552562731386,0.793442605255957,0.795237187682679,0.82013572225708,0.806804590922084,0.802376267593097,0.800862576541865,0.801028256427663,0.80571182105649,0.819982561880774,0.816676380807896,0.816384999611008,0.809330479062742,0.808201703375385,0.807729062162883,0.808059653855411,0.805815480884635,0.803291252594018,0.805684676415497,0.806717163062654,0.808500058443991,0.828424270829593,0.828035666863337,0.827286074902805,0.818455427632703,0.810261330890811,0.810018670377043,0.81037938692975,0.810355704694566,0.809266587073427,0.81051971171024,0.809769651157208,0.810350736619818,0.808852091539262,0.809923752490126,0.808646700743552,0.810870332435694,0.814904581722917,0.813856261993838,0.813867634313281,0.813578782531418,0.930437405431879,0.81661737942222,0.816502764439726,0.817786349019677,0.820698872016379,0.823172046988751,0.831692615758699,0.827232266171752,0.825135163698189,0.825812274428113,0.824058842995766,0.821163230583964,0.820678545928099,0.819814945328091,0.820398436727222,0.826828409136677,1.03174251584352,0.823168645945817,0.813669851013986,0.813567251468458,0.812825535456417,0.814924493661207,0.818186247833376,0.814065072063726,0.811026386579404,0.81216787701079,0.811174848994498,0.808116607425844,0.807012916514939,0.807172294986315,0.809057801891811,0.808970340327045,0.811179136456156,0.811604696261119,0.813389135840546,0.814056713442271,0.815061834118959,0.832873784320836,0.877744376966789,0.846525682874676,0.838532289036762,0.829168700716091,0.824042109880936,0.827224312452998,0.83866408098988,0.836640362051216,0.929349722567415,0.831775165573984,0.831114174152178,0.830286461823759,0.829963261919747,0.828202025732461,0.827490450258351,0.82565716059861,0.824851624062352,0.825978806042105,0.827712014329877,0.826845220005198,0.826962014024815,0.826214629641324,0.817887150098382,0.819621613731391,0.819683194431616,0.873589132045767,0.901123829887224,0.913932772223292,0.978337286273217,0.818896608792946,0.819048672324928,0.817883760540316,0.81586941344242,0.81425281620018,0.81304907522619,0.811475992021368,0.811924962498239,0.810321072477709,0.811166429684599,0.809546270628043,0.809682784899653,0.809538090223468
0.792698707167392,0.794575429599699,0.79273176228039,0.791694453782096,0.792028240788272,0.793627542137014,0.794462419264278,0.795342231903503,0.795019318654046,0.795477820411081,0.794709001641798,0.794657937737339,0.79399731556348,0.794459562724424,0.794338907035948,0.794446224978801,0.79458745014191,0.794276931231093,0.793004437949662,0.789684595193323,0.798689706382639,0.911260719586166,0.81886894099721,0.817584938634169,0.818547965183729,0.818141478498324,0.809976706848207,0.802888433277737,0.802345003449945,0.801894639234631,0.798922253881658,0.797544496946971,0.798329059156643,0.798968294598484,0.799018398412523,0.800048800871703,0.800659870727287,0.802133697769351,0.801998245464209,0.986369406026858,0.824998851515549,0.824451332446304,0.824910131013921,0.801929849056802,0.799759497555168,0.798802779381384,0.799610606625536,0.800603223349544,0.800088709251706,0.801192830803808,0.795987349711977,0.793761458410603,0.798002511153588,1.03842758218015,0.813976895723131,0.818151643805498,0.815985263621886,0.81770138612628,0.817278191557596,0.819324848822573,0.814505223887147,0.812701369392357,0.810343103058345,0.809273765552449,0.809109460443502,0.809176071468826,0.808465558782109,0.807602474402215,0.808554949919105,0.809431314431973,0.811131008252984,0.81354431116031,0.814171830622789,0.814396180441166,0.813552296832134,0.811833221508723,0.811816103373181,0.811583727299051,0.811429868248043,0.810624234477358,0.810690571628685,0.810987010276654,0.810304050996211,0.81182609400129,0.809905671823101,0.81029154602935,0.810595726679327,0.812563749867815,0.81265393546105,0.814977990419665,0.812794865117167,0.825397401034599,0.816804706597632,0.817737728893403,0.816947094002684,0.818337501689741,0.820213030967746,0.835129095410986,0.828236639891764,0.82721769609024,0.826566871774627,0.825163023493143,0.82272824588043,0.819374129317818,0.819130976610227,0.81907769341092,0.818571646477774,0.819464561799165,0.818620125299555,0.813181407702639,0.813373912270444,0.813093996637603,0.815105440494894,0.820368754990733,0.814314735346328,0.812355968633032,0.812413372921652,0.81140194928503,0.809708356073412,0.807620682057116,0.808341684691037,0.807264423109174,0.809267955809568,0.808746825578119,0.811660601960043,0.813021136112803,0.814428689436612,0.815492123947388,0.816649546881926,0.817644994158686,0.819252275863745,0.821033514589501,0.821640506527573,0.82395889167924,0.825247923529387,0.838897352902997,0.836871270110073,0.834744230657491,0.832583179538916,0.832538595609235,0.831139110838555,0.830977874438979,0.829987932669063,0.828225513736629,0.828344351166242,0.827022823376359,0.828080984960068,0.827926538106554,0.828350095081406,0.827641087157546,0.826788163644662,0.824198393803807,0.822760788463295,0.821599522970312,0.856273945047602,0.975450743236752,0.873964719522366,0.823135089875347,0.821652041493257,0.820786968954761,0.82002666872978,0.818262692720551,0.816795855983611,0.814853632362585,0.813804179805245,0.811570367001544,0.812053116211462,0.811017076366297,0.810910335486626,0.809116471287619,0.81040829342577
0.81522618995383,0.988678605384932,0.824710116440392,0.791831172670103,0.792729392669424,0.794021084023103,0.795829741545822,0.95359668407372,0.796720441871941,0.795423859390501,0.796089723492263,0.795514384357056,0.795375827682896,0.79504669681677,0.796018249686655,0.796896247132797,0.796332370089902,0.794402190677859,0.795276728875501,0.795589518835775,0.796357044960735,0.795786616293808,0.811625684946212,0.816484198322994,0.817013867378865,0.815651448977136,0.812103919514432,0.870539599802142,0.804512149507767,0.797382975133775,0.797757291813347,0.79735249551957,0.798346269904942,0.798455296455422,0.799019852141591,0.798265271394383,0.800624191968429,0.80165283550676,0.80285766606196,0.803414314398205,0.818877443883668,1.15361319952221,0.82735898627095,0.80220084014813,0.800883931741277,0.799433067106779,0.799633906434646,0.79859358111629,0.798497253763607,0.798014065371062,0.796216188136011,0.794937634129704,0.799993043997313,0.80612021883173,0.810851308138798,0.811763110761643,0.813023485467375,0.813102943922787,0.813781105192728,0.81255002276302,0.812322423717999,0.811344979507819,0.810713901445596,0.81054451540985,0.81012210507837,0.810684725846276,0.810421404350389,0.81250322935229,0.811202907571376,0.812076078697345,0.812908969657179,0.813240692088417,0.814633776159548,0.81495934940316,0.814301574616015,0.813296984458431,0.813013621590462,0.812199945180272,0.813703694342565,0.815038895898453,0.812841008724146,0.809995354554636,0.811114509782917,0.810596851452954,0.810962301789514,0.809160204572784,0.810804643636453,0.809962378316678,0.812189814981346,0.812027589098619,0.811586711186803,0.822379692990774,0.819186916986992,0.815673208572564,0.816512179305718,0.815643791923074,0.817756936094353,0.830735102947997,0.830444030008322,0.831109617030503,0.828131508058267,0.827033694090801,0.822994841852845,0.817584719619928,0.817405113590459,0.816558526370564,0.81732270344614,0.816736529474837,0.817096516366854,0.814546226906783,0.814145904270747,0.812991524498081,0.81449468145704,0.814159795261369,0.814903671032283,0.815038064839162,0.813427882124332,0.81181939135185,0.810757321373567,0.808931294490002,0.808981452476003,0.809692125160981,0.809236797316909,0.810061098655496,0.810840668331884,0.812791200456658,0.813769430433156,0.81551615593854,0.816608106158055,0.817349100381949,0.819645617122182,0.821487073262316,0.820608561603443,0.818973772127937,0.818513722715167,0.818012021090719,0.827972046227318,0.883767541867628,0.832860000935106,0.831618486074428,0.832395520611494,0.832078831798293,0.831549535855983,0.831909293597095,0.830224879532578,0.830114656182504,0.829339780207972,0.829534410521415,0.829334336600739,0.830084830476798,0.828935665236559,0.828988329755355,0.826152548974924,0.823026025531437,0.825018132343653,0.824349323671938,0.825288795320103,0.823643366276323,0.823944991583945,0.82322083553858,0.822012026995188,0.821146331922776,0.819097670076716,0.817443832820493,0.816217736819986,0.815427204790974,0.813841246373617,0.812719607513167,0.81205154299254,0.811736396490085,0.810367722052214
0.829815605147001,1.01525160509269,0.833410000206236,0.820212795678097,0.800548366419597,0.799639080363335,0.798751015662468,0.800157614051345,0.798678529584877,0.798487313878204,0.797274116614659,0.796390869562891,0.796483722063646,0.795902382128222,0.797768993211206,0.799359260186674,0.799725150588059,0.800849892693221,0.798540752197495,0.797163332950544,0.798127376776804,0.797713807188218,0.80830736273807,0.852584304906436,0.830771883858671,0.887658031204921,0.810487819326449,0.806144748830401,0.805939433504633,0.797372641854708,0.796915018170646,0.797596015499771,0.799546317597986,0.800005952454379,0.799389411746545,0.799601044265177,0.799824211485517,0.801695905373439,0.803526110612808,0.804898783273663,0.818172937458814,0.977266337019995,0.838984804653575,0.858232666225979,0.802700336623355,0.799980323833416,0.800450968082936,0.799709721467063,0.803238658764865,0.906650617471968,0.802452361561884,0.800353614680565,0.802142827119422,0.805076845396406,0.808916496711516,0.810684070857704,0.811771867860697,0.811569671847677,0.812038138218714,0.81115497397755,0.811056882045874,0.810424549815141,0.810648932609169,0.810895339126289,0.8109284267768,0.810721608586914,0.812303582129344,0.813023346595588,0.813568718653364,0.813441948241188,0.814989078868345,0.816572463687427,0.815690387986668,0.815757666971007,0.815038114249492,0.81523861108936,0.815416010509127,0.817280433737712,0.815823571978408,0.817073688848559,0.813974527343326,0.811295736584463,0.811311289868173,0.812654973036773,0.81126925128382,0.811466537713979,0.810663996237792,0.811247519633623,0.811401249660419,0.812302031153344,0.810945008119646,0.822388073739301,0.819196228934032,0.817690934363425,0.815744234294289,0.814936690285116,0.81532670874873,0.829453406003635,0.829837490534236,0.835100139986092,0.838895362387872,0.925718548856386,0.82272394003411,0.816847026933006,0.817370407619252,0.815904363056402,0.817172539549911,0.817817065009837,0.817036208356986,0.816681250906547,0.814823470152229,0.813724218928709,0.814399942754766,0.814324665361455,0.815215262846422,0.8149560497178,0.815248483726098,0.815865849457941,0.813367828175683,0.811470097099902,0.811319710937129,0.810398964913149,0.810738775018119,0.809601288273773,0.811584274700795,0.811436542677554,0.814320805398135,0.815283321484562,0.817085825889685,0.818149534780664,0.819801016327018,0.821802384223826,0.820268433477881,0.81822073925876,0.818622675604907,0.818628448068633,0.821513745118326,0.823299580312305,0.832725476934157,0.833472052246032,0.833435113245313,0.833238498522631,0.833455485408456,0.832932741323522,0.832791853598846,0.831380994546742,0.831829046245751,0.831039534870486,0.831287915021638,0.830821556929157,0.830421067708434,0.830318183277769,0.828346577030758,0.829032866403054,0.826881910991469,0.826616214454942,0.826611574561784,0.828207732928044,0.82548479363506,0.825606942100183,0.823560785713137,0.82314471017018,0.821145760491805,0.820549001981136,0.818452753641315,0.81745961143895,0.816035306085122,0.814668591517072,0.81428483212887,0.812507057644737,0.812366400670437
0.843575039711198,0.861490039134613,0.84344101217085,0.905596414584544,0.80116066221113,0.800656833411015,0.800318617674781,0.813173994526343,0.800718315148563,0.799545908547105,0.799282473728089,0.799085192451765,0.798392609816826,0.796513141646343,0.799556559470028,0.80214520103775,0.801872980883696,0.802619107371051,0.800544284465521,0.798164173531641,0.800091554291943,0.801827510991798,0.802944153654643,0.803334027762042,0.804873675601326,0.805997757195206,0.807671561442768,0.806409785899938,0.806516891597583,0.806715343743524,0.805216771583892,0.803048782673675,0.801815940199199,0.802198040635385,0.806717473472816,0.907780134312324,0.80639711805351,0.803596196541023,0.805767494395456,0.806819786925543,0.815698996995578,0.814484679656006,0.813116599283317,0.814092948091949,0.80520637729657,0.805701644514887,0.805754091169044,0.805809318216544,0.807938571671841,0.811390003790354,0.805101509908791,0.801366597081747,0.802317802453297,0.806297840551688,0.807966064383134,0.810558795151148,0.810132572606968,0.810539836779201,0.809736302854457,0.809197390175957,0.809218637861217,0.809395973010184,0.809619329284168,0.810479854949889,0.810593181536504,0.812441840529002,0.813014882801613,0.814877696864307,0.814395065258069,0.815873016732316,0.815715768763812,0.817649317685469,0.816073865254023,0.815174079373445,0.81534205491597,0.815069360880903,0.815956539307039,0.81703380259613,0.816402172199124,0.817122147449135,0.815814201943176,0.810583945677531,0.811530812556113,0.812896827615251,0.812234504585556,0.810976154692803,0.811604193833848,0.810955197229724,0.811607176657011,0.810841066318848,0.81039688952346,0.809176462062257,0.818465864714556,0.819547594824625,0.815477800677819,0.812880396439171,0.813776386881863,0.82940963905285,0.830274014383534,0.856869784748961,0.84538318167394,0.866180190722531,0.822389535438207,0.818629707727749,0.817858013340711,0.817723771694779,0.818258846648951,0.818703219187899,0.817544307077826,0.815820587316227,0.814844470714272,0.814399547580304,0.814411991790395,0.81490962499189,0.815021744844222,0.816494557707777,0.815140574101035,0.816272567723948,0.813662350448928,0.813423225372858,0.811646445181928,0.811764807619251,0.81059124695395,0.811226775210738,0.811186235088625,0.812854620724582,0.813986173593936,0.817037717961068,0.817149894747868,0.818869352635405,0.819776076946476,0.821249077904481,0.820422382983508,0.818449069046603,0.819454056324216,0.818989752346719,0.820642585603382,0.821613826178414,0.831667179237481,0.886433100077075,0.834933202946539,0.835003320202049,0.834695334528266,0.835404383106241,0.834329020755836,0.834991682654828,0.833381552380877,0.833205102026945,0.832245971029577,0.83223762081224,0.831000397571318,0.830199126176005,0.829063180296213,0.827646177771343,0.828275857455744,0.828829687300591,0.828737882089059,0.827978479090389,0.827340343699776,0.824628206946262,0.824779333187387,0.823345586419066,0.822569862508014,0.820888707582014,0.820259392172178,0.819244911167904,0.818107296054863,0.81748391833392,0.817428537883241,0.818899176955791,0.814979118826371
0.795229498491548,0.796576120382237,0.807109680748594,0.814257126616992,0.801821441919306,0.802603104153683,0.801932291215542,0.803462812451953,0.803782354518218,0.811329249130259,0.800849095691329,0.79997600946702,0.801058345258033,0.801849819075799,0.801843585230152,0.802623472716521,0.803492221684012,0.803559868610401,0.803715882565143,0.802658347387359,0.802444975279417,0.801764366498456,0.803903573460581,0.803723178053198,0.804883406802391,0.889582363762973,0.806896614985518,0.806197807100302,0.806675933374687,0.806551939077518,0.807842054510909,0.869334806313382,0.834946801292302,0.89277012654416,0.810093374530388,0.809419115484232,0.807743783236059,0.806245617164092,0.807948400786501,0.810506172054249,0.812621449076177,0.812034198037998,0.811795012550295,0.809209107038827,0.807717374951987,0.807548566117987,0.806825718356627,0.806732887099,0.808224356015781,0.811600662900942,0.80812651496099,0.802263020065396,0.802814118059106,0.804595122375471,0.807980674499793,0.808264945698031,0.809059390608096,0.807959245555241,0.808969885267597,0.80734871288774,0.809024565177836,0.808411748382292,0.809323272056106,0.808672527366548,0.810230538049129,0.810927189559879,0.814193596787801,0.979634138941774,0.81573471145576,0.816011628536373,0.816778835073318,0.816609074770942,0.815758701578165,0.814575796215721,0.814407956452736,0.815427304550894,0.81550470438322,0.816500487368522,0.82320693790816,0.831246631044315,0.821403239020997,0.810247727235062,0.811693168482787,0.813536335213539,0.812644054197916,0.811839433394389,0.811749337628652,0.812085852885411,0.811497866114313,0.811091962828983,0.810591343263847,0.808477132168,0.815368587642979,0.82138307005262,0.812717739867964,0.811810536068654,0.812290610819583,0.81356530020319,0.826030698039976,0.837236097699871,0.842867399199489,0.922873845812467,0.825089911438664,0.816725495327095,0.817849468275502,0.817163688162509,0.819424385194724,0.822347349025815,0.817630609312545,0.815181994206725,0.814902095098655,0.813399791443961,0.814889588532717,0.814446652149018,0.8151923142588,0.814220645758882,0.815169547517211,0.814037424114908,0.814649060328116,0.813094886899836,0.813270190260216,0.80981333705052,0.811968632034359,0.8094655295072,0.812328357174874,0.81147225105705,0.814625188658513,0.814724035127896,0.817465069597141,0.817915642593883,0.820077557408727,0.820879301850545,0.821818992677296,0.823107359604819,0.821540564797118,0.820529740218596,0.821097858270298,0.820987547959746,0.830005693822088,0.872149467372888,0.836216846064583,0.836278975787075,0.836262322205752,0.835741175550821,0.836192868410097,0.835997218178695,0.835352994526201,0.83397721436652,0.833533483258174,0.832239643294696,0.83165861941736,0.830762055280785,0.829342903380887,0.827984892896097,0.828815400140782,0.829862130027863,0.829293505215995,0.829680448472109,0.827818874114569,0.828162520553106,0.825255391299201,0.824342099473299,0.823071725389786,0.823015653131275,0.821032636755848,0.81991178851693,0.819175845945262,0.818833007344541,0.819178210722271,0.820021936744062,0.817643532359216
0.794429950719716,0.79633344251129,0.80108130876527,0.801658155103102,0.802174749633769,0.802654648600258,0.803138632403319,0.803035287082749,0.804358135190883,0.803495039126247,0.803716098234619,0.805417684202122,0.803480524936092,0.802382455495563,0.803338740349867,0.803620773792774,0.805105424663732,0.806215516955029,0.806342597392461,0.8073058582862,0.807239282965072,0.807336978370962,0.806088185124832,0.805714798178195,0.805702842881445,0.806320878266774,0.806868831850627,0.806532581634386,0.807627607682127,0.808227725365855,0.80902291542594,0.810099763841589,0.811120430752673,0.810939708875985,0.811373256754562,0.811840540492789,0.810999234331851,0.811196805621234,0.810959549238957,0.811145894963524,0.811920978087665,0.811860945700195,0.811178736336884,0.80979410247064,0.809463500714542,0.80880932838249,0.809489658212562,0.927969201984758,0.813283880082078,0.813033560333381,0.814896447080834,0.81380791311628,0.814957335565358,0.812994917079709,0.810054519004748,0.808569779058642,0.808602248201667,0.809061101889475,0.80881369637268,0.809453621903741,0.809016723518515,0.80902874667861,0.808927075521817,0.80892258741545,0.80909002351173,0.809355346896725,0.817259389135716,0.81555239185144,0.815803111115276,0.816864801414442,0.816662081754367,0.817351265744104,0.815797302396565,0.813988902921596,0.814438807220974,0.814314890092639,0.815586421383572,0.816176952438371,0.842344596257491,0.879871997020361,0.838430380562735,0.810537292616959,0.811886774932446,0.814267220111247,0.813650753467504,0.812464176134164,0.813081198391729,0.811072306375004,0.811814460285124,0.811885235134911,0.812957518776368,0.816788282552544,0.814593819654669,0.812528731946757,0.812291103395649,0.810879996393981,0.810925666385751,0.82382666401807,0.824522286499627,0.823591124843613,0.824938868788619,0.827350811016769,0.826560386114638,0.922399707857444,0.819066611157299,0.817437232138153,0.819909891406839,0.822060343868126,0.819551861498645,0.814638875117572,0.814883510773968,0.815080515698544,0.815271189758937,0.817234231499356,0.815243025533271,0.81499668492717,0.814479105656598,0.814993676082415,0.814609109221605,0.816097478632341,0.814462804722095,0.81631481052089,0.81347286821069,0.81443049056174,0.813735405302462,0.815003477426632,0.815434743487013,0.816605192316319,0.817466881084838,0.819076381181497,0.81990567725544,0.821636965945645,0.822305495962811,0.823930929303922,0.823136509922875,0.821527639559105,0.822437625415701,0.820829845024492,0.828611429553677,0.82745259382933,0.836503649614248,0.83770916568381,0.836790716370143,0.837523269723183,0.836792792955333,0.837685047671097,0.836364853422401,0.836914053462281,0.834578458901406,0.833582822129873,0.832382837327565,0.831426605057223,0.830495640991155,0.828702495960104,0.830407127700254,0.830787056035931,0.831110569098818,0.829992797709746,0.829325476631543,0.826677800373692,0.826519941160241,0.823904337351878,0.824864577311119,0.823848354318482,0.822903442043905,0.820627302021322,0.820796898759801,0.820204559090073,0.820401536434873,0.820759046826204,0.818268534989989
0.793940668072716,0.79475641793964,0.800889351397477,0.987565857198494,0.80267388913998,0.803137092472917,0.803682708571189,0.80395193827484,0.804264984702098,0.804754669002586,0.805099592004824,0.80654893821614,0.805289840311258,0.805110210305504,0.805437880830387,0.806308715944994,0.807627814926853,0.809102943100505,0.809145508425987,0.8096413715669,0.809119958520055,0.809344912548406,0.807296647330284,0.806125589982061,0.806460591386818,0.806498954686198,0.808133281654693,0.808016363329265,0.809383470996202,0.810652215324068,0.811084546885793,0.811519237460352,0.813113013666159,0.813632264278989,0.812871102952799,0.812644371104769,0.81176582152225,0.812455118389887,0.811931648552432,0.812335799567375,0.812118392586108,0.811768396030516,0.811688081188931,0.811406273141205,0.810905226526491,0.811784422203059,0.811385652766962,0.81292970111442,0.813705471890893,0.81411929564175,0.815485584924578,0.816915929320105,0.816426715449306,0.814258718088519,0.811102893083585,0.807945527765595,0.808905409095779,0.808678232984037,0.809746611250527,0.810060019464658,0.809844840679599,0.809368032274181,0.80904329807867,0.808858681550915,0.808817684861285,0.8085532880595,0.820580170296089,0.851758351038168,0.852328631249372,0.852853998072254,0.853256904203081,0.875927398645517,0.823213586775239,0.813278529046481,0.813371877951893,0.813075752488771,0.845864478705127,0.868957915034126,0.865203110397465,0.873013609287367,0.852638499255658,0.904525475260672,0.818837978774025,0.832388764986781,0.814710536883188,0.815163586673385,0.81600176359613,0.820876504761188,0.812267256902647,0.812601938879947,0.811723102577341,0.812026643491178,0.806062640078788,0.779613077266548,0.805802476371624,0.81014236166077,0.810250781596818,0.809544822051028,0.809698862136025,0.810298362125522,0.822463923663861,0.829385104412895,0.827361144901675,0.921774987432161,0.822021797967123,0.822573446489271,0.822052314628016,0.821900507987672,0.820825350999927,0.814171342923136,0.815815622562446,0.814781340134147,0.815826123340292,0.817483252100523,0.815899123100364,0.815152979330957,0.815486876603694,0.814013657224074,0.815578644988109,0.815367503747746,0.81613680067928,0.815135232308237,0.815777791761769,0.814057949110872,0.815812835531189,0.816660616657819,0.817389104640503,0.817501559188042,0.819040458763571,0.819263494576462,0.820883576604247,0.820984384041179,0.823170439772411,0.824376166022649,0.825100123214568,0.826904988393434,0.825168111712809,0.825276901721553,0.827632559093927,0.827930363951229,0.836116753237919,0.836319383421298,0.836850600581028,0.837317677760191,0.837301412887607,0.836914788624889,0.837069486927169,0.836801063225817,0.835309344972551,0.833502112302557,0.832993951443972,0.832076537425985,0.831461643613486,0.830541227371326,0.831654418231142,0.833815155354727,0.831953583933972,0.832289242618937,0.829499561731307,0.828857678187296,0.826803215944775,0.827048896412115,0.82540363061712,0.826297405399658,0.823601738403294,0.822981594049205,0.821760265708099,0.821663268465422,0.821065349149626,0.820475387013539,0.81930349394474
0.794197718100237,0.794272682852892,0.800955978876828,0.801332455420667,0.802151710804229,0.826801283872407,0.804503003602497,0.803497818834511,0.804799473850983,0.804312560354998,0.806269972797507,0.807193413647222,0.806886917016981,0.806384579491935,0.807317939921163,0.808656193293107,0.809558106888862,0.811257692189878,0.810887408279498,0.810863485482274,0.810378572948306,0.810760266439267,0.844568890614992,0.977826911997204,0.809887510835308,0.811018689255606,0.80999055366527,0.810516687589977,0.811041995795558,0.811814591125961,0.81240507652921,0.813383158699251,0.814431592075719,0.816862819672507,0.81398144247265,0.811545616348995,0.812374707292256,0.81257393959459,0.812892186100435,0.812886141204759,0.813174391823862,0.812219538674319,0.812724716243138,0.811982474405991,0.812573985643979,0.811712914639154,0.813633709358179,0.813909696583655,0.816798463027864,0.819536114315861,0.820027946941969,0.821247060288174,0.818132863394207,0.815456040286918,0.811751587365601,0.808648764451697,0.808858356230557,0.809926850893928,0.810066060765831,0.810302992417654,0.810790540529976,0.810528158633221,0.809471579699517,0.808902912531297,0.808551456079744,0.808681953604521,0.82126688932096,0.970305166519576,0.875316658420035,0.852464409373779,0.853275384948216,1.10127891925239,0.832320984051303,0.856363527145451,0.832873518739355,0.882604174464717,0.859223466556493,0.989565520345495,0.862907023784613,0.858121664637282,0.831240550492987,0.793250720929634,0.813113608086147,0.832569342670898,0.815269002120381,0.816496476751096,0.816733685255191,0.819923926449378,0.812955465545079,0.812581936403577,0.809098242894931,0.789518605374464,0.795587525549813,0.79855255068046,0.803170784744273,0.791750945162266,0.811832234342694,0.812323857031738,0.80925968051494,0.805863098447684,0.819428021026947,0.821165348745052,0.826219373422674,0.822678672046521,0.822920493142179,0.823137238887139,0.822069148901362,0.822693808783367,0.821112689972874,0.821237811540687,0.818277413287337,0.817377858360806,0.821449936149187,0.828304040633603,0.827724810396479,0.828522861118665,0.816858777575734,0.816063813945973,0.815915041018138,0.816924887713511,0.816651404282967,0.817759002186763,0.81684730907853,0.817204256032501,0.816493914031405,0.817851651835068,0.818596821594207,0.819019829954885,0.820039816536358,0.82101357932774,0.82140982354632,0.821909221279558,0.823827891640974,0.825678957413124,0.826445842895867,0.827806642009559,0.827053762396924,0.826139415744805,0.828260999787674,0.830215868350024,0.833080227099413,0.83466790871896,0.836221271917867,0.837564680732585,0.837179118346937,0.836955699633204,0.836711443891087,0.837266084877033,0.835226139935024,0.833339988694332,0.833815642966049,0.833893995887463,0.833622417548777,0.833226210927304,0.833819005229483,0.833007353216302,0.833512138614326,0.831471314449575,0.831107560738763,0.827560152648584,0.828601904061056,0.826371466086316,0.827028554817664,0.824713111698352,0.825180198506678,0.823057607319394,0.823494225439344,0.822369654657492,0.822381029856209,0.821893284247475,0.821267023043635
0.79506900178103,0.796902470108604,0.799171762489387,0.799748555344024,0.80227101218401,1.12248036868544,0.805269281497164,0.805305404293954,0.805465274676488,0.806312304619923,0.806837917563326,0.808099256091717,0.807457821759001,0.807800668523556,0.80829316323586,0.809408836170491,0.810990835621697,0.811803897820698,0.812921649222058,0.813399238244653,0.811535721744503,0.811329341805177,0.863916807468156,0.885016990269116,0.811802837329125,0.811040444191661,0.811688365242789,0.811896843772981,0.812267982814006,0.812301543512873,0.813678563627573,0.814769408784547,0.815720859745118,0.816502925521726,0.814324366650654,0.812865296098608,0.812534240041357,0.812955947892191,0.813492551227633,0.814416726567553,0.81406319507436,0.814388990254829,0.81376474476572,0.813848005843075,0.813739655395379,0.814637017395326,0.814991150213396,0.817018869899173,0.818151624072625,0.820274722229416,0.821282489554671,0.822777982978226,0.821194739487053,0.821477466129897,0.813143509572349,0.808453316776256,0.809136763150687,0.809042738530242,0.810487523046189,0.812697510499963,0.811219707639401,0.811593544973099,0.80940581126878,0.809320590671622,0.813562740341717,0.832442443787931,0.823402014535056,0.91346941857747,0.892706642396201,1.12513264156242,0.853876144874428,0.854416358788039,0.828846572322447,0.797662414058662,0.823454225058574,0.964749617023307,0.848228274788235,0.819146908002286,0.811800002925864,0.793041998804665,0.793724681160436,0.792934012525297,0.80660646411476,0.832054579697754,0.814793719227948,0.814917346158562,0.814795299285149,0.814177549828288,0.814037361146524,0.813888540477881,0.807284195887832,0.777836622693352,0.791243206945708,0.788829659782156,0.806488488424851,0.812687181969455,0.812896290424961,0.798962793078358,0.808029341988975,0.805382378127511,0.815769488597312,0.810382685986478,0.829298968697672,0.830150123349156,0.829082140718529,0.866757792964289,0.821368803924436,0.822237040953699,0.821783600792866,0.822532041455333,0.82637146823526,0.883382638335123,0.827996349012804,0.826390176389112,0.827290978442412,0.826153400378948,0.819382457872484,0.815497368219704,0.816640404979806,0.816861694090532,0.81745205299394,0.817775150263531,0.818462403326765,0.970372100850856,0.820875450382016,0.8191525206337,0.81973102311834,0.821886079379489,0.821843619330975,0.821738638939759,0.823228144215906,0.823909400932968,0.825420045353118,0.82662252886241,0.827261560558493,0.827953086988435,0.828846911185781,0.831213259797243,0.830582655582906,0.830747644069366,0.832878180516059,0.834218471648147,0.835686338275979,0.837501412008182,0.837039182572298,0.836195781328975,0.836803674891093,0.836071348082194,0.836077366771624,0.836140502664334,0.835161224286841,0.835001516988562,0.834875068016457,0.836052499554282,0.834926306705873,0.836232712359308,0.83404846146357,0.834474795684482,0.831816753072816,0.831498957375649,0.829690594439478,0.83003845930129,0.827899784269919,0.827864104788053,0.825956420647137,0.826162470474099,0.824273866319461,0.822530524889164,0.823008562183699,0.822182679409014,0.822245745613892
0.796299574561743,0.797065665185615,0.799180745986255,0.800449836144761,0.80251843527926,0.973819218959058,0.806545978789463,0.80615300185163,0.807234326704512,0.806824399697727,0.808404087188072,0.808753606878059,0.808558377440433,0.807092728635688,0.809416108710633,0.811021611218987,0.812853099946129,0.815630449385315,0.815036124449638,0.815640621148612,0.8167602416192,1.0298258433283,0.925874669330899,0.89026557522596,0.81489975737624,0.813987031278203,0.813701601072277,0.814115583666975,0.813961663562676,0.814105300832427,0.815257274861294,0.816373560722094,0.816676756886752,0.81672928444437,0.814890273364708,0.812287507684069,0.813055603250149,0.813640045070963,0.814255956210293,0.815137453690362,0.815829988278605,0.815103492433712,0.815522454006012,0.814157049249552,0.815349080596372,0.815063152274363,0.816640633821442,0.817301043415978,0.81999497574951,0.822825266366475,0.822775702094332,0.823775473301241,0.82164422526115,0.81993502028583,0.813411575915868,0.809187325940382,0.809737498986741,0.810044332575882,0.811074735705169,0.810870885574645,0.811715876668086,0.98291392117451,0.819890768888552,0.828958485097837,0.819915612651247,0.831773210268472,0.812119989924519,0.802780794294644,0.8034336975208,0.796495153185129,0.797955385625192,0.799031446660906,0.803494042560582,0.799079140756945,0.805381286587832,0.804848720682832,0.805539979215743,0.805511422044636,0.808265111384919,0.839715517296277,0.795071604115,0.789906432373838,0.80278126177126,0.801257768237146,0.801828926662253,0.800963209616439,0.800763627208367,0.787618575609517,0.802874692358203,0.820657087273046,0.804509685250494,0.801637800336785,0.799075024091801,0.854333158839713,0.811953483818551,0.785492758468257,0.817019356738754,0.841426519337111,0.830248051349702,0.834739491558424,0.833636996335596,0.834082941704118,0.831491439782748,0.829722146158653,0.82922349757543,0.815489543886106,0.819164720046114,0.822198268886274,0.821111987504394,0.830958082635163,0.830697413492237,0.831562306432292,0.827432402215083,0.826966102900119,0.826109868604693,0.826909914308634,0.822090886691717,0.819460858249543,0.818180977809131,0.817021108968205,0.818231443522898,0.81923703557728,0.820087335585551,0.820851060474873,0.821765953971704,1.09114673485483,0.823520579916908,0.821999155097805,0.823541844381536,0.824145005344038,0.824932999699843,0.825631156262823,0.826600594926778,0.827333288828961,0.828013562793444,0.828059384721774,0.829225570325433,0.830428480119531,0.830809780429263,0.831757454983966,0.832571383108274,0.833062899086348,0.835494643089207,0.836365910931125,0.837587547573416,0.83823729094471,0.837189086152303,0.835922258139707,0.836040423471408,0.835841184846643,0.835740679266834,0.83565642580797,0.835959261979301,0.835756285641458,0.836232681102153,0.835302418469616,0.835762476024332,0.834153531314386,0.834332652266241,0.832540329670165,0.832056551300756,0.83032203756219,0.829695747998004,0.828143996273181,0.827932654041728,0.826017160249252,0.826836275217945,0.827014444407887,0.825306384789521,0.823419486589728,0.823558040190291
0.797970633966626,0.798999522993432,0.799829003596323,0.801449548495499,0.803632799442481,0.806482682456651,0.807146760360238,0.809067734379723,0.808201627683806,0.809109133910239,0.809028526465402,0.810366452238992,0.809081017679297,0.808619091624383,0.810149293378488,0.812084914831575,0.813682311207057,0.815683947578349,0.816135439430598,0.817203098828755,0.817502237790698,1.02299989614962,0.956759149505202,1.02266454716363,0.820259970681721,0.816393812892848,0.815270915479508,0.815642268596906,0.815659144672164,0.816457648889251,0.816709701834876,0.817638843523746,0.817539513178197,0.817578805282225,0.815201753297075,0.813625420633497,0.852579206199068,1.0297261191137,0.823349913721969,0.817439461962393,0.817327400298664,0.818490928043894,0.817536524596872,0.817450609138384,0.817520828990391,0.817842816013472,0.818334917814559,0.818767007529088,0.82115002466139,0.823766392737097,0.823620687960105,0.823895899560408,0.822062370846543,0.820582291707879,0.813948415911071,0.811497770613478,0.811631204996918,0.811989591418724,0.811638012232221,0.812457610134649,0.811851130353562,0.804051681328417,0.803235857539432,0.802967674666401,0.801401327769096,0.791689256049119,0.7973643198783,0.806145608771605,0.803854864276351,0.796990782358419,0.798219489544649,0.798541914306534,0.809376379939596,0.82048815893484,0.80584250809528,0.805353359390287,0.80548232071632,0.805547509434623,0.80550804402289,0.806148363836811,0.796603928868544,0.789213135379649,0.803623436034795,0.802933847687196,0.802817361987446,0.800706234332252,0.800444114329694,0.79126477794572,0.791001382886195,0.785563151029229,0.794506044186614,0.7945364992377,0.796787908262962,0.795394386674579,0.824115151050542,0.837730638740833,0.822001093383396,0.812988185583077,0.826585444142491,0.822467436482171,0.831833783398293,0.835024561738491,0.833427738710378,0.827356386217698,0.829099327089706,0.815090065882519,0.817773209813724,0.816152693010664,0.819044875650526,0.830027026468362,0.831018298538246,0.831757986935006,0.825789692239558,0.823978763038391,0.825230913224665,0.825504599269454,0.82466055315802,0.824573237072992,0.820220367924909,0.818744403995274,0.818770185049827,0.819613105388698,0.821120606772006,0.823528117198131,0.823654728872665,0.875927824121054,0.824599257239918,0.824972735340315,0.825386081356887,0.825605143028328,0.826892269967371,0.826312686909685,0.828411176415236,0.829278333894725,0.829310985245115,0.829054818610019,0.829494981823297,0.829555419139632,0.849813879384957,0.880562744793009,0.8368714988158,0.834405714704672,0.835406105101236,0.836344638774868,0.837578839192284,0.838984875041328,0.838226255023867,0.836794795948555,0.836341473626386,0.835975148517144,0.835514408601465,0.836147331974378,0.836425350354759,0.837032192866964,0.836752394379116,0.837078766697582,0.835974609561982,0.836362074185208,0.834962162278778,0.835573977313094,0.833254620686989,0.831752153536748,0.830692414235184,0.829737399632024,0.828825417183434,0.829104790170679,0.827887509436382,0.828714574618796,0.827809522984315,0.828683270743569,0.825903491673407
0.799908426116648,0.800110219721046,0.800147921677685,0.801688452188486,0.805071983684067,0.806702918118346,0.808585487591006,0.809054206727197,0.810054298103382,0.809109251444298,0.810621231826446,0.810222452421953,0.810900044981613,0.810465074780459,0.811927210820162,0.812230595319423,0.814852251987771,0.816451056318616,0.817166892720418,0.817425791706662,0.818514228050109,0.838222507656773,0.835384365114853,0.836551440178769,0.827913179884084,1.00614013412879,0.816673479282264,0.816162171333864,0.816234499970169,0.817227221695974,0.817401464182184,0.818464538310148,0.818411423908369,0.818977754549435,0.821960381592734,0.931006356347868,0.866345687766637,0.840711012037281,0.829064850440712,0.819465840026061,0.819187166051143,0.819564293184504,0.819969694635898,0.819589956387788,0.819697222451724,0.819872288314184,0.819919039806293,0.820294595408314,0.821853059701546,0.823774431540038,0.823784913315506,0.823909236261109,0.82221650816137,0.820262620092594,0.815758154222472,0.814019520727389,0.812699108073211,0.812775935252994,0.818056711612257,0.882730012876096,0.824385076391573,0.824462204243324,0.802758972896985,0.80081967424741,0.8000920570013,0.788650961475117,0.788597255223123,0.787130002240224,0.804256011257887,0.805207815215629,0.803368629869003,0.853543527767412,0.835717092578335,0.858867591058915,0.806803655447627,0.806731944007445,0.805759240265351,0.8045341134246,0.805363376573292,0.797341035413452,0.797155170004144,0.791845012245411,0.804502472885205,0.804977010113633,0.804456039147642,0.796948790624453,0.799060779355504,0.790688063895559,0.789928157739403,0.787916629053602,0.793784841972023,0.792669264552069,0.819888966592807,0.832424184974929,0.834631701936535,0.837807672250035,0.828172957158131,0.815624373139524,0.82755123341661,0.828834726921952,0.830020837874099,0.844628510303534,0.834959055223772,0.875844179054273,0.846084388763247,0.866798757709669,0.820279950925846,0.806372007832574,0.811856661720128,0.856843468749466,0.840952315071479,0.86358507517166,0.825462492623595,0.822171195769003,0.823701403489848,0.823374880715525,0.825022371786097,0.825680098362498,0.825276176045701,0.977375105261062,0.86293896135684,0.907453866382273,0.825963245741122,0.825435255541954,0.825622978091808,0.825948450436461,0.825819833531352,0.980270015088937,0.828146230803763,0.829921073295557,0.829650353880474,0.831666145358926,0.83063140198319,0.830824599776492,0.83092988582642,0.830580216437764,0.830200056887136,0.82967577035508,0.864049142903346,0.879726102404842,0.849179305256959,0.846803077949753,0.847717628942727,0.872597188998051,0.841493542960809,0.840397032139619,0.839602823017988,0.837834881458536,0.8375688709592,0.834763647699555,0.835484466489491,0.835551303892069,0.837189245182837,0.838148879619155,0.837639851378693,0.837690995482095,0.837225410313244,0.83597824298988,0.836555436888673,0.835609137648877,0.83501415071868,0.83377559191029,0.83182586028307,0.831020986670658,0.830019444084037,0.829023277880209,0.829453588824327,0.828642972262275,0.828974181307594,0.829130630090122,0.826379308892888
0.802274523365114,0.802527623005943,0.800170101180706,0.794722263647868,0.806404379399372,0.807293893960337,0.808841222714159,0.811980207041636,0.811091057748924,0.812536878404688,0.811459270668277,0.81176917607169,0.811354553739638,0.811994790951168,0.812976546819428,0.815707185847081,0.815868732842801,0.816928796729914,0.817811444917506,0.818382087030088,0.819620607881822,1.10558781682856,0.832814246056915,0.83119086169871,0.82732533402745,0.821460285182155,0.823169932236018,0.857764208085762,0.862836169919598,0.99255246487888,0.820328456772022,0.818471402507399,0.818499615276232,0.817500526367589,0.827930496320933,0.841421848909107,0.883650890087233,0.919426551399128,0.858547762358363,0.819362947018411,0.819980206917409,0.822988984484851,0.822199659145015,0.821975493738996,0.821753337216419,0.821016998863927,0.821380542416232,0.820403708415454,0.821883024917339,0.823042789412626,0.823352401525168,0.824437818336428,0.822776221688422,0.812695153260933,0.814947219029172,0.813234178444116,0.821170617636889,0.833634810680596,0.833741744102717,0.83200369718699,0.823800416969376,0.793772077292794,0.794684815565628,0.833201274847747,0.798057979659869,0.789204844765299,0.78980174152927,0.789059114300433,0.804219053644692,0.803501977117851,0.802343769096042,0.800592477236511,0.820159091256857,0.807441012335143,0.807612161039051,0.809061362259393,0.80599063267991,0.804108470362621,0.804354182758807,0.803673920089289,0.81053781938734,0.825835381941587,0.815880349079169,0.809317412129414,0.820784799236749,0.850040215878535,0.819508152021338,0.821019809809548,0.814962436682791,0.809231465198679,0.811163113262185,0.814198913412874,0.836946581053372,0.862451126144377,0.863988362006131,0.873190847277732,0.831942263156061,0.824128036786584,0.826700386119874,0.828332544699972,0.828500607097092,0.826846151967613,0.828729483260201,0.830753719153669,0.830440190178396,0.823209215755343,0.82229157479403,0.806509648616336,0.81080510165606,0.801938569402112,0.835317496329219,0.867771484379217,0.824010447083582,0.823111268026946,0.824498600372596,0.847656021861012,0.82579393630838,0.824591916272663,0.823490972566987,0.822525048742606,0.828392338723309,0.824743175680049,0.827116569247638,0.828387758576199,0.8273948938454,0.826667663396842,0.826661668313823,0.827464733537796,0.828603992510609,0.831300206512619,0.830764326965171,0.831788187391012,0.832195810963782,0.83332929592878,0.83288227849778,0.833197721772474,0.831146575476234,0.829614324002179,0.880869932962981,0.929759667365737,0.849241189842595,0.847022908125248,0.848277695116162,0.981993574119406,0.843181935219829,0.841561417678817,0.842535005815193,0.84354599374621,0.840621440008354,0.833639794827378,0.834732880781208,0.837434582011461,0.837989348868802,0.838160077851102,0.83810273717197,0.837495631424718,0.838021652386789,0.838144722825456,0.8377611149537,0.837987686716973,0.83691994841543,0.94738015817072,0.832535319803129,0.830670338402148,0.830796961002914,0.830415501286465,0.830497685749307,0.830649204993165,0.829903944544051,0.8291160189853,0.827326242780459
0.804444359772686,0.803701233488534,0.801565725860198,0.795924660514035,0.807544876792683,0.806144594590628,0.809891339722118,0.810927402686557,0.812466261546264,0.812640014380175,0.813784379254051,0.81294307490046,0.813630574529819,0.811570383260674,0.814642163671697,0.815374879583948,0.817606443049006,0.818944080259395,0.819650953416881,0.82013806165569,0.821011484084083,0.838442537415537,0.831013572592676,0.823189838835651,0.824814261157677,0.822695381682319,0.824194545285215,0.858439565532541,0.865523215687131,0.870464456023902,0.823092384250687,0.822981736932004,0.819654424753454,0.817503069414781,0.885812379501874,0.987743092753125,0.89443351403407,0.918757241542331,0.874786261862083,0.906968616242069,0.827169248943799,0.823813373977721,0.824762694500956,0.824481648286494,0.82412190845868,0.823803070140689,0.824310952098809,0.825167795956275,0.82364651222314,0.822612700583546,0.823400557944511,0.822784721143344,0.82116965231165,0.819766970596559,0.816994630498238,0.848338218749074,0.82250073276351,0.833639133123574,0.834706820570713,0.844595929197878,0.822961047178489,0.790736402395702,0.791209730813611,0.789111712272941,0.796478127703219,0.796393247604358,0.792499103890051,0.790951385151574,0.813107295290557,0.836207717289651,0.838850931721203,0.875556016268771,0.838748944947225,0.80866761515244,0.807638909145969,0.805016459348698,0.8053794609365,0.804810508649999,0.824631210630313,0.841287168740113,0.839938483404544,0.839113565087868,0.839011138987719,0.840155435882677,0.828680574510459,0.816072708927244,0.817790585977071,0.817300489109323,0.81984039036971,0.828950123634101,0.837750400277526,0.846457563352511,0.856036509568371,0.867074650688593,0.865218950626878,0.872165271343069,0.841081917080268,0.842722036220494,0.831008715970807,0.87978484923817,0.852203797802601,0.882228051396381,0.829517596091876,0.829656938398628,0.829685819560604,0.823056471579593,0.823428962760987,0.81622972361544,0.813773530862113,0.802202474093715,0.828283367093263,0.811942713474487,0.82270759678369,0.820943091568131,0.826667193458559,0.827449803710391,0.82668276428892,0.824438195702813,0.831060441804603,0.838136922210403,0.831538587230943,0.83029512921851,0.829843177475387,0.831048378381812,0.828395203249861,0.827305916500424,0.826990282974591,0.827757627408103,0.829223346552945,0.829608676001475,0.831359269618513,0.832302979027478,0.83313457463539,0.834318059760011,0.83418025823479,0.834298718806966,0.831932548269183,0.830962535905018,0.900728916114651,0.950124928808042,0.849434077753114,0.848924021675086,0.849192814565201,0.849874251580036,0.846442708462867,0.844960534483385,0.845017831747187,0.845382078309609,0.846680668361539,0.933884523532522,0.842011941544168,0.839491781510507,0.839087660764402,0.838824099289601,0.838354872695335,0.838489269417691,0.839234148055244,0.83983950505668,0.839315688909517,0.838462626076212,0.837975060695656,0.837667944504429,0.833592634769808,0.832654539151366,0.831232649686221,0.831589827375759,0.832246886866297,0.832191535151238,0.831601924537676,0.833072504161423,0.850219504765424
0.805977065525331,0.806881862400745,0.809225787002593,0.811275767158085,0.811096564836884,0.811357520645206,0.810725447597266,0.811403382186711,0.81252047742316,0.815049711668728,0.814839176839224,0.817408102194842,0.815258690008243,0.816075686103397,0.815698810422874,0.817930820545163,0.818170940595746,0.820663981894241,0.820586370013182,0.821824487386872,0.822162766085167,1.19685277752931,0.829331258072479,0.823793516422439,0.824076597227626,0.824295877329942,0.825216693939145,0.966188719287159,0.910927214190126,0.98484664999023,0.840975040205436,0.847345292260434,0.83929204197952,0.984645846996389,0.917216375730894,0.983556631225329,0.873803992966641,0.836791896634776,0.836388827810873,0.836027809860593,0.829470744589577,0.830880752268644,0.828087075479151,0.827215347566852,0.826772395559518,0.826608441160026,0.826399067556874,0.825863171453289,0.823773257477213,0.823578164700429,0.823513023938969,0.824038710911636,0.819104880576682,0.815257894573812,0.816392506144686,0.843257287632246,0.816939098351199,0.803832451681961,0.824212050061227,0.841833254072885,0.822609349780992,0.792987570913135,0.792284793509478,0.792125702562773,0.794264307212539,0.794625752861652,0.813939892235504,0.828220712857343,0.825461792702825,0.824373335651502,0.843522655503135,0.87793813271213,0.851862331994887,0.834682416906117,0.818270018705812,0.809579032462757,0.829946866541999,0.851121139297754,0.848492689284903,0.84516277559935,0.845657820735807,0.845760367772918,0.845879480146125,0.845716095754542,0.833255748519555,0.830672973060589,0.824468710580673,0.820400745484245,0.82184752666622,0.826499125450354,0.855227824223956,0.896226107791026,0.864242436733842,0.855963212797056,0.853345422982854,0.847822122134513,0.839720271635312,0.840637208195618,0.827004202793945,0.81333120899803,0.815943721301629,0.818965745648186,0.828291582706581,0.827259815843699,0.827029314987243,0.824229749929832,0.854332241248094,0.906976945469143,0.817610396785615,0.813960740011009,0.835542557497169,0.880889460081116,0.829558491454997,0.829076958916509,0.827889115763714,0.82752294304658,0.83135998942187,0.836818978281553,0.836889960157075,0.837080530865414,0.83334821405822,0.831427915445289,0.831145130323869,0.831944335115393,0.826686093826504,0.819904073418983,0.825159356397138,0.827819048777772,0.8284944607229,0.831022577519664,0.831919235129792,0.832955463640182,0.833762955701712,0.834732936863516,0.83521639325976,0.83585234871064,0.838681241867185,0.963478172828579,0.921179514504716,0.961971440810012,0.850223821416314,0.849201684746696,0.850825373950214,0.850181104477078,0.849152761888288,0.846692921088571,0.847021193241287,0.847390746881608,0.846130564612372,0.844293500050875,0.842857969247833,0.843170107037885,0.842679009525842,0.881056328323639,0.860241383796887,0.923810917314473,0.842153651946606,0.842458746735541,0.840701183258297,0.838145770148454,0.83947405660847,0.838447892965464,0.840882782880683,0.944234244485881,0.837485837127819,0.834381115832955,0.834142710552969,0.834611318753657,0.837581240872641,0.953881154981661,0.861434633034563
0.807485493676005,0.807027546988738,0.812567506494406,0.821087883024382,0.816490324857267,0.811766149352985,0.812569454950666,0.809949292307217,0.813848373592304,0.814522489016389,0.816668890017834,0.816322717474771,0.817668313799211,0.817175254695061,0.817499566787232,0.816412464816561,0.819115594939357,0.820009455121388,0.821589118986982,0.822380348053265,0.823326526917921,0.824644479327111,0.82634257763973,0.824727320187939,0.824991542656988,0.824586846124598,0.826317755783831,0.853220059043926,0.884669446738336,0.832393705918786,0.834834483033726,0.83291464203353,0.83259736744896,0.826641356451369,0.827381587285145,0.827426189374909,0.828943104599572,0.829498199035655,0.830938398976742,0.832323514103592,0.830850353960351,0.830027323075662,0.829157012641465,0.829381693587389,0.828448265821994,0.829161193489437,0.829499458920569,0.83189890129495,0.833543178527181,0.893857842492448,0.841463249894723,0.854319410444287,0.818917777259312,0.814424587647907,0.815770759557579,0.808736948506591,0.813828910851412,0.811559494993601,0.816684742880788,0.820142523109083,0.82238942546549,0.793682797019694,0.802674522577749,0.815784319067771,0.817847542764468,0.834773837690748,0.828170210811042,0.822798109234415,0.824606789392969,0.825453025395342,0.849090650093485,0.855581488957948,0.862630113355035,0.868691518039598,0.851728911838413,0.835441634585371,0.836017884450694,0.837766546745731,0.853992408590697,0.869898674678489,0.869115771400573,0.869480642396895,0.876660420108898,0.883302590735202,0.861983606901885,0.839362923671588,0.838180102350908,0.838061910077188,0.844158897232057,0.852790542982647,0.865782142569832,0.913460825702015,0.874268229544421,0.87695418540733,0.851878667816119,0.848752795392279,0.837903452187086,0.809274258680614,0.814694817220675,0.81287765441123,0.814891184401763,0.807307234019432,0.827937295944354,0.826399267440801,0.862155616674885,0.898861465264806,0.869982048714978,0.828600985897731,0.819237647527874,0.813452090107854,0.845495084958789,0.865579898446543,0.830457142791281,0.829154155421814,0.828832732547451,0.82793395677237,0.835977791902971,0.837876455737724,0.839541958778474,0.853852161575525,0.848378841187509,0.877006892803309,0.831669157680356,0.823263588139463,0.824089096685155,0.821882225101374,0.824016701160251,0.823897234344406,0.827555520882974,0.833388114487498,0.832899746014416,0.8330351680968,0.833902686485191,0.83512037790757,0.835791556846446,0.835626145972071,0.839689564156141,0.982604060662032,0.899589254031096,0.851260125863606,0.851268560317763,0.851485262720884,0.85261360807031,0.854501561370718,0.851351568561135,0.849842720159074,0.849247304430357,0.848960525361826,0.847437347484048,0.844669993486849,0.844644124510031,0.843353398478037,0.844066490036087,0.845103033775408,0.845134878442731,0.844424721234215,0.843714573440551,0.842975238456549,0.843119078211768,0.843169600032375,0.841991205722776,0.842268246278222,0.84206347109784,0.84168262023147,0.839643846828514,0.837506054574467,0.834941580084078,0.834530218931948,0.839408243669159,0.850318121545142,0.857866125173081
0.809074775918763,0.817680041092297,0.817172324007508,0.822837023607063,0.817360703579585,0.816812285965898,0.814801261962422,0.816007772390798,0.815109802737699,0.817299742791618,0.817096052836438,0.820084032539391,0.818133282116984,0.819295698270509,0.817214143416907,0.817127193858899,0.818792223580762,0.821826900592191,0.821902257651954,0.823236018126667,0.824061516055783,0.82492962114212,0.825933510937487,0.825811431547348,0.825773646022124,0.826791944054218,0.827346361823935,0.954567259114364,0.905425704025139,1.01792894322554,0.836132836493824,0.832612159899113,0.833410211287701,0.82758318054744,0.829521708745289,0.829425296485877,0.82988692556919,0.830156238170363,0.8307880541399,0.832152333615322,0.831229506560393,0.830975337889162,0.829682662184478,0.828075617746586,0.829348058047718,0.830432695953202,0.83037788439683,0.831956900779294,0.833694143712508,0.83774243525756,0.837382355935891,0.818290485397575,0.817999201622207,0.815998955604214,0.828290867868184,0.844036635813576,0.829818139690122,0.810958853045824,0.813327905007441,0.79449857770703,0.826181080809681,0.828058317270948,0.814979235247973,0.804291400348775,0.821563796750978,0.825321127028837,0.83889463712414,0.850964579334899,0.868121576242107,0.893367852776936,0.897736915067411,0.913318496274603,0.902308799426612,0.890755535737903,0.884340236507106,0.870684669324706,0.878974114187363,0.884494330556575,0.896954520248433,0.902968730370176,0.912535250909587,0.92370700035247,0.903843560243006,0.892332040325301,0.895915836539348,0.901825919607193,0.884811229773492,0.866523261319581,0.874411332307329,0.884153746920067,0.875772180474894,0.868157158730896,0.871279383551362,0.849320890110174,0.851159363336232,0.826377504212919,0.836738747833959,0.837326351550459,0.817889832772265,0.814669170409011,0.833959623711136,0.860962997700521,0.874705430016769,0.889056860022249,0.89972557338393,0.904505378008062,0.906364654663119,0.93965764353516,0.86220955497892,0.859758112494069,0.860617416877723,0.860086531607284,0.832234930766388,0.830984611645971,0.829610519106269,0.829274623788893,0.83830241917614,0.843503365787131,0.841799904376035,0.852965601369563,0.848329595781771,0.834506278201114,0.833460524110273,0.904818321738322,0.824384034745155,0.825048664302827,0.824444759188399,0.824772823913492,0.826101687588446,0.833243073652178,0.833326669635849,0.832570984399601,0.834281721117462,0.834747790976502,0.836842431884406,0.841161616189046,0.842167231948355,0.849246101404355,0.873264851658864,0.850226318252275,0.852678779968071,0.854262214752574,0.854985834810321,0.855016665612829,0.853422227032901,0.851371054168955,0.850797409639179,0.850323921597204,0.84745302228661,0.846585067420373,0.844956160397578,0.845063862405643,0.844777750383349,0.845169030322701,0.846526917240349,0.845941462658018,0.845973768503691,0.845947932570653,0.844705421173198,0.84504654200812,0.843984713296847,0.843423623688098,0.845361848430231,0.848722293458291,0.842465053247089,0.837479466360993,0.839258424067999,0.848455895453167,0.843783202882969,0.95361341765654,0.843645091649011
0.812749591087512,0.815303794484778,0.816832312077326,0.970681672133028,0.818278234442922,0.817178997220858,0.817116526940011,0.815765385966711,0.816610712890764,0.815311684963883,0.81810437195766,0.818638330757054,0.818639081591412,0.817091625147756,0.817846660428769,0.81678275386316,0.82035352771202,0.821399129618832,0.823169769399801,0.823113349103562,0.824946803409794,0.826421503942783,0.826445366775747,0.826322771080967,0.826737308834625,0.826740975380028,0.829095772013335,0.837581309104107,0.838043922633034,0.838792153503977,0.837888096895568,0.83876048380242,0.834233786177991,0.832368234016521,0.831345627812143,0.831653809329595,0.830924196445332,0.830611074173206,0.83106582004534,0.831229778017168,0.831291612411846,0.831189373785035,0.829570884063727,0.829609925518414,0.82906793037083,0.830604375316021,0.828526019082531,0.825255135023412,0.834681711870852,0.837599055116487,0.837770321966942,0.819978247655437,0.81848788058437,0.814699133979316,0.848002096366459,0.884793598826177,0.84738924158977,0.809265088442629,0.818068440092525,0.833879629084583,0.828026596768239,0.808828322039892,0.821546720678406,0.841802023695411,0.841659678717296,0.840517976090317,0.858344868503892,0.890257483754376,0.901182955980677,0.908445137419259,0.902491526928171,0.885294791291657,0.906027112151416,0.918486815388429,0.898673598220405,0.875423444817168,0.899573101397359,0.926366110515229,0.921030766128154,0.914310748707777,0.918065039665805,0.922162362878251,0.909845308178641,0.898329280889747,0.898510328147811,0.887674043590217,0.891283412225737,0.895788646932319,0.894682231927077,0.892941159656023,0.899203273756906,0.905168984514426,0.87988984449513,0.863503517352003,0.852535614501984,0.852762459459228,0.834643261952557,0.822006833261891,0.826010569391983,0.828648749421611,0.842405152562217,0.886883788361392,0.886999590224851,0.887623907147561,0.904309078389384,0.910504344273253,0.908845652033093,0.860785821686723,0.865011036483753,0.870481809284188,0.86145320282159,0.837972423075949,0.835083449166294,0.832047517695955,0.837674649702756,0.874889699605095,0.84418071197135,0.843182216716295,0.842113770215068,0.84177153784492,0.845837067825693,0.820414174282447,0.823930711630093,0.846599142546859,0.823119117793108,0.823581632629893,0.823645548214014,0.824276550036203,0.825974908656694,0.858791233414181,0.833762581023446,0.834369944508062,0.834739987390228,0.835129539342915,0.837376687303926,0.84005702975909,0.861439497299211,0.915862493282578,0.879737286863538,0.854064444134062,0.854483728356322,0.857401567395897,0.857193511530085,0.857848652856635,0.854676932273787,0.852368530408785,0.851644217310179,0.852408354250384,0.852880936830247,1.04052764682407,0.956789440852108,1.03485496224806,0.883420102711887,0.846529869101667,0.847163519857178,0.849068835887848,0.847203979781158,0.846417987719612,0.846743152130635,0.845575739566877,0.84643696719971,0.846099811555562,0.847139235299323,0.848390095276644,0.845764240726136,0.844984186775212,0.841968129369926,0.841409823013026,0.840898308875428,0.839704684420095,0.838642034001573
0.813657036317936,0.814729675348056,0.816664589734572,0.818001415599155,0.818315482200363,0.819204506421697,0.817618595316962,0.816993132956938,0.816727494356847,0.817537386747678,0.818016389950639,0.819159100376904,0.818349769148227,0.817738435513582,0.818303748997298,0.82010299714541,0.820931727040315,0.8235376756152,0.823417080764267,0.825219911906755,0.82567568242944,0.826853270124088,0.827027477836606,0.827114079504828,0.827336589008372,0.828107707593542,0.830818750180586,0.837504240153169,0.837809344233642,0.838431590650114,0.838993491386061,0.841116683558557,0.834531278901603,0.83373019486989,0.833469907877819,0.831923060897572,0.831853991226816,0.830817934278435,0.830909298524701,0.830451003264225,0.831282232427107,0.852321795526521,0.829297505436912,0.828889599140238,0.828253159586561,0.82897017832515,0.829260707279197,0.828081918847375,0.835341652281635,0.836699038605481,0.838682024811277,0.839038209677628,0.842040289948076,0.863985223386004,0.869303660897776,0.886348640730747,0.869965618299454,0.868182644974275,0.848701178311051,0.842717285775314,0.834459736370585,0.827314180329448,0.827768763031817,0.829412859704861,0.849260443152808,0.867407250968021,0.872367756817288,0.876206462631504,0.906600050677008,0.918181945251119,0.914481453202226,0.910790839785416,0.920640237340488,0.932442969670148,0.916159051916753,0.905357673001459,0.914571047010927,0.937982788818531,0.92386534299746,0.911169086801929,0.921422851070989,0.921969458672848,0.923773654368039,0.926618300826134,0.909986930873813,0.9002432985306,0.908207593217108,0.916068240572246,0.935382386242202,0.955855767815912,0.922703076760837,0.89156828501994,0.886244862185259,0.837423970505818,0.843536659311123,0.826608701791177,0.834409232045168,0.859464721034209,0.834416970626274,0.833229913484084,0.850465646956345,0.868599055199724,0.895535027456093,0.912139143465254,0.911179534841884,0.911224973909091,0.910088228036837,0.893363615644364,0.878913128805743,0.86109704496403,0.861358980552008,0.852727225583293,0.853293154080572,0.853508359224262,0.847900010128333,0.842176658303249,0.843801105135031,0.844068407749073,0.842373759801531,0.886185560677483,0.845203806201531,0.819022898875919,0.822428047708796,0.892996075937156,0.821390714924653,0.820428501114657,0.821061124476394,0.829399156940079,0.826413696459309,0.823633997208536,0.833559561256659,0.859420543275356,0.83544632686983,0.835685120374968,0.837649047799585,0.840148885796918,0.862163613189582,1.09868521391528,0.884217810992952,0.880462061272808,0.862170125162573,0.858879307636811,0.858380797258802,0.858026111781682,0.855795180098958,0.85286320121315,0.852445661899077,0.851450163372146,0.852524979825555,0.853591448562398,0.921844703686322,0.891128601607577,0.884015718582859,0.941866485809579,0.848954262793736,0.848374087391445,0.848824540119193,0.848070243656539,0.848080324281624,0.848790415415613,0.848010711582117,0.848813346483403,0.84842294099662,0.849182770100543,0.846765139650131,0.845296321853274,0.842677692718761,0.840592748091494,0.840237846481601,0.838543313978088,0.839092221654266
0.81668030635044,0.818700627154758,0.818968320079422,0.818306134270704,0.820064454705187,0.819658232947012,0.821345683008109,0.852407736182834,0.82048336146572,0.817708104821293,0.819869125544703,0.819201132465997,0.818835317145125,0.818835404360157,0.819343231890715,0.820608696456261,0.82306140793924,0.821460435898788,0.825232123683137,0.825171477521233,0.827410163946516,0.828015353615557,0.82864520498429,0.828484261190486,0.829422540921891,0.829615246393987,0.832800221363008,0.835390175086559,0.837006002517737,0.837415765751657,0.837946489833592,0.837909945242358,0.836437438609391,0.836117764256918,0.836214533532989,0.836689891238585,0.833377762913101,0.833490475674704,0.830850876324621,0.829011079485416,0.831866720532646,0.833873151123283,0.824387498015235,0.812346783303488,0.825088484040585,0.829401163572961,0.830061954157328,0.829192264728615,0.834805155402402,0.844167001064437,0.842200683883489,0.823417907333742,0.843242681116747,0.855214880317466,0.873488551350323,0.873511591898668,0.871906408275118,0.859112708893363,0.85498724325983,0.850471457758954,0.854051900732489,0.858046097603356,0.85275436769362,0.8464046757981,0.854547439323524,0.868673695055494,0.88743413245858,0.918217627843486,0.920918330099989,0.924853802800757,0.92992758776092,0.935184670905676,0.932769000831,0.930074040363862,0.919871104543982,0.912820600114902,0.918182130157327,0.927164009549743,0.927272274901073,0.927582481470128,0.934441064661085,0.939479851320099,0.926300118721225,0.909985938390366,0.947673959424253,0.977098853860123,0.961196634527611,0.939449303830249,0.954867450044731,0.992016882309307,0.945856699506014,0.928914644009257,0.906574113856119,0.866219714671533,0.851580786261308,0.835207333163245,0.835673775544148,0.837968555150706,0.835295421661082,0.833563710295611,0.856969342633174,0.866146460013162,0.900070951569077,0.903287027667538,0.914977813487823,0.931126856454049,0.915314996464312,0.883815339370495,0.892528763816055,0.89842514979634,0.878886818553995,0.852804175726623,0.853672202073893,0.854908113802577,0.851321447891351,0.843507230937382,0.842947589251738,0.841627031030944,0.841999910265747,0.84154556061479,0.84286913638545,0.819859444338984,0.821037739179592,0.82040700430696,0.819707717853976,0.819658927513724,0.81951485786758,0.829876925293919,0.827691307307725,0.824258490335598,0.832463630799239,0.833872725963803,0.834896218275059,0.835780445828238,0.836466662181203,0.842541693842447,0.864875409169549,0.974968258407222,0.893081191877009,0.913782522727785,0.866343584594937,0.866494362643649,0.859146854828642,0.856235716617294,0.856143579161799,0.854733093067796,0.852319788505432,0.852168066071247,0.856320186688834,0.967644494303782,0.935463991692398,1.01162037518713,0.878988351475852,0.849779996253113,0.849644228290057,0.851016217761916,0.849996660781906,0.850828984331458,0.850137537931136,0.849790007282684,0.850130128000478,0.849972572690997,0.850083886506395,0.84958070624589,0.847836428052376,0.845236115959278,0.843173123781574,0.840695413834471,0.839598272234016,0.839228339099042,0.838906787704485
