1.24983, 1.24984, 1.24681, 1.12973, 1.12993, 1.11327, 1.08818, 1.08607, 1.08117, 1.06293, 1.06993, 1.06928, 1.07172, 1.07167, 1.07033, 1.06982, 1.07299, 1.06941, 1.06839, 1.06933, 1.07147, 1.07425, 1.077, 1.07016, 1.07016, 1.06917, 1.06984, 1.07045, 1.07211, 1.06678, 1.06496, 1.06311, 1.06062, 1.05961, 1.0678, 1.0736, 1.07225, 1.08166, 1.08218, 1.08398, 1.08534, 1.09058, 1.09125, 1.09337, 1.09622, 1.09269, 1.09128, 1.09107, 1.08903, 1.08782, 1.11709, 1.08425, 1.1436, 1.10642, 1.12396, 1.22869, 1.31083, 1.31452, 1.31429, 1.30578, 1.32701, 1.33711, 1.33629, 1.34346, 1.35164, 1.37845, 1.38142, 1.38537, 1.39703, 1.40339, 1.40518, 1.42777, 1.5324, 1.53509, 1.52098, 1.51112, 1.58946, 1.57361, 1.59543, 1.593, 1.74097, 1.65496, 1.64706, 1.68192, 1.71987, 1.69408, 1.69598, 1.68949, 1.76127, 1.77424, 1.94561, 1.93819, 1.97388, 1.91298, 1.98308, 1.98247, 2.01991, 1.92491, 1.83122, 1.77661, 1.73665, 1.69944, 1.68181, 1.68149, 1.68151, 1.69215, 1.72619, 1.68732, 1.64884, 1.71419, 1.5904, 1.53161, 1.47818, 1.47947, 1.45934, 1.40269, 1.3633, 1.36157, 1.34648, 1.34479, 1.32956, 1.31116, 1.24664, 1.18605, 1.17585, 1.19163, 1.19267, 1.20118, 1.12684, 1.10145, 1.15264, 1.17006, 1.17057, 1.13096, 1.12965, 1.12854, 1.12583, 1.12564, 1.12517, 1.12331, 1.12181, 1.11941, 1.12089, 1.115, 1.11592, 1.11799, 1.11713, 1.11823, 1.11819, 1.11811
1.31738, 1.29805, 1.2367, 1.12888, 1.12921, 1.11428, 1.09708, 1.08444, 1.07892, 1.063, 1.07043, 1.07091, 1.07212, 1.26006, 1.10144, 1.07023, 1.07228, 1.07034, 1.06897, 1.07032, 1.07459, 1.0756, 1.07687, 1.07422, 1.07435, 1.06936, 1.07008, 1.07315, 1.06905, 1.06649, 1.06652, 1.06616, 1.06511, 1.06702, 1.06832, 1.07256, 1.07316, 1.08234, 1.08303, 1.08763, 1.08726, 1.09114, 1.09429, 1.09492, 1.0974, 1.09244, 1.09159, 1.09275, 1.0939, 1.09172, 1.09406, 1.0788, 1.0845, 1.14735, 1.14774, 1.24676, 1.28585, 1.31659, 1.31572, 1.32659, 1.30885, 1.3301, 1.33009, 1.34823, 1.36559, 1.36506, 1.40575, 1.40955, 1.4653, 1.41258, 1.44148, 1.45148, 1.52612, 1.57098, 1.54577, 1.54346, 1.58543, 1.62873, 1.58264, 1.5725, 1.6539, 1.65125, 1.64843, 1.7338, 1.7766, 1.69978, 1.69568, 1.72693, 1.71966, 1.76881, 0.00436161, 1.94069, 1.94711, 2.04271, 1.96981, 1.98224, 1.97809, 1.88853, 1.77822, 1.79294, 1.74044, 1.86231, 1.68239, 1.68243, 1.67938, 1.66512, 1.66835, 1.65677, 2.05738, 1.7199, 1.57812, 1.50916, 1.491, 1.4703, 1.45524, 1.39444, 1.36077, 1.36115, 1.35783, 1.35473, 1.34316, 1.34303, 1.26398, 1.23743, 1.19187, 1.1921, 1.17118, 1.12899, 1.11477, 1.09768, 1.10192, 1.14865, 1.16868, 1.1574, 1.13084, 1.12836, 1.12776, 1.126, 1.12494, 1.12239, 1.12232, 1.11859, 1.12027, 1.11529, 1.11712, 1.11839, 1.11879, 1.11948, 1.11891, 1.11755
1.233, 1.26858, 1.22811, 1.13184, 1.12759, 1.11236, 1.10342, 1.08533, 1.07891, 1.07396, 1.07079, 1.07269, 1.07332, 1.06388, 1.07771, 1.06938, 1.07394, 1.07225, 1.07048, 1.07137, 1.07494, 1.07513, 1.07528, 1.0804, 1.07349, 1.07385, 1.07313, 1.07081, 1.07027, 1.0672, 1.06811, 1.06897, 1.06726, 1.06803, 1.07077, 1.07218, 1.0771, 1.08143, 1.08467, 1.08956, 1.09039, 1.09232, 1.09716, 1.09763, 1.09896, 1.12381, 1.11881, 1.09441, 1.09466, 1.09428, 1.09397, 1.13681, 1.13729, 1.21228, 1.16113, 1.22625, 1.30561, 1.40589, 1.34804, 1.33681, 1.30838, 1.32976, 1.32825, 1.36777, 1.35099, 1.40179, 1.39519, 1.41727, 1.42254, 1.41307, 1.45899, 1.46491, 1.48936, 1.55985, 1.50222, 1.54434, 1.51589, 1.64532, 1.58133, 1.6283, 1.65099, 1.6496, 1.6878, 1.72128, 1.70286, 1.70894, 1.69544, 1.72498, 1.72681, 1.75822, 1.9426, 1.94179, 1.93988, 1.99803, 1.97015, 1.96939, 1.99873, 1.85687, 1.76252, 1.75994, 1.86161, 1.85993, 1.67968, 1.6829, 1.67641, 1.66857, 1.66248, 1.65666, 1.63466, 1.62933, 1.62965, 1.52839, 1.4927, 1.49578, 1.44387, 1.43736, 1.37174, 1.36159, 1.36818, 1.37898, 1.35221, 1.32381, 1.30304, 1.24865, 1.19677, 1.1979, 1.17658, 1.14474, 1.15992, 1.157, 1.16442, 1.19187, 1.17101, 1.13918, 1.13197, 1.3093, 1.22452, 1.12272, 1.12349, 1.12183, 1.12083, 1.11876, 1.11881, 1.12006, 1.11697, 1.11875, 1.11785, 1.1197, 1.11876, 1.11894
1.23092, 1.22546, 1.1852, 1.27843, 1.12548, 1.11087, 1.132, 1.08646, 1.08121, 1.0733, 1.07174, 1.07111, 1.07498, 1.07531, 1.07233, 1.07077, 1.07023, 1.07096, 1.07074, 1.07685, 1.07564, 1.07611, 1.07804, 1.08022, 1.08098, 1.06854, 1.06991, 1.07031, 1.07192, 1.06769, 1.06815, 1.06993, 1.06949, 1.07467, 1.0725, 1.07349, 1.07698, 1.07914, 1.08712, 1.32739, 1.09401, 1.09611, 1.09907, 1.09952, 1.10003, 1.09929, 1.12272, 1.16644, 1.15033, 1.10479, 1.10348, 1.09664, 1.12954, 1.15674, 1.17395, 1.26405, 1.32101, 1.3664, 1.336, 1.33467, 1.323, 1.34319, 1.33135, 1.33048, 1.37262, 1.3771, 1.42254, 1.41078, 1.41077, 1.50193, 1.46187, 1.46529, 1.56013, 1.49549, 1.50454, 1.57361, 1.51498, 1.51493, 1.61046, 1.65664, 1.64717, 1.65487, 1.67259, 1.69905, 1.69916, 1.69828, 1.69191, 1.70739, 1.72385, 1.76423, 1.97865, 1.94289, 1.93401, 2.01163, 0.00474372, 2.05181, 1.97223, 1.82752, 1.76248, 1.76155, 1.86389, 1.86222, 1.67846, 1.67154, 1.67557, 1.68246, 1.65432, 1.65022, 1.66511, 1.59513, 1.55071, 1.63822, 1.48517, 1.46099, 1.49456, 1.41162, 1.35708, 1.34938, 1.35266, 1.34989, 1.41943, 1.33488, 1.2727, 1.23783, 1.29762, 1.18859, 1.192, 1.1651, 1.15023, 1.15429, 1.10652, 1.14435, 1.14169, 1.15982, 1.26544, 1.14424, 1.14063, 1.12136, 1.12379, 1.12282, 1.11895, 1.11823, 1.12392, 1.12255, 1.1324, 1.11936, 1.11908, 1.12152, 1.12177, 1.12134
1.22158, 1.22874, 1.22939, 1.26243, 1.12543, 1.11466, 1.12927, 1.08397, 1.08287, 1.07364, 1.07193, 1.0697, 1.07171, 1.07228, 1.07222, 1.07149, 1.06993, 1.07021, 1.07213, 1.07657, 1.07728, 1.07858, 1.08055, 1.08086, 1.08378, 1.06894, 1.07022, 1.07073, 1.07219, 1.07049, 1.06667, 1.06418, 1.05805, 1.07331, 1.07339, 1.07413, 1.07995, 1.08229, 1.0855, 1.09718, 1.09599, 1.10095, 1.1011, 1.10231, 1.10109, 1.10505, 1.45413, 1.24929, 1.10447, 1.11206, 1.0956, 1.1085, 1.10609, 1.14773, 1.1772, 1.25773, 1.25733, 1.34648, 1.33261, 1.33131, 1.32195, 1.3339, 1.33736, 1.34383, 1.38279, 1.39541, 1.41714, 1.41095, 1.41148, 1.49629, 1.47122, 1.54966, 1.71426, 1.49498, 1.50572, 1.56181, 1.51851, 1.54908, 1.5969, 1.61755, 1.64417, 1.67281, 1.66527, 1.68642, 1.69536, 1.69648, 1.692, 1.69238, 1.73364, 1.80387, 1.82077, 1.933, 1.93104, 2.01011, 2.07894, 2.0518, 1.87751, 1.84504, 1.76147, 1.77208, 1.77318, 1.73209, 1.69776, 1.67145, 1.66763, 1.69533, 1.64442, 1.60691, 1.57369, 1.55461, 1.55713, 1.54076, 1.46538, 1.53209, 1.50493, 1.48203, 1.38396, 1.34707, 1.35121, 1.34236, 1.31311, 1.29515, 1.24831, 1.25656, 1.20335, 1.19113, 1.19478, 1.18251, 1.13175, 1.12074, 1.13409, 1.1366, 1.12326, 1.16532, 1.14931, 1.14104, 1.14297, 1.14346, 1.12801, 1.12757, 1.25913, 1.12157, 1.14206, 1.16012, 1.12791, 1.1272, 1.11002, 1.1263, 1.12288, 1.12167
1.21831, 1.33368, 1.18434, 1.2575, 1.12174, 1.1104, 1.1296, 1.08723, 1.07807, 1.07061, 1.06627, 1.06842, 1.07073, 1.07217, 1.0753, 1.07628, 1.07248, 1.0734, 1.07423, 1.07519, 1.0778, 1.08026, 1.08173, 1.08146, 1.08323, 1.08348, 1.07037, 1.07105, 1.07148, 1.07099, 1.06803, 1.25314, 1.07774, 1.06966, 1.07325, 1.08013, 1.07901, 1.0814, 1.08222, 1.33303, 1.09669, 1.10097, 1.09991, 1.10504, 1.36463, 1.10803, 1.108, 1.15063, 1.10448, 1.11175, 1.10964, 1.08297, 1.09201, 1.14497, 1.20032, 1.2484, 1.29879, 1.35369, 1.31717, 1.32969, 1.32815, 1.34775, 1.39633, 1.37373, 1.41617, 1.37673, 1.3887, 1.46193, 1.44755, 1.46856, 1.47472, 1.54138, 1.50982, 1.51858, 1.50645, 1.51313, 1.52002, 1.52375, 1.57551, 1.62139, 1.64178, 1.6711, 1.6496, 1.68572, 1.69701, 1.69543, 1.76535, 1.70151, 1.73036, 1.8205, 1.8174, 1.85872, 1.93145, 2.02832, 1.98333, 1.9411, 1.93924, 1.82371, 1.7523, 1.75789, 1.75549, 1.80921, 1.70298, 1.74296, 1.66002, 1.68737, 1.6411, 1.58667, 1.54386, 1.56668, 1.52735, 1.52466, 1.46479, 1.46447, 1.48251, 1.45439, 1.37476, 1.35565, 1.31673, 1.31561, 1.32014, 1.26378, 1.23748, 1.23683, 1.2031, 1.19266, 1.17615, 1.26009, 1.21542, 1.14633, 1.10814, 1.15825, 1.17118, 1.16152, 1.13717, 1.13734, 1.13666, 1.14409, 1.1363, 1.13157, 1.15533, 1.14427, 1.13691, 1.16164, 1.11614, 1.1166, 1.129, 1.11302, 1.11302, 1.12711
1.34676, 1.19949, 1.27829, 1.29705, 1.11736, 1.11729, 1.13032, 1.12927, 1.07515, 1.06985, 1.07136, 1.06935, 1.06941, 1.07289, 1.07565, 1.07911, 1.07361, 1.06997, 1.0811, 1.08059, 1.08081, 1.08321, 1.08147, 1.08183, 1.08391, 1.0825, 1.07163, 1.07155, 1.07166, 1.07403, 1.12691, 1.12518, 1.07099, 1.0785, 1.07578, 1.0779, 1.07847, 1.08206, 1.08096, 1.09237, 1.09485, 1.10074, 1.10263, 1.10531, 1.10731, 1.10961, 1.10667, 1.10756, 1.10646, 1.10361, 1.11317, 1.08048, 1.0983, 1.13631, 1.18503, 1.28094, 1.27382, 1.32963, 1.30657, 1.33094, 1.32996, 1.32898, 1.43654, 1.43183, 1.38322, 1.38867, 1.38905, 1.47542, 1.47242, 1.45534, 1.57133, 1.57301, 1.51179, 1.49344, 1.49496, 1.52219, 1.55068, 1.57465, 1.6546, 1.61729, 1.63435, 1.63304, 1.64391, 1.69378, 1.69633, 1.7515, 1.77698, 1.74663, 1.76192, 1.81659, 1.81634, 1.88631, 1.91017, 1.93812, 2.02805, 0.00466103, 1.86434, 1.79012, 1.74795, 1.74291, 1.72378, 1.72442, 1.70329, 1.66194, 1.67287, 1.64594, 1.62446, 1.61267, 1.5655, 1.51676, 1.51451, 1.45427, 1.45322, 1.48235, 1.49591, 1.4836, 1.38567, 1.35344, 1.36395, 1.3669, 1.27369, 1.24723, 1.25138, 1.25104, 1.17554, 1.17144, 1.18412, 1.18844, 1.14868, 1.16029, 1.11315, 1.11958, 1.15721, 1.30284, 1.13764, 1.13647, 1.13591, 1.27873, 1.13746, 1.13944, 1.20547, 1.13794, 1.13685, 1.13549, 1.12622, 1.12901, 1.1234, 1.12236, 1.12471, 1.13033
1.20174, 1.18778, 1.18371, 1.26859, 1.12392, 1.11862, 1.23363, 1.07483, 1.07647, 1.07418, 1.07327, 1.07317, 1.06995, 1.07542, 1.07967, 1.0803, 1.07856, 1.21627, 1.08159, 1.08181, 1.08134, 1.08362, 1.08416, 1.0855, 1.08463, 1.07728, 1.077, 1.07161, 1.12826, 1.32459, 1.32702, 1.08461, 1.0845, 1.08071, 1.08046, 1.08022, 1.07859, 1.08554, 1.10946, 1.09268, 1.09317, 1.09936, 1.10532, 1.10738, 1.10665, 1.1112, 1.10614, 1.10656, 1.10394, 1.10266, 1.12931, 1.08976, 1.09421, 1.14476, 1.17923, 1.25761, 1.2743, 1.2856, 1.29959, 1.32926, 1.33184, 1.33232, 1.38451, 1.43666, 1.40999, 1.4211, 1.38802, 1.38892, 1.47099, 1.45665, 1.47827, 1.50179, 1.55431, 1.49947, 1.49868, 1.53392, 1.55214, 1.54774, 1.58113, 1.63807, 1.63469, 1.63343, 1.67877, 1.69013, 1.72503, 1.78688, 1.75883, 1.74112, 1.7407, 1.86687, 1.82523, 1.83724, 1.90711, 1.94555, 1.98484, 1.94832, 1.8833, 1.74585, 1.74557, 1.74371, 1.72571, 1.73185, 1.71688, 1.7024, 1.70346, 1.64575, 1.60283, 1.61688, 1.5491, 1.5567, 1.54012, 1.49059, 1.46049, 1.47952, 1.46843, 1.40684, 1.36048, 1.36019, 1.33736, 1.33851, 1.33303, 1.28799, 1.23891, 1.23076, 1.1966, 1.17502, 1.17083, 1.16151, 1.13945, 1.19915, 1.17872, 1.12536, 1.15113, 1.17405, 1.13789, 1.1365, 1.13511, 1.15336, 1.13871, 1.14243, 1.14445, 1.13893, 1.139, 1.12522, 1.12575, 1.12801, 1.1285, 1.12386, 1.12533, 1.13236
1.35486, 1.18415, 1.26744, 1.28105, 1.12271, 1.11751, 1.10766, 1.13333, 1.08062, 1.07576, 1.07547, 1.07436, 1.07215, 1.0757, 1.07739, 1.07865, 1.08029, 1.07959, 1.08261, 1.07727, 1.07769, 1.08374, 1.08426, 1.08718, 1.08697, 1.41552, 1.13945, 1.32707, 1.29866, 1.07768, 1.09706, 1.08582, 1.08738, 1.08452, 1.09742, 1.32465, 1.08248, 1.08593, 1.21587, 1.09452, 1.09418, 1.09854, 1.105, 1.10538, 1.10647, 1.1119, 1.10587, 1.10573, 1.10375, 1.10096, 1.10285, 1.16049, 1.12371, 1.1359, 1.17825, 1.28877, 1.34142, 1.28731, 1.30888, 1.32087, 1.32806, 1.40266, 1.45025, 1.4058, 1.40824, 1.39028, 1.39258, 1.45739, 1.47573, 1.47877, 1.47666, 1.49858, 1.50947, 1.49905, 1.48975, 1.52411, 1.54983, 1.54607, 1.59647, 1.59979, 1.65447, 1.63163, 1.67203, 1.71931, 1.74141, 1.75064, 1.87265, 1.74082, 1.73404, 1.81508, 1.87907, 1.85614, 1.88993, 1.89652, 1.97047, 0.0044624, 1.84649, 1.7472, 1.74615, 1.74496, 1.72662, 1.73285, 1.70338, 1.7023, 1.7416, 1.67183, 1.60551, 1.62172, 1.55203, 1.54368, 1.55928, 1.49745, 1.46123, 1.46353, 1.45695, 1.37509, 1.37087, 1.37115, 1.34157, 1.37561, 1.29272, 1.33181, 1.22279, 1.18264, 1.20183, 1.17367, 1.17384, 1.13958, 1.1311, 1.17228, 1.14271, 1.16341, 1.16675, 1.1675, 1.1369, 1.13662, 1.13673, 1.13666, 1.13901, 1.14696, 1.14035, 1.13251, 1.13123, 1.12246, 1.12596, 1.12728, 1.12842, 1.12538, 1.12722, 1.13017
1.3574, 1.18218, 1.32097, 1.26847, 1.26772, 1.11681, 1.10807, 1.088, 1.08546, 1.08395, 1.07793, 1.07619, 1.0741, 1.07587, 1.07922, 1.07785, 1.0803, 1.08274, 1.08376, 1.08378, 1.34402, 1.08566, 1.08715, 1.08939, 1.08663, 1.14377, 1.07888, 1.41962, 1.07919, 1.08061, 1.3713, 1.09144, 1.09095, 1.08742, 1.08709, 1.08897, 1.09033, 1.09097, 1.09397, 1.09494, 1.09495, 1.09828, 1.10416, 1.10341, 1.11317, 1.11179, 1.10895, 1.10646, 1.10281, 1.10129, 1.14239, 1.0995, 1.13301, 1.15042, 1.20863, 1.28676, 1.28552, 1.35256, 1.31913, 1.33281, 1.35367, 1.35678, 1.37084, 1.38978, 1.39336, 1.39466, 1.39352, 1.46844, 1.43149, 1.43138, 1.43672, 1.43703, 1.53493, 1.49576, 1.50425, 1.52815, 1.54309, 1.53844, 1.59055, 1.65618, 1.65488, 1.68007, 1.67196, 1.74212, 1.74284, 1.75093, 1.786, 1.75096, 1.76284, 1.83518, 1.91004, 1.8793, 1.91451, 1.91592, 2.19344, 0.00454139, 1.88618, 1.87207, 1.74547, 1.77629, 1.78526, 1.70829, 1.70656, 1.70267, 1.73358, 1.76837, 1.6088, 1.60818, 1.57289, 1.57275, 1.52013, 1.51312, 1.5088, 1.45147, 1.37456, 1.37414, 1.38202, 1.37965, 1.34401, 1.32835, 1.37807, 1.24073, 1.23262, 1.17639, 1.17731, 1.17684, 1.18082, 1.13261, 1.13094, 1.13791, 1.16048, 1.16183, 1.16591, 1.17666, 1.21631, 1.13797, 1.13788, 1.13801, 1.1402, 1.14163, 1.16069, 1.13184, 1.12966, 1.12389, 1.12739, 1.13189, 1.13197, 1.13135, 1.12959, 1.13141
1.34636, 1.56518, 1.17183, 1.32635, 1.12282, 1.11877, 1.09892, 1.09868, 1.08652, 1.08234, 1.08028, 1.07687, 1.0772, 1.07861, 1.08183, 1.23768, 1.24287, 1.08386, 1.08411, 1.08474, 1.08721, 1.08678, 1.08681, 1.08837, 1.08954, 1.13761, 1.08199, 1.2286, 1.08356, 1.08136, 1.2197, 1.09448, 1.09188, 1.08697, 1.08689, 1.09058, 1.09074, 1.09195, 1.09487, 1.09653, 1.30528, 1.10428, 1.10329, 1.10163, 1.11119, 1.11067, 1.11008, 1.10466, 1.10334, 1.09836, 1.10506, 1.11242, 1.09872, 1.1342, 1.19749, 1.28283, 1.29934, 1.31229, 1.32893, 1.33155, 1.33181, 1.35099, 1.37398, 1.37403, 1.3927, 1.39302, 1.39542, 1.42353, 1.43218, 1.4915, 1.49676, 1.48317, 1.481, 1.49624, 1.53331, 1.55703, 1.60264, 1.60364, 1.58601, 1.65639, 1.65401, 1.65218, 1.73406, 1.7487, 1.74192, 1.74039, 1.72032, 1.75068, 1.77121, 1.83786, 1.90275, 1.92907, 1.95041, 1.90282, 1.90118, 0.00460809, 1.85104, 1.81047, 1.7865, 1.7749, 1.71119, 1.71072, 1.72656, 1.73216, 1.72537, 1.76714, 1.61607, 1.61188, 1.70296, 1.57224, 1.58933, 1.52353, 1.53009, 1.45364, 1.43369, 1.37129, 1.39915, 1.35837, 1.35415, 1.30013, 1.27436, 1.31436, 1.24096, 1.18485, 1.19344, 1.1796, 1.15458, 1.13554, 1.12886, 1.14004, 1.15299, 1.17799, 1.17704, 1.16563, 1.20871, 1.13896, 1.1371, 1.13837, 1.14162, 1.14247, 1.14167, 1.13466, 1.13389, 1.13098, 1.13068, 1.13098, 1.13261, 1.13255, 1.1319, 1.13389
1.1999, 1.30194, 1.3028, 1.48882, 1.26774, 1.11641, 1.10484, 1.09803, 1.08848, 1.08347, 1.08066, 1.07826, 1.07763, 1.08023, 1.08493, 1.08711, 1.20473, 1.08663, 1.08711, 1.08609, 1.08829, 1.08771, 1.08862, 1.08739, 1.08841, 1.082, 1.1204, 1.10774, 1.0889, 1.0905, 1.09271, 1.09503, 1.09437, 1.09116, 1.08758, 1.08962, 1.09205, 1.09318, 1.09259, 1.09822, 1.10179, 1.10496, 1.10303, 1.10221, 1.10989, 1.11125, 1.10867, 1.10798, 1.10371, 1.10429, 1.10617, 1.10355, 1.10098, 1.16113, 1.20932, 1.27044, 1.35009, 1.34088, 1.35942, 1.34329, 1.33482, 1.36539, 1.43906, 1.43613, 1.38987, 1.41471, 1.42092, 1.44988, 1.51495, 1.41387, 1.45222, 1.45485, 1.47122, 1.5161, 1.53097, 1.55975, 1.5661, 1.5784, 1.61454, 1.65337, 1.66132, 1.69619, 1.75909, 1.74748, 1.74739, 1.76923, 1.71856, 1.71616, 1.77095, 1.78544, 1.8723, 1.8995, 1.93766, 1.90325, 1.90245, 1.87932, 1.80345, 1.83347, 1.83642, 1.77464, 1.71092, 1.73095, 1.76651, 1.72291, 1.72444, 1.68546, 1.69033, 1.60626, 1.57068, 1.57103, 1.57852, 1.52788, 1.53109, 1.45032, 1.49395, 1.49325, 1.41496, 1.31635, 1.35391, 1.32399, 1.29755, 1.27901, 1.21827, 1.19921, 1.21214, 1.19194, 1.17833, 1.13657, 1.12216, 1.1432, 1.20188, 1.15497, 1.1604, 1.1646, 1.16542, 1.13568, 1.1357, 1.13776, 1.14241, 1.14325, 1.14086, 1.13421, 1.13489, 1.13213, 1.1329, 1.13333, 1.13453, 1.13238, 1.13275, 1.13535
1.39325, 1.17129, 1.15399, 1.33409, 1.12607, 1.11919, 1.11145, 1.09543, 1.09086, 1.08447, 1.08203, 1.07526, 1.07989, 1.08048, 1.08818, 1.08776, 1.08733, 1.0883, 1.0883, 1.08955, 1.09259, 1.0881, 1.08782, 1.08716, 1.08499, 1.08404, 1.28651, 1.38148, 1.09499, 1.09488, 1.0943, 1.09445, 1.09405, 1.09346, 1.09084, 1.09349, 1.3077, 1.09524, 1.09744, 1.10051, 1.10462, 1.108, 1.10178, 1.10334, 1.113, 1.11263, 1.10828, 1.10881, 1.11005, 1.15303, 1.16308, 1.12406, 1.10375, 1.16377, 1.20814, 1.28953, 1.34609, 1.33658, 1.33129, 1.34491, 1.33288, 1.34471, 1.36355, 1.44193, 1.42724, 1.42836, 1.4319, 1.46318, 1.46406, 1.44358, 1.44689, 1.46639, 1.48191, 1.52305, 1.53008, 1.53244, 1.61741, 1.62735, 1.6151, 1.61242, 1.61951, 1.64251, 1.72436, 1.74958, 1.7471, 1.72503, 1.72202, 1.71613, 1.77804, 1.81158, 1.87288, 1.80987, 1.93591, 1.90298, 1.90282, 1.87186, 1.8067, 1.8387, 1.83937, 1.73735, 1.74222, 1.72162, 1.7425, 1.72381, 1.71201, 1.69271, 1.6719, 1.65522, 1.60469, 1.59341, 1.55401, 1.53329, 1.50972, 1.49047, 1.43437, 1.35478, 1.37794, 1.31869, 1.32312, 1.31567, 1.28925, 1.28975, 1.21331, 1.25613, 1.20093, 1.20151, 1.19079, 1.13009, 1.12552, 1.16335, 1.139, 1.15359, 1.16196, 1.16418, 1.16686, 1.13996, 1.14048, 1.13943, 1.14292, 1.14406, 1.14333, 1.13567, 1.13667, 1.1345, 1.13319, 1.1333, 1.1355, 1.13414, 1.13397, 1.13622
1.17984, 1.1692, 1.15394, 1.14014, 1.1214, 1.11732, 1.10912, 1.1016, 1.09279, 1.09243, 1.17049, 1.07591, 1.10197, 1.37041, 1.08946, 1.09031, 1.08897, 1.09096, 1.09097, 1.09392, 1.09418, 1.0889, 1.08873, 1.08719, 1.08532, 1.08628, 1.1191, 1.09617, 1.09728, 1.09767, 1.09589, 1.09483, 1.09461, 1.09444, 1.09818, 1.09557, 1.09707, 1.09859, 1.10071, 1.10227, 1.10901, 1.10952, 1.10215, 1.27459, 1.11462, 1.11376, 1.11218, 1.1106, 1.11136, 1.10944, 1.10979, 1.17379, 1.12687, 1.21575, 1.28443, 1.32402, 1.3229, 1.33444, 1.36894, 1.34711, 1.33355, 1.36168, 1.36373, 1.3657, 1.5059, 1.53674, 1.45909, 1.61942, 1.43133, 1.4313, 1.44745, 1.46719, 1.50239, 1.52657, 1.53441, 1.5353, 1.63868, 1.62073, 1.62252, 1.6123, 1.63783, 1.62987, 1.72187, 1.72138, 1.75514, 1.72302, 1.72183, 1.80088, 1.76454, 1.77091, 1.76977, 1.88671, 1.97054, 2.2323, 2.22126, 0.00445724, 1.8246, 1.83823, 1.74713, 1.73773, 1.73704, 1.7572, 1.75712, 1.75286, 1.69525, 1.69293, 1.66512, 1.68607, 1.61534, 1.61411, 1.56669, 1.54532, 1.51932, 1.49172, 1.45379, 1.37575, 1.37789, 1.31797, 1.3201, 1.37474, 1.32665, 1.32671, 1.24718, 1.21598, 1.21613, 1.19689, 1.17052, 1.13785, 1.12015, 1.13051, 1.15771, 1.13983, 1.15354, 1.16531, 1.16261, 1.25502, 1.14119, 1.14272, 1.14396, 1.14501, 1.14306, 1.13585, 1.13572, 1.13505, 1.13348, 1.1354, 1.13546, 1.13583, 1.13484, 1.13779
1.17886, 1.26386, 1.15577, 1.13581, 1.1221, 1.11789, 1.11131, 1.10512, 1.09389, 1.09429, 1.14351, 1.09948, 1.11227, 1.18256, 1.21232, 1.09115, 1.0913, 1.09245, 1.09418, 1.09576, 1.09546, 1.08896, 1.08854, 1.08433, 1.08529, 1.10741, 1.1078, 1.09716, 1.09773, 1.0989, 1.09791, 1.0971, 1.0963, 1.09762, 1.0976, 1.09795, 1.09947, 1.10107, 1.10384, 1.1058, 1.10949, 1.27251, 1.31396, 1.11247, 1.11446, 1.12211, 1.11306, 1.11432, 1.11232, 1.11135, 1.10471, 1.12374, 1.12323, 1.11227, 1.18416, 1.22661, 1.30503, 1.3804, 1.33355, 1.34172, 1.38294, 1.36143, 1.36402, 1.44246, 1.48948, 1.53375, 1.43957, 1.45874, 1.43094, 1.43868, 1.50198, 1.47233, 1.47222, 1.57772, 1.60508, 1.54289, 1.5724, 1.77557, 1.71254, 1.62001, 1.62107, 1.64098, 1.80013, 1.74138, 1.74357, 1.71619, 1.71484, 1.76464, 1.76423, 1.77152, 1.77174, 1.88628, 1.9099, 1.89588, 1.9274, 1.9805, 1.77471, 1.77195, 1.72792, 1.72791, 1.82352, 1.75883, 1.75657, 1.75146, 1.71082, 1.68342, 1.68229, 1.60349, 1.56824, 1.55177, 1.57651, 1.5856, 1.54556, 1.49057, 1.42269, 1.34709, 1.34649, 1.31684, 1.31715, 1.36473, 1.32355, 1.32917, 1.24309, 1.21751, 1.1914, 1.20963, 1.18627, 1.17755, 1.1123, 1.16749, 1.14078, 1.18748, 1.15479, 1.1581, 1.15829, 1.15505, 1.14279, 1.1438, 1.14593, 1.14565, 1.14311, 1.1361, 1.13551, 1.13496, 1.13269, 1.1355, 1.13649, 1.13614, 1.13579, 1.13787
1.18103, 1.15799, 1.15027, 1.13178, 1.12743, 1.11701, 1.10619, 1.10378, 1.09403, 1.09528, 1.08769, 1.08747, 1.08797, 1.18515, 1.10934, 1.09329, 1.0919, 1.09421, 1.09599, 1.09636, 1.09653, 1.37054, 1.07943, 1.07836, 1.0881, 1.10726, 1.10288, 1.09753, 1.09769, 1.09995, 1.09976, 1.09841, 1.09654, 1.09722, 1.09883, 1.10102, 1.10213, 1.1023, 1.10511, 1.1109, 1.11146, 1.16457, 1.26933, 1.11502, 1.11651, 1.11488, 1.11385, 1.1141, 1.12164, 1.11532, 1.12562, 1.1043, 1.09257, 1.14417, 1.21616, 1.22882, 1.29581, 1.32434, 1.40126, 1.36001, 1.38328, 1.5503, 1.36424, 1.45072, 1.45127, 1.50444, 1.43725, 1.42633, 1.42419, 1.44175, 1.47962, 1.49014, 1.49585, 1.58432, 1.58857, 1.56331, 1.6241, 1.67251, 1.61995, 1.61993, 1.711, 1.6632, 1.76804, 1.74119, 1.77943, 1.83369, 1.83306, 1.76329, 1.76329, 1.89266, 1.80256, 1.91526, 1.90852, 1.8843, 1.91705, 1.88405, 1.78401, 1.80342, 1.772, 1.84179, 1.84762, 1.74662, 1.74638, 1.74874, 1.69573, 1.6785, 1.66118, 1.63604, 1.52048, 1.51882, 1.54183, 1.52578, 1.52773, 1.52713, 1.43159, 1.35097, 1.34062, 1.32127, 1.30685, 1.30968, 1.31205, 1.29209, 1.24178, 1.19624, 1.22309, 1.18591, 1.17769, 1.13214, 1.16152, 1.15721, 1.16418, 1.18604, 1.1537, 1.1471, 1.1476, 1.14507, 1.14522, 1.14701, 1.14486, 1.14297, 1.14282, 1.1393, 1.13961, 1.13494, 1.13365, 1.13508, 1.13602, 1.13907, 1.13806, 1.13921
1.17997, 1.16455, 1.41232, 1.13121, 1.1261, 1.12287, 1.10794, 1.10425, 1.09521, 1.09482, 1.09075, 1.08715, 1.08843, 1.09065, 1.09496, 1.09544, 1.09447, 1.09516, 1.09656, 1.09702, 1.09927, 1.15228, 1.09092, 1.09109, 1.35381, 1.20893, 1.09777, 1.09855, 1.09792, 1.0995, 1.10085, 1.10135, 1.10128, 1.10064, 1.10261, 1.10366, 1.10473, 1.10749, 1.10801, 1.11086, 1.11138, 1.11546, 1.11641, 1.28986, 1.11617, 1.11558, 1.11492, 1.11988, 1.11744, 1.12184, 1.09747, 1.09163, 1.09405, 1.08864, 1.21418, 1.24763, 1.33324, 1.3206, 1.36469, 1.35296, 1.41644, 1.39862, 1.44912, 1.44989, 1.40591, 1.45457, 1.4244, 1.41795, 1.43392, 1.43232, 1.44542, 1.44639, 1.50667, 1.50665, 1.62795, 1.56653, 1.56578, 1.67273, 1.61967, 1.62065, 1.67599, 1.75983, 1.77215, 1.75556, 1.75533, 1.77868, 1.77812, 1.80986, 1.75978, 1.83138, 1.91558, 1.91414, 1.91887, 1.86677, 1.86452, 1.89227, 0.0041729, 1.76206, 1.83684, 1.75206, 1.83809, 1.7608, 1.78277, 1.93775, 1.68507, 1.68903, 1.65738, 1.63542, 1.56143, 1.52329, 1.50643, 1.60003, 1.492, 1.489, 1.43302, 1.3563, 1.36108, 1.3226, 1.30704, 1.32234, 1.27243, 1.27936, 1.22237, 1.19638, 1.21673, 1.18766, 1.18725, 1.13324, 1.13365, 1.14462, 1.12427, 1.16052, 1.15824, 1.22294, 1.14361, 1.14278, 1.14727, 1.14899, 1.14695, 1.14405, 1.14414, 1.14504, 1.13802, 1.13755, 1.13759, 1.13902, 1.13775, 1.13892, 1.13908, 1.14004
1.17555, 1.16198, 1.31626, 1.13311, 1.12648, 1.12531, 1.10656, 1.10482, 1.09898, 1.098, 1.0916, 1.09097, 1.0931, 1.0936, 1.0947, 1.09654, 1.09572, 1.09619, 1.09606, 1.10055, 1.10018, 1.23159, 1.15148, 1.09074, 1.09209, 1.09831, 1.0998, 1.09822, 1.09922, 1.1004, 1.10128, 1.1017, 1.10156, 1.10244, 1.10116, 1.10263, 1.10829, 1.10908, 1.10918, 1.11025, 1.11234, 1.11546, 1.11864, 1.33532, 1.11839, 1.11886, 1.13392, 1.12262, 1.1166, 1.12513, 1.1259, 1.13182, 1.12986, 1.15411, 1.16916, 1.31994, 1.3152, 1.31589, 1.35121, 1.36054, 1.43083, 1.39742, 1.38604, 1.39253, 1.39194, 1.43726, 1.43616, 1.43022, 1.44053, 1.46401, 1.44205, 1.44484, 1.48129, 1.50551, 1.62694, 1.56376, 1.56465, 1.60164, 1.62076, 1.62038, 1.66191, 1.68971, 1.76183, 1.83714, 1.83686, 1.84857, 1.86841, 1.81141, 1.76063, 1.81079, 1.85826, 1.96637, 0.00389538, 1.86736, 1.86546, 1.83816, 1.83769, 1.76214, 1.83726, 1.75226, 1.83539, 1.76773, 0.00444744, 1.88307, 1.7178, 1.718, 1.63201, 1.55169, 1.52714, 1.50049, 1.46095, 1.49762, 1.4945, 1.49949, 1.45323, 1.39114, 1.34087, 1.31999, 1.32073, 1.31642, 1.26058, 1.24997, 1.20202, 1.1845, 1.18308, 1.18372, 1.1931, 1.13053, 1.12196, 1.12277, 1.12512, 1.15505, 1.15932, 1.15752, 1.30514, 1.14772, 1.14859, 1.14874, 1.14919, 1.14951, 1.14952, 1.15573, 1.15374, 1.1404, 1.14155, 1.14018, 1.13758, 1.1395, 1.13995, 1.14141
1.16819, 1.16335, 1.20786, 1.13762, 1.12538, 1.12185, 1.11274, 1.1057, 1.10073, 1.09917, 1.0941, 1.0936, 1.09548, 1.09757, 1.09725, 1.09777, 1.10072, 1.09637, 1.09543, 1.09564, 1.10104, 1.11919, 1.52294, 1.09388, 1.09775, 1.09782, 1.09829, 1.09938, 1.09884, 1.10133, 1.10312, 1.10272, 1.10317, 1.10413, 1.09821, 1.10311, 1.10329, 1.11135, 1.11146, 1.11288, 1.11488, 1.11862, 1.11968, 1.28898, 1.11839, 1.1181, 1.13257, 1.12405, 1.12314, 1.11996, 1.12346, 1.10518, 1.0977, 1.11501, 1.21002, 1.30602, 1.30222, 1.30229, 1.37333, 1.37306, 1.42349, 1.42453, 1.38464, 1.38648, 1.38212, 1.41708, 1.43389, 1.43215, 1.4751, 1.48802, 1.45638, 1.44405, 1.44151, 1.5095, 1.54091, 1.56278, 1.56054, 1.61324, 1.63012, 1.68549, 1.6692, 1.67089, 1.66228, 1.77555, 1.83815, 1.76595, 1.79696, 1.79659, 1.79081, 1.85916, 1.85863, 1.96287, 1.95757, 1.8742, 1.87186, 1.81445, 1.79969, 1.76292, 1.7337, 1.75307, 1.76552, 1.76405, 1.86026, 1.82422, 1.70012, 1.64892, 1.65521, 1.56594, 1.54007, 1.46829, 1.46849, 1.476, 1.49652, 1.4514, 1.42393, 1.3849, 1.34823, 1.31973, 1.31473, 1.30997, 1.21886, 1.22639, 1.19563, 1.18793, 1.22368, 1.21336, 1.13379, 1.13597, 1.13163, 1.19169, 1.19281, 1.1531, 1.15831, 1.15839, 1.15532, 1.15494, 1.15158, 1.1518, 1.14997, 1.14976, 1.15095, 1.14748, 1.14769, 1.14303, 1.14365, 1.14067, 1.13902, 1.13944, 1.14147, 1.14318
1.16425, 1.15913, 1.15315, 1.13447, 1.12946, 1.12279, 1.11494, 1.10695, 1.09784, 1.098, 1.09668, 1.09815, 1.09915, 1.1001, 1.10064, 1.10106, 1.1037, 1.09847, 1.10017, 1.09623, 1.10102, 1.10117, 1.1266, 1.09778, 1.10013, 1.0986, 1.09839, 1.09914, 1.1009, 1.10173, 1.10349, 1.10454, 1.10526, 1.10431, 1.10174, 1.10496, 1.10608, 1.11118, 1.11177, 1.11531, 1.11766, 1.11971, 1.12176, 1.20203, 1.12002, 1.11691, 1.13207, 1.13094, 1.12322, 1.1211, 1.12163, 1.1113, 1.09553, 1.21338, 1.24397, 1.29598, 1.29911, 1.348, 1.34696, 1.34725, 1.40836, 1.37233, 1.38532, 1.3918, 1.36784, 1.40223, 1.43687, 1.42784, 1.46572, 1.42229, 1.42128, 1.44681, 1.50598, 1.50514, 1.56772, 1.56938, 1.60918, 1.61972, 1.62729, 1.62615, 1.62177, 1.65391, 1.83054, 1.77651, 1.77591, 1.76816, 1.90818, 1.79672, 1.79101, 1.78712, 1.74014, 1.75163, 1.96154, 1.87497, 1.87318, 1.81509, 1.79482, 1.80071, 1.73434, 1.73474, 1.76786, 1.85673, 1.86098, 1.85963, 1.68717, 1.72065, 1.57702, 1.55684, 1.52401, 1.50597, 1.46488, 1.47756, 1.4864, 1.43435, 1.44734, 1.36177, 1.346, 1.321, 1.3162, 1.31231, 1.22934, 1.19627, 1.22437, 1.22611, 1.23128, 1.20965, 1.14981, 1.14864, 1.11627, 1.13947, 1.1391, 1.15966, 1.15823, 1.15917, 1.16081, 1.15527, 1.1595, 1.15271, 1.14972, 1.15061, 1.15062, 1.15008, 1.14684, 1.144, 1.14368, 1.14238, 1.14183, 1.14013, 1.14311, 1.14565
1.16735, 1.1596, 1.15114, 1.13693, 1.13012, 1.12332, 1.11302, 1.10821, 1.10837, 1.11171, 1.0979, 1.09961, 1.10074, 1.10346, 1.10383, 1.10379, 1.10613, 1.09952, 1.10035, 1.09852, 1.09748, 1.11673, 1.11958, 1.11842, 1.1012, 1.10118, 1.09665, 1.09883, 1.10192, 1.10274, 1.1045, 1.10809, 1.10789, 1.10164, 1.10161, 1.10828, 1.10727, 1.11172, 1.11293, 1.11493, 1.1176, 1.11996, 1.1209, 1.12546, 1.12916, 1.11966, 1.11982, 1.12321, 1.12733, 1.11977, 1.11253, 1.09709, 1.09606, 1.16399, 1.21891, 1.31478, 1.34528, 1.36258, 1.30882, 1.32942, 1.34686, 1.36958, 1.37106, 1.39263, 1.38548, 1.41905, 1.41834, 1.44527, 1.41665, 1.4204, 1.49191, 1.47538, 1.50616, 1.69466, 1.70078, 1.57173, 1.58216, 1.62152, 1.61412, 1.68559, 1.6544, 1.65377, 1.65159, 1.76895, 1.7691, 1.76845, 1.77666, 1.78214, 1.77243, 1.77193, 1.76916, 1.83248, 1.89436, 1.8747, 0.00439626, 1.79601, 1.79738, 1.79614, 1.73541, 1.73811, 1.78165, 1.76149, 1.85907, 1.7269, 1.64958, 1.83878, 1.58598, 1.56062, 1.54805, 1.5466, 1.46456, 1.43923, 1.52384, 1.42018, 1.39991, 1.36274, 1.40372, 1.31907, 1.30995, 1.26381, 1.24268, 1.2048, 1.22735, 1.22622, 1.21581, 1.22593, 1.1464, 1.14992, 1.12397, 1.14416, 1.14608, 1.16359, 1.1576, 1.1595, 1.16299, 1.16023, 1.15936, 1.15873, 1.15085, 1.15154, 1.15224, 1.14948, 1.14626, 1.14586, 1.14471, 1.14609, 1.14593, 1.14605, 1.22193, 1.14949
1.16343, 1.15816, 1.14862, 1.14134, 1.12976, 1.12534, 1.10789, 1.10882, 1.10726, 1.10391, 1.10309, 1.10211, 1.10359, 1.10415, 1.10511, 1.10522, 1.10696, 1.13432, 1.101, 1.09965, 1.09752, 1.10088, 1.11475, 1.1106, 1.10532, 1.10163, 1.10103, 1.10281, 1.10157, 1.10367, 1.10585, 1.11065, 1.11063, 1.11529, 1.10157, 1.11118, 1.11102, 1.11181, 1.11317, 1.11633, 1.11876, 1.12062, 1.12083, 1.12802, 1.12748, 1.12271, 1.12235, 1.12353, 1.12502, 1.11992, 1.09991, 1.09889, 1.12613, 1.1926, 1.29649, 1.27129, 1.29028, 1.28138, 1.28517, 1.31733, 1.33196, 1.35129, 1.42803, 1.40106, 1.39535, 1.39263, 1.40533, 1.44848, 1.41956, 1.42453, 1.42529, 1.48248, 1.58264, 1.57956, 1.69964, 1.61544, 1.62347, 1.6214, 1.63115, 1.66079, 1.69915, 1.75851, 1.69631, 1.76809, 1.75219, 1.77624, 1.77726, 1.82455, 1.77358, 1.77323, 1.76945, 1.83962, 1.91719, 1.91408, 2.03517, 1.84519, 1.85835, 1.80978, 1.74533, 1.76349, 1.7581, 1.76073, 1.70294, 1.64039, 1.63987, 1.69685, 1.5754, 1.54664, 1.54755, 1.50984, 1.48047, 1.44447, 1.40251, 1.40888, 1.38802, 1.40506, 1.44936, 1.36191, 1.36408, 1.25351, 1.25068, 1.21644, 1.22984, 1.2197, 1.23354, 1.18798, 1.15051, 1.12825, 1.14031, 1.15709, 1.16774, 1.16085, 1.15631, 1.16106, 1.16177, 1.16041, 1.15993, 1.15916, 1.15389, 1.15376, 1.15109, 1.14794, 1.14435, 1.14585, 1.14546, 1.14811, 1.14869, 1.14963, 1.14627, 1.15188
1.17026, 1.15633, 1.15672, 1.14385, 1.13493, 1.12433, 1.11943, 1.11137, 1.10936, 1.10696, 1.10697, 1.10437, 1.10699, 1.10252, 1.1037, 1.10871, 1.10833, 1.10875, 1.10456, 1.1014, 1.10014, 1.09888, 1.10866, 1.11094, 1.10895, 1.1028, 1.10266, 1.1041, 1.10451, 1.1048, 1.1085, 1.11412, 1.11425, 1.10753, 1.11342, 1.11247, 1.11288, 1.11396, 1.11639, 1.11585, 1.12024, 1.12141, 1.12208, 1.12674, 1.1275, 1.12766, 1.12456, 1.12415, 1.12364, 1.12025, 1.13185, 1.21001, 1.19133, 1.16499, 1.19989, 1.2221, 1.28483, 1.28854, 1.29805, 1.32895, 1.32924, 1.39535, 1.42955, 1.42153, 1.40762, 1.4024, 1.40703, 1.42022, 1.38947, 1.48132, 1.46572, 1.52244, 1.59798, 1.58254, 1.6199, 1.61141, 1.60957, 1.62233, 1.62312, 1.6233, 1.66302, 1.66684, 1.75106, 1.73115, 1.74148, 1.76997, 1.82726, 1.82338, 1.81988, 2.07874, 2.07691, 1.98869, 1.85259, 1.92848, 1.84031, 1.86878, 1.79342, 1.80936, 1.73846, 1.74098, 1.73696, 1.75989, 1.68475, 1.6955, 1.68298, 1.68828, 1.57598, 1.63045, 1.53354, 1.49289, 1.49235, 1.46754, 1.42644, 1.38382, 1.37885, 1.34578, 1.35835, 1.36169, 1.32296, 1.25381, 1.23757, 1.19491, 1.21062, 1.22015, 1.18157, 1.17765, 1.16748, 1.14005, 1.13226, 1.16003, 1.16735, 1.16704, 1.1561, 1.16053, 1.16232, 1.17111, 1.1617, 1.1573, 1.15437, 1.15379, 1.15367, 1.14628, 1.1443, 1.1465, 1.14649, 1.14936, 1.14998, 1.15188, 1.15055, 1.1511
1.17034, 1.15961, 1.14932, 1.14602, 1.12872, 1.12926, 1.1202, 1.10714, 1.10682, 1.10791, 1.10795, 1.10801, 1.11147, 1.10514, 1.10638, 1.10861, 1.10898, 1.11015, 1.10809, 1.10238, 1.10238, 1.10217, 1.10372, 1.10985, 1.1094, 1.19641, 1.10779, 1.10673, 1.10556, 1.10826, 1.11084, 1.11461, 1.21963, 1.35971, 1.35382, 1.11477, 1.11535, 1.1166, 1.11837, 1.11856, 1.12133, 1.12109, 1.12224, 1.12649, 1.12411, 1.12873, 1.12792, 1.12429, 1.12239, 1.12779, 1.1493, 1.24034, 1.2065, 1.14997, 1.19101, 1.21933, 1.2901, 1.29336, 1.29188, 1.32414, 1.33164, 1.35481, 1.36612, 1.39669, 1.38946, 1.40012, 1.40043, 1.44037, 1.39332, 1.39303, 1.42657, 1.48208, 1.58513, 1.56953, 1.61288, 1.60875, 1.60827, 1.65922, 1.62173, 1.62966, 1.69891, 1.6647, 1.70621, 1.70651, 1.73774, 1.76878, 2.09741, 2.06955, 0.00477566, 2.07833, 2.07597, 1.84494, 1.85329, 1.89696, 1.93424, 1.85625, 1.83108, 1.80883, 1.78551, 1.7286, 1.70887, 1.71037, 1.6791, 1.68385, 1.68898, 1.65907, 1.65289, 1.63382, 1.5582, 1.48874, 1.51214, 1.46396, 1.40656, 1.3998, 1.3829, 1.34471, 1.39199, 1.3824, 1.32242, 1.22617, 1.23086, 1.18973, 1.21514, 1.20222, 1.20356, 1.18805, 1.17869, 1.13166, 1.12892, 1.1701, 1.13342, 1.13625, 1.1574, 1.15976, 1.16511, 1.16653, 1.16703, 1.15749, 1.15481, 1.15565, 1.15007, 1.1471, 1.14464, 1.146, 1.14809, 1.15186, 1.15261, 1.15008, 1.15117, 1.15222
1.16999, 1.16515, 1.30989, 1.14465, 1.13157, 1.13594, 1.1117, 1.11111, 1.11165, 1.1051, 1.10462, 1.12902, 1.11408, 1.19535, 1.10711, 1.10833, 1.10939, 1.1099, 1.10776, 1.10492, 1.10494, 1.10471, 1.10452, 1.10722, 1.10922, 1.12162, 1.11564, 1.10887, 1.10794, 1.11185, 1.11329, 1.11482, 1.11504, 1.15689, 1.18162, 1.13343, 1.11801, 1.11948, 1.12245, 1.12196, 1.12238, 1.1227, 1.1251, 1.12596, 1.1249, 1.13083, 1.12906, 1.12702, 1.12648, 1.11142, 1.10989, 1.16969, 1.14656, 1.14868, 1.15644, 1.20151, 1.2833, 1.29277, 1.36547, 1.33133, 1.3157, 1.34792, 1.36223, 1.36557, 1.39218, 1.40964, 1.38217, 1.42794, 1.46772, 1.40274, 1.41952, 1.45811, 1.57107, 1.60302, 1.58045, 1.57593, 1.63773, 1.61059, 1.62717, 1.62767, 1.69876, 1.66774, 1.66751, 1.70886, 1.77903, 1.76135, 2.00462, 0.00454118, 2.18495, 0.00423197, 0.00477757, 0.00434808, 0.00462413, 1.93508, 1.88935, 1.78963, 1.83502, 1.85239, 1.75515, 1.76833, 1.76716, 1.6961, 1.69214, 1.68509, 1.63844, 1.63448, 1.65104, 1.60187, 1.60112, 1.61867, 1.50624, 1.505, 1.40231, 1.46717, 1.40233, 1.34797, 1.38536, 1.31035, 1.24357, 1.24483, 1.23136, 1.20296, 1.17679, 1.16462, 1.16563, 1.18153, 1.17383, 1.13124, 1.13989, 1.1267, 1.14659, 1.1566, 1.15821, 1.16105, 1.16693, 1.16695, 1.16693, 1.15671, 1.15645, 1.15663, 1.15325, 1.14304, 1.14273, 1.14906, 1.14984, 1.15148, 1.15238, 1.15334, 1.15259, 1.15611
1.17429, 1.16523, 1.1407, 1.14007, 1.13358, 1.13208, 1.11142, 1.11172, 1.1122, 1.10982, 1.10513, 1.12822, 1.11826, 1.11603, 1.11214, 1.11423, 1.11269, 1.11083, 1.10863, 1.10886, 1.1051, 1.10527, 1.10703, 1.10822, 1.10799, 1.11203, 1.1115, 1.11458, 1.13406, 1.11536, 1.11636, 1.11603, 1.21647, 1.11623, 1.18596, 1.1362, 1.12032, 1.12164, 1.12481, 1.12307, 1.12358, 1.12371, 1.12569, 1.12858, 1.19214, 1.1321, 1.13268, 1.13021, 1.1258, 1.12835, 1.12873, 1.16161, 1.15731, 1.13264, 1.18263, 1.21656, 1.27764, 1.32417, 1.29903, 1.31878, 1.31505, 1.38205, 1.3666, 1.35998, 1.38881, 1.38815, 1.38528, 1.41184, 1.4074, 1.40221, 1.42469, 1.45559, 1.51816, 1.62588, 1.58616, 1.58222, 1.6303, 1.60047, 1.63788, 1.63237, 1.74943, 1.73164, 1.67291, 1.69383, 1.71454, 1.80667, 1.96047, 2.22557, 0.00467871, 0.00475686, 2.08261, 2.07503, 2.00901, 1.85876, 1.79131, 1.79226, 1.82791, 1.7464, 1.81469, 1.76954, 1.71328, 1.66901, 1.67621, 1.65835, 1.60649, 1.64413, 1.56698, 1.60571, 1.60023, 1.59024, 1.59073, 1.43381, 1.48558, 1.40932, 1.36695, 1.37531, 1.28198, 1.28528, 1.2784, 1.23762, 1.22201, 1.18931, 1.19172, 1.16541, 1.19789, 1.1639, 1.13917, 1.13526, 1.13092, 1.12874, 1.14723, 1.15994, 1.16085, 1.16279, 1.17033, 1.16679, 1.184, 1.17896, 1.1591, 1.15911, 1.15587, 1.15272, 1.26627, 1.14848, 1.15019, 1.15256, 1.15434, 1.15536, 1.15364, 1.15568
1.17717, 1.16647, 1.14103, 1.14211, 1.1358, 1.12551, 1.1161, 1.11242, 1.11141, 1.11155, 1.36462, 1.11865, 1.11895, 1.11778, 1.11241, 1.11687, 1.10615, 1.10899, 1.12076, 1.10986, 1.10758, 1.10852, 1.1085, 1.10855, 1.10949, 1.11187, 1.1125, 1.11656, 1.32632, 1.38171, 1.11905, 1.11942, 1.11729, 1.11648, 1.17866, 1.12708, 1.12403, 1.12333, 1.12657, 1.1218, 1.12406, 1.12553, 1.12645, 1.12974, 1.31648, 1.13265, 1.13298, 1.1286, 1.12899, 1.11948, 1.13152, 1.16046, 1.13842, 1.13082, 1.17173, 1.19777, 1.28005, 1.3064, 1.30573, 1.30839, 1.31045, 1.37521, 1.36673, 1.36816, 1.36935, 1.39431, 1.38512, 1.40686, 1.40894, 1.40955, 1.40885, 1.44777, 1.56201, 1.59702, 1.56207, 1.61327, 1.61203, 1.57972, 1.6412, 1.71121, 1.71143, 1.72557, 1.71498, 1.69633, 1.73136, 1.82776, 2.01148, 0.00422487, 2.16721, 0.00466448, 2.0711, 0.00422709, 0.00453896, 1.97564, 1.79192, 1.78996, 1.8127, 1.70308, 1.81613, 1.76523, 1.66111, 1.69383, 1.69319, 1.62305, 1.61303, 1.69479, 1.54491, 1.60722, 1.60645, 1.52133, 1.51045, 1.52762, 1.41608, 1.3598, 1.34632, 1.36817, 1.31093, 1.23602, 1.23595, 1.22554, 1.19563, 1.19588, 1.18237, 1.18819, 1.1811, 1.13679, 1.19935, 1.12839, 1.12675, 1.12184, 1.15848, 1.16487, 1.16304, 1.16306, 1.17252, 1.17314, 1.16616, 1.16326, 1.16338, 1.15986, 1.15505, 1.15257, 1.15078, 1.15015, 1.15183, 1.15615, 1.15721, 1.15502, 1.15304, 1.16216
1.17786, 1.17372, 1.24094, 1.142, 1.13263, 1.12324, 1.10901, 1.11012, 1.11117, 1.11134, 1.11411, 1.11923, 1.11932, 1.11936, 1.1136, 1.11688, 1.11684, 1.11183, 1.12544, 1.12592, 1.11347, 1.1105, 1.11057, 1.10855, 1.11137, 1.11314, 1.11455, 1.11863, 1.11838, 1.13966, 1.1222, 1.12145, 1.12077, 1.19905, 1.15255, 1.13596, 1.12567, 1.1253, 1.12771, 1.12337, 1.12771, 1.12814, 1.12685, 1.13207, 1.13635, 1.13593, 1.13718, 1.13996, 1.13859, 1.22059, 1.12546, 1.12933, 1.12481, 1.12963, 1.18095, 1.18226, 1.26512, 1.29608, 1.36742, 1.31594, 1.31194, 1.40789, 1.36952, 1.37037, 1.36853, 1.39197, 1.38914, 1.40188, 1.40636, 1.52099, 1.43756, 1.49712, 1.56143, 1.55823, 1.57813, 1.57904, 1.60679, 1.58198, 1.61942, 1.68521, 1.72683, 1.72604, 1.70444, 1.7848, 1.71907, 1.76088, 0.00434661, 2.25293, 0.00404181, 2.19733, 2.06592, 2.02727, 2.01691, 1.76095, 1.77219, 1.71775, 1.77938, 1.71331, 1.67454, 1.6732, 1.66136, 1.664, 1.63354, 1.64521, 1.64512, 1.62162, 1.52663, 1.534, 1.48504, 1.4606, 1.46403, 1.45175, 1.45376, 1.43668, 1.35018, 1.27965, 1.2714, 1.25511, 1.24028, 1.22681, 1.21475, 1.19558, 1.18161, 1.15224, 1.14059, 1.13555, 1.139, 1.13933, 1.12178, 1.11593, 1.1613, 1.16293, 1.16366, 1.16775, 1.17205, 1.17049, 1.1636, 1.16344, 1.16358, 1.16014, 1.15626, 1.15348, 1.15197, 1.14729, 1.15543, 1.16039, 1.16106, 1.15417, 1.15319, 1.16221
1.17921, 1.17235, 1.15955, 1.14108, 1.13529, 1.12921, 1.11227, 1.1112, 1.11054, 1.11093, 1.11559, 1.11967, 1.11967, 1.11828, 1.35945, 1.11811, 1.11707, 1.11558, 1.12472, 1.11949, 1.11628, 1.11374, 1.11196, 1.11176, 1.11286, 1.11479, 1.11588, 1.11964, 1.1253, 1.13624, 1.12313, 1.12285, 1.1243, 1.12328, 1.28653, 1.12738, 1.12694, 1.12715, 1.12876, 1.13648, 1.1409, 1.13267, 1.13182, 1.13217, 1.13709, 1.13855, 1.14007, 1.14257, 1.13743, 1.13589, 1.13548, 1.11828, 1.12481, 1.15395, 1.15325, 1.23014, 1.2546, 1.32672, 1.30962, 1.31221, 1.36437, 1.33101, 1.37024, 1.37233, 1.3686, 1.39093, 1.40442, 1.40331, 1.51978, 1.51317, 1.51754, 1.45062, 1.55719, 1.50033, 1.53124, 1.58101, 1.5791, 1.62155, 1.6188, 1.62809, 1.72681, 1.72317, 1.6997, 1.69672, 1.76284, 1.77242, 1.90461, 2.03232, 0.00485142, 2.17648, 2.07423, 2.02017, 2.01665, 1.75426, 1.75792, 1.73784, 1.78229, 1.71232, 1.71132, 1.67292, 1.6814, 1.72311, 1.63033, 1.64244, 1.61855, 1.54026, 1.53412, 1.52184, 1.45929, 1.46034, 1.48426, 1.48482, 1.41605, 1.36469, 1.33158, 1.26776, 1.25054, 1.22795, 1.22291, 1.21307, 1.23718, 1.21382, 1.17037, 1.157, 1.14861, 1.13756, 1.12635, 1.14158, 1.13481, 1.15921, 1.16187, 1.16331, 1.16545, 1.17031, 1.1694, 1.1695, 1.16377, 1.16396, 1.16367, 1.16071, 1.15646, 1.1526, 1.15384, 1.15545, 1.15417, 1.15845, 1.16015, 1.15977, 1.15701, 1.15734
1.17563, 1.16385, 1.16129, 1.14346, 1.13599, 1.1229, 1.12182, 1.11247, 1.11001, 1.1087, 1.1163, 1.11875, 1.11957, 1.12112, 1.39849, 1.12083, 1.12046, 1.11903, 1.11611, 1.12313, 1.1149, 1.11531, 1.11375, 1.11332, 1.11492, 1.11581, 1.11842, 1.12104, 1.12457, 1.12868, 1.12577, 1.12544, 1.12482, 1.12477, 1.12772, 1.12983, 1.12963, 1.1288, 1.13007, 1.1321, 1.13343, 1.13465, 1.13244, 1.13302, 1.13788, 1.13883, 1.14309, 1.14287, 1.14209, 1.13619, 1.13564, 1.12446, 1.12581, 1.18306, 1.19967, 1.2025, 1.27567, 1.30807, 1.30681, 1.3117, 1.37728, 1.32474, 1.3604, 1.3684, 1.36541, 1.36873, 1.40368, 1.40161, 1.5208, 1.50974, 1.53557, 1.4592, 1.43304, 1.55372, 1.55253, 1.54818, 1.57938, 1.58061, 1.58965, 1.62342, 1.72717, 1.77525, 1.70098, 1.69716, 1.763, 1.76429, 1.88997, 2.0559, 0.00476873, 0.00433981, 1.99885, 2.01485, 2.03209, 1.70359, 1.65047, 1.67235, 1.67162, 1.71246, 1.7478, 1.69228, 1.69253, 1.73171, 1.63092, 1.63962, 1.58284, 1.54389, 1.49577, 1.4886, 1.46013, 1.45934, 1.50295, 1.48562, 1.4477, 1.37752, 1.31285, 1.26164, 1.23059, 1.22746, 1.22336, 1.25409, 1.29817, 1.17501, 1.19763, 1.14371, 1.18817, 1.16144, 1.1262, 1.18292, 1.19198, 1.1598, 1.1612, 1.16416, 1.16565, 1.17258, 1.16884, 1.16897, 1.16501, 1.16476, 1.16495, 1.16098, 1.15635, 1.15675, 1.1555, 1.15625, 1.15495, 1.15772, 1.15968, 1.15852, 1.20685, 1.16105
1.17564, 1.17593, 1.14708, 1.14615, 1.13053, 1.12687, 1.11861, 1.11727, 1.11128, 1.10787, 1.11667, 1.11762, 1.1205, 1.12464, 1.12643, 1.12094, 1.12061, 1.11742, 1.11536, 1.32905, 1.11521, 1.11557, 1.11493, 1.11557, 1.11698, 1.11829, 1.11986, 1.12212, 1.12537, 1.12763, 1.12838, 1.12759, 1.12748, 1.12941, 1.12906, 1.13045, 1.12912, 1.12902, 1.13133, 1.13195, 1.13406, 1.13492, 1.12961, 1.21188, 1.1391, 1.14023, 1.14464, 1.1458, 1.26089, 1.31319, 1.14176, 1.12528, 1.17373, 1.12354, 1.1459, 1.19171, 1.31137, 1.28966, 1.3507, 1.30573, 1.3505, 1.32841, 1.35107, 1.33291, 1.36791, 1.36501, 1.39957, 1.45514, 1.5023, 1.49575, 1.5347, 1.45557, 1.43792, 1.45479, 1.54249, 1.53324, 1.53299, 1.55826, 1.58392, 1.60746, 1.68609, 1.77622, 1.70113, 1.69705, 1.69513, 0.00428345, 1.84104, 0.00454815, 0.0043269, 2.08734, 1.98931, 2.10697, 1.91248, 1.72231, 1.65623, 1.67292, 1.67338, 1.7417, 1.6765, 1.6617, 1.69368, 1.62469, 1.72022, 1.59566, 1.63756, 1.60588, 1.66205, 1.48238, 1.48326, 1.45027, 1.4046, 1.40253, 1.44366, 1.40209, 1.33061, 1.27413, 1.22998, 1.25091, 1.22606, 1.20436, 1.21289, 1.17631, 1.17508, 1.17443, 1.12532, 1.16414, 1.13178, 1.16189, 1.18499, 1.18264, 1.16352, 1.16702, 1.1704, 1.1711, 1.1672, 1.17017, 1.16455, 1.16429, 1.1645, 1.1616, 1.16052, 1.15704, 1.15822, 1.15741, 1.15383, 1.1602, 1.16012, 1.16057, 1.20873, 1.16389
1.56883, 1.17636, 1.14921, 1.14682, 1.13355, 1.12603, 1.11864, 1.1179, 1.11241, 1.11109, 1.11542, 1.11619, 1.12171, 1.12725, 1.12856, 1.1265, 1.12394, 1.12516, 1.12343, 1.12186, 1.1321, 1.11458, 1.1148, 1.1183, 1.11929, 1.12064, 1.11997, 1.12417, 1.12665, 1.12901, 1.12941, 1.12929, 1.12856, 1.13025, 1.13155, 1.13219, 1.13443, 1.35825, 1.13384, 1.13205, 1.13394, 1.13407, 1.12963, 1.14321, 1.14196, 1.14241, 1.14786, 1.14813, 1.25229, 1.24705, 1.14211, 1.14246, 1.15441, 1.15245, 1.16359, 1.17748, 1.25149, 1.26529, 1.30231, 1.30893, 1.3486, 1.32145, 1.33529, 1.33105, 1.35497, 1.36402, 1.3995, 1.44749, 1.50162, 1.5205, 1.46949, 1.44573, 1.43733, 1.43761, 1.47091, 1.53169, 1.55221, 1.66862, 1.5886, 1.60618, 1.6911, 1.7302, 1.69933, 1.69899, 1.70666, 1.86959, 1.87297, 1.87897, 1.82057, 2.02761, 1.98304, 2.02822, 1.71228, 1.66858, 1.6552, 1.67443, 1.67245, 1.65159, 1.65821, 1.60827, 1.60502, 1.60378, 1.5964, 1.58742, 1.6302, 1.62951, 1.67118, 1.48843, 1.43746, 1.42587, 1.37974, 1.38561, 1.41845, 1.38156, 1.34191, 1.26623, 1.2346, 1.26536, 1.24009, 1.23334, 1.20757, 1.17476, 1.18061, 1.12043, 1.1644, 1.18199, 1.11653, 1.1528, 1.16544, 1.16274, 1.16384, 1.16586, 1.17084, 1.17223, 1.1671, 1.16878, 1.16697, 1.16612, 1.16611, 1.17622, 1.16338, 1.15793, 1.16048, 1.16026, 1.16012, 1.15964, 1.16044, 1.15996, 1.21021, 1.19144
1.354, 1.32315, 1.16146, 1.14585, 1.13499, 1.12551, 1.12086, 1.11967, 1.11247, 1.11383, 1.11541, 1.11562, 1.12067, 1.12709, 1.12847, 1.12762, 1.12436, 1.12499, 1.12535, 1.12409, 1.13076, 1.13142, 1.11695, 1.11922, 1.11988, 1.12343, 1.12521, 1.12486, 1.12696, 1.13008, 1.13133, 1.13216, 1.12966, 1.12952, 1.13213, 1.13347, 1.12268, 1.12263, 1.13245, 1.13241, 1.13525, 1.13635, 1.14342, 1.14499, 1.14621, 1.14747, 1.14876, 1.14889, 1.15024, 1.14794, 1.14746, 1.14259, 1.16143, 1.15477, 1.14098, 1.16658, 1.20868, 1.24207, 1.27454, 1.30509, 1.29895, 1.31649, 1.33401, 1.33667, 1.37709, 1.48899, 1.4153, 1.36846, 1.39659, 1.4973, 1.44381, 1.43996, 1.44378, 1.46892, 1.47392, 1.50963, 1.53702, 1.53049, 1.62712, 1.59935, 1.61799, 1.67302, 1.69835, 1.69745, 1.72085, 1.73674, 1.79986, 1.81755, 1.82107, 1.82825, 1.83018, 1.8652, 1.70677, 1.74571, 1.74561, 1.68969, 1.70268, 1.65244, 1.64826, 1.60777, 1.60598, 1.68475, 1.5889, 1.5879, 1.58736, 1.5789, 1.48534, 1.48361, 1.44697, 1.41561, 1.39559, 1.38935, 1.36571, 1.31801, 1.28892, 1.27783, 1.24967, 1.25684, 1.24638, 1.18987, 1.18678, 1.17448, 1.14655, 1.14037, 1.1257, 1.12345, 1.1723, 1.1476, 1.1764, 1.16744, 1.16697, 1.16638, 1.17053, 1.17224, 1.16702, 1.16783, 1.16999, 1.16876, 1.16968, 1.17446, 1.16462, 1.16117, 1.16139, 1.16462, 1.16052, 1.15966, 1.15811, 1.15997, 1.40791, 1.19808
1.19439, 1.17008, 1.14931, 1.14907, 1.13494, 1.12613, 1.12519, 1.15608, 1.1504, 1.11803, 1.11498, 1.11911, 1.118, 1.12908, 1.129, 1.12889, 1.13057, 1.12747, 1.12838, 1.12773, 1.12193, 1.13161, 1.13215, 1.12694, 1.12718, 1.12588, 1.12711, 1.12576, 1.12578, 1.13192, 1.13267, 1.13334, 1.13287, 1.13292, 1.13555, 1.13538, 1.28264, 1.13092, 1.1296, 1.13418, 1.13533, 1.1369, 1.14451, 1.14571, 1.14695, 1.14906, 1.14931, 1.15043, 1.15111, 1.14875, 1.14937, 1.14605, 1.15411, 1.15288, 1.13588, 1.15467, 1.18593, 1.23189, 1.25824, 1.30047, 1.30098, 1.32688, 1.3586, 1.35145, 1.3745, 1.36753, 1.37807, 1.37368, 1.43069, 1.50708, 1.40986, 1.45061, 1.43274, 1.45451, 1.47205, 1.4713, 1.73026, 1.72962, 1.62694, 1.60311, 1.59626, 1.58873, 1.61592, 1.74506, 1.72813, 1.79029, 1.80702, 1.97657, 1.97613, 1.8289, 1.83246, 1.83371, 1.85642, 1.71385, 1.74526, 1.68699, 1.70281, 1.67906, 1.6432, 1.61094, 1.62057, 1.5926, 1.58074, 1.5992, 1.6238, 1.57932, 1.50404, 1.49178, 1.49146, 1.39908, 1.37925, 1.3435, 1.33352, 1.27923, 1.27112, 1.2785, 1.24657, 1.25905, 1.22053, 1.22397, 1.19212, 1.17437, 1.14606, 1.12632, 1.1268, 1.12537, 1.1397, 1.17557, 1.18062, 1.17201, 1.17007, 1.17798, 1.1733, 1.17254, 1.23683, 1.17119, 1.16896, 1.16865, 1.17388, 1.17083, 1.34317, 1.15897, 1.16099, 1.16311, 1.16013, 1.15957, 1.15783, 1.15713, 1.16597, 1.1735
1.19586, 1.2302, 1.16634, 1.14014, 1.13744, 1.12867, 1.1294, 1.12408, 1.12665, 1.12124, 1.12105, 1.12104, 1.12268, 1.12623, 1.13145, 1.13116, 1.13068, 1.12889, 1.12857, 1.12885, 1.12328, 1.12391, 1.13189, 1.12872, 1.12371, 1.12907, 1.12872, 1.12225, 1.12668, 1.13247, 1.13501, 1.13554, 1.13565, 1.13674, 1.13839, 1.13738, 1.1336, 1.13, 1.12855, 1.13494, 1.13576, 1.13902, 1.14897, 1.14763, 1.14899, 1.14979, 1.14974, 1.15748, 1.14976, 1.14973, 1.15115, 1.15102, 1.13657, 1.13261, 1.13932, 1.15798, 1.15749, 1.2195, 1.26783, 1.31257, 1.31331, 1.58178, 1.35461, 1.36438, 1.35521, 1.36863, 1.39454, 1.37476, 1.37241, 1.40311, 1.43715, 1.42686, 1.42303, 1.43917, 1.45638, 1.46462, 1.73024, 1.72984, 1.54732, 1.64226, 1.57077, 1.5955, 1.59387, 1.70669, 1.71298, 1.7564, 1.84644, 0.00469556, 1.97995, 1.91735, 1.93591, 1.87706, 1.84551, 1.69929, 1.63066, 1.68477, 1.68823, 1.66194, 1.61921, 1.63805, 1.59198, 1.59336, 1.56841, 1.55707, 1.54718, 1.56867, 1.55434, 1.52702, 1.4143, 1.39858, 1.3568, 1.3623, 1.31567, 1.27789, 1.26879, 1.28169, 1.25534, 1.24688, 1.2136, 1.19768, 1.19106, 1.17062, 1.17045, 1.13264, 1.12962, 1.13367, 1.14202, 1.16425, 1.29546, 1.17329, 1.17249, 1.17685, 1.17456, 1.17319, 1.17355, 1.17429, 1.17167, 1.17253, 1.17666, 1.17242, 1.16642, 1.16023, 1.16291, 1.16322, 1.16011, 1.15937, 1.15994, 1.16068, 1.15902, 1.17385
1.19572, 1.21213, 1.16709, 1.1464, 1.13947, 1.12749, 1.13144, 1.12553, 1.12662, 1.12902, 1.12799, 1.1258, 1.3595, 1.13025, 1.13096, 1.13262, 1.13221, 1.13318, 1.12661, 1.13019, 1.12898, 1.12863, 1.12805, 1.12986, 1.12313, 1.12862, 1.12618, 1.12235, 1.12272, 1.13167, 1.1357, 1.13737, 1.13788, 1.13638, 1.13825, 1.13914, 1.13755, 1.13175, 1.13202, 1.13311, 1.13903, 1.14234, 1.14751, 1.14668, 1.1477, 1.14991, 1.15299, 1.15587, 1.16009, 1.15276, 1.15283, 1.15272, 1.14628, 1.12935, 1.23521, 1.1503, 1.19269, 1.19572, 1.25167, 1.29706, 1.36387, 1.36331, 1.35706, 1.36421, 1.35424, 1.3509, 1.36565, 1.37505, 1.3758, 1.3869, 1.39393, 1.38815, 1.42249, 1.42186, 1.44093, 1.45402, 1.72852, 1.82577, 1.59932, 1.55907, 1.66916, 1.59485, 1.62775, 1.6868, 1.70764, 1.70794, 1.73312, 0.00430919, 1.92098, 1.9281, 1.90314, 1.87126, 1.84105, 1.69656, 1.65593, 1.67631, 1.70436, 1.70796, 1.61914, 1.61271, 1.5832, 1.56221, 1.56133, 1.53965, 1.54105, 1.52314, 1.54343, 1.52596, 1.40364, 1.3895, 1.36516, 1.33356, 1.3127, 1.295, 1.30487, 1.2676, 1.2436, 1.2331, 1.21533, 1.19863, 1.17445, 1.21161, 1.19384, 1.13249, 1.13684, 1.12743, 1.14371, 1.16485, 1.30506, 1.24763, 1.177, 1.17663, 1.17803, 1.17152, 1.17298, 1.17452, 1.17398, 1.17454, 1.17822, 1.1679, 1.16735, 1.17077, 1.16289, 1.16401, 1.16036, 1.1617, 1.16278, 1.16418, 1.1616, 1.17032
1.19872, 1.20472, 1.16904, 1.1463, 1.13614, 1.13001, 1.129, 1.12625, 1.12637, 1.13409, 1.13015, 1.13081, 1.12658, 1.12918, 1.13259, 1.1366, 1.1326, 1.13318, 1.13209, 1.1323, 1.13233, 1.12903, 1.12874, 1.13034, 1.12353, 1.12538, 1.12671, 1.12419, 1.12281, 1.12876, 1.13791, 1.13945, 1.13887, 1.13801, 1.13939, 1.14087, 1.13753, 1.1357, 1.13593, 1.14047, 1.13902, 1.14388, 1.14607, 1.1467, 1.14693, 1.14894, 1.19903, 1.15898, 1.16013, 1.1562, 1.15425, 1.15402, 1.2086, 1.11595, 1.23866, 1.17585, 1.17542, 1.20498, 1.25013, 1.32174, 1.31342, 1.36147, 1.35565, 1.35558, 1.35199, 1.33144, 1.36237, 1.36378, 1.37704, 1.38487, 1.38553, 1.41251, 1.42304, 1.43959, 1.43296, 1.43682, 1.52176, 1.73418, 1.5481, 1.64039, 1.59371, 1.67194, 1.61963, 1.6662, 1.70823, 1.72656, 1.72438, 1.80064, 2.08126, 1.95565, 2.07869, 1.89038, 1.84644, 1.83165, 1.66105, 1.65595, 1.68105, 1.67178, 1.67546, 1.62106, 1.59236, 1.55498, 1.52903, 1.50108, 1.49848, 1.47619, 1.49324, 1.53024, 1.41001, 1.38205, 1.40153, 1.32737, 1.26966, 1.2747, 1.267, 1.28977, 1.2462, 1.23986, 1.26264, 1.20481, 1.16079, 1.20487, 1.15639, 1.14077, 1.13912, 1.12598, 1.14406, 1.21208, 1.18458, 1.17942, 1.17976, 1.18012, 1.17586, 1.17473, 1.1724, 1.1763, 1.17699, 1.17797, 1.1856, 1.16936, 1.16992, 1.16918, 1.16706, 1.16465, 1.16068, 1.16324, 1.16539, 1.16618, 1.16808, 1.16667
1.23278, 1.17512, 1.17546, 1.19123, 1.12942, 1.12928, 1.12925, 1.12828, 1.13547, 1.13612, 1.12986, 1.13576, 1.13048, 1.13011, 1.13221, 1.13664, 1.13603, 1.13322, 1.13382, 1.13344, 1.13189, 1.13218, 1.13062, 1.1297, 1.12557, 1.12512, 1.12662, 1.1258, 1.12753, 1.12577, 1.1274, 1.14183, 1.13944, 1.13899, 1.13998, 1.13936, 1.13832, 1.13927, 1.13886, 1.13965, 1.14176, 1.14611, 1.14784, 1.14942, 1.15035, 1.1503, 1.15225, 1.15379, 1.16086, 1.15934, 1.15611, 1.15667, 1.14828, 1.12325, 1.22582, 1.18092, 1.16665, 1.22429, 1.30731, 1.29882, 1.36975, 1.34633, 1.35025, 1.35048, 1.44085, 1.33681, 1.36685, 1.51399, 1.40024, 1.42413, 1.40386, 1.40322, 1.4183, 1.41706, 1.43751, 1.43808, 1.50184, 1.5403, 1.61085, 1.62653, 1.67069, 1.58302, 1.62018, 1.62162, 1.62988, 1.6235, 1.70664, 1.72434, 1.92828, 1.91985, 1.95216, 1.85131, 1.81006, 1.78277, 1.74087, 1.66106, 1.66139, 1.67602, 1.62338, 1.61865, 1.56117, 1.5375, 1.59214, 1.50142, 1.5015, 1.45445, 1.48886, 1.42756, 1.43056, 1.37612, 1.34626, 1.31627, 1.28094, 1.2848, 1.26919, 1.26866, 1.20153, 1.22702, 1.20349, 1.20481, 1.16429, 1.18669, 1.13491, 1.13263, 1.13246, 1.12863, 1.16668, 1.16683, 1.18489, 1.33609, 1.18071, 1.182, 1.17477, 1.17595, 1.17688, 1.1753, 1.18054, 1.18075, 1.18142, 1.17207, 1.17024, 1.17005, 1.16548, 1.16384, 1.16109, 1.17777, 1.16696, 1.16838, 1.17044, 1.17693
1.19055, 1.17144, 1.17138, 1.19834, 1.13259, 1.13267, 1.13089, 1.13298, 1.1372, 1.13719, 1.13578, 1.13589, 1.13415, 1.13235, 1.13262, 1.13569, 1.13643, 1.13511, 1.13576, 1.13638, 1.13531, 1.13364, 1.13209, 1.13012, 1.12587, 1.12545, 1.12684, 1.12624, 1.1284, 1.1288, 1.1457, 1.14532, 1.14025, 1.14102, 1.14021, 1.13898, 1.13828, 1.14172, 1.14093, 1.14309, 1.1427, 1.14711, 1.14923, 1.15222, 1.15393, 1.15173, 1.15271, 1.15292, 1.15928, 1.15933, 1.15641, 1.15441, 1.14899, 1.12601, 1.22027, 1.18382, 1.1652, 1.17835, 1.21754, 1.31924, 1.36039, 1.33027, 1.34213, 1.33494, 1.33217, 1.33058, 1.35914, 1.51242, 1.40601, 1.44709, 1.41722, 1.41617, 1.42397, 1.43999, 1.43666, 1.43712, 1.47327, 1.56047, 1.52393, 1.53453, 1.66935, 1.58859, 1.63112, 1.60983, 1.59282, 1.60702, 1.74111, 1.7213, 2.01346, 1.95595, 2.00899, 1.88722, 1.80774, 1.81722, 1.79367, 1.75282, 1.64807, 1.64404, 1.60594, 1.61114, 1.53931, 1.50023, 1.47101, 1.46991, 1.46118, 1.4307, 1.4942, 1.42855, 1.44369, 1.3731, 1.4233, 1.3542, 1.28188, 1.27949, 1.25822, 1.24248, 1.22056, 1.21588, 1.21317, 1.18933, 1.16554, 1.12541, 1.11969, 1.16982, 1.11819, 1.14664, 1.21505, 1.17338, 1.33844, 1.25113, 1.17784, 1.18212, 1.17692, 1.17681, 1.17728, 1.17745, 1.18135, 1.18208, 1.18198, 1.17466, 1.16969, 1.16878, 1.16404, 1.16355, 1.16103, 1.21534, 1.16919, 1.16945, 1.17148, 1.17548
1.18259, 1.17066, 1.16989, 1.16746, 1.13475, 1.13377, 1.13505, 1.13496, 1.1378, 1.14078, 1.13893, 1.13633, 1.13552, 1.13447, 1.1362, 1.13388, 1.13493, 1.13602, 1.13546, 1.13702, 1.13556, 1.13545, 1.13485, 1.13274, 1.13001, 1.12974, 1.12949, 1.1298, 1.13562, 1.13598, 1.13832, 1.14523, 1.14215, 1.14127, 1.14169, 1.14291, 1.13897, 1.14275, 1.143, 1.14328, 1.14559, 1.14784, 1.15075, 1.15443, 1.15626, 1.15301, 1.15275, 1.15218, 1.15524, 1.15381, 1.16017, 1.15984, 1.1816, 1.14831, 1.1566, 1.17074, 1.16674, 1.18872, 1.26659, 1.31874, 1.30884, 1.32205, 1.33207, 1.35759, 1.33194, 1.42038, 1.57129, 1.50854, 1.51064, 1.40145, 1.40858, 1.3814, 1.38082, 1.42934, 1.43884, 1.44363, 1.45789, 1.49526, 1.52116, 1.52454, 1.56271, 1.60082, 1.60913, 1.63298, 1.59317, 1.58829, 1.5926, 1.66221, 2.03904, 1.87428, 1.95556, 1.79232, 1.75768, 2.12573, 1.7134, 1.6169, 1.6014, 1.60236, 1.60613, 1.58216, 1.58255, 1.48304, 1.45877, 1.43884, 1.41969, 1.41344, 1.43641, 1.40252, 1.37782, 1.36235, 1.35377, 1.31574, 1.29881, 1.25083, 1.23972, 1.22615, 1.19406, 1.199, 1.19168, 1.15501, 1.13294, 1.11884, 1.11732, 1.12754, 1.12236, 1.15636, 1.17686, 1.1759, 1.19122, 1.17324, 1.17406, 1.18989, 1.19154, 1.17768, 1.17742, 1.18007, 1.18214, 1.18571, 1.18538, 1.1733, 1.17052, 1.16733, 1.167, 1.16326, 1.16094, 1.16358, 1.26394, 1.17061, 1.17261, 1.17443
1.17941, 1.17623, 1.1679, 1.16033, 1.14131, 1.14282, 1.13723, 1.13853, 1.14216, 1.14166, 1.14026, 1.13903, 1.13816, 1.13584, 1.1377, 1.13548, 1.13442, 1.14438, 1.1333, 1.13791, 1.13666, 1.1364, 1.13567, 1.13637, 1.13639, 1.13221, 1.12869, 1.22403, 1.13783, 1.13727, 1.14056, 1.1463, 1.14669, 1.14609, 1.1423, 1.14252, 1.13897, 1.13976, 1.14272, 1.14361, 1.14739, 1.14964, 1.15154, 1.15675, 1.15852, 1.15627, 1.15055, 1.15095, 1.15617, 1.15685, 1.16077, 1.16151, 1.16157, 1.15857, 1.20464, 1.17966, 1.1996, 1.24333, 1.23277, 1.27703, 1.28121, 1.31192, 1.33025, 1.31321, 1.33013, 1.40319, 1.39919, 1.58217, 1.43435, 1.39234, 1.39152, 1.3871, 1.38091, 1.42465, 1.4348, 1.44891, 1.47453, 1.47992, 1.47775, 1.478, 1.58881, 1.58558, 1.62395, 1.62347, 1.57725, 1.57718, 1.61621, 1.63087, 1.83124, 1.85987, 1.89436, 1.76404, 1.9069, 1.78936, 1.64745, 1.59747, 1.60322, 1.6094, 1.60694, 1.58375, 1.6476, 1.52023, 1.47491, 1.4301, 1.4133, 1.39399, 1.42664, 1.38015, 1.39564, 1.43577, 1.32823, 1.32637, 1.30004, 1.24341, 1.19678, 1.20002, 1.22243, 1.18373, 1.19288, 1.13902, 1.13322, 1.12286, 1.14338, 1.12909, 1.13056, 1.14891, 1.20182, 1.20167, 1.18925, 1.18814, 1.17348, 1.18904, 1.18924, 1.17646, 1.178, 1.19152, 1.18611, 1.18446, 1.18482, 1.17419, 1.17072, 1.16757, 1.16884, 1.16303, 1.16116, 1.17813, 1.21426, 1.46536, 1.17377, 1.17273
1.17796, 1.17524, 1.17001, 1.19111, 1.1435, 1.16004, 1.14054, 1.14302, 1.14372, 1.14607, 1.14602, 1.1428, 1.14244, 1.14185, 1.13901, 1.13433, 1.13364, 1.14514, 1.33014, 1.13774, 1.13785, 1.13767, 1.13898, 1.13797, 1.13633, 1.12873, 1.12839, 1.21592, 1.13933, 1.14082, 1.14144, 1.14701, 1.14774, 1.14695, 1.14374, 1.14246, 1.13898, 1.13906, 1.14137, 1.14549, 1.14765, 1.14999, 1.15168, 1.15656, 1.15896, 1.15964, 1.15192, 1.15095, 1.15546, 1.16138, 1.16127, 1.16248, 1.16384, 1.16745, 1.16354, 1.18412, 1.21486, 1.17961, 1.27886, 1.29813, 1.29155, 1.30053, 1.31574, 1.34643, 1.34445, 1.3371, 1.4157, 1.36382, 1.36786, 1.37523, 1.36508, 1.36682, 1.39565, 1.40513, 1.42413, 1.43723, 1.4559, 1.48614, 1.47824, 1.47839, 1.5836, 1.56601, 1.83491, 1.57858, 1.57284, 1.56988, 1.56928, 1.57499, 1.80786, 1.83062, 1.83481, 1.96904, 1.96953, 1.78581, 1.70806, 1.60621, 1.56105, 1.60317, 1.58523, 1.55672, 1.51565, 1.51834, 1.44652, 1.44653, 1.39619, 1.37483, 1.38253, 1.38902, 1.41293, 1.37594, 1.32609, 1.31902, 1.26156, 1.23671, 1.22267, 1.21535, 1.22602, 1.18567, 1.1476, 1.13391, 1.13209, 1.1532, 1.1508, 1.13329, 1.13629, 1.19219, 1.19673, 1.2268, 1.32887, 1.26257, 1.17417, 1.17736, 1.19101, 1.18119, 1.18179, 1.18959, 1.18888, 1.18436, 1.18369, 1.17392, 1.17204, 1.17036, 1.17174, 1.18427, 1.18179, 1.17625, 1.16778, 1.20957, 1.1746, 1.1763
1.17565, 1.17481, 1.16507, 1.17493, 1.19163, 1.13223, 1.14271, 1.14926, 1.1484, 1.14648, 1.1463, 1.14651, 1.14439, 1.14084, 1.13492, 1.13252, 1.13361, 1.14718, 1.13932, 1.13865, 1.13872, 1.13924, 1.13999, 1.14017, 1.14103, 1.16117, 1.16165, 1.39201, 1.14086, 1.14137, 1.14274, 1.1441, 1.14926, 1.14938, 1.14448, 1.1425, 1.13918, 1.1396, 1.14341, 1.148, 1.15047, 1.15159, 1.15364, 1.15498, 1.15906, 1.15894, 1.15863, 1.15142, 1.15532, 1.16109, 1.16316, 1.16332, 1.16656, 1.1685, 1.17702, 1.18741, 1.18869, 1.17861, 1.19381, 1.30174, 1.3098, 1.32803, 1.34788, 1.34049, 1.32951, 1.34668, 1.38006, 1.41354, 1.37095, 1.38318, 1.3647, 1.36541, 1.39185, 1.39216, 1.41989, 1.42356, 1.46174, 1.46919, 1.5284, 1.53488, 1.56157, 1.56717, 1.57571, 1.57953, 1.58616, 1.54221, 1.56508, 1.59241, 1.7233, 1.78278, 1.94352, 1.86286, 1.78664, 1.96844, 1.66246, 1.63435, 1.54466, 1.55562, 1.55519, 1.51008, 1.51827, 1.51923, 1.50034, 1.4302, 1.40143, 1.38179, 1.35588, 1.36743, 1.34859, 1.3503, 1.30933, 1.27516, 1.26224, 1.25635, 1.21206, 1.22103, 1.22734, 1.16436, 1.19407, 1.1343, 1.14684, 1.12074, 1.15402, 1.1406, 1.17256, 1.14682, 1.19382, 1.19447, 1.18076, 1.17959, 1.17719, 1.17616, 1.34983, 1.1955, 1.18618, 1.19016, 1.1889, 1.18279, 1.17926, 1.17807, 1.17357, 1.17422, 1.17051, 1.16796, 1.1821, 1.17474, 1.17171, 1.17229, 1.1763, 1.18114
1.17316, 1.17039, 1.16464, 1.19966, 1.13562, 1.13681, 1.14452, 1.15139, 1.15419, 1.15142, 1.14719, 1.14664, 1.44762, 1.14072, 1.13579, 1.13576, 1.13398, 1.14774, 1.14756, 1.14018, 1.13292, 1.13899, 1.14079, 1.14203, 1.14239, 1.34791, 1.15944, 1.14475, 1.14221, 1.14097, 1.14331, 1.14334, 1.14892, 1.14646, 1.13951, 1.14013, 1.13963, 1.14121, 1.15574, 1.15018, 1.15079, 1.15224, 1.15292, 1.15366, 1.15786, 1.15887, 1.15698, 1.15813, 1.15929, 1.16319, 1.16235, 1.16384, 1.16673, 1.17163, 1.17375, 1.18508, 1.18447, 1.26508, 1.29949, 1.25759, 1.26052, 1.26726, 1.31233, 1.35823, 1.35687, 1.35745, 1.32648, 1.32933, 1.35303, 1.37318, 1.37983, 1.36486, 1.44375, 1.41254, 1.40216, 1.41054, 1.50742, 1.48624, 1.55054, 1.5586, 1.53452, 1.56948, 1.57215, 1.57374, 1.59951, 1.54054, 1.56576, 1.62673, 1.73719, 1.73081, 1.72979, 1.80838, 1.96747, 1.96873, 1.61287, 1.57243, 1.5247, 1.55395, 1.55273, 1.55338, 1.42872, 1.42733, 1.44858, 1.46841, 1.36617, 1.37489, 1.35677, 1.35086, 1.3442, 1.36126, 1.26046, 1.25419, 1.22656, 1.25997, 1.22682, 1.21473, 1.18094, 1.17727, 1.18205, 1.14727, 1.12392, 1.12325, 1.12485, 1.12903, 1.16525, 1.18442, 1.1846, 1.19457, 1.18106, 1.18143, 1.17967, 1.17562, 1.34789, 1.18981, 1.18908, 1.19131, 1.18544, 1.18177, 1.17896, 1.17784, 1.17597, 1.17496, 1.18154, 1.18727, 1.18233, 1.17345, 1.17505, 1.17429, 1.17773, 1.18002
1.17335, 1.16684, 1.16565, 1.18464, 1.13771, 1.13745, 1.14695, 1.15271, 1.15327, 1.15268, 1.15167, 1.16159, 1.13555, 1.14054, 1.14036, 1.13442, 1.13394, 1.13734, 1.14668, 1.21645, 1.14244, 1.13907, 1.14205, 1.14155, 1.1378, 1.32116, 1.14593, 1.14595, 1.14091, 1.14168, 1.14392, 1.14336, 1.14658, 1.146, 1.14254, 1.13963, 1.13987, 1.16319, 1.15072, 1.14713, 1.15046, 1.15221, 1.15298, 1.15474, 1.15807, 1.15815, 1.1581, 1.15829, 1.1616, 1.16318, 1.16209, 1.16652, 1.16916, 1.17194, 1.17393, 1.20828, 1.20807, 1.2679, 1.22098, 1.2584, 1.23115, 1.28102, 1.26154, 1.28542, 1.34194, 1.3633, 1.33735, 1.36572, 1.34765, 1.38343, 1.3689, 1.40218, 1.40196, 1.41539, 1.41608, 1.44685, 1.44987, 1.48379, 1.54891, 1.55973, 1.56564, 1.57205, 1.62014, 1.54141, 1.55371, 1.54143, 1.61015, 1.6281, 1.70042, 1.796, 1.9453, 1.80983, 1.56963, 1.56537, 1.53834, 1.52348, 1.51306, 1.5547, 1.51995, 1.51949, 1.43766, 1.43068, 1.46229, 1.39436, 1.39531, 1.3894, 1.29406, 1.30047, 1.27129, 1.30212, 1.29324, 1.2426, 1.22994, 1.2157, 1.21574, 1.19846, 1.20267, 1.21962, 1.15448, 1.14259, 1.12898, 1.1237, 1.15677, 1.12311, 1.17318, 1.18485, 1.19182, 1.19427, 1.18814, 1.19046, 1.18466, 1.17724, 1.17928, 1.2032, 1.19358, 1.18957, 1.18696, 1.17808, 1.17814, 1.17791, 1.17629, 1.17651, 1.17534, 1.18732, 1.17585, 1.17558, 1.17675, 1.17456, 1.1926, 1.33406
1.17172, 1.16716, 1.16576, 1.21382, 1.19448, 1.13931, 1.15105, 1.15321, 1.1528, 1.15282, 1.33037, 1.16031, 1.13545, 1.14205, 1.14143, 1.13888, 1.13261, 1.13819, 1.14349, 1.15038, 1.15167, 1.13934, 1.14275, 1.14219, 1.48399, 1.47401, 1.14972, 1.14941, 1.14399, 1.14452, 1.14558, 1.1429, 1.14283, 1.14792, 1.14256, 1.13964, 1.13956, 1.1649, 1.15034, 1.15277, 1.15202, 1.15181, 1.1535, 1.15469, 1.15678, 1.1598, 1.15976, 1.15984, 1.16487, 1.1636, 1.1636, 1.16789, 1.16981, 1.17148, 1.1745, 1.18272, 1.18055, 1.1884, 1.18832, 1.25575, 1.22576, 1.28999, 1.26157, 1.26337, 1.34345, 1.31811, 1.31738, 1.31636, 1.33214, 1.38883, 1.35085, 1.40571, 1.41978, 1.42387, 1.41101, 1.44815, 1.4444, 1.44301, 1.50058, 1.57438, 1.56138, 1.56747, 1.59278, 1.52535, 1.60791, 1.57955, 1.66926, 1.6901, 1.64924, 1.69887, 1.65866, 1.66444, 1.56751, 1.51971, 1.50279, 1.53365, 1.55626, 1.47166, 1.47111, 1.52219, 1.44365, 1.42445, 1.43525, 1.42078, 1.35954, 1.30388, 1.30201, 1.30998, 1.27632, 1.25845, 1.27628, 1.23121, 1.21948, 1.19883, 1.24681, 1.28166, 1.20642, 1.16869, 1.14468, 1.16029, 1.24766, 1.17153, 1.12891, 1.12439, 1.16118, 1.19029, 1.19887, 1.19954, 1.19107, 1.18918, 1.18966, 1.17992, 1.17882, 1.20219, 1.19562, 1.19103, 1.18588, 1.18014, 1.17825, 1.17979, 1.17668, 1.17736, 1.18078, 1.1786, 1.17652, 1.17736, 1.17657, 1.17458, 1.26876, 1.19448
1.16884, 1.16718, 1.16334, 1.20502, 1.14658, 1.14955, 1.15389, 1.15663, 1.15256, 1.15271, 1.15266, 1.15999, 1.17811, 1.14356, 1.14062, 1.13058, 1.12892, 1.14304, 1.14605, 1.15092, 1.1503, 1.14943, 1.14325, 1.14302, 1.27668, 1.15508, 1.15085, 1.15085, 1.14749, 1.1466, 1.14625, 1.14678, 1.15, 1.14954, 1.14028, 1.13961, 1.14023, 1.32906, 1.15275, 1.15281, 1.15114, 1.15165, 1.15079, 1.15426, 1.15813, 1.16066, 1.16121, 1.163, 1.16471, 1.16658, 1.16337, 1.16932, 1.16976, 1.1735, 1.1758, 1.18303, 1.17913, 1.2021, 1.20135, 1.21268, 1.21471, 1.28416, 1.30542, 1.34008, 1.30354, 1.30479, 1.30868, 1.30619, 1.30133, 1.3375, 1.3507, 1.36928, 1.42249, 1.38295, 1.43359, 1.44909, 1.45363, 1.45296, 1.45439, 1.50638, 1.59961, 1.53655, 1.59274, 1.50933, 1.50934, 1.52607, 0.00405348, 1.68872, 1.67248, 1.65979, 1.55392, 1.54381, 1.50083, 1.49999, 1.48164, 1.51628, 1.52619, 1.47458, 1.50352, 1.46807, 1.49876, 1.49587, 1.41896, 1.41287, 1.33307, 1.3334, 1.27629, 1.27619, 1.27011, 1.25268, 1.23653, 1.24402, 1.1946, 1.19565, 1.20877, 1.18551, 1.2519, 1.14772, 1.14818, 1.14035, 1.15284, 1.09962, 1.17855, 1.22274, 1.21572, 1.21612, 1.2043, 1.19976, 1.19788, 1.19261, 1.18959, 1.18728, 1.17726, 1.17716, 1.19624, 1.19118, 1.18117, 1.18028, 1.18105, 1.17348, 1.17523, 1.18033, 1.1809, 1.17765, 1.17756, 1.17784, 1.17485, 1.17426, 1.18011, 1.18472
1.1673, 1.165, 1.16114, 1.15701, 1.14928, 1.15146, 1.15288, 1.15974, 1.15379, 1.15161, 1.1521, 1.16048, 1.14413, 1.14332, 1.14245, 1.14267, 1.13059, 1.14418, 1.14589, 1.14466, 1.14516, 1.14909, 1.14803, 1.14606, 1.14874, 1.15621, 1.15586, 1.15262, 1.15282, 1.14854, 1.14806, 1.14851, 1.1507, 1.15106, 1.18532, 1.1423, 1.31632, 1.29887, 1.15088, 1.1515, 1.15091, 1.15052, 1.14647, 1.15516, 1.15956, 1.15681, 1.16443, 1.16387, 1.16427, 1.1651, 1.16338, 1.16831, 1.17082, 1.17052, 1.18558, 1.18453, 1.18044, 1.23708, 1.20071, 1.20187, 1.21716, 1.21573, 1.28851, 1.31637, 1.34472, 1.30321, 1.30327, 1.30876, 1.31348, 1.383, 1.38369, 1.36253, 1.36907, 1.38917, 1.42728, 1.45162, 1.45333, 1.45882, 1.45229, 1.59523, 1.48197, 1.46295, 1.47348, 1.48364, 1.52743, 1.61857, 1.6195, 1.71295, 1.67163, 1.57651, 1.55758, 1.4961, 1.46862, 1.46611, 1.47139, 1.47512, 1.48538, 1.47978, 1.4651, 1.46731, 1.51557, 1.49678, 1.3999, 1.39914, 1.33845, 1.29518, 1.2712, 1.26957, 1.25602, 1.2324, 1.20721, 1.22278, 1.21386, 1.1896, 1.17539, 1.18691, 1.17017, 1.14774, 1.15747, 1.1362, 1.15563, 1.09447, 1.09619, 1.22177, 1.21352, 1.2153, 1.20165, 1.19975, 1.19771, 1.19439, 1.19414, 1.18853, 1.17762, 1.17714, 1.19601, 1.19502, 1.18178, 1.1815, 1.18201, 1.18224, 1.18089, 1.18033, 1.18019, 1.17748, 1.17977, 1.17673, 1.17461, 1.1742, 1.2086, 1.20309
1.16772, 1.16418, 1.16281, 1.15913, 1.15362, 1.15255, 1.17087, 1.16464, 1.32966, 1.15299, 1.15283, 1.14957, 1.14701, 1.14577, 1.14249, 1.14074, 1.13881, 1.13942, 1.14439, 1.14347, 1.1433, 1.14296, 1.14609, 1.15131, 1.1494, 1.15619, 1.15625, 1.15347, 1.15024, 1.15038, 1.14905, 1.14931, 1.15297, 1.15192, 1.44591, 1.32663, 1.14622, 1.30398, 1.18884, 1.15093, 1.15181, 1.15117, 1.14748, 1.15499, 1.15985, 1.15655, 1.16565, 1.16491, 1.16444, 1.16445, 1.16807, 1.17135, 1.17185, 1.17835, 1.18573, 1.18689, 1.17944, 1.21547, 1.20918, 1.23508, 1.21755, 1.21529, 1.33271, 1.35461, 1.31381, 1.38085, 1.31975, 1.29393, 1.32019, 1.31975, 1.32633, 1.34163, 1.35389, 1.38229, 1.40576, 1.41962, 1.45614, 1.45717, 1.6109, 1.46213, 1.4447, 1.45445, 1.45785, 1.53044, 1.47375, 1.5519, 1.49573, 0.00430425, 1.55773, 1.55894, 1.61378, 1.44262, 1.46606, 1.44402, 1.45104, 1.4755, 1.56898, 1.46541, 1.465, 1.46462, 1.44978, 1.41406, 1.41458, 1.43144, 1.31925, 1.26485, 1.26574, 1.32664, 1.24801, 1.23739, 1.24575, 1.19443, 1.17059, 1.1916, 1.15911, 1.16527, 1.16886, 1.14133, 1.13576, 1.13435, 1.14046, 1.11746, 1.10886, 1.18479, 1.21546, 1.19217, 1.19574, 1.19916, 1.19706, 1.19722, 1.1934, 1.19203, 1.18748, 1.17863, 1.19577, 1.19612, 1.18494, 1.18243, 1.18415, 1.18383, 1.18122, 1.18383, 1.17987, 1.17904, 1.17769, 1.17617, 1.17438, 1.19812, 1.2277, 1.39594
1.16718, 1.16402, 1.1601, 1.15762, 1.15683, 1.36473, 1.16524, 1.168, 1.33086, 1.15715, 1.15339, 1.15258, 1.14582, 1.14497, 1.14561, 1.14276, 1.14084, 1.14061, 1.14643, 1.1471, 1.14906, 1.14995, 1.14846, 1.15176, 1.15175, 1.15307, 1.15518, 1.15448, 1.15314, 1.15102, 1.15147, 1.15077, 1.15222, 1.15301, 1.15121, 1.15141, 1.31326, 1.16758, 1.18292, 1.18276, 1.15223, 1.14953, 1.14883, 1.15171, 1.15796, 1.1571, 1.1651, 1.16553, 1.16569, 1.16481, 1.16828, 1.17189, 1.17634, 1.17901, 1.18618, 1.18664, 1.1798, 1.20496, 1.19959, 1.22197, 1.20953, 1.29242, 1.23221, 1.2482, 1.38841, 1.38472, 1.30668, 1.28649, 1.30496, 1.2946, 1.30179, 1.31427, 1.35185, 1.40416, 1.41641, 1.3998, 1.44381, 1.45507, 1.42034, 1.43065, 1.42961, 1.43996, 1.41899, 1.44484, 1.4915, 1.45795, 1.46486, 1.48528, 1.52107, 1.49733, 1.44695, 1.43771, 1.42935, 1.4322, 1.44902, 1.44015, 1.46994, 1.43729, 1.43517, 1.44884, 1.42245, 1.39895, 1.39256, 1.40024, 1.31296, 1.2459, 1.24041, 1.24142, 1.21526, 1.23654, 1.19712, 1.17431, 1.16668, 1.15991, 1.15456, 1.15729, 1.16769, 1.15285, 1.1356, 1.1514, 1.1449, 1.1095, 1.16783, 1.17107, 1.18852, 1.20058, 1.19658, 1.19163, 1.19535, 1.19616, 1.19487, 1.19231, 1.18949, 1.18203, 1.19061, 1.1853, 1.18422, 1.18463, 1.18474, 1.18529, 1.18333, 1.18381, 1.18048, 1.1779, 1.17676, 1.1756, 1.17503, 1.17775, 1.17614, 1.17679
1.16745, 1.16309, 1.16061, 1.16049, 1.16081, 1.16591, 1.16438, 1.17068, 1.16454, 1.16383, 1.15649, 1.15246, 1.14771, 1.14469, 1.14478, 1.14585, 1.14424, 1.14451, 1.14787, 1.14832, 1.14805, 1.14687, 1.15105, 1.15229, 1.15406, 1.15284, 1.15409, 1.15507, 1.15588, 1.15276, 1.15293, 1.15169, 1.15416, 1.15357, 1.15186, 1.15418, 1.15254, 1.15403, 1.28596, 1.18011, 1.15404, 1.15339, 1.15044, 1.15254, 1.15505, 1.16024, 1.1664, 1.1659, 1.16651, 1.16622, 1.16462, 1.17152, 1.17689, 1.17812, 1.17889, 1.18243, 1.18664, 1.1899, 1.36575, 1.20894, 1.21247, 1.23003, 1.2295, 1.24259, 1.23267, 1.388, 1.27758, 1.2808, 1.28563, 1.31134, 1.30087, 1.31487, 1.42275, 1.36165, 1.38921, 1.43136, 1.44828, 1.49263, 1.40501, 1.41038, 1.40981, 1.42336, 1.42079, 1.43716, 1.44331, 1.43769, 1.44927, 1.53172, 1.43951, 1.44019, 1.4126, 1.4131, 1.43975, 1.41328, 1.4196, 1.42589, 1.43905, 1.43777, 1.4352, 1.43031, 1.4289, 1.39564, 1.35682, 1.42403, 1.33318, 1.28264, 1.23742, 1.24549, 1.23154, 1.20598, 1.17902, 1.17533, 1.16303, 1.15743, 1.15311, 1.14788, 1.13407, 1.13417, 1.13969, 1.12494, 1.12488, 1.15813, 1.22729, 1.22256, 1.19621, 1.19684, 1.19824, 1.19705, 1.196, 1.19518, 1.19334, 1.19076, 1.18622, 1.18404, 1.18317, 1.18721, 1.18226, 1.18468, 1.185, 1.1873, 1.18195, 1.18221, 1.18397, 1.17555, 1.17466, 1.17454, 1.205, 1.18175, 1.18216, 1.17804
1.1657, 1.16298, 1.16192, 1.16032, 1.16171, 1.16457, 1.16414, 1.17208, 1.19158, 1.18973, 1.15974, 1.15728, 1.14901, 1.14994, 1.14666, 1.14772, 1.14848, 1.14918, 1.15051, 1.15138, 1.15336, 1.16032, 1.15334, 1.1545, 1.15407, 1.15293, 1.15472, 1.15564, 1.15342, 1.15595, 1.15475, 1.15322, 1.15497, 1.1566, 1.15295, 1.15385, 1.15213, 1.15628, 1.15816, 1.15879, 1.27242, 1.15565, 1.15025, 1.15319, 1.15541, 1.16374, 1.16483, 1.16672, 1.16662, 1.16672, 1.16793, 1.1713, 1.17642, 1.18321, 1.17697, 1.18206, 1.18512, 1.1954, 1.36072, 1.20208, 1.37939, 1.22852, 1.22651, 1.2266, 1.27748, 1.24943, 1.27626, 1.29606, 1.30923, 1.31105, 1.32782, 1.30488, 1.30572, 1.34111, 1.38726, 1.37333, 1.37995, 1.38113, 1.39486, 1.4042, 1.43674, 1.39825, 1.40629, 1.42748, 1.41937, 1.45849, 1.41702, 1.42341, 1.41967, 1.42952, 1.41186, 1.40479, 1.40377, 1.40104, 1.40661, 1.5094, 1.49653, 1.47878, 1.44676, 1.42062, 1.41778, 1.39218, 1.34136, 1.38125, 1.3125, 1.27099, 1.23593, 1.23309, 1.23699, 1.20786, 1.17094, 1.20793, 1.16481, 1.15738, 1.15362, 1.14999, 1.14335, 1.13339, 1.15218, 1.15922, 1.13796, 1.20618, 1.22885, 1.22977, 1.1959, 1.1973, 1.1979, 1.19758, 1.19779, 1.19489, 1.19234, 1.19074, 1.23525, 1.18147, 1.18073, 1.18498, 1.18552, 1.18671, 1.18788, 1.18945, 1.18461, 1.18279, 1.18356, 1.17602, 1.17735, 1.1815, 1.18733, 1.18283, 1.18488, 1.17967
1.16401, 1.1625, 1.16222, 1.16512, 1.16448, 1.16503, 1.16631, 1.17406, 1.3405, 1.19159, 1.15849, 1.15831, 1.15074, 1.1493, 1.1477, 1.15149, 1.15226, 1.14997, 1.15245, 1.15375, 1.15644, 1.16633, 1.15684, 1.15666, 1.15643, 1.15626, 1.15517, 1.15637, 1.15787, 1.15851, 1.15612, 1.14796, 1.14777, 1.15651, 1.15304, 1.15291, 1.15281, 1.29531, 1.15904, 1.15977, 1.16137, 1.16113, 1.264, 1.15514, 1.15808, 1.16114, 1.16638, 1.16699, 1.1666, 1.16647, 1.17075, 1.17214, 1.17582, 1.16894, 1.36843, 1.18074, 1.18312, 1.18243, 1.18236, 1.36349, 1.35429, 1.22733, 1.22861, 1.22709, 1.25992, 1.25066, 1.25073, 1.27892, 1.31617, 1.30648, 1.30184, 1.33207, 1.30626, 1.34095, 1.3432, 1.41399, 1.39694, 1.38201, 1.3846, 1.36514, 1.36334, 1.38257, 1.42883, 1.47924, 1.37875, 1.40574, 1.38495, 1.40586, 1.41767, 1.39618, 1.38306, 1.39258, 1.38184, 1.39236, 1.39754, 1.42685, 1.49561, 1.47337, 1.49289, 1.42706, 1.37746, 1.35619, 1.34467, 1.30886, 1.29591, 1.23265, 1.23005, 1.25134, 1.24816, 1.20778, 1.19854, 1.18737, 1.16461, 1.21512, 1.15337, 1.14233, 1.14591, 1.16524, 1.13839, 1.15886, 1.13607, 1.23273, 1.18596, 1.23555, 1.19673, 1.19825, 1.19767, 1.19781, 1.19802, 1.19706, 1.19329, 1.19987, 1.18128, 1.18036, 1.18058, 1.18036, 1.18654, 1.18803, 1.19087, 1.19067, 1.18793, 1.18304, 1.17778, 1.17815, 1.18157, 1.18325, 1.18395, 1.18498, 1.49669, 1.37539
1.16015, 1.16068, 1.16186, 1.16569, 1.16865, 1.16681, 1.16798, 1.17579, 1.17576, 1.19165, 1.1581, 1.15935, 1.15917, 1.1542, 1.15465, 1.15464, 1.15371, 1.14765, 1.14898, 1.16678, 1.15844, 1.16664, 1.16074, 1.15961, 1.15629, 1.15842, 1.1567, 1.15664, 1.15976, 1.15955, 1.15854, 1.16294, 1.16083, 1.15835, 1.15616, 1.15269, 1.15271, 1.17764, 1.15984, 1.1611, 1.16043, 1.16052, 1.15689, 1.15877, 1.15991, 1.16203, 1.16487, 1.16622, 1.17106, 1.17033, 1.1703, 1.17349, 1.17371, 1.17209, 1.17713, 1.18117, 1.18311, 1.18298, 1.18119, 1.33697, 1.39283, 1.22672, 1.22784, 1.23947, 1.26006, 1.22723, 1.24659, 1.27251, 1.29893, 1.34755, 1.32654, 1.30567, 1.30515, 1.32297, 1.3261, 1.34036, 1.39572, 1.36791, 1.36076, 1.36474, 1.3476, 1.37037, 1.42573, 1.42229, 1.37858, 1.36516, 1.36152, 1.36247, 1.361, 1.3696, 1.35827, 1.37612, 1.37787, 1.39301, 1.3883, 1.42899, 1.46414, 1.48175, 1.46169, 1.41567, 1.35645, 1.37203, 1.33682, 1.30449, 1.30245, 1.25859, 1.22648, 1.2337, 1.20576, 1.15674, 1.15685, 1.19065, 1.16755, 1.17008, 1.15838, 1.14024, 1.19566, 1.14644, 1.14488, 1.14371, 1.14789, 1.16492, 1.1609, 1.31902, 1.19834, 1.19998, 1.20198, 1.19609, 1.19847, 1.19908, 1.19505, 1.19713, 1.18155, 1.18017, 1.17987, 1.18172, 1.18532, 1.18938, 1.19153, 1.18434, 1.28413, 1.17912, 1.17715, 1.18075, 1.18262, 1.18584, 1.18689, 1.18837, 1.18818, 1.3759
1.16521, 1.16336, 1.1643, 1.16733, 1.16725, 1.16577, 1.17391, 1.17685, 1.17572, 1.21327, 1.20046, 1.15986, 1.16013, 1.16084, 1.15792, 1.16049, 1.16885, 1.1473, 1.15336, 1.15968, 1.16124, 1.16385, 1.16426, 1.15973, 1.15983, 1.16128, 1.16263, 1.15796, 1.15789, 1.15994, 1.16108, 1.16274, 1.16344, 1.16153, 1.15496, 1.15419, 1.15275, 1.23316, 1.15976, 1.16333, 1.16314, 1.16178, 1.15659, 1.16136, 1.16263, 1.16444, 1.16588, 1.16566, 1.17261, 1.17253, 1.17229, 1.17376, 1.17431, 1.17376, 1.17874, 1.18108, 1.1838, 1.18399, 1.18214, 1.18667, 1.31903, 1.29823, 1.27181, 1.23693, 1.24293, 1.25432, 1.25326, 1.26915, 1.26002, 1.35287, 1.31881, 1.30139, 1.304, 1.29659, 1.30239, 1.3259, 1.32973, 1.33375, 1.40061, 1.40597, 1.34691, 1.41799, 1.36767, 1.43361, 1.38758, 1.34675, 1.3518, 1.33376, 1.34965, 1.35078, 1.34775, 1.3632, 1.36746, 1.35084, 1.37065, 1.38931, 1.42651, 1.41979, 1.47808, 1.46837, 1.3341, 1.33305, 1.32654, 1.2825, 1.29311, 1.253, 1.25624, 1.22722, 1.26363, 1.18132, 1.15805, 1.14609, 1.16619, 1.15924, 1.14192, 1.15966, 1.13958, 1.14711, 1.14171, 1.17372, 1.22978, 1.18148, 1.23671, 1.19453, 1.19885, 1.20086, 1.20032, 1.1963, 1.19885, 1.1991, 1.19777, 1.19829, 1.18078, 1.18002, 1.18261, 1.18258, 1.18325, 1.18956, 1.19103, 1.20097, 1.18098, 1.17878, 1.17742, 1.181, 1.18097, 1.18676, 1.18999, 1.19055, 1.19101, 1.48245
1.16827, 1.16836, 1.17485, 1.16856, 1.18776, 1.17211, 1.17398, 1.17709, 1.17517, 1.17383, 1.21973, 1.15983, 1.16125, 1.16217, 1.16119, 1.15977, 1.16991, 1.1701, 1.41111, 1.15931, 1.16176, 1.16628, 1.16535, 1.1642, 1.16229, 1.16423, 1.16448, 1.39222, 1.16117, 1.162, 1.16291, 1.16406, 1.1643, 1.16521, 1.27441, 1.15499, 1.15305, 1.23247, 1.16036, 1.16353, 1.16482, 1.16563, 1.16713, 1.16869, 1.16667, 1.16645, 1.16817, 1.16929, 1.17583, 1.17368, 1.17352, 1.18041, 1.17644, 1.1777, 1.1787, 1.18005, 1.1839, 1.18398, 1.18299, 1.18714, 1.18788, 1.29832, 1.24402, 1.22829, 1.24019, 1.20479, 1.20436, 1.24962, 1.27067, 1.29876, 1.33003, 1.28445, 1.28834, 1.28637, 1.29899, 1.30985, 1.29985, 1.326, 1.4032, 1.39936, 1.33041, 1.39599, 1.42587, 1.45148, 1.36541, 1.3444, 1.3437, 1.31284, 1.33034, 1.3448, 1.33649, 1.34205, 1.33906, 1.3507, 1.35858, 1.37524, 1.40624, 1.39319, 1.41417, 1.64154, 1.36206, 1.32303, 1.34778, 1.27366, 1.27948, 1.27912, 1.29527, 1.2355, 1.17567, 1.17226, 1.15663, 1.14983, 1.1638, 1.15428, 1.15329, 1.14789, 1.15336, 1.16207, 1.16234, 1.20913, 1.17616, 1.18046, 1.19201, 1.1961, 1.19861, 1.20217, 1.19694, 1.19592, 1.1972, 1.20303, 1.26473, 1.2508, 1.18028, 1.1796, 1.18546, 1.18395, 1.18493, 1.18765, 1.18865, 1.20798, 1.33698, 1.1797, 1.27399, 1.18456, 1.18363, 1.18884, 1.19194, 1.19065, 1.19046, 1.18964
1.18533, 1.17272, 1.1749, 1.18095, 1.17806, 1.17749, 1.1807, 1.17819, 1.17837, 1.17449, 1.17148, 1.16823, 1.16393, 1.16117, 1.16042, 1.16056, 1.16475, 1.2782, 1.15672, 1.15926, 1.16046, 1.16364, 1.16236, 1.16317, 1.16362, 1.16706, 1.1674, 1.166, 1.16488, 1.16299, 1.16344, 1.16663, 1.16856, 1.1659, 1.16361, 1.16016, 1.15448, 1.3165, 1.16145, 1.16094, 1.16692, 1.16811, 1.16983, 1.1675, 1.16671, 1.16671, 1.16964, 1.17237, 1.17406, 1.1753, 1.17846, 1.17694, 1.17712, 1.17855, 1.17944, 1.18029, 1.18395, 1.18393, 1.17824, 1.17784, 1.18725, 1.29866, 1.22999, 1.23219, 1.34753, 1.24762, 1.21968, 1.25011, 1.26431, 1.26223, 1.27408, 1.27981, 1.28599, 1.28022, 1.30218, 1.35696, 1.29322, 1.34373, 1.34341, 1.35736, 1.35644, 1.32435, 1.33226, 1.33927, 1.35087, 1.31543, 1.33295, 1.29664, 1.32206, 1.31896, 1.32572, 1.38251, 1.34645, 1.34799, 1.3509, 1.37038, 1.38952, 1.49041, 1.38737, 1.42257, 1.34132, 1.28685, 1.29335, 1.26752, 1.25703, 1.28191, 1.19389, 1.19722, 1.17908, 1.17209, 1.16384, 1.14974, 1.16067, 1.14417, 1.146, 1.19256, 1.15724, 1.12714, 1.21926, 1.2061, 1.17974, 1.18444, 1.19515, 1.19982, 1.20128, 1.20218, 1.19709, 1.19743, 1.19595, 1.19221, 1.21279, 1.18135, 1.17973, 1.1797, 1.18871, 1.1838, 1.18397, 1.1876, 1.19049, 1.19712, 1.27831, 1.28471, 1.26532, 1.18666, 1.18507, 1.18501, 1.19171, 1.18998, 1.18886, 1.21266
1.18466, 1.3885, 1.18011, 1.18045, 1.18434, 1.18416, 1.18239, 1.18364, 1.17883, 1.17489, 1.17233, 1.16697, 1.16586, 1.16559, 1.16319, 1.16362, 1.16661, 1.16433, 1.15784, 1.15774, 1.15739, 1.16327, 1.16026, 1.16349, 1.16342, 1.16844, 1.17022, 1.17122, 1.16776, 1.16349, 1.16316, 1.16863, 1.16901, 1.16845, 1.16555, 1.16621, 1.15802, 1.15779, 1.15954, 1.15963, 1.17338, 1.17208, 1.1716, 1.17065, 1.16742, 1.1681, 1.16712, 1.17129, 1.17493, 1.18399, 1.1846, 1.17878, 1.25951, 1.17939, 1.18121, 1.18292, 1.18426, 1.18394, 1.19165, 1.19061, 1.18904, 1.35722, 1.20589, 1.2304, 1.21417, 1.21988, 1.20303, 1.25563, 1.27251, 1.31244, 1.25348, 1.257, 1.27028, 1.29502, 1.28487, 1.28276, 1.30649, 1.34342, 1.30578, 1.34992, 1.32531, 1.32013, 1.3587, 1.39579, 1.3662, 1.34388, 1.31936, 1.28266, 1.31365, 1.30676, 1.29815, 1.35588, 1.34425, 1.41253, 1.34434, 1.48942, 1.34496, 1.48837, 1.37013, 1.45667, 1.37877, 1.36061, 1.2828, 1.3166, 1.25092, 1.24767, 1.23247, 1.1853, 1.19098, 1.16327, 1.16445, 1.13526, 1.16038, 1.17267, 1.17353, 1.16386, 1.19236, 1.1457, 1.1808, 1.18371, 1.18421, 1.19098, 1.19651, 1.19915, 1.20181, 1.20106, 1.19949, 1.19802, 1.19675, 1.26484, 1.21207, 1.18079, 1.17964, 1.2062, 1.18744, 1.18917, 1.1878, 1.1884, 1.19264, 1.19562, 1.19199, 1.19133, 1.18702, 1.1875, 1.18608, 1.18916, 1.19158, 1.19001, 1.3822, 1.19604
1.43366, 1.44023, 1.43611, 1.18395, 1.18692, 1.18754, 1.18754, 1.18585, 1.18347, 1.17714, 1.17213, 1.1667, 1.16507, 1.17025, 1.16694, 1.16662, 1.16755, 1.16653, 1.16306, 1.16105, 1.16019, 1.16303, 1.1619, 1.17333, 1.21821, 1.1776, 1.17117, 1.17501, 1.17083, 1.16732, 1.16404, 1.16825, 1.16666, 1.16746, 1.16443, 1.17003, 1.36434, 1.16113, 1.27897, 1.22371, 1.17276, 1.1737, 1.17413, 1.17366, 1.17265, 1.16938, 1.16839, 1.17398, 1.17545, 1.18184, 1.18743, 1.17949, 1.18441, 1.1827, 1.18211, 1.18427, 1.18427, 1.18497, 1.19008, 1.19197, 1.19039, 1.19385, 1.20438, 1.20752, 1.21485, 1.18434, 1.21227, 1.25733, 1.26136, 1.2476, 1.244, 1.2645, 1.24364, 1.30239, 1.2822, 1.27418, 1.28205, 1.34823, 1.29579, 1.29382, 1.29395, 1.32936, 1.35494, 1.34992, 1.31995, 1.30614, 1.29526, 1.27682, 1.27456, 1.35545, 1.2925, 1.28411, 1.28325, 1.31283, 1.35396, 1.41588, 1.35048, 1.33414, 1.39833, 1.34132, 1.67461, 1.52007, 1.26775, 1.37424, 1.23291, 1.25558, 1.18988, 1.1776, 1.25404, 1.16701, 1.15385, 1.15345, 1.16345, 1.1794, 1.1782, 1.16742, 1.1713, 1.20004, 1.18455, 1.18439, 1.18761, 1.19601, 1.19634, 1.1982, 1.20226, 1.20127, 1.20134, 1.19715, 1.19829, 1.20759, 1.21002, 1.18073, 1.17954, 1.21111, 1.18768, 1.18872, 1.18992, 1.19365, 1.19529, 1.19743, 1.19367, 1.19197, 1.19061, 1.18953, 1.18783, 1.19447, 1.19224, 1.19008, 1.20639, 1.4673
1.4479, 1.4258, 1.4296, 1.18572, 1.18947, 1.19076, 1.19147, 1.18987, 1.18464, 1.177, 1.17049, 1.16833, 1.17094, 1.17312, 1.17545, 1.17078, 1.16968, 1.16841, 1.16313, 1.16228, 1.16278, 1.16229, 1.16749, 1.17121, 1.16996, 1.1808, 1.17618, 1.17706, 1.17626, 1.1682, 1.16798, 1.16754, 1.16818, 1.16441, 1.16452, 1.17307, 1.17396, 1.1647, 1.16555, 1.17184, 1.17381, 1.17593, 1.17426, 1.17353, 1.17256, 1.17136, 1.17122, 1.1769, 1.17695, 1.17918, 1.18561, 1.18048, 1.18105, 1.18125, 1.1851, 1.18441, 1.18452, 1.18774, 1.19296, 1.19412, 1.19758, 1.19556, 1.19968, 1.2067, 1.21123, 1.18925, 1.20199, 1.22413, 1.23969, 1.20951, 1.20969, 1.25992, 1.23771, 1.24119, 1.27352, 1.27774, 1.27496, 1.28864, 1.27464, 1.32868, 1.31166, 1.29505, 1.36124, 1.3217, 1.30493, 1.29817, 1.29869, 1.29309, 1.26066, 1.26105, 1.27138, 1.29116, 1.32073, 1.30873, 1.31652, 1.33981, 1.36489, 1.32808, 1.32371, 1.32278, 1.32391, 1.49994, 1.38046, 1.24704, 1.22667, 1.23351, 1.18669, 1.16762, 1.16461, 1.23352, 1.15909, 1.16061, 1.15156, 1.18533, 1.16604, 1.17167, 1.26216, 1.19118, 1.18751, 1.18794, 1.19327, 1.19724, 1.19812, 1.19939, 1.20244, 1.20226, 1.19949, 1.19915, 1.19643, 1.2093, 1.24664, 1.18067, 1.1798, 1.34442, 1.18979, 1.18943, 1.19131, 1.19204, 1.22447, 1.19771, 1.19452, 1.19489, 1.19528, 1.19289, 1.19076, 1.19489, 1.19354, 1.19367, 1.20396, 1.2015
1.18411, 1.44868, 1.22289, 1.3746, 1.19231, 1.19397, 1.19195, 1.1913, 1.18882, 1.17617, 1.17017, 1.17139, 1.17417, 1.17444, 1.1762, 1.17704, 1.17204, 1.16924, 1.54685, 1.1629, 1.16387, 1.16457, 1.16767, 1.17161, 1.1739, 1.17663, 1.17798, 1.18098, 1.17548, 1.1755, 1.1676, 1.16787, 1.17125, 1.1716, 1.16824, 1.1737, 1.17531, 1.29237, 1.16806, 1.17023, 1.17489, 1.17673, 1.17413, 1.17297, 1.17332, 1.17351, 1.17676, 1.17438, 1.17711, 1.17802, 1.18055, 1.18111, 1.18162, 1.19762, 1.18663, 1.18812, 1.18736, 1.19266, 1.19173, 1.19439, 1.19771, 1.24473, 1.20105, 1.20268, 1.22021, 1.19073, 1.19016, 1.23656, 1.19757, 1.22744, 1.19892, 1.24714, 1.24682, 1.23296, 1.26722, 1.28244, 1.27049, 1.25376, 1.29367, 1.28018, 1.29353, 1.29011, 1.36407, 1.30184, 1.29356, 1.30125, 1.28418, 1.28955, 1.2673, 1.26849, 1.26972, 1.27374, 1.26854, 1.2715, 1.32215, 1.44106, 1.46548, 1.46178, 1.32286, 1.32057, 1.45428, 1.46495, 1.2638, 1.23223, 1.23251, 1.23592, 1.2228, 1.21135, 1.16276, 1.14455, 1.14532, 1.19083, 1.18943, 1.16022, 1.16161, 1.19209, 1.19823, 1.19115, 1.19507, 1.32046, 1.19886, 1.20286, 1.20215, 1.20159, 1.20251, 1.20147, 1.20528, 1.19807, 1.19704, 1.19416, 1.29243, 1.18081, 1.18007, 1.18203, 1.18831, 1.19147, 1.1936, 1.19312, 1.19611, 1.19758, 1.19497, 1.1961, 1.19741, 1.1935, 1.1933, 1.19476, 1.1911, 1.22577, 1.20222, 1.20162
1.2404, 1.20847, 1.32027, 1.39941, 1.19604, 1.19624, 1.19568, 1.19537, 1.19548, 1.44309, 1.18431, 1.17426, 1.17644, 1.17842, 1.17829, 1.17642, 1.23599, 1.44767, 1.15751, 1.15769, 1.1677, 1.16669, 1.16905, 1.17348, 1.17618, 1.1802, 1.1789, 1.1808, 1.17509, 1.17513, 1.32348, 1.16872, 1.17172, 1.17415, 1.17426, 1.17472, 1.17707, 1.17787, 1.17146, 1.17353, 1.17466, 1.17491, 1.174, 1.17048, 1.17029, 1.17451, 1.17664, 1.17678, 1.17735, 1.17965, 1.18119, 1.18138, 1.18165, 1.19726, 1.18831, 1.1876, 1.18813, 1.19265, 1.19084, 1.19854, 1.19843, 1.19803, 1.23695, 1.22022, 1.21795, 1.21556, 1.22259, 1.22258, 1.19605, 1.19141, 1.18023, 1.20771, 1.19752, 1.20643, 1.23254, 1.27414, 1.25391, 1.25541, 1.28962, 1.29431, 1.27588, 1.33638, 1.27739, 1.30304, 1.25818, 1.26781, 1.27452, 1.28666, 1.25109, 1.24774, 1.24964, 1.26607, 1.2605, 1.34519, 1.34484, 1.29553, 1.38821, 1.45184, 1.45741, 1.32216, 1.26344, 1.26353, 1.33008, 1.24116, 1.26532, 1.18069, 1.20253, 1.17759, 1.16676, 1.13594, 1.14642, 1.12743, 1.14739, 1.16259, 1.16195, 1.19745, 1.19359, 1.20222, 1.19928, 1.19837, 1.2047, 1.20467, 1.20307, 1.19924, 1.19637, 1.19693, 1.20544, 1.19744, 1.19766, 1.1937, 1.29523, 1.18098, 1.17993, 1.18274, 1.18927, 1.19186, 1.19634, 1.19437, 1.19278, 1.19877, 1.19607, 1.19836, 1.20101, 1.19875, 1.19702, 1.19777, 1.19311, 1.19895, 1.20283, 1.20212
1.2339, 1.25732, 1.24513, 1.19165, 1.19196, 1.19763, 1.19821, 1.19792, 1.19808, 1.35728, 1.18536, 1.57254, 1.18103, 1.18021, 1.17958, 1.17791, 1.23411, 1.1912, 1.15705, 1.18519, 1.16794, 1.16726, 1.16775, 1.17312, 1.17703, 1.17758, 1.18081, 1.18277, 1.18148, 1.1774, 1.29169, 1.39526, 1.17575, 1.1762, 1.17713, 1.17692, 1.17861, 1.18181, 1.17472, 1.1739, 1.17729, 1.17426, 1.17446, 1.17031, 1.17111, 1.17504, 1.17803, 1.17822, 1.18018, 1.18032, 1.18142, 1.18178, 1.18078, 1.18378, 1.1941, 1.18813, 1.18898, 1.18932, 1.5533, 1.20127, 1.19871, 1.19989, 1.20336, 1.20907, 1.21914, 1.21835, 1.21658, 1.19752, 1.19832, 1.18284, 1.18012, 1.17887, 1.18348, 1.21163, 1.22219, 1.26133, 1.24674, 1.25164, 1.26107, 1.30021, 1.28482, 1.40548, 1.29211, 1.25051, 1.25975, 1.26054, 1.26098, 1.26256, 1.24438, 1.2464, 1.24143, 1.23986, 1.27881, 1.27259, 1.29265, 1.29434, 1.45157, 1.45288, 1.4546, 1.45465, 1.27736, 1.24071, 1.24339, 1.23938, 1.25243, 1.23612, 1.19487, 1.19627, 1.1646, 1.13786, 1.14347, 1.13092, 1.1259, 1.22066, 1.20867, 1.26446, 1.20386, 1.2034, 1.20176, 1.19992, 1.20498, 1.2047, 1.5093, 1.2187, 1.36803, 1.19184, 1.23746, 1.19848, 1.19786, 1.19533, 1.46094, 1.18085, 1.18019, 1.25707, 1.19872, 1.19294, 1.19276, 1.19533, 1.19328, 1.19834, 1.1978, 1.20095, 1.20269, 1.19872, 1.19772, 1.19785, 1.19484, 1.19788, 1.48169, 1.20341
1.3071, 1.37871, 1.53402, 1.19579, 1.19053, 1.19414, 1.20061, 1.20281, 1.19843, 1.19605, 1.22978, 1.39356, 1.1841, 1.18411, 1.18278, 1.17907, 1.19138, 1.19207, 1.18916, 1.17044, 1.16898, 1.16892, 1.16601, 1.17325, 1.17716, 1.17951, 1.18112, 1.18325, 1.18081, 1.17753, 1.35324, 1.3085, 1.17701, 1.17702, 1.18444, 1.17828, 1.18027, 1.18045, 1.1807, 1.17747, 1.17868, 1.17693, 1.17369, 1.17165, 1.17256, 1.17558, 1.17611, 1.17726, 1.18191, 1.18377, 1.18307, 1.18053, 1.18253, 1.18856, 1.19325, 1.19134, 1.18979, 1.18973, 1.20246, 1.20405, 1.19846, 1.19898, 1.20306, 1.20537, 1.20458, 1.19808, 1.19811, 1.20124, 1.19787, 1.22889, 1.18286, 1.17706, 1.18445, 1.18058, 1.22742, 1.22911, 1.26865, 1.27064, 1.2758, 1.3062, 1.30174, 1.38871, 1.25779, 1.26678, 1.26696, 1.23594, 1.25065, 1.25806, 1.24715, 1.25838, 1.26133, 1.24998, 1.23231, 1.25472, 1.27067, 1.39465, 1.28597, 1.41631, 1.29825, 1.29552, 1.32648, 1.2434, 1.24312, 1.25972, 1.2679, 1.17483, 1.17381, 1.15944, 1.17356, 1.13559, 1.13049, 1.12945, 1.16076, 1.14261, 1.19933, 1.20796, 1.20422, 1.20456, 1.2018, 1.20146, 1.20391, 1.20364, 1.2184, 1.19442, 1.19292, 1.19127, 1.19105, 1.25923, 1.19838, 1.20169, 1.20364, 1.18068, 1.17988, 1.22301, 1.19716, 1.19357, 1.19376, 1.19656, 1.19768, 1.19909, 1.19756, 1.19884, 1.20236, 1.1986, 1.1989, 1.19798, 1.19346, 1.19362, 1.28856, 1.20601
1.20162, 1.20795, 1.20797, 1.20267, 1.334, 1.19804, 1.20345, 1.20448, 1.19804, 1.19766, 1.19024, 1.19112, 1.18831, 1.18703, 1.18463, 1.18453, 1.18487, 1.19183, 1.18885, 1.17364, 1.17179, 1.17103, 1.17265, 1.17377, 1.175, 1.17884, 1.18083, 1.183, 1.18223, 1.17776, 1.29481, 1.25143, 1.17577, 1.17382, 1.29236, 1.18166, 1.17885, 1.18038, 1.18032, 1.18306, 1.18025, 1.17873, 1.1745, 1.17641, 1.26003, 1.19816, 1.18053, 1.18143, 1.18163, 1.18593, 1.18565, 1.18271, 1.18512, 1.19179, 1.1946, 1.19645, 1.19113, 1.19292, 1.19891, 1.20847, 1.23121, 1.20391, 1.20285, 1.20736, 1.20549, 1.19762, 1.229, 1.2, 1.20984, 1.19253, 1.18662, 1.18283, 1.17382, 1.19903, 1.19135, 1.21628, 1.22763, 1.27098, 1.23941, 1.27472, 1.24782, 1.40882, 1.24478, 1.23718, 1.22061, 1.22759, 1.23105, 1.23424, 1.22808, 1.21945, 1.24738, 1.24157, 1.2914, 1.51874, 1.39819, 1.358, 1.28428, 1.42385, 1.30114, 1.29511, 1.45466, 1.23429, 1.24685, 1.27413, 1.21847, 1.28951, 1.17477, 1.16161, 1.12674, 1.12726, 1.12024, 1.09819, 1.11494, 1.18172, 1.20461, 1.21069, 1.20763, 1.20518, 1.2022, 1.20229, 1.20488, 1.20421, 1.21506, 1.19474, 1.19295, 1.19131, 1.19079, 1.19074, 1.25604, 1.34158, 1.18259, 1.18071, 1.17932, 1.22084, 1.19451, 1.19522, 1.19647, 1.19753, 1.19944, 1.20023, 1.19735, 1.19716, 1.32879, 1.23837, 1.22919, 1.20233, 1.20483, 1.22798, 1.47762, 1.20848
1.36249, 1.2077, 1.209, 1.20132, 1.19784, 1.20188, 1.2051, 1.20569, 1.19943, 1.19642, 1.19667, 1.19078, 1.19052, 1.19147, 1.18876, 1.18737, 1.18727, 1.18569, 1.18954, 1.17237, 1.17322, 1.17264, 1.17335, 1.17562, 1.17705, 1.17819, 1.17895, 1.18097, 1.18121, 1.17927, 1.18159, 1.18244, 1.21109, 1.174, 1.17386, 1.18045, 1.17985, 1.18007, 1.18082, 1.18359, 1.18315, 1.18077, 1.1842, 1.17797, 1.18217, 1.18247, 1.18218, 1.18288, 1.18403, 1.1866, 1.18736, 1.18547, 1.1893, 1.19412, 1.19568, 1.19668, 1.19447, 1.19328, 1.20281, 1.21103, 1.22953, 1.20683, 1.20275, 1.20551, 1.20899, 1.20685, 1.20139, 1.1986, 1.1919, 1.1978, 1.1877, 1.18119, 1.18058, 1.18604, 1.19536, 1.18646, 1.21511, 1.21871, 1.27692, 1.21975, 1.23678, 1.31371, 1.22181, 1.22323, 1.21918, 1.25057, 1.31594, 1.23293, 1.23353, 1.23582, 1.49732, 1.2101, 1.35295, 1.26094, 1.37164, 1.36213, 1.27947, 1.40958, 1.31215, 1.42312, 1.37856, 1.28182, 1.22747, 1.21294, 1.21412, 1.29561, 1.17132, 1.17885, 1.14959, 1.10801, 1.11316, 1.12198, 1.19837, 1.20536, 1.20499, 1.20634, 1.20956, 1.19907, 1.19972, 1.20198, 1.20417, 1.19948, 1.25792, 1.1948, 1.19301, 1.19157, 1.19125, 1.19186, 1.24966, 1.24064, 1.18285, 1.18071, 1.17963, 1.2919, 1.19526, 1.19483, 1.19537, 1.19449, 1.19813, 1.19804, 1.19696, 1.19627, 1.19616, 1.22955, 1.3002, 1.51401, 1.19104, 1.4824, 1.47592, 1.20905
1.20904, 1.20851, 1.20989, 1.20996, 1.20212, 1.20487, 1.2133, 1.20813, 1.20445, 1.19693, 1.18728, 1.18816, 1.2159, 1.19418, 1.1896, 1.19081, 1.18832, 1.18761, 1.18848, 1.19435, 1.17712, 1.17627, 1.17376, 1.17561, 1.17806, 1.17813, 1.17775, 1.17994, 1.18048, 1.1799, 1.18288, 1.18381, 1.18331, 1.17661, 1.17836, 1.18014, 1.18016, 1.17813, 1.18042, 1.18432, 1.18461, 1.18363, 1.18448, 1.18151, 1.18161, 1.1837, 1.18214, 1.183, 1.18412, 1.18668, 1.18919, 1.18783, 1.1889, 1.194, 1.19499, 1.19553, 1.1936, 1.20191, 1.20286, 1.21228, 1.21274, 1.20953, 1.20503, 1.20726, 1.20915, 1.20709, 1.22154, 1.20082, 1.20263, 1.2469, 1.18235, 1.1853, 1.23352, 1.18328, 1.20913, 1.20129, 1.18311, 1.18044, 1.22231, 1.20835, 1.20305, 1.18737, 1.20113, 1.224, 1.21188, 1.19809, 1.20584, 1.20779, 1.19711, 1.19979, 1.1998, 1.20103, 1.20393, 1.38542, 1.2211, 1.3541, 1.39154, 1.40934, 1.311, 1.3115, 1.54003, 1.26413, 1.32205, 1.20417, 1.19416, 1.17783, 1.18491, 1.17423, 1.14975, 1.11848, 1.23242, 1.16443, 1.16358, 1.20567, 1.20473, 1.20581, 1.20538, 1.20871, 1.20205, 1.20317, 1.20486, 1.20286, 1.20179, 1.19586, 1.193, 1.19172, 1.19584, 1.19225, 1.25131, 1.2434, 1.18219, 1.18055, 1.44361, 1.29525, 1.19389, 1.19427, 1.19527, 1.19779, 1.19656, 1.19582, 1.1981, 1.19525, 1.19549, 1.18457, 1.25636, 1.50375, 1.19207, 1.20136, 1.19979, 1.21662
1.20963, 1.20873, 1.21168, 1.21131, 1.21151, 1.2147, 1.21279, 1.20927, 1.20526, 1.19888, 1.19812, 1.19151, 1.21205, 1.19689, 1.19433, 1.19085, 1.19098, 1.19054, 1.19072, 1.18673, 1.18109, 1.17778, 1.17571, 1.17903, 1.17899, 1.17964, 1.17719, 1.17854, 1.17939, 1.18046, 1.18251, 1.18388, 1.18375, 1.17759, 1.17886, 1.18183, 1.18191, 1.18281, 1.18213, 1.18436, 1.18583, 1.18372, 1.18579, 1.1839, 1.18241, 1.18136, 1.18394, 1.18405, 1.18462, 1.18644, 1.1887, 1.18945, 1.19126, 1.19326, 1.19457, 1.19606, 1.19591, 1.26566, 1.20862, 1.21079, 1.21315, 1.20929, 1.20623, 1.20646, 1.20812, 1.20592, 1.22066, 1.20175, 1.2034, 1.21371, 1.17871, 1.2384, 1.23686, 1.18857, 1.19946, 1.20118, 1.19224, 1.21739, 1.1808, 1.19957, 1.20485, 1.19453, 1.17938, 1.1885, 1.36769, 1.19705, 1.19553, 1.1963, 1.37009, 1.19172, 1.19643, 1.20237, 1.20753, 1.20002, 1.23732, 1.24039, 1.32307, 1.32122, 1.31131, 1.30899, 1.4209, 1.26163, 1.23774, 1.20055, 1.19552, 1.1947, 1.1585, 1.15127, 1.14947, 1.12542, 1.16027, 1.219, 1.19947, 1.202, 1.20243, 1.20336, 1.20466, 1.20583, 1.20653, 1.20596, 1.20541, 1.20571, 1.203, 1.22507, 1.19357, 1.19446, 1.19566, 1.19155, 1.19142, 1.18619, 1.18172, 1.18057, 1.35079, 1.19243, 1.19288, 1.19406, 1.19543, 1.19583, 1.19534, 1.19465, 1.19635, 1.19453, 1.52467, 1.1804, 1.20445, 1.49222, 1.20586, 1.20634, 1.31903, 1.27456
1.23676, 1.20973, 1.21269, 1.21297, 1.21171, 1.21372, 1.21304, 1.20917, 1.2058, 1.20182, 1.19941, 1.19887, 1.20119, 1.20201, 1.19908, 1.19795, 1.19458, 1.19592, 1.19526, 1.19418, 1.18534, 1.18198, 1.17756, 1.17895, 1.18121, 1.18013, 1.17816, 1.17838, 1.17757, 1.18383, 1.18082, 1.18345, 1.18348, 1.18138, 1.17811, 1.1808, 1.18366, 1.18399, 1.18535, 1.18446, 1.18642, 1.18505, 1.18515, 1.18389, 1.18253, 1.18543, 1.18544, 1.18428, 1.18398, 1.18736, 1.18749, 1.19069, 1.19175, 1.19401, 1.19422, 1.19505, 1.20027, 1.20734, 1.21079, 1.20955, 1.20993, 1.20826, 1.20644, 1.20628, 1.20784, 1.208, 1.24508, 1.20689, 1.20324, 1.20623, 1.19337, 1.22663, 1.23622, 1.23629, 1.19243, 1.19028, 1.18116, 1.18927, 1.18424, 1.23017, 1.19527, 1.38904, 1.17879, 1.18469, 1.17804, 1.36842, 1.20961, 1.19491, 1.19236, 1.19102, 1.22611, 1.20442, 1.20424, 1.33353, 1.33288, 1.23291, 1.27386, 1.31742, 1.30814, 1.30694, 1.53734, 1.34563, 1.24419, 1.19099, 1.19517, 1.20908, 1.27516, 1.15294, 1.1541, 1.19654, 1.19356, 1.18602, 1.18653, 1.20074, 1.2016, 1.2037, 1.20473, 1.20492, 1.20527, 1.20756, 1.20682, 1.20487, 1.20507, 1.20089, 1.201, 1.19642, 1.19454, 1.19355, 1.19076, 1.23657, 1.18235, 1.18427, 1.19054, 1.19093, 1.19095, 1.19627, 1.19483, 1.1947, 1.19434, 1.19479, 1.19467, 1.22659, 1.20995, 1.18073, 1.31617, 1.39848, 1.48597, 1.20808, 1.27287, 1.20609
1.22265, 1.3609, 1.21496, 1.21505, 1.21133, 1.21394, 1.21514, 1.20863, 1.2049, 1.21213, 1.2008, 1.20172, 1.20277, 1.20462, 1.20307, 1.19757, 1.19691, 1.19985, 1.19951, 1.60649, 1.19502, 1.18437, 1.18027, 1.18396, 1.18395, 1.18327, 1.18895, 1.17908, 1.17809, 1.18388, 1.18314, 1.18257, 1.18297, 1.18193, 1.18079, 1.18088, 1.18386, 1.18711, 1.18633, 1.18766, 1.19203, 1.18615, 1.18551, 1.18673, 1.18345, 1.18534, 1.18509, 1.18499, 1.18411, 1.18734, 1.18735, 1.19114, 1.19404, 1.19537, 1.19468, 1.19697, 1.2018, 1.20822, 1.20976, 1.20718, 1.20892, 1.20495, 1.20477, 1.2059, 1.20821, 1.20953, 1.22314, 1.20642, 1.20776, 1.20469, 1.2115, 1.19858, 1.22696, 1.22814, 1.22976, 1.18338, 1.18773, 1.21208, 1.19763, 1.21248, 1.19756, 1.17572, 1.18283, 1.179, 1.17867, 1.33739, 1.18732, 1.19003, 1.19119, 1.19128, 1.18935, 1.2013, 1.20486, 1.21055, 1.27145, 1.27874, 1.30126, 1.32586, 1.34689, 1.37337, 1.35712, 1.53737, 1.53985, 1.36632, 1.19603, 1.20245, 1.20909, 1.19275, 1.19469, 1.18639, 1.19174, 1.1859, 1.20274, 1.20341, 1.20375, 1.20525, 1.20797, 1.20616, 1.21105, 1.20899, 1.21138, 1.20589, 1.20675, 1.20834, 1.19673, 1.1959, 1.19335, 1.1938, 1.19069, 1.19269, 1.18579, 1.1856, 1.18801, 1.19016, 1.19196, 1.19552, 1.19678, 1.19575, 1.19422, 1.19457, 1.19593, 1.5441, 1.18092, 1.17923, 1.2224, 1.49168, 1.20874, 1.20883, 1.2117, 1.21596
