0.933431802873674,0.933704620118642,0.92776877824328,0.933200321574913,0.945105074082601,0.961498910348398,0.994088170338195,0.976900683905219,0,1.03600281979235,1.03606069011704,1.06726106231427,1.08456428939663,1.14599777264984,1.08820185266287,1.08798690574259,1.08267110306034,1.08381197517566,0,1.13606887837086,1.13490320468782,1.18876394259587,1.12849613302569,1.13614328307404,1.13203449002103,1.14094652002332,1.15490980265213,1.14959399996988,0,1.14932118272491,1.14774214957979,1.15449644319006,1.15924180981465,1.16251561675426,1.17150205145972,1.25862169168612,1.17052652312923,1.18863993475725,0,1.19228576521273,1.24253374142226,1.24174009125508,1.29264944260393,1.29270731292862,1.24188890066143,1.29670036533224,1.27378371675494,1.27369277767329,0,1.32741297336423,1.34805614490013,1.30903501168049,1.34084715588159,1.34029325420241,1.34066527771828,1.42093968525276,1.43072803731464,1.54828746832806,0,1.54789891043371,1.45112319317329,1.42075780708945,1.41777335177328,1.40436397082365,1.41009313296798,1.42401507965058,1.46226736427077,1.46304448005946,0,1.55276001770768,1.69403801465483,0.00404270514220466,1.79420327950424,1.81425121341476,1.76563187348579,1.75719107327027,1.72824764373595,1.77933060605887,0,1.67293188052141,1.66793023103033,1.66991435644828,1.67025331120718,1.47341153536824,1.47375875731638,1.46746742630364,1.40209049378225,1.40165233275245,0,1.47087350827112,1.41724425166183,1.41620258581741,1.41653327338707,1.38535770275756,1.38465499167203,1.38448138069796,1.39034281787015,1.3727006360289,0,1.37564375539885,1.44738642363616,1.44678291882153,1.34724596035447,1.36444998116593,1.36172180871625,1.33669702688238,1.34071488085372,1.28014118528162,0,1.26208564397829,1.26165575013773,1.30881179757097,1.26231712527705,1.26137466570353,1.22719810537937,1.207976890393,1.20472788502111,1.20102418424094,0,1.23874736874968,1.20911776250832,1.17397394104291,1.14562574913398,1.16351594665248,1.1744699723974,1.09927988624641,1.08967341234784,1.06495451651591,0,1.04867642089949,1.04999917117812,1.05941549972414,1.05911788091144,1.00939900481336,1.01376408073285,1.01372274478664,1.01381368386829,0.989979377285194,0,0.987953915921039,0.985721774825847,0.98539935444543,0.970716826352614,0.950900373740858,0.95062755649589,0.94241823757913,0.94236036725444,0.938317711715371,0,0.941517113951812,0.937871283496332,0.938573994581856,0.927983725163558,0.921427844095088,0.920353109493699,0.922824999076893,0.958564058167683,0.959415578659552,0,0.959771067796934,0.961507177537639,0.961498910348398,0.961953605756677,0.967963852335212,0.967641431954795,0.966293880108439,0.96636001762237,0.962978737222617,0,0.960440710125492,0.959886808446315,0.95991987720328,0.959721464661486,0.960572985153355,0.957001559401048,0.955844152907245,0.954074974409575,0.953281324242396,0,0.951115320661136,0.950660625252856,0.950338204872439,0.950478747089544,0.946378221225785,0.947601765233519,0.95159481763714,0.954513135439372,0.957051162536497
0.923362366377587,0.973106044043394,0.928926184737083,0.936350120675906,0.942906001744376,0.959167562982308,0.986465821857577,1.04756861754114,0,1.03127398754624,1.05899387307282,1.06032489054069,1.1347791968492,1.13544883917775,1.14016940423462,1.08467176285677,1.08412612836683,1.12819024702376,0,1.12723952026099,1.09923028311096,1.18987174595422,1.13899546336234,1.13839195854771,1.12862014086432,1.13107549606903,1.13281987299897,1.1829273069914,0,1.14875074666725,1.16009333030652,1.16095311798763,1.1571171421796,1.18218325995967,1.25871263076778,1.24983366952246,1.25900198239123,1.25635648183396,0,1.20452120529007,1.19398053900722,1.21622754525596,1.33034782554495,1.29339348963566,1.24169875530887,1.24170702249811,1.2710638114945,1.31436734874122,0,1.29708065603735,1.29723773263294,1.34232698275581,1.34149199664242,1.33925158835799,1.3395326727922,1.34235178432353,1.36096949449528,1.43790395757621,0,1.424816997007,1.42475912668231,1.40656304316188,1.40527336164021,1.40423996298503,1.4051328194231,1.42465992041141,1.43633319162034,1.45808416651459,0,1.61974905213116,1.57669353056168,1.76812029744746,1.82045987253509,1.81866589246969,0.00400240259465259,0.00384644206961263,1.70511604823837,1.74308724842435,0,1.72588322761289,1.67229530694981,1.67012103617931,1.67126190829463,1.54246736710208,1.42422175938161,1.46479712417865,1.42284113877829,1.45571975039154,0,1.47385796358728,1.47390756672273,1.417078907877,1.41684742657824,1.41597937170789,1.38530809962211,1.40008983398582,1.38992119121884,1.38807760801799,0,1.42489140171017,1.44747736271781,1.34792386987227,1.34746917446399,1.35728232809359,1.35707564836255,1.34258326562229,1.27456909973288,1.28260480767557,0,1.24121925833287,1.24248413828681,1.22813229776365,1.25783630870818,1.2061829103276,1.20892761715576,1.20733204963216,1.25176819180496,1.22785121332944,0,1.24221132104184,1.16545046893498,1.16442533746904,1.14431953323383,1.14727091979303,1.1306704037962,1.09175674403669,1.09882519083813,1.03745784509884,0,1.03453126010737,1.01928656314614,1.01541751858114,1.01533484668872,1.01033319719764,1.0135160650556,1.00318207850379,1.00317381131455,0.987879511217865,0,1.01292082743022,0.971824629710969,0.985490293527086,0.955067037118549,0.960209228826731,0.94846155291463,0.948726102970357,0.963350760738482,0.939640461994003,0,0.977181768339429,0.953620279001295,0.941310434220776,0.964144410905662,1.01207757412759,0.938102764795093,0.957786942378986,0.957001559401048,0.960663924235011,0,0.960680458613494,0.960821000830599,1.03593668227842,0.977206569907153,0.966269078540714,0.965020732965255,0.964946328262082,0.965086870479187,0.964400693772146,0,0.960763130505908,0.960564717964113,0.961135154021774,0.960754863316667,0.960837535209082,1.12637146539064,0.957100765671946,0.953678149325985,0.953471469594949,0,0.950305136115474,0.951685756718796,0.952834896023357,0.951462542609277,0.954190715058955,0.953686416515227,0.951942039585281,0.954256852572887,0.95592682479966
0.930207599069508,0.931191394589241,0.951908970828315,0.976173171251972,0.974866955351823,0.974742947513201,0.988797169223666,1.00917579070384,0,1.01291256024098,1.05602595213514,1.05484374407361,1.08132355121398,1.08205933105647,1.08137315434943,1.08458082377511,1.08069524483163,1.09298028804442,0,1.09336057874953,1.09308776150456,1.09381527415781,1.12543727300636,1.13076961006709,1.13768924746219,1.1283969267548,1.13157152742351,1.13197661969634,0,1.15583572784717,1.16264789178213,1.16010159749576,1.15811747207781,1.2908471953493,1.25795204935756,1.24883333962425,1.24813062853872,1.2549675940414,0,1.24107871611576,1.20438893026221,1.20457907561476,1.25094147288081,1.28768086186982,1.28705255548747,1.2859612865076,1.27384158707963,1.2821914482135,0,1.33477077178912,1.30980386027994,1.30731543631826,1.33966494782006,1.3142433409026,1.3397724212802,1.37937225774675,1.37958720466702,1.37107199974833,0,1.42512288300893,1.42469298916838,1.40731535738285,1.40731535738285,1.40347111438557,1.40118937015493,1.46044858263765,1.46018403258192,1.46006829193254,0,1.57404803000442,1.57273354691503,1.74111139019565,0.00394916189593765,0.00391539042788632,1.7931781480383,1.80698435407152,1.70430586369271,1.72129493758389,0,1.65002349913335,1.66659094637321,1.67130324424084,1.43352234727825,1.44088014570314,1.4085223670121,1.3655412501458,1.44021877056382,1.3978328913229,0,1.47169196000602,1.48648196155898,1.41778161896252,1.41744266420362,1.41591323419396,1.39094632268478,1.40121417172266,1.39955246668513,1.44480706059283,0,1.43404318020046,1.56132482576183,1.34757664792413,1.35129688308278,1.35645560916945,1.36190368687956,1.29245929725138,1.27929793197899,1.27899204597706,0,1.27345302918528,1.23342329887818,1.22136146977491,1.21712866888328,1.21336709777842,1.21122589576489,1.21139123954972,1.22780987738324,1.24415411051358,0,1.22735518197496,1.21085387224902,1.19876724157802,1.19518754863647,1.19353411078818,1.15737342504608,1.10804310684235,1.06600444954957,1.05080108853454,0,1.05121444799662,1.01752565183771,1.01412783705947,1.01321017905367,1.01111858017558,1.0373503716387,1.00202467200999,1.07323824013584,1.0745857919822,0,1.01184609282883,0.982836525780581,0.993228382657084,0.988499550410974,0.944253553590732,0.971386468681172,0.96185439948578,0.942839864230444,0.965078603289945,0,0.928289611165491,0.930472149125234,0.978752534295304,0.979785932950485,0.982439700696991,0.959308105199413,0.95815069870561,0.959068356711411,0.959200631739274,0,0.961614650997778,0.96157331505157,0.96311101225048,0.968005188281419,0.967996921092177,0.965409290859603,0.965384489291879,0.964739648531046,0.964119609337937,0,0.961705590079434,0.96145757440219,0.961300497806603,0.961622918187019,0.960911939912255,1.06458249300004,0.956340184261733,0.954372593222267,0.953984035327919,0,0.953752554029158,0.953785622786124,0.95279356007715,0.95364508056902,0.953488003973432,0.952777025698667,0.951801497368176,0.954041905652609,0.957109032861187
0.929025391007981,0.97046054348613,0.928603764356667,0.929298208252948,0.94218675628037,0.945179478785774,0.945452296030742,0.990938371237202,0,1.04412119962745,1.02691717881599,1.08726766027858,1.06689730598765,1.07192375704645,1.11944356080631,1.11483046920958,1.08214200294888,1.08316713441482,0,1.09444358054016,1.09314563182925,1.09306295993684,1.12007186718866,1.11986518745762,1.13301001835153,1.13164593212669,1.13027357871261,1.12962873795177,0,1.1635407482202,1.21985684133296,1.15926661138237,1.15744782974925,1.20456254123628,1.25665410064666,1.24704762674809,1.24555126549539,1.27197320231106,0,1.27132009436099,1.20186743754357,1.19021896790236,1.18355561337375,1.21679798131362,1.29046690464419,1.28739151024637,1.26222618619539,1.26211871273526,0,1.36110176952314,1.35653828106186,1.35699297647014,1.39647707228731,1.31473110506785,1.3251725650798,1.38027338137406,1.3781073777928,1.40323136589757,0,1.46787251857647,1.46745089192516,1.40767084652023,1.40769564808795,1.40724095267967,1.40550484293897,1.45027167268142,1.46010962787875,1.45955572619957,0,1.58317500692698,1.56462343426916,1.71983991227739,0.00400948757583251,0.0035750881171405,0.00383410742326438,1.75043677966,1.68480356427213,1.64869248166547,0,1.67258465857326,1.67270039922264,1.58472923850437,1.45670354591127,1.42378359835182,1.44937881624335,1.36704587858774,1.38729222504006,1.38444004475175,0,1.38313382885161,1.40814207630699,1.42779318513392,1.44566684827394,1.39101246019871,1.38833389088448,1.40175153902335,1.40178460778032,1.36386301072978,0,1.43525845701895,1.43338180506114,1.40500881158448,1.3185918824436,1.36765765059161,1.29365803969139,1.29321987866159,1.2909877375664,1.27889283970616,0,1.24361674321289,1.22797522116807,1.22643752396916,1.22779334300475,1.21392926664684,1.21367298378036,1.21626061401293,1.20266935489999,1.22771067111234,0,1.22722290694709,1.18661447339309,1.18605230452467,1.13643263469749,1.1397064416371,1.14056622931821,1.08801170731031,1.05656331943583,1.03357226615536,0,1.03029019202651,1.01863345519606,1.01460733403547,1.01254880391435,1.01172208499021,1.01568206863686,0.995840814457382,1.01564073269066,1.00266951277082,0,0.973221784692774,0.97051841381082,0.958729401952512,0.951462542609277,0.95222312401949,0.980331567440421,0.979595787597932,0.961837865107297,0.964442029718354,0,0.927851450135695,0.928190404894594,0.965830917510917,0.980133154898627,0.998990613558375,1.02005541174559,0.958944348872789,0.959647059958313,0.961639452565502,0,0.962714187166891,0.963135813818205,0.964632175070907,0.968063058606109,0.967542225683898,0.963557440469518,0.963615310794209,0.96482232042346,0.964615640692424,0,0.961763460404124,0.960738328938184,0.961052482129359,0.961763460404124,0.961804796350331,1.02006367893483,0.957968820542298,0.956827948426978,0.953570675865847,0,0.953355728945569,0.955769748204072,0.95592682479966,0.955720145068624,0.955761481014831,0.955587870040761,0.950594487738924,0.950652358063615,1.01195356628897
1.00338049104558,0.999982676267349,0.968898044719495,0.930935111722756,0.946262480576405,0.934490003096579,0.957431453241604,0.983357358702792,0,1.00552996024836,1.03766452482988,1.06354909434486,1.06516946343618,1.06580603700778,1.12426333213407,1.11570679126917,1.1166492508427,1.11593827256793,0,1.11598787570338,1.09632849968721,1.115632386566,1.10197498993912,1.10153682890932,1.12401531645683,1.19091341179864,1.12657814512168,1.12591676998236,0,1.14765947768738,1.15629042325545,1.1619451806966,1.20281816430633,1.24333565877868,1.24289749774888,1.23606879943545,1.24586541868656,1.27346956356377,0,1.22628044737357,1.2215598823167,1.19383172960088,1.18868127070345,1.21255691323276,1.24861839270397,1.26177975797636,1.24761806280575,1.27050990981533,0,1.26849271564041,1.3561083872213,1.36220130569225,1.37739639951804,1.3114903668852,1.31306113284107,1.32433757896641,1.35063550794346,1.37355215652076,0,1.47102231767746,1.41881501761771,1.40739802927526,1.40657957754036,1.41018407204963,1.40206569221453,1.40147045458914,1.42685899274964,1.44850249418375,0,1.55238799419182,1.55045347190932,0.00314121775855995,1.73200921484081,1.7575961655431,1.76964146026789,1.73940834921191,1.65162733384619,0.0035889687278769,0,1.6750648153457,1.74307071404587,1.58400172585112,1.45837351813805,1.42195654952946,1.37258489537952,1.37310572830173,1.38658951395453,1.38528329805438,0,1.38450618226569,1.40864637485072,1.39186398069058,1.401362981129,1.37425486760629,1.35880349091402,1.3711464044515,1.40299161740957,1.37600751172548,0,1.32868612050741,1.35916724724064,1.4305213575836,1.42859510249034,1.3113911606143,1.35175157849106,1.35329754287921,1.30858031627221,1.31427640965957,0,1.37556935069568,1.23243950335845,1.23191867043624,1.22537932374625,1.22742958667813,1.22563560661274,1.18923517238263,1.16505364385139,1.1646568187678,0,1.16526859077167,1.18662274058233,1.14436913636928,1.15957249738431,1.15858870186457,1.09317043339698,1.05724949614288,1.07145252725969,1.04816385516652,0,1.05009837744902,1.01788114097509,1.03307623480087,1.02527200815695,1.01368967602967,1.00765462788341,1.02620620054123,1.01149887088069,1.01176342093642,0,0.972750554906011,0.972023042252764,0.970262130944335,0.969187396342946,0.969923176185435,0.927859717324936,0.928231740840801,0.957704270486572,0.936383189432871,0,0.944005537913489,0.95667087183139,0.946229411819439,0.946204610251714,0.977570326233777,0.978000220074332,0.960324969476112,0.961193024346464,0.961788261971848,0,0.96248270586813,0.964334556258215,0.966037597241954,0.96681471303065,0.967426485034517,0.963755853011313,0.963210218521378,0.965682108104571,0.963863326471452,0,0.963011805979583,0.960821000830599,0.96157331505157,0.961135154021774,0.960969810236945,0.961722124457917,0.958588859735407,0.95911795984686,0.954761151116615,0,0.954893426144479,0.955166243389447,0.955587870040761,0.955951626367384,0.955794549771797,0.956026031070557,0.967624897576312,0.95393443219247,0.956414588964905
0.94338549872038,0.968765769691632,0.948469820103872,0.950619289306649,0.950983045633273,0.94503893656867,0.974114641130851,0.973130845611118,0,1.00541421959898,1.03694527936587,1.04493965136236,1.0850768551296,1.07606561885642,1.08200146073178,1.08162117002667,1.08136488716019,1.11548357715965,0,1.11352425330943,1.09174847684745,1.09170714090124,1.10321506832534,1.10285131199872,1.11648390705787,1.12671868733878,1.12610691533491,1.12737179528886,0,1.15402521340329,1.14803150120324,1.19324475916473,1.19848615714381,1.26477248048176,1.25631514588776,1.2365978995469,1.1995608917452,1.21722787515418,0,1.21864156451447,1.21602913271417,1.19942861671734,1.18988001314346,1.18838365189076,1.21132510203578,1.23146397502796,1.21634328590535,1.24268255082861,0,1.27677643926035,1.2764870876369,1.35414906337108,1.28558099580249,1.30363653710582,1.31954260920637,1.320146114021,1.40282627362474,1.40839835917348,0,1.4326956283541,1.46855869528351,1.40695986824547,1.40583553050863,1.40568672110228,1.40452104741924,1.40403328325399,1.4737422229379,1.48230703099204,0,1.53961518681378,1.55129672521195,1.55060228131566,1.5070093924455,1.50739795033985,0.00388244567875914,1.67636276405661,1.64549307942903,1.6303889246849,0,1.58288565530353,1.57610656012554,1.57673486650789,1.40803460284685,1.42208055736808,1.37228727656682,1.37141095450723,1.38481206826762,1.38461365572583,0,1.38496914486321,1.40791886219747,1.3674757724283,1.36186235093335,1.36043212719458,1.41352401650318,1.33143082733558,1.32780153125858,1.3278263328263,0,1.33326614334718,1.32281641614598,1.4227832684536,1.31172184818396,1.31176318413016,1.3129867281379,1.31203600137513,1.34752704478868,1.30787760518668,0,1.38253859122622,1.24469974500352,1.23125729529692,1.23122422653996,1.1874742610742,1.18644086241902,1.17862010139661,1.1539673430786,1.14467502237121,0,1.14242634689754,1.14621271957012,1.17113002794385,1.13056293033606,1.12499911197656,1.120460425083,1.06299519266568,1.07430470754799,1.03930969548893,0,1.04272404464565,1.03823496088754,1.04534474363519,1.02759508833379,1.02676836940965,1.03485368048779,1.01142446617752,1.00161131254791,0.970162924673437,0,0.969451946398673,0.967657966333278,0.968790571259357,0.944914928730048,0.923139152268068,0.926272416990578,0.927305815645759,0.928364015868664,0.92075820176653,0,0.921031019011498,0.950032318870506,0.951313733202931,0.951107053471895,0.975371253895551,0.975371253895551,0.960333236665353,0.961614650997778,0.960672191424252,0,0.964152678094903,0.963904662417659,0.967120599032584,0.967128866221825,0.967864646064314,0.964359357825939,0.963226752899861,0.96464870944939,0.964417228150629,0,0.96453296880001,0.96254057619282,0.962234690190886,0.962524041814337,0.961689055700951,0.961821330728814,1.01561593112293,0.960176160069765,0.959655327147554,0,0.955827618528762,0.956298848315525,0.957919217406849,0.957820011135952,0.956712207777598,0.956488993668079,0.957390117295397,0.956811414048495,0.955786282582555
0.944005537913489,0.955645740365451,0.974040236427678,0.960019083474178,0.953413599270259,0.948874912376703,0.958911280115823,0.987598426783656,0,1.00762982631569,1.00897737816205,1.04307953378303,1.02726440076413,1.05142112772765,1.08763141660521,1.07880205849534,1.07349452300232,1.07351105738081,0,1.11425176596268,1.09404675545657,1.10309106048672,1.10241315096892,1.10237181502271,1.1032068011361,1.13955763223075,1.14460061766804,1.15012310008133,0,1.14890782326283,1.14805630277097,1.19356717954515,1.13029838028033,1.15357878518425,1.23650696046524,1.23977250021562,1.21436742767664,1.1965681692398,0,1.18514291370811,1.1894087833567,1.20235520170881,1.18585389198288,1.19457577663261,1.20890281558804,1.27352743388846,1.25748908676004,1.23025696539871,0,1.27681777520655,1.27667723298945,1.27100594116981,1.35069337826815,1.28613489748167,1.31583064123696,1.32232865198074,1.32008824369631,1.33515106249423,0,1.33150523203875,1.35409946023563,1.43933418131498,1.405471774182,1.40524856007249,1.409340818747,1.4279089257833,1.47144394432878,1.49391416468704,0,1.53969785870619,1.51082883387505,1.5073896831506,1.50733181282591,1.50727394250122,1.51402823611149,1.51356527351397,1.51286256242844,1.51496242849577,0,1.51731857742959,1.57780133392004,1.57859498408722,1.46763277008847,1.43634145880958,1.43619264940323,1.40065200285424,1.4019003484297,1.42208055736808,0,1.41256502255117,1.39884148841036,1.36789739907961,1.36555778452428,1.36456572181531,1.42018737103179,1.33313386831931,1.3281652875852,1.38793706580089,0,1.31286272029928,1.3956172846062,1.39693176769559,1.31209387169982,1.31130848872189,1.31313553754425,1.31290405624549,1.31265604056824,1.30702608469481,0,1.2590763870944,1.22756186170599,1.23345636763515,1.19547690025992,1.18942531773518,1.18025700486641,1.16108539301549,1.15093328462699,1.15336383826398,0,1.15108209403334,1.13143098520641,1.13085228195951,1.13007516617081,1.07582587036841,1.08248922489702,1.08004213688155,1.06254876444664,1.04313740410772,0,1.03363840366929,1.0401612159808,1.04003720814218,1.03271247847425,1.03067048273161,1.03412616783454,0.982803457023615,0.981513775501949,0.994294850069231,0,0.985556431041018,0.999354369884998,0.96230909489406,0.939838874535798,0.944757852134461,0.928388817436389,0.928198672083835,0.927223143753344,0.919551192137278,0,0.970807765434271,0.967649699144036,0.953752554029158,0.953909630624746,1.01621116874832,0.971014445165307,0.963979067120832,0.964235349987318,0.961689055700951,0,0.962061079216816,0.964003868688557,0.967112331843342,0.966442689514785,0.967525691305415,0.964202281230352,0.962821660627029,0.963697982686623,0.964797518855736,0,0.965318351777948,0.96470657977408,0.964375892204422,0.964640442260149,0.964789251666495,0.967905982010521,0.970766429488063,0.961804796350331,0.960440710125492,0,0.9582085690303,0.957877881460642,0.958001889299264,0.958200301841059,0.961639452565502,0.957778675189745,0.956976757833324,0.956794879670012,0.95604256544904
0.947023061986618,0.963102745061239,0.966095467566644,0.952363666236595,0.955687076311658,0.949073324918498,0.955860687285728,0.958886478548099,0,0.966798178652167,1.01220158196621,1.07091515995899,1.05369460476905,1.04052497230742,1.07630536734442,1.1173684963067,1.07410629500619,1.07461886073916,0,1.10911784144373,1.12523059327532,1.12523886046456,1.13655664253611,1.10329774021775,1.10256196037526,1.13652357377914,1.13681292540259,1.14822164655579,0,1.14665088059992,1.1394666931491,1.13730895675708,1.13576299236893,1.16527685796091,1.19676658178159,1.2472295049114,1.25374405003367,1.1707001341033,0,1.1674097927852,1.17125403578248,1.19312075132611,1.19377385927619,1.212085683446,1.21056452062557,1.2199643147931,1.21773217369791,1.22338693113906,0,1.28830090106293,1.43090991547795,1.43021547158167,1.34739476976082,1.34490634579914,1.34524530055804,1.30625723609536,1.32390768512586,1.33573803293037,0,1.31243282645872,1.31377211111584,1.38538250432528,1.40479386466421,1.40469465839331,1.40926641404383,1.43777994973759,1.46372238957726,1.47382489483032,0,1.50488472481044,1.53183576173757,1.52432088671709,1.50763769882785,1.50781957699116,1.5141109080039,1.51348260162155,1.51279642491451,1.5143093205457,0,1.51704576018462,1.54053284481958,1.537225969123,1.46696312775991,1.44808913472168,1.44808086753244,1.44826274569575,1.40215663129618,1.39678295828924,0,1.39606371282523,1.38348931798899,1.4082826185241,1.35850587210133,1.360514799087,1.33308426518387,1.33195166025779,1.332232744692,1.33741627234639,0,1.31657468826869,1.31963354828803,1.31969141861272,1.31666562735034,1.39352568572811,1.3346467639505,1.36460705776152,1.30777013172654,1.30675326744985,0,1.24361674321289,1.24294710088433,1.2476676659412,1.27489978730254,1.18622591549874,1.16241641048336,1.16326793097523,1.14704770568351,1.12891775967701,0,1.12785129226486,1.12904176751563,1.10246275410437,1.10290918232341,1.08308446252241,1.0564971819219,1.06951800497719,1.05543071450976,1.03984706278962,0,1.01878226460241,1.03648231676835,1.03524223838213,1.01960071633731,1.00827466707652,0.997535588251879,0.993071306061496,0.985457224770121,1.00474457727042,0,0.984977727794116,0.973907961399814,0.946055800845368,0.946014464899161,0.944675180242046,0.944542905214183,0.928669901870598,0.928049862677489,0.934556140610511,0,0.940640791892218,0.96943541202019,0.947403352691725,0.973569006640915,0.975114971029066,0.975792880546865,0.96687258335534,0.965425825238086,0.966145070702093,0,0.972610012688907,0.972097446955937,0.966740308327477,0.966798178652167,0.967112331843342,0.964747915720287,0.970997910786824,0.967914249199763,0.96675684270596,0,0.965516764319742,0.963673181118899,0.963177149764412,0.968658296231493,0.970501879432337,0.967773706982658,0.965260481453257,0.966169872269817,0.958613661303131,0,0.958828608223409,0.956968490644083,0.956216176423111,0.959151028603826,0.959241967685482,0.958869944169616,0.956976757833324,0.956257512369318,0.955306785606551
1.02069198531718,0.957133834428912,0.952743956941701,0.935448997048588,0.935076973532722,0.965525031508984,0.964780984477253,0.953314392999362,0,0.982563708535613,0.971940370360349,0.991310394753067,1.03673859963484,1.03926835954272,1.1173684963067,1.08076138234556,1.12176664098315,1.08547368021319,0,1.10747267078469,1.09581593395424,1.12267603179971,1.1156737225122,1.12753713907369,1.12697497020527,1.13488667030934,1.13567205328727,1.13215849785966,0,1.13476266247071,1.14453448015411,1.13613501588479,1.1363747643728,1.13419222641305,1.18324146018258,1.26256514095429,1.19319515602928,1.18649873274371,0,1.16907149782273,1.17144418113503,1.17877717799219,1.1778016496617,1.18901195827311,1.2193856115462,1.20574474929781,1.22146894323504,1.22283302945988,0,1.22747918981358,1.43078590763933,1.43046348725891,1.34606375229294,1.34713848689433,1.34568346158784,1.29778336712287,1.29746094674246,1.33396058724346,0,1.31267257494672,1.31731873530042,1.31668216172883,1.3624493213695,1.4110355925415,1.41186231146565,1.43181103910527,1.41614471549272,1.46807093111827,0,1.52032783431347,1.51892241214243,0.00327966010959728,1.83041356838179,1.83018208708303,1.63323283778396,1.62793356948019,1.6450879871562,1.63725069175531,0,1.5175417915391,1.52831393912071,1.52811552657892,1.42214669488201,1.41277996947145,1.44520388567641,1.40280973924626,1.401123232641,1.40218970005315,0,1.39396384675791,1.38366292896306,1.38835042526296,1.3576626187987,1.33801977716101,1.33691197380266,1.35565369181302,1.31101086990919,1.31636800853765,0,1.31682270394593,1.31607038972496,1.2903098280486,1.29005354518212,1.30743944415689,1.30267754315381,1.31180452007637,1.31130022153264,1.28709389143368,0,1.324974152538,1.2738746558366,1.2744533590835,1.27389119021508,1.17730561830722,1.17017930118109,1.15636482795862,1.12242801612247,1.14822991374504,0,1.13930961655351,1.11092835588761,1.09308776150456,1.09103749857268,1.05617476154149,1.05887813242344,1.0498751633395,1.05217344194862,1.04217841015571,0,1.03895420635155,1.04010334565611,1.01236692575104,1.01376408073285,1.01364834008347,0.991632815133484,0.984589169899768,0.9878464424609,0.998924476044443,0,0.980017414249246,0.97126246084255,0.948494621671596,0.934564407799752,0.93107565393986,0.930579622585373,0.930943378911997,0.933398734116708,0.944989333433221,0,0.945568036680123,0.940186096483939,0.968641761853011,0.979835536085934,0.996072295756143,0.975809414925348,0.966558430164165,0.967963852335212,0.967947317956729,0,0.973122578421877,0.969468480777156,0.970336535647508,0.967674500711761,0.967633164765554,0.96807132579535,0.9693775416955,0.969245266667637,0.968178799255489,0,0.967128866221825,0.967352080331344,0.96738514908831,0.970377871593715,0.969212197910671,0.969451946398673,0.965690375293813,0.966971789626238,0.977206569907153,0,0.958216836219542,0.9566130015067,0.959737999039969,0.95877900508796,0.959622258390588,0.958820341034168,0.957026360968773,0.956199642044628,0.956356718640215
0.950222464223059,0.951231061310516,0.938449986743234,0.933440070062915,0.935035637586515,0.990657286802993,0.939764469832625,0.957571995458709,0,0.956183107666145,0.989334536524361,0.981951936531746,1.02003061017787,1.05544724888824,1.07495781549806,1.07761158324457,1.09864331267482,1.08546541302395,0,1.08616812410947,1.30767919264489,1.1206588376248,1.1407233059138,1.1278182235079,1.1269419014483,1.1198817218361,1.12020414221652,1.13051332720061,0,1.17387473477202,1.17318029087573,1.14326133301092,1.13811914130274,1.13863997422495,1.13782152249005,1.17951295783468,1.17425502547712,1.17472625526388,0,1.14586549762198,1.17203941876041,1.20185090316508,1.1736515206625,1.17303974865863,1.20308271436206,1.20422358647738,1.20224772824867,1.20000731996424,0,1.21874903797461,1.43016586844622,1.43041388412346,1.27868615997512,1.27887630532768,1.27859522089347,1.29737827485004,1.29755188582411,1.3333901511858,0,1.31223441391693,1.31833559957712,1.31696324616304,1.35432267434515,1.35479390413191,1.45114799474102,1.41656634214403,1.41650847181934,1.46691352462446,0,1.47977727108416,0.00371700268765924,0.00355325447035383,1.78625024345396,1.83000847610896,1.60047823400933,1.6712949770516,1.57777653235231,1.75956375658256,0,1.54315354380912,1.53624217360327,1.52657782938001,1.52031129993499,1.40797673252216,1.34942023112497,1.34914741388,1.37093145753123,1.39658454574745,0,1.39410438897501,1.41139108167888,1.42405641559678,1.40878691706783,1.33619272833865,1.35702604522711,1.32808261569279,1.31195332948272,1.30768745983413,0,1.29474930867126,1.36906307276266,1.29064051561826,1.29750228268866,1.2860604927785,1.30896060697731,1.32276681301054,1.29158297519178,1.28420864238841,0,1.24021892843465,1.26466500702162,1.26279662225305,1.18199311460712,1.1679471600859,1.16819517576314,1.15692699682704,1.1225933599073,1.11709567906173,0,1.11022564480209,1.12137808308881,1.09355072410208,1.0693609283816,1.06255703163589,1.04958581171605,1.0538434141754,1.060267020216,1.03768105920836,0,1.02596645205323,1.0264790177862,1.02096480256215,1.00729913874603,1.01737684243136,0.995873883214348,0.984820651198529,0.973792220750434,0.997395046034775,0,0.997527321062638,0.9770164245546,0.968319341472594,0.933729421686366,0.933845162335746,0.93523405012831,0.936788281705702,0.969162594775222,0.971179788950136,0,0.95102438157948,0.990566347721337,0.990177789826989,1.0415583709626,0.967170202168033,0.967343813142103,0.967798508550383,0.967848111685831,0.970592818513993,0,0.97103097954379,0.971684087493864,0.970344802836749,0.97012158872723,0.967376881899069,0.967699302279485,0.968542555582113,0.969104724450532,0.969137793207497,0,0.969071655693566,0.967484355359208,0.967823310118107,0.969964512131643,0.969931443374677,0.970336535647508,0.965351420534913,0.962127216730748,0.971022712354548,0,0.957216506321326,0.957075964104222,0.959316372388655,0.959324639577896,0.958812073844926,0.958638462870856,0.956836215616219,0.9566130015067,0.957662934540365
0.952297528722663,1.01701308610474,0.946667572849236,0.922444708371786,0.931183127399999,1.02003061017787,1.02079119158808,0.950801167469961,0,0.984911590280185,0.984167543248454,0.977314043367292,1.02372604376879,1.03658979022849,1.03296876134074,1.06785629993966,1.09684933260942,1.08548194740243,0,1.1280579719959,1.12881855340611,1.12203945822812,1.12219653482371,1.13161286336972,1.12141941903501,1.11968330929431,1.18801989556414,1.1296535395195,0,1.13634996280507,1.14856886850394,1.1286366752428,1.13766444589446,1.13790419438246,1.14043395429035,1.14722131665758,1.14931291553567,1.15082581116685,0,1.1475850729842,1.18426659164852,1.17662770878942,1.17354404720236,1.17370939098719,1.18525038716825,1.19102915244802,1.20016439655983,1.18924343957187,0,1.26549172594577,1.44227730068494,1.44305441647364,1.27900858035554,1.2793392679252,1.27946327576382,1.29472450710354,1.34032632295938,1.38023204542786,0,1.37944666244992,1.31516926609764,1.33330747929338,1.34744437289626,1.36742616929285,1.41025020956356,1.42333717013278,1.41323466487973,1.41345787898925,0,1.43712684178752,1.43511791480185,0.00372954401373852,0.00352593967710008,1.74991594673779,1.57685060715727,1.62355195918222,1.58242269270601,1.57601562104388,0,1.5744035191418,1.53472101078284,1.54555929587838,1.50848095213048,1.40753030430313,1.36639277063767,1.3704684949337,1.38000883131834,1.38030645013103,0,1.46795519046889,1.40853063420134,1.40729055581512,1.38188548327615,1.33853234289398,1.33376217470166,1.36477240154634,1.32718149206547,1.30018911919213,0,1.28513456758345,1.27652015639386,1.28374567979089,1.27007174878553,1.27290739469535,1.27284952437066,1.23656483078993,1.25906811990516,1.23636641824814,0,1.30785280361896,1.26578107756922,1.27651188920462,1.17228743443766,1.17176660151545,1.17299014552318,1.14917237331856,1.13493627344478,1.12308112407254,0,1.10928318522856,1.08696177427665,1.0785953787643,1.07327957608205,1.05955604194124,1.05856397923227,1.08026535099107,1.0507514853991,1.03877232818823,0,1.02873596044911,1.03574653692586,1.01992313671773,1.00513313516477,1.00466190537801,0.991417868213206,0.990624218046027,0.968559089960596,0.960118289745075,0,1.00369464423676,0.987772037757727,0.961961872945919,0.936705609813288,0.934862026612445,0.938011825713437,0.938268108579922,0.925974798177886,0.931422875888001,0,0.943964201967281,0.944220484833766,0.964847121991185,0.97342846442381,1.07785959892181,0.971411270248896,0.970377871593715,0.971229392085585,0.971998240685039,0,0.9734863347485,0.972196653226834,0.972907631501599,0.968244936769421,0.967236339681964,0.967277675628171,0.968426814932733,0.968988983801152,0.969542885480329,0,0.969005518179634,0.969774366779089,0.970758162298822,0.970369604404474,0.972709218959804,1.10176831020809,0.963135813818205,0.962557110571303,0.962507507435854,0,0.965318351777948,0.965698642483054,0.959374242713345,0.959308105199413,0.958762470709477,0.958580592546165,0.956976757833324,0.957175170375119,0.958993952008238
0.951255862878241,1.05030505718006,0.99679980840939,0.920369643872182,0.920055490681007,1.02453622831446,1.01933616628158,0.971237659274826,0,0.970906971705168,0.970766429488063,0.993798818714744,0.994857018937649,1.06745120766682,1.06845153756504,1.06864995010684,1.09151699554869,1.08581263497209,0,1.08795383698562,1.18014126421703,1.12174183941543,1.13605234399238,1.12642106852609,1.15976264273686,1.12038602037983,1.1507348720852,1.09982552073634,0,1.09961057381607,1.12840519394404,1.12833078924087,1.13920214309337,1.13873091330661,1.18219152714891,1.14610524610998,1.14417072382748,1.16290417464861,0,1.16446667341524,1.23329929103956,1.1761647461919,1.17067533253557,1.17142764675655,1.21966669598041,1.18163762546974,1.18181123644381,1.18894582075918,0,1.2617880251656,1.25857208855067,1.42415562186768,1.43486163193536,1.33318347145476,1.33162923987737,1.28076122447473,1.35608358565358,1.38177800981601,0,1.37745426984273,1.31471457068936,1.34193015767222,1.34071488085372,1.36950123379245,1.38451444945493,1.41440033856277,1.41328426801517,1.43550647269619,0,1.43971447202009,1.46826107647082,1.46213508924291,1.65018884291818,1.60694317599615,1.57140252944715,1.74851052456674,1.73930087575177,1.56318494334115,0,1.56292866047467,1.52838834382389,1.52785924371244,1.57472593952222,1.4389373562314,1.41101905816302,1.37125387791164,1.36684746604595,1.3762720617812,0,1.41050649243005,1.40906800150204,1.40742283084299,1.3818358801407,1.38205082706098,1.36495427970966,1.33467983270747,1.31254029991886,1.29719639668673,0,1.31011801347112,1.29079759221385,1.27191533198637,1.26544212281032,1.2584976838475,1.2381934670705,1.23668883862855,1.22062568993242,1.23027349977719,0,1.22806616024972,1.24739484869623,1.27051817700457,1.25381845473684,1.25314054521904,1.14053316056125,1.14143428418856,1.13194355093938,1.13262146045718,0,1.10770415208345,1.08809437920273,1.07009670822409,1.06815391875235,1.04390625270717,1.04343502292041,1.04522900298581,1.10220647123788,1.05495948472299,0,1.0185425161144,1.01627730626225,1.01308617121505,1.00924192821777,1.00491818824449,0.996022692620694,0.996072295756143,0.960407641368526,0.963491302955587,0,0.995915219160555,0.97644598849694,0.954174180680472,0.933001909033118,0.954405661979233,0.940458913728906,0.940376241836492,0.93426678898706,0.930968180479721,0,0.937838214739366,0.964508167232285,1.0019668016853,0.979058420297238,0.977686066883157,1.10732386137834,0.973932762967539,0.974114641130851,0.97370954885802,0,0.973932762967539,0.974437061511267,0.972816692419943,0.968906311908737,0.968567357149838,0.967748905414934,0.967542225683898,0.970394405972198,0.970394405972198,0,0.970568016946268,0.971981706306557,0.971998240685039,0.972403332957871,1.01675680323825,0.981315362960154,0.96516127518236,0.96453296880001,0.96470657977408,0,0.964814053234219,0.963152348196687,0.962953935654893,0.961143421211015,0.961300497806603,0.958696333195546,0.957266109456775,0.957621598594157,1.00124755622129
0.953289591431637,1.01367314165119,0.994542865746474,0.91802176212761,0.917773746450367,1.01373927916512,1.01139139742055,0.976090499359557,0,0.964995931397531,1.00533981489581,0.977876212235711,1.00204947357771,1.01579780928624,1.01575647334004,1.04794890824624,1.10949813214884,1.13082748039178,0,1.13079441163482,1.10200805869609,1.11449151445068,1.1169882056016,1.11899713258727,1.192021215157,1.15535623087117,1.12316379596496,1.11266446562832,0,1.11671538835663,1.12527192922153,1.12483376819173,1.25261971229683,1.1643178640089,1.16206918853522,1.16254868551123,1.19169879477658,1.16006026154955,0,1.15893592381271,1.19575798469413,1.18813563621352,1.16884001652397,1.16826131327707,1.18542399814232,1.19160785569493,1.19450137192943,1.19484032668833,0,1.22492462833797,1.25988657164006,1.44507987783779,1.2914672345424,1.29447649142629,1.2981884593957,1.2793392679252,1.37576776323747,1.30316530731906,0,1.30387628559382,1.38464672448279,1.56001860986168,1.33740800515714,1.33724266137231,1.36471453122165,1.34884979506731,1.36288748239929,1.38280314128195,0,1.39393904519018,1.44550977167835,1.4561909801783,1.43517578512654,1.60407446132937,1.57394882373352,1.6190794098026,1.61799640801197,1.62237801830994,0,1.54312047505215,1.5330179697991,1.49040887644866,1.49940357834336,1.57012111511473,1.51435892368115,1.47362648228852,1.38851576904779,1.37213846716048,0,1.37125387791164,1.38228230835974,1.47847932237325,1.38080248148552,1.3809595580811,1.35094966113464,1.32779326406934,1.33821818970281,1.27684257677428,0,1.27031149727353,1.28491962066318,1.31340008759997,1.24135980054997,1.24571660928022,1.24024373000238,1.23460550693971,1.23395239898963,1.23676324333173,0,1.20300004246964,1.23020736226326,1.18565547944108,1.18258008504326,1.14329440176789,1.14162442954112,1.13833408822302,1.1672692505681,1.12241974893323,0,1.09113670484358,1.09099616262648,1.06508679154377,1.06396245380693,1.05047040096489,1.05941549972414,1.04867642089949,1.04794890824624,1.06111027351863,0,1.01928656314614,0.994038567202746,1.01155674120538,1.00277698623096,0.993418528009637,0.994815682991442,1.01423531051961,0.967666233522519,0.956199642044628,0,0.976032629034867,0.975825949303831,0.960779664884391,0.934043574877541,0.933001909033118,0.933473138819881,0.934407331204165,0.927991992352799,0.939152697828757,0,0.95256207877839,0.963408631063172,0.990491943018164,0.980472109657526,0.978438381104129,0.976594797903286,0.974833886594857,0.974767749080925,0.974759481891684,0,0.974412259943543,0.973957564535263,0.972651348635114,0.969823969914538,0.97046054348613,0.971080582679238,0.969137793207497,0.968542555582113,0.97120459051786,0,0.972461203282561,0.970906971705168,0.97331272377443,0.974957894433479,1.02024555709814,0.976007827467143,0.966070665998919,0.964954595451324,0.964814053234219,0,0.964640442260149,0.963003538790341,0.962251224569369,0.962449637111164,0.960176160069765,0.958671531627821,0.957390117295397,0.957158635996636,0.972147050091385
0.94834581226525,0.947452955827173,0.992839824762735,0.926214546665887,0.937987024145713,1.00808452172397,0.964392426582905,0.976115300927282,0,0.961589849430053,0.961870933864263,0.979174160946618,1.03335731923508,1.00810932329169,1.00535634927429,1.04769262537976,1.0833820813351,1.12332913974979,0,1.09679146228473,1.09048359689351,1.11207749519217,1.09741976866708,1.12896736281246,1.12260989428578,1.11488007234503,1.1055216141237,1.1046039561179,0,1.15048685640795,1.14644420086888,1.25215674969931,1.25281812483862,1.26313557701195,1.15441377129764,1.19415414998129,1.17183273902938,1.17172526556924,0,1.15992798652169,1.15952289424886,1.16849279457583,1.17567698202665,1.19173186353355,1.19908966195844,1.18568854819805,1.18477915738149,1.19783304919374,0,1.25214848251007,1.24484855440987,1.26513623680839,1.2911861501082,1.29082239378157,1.26450793042603,1.29602245581444,1.37792549962949,1.29393085693636,0,1.30756345199551,1.32156807057053,1.50205734608987,1.34961037647752,1.33415073259601,1.3318937899331,1.38083555024248,1.3446996660681,1.34514609428714,0,1.3405908730151,1.34407135968575,1.41037421740218,1.44046678624106,1.56383805129123,1.66747553562205,0.00369813696181025,1.73814346925797,1.68502677838165,0,1.68485316740758,1.56476397648627,1.49567507599547,1.49432752414911,1.57447792384497,1.52000541393306,1.39970127609147,1.39146715560699,1.37339507992518,0,1.37122080915468,1.38828428774903,1.35803464231456,1.32771059217692,1.34838683246979,1.36058920379017,1.33317520426552,1.34152506539939,1.31655815389021,0,1.27867789278588,1.27189879760789,1.21937734435696,1.22780987738324,1.20548846643132,1.24279002428874,1.19727088032532,1.20717497303658,1.19193854326458,0,1.21573978109072,1.18719317663999,1.18574641852274,1.18546533408853,1.14785789022917,1.19472458603895,1.13565551890879,1.16773221316562,1.17752883241674,0,1.1130199547657,1.07481727328096,1.06000247016028,1.06040756243311,1.05164434183717,1.0504538665864,1.05378554385071,1.02232062159775,1.02832260098704,0,1.01020092216978,0.9922941902728,1.0077124982081,1.01693868140156,1.02221314813761,0.995534928455448,0.989094788036359,0.96578958156471,0.966665903624304,0,0.941136823246705,0.926222813855129,0.927603434458451,0.952876231969565,0.931431143077243,0.931116989886067,0.927347151591966,0.930546553828407,0.984134474491488,0,0.964557770367734,1.00444695845773,0.962011476081367,0.980455575279043,0.981257492635464,1.10433113887293,1.06284638325934,0.976065697791833,0.974734680323959,0,0.975437391409483,0.975288582003137,0.971758492197037,0.970584551324751,0.971171521760894,0.971576614033725,0.971518743709035,0.970617620081717,0.97177502657552,0,0.973420197234569,0.974304786483404,0.973263120638981,0.973833556696641,0.974817352216374,1.0138550198145,0.968120928930799,0.965062068911463,0.964962862640565,0,0.965921856592573,0.961961872945919,0.959771067796934,0.960721794559701,0.959638792769071,0.958555790978441,0.957249575078292,0.956877551562427,0.971080582679238
0.953264789863913,1.04593998126057,0.926867654615962,0.928074664245214,0.958621928492373,0.960085220988109,0.965830917510917,0.984349421411766,0,0.965012465776014,0.970857368569719,0.973147379989601,0.984332887033283,1.00526541019264,1.00558783057305,1.05183448718973,1.09003716867447,1.07083248806658,0,1.08321673755027,1.08453122063966,1.11130864659272,1.10370283249058,1.10522399531101,1.10172697426188,1.09769258591205,1.09973458165469,1.09951136754517,0,1.1223949473655,1.31179625288713,1.25010648676743,1.30348772769947,1.25107374790868,1.18819350653821,1.15600933882124,1.15676165304221,1.16406984833165,0,1.14040915272262,1.13918560871489,1.17136150924261,1.16545873612422,1.17427982704485,1.24105391454804,1.18495276835556,1.20464521312869,1.19924673855403,0,1.19889124941664,1.2174510892637,1.23639121981586,1.25481878463506,1.25668716940362,1.26111838283704,1.29674996846769,1.32558592454187,1.3848286026461,0,1.31128368715416,1.32430451020945,1.38218310208884,1.54749381816088,1.33634980493424,1.32586700897608,1.38137291754318,1.31965008266651,1.31060577763636,0,1.3228990880384,1.31903831066264,1.40816687787472,1.4080428700361,1.5429303296996,1.57059234490149,1.57887606852143,1.62031122099957,1.6037024378135,0,1.68868087602637,1.57084036057874,1.45497570335981,1.4928890332211,1.50022203007827,1.58704405149198,1.41403658223615,1.44894892240279,1.37336201116821,0,1.36213516817832,1.32612329184256,1.32458559464365,1.32859518142576,1.32795034066492,1.33090172722412,1.33399365600042,1.33391925129725,1.27310580723714,0,1.27122915527933,1.22238660124085,1.20252881268288,1.21096134570916,1.24025199719162,1.23473778196757,1.18763960485903,1.1905661898505,1.18093491438421,0,1.2134828384278,1.17498253813037,1.17346964249918,1.15673685147449,1.19350930922046,1.19231883396969,1.18071170027469,1.18602750295695,1.11566545532296,0,1.08729246184631,1.12227920671612,1.0764211079938,1.06918731740753,1.05097469950861,1.0223702247332,1.02042743526146,1.01907161622586,1.02903357926181,0,1.0076711622619,1.00327301758545,1.00582757906105,0.982571975724854,1.00171878600805,0.986019393638539,0.9814641723665,0.945146410028809,0.933878231092712,0,0.928314412733216,0.922403372425579,0.922552181831925,0.943435101855829,0.941591518654985,0.927934122028109,0.922039616098955,0.945460563219984,0.965235679885533,0,0.979595787597932,0.967757172604175,0.965235679885533,0.965401023670362,1.02246116381485,1.10555468288067,0.968542555582113,0.969476747966397,1.19288100283811,0,0.976809744823564,0.977462852773638,0.973420197234569,0.970336535647508,0.970857368569719,0.971163254571653,0.972304126686973,0.972295859497732,0.973147379989601,0,0.975131505407549,0.974693344377752,0.975925155574728,0.9750819022721,0.97912455781117,0.969956244942401,0.969005518179634,0.966260811351473,0.96447509847532,0,0.963532638901794,0.960589519531838,0.961498910348398,0.959986014717212,0.959456914605759,0.958291240922715,0.956910620319393,0.959200631739274,0.974875222541064
0.957662934540365,1.03959904711238,0.953504538351915,0.947130535446757,0.949321340595741,0.955976427935109,0.966740308327477,0.99890794166596,0,0.963929463985384,0.963731051443589,1.01478094500954,0.985118270011221,1.02234542316547,1.04933779603881,1.05475280499196,1.09368299912995,1.07074154898492,0,1.09699814201577,1.08558942086257,1.1058605688826,1.10530666720343,1.08925178569653,1.09469986340665,1.09918894716475,1.10309106048672,1.10349615275955,0,1.18324972737182,1.30026352389531,1.24658466415057,1.30026352389531,1.28204263880715,1.18719317663999,1.14924677802173,1.19701459745883,1.23950795015989,0,1.14281490479189,1.14300505014444,1.13871437892813,1.15753876883091,1.16922030722908,1.18513464651887,1.207737141905,1.19084727428471,1.23902845318388,0,1.28130685896466,1.23310087849777,1.23391933023267,1.24490642473456,1.25552149572058,1.25328935462539,1.26504529772673,1.29894904080592,1.28565540050566,0,1.29937066745723,1.31256510148659,1.38458058696886,1.34267420470395,1.32551978702794,1.31923672320444,1.32032799218431,1.31993116710072,1.31092819801678,0,1.31019241817429,1.31220134515996,1.31692191021683,1.36793046783658,1.49664233713672,1.64906450518134,1.53355533709979,1.6190794098026,1.61741770476507,0,1.61705394843844,1.48744922270023,1.45434739697746,1.48030637119561,1.51077096355036,1.45214832463923,1.38461365572583,1.33387791535104,1.32189875814018,0,1.35295858812031,1.32518083226904,1.32494935097028,1.32892586899542,1.32795860785417,1.37544534285706,1.29855221572233,1.31080419017816,1.26726090444344,0,1.23114982183678,1.2305545842114,1.19622094729165,1.19140944315313,1.18992134908967,1.20090017640232,1.18217499277043,1.17626395246279,1.18194351147167,0,1.16579769088312,1.15944022235644,1.17216342659903,1.15577785752248,1.13687906291652,1.12580102933298,1.12580102933298,1.12257682552882,1.0969650732588,0,1.11068860739961,1.11750077133457,1.12042735632604,1.06192045806429,1.03422537410544,1.03386161777881,1.00577797592561,1.00797704826383,1.00677830582382,0,1.00622440414464,0.993641742119156,1.00269431433854,0.984812384009287,0.998048153984849,0.958886478548099,0.951570016069415,0.936465861325286,0.931968510377937,0,0.924552841628356,0.923750924271935,0.922494311507235,0.930802836694892,0.933423535684432,0.925239018335396,0.931331936806345,0.928033328299006,0.976214507198179,0,0.973544205073191,0.970667223217166,0.993716146822329,0.995105034614893,0.983390427459758,1.04824652705894,0.968063058606109,0.968104394552316,0.969923176185435,0,0.98095160663353,0.980968141012013,0.979587520408691,0.978421846725646,0.973106044043394,0.970898704515927,0.973585541019398,0.973015104961738,0.974635474053062,0,0.976007827467143,0.978049823209781,0.977206569907153,0.977090829257773,0.974089839563126,0.971336865545723,0.967294210006654,0.967112331843342,0.96311101225048,0,0.962325629272542,0.962044544838333,0.962110682352265,0.96128396342812,0.959076623900652,0.958010156488505,0.957084231293463,1.09732056239619,1.02369297501183
0.958812073844926,0.959043555143687,0.958845142601892,0.956414588964905,0.943112681475412,0.995964822296004,0.964152678094903,0.973569006640915,0,0.973693014479537,0.989111322414842,0.98477104806308,0.984572635521285,1.01926176157841,1.05606728808135,1.05362020006588,1.05525710353569,1.06864168291759,0,1.08255536241095,1.07934769298527,1.08353089074145,1.08911951066867,1.08606891783857,1.09660131693218,1.0969237373126,1.10505865152618,1.1613664774497,0,1.16015120063121,1.15171040041569,1.25346296559946,1.30272714628926,1.18564721225184,1.18531652468218,1.15530662773572,1.14332747052486,1.14374082998693,0,1.15117303311499,1.15599280444276,1.13947496033834,1.13934268531048,1.17075800442799,1.17358538314856,1.18839191908,1.21172192711937,1.1989821884983,0,1.20432279274828,1.21145737706365,1.24087203638473,1.22828110717,1.2227172888105,1.21959229127724,1.22094811031283,1.25764616335563,1.31510312858371,0,1.28894574182376,1.30504195927687,1.30497582176293,1.34133492004683,1.32210543787122,1.31918712006899,1.32064214537548,1.30194176331132,1.30884486632793,0,1.33743280672487,1.3380776474857,1.30996920406477,1.32614809341029,1.49450940231242,0.00393900978754915,1.60614125863973,1.65027978199983,1.57848751062708,0,1.57117931533763,1.45992774971544,1.47680108295724,1.49461687577256,1.47848758956249,1.50218135392849,1.40390100822613,1.35962194264892,1.31069671671802,0,1.31238322332327,1.32512296194435,1.34381507681927,1.32914908310494,1.32788420315099,1.37879355449984,1.37909944050178,1.31025028849898,1.2614490704067,0,1.25990310601855,1.21742628769598,1.22605723326405,1.22569347693743,1.18399377440355,1.18282810072051,1.16260655583592,1.16114326334018,1.13797859908564,0,1.15975437554762,1.14576629135108,1.18012472983855,1.14160789516263,1.15606720914593,1.16433439838738,1.18820177372745,1.1224941536364,1.09770085310129,0,1.09772565466902,1.09080601727392,1.08465522847828,1.06461556175701,1.02921545742512,1.01979086168986,0.989491613119948,0.991475738537896,0.991351730699275,0,1.01378888230057,0.977710868450882,0.975958224331694,0.967930783578246,0.983696313461692,0.985052132497289,0.940491982485872,0.941674190547399,0.936970159869014,0,0.927512495376795,0.927371953159691,0.932894435572979,0.931034317993653,0.931480746212691,0.933836895146505,0.932018113513386,0.947750574639866,0.947618299612002,0,0.992186716812661,0.987937381542556,0.993509467091293,0.97998434549228,0.981951936531746,0.981331897338637,1.04295552594441,0.968005188281419,0.969468480777156,0,0.970890437326685,0.980133154898627,0.980405972143594,0.981811394314641,0.971675820304623,0.971270728031792,0.973659945722571,0.97981073451821,0.986978387590547,0,0.9782730373193,0.977826609100262,0.976983355797634,0.976379850983008,0.975635803951277,0.970642421649442,0.968757502502391,0.966095467566644,0.965401023670362,0,0.962887798140961,0.964243617176559,0.964202281230352,0.963458234198621,0.959018753575962,0.958572325356924,0.958638462870856,1.16666574575347,0.97177502657552
0.959068356711411,0.959465181795001,0.959655327147554,0.956364985829457,0.964450296907595,0.964574304746217,0.977289241799568,1.00626574009085,0,0.970047184024057,0.980248895548007,0.974015434859953,0.975784613357624,1.05743964149543,1.05504215661541,1.07508182333668,1.07330437764977,1.05436424709761,0,1.07120451158244,1.08592010843222,1.08243135457233,1.08592010843222,1.08760661503748,1.10772068646193,1.09879212208116,1.09835396105137,1.1046039561179,0,1.15210722549928,1.15142104879224,1.14803976839248,1.14911450299387,1.13167073369441,1.1336631263016,1.13595313772148,1.16236680734792,1.1458489632435,0,1.12760327658762,1.12742966561355,1.13947496033834,1.13961550255544,1.17203115157117,1.17977750789041,1.19574145031565,1.21955922252027,1.18637472490509,0,1.20322325657916,1.21180459901179,1.21909625992275,1.22761146484144,1.22230392934843,1.22033633830897,1.22191537145408,1.2217582948585,1.26992293937918,0,1.28673013510705,1.29649368560121,1.51304444059176,1.32598274962546,1.33641594244817,1.30782800205123,1.30901021011276,1.30878699600324,1.29674170127845,0,1.29293052703814,1.37660274935086,1.29422020855981,1.32590007773304,1.48999551698659,1.50136290219359,1.51635958347758,1.51549152860723,1.50998558057242,0,1.48332389526874,1.47025346907801,1.6300086339798,1.4761149062502,1.47800809258649,1.50115622246255,1.40216489848542,1.34857697782234,1.31663255859338,0,1.29547682132451,1.31388785176522,1.34174001231966,1.34285608286726,1.36769898653782,1.37916557801571,1.31096126677374,1.31096953396299,1.21903012240882,0,1.21734361580356,1.25675330691755,1.19231883396969,1.19711380372973,1.19707246778352,1.18297691012685,1.15779505169739,1.13602754242466,1.1360771455601,0,1.13602754242466,1.16017600219893,1.14905663266918,1.17227090005917,1.15955596300582,1.1388879899022,1.15447990881157,1.09370780069767,1.10824151938414,0,1.12702457334072,1.06460729456777,1.07060927395706,1.02106400883305,1.02537121442784,1.00347143012724,1.00452963035015,0.998428444689956,1.00055311232501,0,1.00242149709358,0.97593342276397,0.98311761021479,0.961482375969915,0.948023391884833,0.962796859059305,0.954372593222267,0.93574661586128,0.950619289306649,0,0.95204951304542,0.924131214977042,0.950371273629405,0.939673530750969,0.923957604002972,0.937259511492465,0.92349464140545,0.984390757357973,0.984820651198529,0,0.989632155337053,0.988549153546423,0.99679980840939,1.04992476647495,0.981472439555741,1.09970151289772,1.09993299419648,0.96846815087894,0.9706341544602,0,0.971353399924206,0.976280644712111,0.98140630204181,0.981670852097536,0.973759151993468,0.974015434859953,0.974379191186577,0.987342143917171,0.982001539667194,0,0.980447308089802,0.979306435974481,0.974858688162581,0.976454255686181,0.972841493987667,0.969600755805019,0.967624897576312,0.966566697353407,0.965946658160298,0,0.965326618967189,0.965748245618503,0.967153667789549,1.2210803853407,0.97547872735569,0.974701611566994,0.961267429049637,0.962061079216816,0.970369604404474
0.959771067796934,0.961540246294605,0.961804796350331,0.963102745061239,0.965004198586772,0.971154987382411,0.979273367217516,0.980414239332836,0,0.979843803275176,0.979521382894759,0.988937711440771,0.974056770806161,1.02200646840657,1.07440391381888,1.05141286053841,1.05685267105929,1.13403514981747,0,1.10487677336287,1.09647730909356,1.13029838028033,1.08205933105647,1.10812577873476,1.09396408356416,1.09937909251731,1.11411122374557,1.11378053617591,0,1.10741480046,1.17159299054137,1.1174677025776,1.11928648421072,1.11681459462752,1.14145908575629,1.13523389225748,1.13215023067042,1.12815717826679,0,1.12724778745024,1.12742966561355,1.12743793280279,1.15094155181623,1.15428149626978,1.17116309670082,1.16897229155184,1.2001395949921,1.18527518873597,0,1.20198317819295,1.21489652778809,1.21415248075636,1.22031980393048,1.22819016808834,1.23343156606742,1.25895237925578,1.25989483882931,1.26989813781146,0,1.33364643405228,1.29571656981251,1.29331908493249,1.3331504026978,1.33816031937812,1.33741627234639,1.2945178273725,1.28521723947587,1.29547682132451,0,1.28329925157185,1.28984686545108,1.30868778973235,1.34498075050231,1.45061062744032,0.00372705558977684,1.61278807878985,1.51128352928333,1.50036257229537,0,1.49954412056047,1.45165229328475,1.63412569422204,1.46472271947548,1.62944646511138,1.4290663322771,1.35920031599761,1.31979062488361,1.29702278571266,0,1.29028502648088,1.26860845628979,1.33026515365253,1.34233524994505,1.43378689733397,1.27714846277621,1.34610508823915,1.25694345227011,1.25447156268691,0,1.1985440274685,1.19592332847896,1.19502220485165,1.22704929597302,1.20456254123628,1.17699146511604,1.15204108798534,1.15172693479417,1.13384500446491,0,1.1297940817366,1.12384170548276,1.13526696101444,1.12800836886045,1.13215849785966,1.14579109291881,1.14808110433869,1.14924677802173,1.08295218749454,0,1.09043399375806,1.04538607958139,1.04231068518357,1.03930142829969,1.03993800187128,1.00181799227895,0.998990613558375,0.996502189596698,1.01113511455407,0,1.01127565677117,0.979653657922622,0.983770718164865,0.962623248085235,0.94651876344289,0.953578943055088,0.935134843857412,0.934523071853545,0.947535627719588,0,0.925065407361326,0.924850460441048,0.948511156050079,0.935506867373278,0.943352429963414,0.970071985591781,0.940037287077592,0.941120288868222,0.981993272477953,0,0.980984675390496,0.987813373703934,0.995973089485245,1.05122271518586,0.975255513246171,0.974031969238436,0.973742617614985,0.971419537438138,0.970898704515927,0,0.970617620081717,0.974362656808094,1.00871282810632,0.98955775063388,1.11963370615886,0.97604916341335,0.977214837096394,0.981373233284844,0.980472109657526,0,0.980480376846767,0.977471119962879,0.978694663970614,0.978587190510475,0.973023372150979,0.971386468681172,0.969443679209431,0.969063388504324,0.967302477195896,0,0.967335545952862,0.965128206425394,0.964987664208289,0.964243617176559,0.987887778407107,0.976280644712111,0.974122908320092,0.974784283459408,1.06608712144199
0.96049031326094,0.962044544838333,0.96230909489406,0.964119609337937,0.967343813142103,0.970824299812753,0.97337059409912,0.979604054787174,0,0.981191355121532,0.9814641723665,0.973089509664911,0.973527670694708,0.984936391847909,1.06814565156311,1.03702795125829,1.03152200322348,1.04697337991575,0,1.13199315407483,1.0700388378994,1.08929312164274,1.07383347776122,1.07894260071244,1.11025044636981,1.11988998902534,1.14559268037701,1.11457418634309,0,1.14259995787161,1.14213699527409,1.10177657739733,1.11564065375524,1.13486186874161,1.12827291891617,1.13958243379848,1.12537940268167,1.12721471869327,0,1.1275206046952,1.13630035966962,1.16007679592803,1.16005199436031,1.1802735392449,1.17293227519849,1.16728578494658,1.16507017822987,1.16470642190325,0,1.2018343687866,1.19586545815427,1.20147061245998,1.20343820349944,1.2328280612528,1.26862499066828,1.27122088809009,1.26355720366327,1.28514283477269,0,1.29709719041583,1.29733693890383,1.29755188582411,1.35328100850073,1.36313549807654,1.2857215380196,1.28202610442867,1.2749328560595,1.27434588562336,0,1.28216664664577,1.29413753666739,1.31725259778649,1.36578926582304,1.42463511884369,1.46389600055133,1.46464831477231,1.60834033097795,1.46235830335242,0,1.52560230104952,1.87792510495241,1.52798325155106,1.62936379321896,1.62804931012957,1.40121417172266,1.38012457196772,1.3536943679628,1.29912265177999,0,1.26838524218028,1.2536117750058,1.28785447284389,1.28781313689768,1.2866391960254,1.28742457900333,1.24312897904764,1.21861676294674,1.19634495513028,0,1.20285950025254,1.21258171480049,1.21447490113678,1.21429302297347,1.23260484714328,1.1825883522325,1.14284797354885,1.13311749181166,1.13401861543898,0,1.1366145128608,1.12470976035311,1.12934765351756,1.14914757175084,1.11464859104626,1.11953449988796,1.11737676349594,1.0844981518827,1.08597797875692,0,1.03604415573856,1.06543401349191,1.03603588854931,1.02364337187638,1.04076472079542,1.00133849530295,1.0220726059205,1.00715859652893,1.00190893136061,0,1.00172705319729,0.976239308765903,0.962193354244679,0.972601745499665,0.994055101581229,0.946105403980817,0.937077633329153,0.953496271162674,0.927421556295139,0,0.92833921430094,0.927281014078035,0.951842833314384,0.935829287753694,0.950586220549683,1.0060755947383,0.942790261094996,0.948321010697526,0.956976757833324,0,1.0083904077259,0.986970120401306,0.987358678295654,1.06265623790678,0.974147709887817,0.974957894433479,0.973602075397881,0.973056440907945,0.972378531390146,0,0.970964842029858,0.972180118848351,0.977578593423018,0.987573625215932,0.988127526895109,0.978289571697783,0.980637453442355,0.981034278525945,0.979281634406757,0,0.979265100028274,0.97713216520398,0.97485042097334,0.974197313023265,0.972436401714836,0.97211398133442,0.970493612243095,0.969600755805019,0.967707569468727,0,0.968063058606109,1.06059770778566,0.973502869126983,0.964309754690491,0.964549503178493,0.977495921530604,1.04590691250361,0.969468480777156,0.967831577307348
0.960779664884391,0.962193354244679,0.963871593660694,0.965632504969122,0.968542555582113,0.968534288392872,0.972163584469868,0.979141092189652,0,0.978793870241512,0.977512455909087,1.01290429305174,1.01236692575104,0.987350411106413,1.0252637409677,1.06686423723068,1.02757855395531,1.04140956155626,0,1.04029349100866,1.04632853915492,1.08515125983277,1.04217841015571,1.04287285405199,1.0717749476401,1.11939395767086,1.12267603179971,1.1229323146662,0,1.11147399037755,1.11075474491354,1.09717175298984,1.11652524300407,1.11487180515578,1.13419222641305,1.13653184096838,1.14331920333561,1.14143428418856,0,1.12800010167121,1.12909137065108,1.16464028438931,1.19779171324753,1.1765037009508,1.16560754553056,1.1578363876436,1.17409794888153,1.17445343801892,0,1.19566704561248,1.19596466442517,1.20956419072736,1.21638462185155,1.28238159356605,1.2815135386957,1.27196493512182,1.2688482047778,1.27312234161563,0,1.31726086497573,1.29755188582411,1.29779990150136,1.30199136644677,1.30274368066774,1.30254526812595,1.26937730488925,1.28157967620963,1.27400693086446,0,1.32545364951401,1.29454262894022,1.2937407115838,1.32446158680503,1.42728061940095,1.43280310181424,1.43342314100735,1.42384146867651,1.49636951989175,0,1.50214001798228,1.49661753556899,1.75965469566422,1.42511461581969,1.42552797528176,1.41101905816302,1.32200623160032,1.31050657136546,1.27528834519689,0,1.27434588562336,1.25382672192608,1.28682107418871,1.2835472672491,1.25712533043342,1.28407636736055,1.28456413152579,1.2250899721228,1.18081090654559,0,1.17914093431882,1.20043721380479,1.29164084551647,1.19955262455596,1.21638462185155,1.20944018288873,1.13032318184805,1.13062906784999,1.13775538497612,0,1.12224613795916,1.10505865152618,1.09537777292444,1.09591514022514,1.07764465200153,1.12066710481404,1.12564395273739,1.06612019019895,1.03907821419017,0,1.03872272505278,1.01053987692868,1.01592181712486,1.0335805333446,0.99469167515282,0.995361317481378,1.01441718868292,1.0045213631609,1.02258517165347,0,0.976421186929215,0.984456894871905,0.965384489291879,0.968517754014389,0.978810404619994,0.953917897813988,0.9308441726411,0.979099756243445,0.926760181155823,0,0.927008196833067,0.92759516726921,0.941665923358158,0.925164613632223,0.94994137978885,0.950883839362375,0.945964861763712,0.984845452766253,0.977917548181918,0,0.978223434183851,0.983382160270517,0.985506827905569,1.05661292257128,0.975941689953211,1.09422863361988,0.975792880546865,0.973841823885883,0.973527670694708,0,0.971171521760894,0.970534948189303,0.974230381780231,1.10762974738027,0.981612981772846,0.98077799565946,0.98300186956541,0.98260504448182,0.98266291480651,0,0.97821516699461,0.976892416715978,0.974089839563126,0.971857698467935,0.972998570583255,0.972122248523661,0.971675820304623,0.970452276296888,0.968840174394805,0,0.970394405972198,0.970212527808886,0.967641431954795,0.980720125334769,0.979174160946618,0.978645060835165,0.974668542810028,0.967881180442797,0.96892284628722
0.962755523113098,0.962681118409925,0.964557770367734,0.965748245618503,0.969278335424602,0.969625557372743,0.970146390294954,0.979785932950485,0,0.997643061712018,0.997378511656292,0.98482891838777,1.00140463281688,1.04122768339294,1.00764636069417,1.04116154587901,1.01466520436016,1.03795387645333,0,1.03816882337361,1.05479414093816,1.04167411161198,1.04152530220564,1.04216187577723,1.0729902244586,1.13344817938132,1.12082418140963,1.12727258901796,0,1.08961554202315,1.08889629655915,1.13401861543898,1.13367966068008,1.11610361635276,1.11556624905207,1.14562574913398,1.14518758810418,1.12875241589218,0,1.16650866915788,1.15897725975892,1.15900206132665,1.18649873274371,1.17099775291599,1.16553314082739,1.16926164317529,1.17532976007851,1.18506850900494,0,1.18905329421932,1.2813151261539,1.2810753776659,1.24205424444626,1.24050001286886,1.36468972965393,1.29011141550681,1.28996260610046,1.29365803969139,0,1.29450956018326,1.29885810172426,1.30152013666001,1.30452112635465,1.27661936266476,1.27458563411136,1.28086869793487,1.2745525653544,1.27516433735826,0,1.31030815882367,1.31089512925981,1.35155316594927,1.34630350078094,1.42019563822103,1.42531302836149,1.41871581134681,1.41281303822841,1.60787736838043,0,1.44045025186258,1.49693168876017,1.39121913992974,1.33277011199269,1.42509808144121,1.2906487828075,1.26514450399763,1.27222121798831,1.26290409571319,0,1.24460880592186,1.24517097479028,1.28278668583888,1.28212531069957,1.25721626951508,1.25819179784557,1.25486012058126,1.2345641709935,1.2051247101047,0,1.19312075132611,1.20272722522468,1.18536612781763,1.24197983974308,1.18744945950648,1.15219816458093,1.13567205328727,1.13668065037473,1.15045378765099,0,1.07053486925389,1.08453122063966,1.07580933598993,1.07393268403212,1.06220980968775,1.06226768001244,1.07693367372677,1.06884009545939,1.07055967082161,0,1.02757028676607,1.01849291297896,1.01814569103082,1.0048189819736,1.01747604870226,1.01190396315352,1.00368637704752,1.01776540032571,1.01483881533423,0,0.994336186015438,0.988243267544489,0.974164244266299,0.956687406209873,0.96447509847532,0.943079612718446,0.942054481252506,0.930811103884134,0.934961232883342,0,0.936019433106247,0.952851430401841,0.923296228863655,0.956604734317459,0.950925175308582,0.947461223016415,0.953917897813988,0.972750554906011,0.979364306299171,0,0.981546844258914,0.985539896662535,0.986044195206264,1.07950476958086,0.980563048739182,0.981513775501949,0.981943669342504,0.977413249638189,0.972576943931941,0,0.970940040462134,0.972295859497732,0.973163914368084,1.00867975934935,0.99719663349298,0.98534148412074,0.984977727794116,0.982059409991884,0.980670522199321,0,0.981166553553808,0.975354719517068,0.972543875174975,0.971634484358415,0.971617949979933,0.971229392085585,0.972080912577454,0.970262130944335,0.970187726241162,0,0.970162924673437,0.97069202478489,0.969757832400606,1.03926009235348,0.979149359378894,0.967657966333278,0.970278665322818,0.969055121315083,0.970162924673437
0.963342493549241,0.964623907881666,0.964830587612702,0.967244606871205,0.96789771482128,0.969137793207497,0.971237659274826,0.97679321044508,0,0.998354039986783,0.996254173919455,0.982621578860303,0.982059409991884,1.00738181063845,1.00624920571237,1.03759012012671,1.06031662335145,1.07788440048954,0,1.0652521353286,1.02192379651416,1.04232721956206,1.04183945539681,1.04355903075903,1.05700974765487,1.09824648759123,1.10147895858463,1.12878548464914,0,1.08880535747749,1.08844986834011,1.08196839197481,1.08842506677238,1.11309435946887,1.10469489519956,1.14851926536849,1.1147147285602,1.1165500445718,0,1.1159713413249,1.16210225729219,1.15901859570513,1.19904832601223,1.1908638086632,1.16602917218188,1.16485523130959,1.17604900554252,1.19727914751456,0,1.20840678423355,1.1930380794337,1.1918228026152,1.19163265726265,1.240127989353,1.2812737902077,1.37004686828239,1.36824462102775,1.29517920251182,0,1.29162431113799,1.28978899512639,1.30370267461975,1.30496755457369,1.32776019531237,1.26173842203015,1.30886966789566,1.28009158214617,1.29851914696536,0,1.36545031106414,1.32524696978297,1.44259972106536,1.34775852608744,1.34984185777629,1.36322643715819,1.40883652020327,1.41062223307943,1.44142578019307,0,1.37122080915468,1.38269566782181,1.36834382729865,1.29582404327265,1.28801154943948,1.24791568161844,1.26356547085251,1.26471461015707,1.29197153308613,0,1.31025855568822,1.28320004530095,1.28183595907611,1.21581418579389,1.26453273199376,1.25915079179758,1.36436730927351,1.38601081070763,1.18539092938536,0,1.17432943018029,1.17074147004951,1.17532976007851,1.17802486377122,1.17342830655298,1.15170213322645,1.13134004612475,1.10573656104398,1.07891779914472,0,1.08659801795002,1.09075641413847,1.06287118482706,1.08277030933123,1.05579447083638,1.05595981462121,1.05965524821214,1.05713375549349,1.05500908785844,0,1.02058451185704,1.00569530403319,1.00865495778163,0.990119919502299,0.990773027452373,1.00172705319729,1.0028844596911,1.05872932301709,0.996295509865662,0,0.997271038196153,0.969154327585981,0.965318351777948,1.00720819966438,0.943112681475412,0.943228422124792,0.96368144830814,0.94617980868399,1.03231565339066,0,0.932993641843877,0.916236049251457,0.932357068272285,0.927123937482447,0.929199001982051,0.930530019449924,0.962648049652959,0.975743277411416,0.983456564973689,0,1.09002890148523,0.99058288209982,1.16224279950929,1.07528023587848,0.982869594537546,0.981629516151329,0.981183087932291,0.981877531828573,1.08838373082618,0,0.971039246733031,0.972204920416076,0.973072975286428,0.970997910786824,0.991285593185343,0.991401333834723,0.98539935444543,0.983845122868038,0.979579253219449,0,0.978926145269375,0.972560409553458,0.973097776854152,0.972246256362283,0.972155317280627,0.972196653226834,0.968997250990393,0.969865305860745,0.970154657484196,0,0.970427474729164,0.971692354683106,0.975710208654451,0.970270398133576,0.973089509664911,0.971684087493864,0.970320001269025,0.969534618291087,0.970708559163373
0.963764120200555,0.965128206425394,0.965764779996986,0.967310744385137,0.968087860173833,0.970410940350681,0.971014445165307,0.976338515036801,0,0.975189375732239,0.973560739451673,0.981216156689256,0.98197673809947,1.01468173873865,1.01125912239269,1.04271577745641,1.00465363818877,1.00332262072089,0,1.04853587868239,1.06948493622022,1.05396742201402,1.04782490040762,1.10904343674056,1.11301168757646,1.07229578056231,1.07865324908899,1.07680966588815,0,1.09288108177353,1.09334404437105,1.08183611694695,1.08827625736604,1.07468499825309,1.07355239332702,1.10471969676728,1.14936251867111,1.11749250414532,0,1.16275536524226,1.14163269673036,1.20854732645066,1.14455101453259,1.14345974555272,1.14190551397533,1.1874742610742,1.17327949714663,1.22238660124085,0,1.20806782947465,1.20324805814689,1.19252551370073,1.20949805321342,1.24168222093039,1.24142593806391,1.30250393217974,1.29913091896923,1.27824799894533,0,1.27499899357344,1.30419870597424,1.27714846277621,1.31538421301792,1.32262627079343,1.26363987555568,1.24441039338007,1.2706835207894,1.30242952747657,0,1.34549331623528,1.38979718338021,1.44611327649297,1.39708057710193,1.36479720311407,1.36337524656454,1.36201942752894,1.32665239195402,1.2856223317487,0,1.28287762492054,1.27718153153318,1.28078602604245,1.24857705675776,1.25469477679643,1.24019412686693,1.24728737523609,1.25672023816059,1.30920862265456,0,1.26282142382078,1.26156481105608,1.21939387873544,1.21908799273351,1.23982210335106,1.27453603097591,1.21316868523663,1.21229236317703,1.18735852042482,0,1.18289423823444,1.23918552977947,1.18776361269765,1.17198154843572,1.1597709099261,1.13183607747924,1.13079441163482,1.10522399531101,1.07976931963659,0,1.07986852590748,1.08276204214199,1.06227594720168,1.06903850800118,1.05105737140103,1.0505530728573,1.03601935417083,1.05013971339523,1.00433948499759,0,1.00512486797553,1.01342512597395,0.993997231256539,0.997469450737948,0.993344123306464,1.02216354500216,1.00120622027508,1.05560432548383,1.04994130085343,0,1.03676340120256,0.965756512807744,0.967517424116173,0.945683777329503,0.949089859296981,0.970138123105713,0.941558449898019,0.94161632022271,0.953082911700601,0,0.908448356986011,0.918608732563753,0.934572674988994,0.94150884676257,0.949015454593807,0.948279674751318,0.948370613832974,0.954496601060889,1.00481071478436,0,0.991169852535963,0.990458874261198,0.990351400801059,1.17065879815709,1.22058435398621,0.982274356912162,0.981447637988017,0.982183417830506,1.02869462450291,0,1.20704269800871,0.97422211459099,0.971022712354548,0.971245926464067,0.99343506238812,0.992302457462041,0.987011456347513,0.982869594537546,0.98100947695822,0,0.977570326233777,0.973420197234569,0.972874562744633,0.972560409553458,0.972676150202838,0.971560079655243,0.967765439793417,0.967765439793417,0.969195663532188,0,0.970477077864613,0.974304786483404,0.973602075397881,0.971593148412208,0.971436071816621,0.971518743709035,0.97171715625083,0.970989643597582,0.970625887270959
0.96362357798345,0.96482232042346,0.964491632853802,0.965037267343738,0.968840174394805,0.969757832400606,0.971841164089452,0.976892416715978,0,0.97485042097334,0.974321320861887,0.981687386476019,0.992186716812661,0.991293860374585,0.993104374818462,0.993335856117223,1.00333915509938,1.00348796450572,0,1.00343836137027,1.06287118482706,1.06510332592225,1.14810590590641,1.10883675700953,1.0812078105646,1.07885166163078,1.07695020810525,1.07741317070277,0,1.07718995659325,1.08229081235523,1.08163770440515,1.07389134808591,1.07577626723297,1.07474286857778,1.099916459818,1.1455100084846,1.11229244211245,0,1.11507848488682,1.13943362439213,1.1344815780365,1.14503051150859,1.14266609538554,1.14889955607359,1.14831258563745,1.21631021714838,1.18121599881842,0,1.20412438020648,1.20284296587406,1.20157808592011,1.20191704067901,1.20097458110549,1.2126643866929,1.24269908520709,1.24715510020823,1.32462693058986,0,1.3227998817675,1.30005684416427,1.24056615038279,1.23754862630967,1.22995107939677,1.23382012396177,1.23325795509335,1.23481218667075,1.27771063164463,0,1.31484684571723,1.37919037958343,1.43038081536649,1.4021400969177,1.40479386466421,1.49188043613364,1.34767585419503,1.28947484193521,1.28582074429049,0,1.26189549862574,1.27017095505643,1.27079099424954,1.22061742274318,1.21989817727917,1.24460880592186,1.22756186170599,1.23353903952756,1.25424834857739,0,1.23441536158716,1.24098777703411,1.21863329732523,1.21858369418978,1.22785948051869,1.21245770696186,1.21263958512518,1.21214355377069,1.23939220951051,0,1.23728407625394,1.19720474281139,1.15891938943423,1.15623255293076,1.17143591394579,1.14007846515297,1.10386817627541,1.10196672274988,1.09224450820193,0,1.06985695973609,1.05610862402756,1.056158227163,1.05243799200435,1.04076472079542,1.04184772258605,1.03644924801139,1.03465526794599,1.0072330012321,0,1.00285965812337,1.01644265004708,0.9999330731319,0.986647700020889,0.974023702049195,0.993625207740673,0.99377401714702,0.991376532266999,0.978000220074332,0,0.980339834629663,0.976553461957079,0.966054131620437,0.953446668027225,0.944509836457217,0.949164264000154,0.942467840714579,0.944369294240112,0.928562428410459,0,0.923742657082694,0.903471509062658,0.924718185413185,0.970262130944335,1.09678319509549,1.00441388970077,1.00282658936641,1.00228922206571,0.994137773473643,0,0.99440232352937,0.990500210207405,0.990318332044093,0.989284933388912,0.989111322414842,0.985052132497289,0.985515095094811,0.985465491959362,0.984043535409832,0,0.979339504731447,0.97656172914632,0.971907301603383,0.970667223217166,0.972122248523661,0.987763770568485,0.98676344067027,0.984432093304181,0.981571645826639,0,0.977355379313499,0.973635144154847,0.971006177976065,0.971518743709035,0.973511136316225,0.974172511455541,1.05112350891496,0.981356698906361,0.970849101380478,0,0.970849101380478,0.974412259943543,0.972147050091385,0.971369934302689,0.971022712354548,0.970625887270959,0.972494272039526,0.972138782902144,0.971014445165307
0.964491632853802,0.965921856592573,0.96641788794706,0.965483695562777,1.05700974765487,0.972122248523661,0.978587190510475,0.978868274944685,0,0.975123238218308,0.974321320861887,0.99873433069189,1.0219320637034,0.990649019613751,0.991822960486037,1.08291085154834,1.0058771821965,1.00533981489581,0,1.00390959115704,1.07157653509831,1.07136158817803,1.19863496655016,1.10926665085008,1.11879045285623,1.11080434804899,1.07650377988621,1.07790093486802,0,1.07671872680649,1.07661125334635,1.08468003004601,1.09861851110709,1.08232388111219,1.09611355276693,1.12333740693903,1.14538600064598,1.1866558093393,0,1.18555627317018,1.11850936842202,1.13136484769248,1.14029341207324,1.14193858273229,1.14886648731663,1.15367799145515,1.18739158918179,1.20082577169914,0,1.25179299337268,1.20075963418521,1.20601756654277,1.20496763350911,1.19987504493638,1.21496266530202,1.20190877348977,1.22502383460887,1.20238000327654,0,1.19353411078818,1.20926657191466,1.22318851859727,1.21064719251799,1.21143257549592,1.22284129664913,1.23082740145637,1.22878540571373,1.33994603225427,0,1.31478070820329,1.36565699079518,1.37976908283034,1.42765264291682,1.49179776424123,1.38585373411204,1.28734190711092,1.29388952099015,1.29399699445029,0,1.21907145835502,1.23076126394243,1.22229566215919,1.21421861827029,1.21665743909652,1.21396233540381,1.2172526767219,1.22537932374625,1.22659460056474,0,1.25500892998761,1.23786277950084,1.22801655711427,1.21280492891,1.21114322387247,1.21060585657178,1.21377219005125,1.21317695242587,1.23324142071487,0,1.19961049488065,1.22783467895096,1.15753876883091,1.15620775136304,1.1427570344672,1.13554804544865,1.11068034021037,1.0862342616234,1.05367807039057,0,1.05085895885923,1.05152860118779,1.05223957946256,1.04783316759686,1.03854911407871,1.03969825338328,1.01760005654088,1.0162277031268,0.997676130468984,0,1.00731567312452,1.0000322794028,0.974048503616919,0.997353710088567,1.01340859159546,0.979405642245379,0.971791560954003,1.02160137613374,1.0217336511616,0,0.965930123781815,0.952057780234661,0.962011476081367,0.955100105875515,0.949098126486222,0.937019763004463,0.947560429287312,0.95319038516074,0.915144780271585,0,0.917699341747194,0.902371972893545,0.907786981846695,0.937416588088053,1.0163269093977,1.00533981489581,1.00160304535867,1.0016691828726,0.989483345930707,0,0.989648689715536,0.990938371237202,0.990442339882715,0.987929114353314,0.987854709650141,0.988615291060355,0.985448957580879,0.985424156013155,0.983373893081275,0,0.980529979982216,0.979108023432687,0.972006507874281,0.970344802836749,0.971361667113448,0.984952926226392,0.986283943694265,0.986035928017022,0.981960203720987,0,0.976412919739974,0.974618939674579,0.973478067559259,0.973527670694708,0.974461863078992,0.975892086817762,0.976156636873489,0.976950287040668,0.971593148412208,0,0.971923835981866,0.973106044043394,0.97331272377443,0.969584221426536,0.97114672019317,0.972519073607251,0.973279655017464,0.970510146621578,0.970113321537989
0.966682438002787,0.966484025460992,0.96949328234488,0.972105714145178,0.971651018736899,1.05387648293236,0.980100086141661,0.979992612681522,0,0.972337195443939,0.974155977077058,1.00226442049799,1.00415760683428,0.9910375775081,0.998775666638097,1.01423531051961,1.00464537099953,1.00490165386601,0,1.00418240840201,1.00345489574876,1.07066714428175,1.10190885242519,1.12461882127145,1.1389293258484,1.08800344012107,1.1130199547657,1.14281490479189,0,1.07597467977476,1.07624749701973,1.07761158324457,1.07578453442221,1.08638307102975,1.10830765689807,1.08907817472246,1.09741150147784,1.1044634139008,0,1.10657154715737,1.10610858455985,1.12223787076992,1.1349197390663,1.13897066179461,1.16440053590131,1.14527852718584,1.17610687586721,1.18303478045154,0,1.2083571810981,1.21052318467936,1.20495109913063,1.20273549241392,1.20242960641198,1.23396066617888,1.22828110717,1.19137637439617,1.18861513318952,0,1.19434429533385,1.1933770341926,1.2102917033806,1.20790248568982,1.21216835533841,1.21056452062557,1.21274705858531,1.20994448143246,1.513052707781,0,1.32242785825164,1.23611013538165,1.46293700659933,1.43324953003328,1.35098272989161,1.2845062612011,1.27308927285866,1.26744278260675,1.21757509710232,0,1.21021729867743,1.20289256900951,1.25581911453327,1.20426492242359,1.20729071368596,1.20363661604124,1.23983863772955,1.22268422005354,1.21379699161898,0,1.22896728387704,1.29789084058301,1.21166405679468,1.20784461536513,1.21182940057951,1.21085387224902,1.21368951815884,1.24813889572796,1.24808929259251,0,1.17336216903904,1.17344484093146,1.15656324050042,1.15519915427558,1.14016113704538,1.14161616235188,1.11073821053506,1.06047369994704,1.05049520253261,0,1.05003223993509,1.05192542627138,1.09861024391785,1.09945349722048,1.03077795619175,1.01667413134584,1.03410963345606,1.0287524948276,1.02244462943637,0,0.998858338530512,0.981794859936158,0.968005188281419,0.984365955790249,0.984911590280185,0.953446668027225,0.957241307889051,0.961904002621229,0.965591169022915,0,0.964442029718354,0.951388137906104,0.945683777329503,0.947783643396831,0.936300517540457,0.937449656845018,0.936416258189837,0.940334905890285,0.92246950993951,0,0.921832936367919,0.91311931890743,0.960928474290737,0.962631515274476,0.977562059044536,1.00561263214078,1.0028844596911,0.983820321300313,0.987466151755793,0,0.987408281431103,0.990359667990301,0.987581892405173,0.98705279229372,0.987515754891242,0.987614961162139,0.986813043805718,0.986449287479095,0.984002199463625,0,0.983894726003486,0.980670522199321,0.979132825000411,0.971932103171108,0.972998570583255,0.984357688601008,0.986647700020889,0.986837845373443,0.980182758034075,0,0.977008157365358,0.975048833515134,0.975544864869622,0.976330247847559,0.976115300927282,0.976272377522869,0.97587555243928,0.973560739451673,0.974271717726438,0,0.975983025899418,0.976024361845626,0.973527670694708,0.971932103171108,0.973213517503533,0.972378531390146,0.971105384246963,0.970444009107647,0.969964512131643
0.967128866221825,0.968096127363075,0.9718907672249,0.972072645388212,0.973974098913746,0.97781834191102,0.979794200139727,0.980480376846767,0,0.973114311232635,0.974147709887817,1.16884828371321,1.17758670274143,1.16532646109636,1.00762982631569,1.01133352709586,1.00474457727042,1.00490992105525,0,0.998998880747616,1.06715358885413,1.01799688162447,1.01874919584544,1.11650870862559,1.10138801950298,1.1472461182253,1.14393924252872,1.16654173791485,0,1.08252229365399,1.08205106386723,1.06474783678487,1.06154843454843,1.06746774204531,1.0795130367701,1.0971634858006,1.09196342376773,1.08248922489702,0,1.08333247819965,1.08878055590977,1.10801003808538,1.15728248596442,1.168087702303,1.17189887654331,1.17303974865863,1.1491806405078,1.15843989245823,0,1.21122589576489,1.24319511656158,1.19237670429438,1.20215678916702,1.20189223911129,1.17412275044926,1.17401527698912,1.18256355066478,1.18574641852274,0,1.19958569331293,1.18490316522011,1.17834728415164,1.17702453387301,1.26615310108508,1.19768423978739,1.23334889417501,1.21692198915225,1.21842661759419,0,1.21410287762091,1.21487172622037,1.23100101243044,1.25670370378211,1.25517427377244,1.29047517183343,1.24669213761071,1.22721463975785,1.19005362411753,0,1.18937571459973,1.20235520170881,1.19190547450762,1.18704436723365,1.18482876051694,1.18232380217678,1.19376559208694,1.19386479835784,1.21187900371496,0,1.21726921110039,1.21694679071997,1.22719810537937,1.18604403733543,1.18589522792908,1.21960882565572,1.23641602138359,1.17838862009785,1.18840845345848,0,1.1582745486734,1.15809267051009,1.1798353782151,1.16861680241445,1.14270743133175,1.14021074018083,1.08580436778284,1.0564971819219,1.0301496498094,0,1.02550348945571,1.04080605674163,1.04811425203107,1.03038113110816,1.02350282965927,1.00433121780835,1.01997273985318,1.01576474052928,0.99902368231534,0,0.977198302717912,0.970295199701301,0.964111342148696,0.953686416515227,0.957001559401048,0.953347461756327,0.953239988296189,0.955546534094553,0.962524041814337,0,0.964623907881666,1.00872109529556,0.934374262447199,0.934928164126376,0.936391456622113,0.973064708097186,0.914359397293648,0.943650048776106,0.927892786081902,0,0.953488003973432,0.917186776014224,0.913987373777782,1.01380541667905,0.97000584807785,0.979372573488413,0.981174820743049,0.984572635521285,0.991765090161347,0,0.987490953323517,0.988764100466701,0.980281964304973,0.986779975048753,0.987160265753859,0.987044525104479,0.987400014241861,0.986432753100612,0.985151338768187,0,0.983258152431895,0.981869264639331,0.981844463071607,0.973246586260498,0.973916228589056,0.976578263524803,0.981703920854502,1.11585560067552,0.977429784016672,0,0.97650385882163,0.976090499359557,0.976181438441213,0.976569996335561,0.976892416715978,0.977719135640123,0.976197972819696,0.975983025899418,0.975272047624654,0,0.974924825676513,0.97593342276397,0.973064708097186,0.973535937883949,0.972130515712903,0.970849101380478,0.970286932512059,0.969782633968331,0.96909645726129
0.967236339681964,0.967939050767487,0.971502209330552,0.972767089284494,0.973610342587122,0.982910930483754,0.979033618729514,0.975197642921481,0,0.975486994544931,0.976578263524803,0.981728722422226,0.996601395867595,1.13183607747924,1.00046217324335,0.999346102695757,1.00170225162957,1.00166091568336,0,1.04984209458254,1.01316884310746,1.01355740100181,1.03018271856637,1.02907491520801,1.02676836940965,1.14740319482089,1.14650207119357,1.14636979616571,0,1.14741146201013,1.08200146073178,1.07407322624923,1.07218003991293,1.08265456868185,1.07347798862384,1.07752064416291,1.06815391875235,1.07596641258552,0,1.07579280161145,1.09114497203282,1.11066380583189,1.11034138545147,1.13983044947572,1.13894586022689,1.15126397219665,1.15366145707667,1.18175336611912,0,1.18152188482036,1.22842991657635,1.23488659137392,1.18353907899527,1.19079767114926,1.18238167250147,1.16454107811842,1.16526032358242,1.17126230297172,0,1.17090681383433,1.18500237149101,1.17466011774995,1.18441540105486,1.25349603435642,1.18551493722398,1.18774707831917,1.19399707338571,1.20757179812017,0,1.19793225546464,1.2217582948585,1.21413594637788,1.23696992306276,1.21813726597074,1.21838528164798,1.2152768184932,1.18884661448828,1.19030163979478,0,1.18792068929324,1.17093161540206,1.18337373521044,1.18877220978511,1.17255198449338,1.17932281248213,1.19448483755095,1.22286609821685,1.2056042070807,0,1.21579765141541,1.19029337260554,1.18906156140856,1.18738332199254,1.18599443419998,1.18526692154673,1.23885484220981,1.18169549579443,1.17622261651659,0,1.15495113859834,1.1545460463255,1.1232712694251,1.12250242082564,1.13957416660924,1.10442207795459,1.08476270193842,1.05986192794317,1.03077795619175,0,1.03064568116389,1.02415593760935,1.03119958284307,1.03076142181327,1.02184112462174,1.00141290000612,1.00255377212144,0.99269101535639,0.985374552877706,0,0.972138782902144,0.967591828819346,0.961027680561635,0.974346122429611,0.953413599270259,0.953405332081018,0.952529010021424,0.948626896699459,0.953107713268325,0,0.958340844058163,0.95877900508796,0.948445018536147,0.937557130305157,0.937449656845018,0.933233390331879,0.934010506120575,0.920510186089287,0.927421556295139,0,0.92542916368795,0.961664254133226,0.913656686208124,1.09597301054983,1.00973795957226,1.01207757412759,0.988235000355248,0.987772037757727,0.988276336301455,0,0.989475078741465,0.987912579974831,0.989706560040226,0.987400014241861,0.987639762729863,0.987267739213998,0.985391087256189,0.984961193415634,0.985184407525153,0,0.983936061949694,0.9827207851312,0.984589169899768,0.977694334072399,0.97616490406273,0.976197972819696,0.981017744147462,0.980596117496148,0.978058090399022,0,0.975966491520936,0.976189705630455,0.976429454118457,0.976834546391288,0.976933752662185,0.978876542133926,0.977677799693916,0.976264110333628,0.973163914368084,0,0.974891756919547,0.974602405296096,0.975974758710177,0.974370923997336,0.970940040462134,0.969857038671504,0.968699632177701,0.968988983801152,0.9706341544602
0.966732041138236,0.969526351101846,0.971196323328619,0.973023372150979,0.971783293764762,0.971138453003929,0.975925155574728,0.975214177299964,0,0.976569996335561,0.979232031271308,0.988573955114147,1.1259250371716,1.13748256773115,1.13048025844364,0.995518394076966,0.998883140098236,1.00250416898599,0,1.05967178259062,1.01403689797781,1.01493802160513,1.01879053179165,1.02226275127306,0.999866935617969,1.02788443995724,1.04916418506474,1.05391781887857,0,1.05500908785844,1.03897900791927,1.07179974920783,1.05767938998343,1.06468996646018,1.0741476309524,1.08389464706807,1.07963704460872,1.07427990598026,0,1.06874088918849,1.08051336666832,1.07895913509092,1.09425343518761,1.11239164838335,1.16452454373993,1.15054472673264,1.13650703940066,1.13591180177528,0,1.18164589265898,1.22079103371725,1.16127553836804,1.15586052941489,1.15171040041569,1.15473619167806,1.14515451934722,1.21351590718477,1.15232217241955,0,1.1507348720852,1.14990815316105,1.16751726624534,1.16191211193964,1.18038927989428,1.18520905122204,1.18387803375417,1.187672673616,1.1888300801098,0,1.17690879322363,1.20755526374168,1.18574641852274,1.19312901851535,1.21661610315031,1.1829273069914,1.19127716812527,1.18801162837489,1.17074147004951,0,1.16871600868535,1.17288267206304,1.17614821181341,1.17442036926195,1.1734531081207,1.16981554485446,1.17182447184014,1.20515777886166,1.17894252177702,0,1.17903346085868,1.18917730205794,1.1889706223269,1.26225925495236,1.18515118089735,1.18553147160246,1.18510984495115,1.18355561337375,1.16483869693111,0,1.16034134598376,1.15425669470205,1.13249745261856,1.12203119103888,1.12385823986124,1.12165916752301,1.07222964304838,1.07716515502553,1.0557779364579,0,1.03234045495839,1.04226108204813,1.04230241799433,1.01339205721698,0.98459743708901,1.0028844596911,1.00185106103592,0.980538247171457,0.974313053672646,0,0.971477407762828,0.999701591833139,1.00461230224256,0.963003538790341,0.955959893556626,0.951280664445965,0.951073984714929,0.951115320661136,0.950247265790784,0,0.943013475204515,0.936052501863213,0.937234709924741,0.934870293801686,0.934564407799752,0.944733050566736,0.927661304783141,0.923742657082694,0.927487693809071,0,0.953620279001295,0.961060749318601,1.01481401376651,0.950991312822514,0.976338515036801,1.01513643414693,1.00238842833661,0.987490953323517,0.990111652313057,0,0.989954575717469,0.989202261496497,0.987970450299521,0.987309075160205,0.987656297108346,0.986523692182268,0.984804116820046,0.984729712116873,0.982952266429961,0,0.982133814695058,0.981389767663327,1.00444695845773,0.976578263524803,0.976396385361491,0.974990963190444,0.973684747290295,0.976330247847559,0.977611662179984,0,0.978793870241512,0.977578593423018,0.976917218283702,0.979058420297238,0.979190695325101,0.981761791179192,0.981315362960154,0.978033288831298,0.9750819022721,0,0.975329917949344,0.975329917949344,0.976280644712111,0.976140102495006,0.968683097799218,0.9690385869366,0.969716496454399,0.972105714145178,0.983349091513551
0.967236339681964,0.969402343263224,0.970543215378544,0.973726083236503,0.97069202478489,0.970485345053854,0.971188056139377,0.974941360054996,0,0.977479387152121,0.977826609100262,0.985035598118807,0.981480706744983,1.12416412586317,1.12034468443362,0.992996901358323,1.0973040280177,1.19065712893216,0,1.01436758554747,1.01426837927657,1.01331765251381,1.01445852462913,1.01277201802387,1.01359873694802,1.05600941775666,1.03509342897579,1.03193536268555,0,1.04775876289369,1.05501735504768,1.05122271518586,1.06540094473495,1.08317540160406,1.08239001862613,1.08438241123332,1.08481230507387,1.16025867409135,0,1.07607388604566,1.07813241616678,1.07748757540595,1.09945349722048,1.08946673261681,1.12414759148469,1.11764131355167,1.14845312785456,1.13610194712783,0,1.13628382529114,1.14242634689754,1.14169056705505,1.13961550255544,1.15467832135337,1.1430959892261,1.15139624722451,1.19281486532418,1.18836711751228,0,1.18501063868025,1.15282647096328,1.17436249893726,1.16647560040092,1.16844319144038,1.16730231932506,1.16607050812809,1.1662523862914,1.19318688884004,0,1.17856223107192,1.17090681383433,1.17074973723875,1.17108869199765,1.1861184420386,1.18500237149101,1.18158802233429,1.1720972890851,1.17945508750999,0,1.18552320441322,1.17995938605372,1.17003875896398,1.17055132469695,1.16066376636418,1.16875734463156,1.17000569020702,1.25374405003367,1.24770073469817,0,1.27049337543684,1.23484525542771,1.21965842879117,1.22758666327372,1.236258944788,1.2019335750575,1.20185917035432,1.19044218201188,1.1675089990561,0,1.15214856144548,1.12509831824746,1.10991149161091,1.14074810748152,1.09192208782152,1.09926335186793,1.09175674403669,1.07712381907932,1.03241485966156,0,1.05560432548383,1.02222968251609,1.01798034724599,1.01781500346116,0.990739958695407,0.981092148850635,0.999031949504582,0.967525691305415,0.989690025661743,0,0.988342473815387,0.970493612243095,0.96197014013516,0.961598116619295,0.955356388742,0.953545874298122,0.953049842943635,0.948833576430495,0.949494951569812,0,0.951636153583347,0.935250584506793,0.936837884841151,0.942310764118991,0.936722144191771,0.948602095131735,0.953454935216466,0.939194033774964,0.996014425431452,0,0.996014425431452,1.0165666578857,1.01497935755134,1.01398729484237,1.02144429953815,1.01586394680017,0.986953586022823,0.989276666199671,0.990235660151679,0,0.988466481654009,0.988160595652075,0.988631825438838,0.98864835981732,0.98807792375966,0.987474418945034,0.985217476282118,0.984994262172599,0.983448297784448,0,0.982158616262782,1.10599284391047,1.00150383908778,0.974652008431545,0.974122908320092,0.974817352216374,0.973593808208639,0.974403992754301,0.977901013803435,0,0.977834876289503,0.978049823209781,0.97838877796868,0.979529650084001,0.980356369008146,0.980943339444289,0.981307095770912,0.979562718840966,0.975743277411416,0,0.975354719517068,0.976148369684247,0.976925485472944,0.972783623662977,0.97337059409912,0.970427474729164,0.976330247847559,0.974974428811961,0.974652008431545
