1.11213, 1.33361, 1.37881, 1.37905, 1.10092, 1.0966, 1.09643, 1.09673, 1.09228, 1.09179, 1.08817, 1.08695, 1.20476, 1.07133, 1.07147, 1.07231, 1.0719, 1.06511, 1.06427, 1.0631, 1.06207, 1.05425, 1.04592, 1.08473, 1.03802, 1.03493, 1.03353, 1.03369, 1.03376, 1.0319, 1.03117, 1.02958, 1.02571, 1.02778, 1.03, 1.02867, 1.02685, 1.02784, 1.02387, 1.02319, 1.02244, 1.02162, 1.02117, 1.02126, 1.02371, 1.02686, 1.01625, 1.01628, 1.01908, 1.02139, 1.0219, 1.02514, 1.02525, 1.02369, 1.02401, 1.02248, 1.01995, 1.01686, 1.01869, 1.0197, 1.0188, 1.01588, 1.01677, 1.01825, 1.01915, 1.02181, 1.02119, 1.02608, 1.30213, 1.02601, 1.02868, 1.02961, 1.03188, 1.0323, 1.03365, 1.03343, 1.0343, 1.0348, 1.03439, 1.03532, 1.03615, 1.03267, 1.0351, 1.03438, 1.02914, 1.02844, 1.02877, 1.0268, 1.02625, 1.02394, 1.02424, 1.02371, 1.02906, 1.02961, 1.03041, 1.02909, 1.03934, 1.22332, 1.04925, 1.08414, 1.08724, 1.06143, 1.09836, 1.10256, 1.16011, 1.14757, 1.15995, 1.16026, 1.23039, 1.22323, 1.23317, 1.27521, 1.27867, 1.32744, 1.31917, 1.31952, 1.27949, 1.26014, 1.25997, 1.27388, 1.2816, 1.33275, 1.2998, 1.29145, 1.28909, 1.28538, 1.3296, 1.32833, 1.39839, 1.32275, 1.3213, 1.31571, 1.31462, 1.33389, 1.39873, 1.39641, 1.34864, 1.3278, 1.327, 1.33152, 1.35349, 1.36124, 1.35747, 1.38091, 1.38973, 1.42269, 1.43258, 1.47666, 1.47543, 1.52715, 1.46107, 1.4684, 1.46171, 1.45914, 1.54083, 1.54897, 1.49826, 1.50991, 1.50946, 1.54606, 1.56442, 1.4812, 1.47915, 1.4693, 1.45069, 1.45166, 1.48417, 1.58102, 1.59931, 1.59862, 1.59726, 1.63319, 1.59838, 1.64813, 1.64968, 1.8058, 1.68747, 1.68666, 1.68647, 1.66881, 1.66478, 1.6582, 1.67343, 1.64467, 1.55006, 1.56096, 1.55912, 1.53636, 1.56165, 1.57096, 1.511, 1.51045, 1.5057, 1.50508, 1.51411, 1.50557, 1.47393, 1.45338, 1.47273, 1.37538, 1.37909, 1.44238, 1.35823, 1.342, 1.36063, 1.34363, 1.35806, 1.32546, 1.35577, 1.35386, 1.38516, 1.34657, 1.35391, 1.30041, 1.27419, 1.2584, 1.27692, 1.24317, 1.24235, 1.18951, 1.18881, 1.1196, 1.09339, 1.13958, 1.1359, 1.10652, 1.10597, 1.10746, 1.09782, 1.09153, 1.09056, 1.13179, 1.13242, 1.20235, 1.06392, 1.085, 1.11971, 1.1266, 1.18576, 1.07919, 1.08128, 1.21288, 1.17363, 1.12848, 1.07712, 1.07767, 1.07709, 1.11218, 1.11166, 1.113, 1.39829, 1.07619, 1.07703, 1.07171, 1.06981, 1.0693, 1.07094, 1.07084, 1.06976, 1.06999, 1.09988, 1.10058, 1.6015, 1.09212, 1.08049, 1.0821, 1.10189, 1.08104, 1.08268, 1.08186
1.34974, 1.10815, 1.10615, 1.1051, 1.1024, 1.09828, 1.09731, 1.09687, 1.0917, 1.0916, 1.08835, 1.08766, 1.15384, 1.18791, 1.07298, 1.07377, 1.07127, 1.07057, 1.06155, 1.06102, 1.06136, 1.05371, 1.04724, 1.04582, 1.03675, 1.0359, 1.03368, 1.03394, 1.03325, 1.03452, 1.03426, 1.03201, 1.03325, 1.03079, 1.03173, 1.032, 1.03192, 1.03105, 1.13685, 1.02661, 1.02862, 1.02205, 1.02386, 1.02368, 1.02389, 1.02414, 1.02253, 1.02217, 1.02021, 1.02241, 1.02512, 1.0255, 1.02593, 1.02589, 1.02515, 1.025, 1.02491, 1.02425, 1.0224, 1.0217, 1.01975, 1.01844, 1.01798, 1.02235, 1.02426, 1.39166, 1.03123, 1.02945, 1.03088, 1.0294, 1.0293, 1.03003, 1.03555, 1.03523, 1.03579, 1.03559, 1.03676, 1.03681, 1.03762, 1.03749, 1.03768, 1.0392, 1.03627, 1.03436, 1.03279, 1.03009, 1.03188, 1.02972, 1.02514, 1.02517, 1.02495, 1.02491, 1.02548, 1.03211, 1.03221, 1.12984, 1.20533, 1.2246, 1.05707, 1.05712, 1.05696, 1.0599, 1.06271, 1.10081, 1.12642, 1.18668, 1.17828, 1.22494, 1.24428, 1.22761, 1.27132, 1.26757, 1.27315, 1.28236, 1.27222, 1.27243, 1.28862, 1.33031, 1.27445, 1.2741, 1.28966, 1.31974, 1.33917, 1.34702, 1.29629, 1.29819, 1.3164, 1.31748, 1.31742, 1.31615, 1.33584, 1.31336, 1.32724, 1.35842, 1.36006, 1.35964, 1.35189, 1.33635, 1.36198, 1.38989, 1.38606, 1.36558, 1.38247, 1.39668, 1.43072, 1.44429, 1.45832, 1.52249, 1.54725, 1.54903, 1.45034, 1.46224, 1.46139, 1.46036, 1.52328, 1.52357, 1.55739, 1.56094, 1.58815, 1.59743, 1.59921, 1.49387, 1.47732, 1.49975, 1.46908, 1.52721, 1.58217, 1.57947, 1.57935, 1.57908, 1.63354, 1.6207, 1.61984, 1.63385, 1.73118, 1.83115, 1.67622, 1.75619, 1.69412, 1.74051, 1.64071, 1.65821, 1.65749, 1.63391, 1.60367, 1.54984, 1.55484, 1.55828, 1.55418, 1.53451, 1.51008, 1.51074, 1.54428, 1.54913, 1.53191, 1.57031, 1.46718, 1.45297, 1.43209, 1.4293, 1.38528, 1.398, 1.36959, 1.39291, 1.46741, 1.39599, 1.35499, 1.36017, 1.3817, 1.39655, 1.39563, 1.3506, 1.3507, 1.33773, 1.29128, 1.2853, 1.28465, 1.1867, 1.16031, 1.12908, 1.14113, 1.198, 1.09911, 1.10002, 1.11191, 1.0991, 1.0943, 1.10129, 1.10103, 1.10234, 1.09014, 1.09177, 1.08507, 1.06589, 1.06714, 1.0976, 1.19228, 1.30812, 1.26019, 1.08172, 1.08233, 1.08132, 1.08018, 1.08119, 1.0835, 1.08151, 1.08008, 1.08043, 1.27063, 1.11066, 1.19198, 1.07956, 1.07997, 1.07672, 1.07717, 1.07191, 1.07183, 1.07111, 1.0716, 1.07172, 1.12511, 1.10443, 1.20167, 1.0794, 1.08145, 1.08344, 1.08379, 1.08558, 1.08517, 1.08384
1.11854, 1.10797, 1.10801, 1.10536, 1.10507, 1.10229, 1.10264, 1.2161, 1.09506, 1.0926, 1.09128, 1.08554, 1.16031, 1.40339, 1.076, 1.07566, 1.07214, 1.06909, 1.05934, 1.0602, 1.05996, 1.05727, 1.05423, 1.03531, 1.03551, 1.03553, 1.03276, 1.03261, 1.03242, 1.03453, 1.03416, 1.03264, 1.03281, 1.03212, 1.03191, 1.03114, 1.03166, 1.03144, 1.03242, 1.13103, 1.13148, 1.03074, 1.02977, 1.02524, 1.0255, 1.02562, 1.02872, 1.02482, 1.02889, 1.02508, 1.02495, 1.02531, 1.02552, 1.02651, 1.04642, 1.02594, 1.02707, 1.02535, 1.0261, 1.02399, 1.02398, 1.02605, 1.02187, 1.02538, 1.17111, 1.03209, 1.03539, 1.03515, 1.03432, 1.03271, 1.03196, 1.03354, 1.03537, 1.03686, 1.03764, 1.03813, 1.03904, 1.03943, 1.03917, 1.03981, 1.04131, 1.04268, 1.03655, 1.03619, 1.03181, 1.03236, 1.03216, 1.03058, 1.02879, 1.02638, 1.02587, 1.02295, 1.02345, 1.04558, 1.03518, 1.03539, 1.04966, 1.1068, 1.19045, 1.05505, 1.05962, 1.05954, 1.06153, 1.11504, 1.17462, 1.18039, 1.17871, 1.17867, 1.28237, 1.21683, 1.23847, 1.31258, 1.27325, 1.30456, 1.30228, 1.30179, 1.28714, 1.29665, 1.31971, 1.32109, 1.31696, 1.30584, 1.35231, 1.3024, 1.3063, 1.30713, 1.3157, 1.29876, 1.3475, 1.33236, 1.31924, 1.31453, 1.33431, 1.31994, 1.31946, 1.33926, 1.33445, 1.33423, 1.36155, 1.43848, 1.43697, 1.49283, 1.47409, 1.46066, 1.43947, 1.43846, 1.45088, 1.46228, 1.46395, 1.46887, 1.46184, 1.47181, 1.45861, 1.46026, 1.459, 1.45844, 1.50539, 1.57642, 1.59386, 1.60128, 1.60177, 1.63788, 1.48677, 1.50351, 1.50076, 1.63673, 1.65936, 1.57624, 1.57974, 1.56453, 1.61, 1.59929, 1.61511, 1.61659, 1.67429, 1.67657, 1.6748, 1.7302, 1.84762, 1.74402, 1.63992, 1.63888, 1.67112, 1.61593, 1.64089, 1.66858, 1.57184, 1.5755, 1.55915, 1.52796, 1.5365, 1.52347, 1.55087, 1.55317, 1.49499, 1.4941, 1.56151, 1.44522, 1.43877, 1.40288, 1.46451, 1.43728, 1.43611, 1.37781, 1.37687, 1.37796, 1.37971, 1.37257, 1.36083, 1.36815, 1.36864, 1.33522, 1.377, 1.32838, 1.3185, 1.26526, 1.20936, 1.19037, 1.1575, 1.12764, 1.10309, 1.13238, 1.22489, 1.19837, 1.11146, 1.10419, 1.10474, 1.09317, 1.09938, 1.16077, 1.09176, 1.09168, 1.23441, 1.06559, 1.06645, 1.07723, 1.08506, 1.11858, 1.11584, 1.24878, 1.10363, 1.17393, 1.09932, 1.08743, 1.08419, 1.08441, 1.08506, 1.08319, 1.08321, 1.11618, 1.18832, 1.08432, 1.08435, 1.07832, 1.07712, 1.07375, 1.07389, 1.07387, 1.07467, 1.07396, 1.07493, 1.11901, 1.24686, 1.08325, 1.08276, 1.08428, 1.0879, 1.08381, 1.08507, 1.08502
1.11226, 1.11302, 1.11137, 1.10614, 1.10742, 1.10578, 1.10477, 1.26054, 1.26088, 1.09441, 1.09223, 1.08477, 1.15802, 1.22881, 1.07686, 1.07533, 1.06979, 1.06713, 1.05911, 1.05725, 1.05854, 1.05852, 1.04766, 1.04477, 1.03908, 1.0364, 1.03393, 1.03147, 1.03064, 1.03075, 1.03421, 1.03367, 1.23446, 1.14114, 1.03389, 1.03352, 1.03232, 1.03211, 1.03331, 1.03463, 1.03505, 1.03304, 1.0319, 1.03168, 1.03136, 1.02679, 1.02793, 1.02736, 1.02731, 1.02586, 1.02223, 1.02179, 1.02334, 1.03575, 1.02821, 1.02689, 1.02705, 1.02895, 1.0268, 1.02643, 1.02527, 1.02401, 1.02822, 1.02591, 1.02809, 1.03347, 1.03516, 1.03565, 1.04263, 1.14092, 1.03499, 1.03577, 1.03597, 1.03908, 1.03956, 1.04193, 1.0429, 1.04001, 1.04609, 1.04605, 1.04552, 1.04283, 1.04343, 1.04027, 1.03546, 1.03336, 1.03289, 1.03387, 1.03354, 1.03593, 1.02772, 1.02672, 1.03151, 1.03438, 1.0362, 1.04607, 1.1023, 1.10134, 1.07063, 1.07151, 1.06169, 1.06476, 1.13881, 1.16628, 1.20677, 1.18057, 1.17812, 1.19158, 1.20958, 1.22211, 1.23954, 1.26253, 1.26065, 1.26061, 1.29449, 1.29894, 1.30705, 1.34614, 1.3397, 1.34234, 1.3296, 1.3511, 1.30831, 1.32238, 1.3056, 1.30566, 1.29109, 1.30628, 1.30123, 1.29973, 1.32723, 1.34074, 1.33339, 1.33264, 1.35728, 1.35322, 1.36134, 1.36643, 1.36684, 1.47788, 1.47849, 1.48289, 1.46539, 1.47888, 1.44733, 1.44805, 1.4443, 1.46146, 1.49079, 1.45147, 1.46414, 1.44359, 1.45712, 1.46129, 1.45999, 1.45987, 1.58727, 1.58062, 1.69008, 1.60132, 1.60223, 1.64053, 1.59395, 1.58955, 1.61125, 1.65399, 1.65423, 1.63623, 1.61771, 1.56455, 1.58672, 1.5682, 1.62304, 1.57856, 1.62718, 1.62133, 1.65221, 1.63842, 1.66157, 1.69169, 1.74143, 1.68676, 1.66834, 1.65879, 1.65632, 1.58872, 1.58103, 1.55602, 1.555, 1.55699, 1.55945, 1.55705, 1.54417, 1.57515, 1.54654, 1.50247, 1.55789, 1.55651, 1.43723, 1.41087, 1.4016, 1.41286, 1.40578, 1.37615, 1.41713, 1.38813, 1.39928, 1.38852, 1.45007, 1.36009, 1.33621, 1.33274, 1.32822, 1.32359, 1.30739, 1.24084, 1.21753, 1.18069, 1.1845, 1.14178, 1.15978, 1.1438, 1.09264, 1.18404, 1.11064, 1.10283, 1.10901, 1.14325, 1.10295, 1.10415, 1.09416, 1.08793, 1.08816, 1.07065, 1.19777, 1.08032, 1.08051, 1.09519, 1.11393, 1.36109, 1.24631, 1.09248, 1.0951, 1.08907, 1.08527, 1.08597, 1.08666, 1.08705, 1.08734, 1.0897, 1.09086, 1.08776, 1.08689, 1.0902, 1.08061, 1.07538, 1.07552, 1.07531, 1.07538, 1.07668, 1.07768, 1.25413, 1.08412, 1.0847, 1.08488, 1.08586, 1.0879, 1.08991, 1.09009, 1.09127
1.11524, 1.11566, 1.11745, 1.11753, 1.10785, 1.10858, 1.10493, 1.29152, 1.09942, 1.09512, 1.09486, 1.3641, 1.08494, 1.08431, 1.07901, 1.07277, 1.06973, 1.19755, 1.06198, 1.05961, 1.06042, 1.057, 1.04614, 1.04506, 1.04249, 1.0355, 1.03308, 1.02884, 1.02914, 1.02951, 1.0302, 1.02947, 1.05357, 1.03587, 1.03623, 1.03338, 1.03247, 1.03591, 1.03688, 1.03653, 1.03909, 1.0382, 1.03689, 1.035, 1.0337, 1.03321, 1.03397, 1.02948, 1.03031, 1.16708, 1.16847, 1.02517, 1.0257, 1.02584, 1.02902, 1.03069, 1.03181, 1.03179, 1.03642, 1.03098, 1.02895, 1.03293, 1.03502, 1.06076, 1.29269, 1.03369, 1.03353, 1.41758, 1.05137, 1.04057, 1.03895, 1.03766, 1.03946, 1.04134, 1.04014, 1.04353, 1.04459, 1.04574, 1.04735, 1.04931, 1.04826, 1.04869, 1.04652, 1.04567, 1.04185, 1.03656, 1.03477, 1.03408, 1.03491, 1.03554, 1.03565, 1.17773, 1.13983, 1.03874, 1.03899, 1.04644, 1.10241, 1.06716, 1.07006, 1.06915, 1.06516, 1.19779, 1.1689, 1.12983, 1.20141, 1.22224, 1.22286, 1.20436, 1.21957, 1.24, 1.31235, 1.26273, 1.2625, 1.25463, 1.31264, 1.33499, 1.34171, 1.34658, 1.34443, 1.34507, 1.34603, 1.35488, 1.35747, 1.36109, 1.3248, 1.29767, 1.29359, 1.33864, 1.30228, 1.30696, 1.31896, 1.35375, 1.34531, 1.39249, 1.39337, 1.36433, 1.37373, 1.36777, 1.45299, 1.45139, 1.47875, 1.47565, 1.53721, 1.47071, 1.46857, 1.45122, 1.44358, 1.4728, 1.45994, 1.45398, 1.45767, 1.46817, 1.47728, 1.48127, 1.47997, 1.64008, 1.74587, 1.68799, 1.60757, 1.60058, 1.5994, 1.59583, 1.59293, 1.62039, 1.66521, 1.61158, 1.64432, 1.64848, 1.61014, 1.61624, 1.56948, 1.56837, 1.66213, 1.63097, 1.6114, 1.64524, 1.62713, 1.61792, 1.61675, 1.61561, 1.73351, 1.62766, 1.62724, 1.61239, 1.61116, 1.60515, 1.58417, 1.61593, 1.59405, 1.59328, 1.558, 1.57726, 1.58942, 1.62349, 1.54561, 1.49714, 1.55889, 1.55668, 1.45834, 1.43537, 1.42688, 1.39851, 1.39721, 1.39584, 1.39899, 1.41675, 1.42004, 1.4403, 1.45125, 1.36779, 1.35811, 1.34319, 1.37226, 1.29708, 1.29225, 1.31807, 1.25208, 1.19459, 1.19282, 1.13953, 1.1466, 1.12746, 1.12895, 1.11884, 1.12243, 1.13551, 1.13747, 1.09818, 1.09995, 1.08658, 1.08708, 1.08944, 1.07044, 1.0772, 1.08392, 1.0849, 1.08548, 1.0909, 1.08893, 1.11172, 1.11381, 1.23934, 1.09407, 1.09101, 1.0919, 1.08894, 1.09508, 1.09121, 1.09215, 1.09208, 1.09078, 1.08963, 1.09083, 1.08806, 1.0861, 1.07945, 1.07705, 1.07756, 1.07752, 1.07862, 1.0791, 1.08157, 1.08444, 1.08606, 1.08624, 1.08662, 1.08819, 1.0888, 1.09194, 1.09396
1.11858, 1.11895, 1.11769, 1.1184, 1.2547, 1.10848, 1.10814, 1.10531, 1.10251, 1.09814, 1.09116, 1.09045, 1.08729, 1.08249, 1.08246, 1.07719, 1.06508, 1.06433, 1.06439, 1.06092, 1.06008, 1.06015, 1.05036, 1.04869, 1.03871, 1.03772, 1.03764, 1.02901, 1.02978, 1.02984, 1.02768, 1.02976, 1.03266, 1.03359, 1.03466, 1.14274, 1.25138, 1.03912, 1.0398, 1.04044, 1.03923, 1.03964, 1.03974, 1.11003, 1.10849, 1.03682, 1.03744, 1.03644, 1.0367, 1.03526, 1.03273, 1.02629, 1.01984, 1.02954, 1.02923, 1.03158, 1.03155, 1.03184, 1.09153, 1.12167, 1.03574, 1.03903, 1.03498, 1.0373, 1.03887, 1.0389, 1.1623, 1.18742, 1.0425, 1.04282, 1.06926, 1.1218, 1.04223, 1.0428, 1.0501, 1.05007, 1.146, 1.04985, 1.05069, 1.05262, 1.05212, 1.05154, 1.05071, 1.04609, 1.0471, 1.04374, 1.04311, 1.03678, 1.03724, 1.03539, 1.03565, 1.03692, 1.03594, 1.03622, 1.29494, 1.10378, 1.09007, 1.06684, 1.07116, 1.07074, 1.12853, 1.10063, 1.17792, 1.17735, 1.21693, 1.21865, 1.23192, 1.22009, 1.23524, 1.24164, 1.25449, 1.2729, 1.24647, 1.26029, 1.35223, 1.3405, 1.33241, 1.34475, 1.35579, 1.34718, 1.42563, 1.36136, 1.35213, 1.34825, 1.33424, 1.29857, 1.29688, 1.28801, 1.30908, 1.31982, 1.33639, 1.3441, 1.34752, 1.40863, 1.36885, 1.36372, 1.41021, 1.40721, 1.51399, 1.53109, 1.5031, 1.50416, 1.50238, 1.50907, 1.45743, 1.45746, 1.46274, 1.45936, 1.45332, 1.4518, 1.45078, 1.46827, 1.47334, 1.48855, 1.48844, 1.50898, 1.60731, 1.62707, 1.6264, 1.60208, 1.59994, 1.59799, 1.59913, 1.66878, 1.61879, 1.61911, 1.68604, 1.69913, 1.69357, 1.67629, 1.66011, 1.61662, 1.6387, 1.62835, 1.62115, 1.62954, 1.6187, 1.61935, 1.61729, 1.61622, 1.73112, 1.63517, 1.63887, 1.62092, 1.63232, 1.61714, 1.61006, 1.61372, 1.60913, 1.60097, 1.59919, 1.59836, 1.62293, 1.54067, 1.5992, 1.5983, 1.5051, 1.46781, 1.45515, 1.43366, 1.43292, 1.43079, 1.39691, 1.45762, 1.41932, 1.42655, 1.4357, 1.43679, 1.41798, 1.35003, 1.34183, 1.3345, 1.31369, 1.32593, 1.32474, 1.2408, 1.21857, 1.19465, 1.18854, 1.17574, 1.16301, 1.165, 1.13229, 1.123, 1.12122, 1.12154, 1.19807, 1.15165, 1.20959, 1.08565, 1.08643, 1.04954, 1.17574, 1.06901, 1.18857, 1.08412, 1.08498, 1.11205, 1.10224, 1.09114, 1.11167, 1.17033, 1.11668, 1.09257, 1.0924, 1.09189, 1.09, 1.09276, 1.09233, 1.09183, 1.09162, 1.09103, 1.09019, 1.0902, 1.09177, 1.08253, 1.08254, 1.08182, 1.08384, 1.08086, 1.08444, 1.08468, 1.08622, 1.08555, 1.08531, 1.08659, 1.08784, 1.08887, 1.09176, 1.09117
1.12253, 1.12448, 1.12438, 1.12337, 1.18453, 1.11093, 1.1104, 1.10693, 1.10437, 1.10278, 1.0915, 1.0894, 1.08741, 1.08417, 1.07981, 1.07273, 1.06886, 1.06567, 1.06607, 1.06314, 1.06055, 1.06049, 1.09812, 1.05133, 1.0416, 1.04218, 1.0391, 1.03337, 1.03193, 1.02973, 1.02802, 1.02787, 1.03379, 1.03503, 1.03469, 1.03609, 1.04191, 1.04198, 1.04179, 1.04264, 1.04209, 1.0445, 1.04362, 1.04402, 1.04119, 1.03543, 1.03632, 1.03709, 1.03697, 1.03764, 1.03524, 1.03438, 1.03338, 1.03263, 1.03353, 1.03411, 1.03032, 1.0286, 1.02836, 1.0382, 1.12074, 1.03916, 1.03906, 1.0396, 1.04201, 1.04248, 1.04346, 1.04477, 1.04544, 1.04632, 1.10169, 1.1039, 1.04332, 1.04254, 1.04499, 1.04628, 1.04956, 1.05617, 1.05786, 1.05751, 1.0566, 1.11311, 1.05656, 1.0492, 1.0495, 1.05085, 1.0492, 1.04553, 1.29545, 1.03919, 1.03722, 1.03732, 1.03592, 1.04152, 1.17976, 1.18114, 1.06486, 1.07044, 1.07051, 1.06923, 1.10478, 1.11927, 1.17562, 1.17668, 1.23659, 1.2049, 1.27416, 1.31578, 1.23907, 1.32391, 1.24525, 1.26035, 1.26129, 1.25638, 1.32328, 1.35952, 1.33613, 1.3353, 1.34676, 1.35719, 1.46749, 1.35357, 1.3364, 1.36087, 1.29658, 1.33584, 1.30485, 1.36165, 1.32541, 1.34098, 1.37216, 1.36039, 1.37794, 1.36132, 1.35734, 1.3713, 1.40877, 1.41326, 1.49248, 1.52505, 1.47536, 1.4745, 1.48519, 1.47502, 1.56352, 1.4682, 1.52984, 1.47139, 1.4805, 1.48526, 1.47181, 1.49322, 1.48272, 1.50246, 1.56276, 1.53841, 1.60047, 1.59965, 1.59415, 1.59854, 1.60364, 1.6032, 1.60178, 1.62365, 1.62292, 1.62206, 1.65695, 1.66042, 1.70294, 1.75416, 1.68544, 1.67729, 1.65881, 1.66196, 1.69287, 1.63153, 1.62882, 1.62109, 1.62113, 1.61895, 1.61946, 1.61928, 1.61364, 1.61373, 1.62461, 1.62318, 1.61458, 1.61723, 1.64735, 1.67537, 1.69559, 1.68321, 1.57575, 1.54154, 1.54084, 1.51295, 1.47982, 1.46686, 1.4814, 1.45839, 1.43548, 1.43674, 1.39799, 1.40033, 1.468, 1.46505, 1.43599, 1.39106, 1.39118, 1.32649, 1.35754, 1.36421, 1.3188, 1.30923, 1.31683, 1.28483, 1.23567, 1.18484, 1.17521, 1.17975, 1.1476, 1.14739, 1.14731, 1.16927, 1.16981, 1.10888, 1.10887, 1.15886, 1.08746, 1.0871, 1.0855, 1.08194, 1.08405, 1.06835, 1.07216, 1.07675, 1.08799, 1.0911, 1.09444, 1.09515, 1.1126, 1.11326, 1.11494, 1.16562, 1.09333, 1.09493, 1.09518, 1.09519, 1.09709, 1.09567, 1.09657, 1.09561, 1.09066, 1.09032, 1.09293, 1.0894, 1.08869, 1.08703, 1.0874, 1.08938, 1.08772, 1.08728, 1.08701, 1.08545, 1.08484, 1.08725, 1.08778, 1.08938, 1.0913, 1.09197
1.27485, 1.12514, 1.12558, 1.12464, 1.12177, 1.11281, 1.11171, 1.11137, 1.10754, 1.23251, 1.23423, 1.0879, 1.08563, 1.21312, 1.0783, 1.38949, 1.069, 1.06842, 1.06524, 1.06594, 1.0598, 1.05991, 1.05555, 1.12508, 1.04223, 1.04288, 1.03565, 1.03404, 1.03292, 1.02924, 1.02878, 1.02967, 1.03529, 1.03857, 1.03864, 1.04061, 1.04218, 1.0425, 1.04325, 1.04417, 1.04636, 1.04603, 1.04575, 1.04589, 1.28376, 1.03239, 1.0324, 1.03654, 1.03764, 1.03794, 1.03827, 1.03739, 1.0364, 1.03669, 1.03635, 1.03713, 1.03673, 1.02935, 1.04271, 1.03877, 1.03885, 1.04024, 1.04121, 1.04478, 1.04505, 1.04613, 1.04787, 1.04812, 1.04914, 1.04968, 1.09823, 1.07245, 1.57032, 1.15184, 1.10232, 1.54144, 1.05145, 1.05244, 1.05528, 1.05802, 1.05859, 1.05245, 1.05092, 1.04793, 1.04977, 1.05016, 1.05039, 1.05046, 1.20559, 1.05598, 1.28168, 1.04257, 1.04488, 1.18018, 1.04239, 1.1786, 1.0653, 1.06562, 1.07296, 1.07098, 1.10786, 1.13228, 1.1846, 1.24639, 1.2366, 1.21654, 1.21861, 1.26136, 1.23899, 1.23965, 1.24323, 1.26476, 1.26078, 1.28267, 1.29914, 1.29799, 1.35133, 1.33615, 1.34323, 1.34219, 1.33746, 1.3504, 1.3379, 1.32222, 1.38174, 1.35995, 1.33769, 1.34363, 1.34467, 1.37073, 1.35853, 1.36077, 1.38888, 1.35783, 1.38424, 1.40999, 1.40898, 1.41211, 1.4811, 1.47077, 1.52143, 1.51946, 1.48741, 1.47687, 1.49202, 1.46536, 1.47899, 1.47315, 1.47867, 1.47861, 1.4923, 1.51228, 1.5655, 1.56455, 1.5618, 1.55121, 1.59318, 1.59338, 1.59923, 1.59949, 1.60038, 1.6001, 1.64533, 1.67821, 1.62989, 1.62898, 1.65748, 1.65782, 1.66115, 1.70566, 1.7071, 1.67554, 1.65904, 1.70409, 1.65459, 1.64134, 1.6403, 1.62952, 1.62122, 1.6214, 1.61766, 1.61976, 1.61544, 1.61451, 1.62011, 1.7029, 1.65161, 1.65075, 1.65026, 1.72009, 1.6407, 1.69238, 1.6222, 1.56484, 1.52702, 1.51914, 1.49158, 1.48205, 1.47552, 1.45106, 1.4416, 1.45159, 1.43394, 1.43402, 1.46126, 1.46077, 1.43675, 1.39309, 1.39164, 1.3225, 1.32698, 1.30847, 1.30913, 1.3148, 1.27452, 1.24281, 1.20511, 1.20431, 1.18451, 1.18582, 1.14771, 1.14034, 1.12542, 1.12441, 1.17063, 1.10878, 1.11435, 1.11499, 1.09238, 1.09223, 1.09287, 1.15497, 1.07675, 1.20558, 1.19621, 1.18959, 1.0943, 1.09271, 1.09373, 1.0948, 1.09568, 1.09632, 1.11281, 1.11796, 1.21343, 1.09503, 1.09702, 1.09525, 1.09696, 1.09723, 1.0947, 1.09466, 1.0946, 1.09305, 1.09235, 1.09301, 1.09022, 1.08763, 1.087, 1.0884, 1.08773, 1.0872, 1.08594, 1.08723, 1.08747, 1.08738, 1.08831, 1.09021, 1.09177, 1.09217
1.26777, 1.12772, 1.12858, 1.12707, 1.12499, 1.12253, 1.11501, 1.11115, 1.10959, 1.10109, 1.09479, 1.08966, 1.08394, 1.08108, 1.07721, 1.07591, 1.07065, 1.07, 1.1115, 1.05395, 1.05513, 1.05768, 1.05193, 1.19603, 1.18904, 1.03619, 1.03827, 1.0348, 1.03526, 1.03115, 1.02976, 1.03544, 1.03675, 1.03892, 1.03962, 1.0423, 1.04597, 1.04529, 1.04633, 1.0464, 1.04756, 1.04832, 1.04781, 1.047, 1.30754, 1.03325, 1.03317, 1.03514, 1.03579, 1.03949, 1.04061, 1.0401, 1.0389, 1.03893, 1.04013, 1.04013, 1.04306, 1.04265, 1.04229, 1.04116, 1.04045, 1.0424, 1.04572, 1.04569, 1.04899, 1.04805, 1.05009, 1.05095, 1.05311, 1.05384, 1.055, 1.09161, 1.07108, 1.06553, 1.0664, 1.05678, 1.05695, 1.05523, 1.05636, 1.05683, 1.20788, 1.11128, 1.11261, 1.074, 1.05174, 1.05177, 1.05235, 1.06752, 1.18249, 1.05091, 1.05131, 1.04855, 1.04845, 1.12234, 1.11008, 1.15999, 1.16087, 1.07339, 1.07257, 1.14669, 1.1649, 1.16582, 1.22291, 1.21302, 1.24302, 1.27046, 1.27008, 1.29196, 1.30577, 1.31613, 1.25843, 1.28544, 1.28606, 1.27738, 1.29828, 1.31044, 1.32663, 1.33638, 1.3636, 1.34269, 1.34143, 1.33428, 1.37138, 1.3919, 1.39684, 1.39077, 1.37271, 1.41874, 1.35895, 1.42789, 1.37209, 1.37474, 1.38545, 1.38309, 1.39607, 1.46227, 1.44356, 1.45008, 1.48496, 1.52723, 1.52544, 1.51954, 1.48822, 1.50617, 1.49396, 1.50693, 1.46517, 1.5236, 1.58597, 1.49695, 1.50027, 1.50808, 1.50522, 1.52221, 1.53396, 1.56543, 1.56552, 1.62261, 1.61961, 1.65925, 1.59924, 1.66258, 1.62382, 1.62302, 1.63661, 1.68847, 1.65565, 1.6547, 1.69259, 1.69196, 1.67583, 1.67528, 1.70649, 1.69955, 1.71746, 1.79237, 1.64061, 1.66476, 1.6372, 1.64531, 1.6415, 1.62311, 1.6206, 1.61942, 1.62226, 1.62158, 1.62074, 1.64956, 1.6722, 1.66577, 1.66495, 1.65292, 1.63432, 1.56799, 1.5373, 1.50396, 1.4954, 1.47972, 1.47655, 1.48209, 1.48239, 1.4603, 1.44058, 1.47318, 1.44383, 1.44366, 1.421, 1.41805, 1.41739, 1.32129, 1.29295, 1.30252, 1.30539, 1.31249, 1.26053, 1.23266, 1.22914, 1.20171, 1.18207, 1.2054, 1.18886, 1.14547, 1.14661, 1.12771, 1.17115, 1.10882, 1.11122, 1.1107, 1.11583, 1.21263, 1.32263, 1.07713, 1.07673, 1.13822, 1.15335, 1.13922, 1.09286, 1.09292, 1.13694, 1.09684, 1.09622, 1.09629, 1.11314, 1.114, 1.11778, 1.1085, 1.0957, 1.09741, 1.0991, 1.09757, 1.09722, 1.09629, 1.09825, 1.09747, 1.09525, 1.09669, 1.09266, 1.0928, 1.08925, 1.09044, 1.08865, 1.08797, 1.08512, 1.0872, 1.08735, 1.0905, 1.09192, 1.09237, 1.09241, 1.09411
1.22294, 1.12876, 1.12833, 1.12808, 1.12517, 1.11926, 1.11652, 1.11367, 1.10352, 1.1038, 1.19496, 1.08765, 1.08404, 1.08246, 1.07971, 1.08025, 1.07316, 1.07182, 1.14468, 1.14422, 1.05519, 1.05705, 1.05105, 1.04555, 1.04213, 1.04013, 1.04063, 1.03516, 1.03434, 1.03568, 1.03365, 1.03549, 1.03886, 1.03946, 1.04644, 1.04484, 1.04513, 1.04647, 1.0475, 1.04781, 1.04815, 1.04911, 1.04918, 1.11264, 1.1398, 1.03395, 1.03423, 1.03547, 1.03638, 1.13215, 1.04137, 1.04188, 1.04275, 1.04224, 1.04268, 1.0428, 1.04316, 1.04275, 1.04335, 1.0443, 1.04504, 1.04702, 1.04977, 1.04895, 1.04914, 1.04908, 1.05101, 1.05343, 1.05408, 1.05708, 1.05762, 1.0669, 1.05922, 1.05952, 1.14061, 1.06086, 1.06035, 1.06051, 1.05975, 1.06085, 1.06172, 1.06736, 1.10429, 1.08375, 1.05384, 1.05404, 1.05467, 1.05665, 1.05952, 1.06087, 1.05248, 1.05268, 1.05047, 1.05072, 1.16052, 1.15939, 1.1126, 1.13331, 1.13289, 1.17121, 1.15479, 1.19589, 1.21328, 1.2372, 1.27894, 1.31162, 1.27773, 1.37981, 1.38001, 1.31501, 1.3153, 1.27993, 1.30997, 1.30949, 1.29655, 1.31463, 1.29962, 1.30847, 1.35374, 1.34299, 1.33895, 1.33849, 1.39535, 1.39172, 1.39548, 1.40193, 1.37404, 1.37407, 1.35003, 1.34979, 1.42658, 1.38589, 1.37498, 1.39913, 1.40286, 1.42296, 1.45057, 1.43953, 1.43399, 1.45122, 1.52684, 1.53156, 1.47776, 1.47763, 1.47717, 1.47965, 1.4913, 1.5473, 1.50988, 1.56581, 1.56797, 1.55055, 1.55053, 1.53871, 1.56868, 1.56846, 1.57283, 1.72796, 1.72777, 1.72888, 1.61799, 1.61345, 1.62517, 1.62525, 1.62302, 1.68754, 1.71673, 1.69715, 1.69712, 1.69225, 1.69766, 1.69658, 1.71846, 1.67918, 1.71245, 1.7733, 1.78185, 1.65487, 1.65121, 1.64685, 1.72067, 1.6379, 1.6313, 1.62301, 1.62281, 1.62241, 1.62166, 1.65797, 1.67115, 1.66756, 1.66608, 1.65621, 1.64811, 1.57297, 1.53071, 1.5031, 1.49248, 1.48927, 1.48895, 1.50653, 1.5073, 1.48829, 1.47161, 1.44288, 1.44434, 1.44356, 1.58212, 1.37532, 1.34398, 1.31652, 1.36421, 1.29827, 1.30206, 1.25648, 1.25376, 1.27311, 1.22014, 1.21138, 1.20243, 1.17131, 1.20081, 1.16437, 1.13711, 1.13362, 1.13208, 1.16824, 1.11034, 1.17452, 1.11566, 1.09766, 1.09779, 1.15508, 1.14592, 1.17347, 1.11444, 1.1853, 1.09905, 1.08804, 1.0884, 1.09817, 1.09745, 1.09886, 1.09965, 1.10301, 1.1052, 1.10669, 1.10082, 1.09893, 1.09974, 1.097, 1.09768, 1.09857, 1.09861, 1.10117, 1.09847, 1.09791, 1.09652, 1.09425, 1.19798, 1.08742, 1.08795, 1.08878, 1.09065, 1.09116, 1.08961, 1.08959, 1.09072, 1.09071, 1.09143, 1.09258
1.39201, 1.38875, 1.15139, 1.30951, 1.12508, 1.12335, 1.11342, 1.11289, 1.10254, 1.10284, 1.10311, 1.09425, 1.0874, 1.08263, 1.08259, 1.08022, 1.07176, 1.07142, 1.07806, 1.06191, 1.05989, 1.05732, 1.0472, 1.04402, 1.04239, 1.04163, 1.04034, 1.03905, 1.03612, 1.03531, 1.03463, 1.03524, 1.04066, 1.04166, 1.04253, 1.04414, 1.0436, 1.05074, 1.05032, 1.05098, 1.0496, 1.04918, 1.04847, 1.09855, 1.09662, 1.03473, 1.03486, 1.03622, 1.03646, 1.04906, 1.04492, 1.04593, 1.04805, 1.0477, 1.04598, 1.04614, 1.0464, 1.04582, 1.04564, 1.0491, 1.04739, 1.04954, 1.05041, 1.05274, 1.05274, 1.05123, 1.05272, 1.05389, 1.05633, 1.0597, 1.06192, 1.06201, 1.05956, 1.05976, 1.0632, 1.06342, 1.06198, 1.06176, 1.05879, 1.05928, 1.06382, 1.06677, 1.07694, 1.09572, 1.09454, 1.05697, 1.05635, 1.05618, 1.06057, 1.06498, 1.05005, 1.05191, 1.05363, 1.09497, 1.15359, 1.08399, 1.08116, 1.12948, 1.12949, 1.16077, 1.18142, 1.18567, 1.22212, 1.27629, 1.27662, 1.29298, 1.29374, 1.33747, 1.38654, 1.36711, 1.32635, 1.32919, 1.36255, 1.27627, 1.27667, 1.30168, 1.30266, 1.30356, 1.33212, 1.36364, 1.34645, 1.34527, 1.35308, 1.35239, 1.35734, 1.37783, 1.37718, 1.39682, 1.35275, 1.3858, 1.38614, 1.40456, 1.43224, 1.44998, 1.45083, 1.43438, 1.47475, 1.49816, 1.46861, 1.68966, 1.63148, 1.64538, 1.47787, 1.48408, 1.48441, 1.48253, 1.5379, 1.53735, 1.50399, 1.55534, 1.55491, 1.58557, 1.58443, 1.58348, 1.58551, 1.56853, 1.73123, 1.65122, 1.72667, 1.64953, 1.63364, 1.6407, 1.67702, 1.62429, 1.63233, 1.70956, 1.68534, 1.68427, 1.71187, 1.69918, 1.70622, 1.71762, 1.72653, 1.70697, 1.72299, 1.72844, 1.77796, 1.65717, 1.66128, 1.67698, 1.66815, 1.65752, 1.69585, 1.71368, 1.67965, 1.65221, 1.64596, 1.67149, 1.67105, 1.67129, 1.66323, 1.70364, 1.62505, 1.67959, 1.55403, 1.53537, 1.51895, 1.50055, 1.50902, 1.50404, 1.49218, 1.48166, 1.48215, 1.44301, 1.44175, 1.465, 1.39311, 1.42152, 1.42001, 1.31468, 1.29464, 1.29535, 1.28681, 1.25143, 1.27365, 1.23158, 1.21298, 1.18433, 1.19135, 1.18685, 1.16688, 1.16691, 1.13817, 1.13918, 1.1783, 1.12247, 1.10099, 1.10377, 1.11476, 1.11488, 1.06635, 1.067, 1.04917, 1.11289, 1.11355, 1.10474, 1.10542, 1.09685, 1.09636, 1.09773, 1.09821, 1.09871, 1.10154, 1.10114, 1.10561, 1.10645, 1.10761, 1.0983, 1.09873, 1.10112, 1.10197, 1.10092, 1.10156, 1.10117, 1.10111, 1.10503, 1.09816, 1.09848, 1.09468, 1.0894, 1.08762, 1.08929, 1.09083, 1.09127, 1.09171, 1.09015, 1.08931, 1.0904, 1.09162, 1.09277
1.34454, 1.34225, 1.35599, 1.12849, 1.32969, 1.20963, 1.11853, 1.11061, 1.10997, 1.10291, 1.1031, 1.09396, 1.08567, 1.08364, 1.0838, 1.08444, 1.17132, 1.0743, 1.0698, 1.06327, 1.05898, 1.05162, 1.05065, 1.03921, 1.03879, 1.04145, 1.04225, 1.04215, 1.03897, 1.03881, 1.0375, 1.03891, 1.03912, 1.04196, 1.04533, 1.04978, 1.04965, 1.05121, 1.05086, 1.0504, 1.05153, 1.05209, 1.1598, 1.0952, 1.09281, 1.03519, 1.03523, 1.08368, 1.08054, 1.04025, 1.0831, 1.04987, 1.05018, 1.04936, 1.04876, 1.04786, 1.0482, 1.04819, 1.04805, 1.04889, 1.0513, 1.05222, 1.05295, 1.05355, 1.05435, 1.05591, 1.05556, 1.05612, 1.05778, 1.05962, 1.06283, 1.06336, 1.06208, 1.06129, 1.06427, 1.06456, 1.05939, 1.0594, 1.05955, 1.05975, 1.06499, 1.06906, 1.07206, 1.07226, 1.07683, 1.09236, 1.06111, 1.0614, 1.06219, 1.06611, 1.06211, 1.05974, 1.05874, 1.06525, 1.11788, 1.10523, 1.08148, 1.11503, 1.11391, 1.18854, 1.19742, 1.21962, 1.2219, 1.28875, 1.29458, 1.29117, 1.31296, 1.40181, 1.46523, 1.35058, 1.31622, 1.38898, 1.34146, 1.27806, 1.27821, 1.33696, 1.29525, 1.31492, 1.31024, 1.3506, 1.34635, 1.37976, 1.35798, 1.35871, 1.35047, 1.38118, 1.37956, 1.48149, 1.38228, 1.41397, 1.42796, 1.44602, 1.44404, 1.43234, 1.43364, 1.4554, 1.48169, 1.4862, 1.68242, 1.57678, 1.57542, 1.51701, 1.50332, 1.48284, 1.59637, 1.50557, 1.50554, 1.57373, 1.58131, 1.5833, 1.58446, 1.58549, 1.58621, 1.58507, 1.59125, 1.59871, 1.66102, 1.67786, 1.71576, 1.7628, 1.64083, 1.64081, 1.63983, 1.63682, 1.63714, 1.68283, 1.71897, 1.70646, 1.69748, 1.77878, 1.70708, 1.78856, 1.78641, 1.78423, 1.72342, 1.78659, 1.77111, 1.78025, 1.74725, 1.67177, 1.72401, 1.69162, 1.67931, 1.73727, 1.69274, 1.7153, 1.64826, 1.64668, 1.67171, 1.66637, 1.67132, 1.70348, 1.62801, 1.64773, 1.6558, 1.57198, 1.65709, 1.52319, 1.53474, 1.52736, 1.65227, 1.49429, 1.47961, 1.51785, 1.46465, 1.44019, 1.42699, 1.38482, 1.42456, 1.33629, 1.29289, 1.28983, 1.27595, 1.31518, 1.27412, 1.26758, 1.24069, 1.18867, 1.18443, 1.2099, 1.17128, 1.1667, 1.15809, 1.13247, 1.13095, 1.10986, 1.11508, 1.16279, 1.12575, 1.07396, 1.09239, 1.04639, 1.04585, 1.30502, 1.1927, 1.10491, 1.20831, 1.09809, 1.09963, 1.10069, 1.10111, 1.10114, 1.09997, 1.10076, 1.10181, 1.10625, 1.10852, 1.1094, 1.10847, 1.10441, 1.10449, 1.10386, 1.10355, 1.10122, 1.10312, 1.10389, 1.10406, 1.20675, 1.17207, 1.08824, 1.0882, 1.09109, 1.09164, 1.09464, 1.09418, 1.09132, 1.08865, 1.09042, 1.09162, 1.09263
1.20182, 1.33627, 1.33445, 1.30486, 1.30719, 1.12171, 1.20196, 1.1114, 1.11004, 1.10465, 1.09851, 1.0978, 1.08416, 1.08323, 1.08492, 1.17403, 1.07803, 1.07564, 1.07312, 1.06345, 1.06016, 1.13583, 1.05027, 1.03896, 1.03894, 1.03939, 1.04259, 1.03727, 1.30438, 1.04401, 1.04363, 1.04095, 1.04107, 1.04145, 1.0492, 1.0494, 1.04958, 1.05088, 1.05151, 1.05288, 1.05282, 1.05281, 1.09528, 1.15061, 1.03556, 1.03538, 1.03758, 1.03794, 1.03959, 1.14917, 1.23548, 1.0509, 1.05054, 1.04956, 1.04936, 1.0491, 1.04851, 1.04768, 1.0467, 1.04963, 1.05189, 1.05194, 1.05351, 1.05635, 1.05626, 1.0572, 1.05756, 1.06086, 1.06213, 1.06363, 1.06519, 1.06576, 1.06408, 1.06525, 1.06532, 1.06521, 1.0873, 1.31701, 1.06812, 1.07071, 1.06999, 1.07176, 1.07217, 1.06908, 1.07464, 1.07508, 1.08853, 1.06222, 1.06296, 1.06667, 1.06868, 1.07145, 1.07432, 1.06618, 1.06551, 1.06661, 1.11269, 1.10333, 1.11664, 1.14455, 1.1876, 1.27075, 1.23985, 1.254, 1.29911, 1.29728, 1.31839, 1.44285, 1.44472, 1.34799, 1.31037, 1.37274, 1.3225, 1.28607, 1.36155, 1.2986, 1.29243, 1.29254, 1.29793, 1.29784, 1.33269, 1.35603, 1.34442, 1.34415, 1.34353, 1.34308, 1.43637, 1.36646, 1.38295, 1.43074, 1.79407, 1.76624, 1.58525, 1.44724, 1.46915, 1.46798, 1.4909, 1.46537, 1.48127, 1.50993, 1.57595, 1.58175, 1.57636, 1.50352, 1.50671, 1.50562, 1.50692, 1.53874, 1.63492, 1.63512, 1.65608, 1.61718, 1.72993, 1.67628, 1.72082, 1.65329, 1.71044, 1.67505, 1.76143, 1.76233, 1.77841, 1.64081, 1.63679, 1.63798, 1.63984, 1.6794, 1.68991, 1.69016, 1.70621, 1.79965, 1.79991, 1.78655, 1.78144, 1.78601, 1.72506, 1.78554, 1.70048, 1.72502, 1.74187, 1.71737, 1.80963, 1.80903, 1.80905, 1.68343, 1.7173, 1.7442, 1.65171, 1.64969, 1.69942, 1.69782, 1.69564, 1.65182, 1.62886, 1.64896, 1.64984, 1.66611, 1.56463, 1.55497, 1.53969, 1.54395, 1.55454, 1.61625, 1.62386, 1.49322, 1.42682, 1.41107, 1.45088, 1.41582, 1.42453, 1.34809, 1.31834, 1.285, 1.28428, 1.27983, 1.26956, 1.28506, 1.23656, 1.20572, 1.18603, 1.17447, 1.1635, 1.18597, 1.16473, 1.13968, 1.14065, 1.09096, 1.10923, 1.10904, 1.08025, 1.07162, 1.07378, 1.08337, 1.07825, 1.06431, 1.10217, 1.15216, 1.09443, 1.09423, 1.09997, 1.10094, 1.10072, 1.10128, 1.10148, 1.10855, 1.10749, 1.10678, 1.11114, 1.11513, 1.11173, 1.11171, 1.11147, 1.10975, 1.10623, 1.10561, 1.10452, 1.10449, 1.10407, 1.12295, 1.16746, 1.20946, 1.09531, 1.09076, 1.09143, 1.09329, 1.094, 1.09419, 1.09224, 1.09051, 1.09218, 1.0944
1.13752, 1.1374, 1.13675, 1.14113, 1.1258, 1.12528, 1.11476, 1.1148, 1.10837, 1.10416, 1.10378, 1.1918, 1.08187, 1.08196, 1.08429, 1.08121, 1.08033, 1.07706, 1.0733, 1.068, 1.06391, 1.06019, 1.04894, 1.04852, 1.04255, 1.25955, 1.0365, 1.03666, 1.27407, 1.04442, 1.04354, 1.04361, 1.04543, 1.04617, 1.0482, 1.04962, 1.05106, 1.0518, 1.0532, 1.05379, 1.05396, 1.05403, 1.25041, 1.15286, 1.08758, 1.29986, 1.30233, 1.0409, 1.04459, 1.04513, 1.06041, 1.05273, 1.05269, 1.04985, 1.04938, 1.04939, 1.0492, 1.04786, 1.04702, 1.05111, 1.05137, 1.05248, 1.05514, 1.05624, 1.05745, 1.05816, 1.0596, 1.06025, 1.06297, 1.06523, 1.06636, 1.06661, 1.06676, 1.06644, 1.06622, 1.06658, 1.06833, 1.0686, 1.07046, 1.07028, 1.07065, 1.074, 1.0809, 1.07039, 1.07112, 1.07237, 1.06973, 1.06986, 1.06311, 1.06782, 1.06993, 1.07008, 1.07695, 1.13812, 1.06652, 1.06367, 1.10549, 1.12145, 1.13309, 1.13649, 1.21151, 1.23505, 1.24386, 1.24648, 1.31208, 1.29898, 1.29863, 1.319, 1.44459, 1.37156, 1.31559, 1.38832, 1.33372, 1.32032, 1.29851, 1.29809, 1.29709, 1.33043, 1.34689, 1.33673, 1.33609, 1.33595, 1.34038, 1.34118, 1.34174, 1.34546, 1.38933, 1.3925, 1.38346, 1.56244, 1.58704, 1.59085, 1.68638, 1.66876, 1.45815, 1.46223, 1.46589, 1.49237, 1.49722, 1.50115, 1.57815, 1.57581, 1.51958, 1.51887, 1.50929, 1.50951, 1.51715, 1.55094, 1.62414, 1.63781, 1.62698, 1.62502, 1.62454, 1.62381, 1.61246, 1.61099, 1.66847, 1.65884, 1.7643, 1.76273, 1.7715, 1.77843, 1.70992, 1.68001, 1.66937, 1.70962, 1.66853, 1.7411, 1.71517, 1.80979, 1.79915, 1.80018, 1.78101, 1.79985, 1.77308, 1.77255, 1.79419, 1.75846, 1.74432, 1.79619, 1.81633, 1.81657, 1.8202, 1.79947, 1.71785, 1.68618, 1.65823, 1.67728, 1.64678, 1.63619, 1.69629, 1.65907, 1.62649, 1.64889, 1.64794, 1.64654, 1.66867, 1.58939, 1.59964, 1.55139, 1.56223, 1.57484, 1.52424, 1.42744, 1.44377, 1.41092, 1.38434, 1.37534, 1.41628, 1.45114, 1.39648, 1.4381, 1.32202, 1.30952, 1.28461, 1.25612, 1.22633, 1.21904, 1.20715, 1.16635, 1.16393, 1.1713, 1.17322, 1.14969, 1.12734, 1.09474, 1.10747, 1.06716, 1.06912, 1.06958, 1.08204, 1.08303, 1.0629, 1.06252, 1.10678, 1.10089, 1.09195, 1.09255, 1.09753, 1.09937, 1.10129, 1.10227, 1.12765, 1.10532, 1.10592, 1.1058, 1.10821, 1.10842, 1.11017, 1.11098, 1.11026, 1.10904, 1.10767, 1.10591, 1.10681, 1.13691, 1.19625, 1.20283, 1.19973, 1.16592, 1.0956, 1.09546, 1.09376, 1.09279, 1.09324, 1.09349, 1.09322, 1.09194, 1.0938, 1.0944
1.13717, 1.13767, 1.13667, 1.13258, 1.12845, 1.12832, 1.11355, 1.11338, 1.28863, 1.1635, 1.10115, 1.1555, 1.08428, 1.08442, 1.08435, 1.12429, 1.0789, 1.07549, 1.0756, 1.13127, 1.12875, 1.06019, 1.05977, 1.04763, 1.04652, 1.04676, 1.0908, 1.07201, 1.22924, 1.22367, 1.04631, 1.0447, 1.0451, 1.31035, 1.06115, 1.0541, 1.05467, 1.05332, 1.05397, 1.0543, 1.05426, 1.35009, 1.34549, 1.24478, 1.27468, 1.04012, 1.04073, 1.04278, 1.50306, 1.50292, 1.05422, 1.05359, 1.05279, 1.05007, 1.04953, 1.0494, 1.04915, 1.04906, 1.04725, 1.05166, 1.05238, 1.05195, 1.05389, 1.05631, 1.05856, 1.05914, 1.06024, 1.06153, 1.06198, 1.0653, 1.06592, 1.06666, 1.06603, 1.06762, 1.06652, 1.06671, 1.06977, 1.06983, 1.07032, 1.07109, 1.07279, 1.07733, 1.07751, 1.07046, 1.07159, 1.07227, 1.07128, 1.07234, 1.08292, 1.08133, 1.07697, 1.24715, 1.13814, 1.13352, 1.12082, 1.08173, 1.08307, 1.08387, 1.13803, 1.16638, 1.16837, 1.23817, 1.24797, 1.25808, 1.27856, 1.32891, 1.3392, 1.32541, 1.36827, 1.34728, 1.34475, 1.34339, 1.38768, 1.31986, 1.33341, 1.327, 1.32723, 1.30299, 1.33499, 1.32732, 1.34656, 1.33797, 1.34375, 1.34319, 1.34032, 1.3661, 1.37591, 1.38041, 1.39304, 1.56308, 1.56184, 1.65466, 1.62384, 1.64459, 1.6545, 1.50307, 1.47474, 1.49318, 1.49332, 1.61423, 1.51765, 1.51648, 1.515, 1.51421, 1.50771, 1.5072, 1.61015, 1.56191, 1.5731, 1.66626, 1.70252, 1.62659, 1.62519, 1.6582, 1.65654, 1.6571, 1.65651, 1.68686, 1.72477, 1.77183, 1.76846, 1.76886, 1.70223, 1.70357, 1.73761, 1.66948, 1.66891, 1.69901, 1.73468, 1.76299, 1.78964, 1.86871, 1.7881, 1.77614, 1.77919, 1.79818, 1.80023, 1.7146, 1.71425, 1.79798, 1.80797, 1.80732, 1.80717, 1.84461, 1.74327, 1.68298, 1.68019, 1.65375, 1.62961, 1.62996, 1.62914, 1.62962, 1.62758, 1.64055, 1.64135, 1.63818, 1.63645, 1.60346, 1.60208, 1.55113, 1.61655, 1.55026, 1.4776, 1.45773, 1.42087, 1.40836, 1.37699, 1.37292, 1.36988, 1.44951, 1.35859, 1.33232, 1.38666, 1.31636, 1.36924, 1.26293, 1.22736, 1.21403, 1.20141, 1.17388, 1.17258, 1.17467, 1.19455, 1.19663, 1.19361, 1.10884, 1.10195, 1.06842, 1.06874, 1.14916, 1.08771, 1.08489, 1.10091, 1.06072, 1.11277, 1.12985, 1.14696, 1.1464, 1.1002, 1.10129, 1.102, 1.10357, 1.10759, 1.10776, 1.10672, 1.10655, 1.10661, 1.10935, 1.11011, 1.11107, 1.11129, 1.11137, 1.11055, 1.10638, 1.10791, 1.10628, 1.1363, 1.18177, 1.11964, 1.10106, 1.09826, 1.0978, 1.09444, 1.09144, 1.09258, 1.09444, 1.0953, 1.09121, 1.19475, 1.09922
1.13587, 1.13624, 1.13494, 1.12889, 1.12799, 1.12627, 1.11607, 1.11157, 1.11018, 1.10148, 1.09966, 1.08867, 1.18848, 1.14771, 1.129, 1.12695, 1.0766, 1.07435, 1.07402, 1.14473, 1.05376, 1.10322, 1.05975, 1.05943, 1.05069, 1.08957, 1.33645, 1.06179, 1.06066, 1.05236, 1.05159, 1.21204, 1.32242, 1.31795, 1.13366, 1.05635, 1.05648, 1.05701, 1.05407, 1.0539, 1.05515, 1.18421, 1.24993, 1.04397, 1.04384, 1.04266, 1.20938, 1.68285, 1.28435, 1.05663, 1.05603, 1.05611, 1.05306, 1.05336, 1.05136, 1.04992, 1.04964, 1.05024, 1.05033, 1.05238, 1.05276, 1.05334, 1.05411, 1.05478, 1.05666, 1.05879, 1.06107, 1.06237, 1.0638, 1.06389, 1.06554, 1.06551, 1.0666, 1.06988, 1.07, 1.30283, 1.52902, 1.07297, 1.07365, 1.07251, 1.07538, 1.07858, 1.07943, 1.07907, 1.0962, 1.07167, 1.07156, 1.07242, 1.07351, 1.08898, 1.07951, 1.14067, 1.09461, 1.09431, 1.16306, 1.08295, 1.16906, 1.14562, 1.14016, 1.1685, 1.22916, 1.24368, 1.24215, 1.275, 1.28164, 1.33422, 1.33345, 1.33332, 1.34743, 1.31559, 1.33264, 1.33764, 1.3376, 1.3198, 1.35021, 1.33138, 1.3058, 1.32949, 1.3284, 1.32754, 1.36441, 1.34692, 1.34581, 1.3438, 1.34219, 1.34168, 1.40472, 1.40035, 1.41101, 1.41166, 1.61252, 1.59338, 1.69323, 1.61571, 1.61523, 1.61256, 1.50048, 1.46658, 1.61035, 1.50178, 1.5015, 1.51652, 1.51358, 1.51033, 1.50672, 1.50567, 1.603, 1.59529, 1.59472, 1.6473, 1.63077, 1.64819, 1.63549, 1.61664, 1.65553, 1.60331, 1.60302, 1.66107, 1.66466, 1.66451, 1.72696, 1.76662, 1.78124, 1.76208, 1.73695, 1.73368, 1.66213, 1.66143, 1.68812, 1.76499, 1.76309, 1.82035, 1.82767, 1.83238, 1.92126, 1.79915, 1.79818, 1.79648, 1.70283, 1.78964, 1.7937, 1.79682, 1.7796, 1.67517, 1.6752, 1.68615, 1.65132, 1.65688, 1.65612, 1.63055, 1.62841, 1.63381, 1.64365, 1.642, 1.64299, 1.63746, 1.75076, 1.58819, 1.57561, 1.60254, 1.55931, 1.51361, 1.43962, 1.41699, 1.40046, 1.39626, 1.37268, 1.37439, 1.37094, 1.36922, 1.3733, 1.37418, 1.38203, 1.28311, 1.28334, 1.25359, 1.25106, 1.22334, 1.20986, 1.19252, 1.17025, 1.1739, 1.17362, 1.18535, 1.1967, 1.11824, 1.15697, 1.12986, 1.13824, 1.08672, 1.08636, 1.1317, 1.0628, 1.06285, 1.06652, 1.06777, 1.13193, 1.14568, 1.10764, 1.10904, 1.1038, 1.10517, 1.10634, 1.10789, 1.10855, 1.10799, 1.10632, 1.10949, 1.11163, 1.10947, 1.11074, 1.1113, 1.10945, 1.10778, 1.10794, 1.10768, 1.10747, 1.17693, 1.31209, 1.11435, 1.10685, 1.10006, 1.09619, 1.09218, 1.09074, 1.2264, 1.09566, 1.10571, 1.17602, 1.19481
1.13608, 1.13629, 1.13262, 1.13178, 1.12536, 1.12458, 1.11792, 1.11682, 1.11023, 1.10438, 1.10107, 1.09405, 1.13043, 1.13018, 1.07052, 1.15743, 1.07569, 1.07433, 1.07241, 1.08859, 1.05445, 1.05516, 1.05979, 1.05961, 1.05732, 1.05676, 1.05688, 1.05771, 1.05182, 1.05144, 1.05154, 1.2829, 1.21217, 1.18188, 1.05606, 1.05612, 1.056, 1.05692, 1.05614, 1.05608, 1.05592, 1.17649, 1.08057, 1.04533, 1.04573, 1.49305, 1.07076, 1.05703, 1.05951, 1.05929, 1.05688, 1.05605, 1.05509, 1.05467, 1.0535, 1.05341, 1.05254, 1.05048, 1.05096, 1.05184, 1.05164, 1.05406, 1.05406, 1.05624, 1.35997, 1.35768, 1.12318, 1.06719, 1.06447, 1.06434, 1.06474, 1.06497, 1.06839, 1.07033, 1.07023, 1.07039, 1.07174, 1.07332, 1.07354, 1.07422, 1.11001, 1.08075, 1.07881, 1.07862, 1.07819, 1.07593, 1.07405, 1.07332, 1.09445, 1.24938, 1.08282, 1.09396, 1.09403, 1.09404, 1.09453, 1.08556, 1.08633, 1.17672, 1.1633, 1.16164, 1.26832, 1.24067, 1.25088, 1.26662, 1.30281, 1.29374, 1.29354, 1.31713, 1.31361, 1.33103, 1.34508, 1.33811, 1.41006, 1.32007, 1.31976, 1.32526, 1.34123, 1.36741, 1.35684, 1.40325, 1.34851, 1.34629, 1.37976, 1.34802, 1.35681, 1.39479, 1.43551, 1.52711, 1.41589, 1.47575, 1.59546, 1.56385, 1.7415, 1.62302, 1.61567, 1.61408, 1.49916, 1.49578, 1.60366, 1.50269, 1.60565, 1.60295, 1.51601, 1.51547, 1.60236, 1.60205, 1.59679, 1.59581, 1.60275, 1.61273, 1.6126, 1.61893, 1.6263, 1.59606, 1.59778, 1.62424, 1.59614, 1.64498, 1.72696, 1.72622, 1.72615, 1.76287, 1.75718, 1.74905, 1.74067, 1.73572, 1.69801, 1.68852, 1.77149, 1.76563, 1.76467, 1.76676, 1.82438, 1.83053, 1.80034, 1.79273, 1.79962, 1.79706, 1.79692, 1.79261, 1.72335, 1.80471, 1.73513, 1.67697, 1.6759, 1.67695, 1.6526, 1.65642, 1.65658, 1.65579, 1.62983, 1.64241, 1.64479, 1.64261, 1.64141, 1.63995, 1.65325, 1.59689, 1.5594, 1.5375, 1.61316, 1.5356, 1.43322, 1.432, 1.41323, 1.38898, 1.36247, 1.36868, 1.37079, 1.37306, 1.37684, 1.41398, 1.37091, 1.37221, 1.28225, 1.26909, 1.23375, 1.24743, 1.22438, 1.20261, 1.19945, 1.1861, 1.17565, 1.1812, 1.19531, 1.17033, 1.14272, 1.14292, 1.18755, 1.13297, 1.12679, 1.0745, 1.06067, 1.06204, 1.06304, 1.04365, 1.133, 1.1117, 1.14684, 1.14258, 1.10585, 1.1067, 1.10608, 1.10924, 1.11119, 1.11161, 1.1092, 1.11073, 1.11215, 1.1161, 1.11134, 1.11151, 1.1101, 1.10751, 1.10785, 1.10714, 1.10683, 1.10615, 1.10481, 1.10742, 1.10688, 1.10805, 1.1567, 1.0975, 1.09786, 1.09765, 1.09798, 1.0991, 1.09979, 1.16663
1.1364, 1.13643, 1.35682, 1.29316, 1.27483, 1.11832, 1.20194, 1.29152, 1.22992, 1.1046, 1.13668, 1.09494, 1.15992, 1.15911, 1.07066, 1.07123, 1.07581, 1.07189, 1.06991, 1.07023, 1.05452, 1.05587, 1.05627, 1.06111, 1.06139, 1.06063, 1.06095, 1.05917, 1.05264, 1.05247, 1.06677, 1.0658, 1.19173, 1.05747, 1.05664, 1.05629, 1.05597, 1.05617, 1.0553, 1.05539, 1.05576, 1.19835, 1.17449, 1.33391, 1.08174, 1.07449, 1.22433, 1.05955, 1.05923, 1.0593, 1.0588, 1.05738, 1.05943, 1.05666, 1.05452, 1.05647, 1.05554, 1.05579, 1.05678, 1.05312, 1.05314, 1.05293, 1.05148, 1.05205, 1.05247, 1.05279, 1.067, 1.07705, 1.07639, 1.0646, 1.06533, 1.06503, 1.069, 1.06963, 1.07024, 1.07058, 1.07438, 1.07435, 1.0749, 1.07522, 1.07877, 1.0814, 1.08371, 1.08426, 1.08107, 1.07804, 1.07633, 1.07465, 1.07653, 1.07699, 1.0918, 1.09347, 1.11905, 1.09038, 1.11507, 1.11467, 1.08505, 1.12577, 1.15366, 1.17132, 1.23958, 1.25193, 1.27926, 1.30894, 1.29777, 1.30095, 1.29258, 1.30277, 1.33431, 1.32271, 1.34822, 1.37875, 1.30937, 1.31733, 1.33734, 1.34368, 1.3537, 1.36148, 1.34017, 1.33971, 1.33977, 1.34643, 1.3578, 1.37436, 1.35901, 1.35965, 1.50974, 1.43537, 1.47719, 1.47701, 1.64377, 1.60702, 1.58178, 1.57194, 1.5923, 1.56803, 1.60623, 1.52296, 1.60336, 1.49374, 1.49715, 1.53762, 1.52566, 1.52923, 1.52997, 1.60376, 1.59687, 1.58927, 1.59164, 1.59091, 1.6127, 1.61172, 1.62854, 1.59648, 1.59922, 1.5971, 1.64905, 1.74624, 1.70629, 1.70664, 1.70593, 1.70426, 1.77617, 1.75824, 1.80353, 1.7903, 1.77886, 1.70707, 1.70676, 1.70791, 1.73678, 1.84365, 1.81694, 1.81053, 1.92514, 1.79111, 1.78859, 1.78855, 1.79407, 1.75278, 1.75188, 1.72344, 1.70958, 1.69319, 1.67491, 1.66889, 1.67849, 1.6583, 1.65661, 1.66117, 1.68318, 1.64687, 1.64426, 1.64321, 1.63832, 1.65241, 1.65125, 1.65788, 1.54445, 1.52449, 1.51794, 1.49635, 1.46969, 1.44665, 1.42063, 1.45698, 1.39532, 1.39528, 1.39211, 1.41276, 1.42894, 1.39593, 1.43891, 1.37213, 1.3294, 1.34278, 1.24989, 1.21054, 1.20961, 1.25497, 1.18767, 1.19515, 1.1771, 1.17476, 1.18989, 1.17871, 1.12212, 1.13179, 1.13188, 1.09107, 1.11058, 1.07556, 1.07688, 1.06091, 1.0424, 1.0625, 1.12999, 1.14069, 1.14024, 1.17803, 1.10796, 1.10744, 1.10806, 1.11154, 1.11184, 1.11302, 1.11073, 1.11028, 1.11232, 1.11358, 1.11433, 1.11874, 1.11338, 1.10759, 1.10774, 1.10814, 1.10822, 1.1079, 1.10621, 1.10522, 1.10785, 1.10878, 1.15329, 1.10109, 1.09754, 1.09722, 1.09803, 1.10075, 1.10132, 1.10299
1.13664, 1.1365, 1.1939, 1.38113, 1.12549, 1.1164, 1.11486, 1.31354, 1.19841, 1.09514, 1.0951, 1.08732, 1.08323, 1.0838, 1.07167, 1.07231, 1.07344, 1.07082, 1.07051, 1.06907, 1.16638, 1.05603, 1.05642, 1.06206, 1.06189, 1.06289, 1.06071, 1.05875, 1.05596, 1.06052, 1.1913, 1.0611, 1.05773, 1.05706, 1.05738, 1.05871, 1.05788, 1.05681, 1.05349, 1.05606, 1.05621, 1.19857, 1.07974, 1.33152, 1.07736, 1.07596, 1.05974, 1.05928, 1.05949, 1.05972, 1.05961, 1.05923, 1.05846, 1.06091, 1.06054, 1.05905, 1.0575, 1.05833, 1.05899, 1.05885, 1.05582, 1.05648, 1.05572, 1.05935, 1.05365, 1.06111, 1.06727, 1.09077, 1.08084, 1.06656, 1.06576, 1.06917, 1.0716, 1.07095, 1.07017, 1.07134, 1.07489, 1.07474, 1.07379, 1.07713, 1.07872, 1.07978, 1.0808, 1.08555, 1.08569, 1.16511, 1.07882, 1.07777, 1.07755, 1.09172, 1.21575, 1.16188, 1.088, 1.08744, 1.0952, 1.10865, 1.1294, 1.12531, 1.17752, 1.24131, 1.24104, 1.29295, 1.28434, 1.29652, 1.30822, 1.28472, 1.28453, 1.30314, 1.32146, 1.31432, 1.31398, 1.31704, 1.35284, 1.33363, 1.36373, 1.38925, 1.35729, 1.39597, 1.3638, 1.33957, 1.38113, 1.37132, 1.37059, 1.37563, 1.47955, 1.47365, 1.48157, 1.43517, 1.42658, 1.42586, 1.47566, 1.57761, 1.56916, 1.54758, 1.54699, 1.51958, 1.5256, 1.60549, 1.49872, 1.49497, 1.54316, 1.5332, 1.61649, 1.52704, 1.55016, 1.61361, 1.58444, 1.58469, 1.58552, 1.58516, 1.61306, 1.62368, 1.68254, 1.63698, 1.63757, 1.66201, 1.70677, 1.7779, 1.7526, 1.70676, 1.70601, 1.70584, 1.77643, 1.77247, 1.77261, 1.82392, 1.78236, 1.78264, 1.77326, 1.73729, 1.73864, 1.76783, 1.87252, 1.83113, 1.78893, 1.7876, 1.76108, 1.76189, 1.67268, 1.67171, 1.75119, 1.66423, 1.75303, 1.66974, 1.67536, 1.64005, 1.63875, 1.63676, 1.68976, 1.66132, 1.66045, 1.75064, 1.65383, 1.63221, 1.62946, 1.64704, 1.64547, 1.6568, 1.55082, 1.52746, 1.50938, 1.51607, 1.45383, 1.44383, 1.44371, 1.42918, 1.43354, 1.45593, 1.49631, 1.42339, 1.42322, 1.41562, 1.39538, 1.36487, 1.35096, 1.31299, 1.2933, 1.25809, 1.22001, 1.20592, 1.20221, 1.20122, 1.19905, 1.21619, 1.19211, 1.18157, 1.14703, 1.18144, 1.1128, 1.08409, 1.07699, 1.07476, 1.09537, 1.09112, 1.08418, 1.09638, 1.13352, 1.13452, 1.14238, 1.16831, 1.12732, 1.11049, 1.11162, 1.11138, 1.11118, 1.10821, 1.10718, 1.12242, 1.11266, 1.1123, 1.11312, 1.11561, 1.11654, 1.11496, 1.10988, 1.10953, 1.10888, 1.10779, 1.10644, 1.10558, 1.10948, 1.10987, 1.14946, 1.10428, 1.10123, 1.09819, 1.09922, 1.10057, 1.1017, 1.10217
1.13633, 1.36008, 1.39493, 1.28853, 1.11741, 1.11651, 1.1104, 1.1633, 1.38937, 1.12733, 1.1285, 1.08641, 1.08398, 1.0846, 1.07182, 1.07206, 1.0725, 1.07076, 1.06687, 1.06737, 1.06735, 1.12876, 1.12921, 1.07426, 1.06344, 1.06348, 1.06661, 1.06633, 1.18924, 1.06228, 1.06329, 1.06222, 1.05963, 1.0591, 1.05921, 1.05888, 1.05882, 1.05821, 1.05226, 1.05468, 1.05644, 1.05724, 1.37962, 1.43061, 1.43313, 1.05999, 1.06044, 1.0595, 1.05958, 1.06022, 1.06107, 1.06155, 1.06212, 1.06297, 1.06307, 1.05987, 1.05834, 1.05801, 1.0631, 1.06124, 1.05713, 1.05653, 1.05677, 1.05847, 1.05782, 1.09439, 1.06654, 1.17184, 1.10477, 1.15588, 1.06893, 1.07171, 1.0725, 1.07361, 1.07354, 1.07393, 1.0765, 1.07579, 1.07692, 1.07706, 1.07739, 1.07859, 1.07927, 1.08651, 1.0868, 1.08191, 1.08111, 1.07751, 1.07814, 1.093, 1.14545, 1.08347, 1.08383, 1.14219, 1.13465, 1.12787, 1.12965, 1.18673, 1.16745, 1.2919, 1.28935, 1.28332, 1.28795, 1.29085, 1.28174, 1.28394, 1.28541, 1.28503, 1.31996, 1.31459, 1.31421, 1.35838, 1.38856, 1.47393, 1.36426, 1.40381, 1.40044, 1.35444, 1.354, 1.37634, 1.38061, 1.39541, 1.3791, 1.38776, 1.46904, 1.4696, 1.49846, 1.43667, 1.42665, 1.42581, 1.5233, 1.44999, 1.50559, 1.53764, 1.55739, 1.51217, 1.51959, 1.53025, 1.49853, 1.57937, 1.59262, 1.53437, 1.53393, 1.53515, 1.61568, 1.61605, 1.58496, 1.58464, 1.58511, 1.7142, 1.69587, 1.68613, 1.70295, 1.72074, 1.674, 1.6733, 1.67182, 1.76635, 1.74109, 1.70643, 1.73016, 1.78285, 0.00461615, 1.78282, 1.77652, 1.85072, 1.811, 1.75587, 1.7395, 1.73418, 1.75123, 1.76973, 1.89095, 1.83862, 1.81205, 1.78533, 1.75759, 1.75654, 1.66754, 1.66743, 1.69593, 1.66655, 1.67058, 1.6453, 1.64472, 1.64622, 1.63305, 1.63153, 1.64444, 1.66129, 1.66087, 1.66011, 1.71461, 1.71287, 1.64746, 1.64696, 1.64566, 1.64561, 1.53801, 1.55156, 1.52029, 1.52082, 1.50161, 1.45364, 1.45422, 1.41945, 1.45792, 1.43763, 1.43643, 1.42596, 1.41945, 1.41886, 1.40908, 1.38461, 1.38215, 1.30038, 1.30192, 1.27841, 1.22752, 1.2102, 1.18829, 1.19732, 1.23216, 1.21588, 1.20857, 1.18102, 1.18515, 1.12354, 1.15275, 1.07872, 1.13415, 1.12072, 1.07026, 1.10637, 1.0854, 1.08743, 1.13671, 1.1467, 1.1192, 1.13169, 1.25268, 1.11206, 1.11312, 1.23351, 1.11005, 1.10798, 1.10767, 1.12301, 1.12281, 1.11744, 1.11638, 1.11541, 1.11497, 1.11524, 1.11178, 1.10961, 1.10806, 1.10609, 1.10702, 1.13617, 1.10899, 1.11129, 1.10786, 1.10816, 1.10559, 1.10133, 1.09956, 1.09975, 1.10183, 1.10312
1.21159, 1.35884, 1.29468, 1.35108, 1.24699, 1.27812, 1.10885, 1.10808, 1.21276, 1.13019, 1.09411, 1.08656, 1.08521, 1.08286, 1.18635, 1.07258, 1.07173, 1.06943, 1.06841, 1.0669, 1.06655, 1.06671, 1.1916, 1.16823, 1.06545, 1.066, 1.06659, 1.06691, 1.06687, 1.06615, 1.06482, 1.06294, 1.05958, 1.05897, 1.05895, 1.06178, 1.05642, 1.05636, 1.05622, 1.0556, 1.05601, 1.0571, 1.05619, 1.05804, 1.05944, 1.05991, 1.05947, 1.05951, 1.06048, 1.06191, 1.06268, 1.06279, 1.06303, 1.06308, 1.06188, 1.05652, 1.05589, 1.06255, 1.06294, 1.06215, 1.06034, 1.05931, 1.05982, 1.05964, 1.0597, 1.06067, 1.07516, 1.07273, 1.1624, 1.07334, 1.15758, 1.07361, 1.07336, 1.07609, 1.07703, 1.07914, 1.07927, 1.0786, 1.07724, 1.07735, 1.07693, 1.07755, 1.0783, 1.08589, 1.08696, 1.08701, 1.08181, 1.07751, 1.09477, 1.09494, 1.13925, 1.13304, 1.1229, 1.07249, 1.07351, 1.07512, 1.1388, 1.18159, 1.17942, 1.28865, 1.28882, 1.28551, 1.30953, 1.28767, 1.28239, 1.28424, 1.31263, 1.34045, 1.31958, 1.42241, 1.35293, 1.34594, 1.38846, 1.3775, 1.3773, 1.37784, 1.37105, 1.38789, 1.38601, 1.3994, 1.37436, 1.44627, 1.44452, 1.44039, 1.47438, 1.46117, 1.49609, 1.43772, 1.43628, 1.42914, 1.4338, 1.47388, 1.47625, 1.50249, 1.52816, 1.52304, 1.52164, 1.51566, 1.53332, 1.58298, 1.57875, 1.53713, 1.5368, 1.61556, 1.8117, 1.81097, 1.69763, 1.65932, 1.65925, 1.65976, 1.71336, 1.67918, 1.67177, 1.67015, 1.67406, 1.67375, 1.67206, 1.71791, 1.88208, 1.87301, 1.77594, 1.95195, 1.86657, 1.92759, 1.84099, 1.83151, 1.85728, 1.84732, 1.74279, 1.84108, 1.89994, 1.86818, 1.7887, 1.81398, 1.77817, 1.83783, 1.75894, 1.75727, 1.66833, 1.66774, 1.66553, 1.65802, 1.65738, 1.64481, 1.64668, 1.73826, 1.73068, 1.63297, 1.64934, 1.64658, 1.64673, 1.64342, 1.66521, 1.64529, 1.64813, 1.64546, 1.65175, 1.651, 1.56458, 1.55779, 1.52059, 1.52107, 1.50298, 1.45409, 1.45473, 1.4676, 1.42273, 1.4295, 1.43294, 1.42352, 1.43035, 1.54982, 1.39907, 1.38814, 1.39311, 1.29963, 1.30447, 1.2329, 1.20963, 1.20838, 1.20854, 1.21515, 1.17098, 1.18401, 1.19208, 1.17827, 1.19187, 1.14012, 1.15749, 1.11317, 1.10135, 1.1157, 1.09474, 1.10855, 1.16524, 1.16627, 1.13006, 1.18162, 1.11846, 1.15829, 1.11924, 1.11413, 1.11497, 1.11647, 1.14586, 1.10906, 1.11367, 1.11415, 1.13245, 1.11723, 1.11767, 1.11788, 1.11636, 1.11518, 1.11271, 1.11198, 1.10813, 1.10836, 1.10851, 1.10952, 1.1106, 1.11157, 1.11108, 1.11127, 1.1101, 1.10709, 1.10208, 1.10096, 1.10162, 1.10288
1.20529, 1.32746, 1.29701, 1.29151, 1.24588, 1.11915, 1.1114, 1.10751, 1.17044, 1.13262, 1.09119, 1.08531, 1.08447, 1.0825, 1.07877, 1.07595, 1.06815, 1.06875, 1.06662, 1.06678, 1.06194, 1.06591, 1.06207, 1.06276, 1.06414, 1.06552, 1.06627, 1.06731, 1.06828, 1.06656, 1.06674, 1.06196, 1.06128, 1.06089, 1.05479, 1.05367, 1.05619, 1.05574, 1.05614, 1.05625, 1.05734, 1.0566, 1.05711, 1.05879, 1.0594, 1.05937, 1.05948, 1.05952, 1.06167, 1.06313, 1.06324, 1.06396, 1.06342, 1.06092, 1.06118, 1.05991, 1.05616, 1.05494, 1.06043, 1.06038, 1.06041, 1.06065, 1.06046, 1.06015, 1.06089, 1.06505, 1.06455, 1.37929, 1.0688, 1.07244, 1.07643, 1.07508, 1.07339, 1.07515, 1.08017, 1.08022, 1.12215, 1.30121, 1.2971, 1.07718, 1.07716, 1.07843, 1.08061, 1.08304, 1.08685, 1.0872, 1.08272, 1.08103, 1.07895, 1.07945, 1.0821, 1.08688, 1.14668, 1.08681, 1.08829, 1.13678, 1.12285, 1.19849, 1.19834, 1.27254, 1.26554, 1.3163, 1.30389, 1.2887, 1.32571, 1.40447, 1.29832, 1.33637, 1.33809, 1.33831, 1.32998, 1.33172, 1.38143, 1.38381, 1.37849, 1.37243, 1.37082, 1.37202, 1.3864, 1.38658, 1.46741, 1.37462, 1.40036, 1.3884, 1.47947, 1.47406, 1.4567, 1.43714, 1.44414, 1.42259, 1.42946, 1.45454, 1.46839, 1.47574, 1.52302, 1.50586, 1.52088, 1.52463, 1.53438, 1.55939, 1.61945, 1.80335, 1.80267, 1.80273, 1.81085, 1.81123, 1.70341, 1.66011, 1.65985, 1.66855, 1.65174, 1.65118, 1.67359, 1.67141, 1.7003, 1.67488, 1.66633, 1.69319, 1.87665, 1.87614, 1.78575, 1.78322, 1.86567, 1.87951, 1.84035, 1.87634, 1.86809, 1.9447, 1.83858, 1.85871, 1.80441, 1.83892, 1.83563, 1.7962, 1.7725, 1.74928, 1.74026, 1.72447, 1.68721, 1.66654, 1.6654, 1.658, 1.65744, 1.69287, 1.64218, 1.6372, 1.63682, 1.63032, 1.64547, 1.6444, 1.64394, 1.64377, 1.63538, 1.64452, 1.6439, 1.64211, 1.65161, 1.66422, 1.5719, 1.54942, 1.51928, 1.49727, 1.48409, 1.47987, 1.44737, 1.44753, 1.43386, 1.43285, 1.42968, 1.44678, 1.417, 1.40026, 1.39973, 1.38839, 1.32212, 1.33353, 1.30232, 1.30157, 1.25838, 1.2117, 1.21212, 1.17075, 1.16971, 1.18471, 1.18485, 1.20138, 1.20124, 1.13317, 1.13564, 1.15254, 1.11037, 1.08421, 1.10123, 1.08173, 1.11499, 1.20502, 1.12696, 1.12655, 1.11845, 1.11904, 1.14878, 1.11831, 1.1186, 1.1161, 1.25978, 1.33606, 1.13625, 1.19479, 1.19619, 1.11803, 1.11818, 1.11579, 1.11637, 1.11658, 1.11502, 1.13089, 1.1116, 1.11013, 1.10971, 1.1104, 1.10767, 1.11143, 1.11078, 1.11133, 1.11013, 1.11103, 1.10505, 1.10439, 1.10237, 1.10132
1.30857, 1.19532, 1.19838, 1.19938, 1.12131, 1.1209, 1.11139, 1.11244, 1.10189, 1.13124, 1.12975, 1.08541, 1.08451, 1.0802, 1.07705, 1.07674, 1.06918, 1.06772, 1.06436, 1.06456, 1.06646, 1.06701, 1.06711, 1.06456, 1.06514, 1.06659, 1.06654, 1.06774, 1.06837, 1.06763, 1.06468, 1.06361, 1.06149, 1.06082, 1.06109, 1.06187, 1.06135, 1.05989, 1.05524, 1.05797, 1.05872, 1.0577, 1.05773, 1.05897, 1.05948, 1.0598, 1.05963, 1.05971, 1.06311, 1.06672, 1.06643, 1.06429, 1.06446, 1.05968, 1.05957, 1.05779, 1.05628, 1.05481, 1.05693, 1.05984, 1.06093, 1.06052, 1.14728, 1.06261, 1.06415, 1.06665, 1.06671, 1.08196, 1.07225, 1.07405, 1.07533, 1.07675, 1.07723, 1.0838, 1.08054, 1.08263, 1.12366, 1.20027, 1.11539, 1.08288, 1.08159, 1.08385, 1.08198, 1.08219, 1.08653, 1.08712, 1.08241, 1.08093, 1.0802, 1.08208, 1.07941, 1.07572, 1.07516, 1.07539, 1.07413, 1.11907, 1.13971, 1.13871, 1.23033, 1.21956, 1.28843, 1.31572, 1.33185, 1.30575, 1.29866, 1.29898, 1.29722, 1.33951, 1.33906, 1.3341, 1.33275, 1.33021, 1.36425, 1.37034, 1.427, 1.42745, 1.41058, 1.3844, 1.38438, 1.37765, 1.37555, 1.37762, 1.37764, 1.48139, 1.48085, 1.48172, 1.42699, 1.43068, 1.44089, 1.44796, 1.44961, 1.47377, 1.50174, 1.50786, 1.50651, 1.6165, 1.57232, 1.54043, 1.56477, 1.55294, 1.5512, 1.55041, 1.80327, 1.80365, 1.80426, 1.73629, 1.64717, 1.69587, 1.65209, 1.69155, 1.64765, 1.66133, 1.66688, 1.66587, 1.66204, 1.69289, 1.67532, 1.71075, 1.87663, 1.8761, 1.78703, 1.84762, 1.85941, 1.90293, 1.91829, 1.91717, 1.91665, 1.95825, 0.00435553, 2.01006, 1.88908, 1.89669, 1.92062, 1.77927, 1.77094, 1.75042, 1.75003, 1.73881, 1.69938, 1.75152, 1.66258, 1.66498, 1.65795, 1.65716, 1.71664, 1.64645, 1.63792, 1.66822, 1.6679, 1.75219, 1.66258, 1.67014, 1.63731, 1.64732, 1.64518, 1.64397, 1.69824, 1.59487, 1.58382, 1.56404, 1.51577, 1.5164, 1.52247, 1.47341, 1.45859, 1.45834, 1.46247, 1.43088, 1.44288, 1.38354, 1.37211, 1.38204, 1.39672, 1.39516, 1.31738, 1.31779, 1.28677, 1.27558, 1.23658, 1.26124, 1.19783, 1.18574, 1.19501, 1.21086, 1.18366, 1.17388, 1.15997, 1.13669, 1.13746, 1.11182, 1.08881, 1.12241, 1.08203, 1.08142, 1.12668, 1.13194, 1.24504, 1.19755, 1.19846, 1.12878, 1.12563, 1.12199, 1.12159, 1.11978, 1.11964, 1.11828, 1.20007, 1.13327, 1.12109, 1.11903, 1.11852, 1.11451, 1.11574, 1.11687, 1.11699, 1.13071, 1.11187, 1.1114, 1.1114, 1.1098, 1.10893, 1.11003, 1.11145, 1.11157, 1.11076, 1.11156, 1.11161, 1.10338, 1.10466, 1.10513
1.20511, 1.25386, 1.13471, 1.13488, 1.12532, 1.1237, 1.19072, 1.14819, 1.10452, 1.09607, 1.0847, 1.08529, 1.08254, 1.08065, 1.09877, 1.13423, 1.06687, 1.06656, 1.06668, 1.06357, 1.06397, 1.06723, 1.06848, 1.06678, 1.06523, 1.06548, 1.06821, 1.06886, 1.06866, 1.06795, 1.06371, 1.06352, 1.06322, 1.06357, 1.06264, 1.0631, 1.06394, 1.06611, 1.06039, 1.06387, 1.06329, 1.06038, 1.05963, 1.05989, 1.06116, 1.06275, 1.0619, 1.06223, 1.06297, 1.06388, 1.06673, 1.06672, 1.06683, 1.05951, 1.05855, 1.05529, 1.05273, 1.05494, 1.05544, 1.05997, 1.10232, 1.08429, 1.0816, 1.06449, 1.06681, 1.35217, 1.34833, 1.19845, 1.07626, 1.07612, 1.07739, 1.07898, 1.08299, 1.08256, 1.08277, 1.08481, 1.08705, 1.08892, 1.09037, 1.08843, 1.0888, 1.08296, 1.08517, 1.08732, 1.08829, 1.08355, 1.08252, 1.08188, 1.08172, 1.08436, 1.0909, 1.09507, 1.07706, 1.07689, 1.07689, 1.12928, 1.14706, 1.17034, 1.22711, 1.22774, 1.29217, 1.31598, 1.31744, 1.3172, 1.32218, 1.34402, 1.3044, 1.36149, 1.34047, 1.34049, 1.3339, 1.33601, 1.34075, 1.3571, 1.38779, 1.38309, 1.43715, 1.3677, 1.3902, 1.37842, 1.37414, 1.37768, 1.40071, 1.39769, 1.42208, 1.41077, 1.41544, 1.42223, 1.40551, 1.43801, 1.45066, 1.55081, 1.53331, 1.51433, 1.51228, 1.60014, 1.6468, 1.56809, 1.60072, 1.57427, 1.55202, 1.61497, 1.59372, 1.80339, 1.66941, 1.65793, 1.64905, 1.64426, 1.65227, 1.67627, 1.6551, 1.6543, 1.66779, 1.6669, 1.65771, 1.66137, 1.67901, 1.69592, 1.87883, 1.8905, 1.8479, 1.84803, 1.90258, 1.97391, 1.91758, 1.91662, 1.91603, 2.06931, 1.98359, 1.98357, 1.98267, 2.0144, 2.00667, 1.9344, 1.78613, 1.75469, 1.80317, 1.80593, 1.74398, 1.74866, 1.69373, 1.65529, 1.66626, 1.67502, 1.66926, 1.67825, 1.67764, 1.66729, 1.67201, 1.66907, 1.68235, 1.6362, 1.63444, 1.64881, 1.64934, 1.71084, 1.634, 1.65773, 1.5787, 1.55338, 1.51319, 1.4895, 1.47794, 1.47997, 1.46303, 1.44693, 1.41324, 1.39409, 1.379, 1.36422, 1.36742, 1.35213, 1.35104, 1.33908, 1.33981, 1.32382, 1.28415, 1.28376, 1.27458, 1.22041, 1.22013, 1.17765, 1.19837, 1.19879, 1.18771, 1.17546, 1.12883, 1.13715, 1.18795, 1.12057, 1.09201, 1.086, 1.086, 1.07789, 1.08723, 1.08773, 1.12315, 1.17489, 1.13112, 1.15285, 1.11988, 1.1193, 1.12231, 1.12196, 1.11916, 1.11932, 1.11936, 1.1234, 1.12259, 1.11982, 1.11918, 1.11599, 1.11534, 1.11685, 1.11729, 1.11677, 1.12908, 1.11194, 1.10973, 1.10961, 1.11207, 1.1117, 1.11199, 1.11208, 1.11125, 1.11276, 1.11164, 1.10882, 1.10676, 1.1056
1.26406, 1.26451, 1.1392, 1.13923, 1.19646, 1.12391, 1.12493, 1.11911, 1.10541, 1.13359, 1.08669, 1.08544, 1.08129, 1.07848, 1.11268, 1.13488, 1.23681, 1.06683, 1.06581, 1.06507, 1.0667, 1.06661, 1.06775, 1.06732, 1.06615, 1.0662, 1.06563, 1.06884, 1.06897, 1.06382, 1.06297, 1.06319, 1.06347, 1.06326, 1.06437, 1.06472, 1.06637, 1.06656, 1.06549, 1.06506, 1.06469, 1.06378, 1.06307, 1.06299, 1.06311, 1.06316, 1.06384, 1.06521, 1.06545, 1.06709, 1.06741, 1.18137, 1.06063, 1.0598, 1.05949, 1.05965, 1.0551, 1.05616, 1.05612, 1.05536, 1.06008, 1.06332, 1.08354, 1.08171, 1.07037, 1.07161, 1.08102, 1.07689, 1.07581, 1.0772, 1.07946, 1.08013, 1.0819, 1.08315, 1.08507, 1.08573, 1.0872, 1.08867, 1.09157, 1.08873, 1.08892, 1.08908, 1.08927, 1.08897, 1.08764, 1.08777, 1.08549, 1.08373, 1.08288, 1.08562, 1.16066, 1.10373, 1.07197, 1.07248, 1.10535, 1.16171, 1.16129, 1.15986, 1.20704, 1.22581, 1.29653, 1.29774, 1.3122, 1.31355, 1.32203, 1.32897, 1.30868, 1.32605, 1.32619, 1.32595, 1.3347, 1.33419, 1.34067, 1.34031, 1.36308, 1.36039, 1.46775, 1.36612, 1.38137, 1.38049, 1.37719, 1.39535, 1.39808, 1.39238, 1.41596, 1.4192, 1.4013, 1.39983, 1.44079, 1.4568, 1.51686, 1.54737, 1.51968, 1.51962, 1.51288, 1.51291, 1.60972, 1.57436, 1.5673, 1.62367, 1.59416, 1.59136, 1.59114, 1.74304, 1.74345, 1.65446, 1.67873, 1.64522, 1.66231, 1.68158, 1.68075, 1.66168, 1.66448, 1.66105, 1.6638, 1.75767, 1.75794, 1.68516, 1.86877, 1.77435, 1.77285, 1.93537, 1.92924, 1.97327, 1.97522, 1.92081, 1.91426, 1.97663, 1.98433, 1.98364, 1.9831, 1.98177, 2.01841, 1.93474, 0.00436544, 1.77285, 1.76229, 1.74734, 1.76156, 1.74218, 1.713, 1.69694, 1.68803, 1.69703, 1.66814, 1.72378, 1.68272, 1.68238, 1.67494, 1.67118, 1.67919, 1.68155, 1.68383, 1.6518, 1.70872, 1.71058, 1.59581, 1.55892, 1.58051, 1.56446, 1.50881, 1.47342, 1.46609, 1.47815, 1.48647, 1.49779, 1.42263, 1.40713, 1.36104, 1.36261, 1.36734, 1.36153, 1.34509, 1.34294, 1.3325, 1.35817, 1.31263, 1.26674, 1.24637, 1.26717, 1.28147, 1.17665, 1.17647, 1.17764, 1.16062, 1.17101, 1.1315, 1.14226, 1.12028, 1.12276, 1.09779, 1.14634, 1.08111, 1.07433, 1.1556, 1.16643, 1.16822, 1.16747, 1.16747, 1.12859, 1.12689, 1.12433, 1.12535, 1.12293, 1.1228, 1.12022, 1.12046, 1.12184, 1.12213, 1.11891, 1.11932, 1.11746, 1.11537, 1.11607, 1.11712, 1.11673, 1.11273, 1.11189, 1.11222, 1.11209, 1.11107, 1.11318, 1.11482, 1.11341, 1.11284, 1.11318, 1.11482, 1.10941, 1.10921, 1.10871
1.24724, 1.20468, 1.26285, 1.24393, 1.21045, 1.12626, 1.1267, 1.11004, 1.1089, 1.09138, 1.08392, 1.08387, 1.08024, 1.07815, 1.10137, 1.05854, 1.05921, 1.06623, 1.06485, 1.06541, 1.06812, 1.06726, 1.07774, 1.20826, 1.06563, 1.06498, 1.06418, 1.06523, 1.06756, 1.06393, 1.06424, 1.06298, 1.06311, 1.06392, 1.06545, 1.06653, 1.06876, 1.06927, 1.07127, 1.07376, 1.38621, 1.06755, 1.06652, 1.06469, 1.06456, 1.06411, 1.06443, 1.06471, 1.06619, 1.06691, 1.06314, 1.06289, 1.06108, 1.0605, 1.06012, 1.06006, 1.05649, 1.05672, 1.05533, 1.06014, 1.06234, 1.06314, 1.0652, 1.06648, 1.06659, 1.07343, 1.0768, 1.07682, 1.07735, 1.08, 1.08114, 1.08147, 1.08242, 1.08402, 1.08709, 1.08781, 1.08868, 1.0906, 1.09225, 1.09212, 1.08878, 1.08803, 1.08783, 1.08752, 1.08761, 1.09001, 1.08612, 1.08515, 1.08581, 1.08811, 1.08223, 1.07474, 1.07644, 1.07847, 1.13737, 1.10926, 1.12243, 1.20245, 1.19502, 1.3019, 1.2844, 1.30978, 1.3371, 1.31335, 1.31017, 1.30196, 1.30154, 1.34839, 1.35077, 1.34381, 1.33403, 1.33331, 1.33598, 1.33931, 1.36633, 1.35085, 1.34978, 1.374, 1.3817, 1.38139, 1.39992, 1.46755, 1.40607, 1.40521, 1.42699, 1.42731, 1.43845, 1.44832, 1.53476, 1.56343, 1.50673, 1.53708, 1.53246, 1.56601, 1.5092, 1.55948, 1.58122, 1.57425, 1.61922, 1.58277, 1.63061, 1.58556, 1.62974, 1.64883, 1.65808, 1.65595, 1.65459, 1.64705, 1.66758, 1.7759, 1.7309, 1.71043, 1.70429, 1.72432, 1.70231, 1.68673, 1.70842, 1.69268, 1.75972, 1.77599, 1.77463, 1.94568, 1.9418, 1.9414, 1.95627, 2.03238, 2.0216, 1.99786, 1.98467, 1.98443, 1.98391, 1.98255, 2.00652, 0.00449822, 1.80237, 1.79593, 1.83376, 1.7858, 1.78468, 1.73764, 1.73721, 1.69989, 1.68248, 1.6815, 1.68368, 1.68244, 1.68571, 1.68223, 1.66498, 1.66587, 1.68411, 1.69245, 1.6544, 1.85426, 1.73748, 1.70962, 1.58999, 1.56398, 1.53347, 1.4947, 1.49201, 1.47429, 1.46559, 1.45872, 1.46484, 1.45086, 1.393, 1.36541, 1.36223, 1.35859, 1.35915, 1.36165, 1.35053, 1.35496, 1.35554, 1.35979, 1.34091, 1.30839, 1.27123, 1.24636, 1.20873, 1.20878, 1.17379, 1.19556, 1.16342, 1.1686, 1.15584, 1.15518, 1.14394, 1.10975, 1.11002, 1.0998, 1.15506, 1.07416, 1.07491, 1.16597, 1.14983, 1.15063, 1.13568, 1.12722, 1.12806, 1.12441, 1.1252, 1.12533, 1.12184, 1.12181, 1.12259, 1.1222, 1.12183, 1.1192, 1.11892, 1.11879, 1.11428, 1.11554, 1.11682, 1.11688, 1.10996, 1.11188, 1.11243, 1.11522, 1.11345, 1.11419, 1.11567, 1.11535, 1.11429, 1.11466, 1.11469, 1.11494, 1.1117, 1.11204
1.29633, 1.25048, 1.23347, 1.16681, 1.16038, 1.12593, 1.12614, 1.11159, 1.11132, 1.09501, 1.09432, 1.08086, 1.08087, 1.0747, 1.07454, 1.10272, 1.06037, 1.06622, 1.06591, 1.0673, 1.06764, 1.0665, 1.25692, 1.32953, 1.09609, 1.06217, 1.06336, 1.21759, 1.06714, 1.06696, 1.06587, 1.06457, 1.06372, 1.06482, 1.06674, 1.06983, 1.07006, 1.07079, 1.07094, 1.08838, 1.28077, 1.06989, 1.06989, 1.06983, 1.06456, 1.06074, 1.06689, 1.06857, 1.06905, 1.06757, 1.06536, 1.06248, 1.06219, 1.0628, 1.06127, 1.06138, 1.06319, 1.06143, 1.06303, 1.06295, 1.06303, 1.06356, 1.06526, 1.06798, 1.06836, 1.07597, 1.077, 1.07693, 1.07998, 1.08363, 1.08326, 1.08216, 1.08294, 1.08663, 1.08787, 1.09048, 1.09063, 1.09243, 1.09307, 1.11972, 1.10278, 1.08858, 1.08815, 1.08888, 1.08891, 1.19886, 1.09048, 1.08954, 1.08949, 1.09051, 1.12758, 1.08756, 1.07796, 1.08267, 1.11196, 1.11954, 1.14792, 1.17979, 1.25401, 1.29525, 1.28441, 1.39902, 1.31513, 1.31485, 1.35994, 1.35038, 1.32762, 1.30555, 1.32406, 1.32946, 1.32836, 1.3339, 1.33533, 1.35256, 1.35662, 1.35722, 1.39883, 1.47095, 1.40614, 1.40873, 1.40488, 1.40312, 1.4029, 1.41012, 1.41078, 1.42717, 1.48264, 1.5161, 1.52361, 1.52329, 1.56122, 1.56649, 1.65743, 1.59439, 1.54387, 1.54341, 1.62107, 1.62054, 1.58576, 1.58378, 1.58438, 1.57225, 1.68642, 1.64941, 1.64913, 1.64958, 1.64854, 1.7793, 1.73712, 1.70265, 1.78539, 1.70237, 1.69724, 1.696, 1.6991, 1.69651, 1.69563, 1.72366, 1.71174, 1.76971, 1.76868, 1.96183, 1.94354, 1.94225, 1.94061, 2.00733, 2.06686, 2.06693, 1.97176, 1.97121, 1.98328, 2.03225, 2.01408, 1.98325, 1.85958, 1.81008, 1.76548, 1.76459, 1.76569, 1.72741, 1.73848, 1.75249, 1.68452, 1.68188, 1.68373, 1.68303, 1.71359, 1.67203, 1.66676, 1.6654, 1.67479, 1.66967, 1.66628, 1.63369, 1.76861, 1.62071, 1.63346, 1.57822, 1.57796, 1.59165, 1.49296, 1.4906, 1.49594, 1.45723, 1.44551, 1.4319, 1.43655, 1.38093, 1.35996, 1.35896, 1.36521, 1.35871, 1.35653, 1.35752, 1.35067, 1.34307, 1.34165, 1.33299, 1.27328, 1.24477, 1.23355, 1.19275, 1.19167, 1.19023, 1.18965, 1.16813, 1.16769, 1.17726, 1.15867, 1.17148, 1.14986, 1.15605, 1.15997, 1.10176, 1.0854, 1.13855, 1.1676, 1.1747, 1.15627, 1.12842, 1.12794, 1.1251, 1.12505, 1.12579, 1.13322, 1.12394, 1.12129, 1.12166, 1.12263, 1.11893, 1.11839, 1.11743, 1.11539, 1.11504, 1.11585, 1.11655, 1.1157, 1.11045, 1.11176, 1.11603, 1.11496, 1.1141, 1.11537, 1.11674, 1.11513, 1.11524, 1.11553, 1.1148, 1.11544, 1.11439
1.23263, 1.26374, 1.27835, 1.17229, 1.13017, 1.12735, 1.12228, 1.1154, 1.16947, 1.10113, 1.08396, 1.08235, 1.07794, 1.07522, 1.06997, 1.07035, 1.06947, 1.06617, 1.0682, 1.06849, 1.06963, 1.06836, 1.31408, 1.05768, 1.0725, 1.06396, 1.06453, 1.364, 1.0697, 1.06951, 1.05978, 1.06437, 1.06583, 1.06666, 1.06969, 1.07125, 1.06988, 1.07068, 1.07014, 1.07085, 1.07732, 1.07549, 1.07068, 1.06963, 1.07113, 1.06845, 1.06818, 1.0683, 1.06801, 1.06362, 1.06321, 1.063, 1.0632, 1.06414, 1.06605, 1.06555, 1.06263, 1.06361, 1.063, 1.06363, 1.06513, 1.06648, 1.06662, 1.06851, 1.07146, 1.07333, 1.07552, 1.07867, 1.08098, 1.08383, 1.08689, 1.08711, 1.0883, 1.08747, 1.08905, 1.09278, 1.09245, 1.09402, 1.09449, 1.09501, 1.09558, 1.10577, 1.42321, 1.26254, 1.2596, 1.0916, 1.09172, 1.09145, 1.0906, 1.09069, 1.09163, 1.13309, 1.1393, 1.13331, 1.1562, 1.20855, 1.15057, 1.23949, 1.22412, 1.30897, 1.30891, 1.40555, 1.40524, 1.3149, 1.31902, 1.33745, 1.33998, 1.30546, 1.32437, 1.32409, 1.3262, 1.32587, 1.3678, 1.35527, 1.3548, 1.37334, 1.3778, 1.39496, 1.39427, 1.41757, 1.43892, 1.40699, 1.41659, 1.41319, 1.41435, 1.45788, 1.46435, 1.46865, 1.4502, 1.48766, 1.5648, 1.50333, 1.50119, 1.65833, 1.54479, 1.56066, 1.54779, 1.51388, 1.53951, 1.59212, 1.58947, 1.64216, 1.66752, 1.64733, 1.64967, 1.64981, 1.68975, 1.7519, 1.7159, 1.72419, 1.70385, 1.70313, 1.8353, 1.69954, 1.69245, 1.69895, 1.72169, 1.73296, 1.75611, 1.76901, 1.7687, 2.00067, 1.94378, 1.94322, 1.94284, 1.93266, 1.96798, 2.02169, 1.97189, 1.97165, 1.97055, 2.0293, 1.95903, 1.91444, 1.80112, 1.76208, 1.76262, 1.76627, 1.82715, 1.86261, 1.75478, 1.86061, 1.68124, 1.67954, 1.67826, 1.68319, 1.76243, 1.71069, 1.66806, 1.66946, 1.65369, 1.64, 1.65475, 1.65397, 1.61677, 1.66526, 1.62739, 1.62732, 1.6211, 1.49864, 1.48579, 1.50928, 1.52288, 1.53461, 1.44553, 1.44783, 1.40943, 1.42189, 1.35648, 1.36877, 1.3802, 1.37943, 1.35744, 1.38717, 1.39258, 1.33617, 1.32319, 1.32283, 1.30523, 1.26761, 1.23712, 1.22956, 1.20279, 1.19485, 1.19149, 1.19036, 1.17394, 1.14523, 1.16031, 1.14557, 1.12602, 1.14956, 1.15351, 1.1422, 1.16039, 1.18976, 1.16912, 1.17856, 1.13679, 1.24527, 1.15364, 1.30948, 1.30687, 1.1368, 1.21371, 1.20617, 1.11849, 1.11865, 1.11967, 1.11954, 1.11725, 1.11753, 1.11745, 1.11418, 1.11404, 1.11518, 1.1162, 1.11549, 1.11374, 1.11382, 1.11293, 1.11408, 1.11436, 1.11597, 1.11627, 1.11539, 1.11538, 1.11568, 1.11627, 1.11636
1.32346, 1.22271, 1.18215, 1.1813, 1.1319, 1.13131, 1.12315, 1.20694, 1.10739, 1.12864, 1.08743, 1.08743, 1.08043, 1.07541, 1.07052, 1.06924, 1.06763, 1.06674, 1.067, 1.06768, 1.06977, 1.07155, 1.07118, 1.06827, 1.0665, 1.06475, 1.0658, 1.06592, 1.06507, 1.06535, 1.06628, 1.06616, 1.06534, 1.06535, 1.07101, 1.071, 1.07001, 1.07059, 1.07165, 1.07343, 1.07475, 1.07514, 1.07761, 1.0712, 1.07098, 1.06979, 1.06885, 1.06557, 1.06364, 1.06334, 1.06318, 1.06337, 1.06461, 1.06579, 1.06617, 1.06644, 1.067, 1.06407, 1.06189, 1.0632, 1.06721, 1.0675, 1.06852, 1.06981, 1.0719, 1.07273, 1.07416, 1.07698, 1.08185, 1.15102, 1.09167, 1.08869, 1.0899, 1.08877, 1.09355, 1.09518, 1.09599, 1.095, 1.09548, 1.09607, 1.0954, 1.11872, 1.11974, 1.16759, 1.16298, 1.15717, 1.14667, 1.23179, 1.10195, 1.1026, 1.0941, 1.09412, 1.10466, 1.12701, 1.1231, 1.14615, 1.17047, 1.18683, 1.26357, 1.25813, 1.31874, 1.32588, 1.40935, 1.34296, 1.46575, 1.33283, 1.34022, 1.32728, 1.33129, 1.33397, 1.33575, 1.32841, 1.32776, 1.35552, 1.37219, 1.39143, 1.37396, 1.40554, 1.43782, 1.42006, 1.4084, 1.40871, 1.431, 1.42479, 1.4994, 1.47788, 1.47174, 1.4703, 1.48882, 1.55889, 1.55793, 1.49187, 1.50122, 1.50204, 1.5016, 1.5706, 1.51284, 1.5141, 1.54486, 1.55543, 1.57151, 1.6282, 1.64947, 1.65623, 1.64527, 1.66128, 1.71442, 1.71405, 1.69646, 1.69064, 1.6952, 1.69845, 1.69733, 1.69616, 1.69038, 1.68964, 1.70965, 1.71032, 1.7105, 1.7799, 1.7731, 1.942, 1.94395, 1.94278, 1.93922, 1.93848, 1.93813, 0.00426138, 2.02879, 1.98364, 2.05076, 2.03415, 1.9589, 2.01358, 1.80466, 1.7628, 1.76259, 1.76182, 1.76134, 1.86362, 1.8625, 1.76116, 1.76715, 1.6786, 1.67139, 1.6733, 1.6727, 1.68305, 1.6817, 1.67811, 1.67531, 1.62273, 1.65488, 1.65437, 1.61644, 1.56969, 1.59593, 1.5482, 1.55016, 1.63727, 1.50178, 1.46415, 1.46232, 1.49496, 1.49451, 1.41321, 1.41104, 1.40521, 1.35547, 1.35367, 1.34681, 1.35023, 1.43079, 1.34994, 1.34806, 1.4177, 1.41562, 1.31587, 1.28425, 1.23361, 1.23439, 1.32092, 1.27879, 1.17888, 1.18669, 1.18809, 1.17202, 1.18, 1.16324, 1.17438, 1.12563, 1.15338, 1.11836, 1.1047, 1.09847, 1.1401, 1.13481, 1.14354, 1.16939, 1.31349, 1.3123, 1.14292, 1.14236, 1.1407, 1.12668, 1.11885, 1.11765, 1.11974, 1.12056, 1.11914, 1.1191, 1.11576, 1.11477, 1.11472, 1.11849, 1.11852, 1.11849, 1.12918, 1.11537, 1.11575, 1.10994, 1.11496, 1.11945, 1.11461, 1.11764, 1.11834, 1.11858, 1.11694, 1.11793, 1.11855
1.22295, 1.22572, 1.22586, 1.2567, 1.26419, 1.31007, 1.26774, 1.11204, 1.10859, 1.09979, 1.12579, 1.08391, 1.0791, 1.0779, 1.06985, 1.0698, 1.06804, 1.06909, 1.06572, 1.06623, 1.06691, 1.07087, 1.06895, 1.06661, 1.06711, 1.07166, 1.06684, 1.0657, 1.06516, 1.06547, 1.06532, 1.06572, 1.06728, 1.06894, 1.07191, 1.07036, 1.07126, 1.20289, 1.20249, 1.07533, 1.07607, 1.07671, 1.07678, 1.07171, 1.07177, 1.07018, 1.06675, 1.06603, 1.06424, 1.06399, 1.06406, 1.06473, 1.06596, 1.06634, 1.06639, 1.06704, 1.06788, 1.23069, 1.06232, 1.06861, 1.06831, 1.06855, 1.0686, 1.06897, 1.07426, 1.07554, 1.07752, 1.0784, 1.08045, 1.326, 1.09503, 1.09069, 1.09136, 1.09334, 1.09495, 1.09638, 1.0975, 1.09838, 1.09775, 1.09723, 1.09894, 1.10142, 1.18037, 1.16825, 1.24621, 1.15321, 1.24161, 1.09853, 1.39042, 1.15167, 1.14817, 1.10602, 1.10641, 1.10342, 1.10012, 1.14684, 1.14376, 1.23354, 1.23298, 1.25607, 1.25651, 1.32959, 1.31129, 1.30997, 1.35091, 1.3605, 1.33726, 1.31909, 1.34918, 1.33289, 1.33327, 1.33615, 1.34119, 1.33681, 1.3538, 1.37002, 1.37458, 1.39197, 1.45111, 1.41431, 1.40775, 1.40822, 1.50921, 1.50983, 1.46374, 1.49989, 1.49503, 1.54219, 1.55444, 1.71511, 1.7143, 1.49273, 1.49302, 1.50017, 1.49855, 1.56171, 1.5166, 1.5132, 1.54572, 1.61705, 1.59983, 1.63044, 1.64016, 1.65537, 1.67632, 1.67441, 1.71454, 1.67241, 1.67591, 1.68548, 1.6952, 1.6944, 1.69517, 1.69502, 1.69093, 1.68973, 1.69035, 1.73495, 1.75142, 1.77927, 1.82784, 1.84532, 1.87889, 1.9397, 1.93967, 1.93855, 1.93863, 0.00466291, 2.07513, 2.05318, 1.94917, 2.00471, 1.8825, 1.88075, 1.80353, 1.81101, 1.76363, 1.76188, 1.82756, 1.86508, 1.76882, 1.73473, 1.73247, 1.69705, 1.67182, 1.75052, 1.77515, 1.66766, 1.69048, 1.6971, 1.65581, 1.59923, 1.59305, 1.6213, 1.54454, 1.56973, 1.60429, 1.54803, 1.55113, 1.5109, 1.46672, 1.46545, 1.46532, 1.52771, 1.50574, 1.48132, 1.4239, 1.38144, 1.37514, 1.34423, 1.4346, 1.4286, 1.34963, 1.34488, 1.3412, 1.37428, 1.31181, 1.29974, 1.24629, 1.26164, 1.24712, 1.24645, 1.20027, 1.20265, 1.18599, 1.23281, 1.17799, 1.17781, 1.18223, 1.13237, 1.1152, 1.14819, 1.0982, 1.13011, 1.11836, 1.13358, 1.12099, 1.17972, 1.16311, 1.15283, 1.14606, 1.13834, 1.13145, 1.14016, 1.12872, 1.1401, 1.13921, 1.1222, 1.12308, 1.12228, 1.12308, 1.22993, 1.26515, 1.11842, 1.13616, 1.13751, 1.15711, 1.1572, 1.12921, 1.12422, 1.12237, 1.10608, 1.10602, 1.12322, 1.12206, 1.12232, 1.11808, 1.11753, 1.1187, 1.11966
1.32722, 1.19111, 1.22553, 1.18886, 1.19376, 1.25399, 1.12067, 1.23796, 1.11243, 1.13469, 1.12546, 1.08257, 1.07794, 1.0767, 1.07052, 1.0691, 1.06161, 1.06138, 1.06351, 1.06479, 1.06593, 1.06688, 1.06702, 1.0646, 1.07035, 1.07114, 1.06745, 1.06658, 1.06616, 1.06657, 1.06728, 1.06876, 1.06839, 1.06765, 1.07303, 1.0733, 1.07335, 1.07419, 1.07693, 1.07688, 1.07631, 1.07663, 1.07748, 1.07819, 1.07887, 1.07227, 1.08053, 1.06524, 1.06471, 1.06459, 1.06499, 1.06529, 1.06567, 1.25474, 1.07056, 1.06823, 1.06909, 1.06686, 1.06719, 1.22289, 1.06949, 1.06993, 1.07067, 1.07168, 1.07456, 1.07704, 1.07747, 1.0766, 1.07675, 1.24222, 1.0977, 1.09149, 1.09407, 1.09634, 1.09563, 1.09774, 1.09864, 1.10076, 1.10121, 1.24875, 1.10471, 1.10447, 1.10621, 1.26857, 1.14843, 1.10106, 1.10076, 1.10838, 1.10894, 1.12743, 1.1112, 1.07867, 1.1069, 1.13264, 1.09893, 1.14473, 1.19585, 1.19598, 1.25654, 1.25479, 1.25582, 1.29222, 1.34915, 1.32063, 1.36943, 1.32826, 1.32457, 1.32508, 1.34844, 1.34947, 1.39703, 1.39525, 1.366, 1.3869, 1.39019, 1.39207, 1.3749, 1.37399, 1.38821, 1.47763, 1.40571, 1.45351, 1.4377, 1.5101, 1.46495, 1.47281, 1.50898, 1.53352, 1.50991, 1.58791, 1.51824, 1.51753, 1.51054, 1.50223, 1.49777, 1.52045, 1.51975, 1.52218, 1.52696, 1.56082, 1.60037, 1.62401, 1.64531, 1.65121, 1.63831, 1.6762, 1.67327, 1.64876, 1.67747, 1.67619, 1.69623, 1.69666, 1.6946, 1.69611, 1.72305, 1.70311, 1.71877, 1.74091, 1.75308, 1.77733, 1.82788, 1.83714, 1.89564, 1.83648, 2.01909, 1.93287, 2.00073, 1.94528, 2.00319, 1.96659, 1.96929, 0.0047085, 1.85439, 1.83884, 1.79536, 1.79582, 1.76406, 1.75726, 1.7584, 1.8177, 1.82214, 1.78559, 1.73388, 1.73347, 1.69627, 1.66037, 1.65909, 1.67529, 1.66222, 1.66768, 1.64748, 1.64095, 1.59201, 1.56463, 1.54441, 1.52963, 1.52997, 1.55609, 1.54214, 1.47871, 1.46467, 1.48296, 1.48275, 1.46381, 1.48319, 1.4824, 1.45314, 1.40855, 1.3806, 1.3557, 1.35834, 1.36221, 1.3137, 1.31426, 1.32245, 1.35292, 1.28452, 1.2588, 1.25715, 1.27614, 1.24438, 1.20913, 1.20051, 1.18741, 1.19029, 1.18529, 1.17437, 1.20366, 1.2704, 1.21725, 1.16404, 1.14401, 1.10617, 1.10621, 1.10604, 1.18222, 1.13661, 1.17425, 1.16317, 1.13555, 1.13441, 1.29656, 1.13456, 1.13378, 1.14066, 1.14122, 1.14251, 1.13288, 1.12634, 1.12809, 1.20351, 1.20488, 1.25027, 1.39562, 1.13357, 1.13533, 1.1575, 1.15595, 1.12641, 1.11226, 1.113, 1.1252, 1.12541, 1.1215, 1.10871, 1.10925, 1.12209, 1.12203, 1.12041, 1.12207
1.35504, 1.25492, 1.24422, 1.18091, 1.25416, 1.12623, 1.119, 1.11246, 1.10994, 1.10209, 1.13248, 1.12758, 1.0819, 1.07366, 1.06519, 1.06516, 1.06781, 1.06572, 1.06496, 1.0663, 1.06519, 1.06594, 1.06849, 1.06705, 1.07087, 1.07136, 1.07141, 1.06774, 1.0675, 1.06844, 1.06636, 1.07155, 1.3049, 1.0735, 1.07426, 1.07484, 1.07458, 1.07879, 1.07666, 1.07681, 1.07675, 1.07716, 1.0795, 1.07893, 1.07837, 1.44974, 1.08701, 1.06782, 1.06532, 1.06558, 1.06622, 1.06704, 1.32971, 1.12485, 1.13575, 1.12091, 1.07378, 1.06631, 1.07272, 1.07239, 1.07255, 1.07201, 1.07328, 1.07329, 1.07207, 1.07664, 1.07686, 1.07649, 1.07708, 1.32994, 1.41913, 1.08967, 1.09185, 1.09594, 1.09645, 1.09516, 1.10084, 1.10121, 1.10318, 1.10253, 1.10575, 1.10378, 1.1037, 1.10437, 1.10535, 1.10416, 1.1019, 1.10187, 1.32713, 1.13593, 1.12952, 1.07662, 1.07753, 1.07881, 1.1228, 1.10941, 1.16285, 1.19851, 1.27803, 1.24937, 1.27468, 1.33025, 1.32985, 1.30256, 1.3309, 1.32831, 1.32942, 1.32729, 1.32631, 1.32659, 1.40698, 1.43631, 1.44759, 1.43104, 1.41572, 1.38161, 1.38329, 1.37412, 1.37406, 1.4756, 1.45308, 1.44003, 1.47056, 1.45994, 1.45529, 1.47264, 1.5718, 1.49185, 1.50866, 1.5275, 1.52596, 1.51313, 1.493, 1.49351, 1.54433, 1.52469, 1.52942, 1.56502, 1.53687, 1.57551, 1.60225, 1.62332, 1.64078, 1.63181, 1.63092, 1.64098, 1.65159, 1.64876, 1.6492, 1.68814, 1.69711, 1.69543, 1.69474, 1.75149, 1.77842, 1.78057, 1.71011, 1.74436, 1.76429, 1.7957, 1.81329, 1.81469, 1.82203, 1.87647, 1.87521, 1.93198, 2.01086, 2.05907, 2.07951, 2.02914, 1.95402, 1.93424, 1.8203, 1.82192, 1.76914, 1.75004, 1.74787, 1.74557, 1.73908, 1.7302, 1.724, 1.72302, 1.76214, 1.75524, 1.67815, 1.66064, 1.65917, 1.64571, 1.64419, 1.6515, 1.63468, 1.62661, 1.57081, 1.53691, 1.52823, 1.56284, 1.51448, 1.51327, 1.54968, 1.52557, 1.45511, 1.52031, 1.48474, 1.4847, 1.44841, 1.45369, 1.48481, 1.38342, 1.38316, 1.35353, 1.35363, 1.36073, 1.36046, 1.31509, 1.31868, 1.27306, 1.27153, 1.24629, 1.2475, 1.23831, 1.23336, 1.21881, 1.17378, 1.17373, 1.16914, 1.17728, 1.18033, 1.23616, 1.16767, 1.15021, 1.16074, 1.1066, 1.10834, 1.12263, 1.11752, 1.11652, 1.15358, 1.15949, 1.16658, 1.30273, 1.13539, 1.13512, 1.1336, 1.13273, 1.13252, 1.18719, 1.13191, 1.13069, 1.13068, 1.13606, 1.13776, 1.2054, 1.20102, 1.26864, 1.1347, 1.13367, 1.13207, 1.15529, 1.11834, 1.1131, 1.12449, 1.12507, 1.12106, 1.11877, 1.12086, 1.1217, 1.12582, 1.12617, 1.12648, 1.12919
1.35157, 1.18974, 1.28516, 1.286, 1.29467, 1.28755, 1.12084, 1.11214, 1.11074, 1.18114, 1.23094, 1.12705, 1.07066, 1.07084, 1.17405, 1.07002, 1.06942, 1.06747, 1.06728, 1.06535, 1.06346, 1.06607, 1.07009, 1.07022, 1.07408, 1.07484, 1.07611, 1.07429, 1.07098, 1.06581, 1.06584, 1.21339, 1.0768, 1.07688, 1.07594, 1.07617, 1.07686, 1.07825, 1.07802, 1.07769, 1.07861, 1.07894, 1.07937, 1.07706, 1.07716, 1.07392, 1.23654, 1.06761, 1.06582, 1.12384, 1.34963, 1.32391, 1.32962, 1.26908, 1.10136, 1.08141, 1.07732, 1.07493, 1.0751, 1.07502, 1.07678, 1.07604, 1.07445, 1.0748, 1.07567, 1.07666, 1.07722, 1.07703, 1.33197, 1.33053, 1.08817, 1.08797, 1.09069, 1.09447, 1.09594, 1.1013, 1.101, 1.102, 1.10373, 1.10283, 1.10652, 1.10684, 1.10468, 1.10306, 1.10338, 1.10327, 1.101, 1.10097, 1.09974, 1.10078, 1.0878, 1.08773, 1.0914, 1.09015, 1.14286, 1.11324, 1.17334, 1.17136, 1.22441, 1.26121, 1.28155, 1.32572, 1.28964, 1.298, 1.32014, 1.32995, 1.33617, 1.3279, 1.3267, 1.38487, 1.4155, 1.39585, 1.43507, 1.42923, 1.4268, 1.40972, 1.38047, 1.37985, 1.3854, 1.38699, 1.46267, 1.41916, 1.46961, 1.45549, 1.45513, 1.49234, 1.50005, 1.57256, 1.50702, 1.55191, 1.54518, 1.49065, 1.49107, 1.49705, 1.50304, 1.53884, 1.53537, 1.55326, 1.58278, 1.58229, 1.58511, 1.61708, 1.64752, 1.71064, 1.63305, 1.63197, 1.65818, 1.67888, 1.66145, 1.70948, 1.70037, 1.74557, 1.74126, 1.75147, 1.87276, 1.74171, 1.74087, 1.74123, 1.74085, 1.79476, 1.84596, 1.84548, 1.80745, 1.83107, 1.84442, 1.89077, 0.00447689, 1.93737, 1.93796, 1.99223, 1.93039, 1.95588, 1.91017, 1.81757, 1.77791, 1.74477, 1.74732, 1.74508, 1.7424, 1.72603, 1.72553, 1.73009, 1.77746, 1.73315, 1.70317, 1.68149, 1.6764, 1.64561, 1.64496, 1.64377, 1.65946, 1.60511, 1.62112, 1.55093, 1.63741, 1.51531, 1.51608, 1.5133, 1.50059, 1.52209, 1.52271, 1.47157, 1.5069, 1.52851, 1.51913, 1.46273, 1.40274, 1.41267, 1.3889, 1.35036, 1.34959, 1.3569, 1.36834, 1.3439, 1.3332, 1.28175, 1.2646, 1.23242, 1.26161, 1.23572, 1.22928, 1.19203, 1.20144, 1.18922, 1.18851, 1.17421, 1.18237, 1.17192, 1.14433, 1.13896, 1.13634, 1.19715, 1.16418, 1.16101, 1.12483, 1.12428, 1.14871, 1.22956, 1.2891, 1.2164, 1.13486, 1.13431, 1.1315, 1.13032, 1.1305, 1.14917, 1.14934, 1.13392, 1.13348, 1.14041, 1.14018, 1.13999, 1.23644, 1.13697, 1.19046, 1.13375, 1.12187, 1.12169, 1.12203, 1.20057, 1.12409, 1.12512, 1.1197, 1.11982, 1.12, 1.12162, 1.12306, 1.12832, 1.12904, 1.12669
1.18681, 1.18226, 1.18138, 1.18093, 1.26186, 1.25465, 1.12139, 1.11366, 1.11391, 1.29113, 1.12644, 1.12644, 1.07042, 1.07697, 1.07248, 1.0714, 1.07, 1.06933, 1.06795, 1.06795, 1.0654, 1.06902, 1.07154, 1.07454, 1.07387, 1.07318, 1.07549, 1.07508, 1.07362, 1.07052, 1.21242, 1.07697, 1.07681, 1.07709, 1.07232, 1.07288, 1.07687, 1.07828, 1.07913, 1.07968, 1.08049, 1.08062, 1.08032, 1.07802, 1.07331, 1.07334, 1.13649, 1.13132, 1.22561, 1.06976, 1.07, 1.07085, 1.32371, 1.32129, 1.07866, 1.08011, 1.08028, 1.08054, 1.08158, 1.07628, 1.07633, 1.07705, 1.07649, 1.07692, 1.07691, 1.07781, 1.08133, 1.10446, 1.32949, 1.32632, 1.08799, 1.08841, 1.08903, 1.09103, 1.09554, 1.10096, 1.10198, 1.10229, 1.10178, 1.10215, 1.10803, 1.10815, 1.10234, 1.10241, 1.10297, 1.10151, 1.09987, 1.09904, 1.09962, 1.1256, 1.12671, 1.08503, 1.0851, 1.09241, 1.15758, 1.14138, 1.14147, 1.22004, 1.23296, 1.27106, 1.27759, 1.28972, 1.28239, 1.28342, 1.31556, 1.31905, 1.33693, 1.3425, 1.33788, 1.34062, 1.36707, 1.42237, 1.44813, 1.43947, 1.40561, 1.40856, 1.41126, 1.42244, 1.38857, 1.38773, 1.42232, 1.44329, 1.47108, 1.46831, 1.47267, 1.46915, 1.48198, 1.49718, 1.55579, 1.55389, 1.49988, 1.49944, 1.48849, 1.48769, 1.56832, 1.51615, 1.54424, 1.54709, 1.54566, 1.57808, 1.58201, 1.59983, 1.72717, 1.65779, 1.63034, 1.63014, 1.64877, 1.68135, 1.67861, 1.67859, 1.76045, 1.75152, 1.75086, 1.75883, 1.75776, 1.74275, 1.74238, 1.74148, 1.7332, 1.86699, 1.84635, 1.84578, 1.82432, 1.84634, 1.83452, 1.92715, 1.89387, 0.00445035, 1.96381, 2.01031, 2.01044, 1.9177, 1.89145, 1.86584, 1.74507, 1.74426, 1.74426, 1.74445, 1.7267, 1.72658, 1.72658, 1.73457, 1.71499, 1.75938, 1.70127, 1.70138, 1.72115, 1.6621, 1.64568, 1.6463, 1.60318, 1.60278, 1.62308, 1.54865, 1.55262, 1.55734, 1.55097, 1.51569, 1.49253, 1.48861, 1.4604, 1.45951, 1.60101, 1.51926, 1.46995, 1.39538, 1.38891, 1.38409, 1.35817, 1.35807, 1.39194, 1.40173, 1.33581, 1.37113, 1.29131, 1.33073, 1.28695, 1.23447, 1.22395, 1.22527, 1.22787, 1.2223, 1.19748, 1.17262, 1.17082, 1.18755, 1.17161, 1.15653, 1.13797, 1.13994, 1.1304, 1.12954, 1.13286, 1.1302, 1.13032, 1.19192, 1.16402, 1.16426, 1.17038, 1.19485, 1.21339, 1.13399, 1.13309, 1.13231, 1.13107, 1.13194, 1.13238, 1.14562, 1.13569, 1.14338, 1.14565, 1.13375, 1.13196, 1.14109, 1.13618, 1.13411, 1.11955, 1.11988, 1.15351, 1.12262, 1.12565, 1.19438, 1.12384, 1.12234, 1.12242, 1.12185, 1.12358, 1.12742, 1.1297, 1.13008
1.37844, 1.1816, 1.29779, 1.27769, 1.26447, 1.28558, 1.12068, 1.1139, 1.11441, 1.10452, 1.10506, 1.1412, 1.13257, 1.08049, 1.07613, 1.07131, 1.07201, 1.0711, 1.07098, 1.07012, 1.07004, 1.07023, 1.07093, 1.07573, 1.07378, 1.07341, 1.07492, 1.07465, 1.07529, 1.07512, 1.0768, 1.07685, 1.07903, 1.07847, 1.07317, 1.07352, 1.07831, 1.07878, 1.07834, 1.08063, 1.08203, 1.08251, 1.08184, 1.08205, 1.07964, 1.14236, 1.13799, 1.13508, 1.12801, 1.1119, 1.33381, 1.3261, 1.07458, 1.07791, 1.11268, 1.08482, 1.08298, 1.08278, 1.23065, 1.07766, 1.09395, 1.09415, 1.09285, 1.18817, 1.18883, 1.08557, 1.08593, 1.10143, 1.21206, 1.08983, 1.08975, 1.08962, 1.09056, 1.09101, 1.09784, 1.10039, 1.10076, 1.10148, 1.10235, 1.10538, 1.10738, 1.10807, 1.10524, 1.10314, 1.10208, 1.10148, 1.10114, 1.09755, 1.09834, 1.16015, 1.1548, 1.1086, 1.12056, 1.12053, 1.13385, 1.13393, 1.20893, 1.20916, 1.27131, 1.29844, 1.29673, 1.29755, 1.2966, 1.38189, 1.32743, 1.32656, 1.33444, 1.32992, 1.3958, 1.35545, 1.40992, 1.36716, 1.44917, 1.40699, 1.40613, 1.44193, 1.38815, 1.39046, 1.39019, 1.38844, 1.42193, 1.43061, 1.42465, 1.474, 1.46463, 1.47883, 1.46688, 1.49761, 1.49714, 1.53368, 1.49686, 1.49938, 1.48841, 1.49994, 1.52706, 1.54479, 1.54403, 1.5511, 1.54692, 1.61603, 1.59498, 1.67145, 1.65465, 1.65749, 1.65433, 1.63018, 1.64174, 1.69262, 1.6949, 1.74208, 1.74876, 1.75059, 1.75131, 1.75056, 1.76245, 1.75865, 1.75969, 1.73507, 1.76182, 1.83558, 1.79372, 1.87973, 1.91008, 1.86905, 1.90273, 1.91004, 1.93419, 1.94945, 2.07664, 0.00448929, 2.04856, 1.92538, 1.896, 1.85915, 1.85839, 1.74467, 1.74391, 1.74479, 1.78912, 1.72646, 1.78431, 1.71724, 1.70598, 1.70287, 1.70098, 1.70107, 1.72143, 1.73331, 1.73738, 1.64901, 1.60369, 1.61957, 1.65921, 1.64997, 1.57376, 1.57219, 1.56061, 1.56127, 1.55861, 1.48719, 1.50124, 1.5171, 1.5147, 1.45413, 1.4577, 1.37516, 1.38867, 1.364, 1.37291, 1.37207, 1.3671, 1.34885, 1.33216, 1.30928, 1.2929, 1.33107, 1.32893, 1.2489, 1.20179, 1.22867, 1.23031, 1.18246, 1.19144, 1.19526, 1.17026, 1.1788, 1.19204, 1.13695, 1.14475, 1.12781, 1.12824, 1.14302, 1.14248, 1.14162, 1.16192, 1.16464, 1.16052, 1.1612, 1.16544, 1.2121, 1.21367, 1.13409, 1.134, 1.13363, 1.13091, 1.13233, 1.13334, 1.13484, 1.1359, 1.13534, 1.14268, 1.13398, 1.13551, 1.12668, 1.12716, 1.11758, 1.11845, 1.11976, 1.12995, 1.12329, 1.15449, 1.12515, 1.12535, 1.12423, 1.12194, 1.12355, 1.12512, 1.12767, 1.13145, 1.1324
1.39201, 1.27538, 1.31755, 1.3244, 1.34094, 1.26614, 1.26447, 1.11757, 1.11441, 1.10433, 1.09593, 1.09279, 1.0838, 1.08113, 1.08051, 1.17804, 1.07282, 1.07338, 1.07197, 1.07079, 1.06829, 1.07012, 1.07161, 1.07358, 1.07453, 1.07368, 1.07362, 1.07548, 1.07564, 1.07731, 1.07996, 1.07878, 1.07886, 1.07887, 1.07901, 1.24067, 1.08039, 1.08154, 1.08122, 1.08246, 1.08371, 1.08421, 1.08299, 1.14308, 1.1413, 1.07355, 1.07366, 1.41665, 1.4295, 1.31251, 1.0742, 1.07565, 1.07703, 1.13705, 1.11612, 1.0872, 1.08718, 1.08529, 1.08482, 1.08288, 1.08211, 1.08204, 1.08432, 1.08411, 1.08461, 1.08559, 1.08689, 1.0881, 1.08968, 1.09078, 1.09072, 1.08914, 1.0896, 1.29867, 1.09883, 1.09911, 1.09774, 1.27742, 1.10865, 1.1076, 1.10801, 1.10783, 1.10493, 1.10569, 1.10315, 1.10306, 1.09967, 1.09791, 1.09823, 1.16462, 1.13945, 1.15027, 1.09496, 1.10261, 1.1371, 1.18496, 1.20648, 1.20804, 1.25409, 1.28333, 1.2833, 1.35018, 1.35093, 1.32558, 1.33079, 1.31903, 1.34387, 1.32656, 1.37831, 1.35747, 1.48222, 1.37068, 1.37766, 1.3885, 1.38733, 1.39191, 1.39295, 1.39207, 1.39095, 1.42764, 1.46551, 1.43359, 1.43009, 1.42929, 1.48927, 1.49103, 1.4951, 1.49666, 1.48545, 1.5411, 1.52999, 1.4947, 1.50631, 1.49984, 1.52794, 1.56106, 1.53961, 1.54036, 1.60272, 1.58875, 1.6089, 1.64088, 1.65651, 1.65541, 1.65155, 1.6732, 1.67556, 1.83443, 1.74936, 1.78854, 1.74442, 1.74244, 1.74035, 1.78284, 1.74903, 1.74974, 1.75076, 1.71343, 1.76377, 1.83385, 1.80614, 1.86496, 1.91011, 1.89332, 1.89926, 1.90285, 1.9316, 1.91004, 1.91723, 2.19003, 2.04848, 1.87743, 1.88373, 1.85882, 1.85849, 1.87253, 1.84635, 1.8443, 1.80442, 1.78708, 1.78601, 1.70677, 1.7067, 1.70426, 1.7012, 1.70722, 1.70578, 1.74178, 1.76865, 1.76682, 1.60884, 1.60915, 1.61705, 1.61384, 1.69636, 1.57146, 1.60564, 1.52783, 1.50304, 1.52806, 1.51214, 1.50814, 1.50685, 1.45414, 1.38166, 1.3737, 1.37404, 1.39918, 1.36086, 1.34925, 1.35026, 1.34285, 1.36736, 1.31956, 1.3182, 1.27909, 1.24947, 1.26194, 1.26316, 1.22665, 1.1837, 1.17398, 1.17529, 1.17936, 1.17553, 1.18265, 1.17582, 1.14079, 1.12963, 1.1285, 1.12709, 1.13554, 1.13586, 1.15684, 1.1746, 1.174, 1.17455, 1.16226, 1.16452, 1.16676, 1.16695, 1.24686, 1.13469, 1.13468, 1.13492, 1.1326, 1.13411, 1.1357, 1.13672, 1.13761, 1.13584, 1.15662, 1.15394, 1.13016, 1.12916, 1.12881, 1.12967, 1.12929, 1.12716, 1.12656, 1.12693, 1.12861, 1.12811, 1.12659, 1.12607, 1.12577, 1.12595, 1.12734, 1.1328, 1.13405
1.18587, 1.17489, 1.31284, 1.16808, 1.32336, 1.26814, 1.12007, 1.11834, 1.10972, 1.10627, 1.09513, 1.09326, 1.08591, 1.08239, 1.08098, 1.07757, 1.07649, 1.07554, 1.0731, 1.07129, 1.07172, 1.07397, 1.07371, 1.07472, 1.07757, 1.24349, 1.10894, 1.23862, 1.07741, 1.07852, 1.07917, 1.07955, 1.07892, 1.07902, 1.0802, 1.08299, 1.08198, 1.08073, 1.082, 1.08078, 1.08343, 1.08425, 1.0845, 1.07953, 1.07689, 1.08051, 1.08002, 1.36544, 1.22468, 1.40871, 1.07925, 1.07709, 1.08076, 1.17663, 1.21613, 1.09003, 1.08974, 1.08728, 1.0843, 1.08173, 1.08148, 1.08232, 1.08507, 1.0853, 1.08595, 1.08593, 1.08726, 1.08883, 1.09133, 1.09105, 1.09232, 1.303, 1.302, 1.09621, 1.09994, 1.09918, 1.09756, 1.1076, 1.10606, 1.10683, 1.10675, 1.10675, 1.10557, 1.1044, 1.1012, 1.10206, 1.099, 1.09437, 1.10127, 1.10145, 1.10301, 1.10215, 1.11603, 1.09433, 1.13248, 1.19725, 1.19453, 1.19536, 1.24459, 1.2882, 1.30129, 1.3118, 1.32594, 1.32592, 1.32386, 1.32333, 1.32852, 1.32893, 1.34204, 1.38138, 1.37352, 1.3729, 1.37206, 1.39419, 1.3911, 1.38849, 1.38936, 1.38911, 1.3893, 1.43002, 1.41858, 1.50271, 1.42955, 1.42906, 1.41694, 1.4964, 1.49547, 1.43575, 1.44561, 1.45738, 1.50225, 1.49226, 1.52525, 1.53743, 1.54302, 1.54703, 1.58121, 1.60466, 1.60444, 1.63332, 1.63218, 1.70711, 1.72151, 1.65756, 1.6517, 1.74825, 1.72456, 1.769, 1.73402, 1.74826, 1.74763, 1.74252, 1.74061, 1.78242, 1.78699, 1.71257, 1.75062, 1.76566, 1.76551, 1.74813, 1.82174, 1.82159, 1.87586, 1.89762, 1.91778, 1.91011, 1.91027, 1.90368, 1.90245, 0.00475591, 1.92346, 1.85087, 1.83749, 1.85103, 1.84159, 1.87657, 1.78722, 1.77568, 1.77915, 1.71091, 1.71006, 1.70927, 1.73479, 1.73877, 1.71696, 1.72476, 1.72359, 1.72307, 1.76972, 1.7683, 1.61494, 1.61384, 1.62032, 1.60902, 1.57112, 1.56987, 1.59557, 1.55763, 1.52173, 1.51435, 1.5289, 1.52739, 1.52858, 1.45413, 1.40186, 1.37105, 1.37049, 1.42024, 1.39856, 1.4044, 1.35398, 1.33045, 1.368, 1.32222, 1.28714, 1.28487, 1.2678, 1.24789, 1.22381, 1.19926, 1.20873, 1.1829, 1.18828, 1.17882, 1.19266, 1.17683, 1.15161, 1.13341, 1.12381, 1.12423, 1.12552, 1.11999, 1.18994, 1.19245, 1.15931, 1.17612, 1.17607, 1.15919, 1.16053, 1.1652, 1.20498, 1.21291, 1.13547, 1.13331, 1.13383, 1.1343, 1.13457, 1.13635, 1.13786, 1.1389, 1.13692, 1.1567, 1.13969, 1.13226, 1.13094, 1.12788, 1.12887, 1.12701, 1.1267, 1.12863, 1.12829, 1.1294, 1.12942, 1.12916, 1.12887, 1.12843, 1.12934, 1.12959, 1.1336, 1.13531
1.17815, 1.30025, 1.30065, 1.49539, 1.31353, 1.26535, 1.26378, 1.11513, 1.1124, 1.10257, 1.09865, 1.09511, 1.08618, 1.08376, 1.08098, 1.07902, 1.08058, 1.07579, 1.07356, 1.07344, 1.07333, 1.07338, 1.07507, 1.07572, 1.07795, 1.08232, 1.2784, 1.07746, 1.24342, 1.0812, 1.08106, 1.08134, 1.08182, 1.07924, 1.0821, 1.08409, 1.08275, 1.08184, 1.08121, 1.08158, 1.0833, 1.0826, 1.08391, 1.07675, 1.07617, 1.07735, 1.07802, 1.07827, 1.10123, 1.08446, 1.08503, 1.14439, 1.08523, 1.08565, 1.09091, 1.09066, 1.09049, 1.0891, 1.0866, 1.08392, 1.08285, 1.08478, 1.08423, 1.08439, 1.10302, 1.08783, 1.08786, 1.0876, 1.08874, 1.09331, 1.09455, 1.09732, 1.09837, 1.10032, 1.10098, 1.09886, 1.09759, 1.09935, 1.10531, 1.10608, 1.10725, 1.10693, 1.1054, 1.10447, 1.10466, 1.10419, 1.0999, 1.10017, 1.10155, 1.10339, 1.0998, 1.10013, 1.09733, 1.09665, 1.14603, 1.16865, 1.20893, 1.22023, 1.26806, 1.28359, 1.337, 1.33118, 1.32428, 1.35581, 1.36612, 1.37482, 1.34057, 1.33225, 1.33301, 1.42237, 1.45015, 1.44921, 1.43477, 1.39186, 1.39122, 1.38676, 1.41306, 1.39039, 1.40351, 1.44474, 1.448, 1.51031, 1.48836, 1.4716, 1.40953, 1.4104, 1.42894, 1.47971, 1.45412, 1.46812, 1.48594, 1.49852, 1.52115, 1.53301, 1.53697, 1.53684, 1.56894, 1.635, 1.59505, 1.63048, 1.6122, 1.66191, 1.65411, 1.65361, 1.67313, 1.74067, 1.69643, 1.75189, 1.75151, 1.74819, 1.74784, 1.7473, 1.85213, 1.85198, 1.71626, 1.71666, 1.71636, 1.77162, 1.77115, 1.78675, 1.77985, 1.78648, 1.89663, 1.89692, 1.9076, 1.90022, 1.91001, 1.90377, 1.90281, 1.90192, 1.87962, 1.81079, 1.8359, 1.8551, 1.79395, 1.84007, 1.84062, 1.78595, 1.77459, 1.73181, 1.71061, 1.72009, 1.73197, 1.74238, 1.71749, 1.72392, 1.72407, 1.72305, 1.68133, 1.69392, 1.66528, 1.60843, 1.58, 1.56995, 1.57099, 1.57071, 1.57476, 1.58076, 1.52523, 1.52713, 1.53035, 1.52758, 1.53697, 1.48245, 1.43978, 1.49299, 1.36796, 1.43086, 1.41332, 1.33993, 1.31249, 1.3295, 1.32365, 1.32005, 1.29441, 1.28475, 1.27563, 1.27802, 1.23376, 1.19842, 1.2062, 1.19919, 1.19872, 1.20114, 1.19541, 1.21268, 1.17798, 1.16727, 1.12545, 1.11845, 1.13722, 1.13426, 1.14737, 1.19941, 1.15297, 1.15083, 1.27297, 1.15724, 1.16122, 1.16221, 1.16242, 1.2743, 1.13478, 1.13175, 1.13367, 1.13382, 1.13668, 1.1369, 1.13864, 1.139, 1.13761, 1.13624, 1.13628, 1.13051, 1.13071, 1.13036, 1.12898, 1.12865, 1.1285, 1.12894, 1.12974, 1.13064, 1.13046, 1.12934, 1.12857, 1.12901, 1.12938, 1.13035, 1.13112, 1.13271
