0.984641, 0.987097, 0.988096, 0.987741, 0.988047, 0.983947, 1.04377, 0.97172, 0.965851, 0.964197, 0.965165, 0.963815, 0.978692, 0.97902, 1.05897, 1.05863, 0.953015, 0.953613, 0.952617, 0.952662, 0.952526, 0.952732, 0.94762, 0.946473, 0.942555, 0.942822, 0.9489, 0.949027, 0.949105, 0.949879, 0.946485, 0.948015, 0.947944, 0.948813, 0.946779, 0.948071, 0.946068, 0.945466, 0.945362, 0.94125, 0.943031, 0.943554, 0.939429, 0.938622, 0.938694, 0.932617, 0.931954, 0.931832, 0.931634, 0.930251, 0.929759, 0.929842, 0.929517, 0.928553, 0.928801, 0.929265, 1.03461, 1.14073, 1.03539, 0.92254, 0.923582, 0.9232, 0.921199, 0.919842, 1.01557, 1.01669, 0.949678, 0.970234, 0.906824, 0.904242, 0.903392, 0.899899, 0.902315, 0.903799, 0.903369, 0.902435, 0.90218, 0.900388, 0.902139, 0.903287, 0.913504, 0.913613, 0.911274, 0.912892, 0.915183, 0.914655, 0.912782, 0.910648, 0.90676, 0.904949, 0.905096, 0.904899, 0.904358, 0.904511, 0.906158, 0.905882, 0.909115, 0.909232, 0.912021, 0.911284, 0.911192, 0.911306, 0.943382, 0.957739, 0.978415, 0.98212, 1.24153, 1.0009, 1.00145, 0.998507, 0.912832, 0.913349, 0.913808, 0.919155, 0.923797, 0.92584, 0.926423, 0.938818, 0.928111, 0.92704, 0.925471, 0.92675, 0.927351, 0.928623, 0.927556, 0.928743, 1.03015, 1.02941, 1.1399, 0.928398, 0.929154, 0.929291, 0.924691, 0.924755, 0.923843, 0.924536, 0.922306, 0.92263, 0.922796, 0.924733, 0.926016, 0.925288, 0.924296, 0.924611, 0.928474, 0.928428, 0.928293, 0.92899, 0.929179, 0.931932, 0.931699, 0.928647, 0.930434, 0.933118, 0.933809, 0.931987, 0.931664, 0.931991, 0.938937, 0.938791, 0.939552, 0.941643, 1.22483, 1.16376, 1.04396, 0.954151, 0.997416, 0.956724, 0.945765, 0.949493, 0.948706, 0.948144, 0.949304, 0.94924, 0.945636, 0.945504, 0.945282, 0.948954, 0.950676, 0.972018, 1.09539, 0.97002, 1.10215, 1.05999, 1.06015, 1.17765, 0.948987, 0.94636, 0.946555, 0.948896, 0.945744, 0.94654, 1.21761, 1.20623, 0.954172, 0.95335, 0.954374, 0.954151, 0.971833, 0.961148, 0.955242, 0.953263, 0.952824, 0.953022, 0.9531, 0.95273, 0.95232, 0.951479, 0.958306, 0.95887, 0.980671, 0.942571, 0.942024, 1.15508, 0.956347, 0.95462, 0.939424, 0.939928, 1.03287, 0.938748, 0.933791, 0.933943, 0.932691, 0.932409, 0.93404, 0.949935, 0.9423, 0.944165, 0.944288, 0.944806, 0.93935, 0.939388, 0.940917, 0.940886, 0.94599, 0.946679, 1.05614, 1.05607, 0.942625, 0.944168, 0.991198, 1.08471, 1.04415, 1.10721, 1.00203, 1.04984, 1.07864, 0.94908, 0.951284, 0.953277, 0.954336, 0.953195, 0.955086, 0.957521, 0.959478, 0.959709, 0.959086, 0.958222, 0.955761, 0.956069, 0.953897, 0.953701, 0.953307, 0.954034, 0.958027, 0.958893, 0.959566, 0.999729, 0.949472, 0.966726, 0.948829, 0.948043, 0.9486, 0.944541, 0.942654, 0.943698, 1.26092, 1.24945, 0.997843, 0.977032, 0.98376, 1.15613, 1.27573, 0.970208, 0.938711, 0.940063, 0.941895, 0.942169, 0.939798, 0.939345, 0.940265, 0.939914, 0.942596, 0.943548, 0.944206, 0.9439, 1.04101, 0.953271, 1.37986, 0.947259
0.984266, 0.987971, 0.989666, 0.991402, 0.989223, 0.989398, 0.990295, 1.04032, 0.966819, 0.9649, 0.965282, 0.966339, 0.966664, 0.967817, 0.968161, 1.06301, 0.956885, 0.956363, 0.959668, 0.958072, 0.956377, 0.955307, 1.18521, 0.94687, 0.947429, 0.948775, 0.949391, 0.948307, 0.946144, 0.945586, 0.945551, 0.946123, 0.946779, 0.949925, 0.949641, 0.94731, 0.946643, 0.94539, 0.945989, 0.949444, 0.949606, 0.943349, 0.941889, 0.94258, 0.942403, 0.940862, 0.935474, 0.936306, 0.932576, 0.931007, 0.931595, 0.931589, 0.931873, 0.931618, 0.928324, 0.928351, 0.928346, 0.927459, 0.927934, 0.926081, 0.924986, 0.923923, 0.920956, 0.91936, 0.912339, 0.912448, 0.914653, 0.914275, 0.914087, 0.907594, 0.903186, 0.904628, 0.904152, 0.903769, 0.904201, 0.904102, 0.902084, 0.904231, 0.905763, 0.907576, 0.915036, 0.912806, 0.912766, 0.934313, 0.91484, 0.914452, 0.912053, 0.911745, 0.910121, 0.907139, 0.90741, 0.907761, 0.90525, 0.905272, 0.906139, 0.907642, 0.907755, 0.908995, 0.913234, 0.913289, 0.911611, 0.910884, 0.920655, 0.92156, 0.925152, 1.42615, 0.972016, 0.924478, 0.926667, 0.927538, 1.18219, 0.91474, 0.919117, 0.91799, 0.925475, 0.925893, 0.939297, 0.940579, 0.932091, 0.925029, 0.925752, 0.925608, 0.93106, 0.931034, 0.932775, 0.933143, 1.02883, 1.27734, 0.972948, 0.929714, 0.929027, 0.928505, 0.928342, 0.928645, 0.926058, 0.926933, 0.927224, 0.927399, 0.927027, 0.927457, 0.928324, 0.928896, 0.928212, 0.926824, 0.929108, 0.928515, 0.928631, 0.935488, 0.935533, 0.93562, 0.935938, 0.933567, 0.935349, 0.934946, 0.933531, 0.93212, 0.931665, 0.932506, 0.936893, 0.937623, 0.946658, 0.943094, 1.22653, 0.941164, 1.03953, 0.952914, 0.938148, 1.23707, 0.949447, 0.949528, 0.950354, 0.950525, 0.949055, 0.949075, 0.94914, 0.949065, 0.948357, 0.959533, 0.970521, 0.999005, 0.958201, 1.00577, 1.4482, 1.4468, 1.06676, 1.16081, 1.16035, 0.953315, 0.954464, 0.953, 0.948733, 0.950532, 0.955771, 0.958353, 0.958718, 0.956644, 0.954683, 0.955193, 0.959337, 0.959423, 0.956604, 0.956728, 0.956157, 0.9522, 0.954091, 0.953802, 0.953302, 0.952411, 0.952084, 1.11187, 0.980475, 0.979912, 0.959947, 0.96002, 0.948672, 0.948248, 0.949262, 0.949046, 0.947089, 0.943216, 0.941564, 0.938671, 0.935438, 0.935481, 0.938064, 0.942179, 0.942973, 0.946389, 0.948896, 0.94962, 0.948363, 0.941449, 0.940813, 0.943756, 0.944915, 0.9462, 1.26753, 1.07094, 0.956193, 0.945663, 1.06649, 0.991729, 1.06579, 1.04433, 1.04456, 1.17499, 0.992665, 0.992855, 1.22243, 0.955311, 0.956328, 0.955817, 0.955837, 0.956466, 0.958717, 0.961137, 0.960623, 0.960048, 0.958423, 0.957315, 0.955996, 0.954689, 0.954111, 0.955773, 0.957356, 0.959178, 0.959488, 0.951622, 0.951675, 0.951746, 0.952608, 0.95049, 0.949714, 0.951161, 0.945494, 0.945634, 1.22445, 1.22558, 1.23, 1.26484, 1.20977, 1.20564, 1.14603, 1.14768, 0.945347, 0.945437, 0.941565, 0.94264, 1.18123, 0.939137, 0.939489, 0.936637, 0.946004, 0.942919, 0.944303, 0.946068, 0.949795, 1.27073, 1.03727, 0.959679
0.986081, 0.986872, 0.991595, 0.992572, 0.997425, 0.992864, 0.990478, 0.991089, 1.01417, 0.965248, 0.965646, 0.966598, 0.967673, 0.968612, 0.96766, 0.966301, 0.965808, 0.960353, 0.960185, 0.960897, 0.959675, 0.962977, 1.01273, 0.950532, 0.952357, 0.949718, 0.950169, 0.950075, 0.950512, 0.946117, 0.946823, 1.37383, 0.951839, 0.95244, 0.952428, 0.948002, 0.94874, 0.948255, 0.948227, 0.948197, 0.951303, 0.959316, 0.96097, 0.941712, 0.941729, 0.938197, 0.938637, 0.9385, 0.935883, 0.93307, 0.932008, 0.931953, 0.930307, 0.930473, 0.928584, 0.926696, 0.926822, 0.926694, 0.927254, 0.926482, 0.925892, 0.923172, 0.921785, 0.920881, 0.915333, 0.914842, 0.91531, 0.915184, 0.914391, 0.913212, 0.91121, 0.909365, 0.908159, 0.907339, 0.907344, 0.90776, 0.907655, 0.906463, 0.906105, 0.906645, 0.909958, 0.910965, 0.982336, 0.909832, 1.11085, 0.913406, 0.914754, 0.913782, 0.913558, 0.912419, 0.911083, 0.911157, 0.909664, 0.911152, 0.911949, 0.912116, 0.911936, 0.911318, 0.912752, 0.913612, 0.913148, 0.914456, 1.14238, 0.922106, 1.12352, 1.1254, 0.929839, 0.926073, 0.926641, 0.927867, 1.16452, 0.922893, 0.994131, 0.923084, 0.925541, 1.38656, 1.09293, 1.09552, 1.09462, 0.93202, 0.93252, 0.933454, 0.929905, 0.932176, 0.933142, 0.936669, 1.06389, 1.05807, 1.11404, 0.956335, 0.929011, 0.927506, 0.928212, 0.92738, 0.928262, 0.930517, 0.932208, 0.931381, 0.932006, 0.931174, 0.93341, 0.932852, 0.933324, 0.931164, 0.930755, 0.931967, 0.933453, 0.936399, 0.938369, 0.935354, 0.937938, 0.936488, 0.935125, 0.935133, 0.934299, 0.934572, 0.938115, 0.939024, 0.941108, 0.946201, 0.946833, 0.947577, 1.22245, 1.23385, 0.937091, 0.949744, 0.945982, 0.947171, 0.948104, 0.95024, 0.950429, 0.950502, 0.948793, 0.947065, 0.94897, 0.949688, 1.21939, 0.999955, 0.993391, 0.993524, 1.31355, 0.959655, 0.959995, 0.959533, 0.95807, 0.96014, 0.963454, 0.955363, 0.95395, 0.9534, 0.952663, 0.953664, 0.956258, 0.95924, 0.959685, 0.962861, 0.957038, 0.957972, 0.959305, 0.958289, 0.956071, 0.956772, 0.957968, 0.956905, 0.954318, 0.953369, 0.953489, 0.951494, 0.951197, 0.9506, 0.950264, 1.13608, 1.18789, 0.95966, 0.945983, 0.946846, 0.94718, 0.947409, 0.946926, 0.946423, 0.945847, 0.944985, 0.934314, 0.935517, 0.943085, 0.942458, 0.942484, 0.946299, 0.947467, 0.948995, 0.950407, 0.946337, 0.945109, 0.944628, 0.948817, 0.952771, 0.954802, 0.955688, 0.956423, 0.957234, 0.952291, 0.953128, 0.985826, 1.05153, 0.983233, 1.44007, 1.0888, 1.37616, 1.38248, 0.957249, 0.95737, 0.9571, 0.95472, 0.95649, 0.956252, 0.957967, 0.960632, 0.961446, 0.959898, 0.960349, 0.954652, 0.954212, 0.956178, 0.955981, 0.957264, 0.958533, 0.953823, 0.9525, 0.952698, 0.953704, 0.954235, 0.953696, 0.949473, 0.950319, 0.94965, 0.94928, 1.22375, 1.22451, 1.20938, 1.22357, 1.1442, 0.951626, 0.952822, 0.952605, 0.954274, 0.947424, 0.946008, 0.942563, 0.943317, 1.03549, 1.11681, 0.942944, 0.944155, 0.947307, 0.94474, 0.947104, 0.949372, 0.95014, 1.36791, 1.19825
0.98384, 1.05854, 0.995599, 0.994551, 0.994679, 0.994607, 0.995319, 0.986678, 0.987127, 0.987707, 0.966603, 0.966276, 0.96769, 0.968195, 0.967869, 0.967318, 0.965884, 0.963264, 0.962749, 0.966147, 0.964293, 0.963631, 0.962015, 1.08605, 0.951025, 0.951051, 0.950598, 0.953491, 0.953041, 0.951813, 0.951028, 0.954397, 0.952831, 0.952888, 0.951174, 0.950808, 0.948154, 0.948961, 0.947847, 0.950065, 0.949863, 0.951317, 0.949321, 0.950923, 0.937327, 0.937683, 0.939804, 0.939691, 0.939025, 0.936567, 0.935359, 0.93433, 0.933542, 0.932925, 0.928841, 0.928217, 0.926784, 0.926423, 0.925487, 0.925166, 0.924392, 0.923105, 0.92014, 0.918756, 0.916455, 0.915825, 0.916084, 0.917868, 0.916783, 0.913062, 0.911656, 0.910384, 0.909872, 0.908256, 0.905769, 0.906863, 0.904765, 0.904905, 0.906507, 0.906659, 0.907606, 0.908178, 1.13573, 0.908176, 0.935118, 0.911115, 0.91317, 0.914257, 0.914598, 0.915036, 0.914263, 0.915477, 0.914747, 0.91146, 0.911828, 0.914433, 0.915205, 0.910328, 0.914665, 0.914498, 0.914638, 0.91521, 0.936333, 0.935209, 1.0879, 0.931992, 0.932863, 0.934193, 0.926546, 0.928868, 0.929, 0.928942, 0.92677, 0.928049, 0.928777, 1.4657, 0.946588, 0.946374, 1.00879, 0.936911, 0.940827, 0.942213, 1.07192, 0.939169, 0.938648, 0.938672, 0.938852, 0.95253, 0.952661, 0.931769, 0.925109, 0.925212, 0.927311, 0.928534, 0.929381, 0.930201, 0.930548, 0.934656, 0.934054, 0.933664, 0.934604, 0.936167, 0.936628, 0.934762, 0.931088, 0.931059, 0.93276, 0.937847, 0.938215, 0.940491, 0.940758, 0.935824, 0.935709, 0.935231, 0.936011, 0.937703, 0.938631, 0.940452, 0.939981, 0.947229, 0.948746, 0.948691, 1.21225, 0.942392, 0.941906, 0.941433, 0.94206, 0.943251, 0.948961, 0.948872, 0.94926, 0.94897, 0.949928, 0.94887, 0.953109, 1.22544, 1.02019, 1.14008, 0.985198, 0.982507, 0.961165, 0.962726, 0.96292, 0.963226, 0.963267, 0.960159, 1.16827, 0.960283, 0.959349, 0.960023, 0.953694, 0.954674, 0.956486, 0.959319, 0.960538, 0.964325, 0.96214, 0.962012, 0.963188, 0.955652, 0.955624, 0.959259, 0.960694, 0.960638, 0.954283, 0.952496, 0.950341, 0.950125, 0.949946, 0.949618, 0.952876, 0.951971, 1.2161, 0.949383, 0.949609, 0.95017, 0.946117, 0.946471, 0.947822, 0.946932, 0.946277, 1.06692, 1.04705, 0.948809, 0.948225, 0.945678, 0.94714, 0.947161, 0.948878, 0.951131, 0.952834, 0.954958, 0.956372, 1.09655, 1.08425, 1.08192, 1.08038, 0.956456, 0.957114, 0.958315, 0.952971, 0.954757, 0.956351, 1.03604, 0.959137, 1.04729, 0.981587, 1.08671, 1.08663, 1.21709, 0.960826, 0.95335, 0.95474, 0.955921, 0.957033, 0.956517, 0.958401, 0.959847, 0.959913, 0.959789, 0.959481, 0.959396, 0.957801, 0.956824, 0.956423, 0.956648, 0.954125, 0.953977, 0.955665, 0.955976, 0.953478, 0.952932, 0.953661, 0.95069, 0.950909, 0.950612, 1.2078, 0.952991, 1.10772, 1.11985, 0.952955, 0.953553, 0.95269, 0.952789, 0.953612, 0.951497, 0.952488, 0.944892, 0.94425, 0.94553, 1.02514, 1.02798, 0.947038, 0.94889, 0.949684, 0.950192, 0.950847, 0.952649, 0.95335, 1.19076
1.14977, 1.14677, 0.991613, 0.994665, 0.99237, 0.9946, 0.995668, 0.989571, 0.989384, 1.13308, 1.13976, 1.12914, 0.968773, 0.968761, 0.967829, 0.966566, 0.967678, 0.966547, 0.964149, 0.963095, 0.962306, 0.965415, 0.965438, 0.963934, 1.05579, 0.955775, 0.955512, 0.955698, 0.955306, 0.952344, 1.1537, 0.957045, 0.956635, 0.955287, 0.953197, 0.951374, 0.950121, 0.949376, 0.949329, 0.948913, 0.949958, 0.950122, 0.948326, 0.948099, 0.939344, 0.939662, 1.16496, 0.932091, 0.931825, 0.934935, 0.936062, 0.935885, 0.93584, 0.935172, 0.928111, 0.928541, 0.927049, 0.927151, 0.926569, 0.926027, 0.924842, 0.924921, 0.926052, 0.919631, 0.915426, 0.915172, 0.916436, 0.918022, 0.914689, 0.915081, 0.915005, 0.915514, 1.19801, 1.00905, 0.90731, 0.905963, 0.904781, 0.904424, 0.905194, 0.905383, 0.904349, 1.04815, 1.05353, 0.907292, 0.919765, 0.910981, 0.911415, 0.913418, 0.914868, 0.914685, 0.91787, 0.917254, 0.917158, 0.916159, 0.914794, 0.914991, 0.914786, 0.914482, 0.914073, 0.915959, 0.916574, 0.936075, 0.922235, 0.924805, 0.932157, 0.93275, 0.935285, 0.935044, 0.93428, 0.933504, 0.930194, 0.931293, 0.93165, 0.931253, 0.93742, 1.15305, 0.943856, 0.946068, 0.94667, 0.946031, 0.943855, 1.06023, 1.05814, 0.950995, 0.937885, 0.938335, 0.9406, 1.05363, 0.94914, 0.95536, 0.952987, 0.953802, 0.935585, 0.935772, 0.934941, 0.935327, 0.938142, 0.938685, 0.938803, 0.93966, 0.939846, 0.937268, 0.937257, 1.11757, 0.93206, 0.932198, 0.937047, 0.936605, 0.93826, 0.940776, 0.941714, 0.941337, 0.940954, 0.941088, 0.938276, 0.939155, 0.939788, 0.939732, 0.945652, 0.947001, 0.949022, 0.94966, 1.20953, 0.945871, 0.943113, 0.945725, 0.945241, 0.948975, 0.94735, 0.948315, 0.944036, 1.05327, 0.992187, 0.954476, 0.955635, 0.955081, 0.956092, 0.977832, 0.977811, 0.97473, 0.962084, 0.963856, 0.964304, 0.964294, 0.963646, 0.963006, 0.959438, 0.959379, 0.961018, 0.960888, 0.960957, 0.96161, 0.95655, 0.960579, 0.962128, 0.964405, 0.966149, 0.966703, 0.964991, 0.963709, 0.963514, 0.959771, 0.960506, 0.960708, 0.956284, 0.952438, 0.951795, 0.952219, 0.9506, 0.94903, 0.949998, 0.954078, 0.972388, 1.12284, 0.949973, 0.950221, 0.946998, 0.946682, 0.947964, 0.949137, 0.950954, 0.95293, 0.95337, 0.954703, 0.949783, 0.95101, 0.948481, 0.948597, 0.963009, 1.27088, 0.95565, 0.956608, 0.955568, 0.957277, 1.0862, 1.07663, 1.07063, 1.3363, 0.960468, 0.95869, 0.960119, 0.964068, 0.958428, 0.960745, 1.05387, 1.10925, 0.98044, 0.981278, 1.15257, 1.08529, 1.08641, 0.957174, 0.955643, 0.956351, 0.956011, 0.956695, 1.13638, 1.13688, 0.958948, 0.959384, 0.957437, 0.959574, 0.959436, 0.95672, 0.957316, 0.955182, 0.955843, 0.955447, 0.955922, 0.959446, 0.95738, 0.953672, 0.954781, 0.954641, 0.955775, 0.955846, 0.954036, 0.952194, 0.952519, 0.954311, 0.955856, 0.954385, 0.954116, 0.954318, 0.953457, 0.953634, 0.953232, 0.952285, 0.952599, 0.949525, 1.08262, 1.29522, 1.01803, 0.950247, 0.954647, 0.953971, 0.954447, 0.955445, 0.956528, 0.957891
1.13047, 0.985764, 0.993713, 0.993898, 0.993973, 0.995006, 0.996898, 0.997224, 0.992729, 0.993862, 1.01798, 1.09099, 0.974938, 0.968152, 0.96873, 0.96739, 0.966799, 0.966932, 0.968276, 0.963812, 0.965041, 0.965653, 0.966045, 0.968572, 0.967561, 0.965163, 0.96297, 0.965091, 0.964088, 0.963807, 0.956932, 0.956995, 0.956773, 0.957085, 0.953729, 0.953281, 0.951592, 0.950903, 0.949069, 0.950422, 0.94944, 0.949318, 0.949943, 0.949722, 0.941284, 0.940047, 1.15143, 0.933764, 0.933106, 0.933201, 0.93504, 0.935317, 0.936177, 0.935448, 0.931696, 0.930967, 1.077, 0.922639, 0.924769, 0.92854, 0.927964, 0.923064, 0.924572, 0.920611, 0.913151, 0.91356, 0.918277, 0.916471, 0.915062, 0.914794, 0.91475, 0.914467, 0.911182, 0.938647, 0.936032, 0.932177, 0.906019, 0.90644, 0.90485, 0.904338, 0.902735, 0.90272, 0.903458, 0.905485, 0.922998, 0.908806, 0.912324, 0.915275, 0.915051, 0.914954, 0.917033, 0.917406, 0.917156, 0.914876, 0.914698, 0.914235, 0.914574, 0.914968, 0.915051, 0.915464, 0.917327, 0.916949, 0.923008, 0.925381, 0.925549, 0.926733, 0.931774, 0.932675, 0.932986, 0.933528, 0.933142, 0.933279, 0.932407, 0.931942, 0.931852, 0.949708, 0.94376, 0.945988, 0.945558, 0.945297, 0.948561, 0.947965, 1.05702, 0.973791, 0.939858, 0.940769, 0.945388, 0.946384, 0.946775, 0.947795, 0.949378, 0.943626, 0.994918, 0.995406, 0.936181, 0.936351, 0.938939, 0.940486, 0.939544, 0.941247, 0.943625, 0.942988, 0.942665, 1.15907, 1.01515, 1.11247, 0.941729, 0.942132, 0.938285, 0.940074, 0.942161, 0.939856, 0.940324, 0.942969, 0.94313, 0.9408, 0.940611, 0.941796, 0.944791, 0.94578, 0.95105, 0.953631, 0.961947, 0.963679, 0.9542, 0.955735, 0.956674, 0.953502, 0.953233, 0.953272, 1.09419, 0.991493, 1.04876, 0.957657, 0.957942, 0.956359, 0.955775, 0.973837, 0.97491, 0.975959, 0.961305, 0.962605, 0.962782, 0.963006, 0.962905, 0.962811, 0.9603, 0.959724, 0.960321, 0.961485, 0.961693, 0.962623, 0.963346, 0.960043, 0.961424, 0.966717, 0.97069, 0.971015, 0.970944, 0.968965, 0.96375, 0.962497, 0.960232, 0.963216, 1.24254, 1.24324, 0.951653, 0.951615, 0.952294, 0.952946, 0.952094, 0.954682, 0.95727, 1.0147, 0.969909, 0.952416, 0.95137, 0.948847, 0.94745, 0.949899, 0.949864, 0.952636, 1.05013, 1.06578, 0.951231, 0.952288, 0.953762, 0.95362, 0.953658, 0.955181, 0.956188, 0.959776, 0.959508, 0.982745, 0.986102, 0.984581, 1.02638, 1.11935, 0.966646, 0.966135, 0.963687, 0.963784, 0.966772, 0.967478, 1.11309, 0.99422, 0.978816, 0.977724, 0.97803, 0.978548, 1.26357, 1.2714, 0.957864, 0.958549, 0.956916, 0.955858, 0.955455, 0.95601, 0.956945, 0.957534, 0.960073, 0.959685, 0.957645, 0.959141, 0.959041, 0.95755, 0.959071, 0.959754, 0.958835, 0.958713, 0.959488, 0.96044, 0.961335, 0.953891, 0.957681, 0.959424, 0.956607, 0.956649, 0.95058, 0.954583, 0.957446, 0.956965, 0.955763, 0.955505, 0.95625, 0.95385, 0.95423, 0.954747, 0.955884, 0.953194, 0.954722, 0.956856, 1.27113, 1.2982, 1.16494, 0.955953, 0.956305, 0.959376, 0.956581, 0.957173
0.980786, 0.983758, 1.14058, 0.994584, 0.994463, 0.994772, 0.996019, 0.998908, 1.00074, 0.996195, 0.998559, 1.00184, 1.03634, 1.0364, 0.969658, 0.969014, 0.968582, 0.968592, 0.96729, 0.966676, 0.966386, 1.09794, 0.970169, 0.968468, 0.968092, 0.966662, 0.966919, 0.964908, 0.963543, 0.963197, 0.963301, 0.956524, 0.956438, 0.957438, 0.959585, 0.953159, 0.952638, 0.951989, 0.950804, 0.949201, 0.949267, 0.949744, 0.950476, 0.949924, 0.944223, 0.943993, 1.22684, 0.935173, 0.934724, 0.933888, 0.934313, 0.935717, 0.93639, 0.930081, 0.931544, 0.931843, 0.931739, 0.931424, 0.931116, 0.928672, 0.926632, 0.92706, 0.927954, 1.30632, 0.913174, 0.911654, 0.912313, 0.912146, 0.911756, 0.91379, 0.914267, 0.9143, 0.955296, 0.934182, 0.911697, 0.910931, 1.00641, 0.907666, 0.905631, 0.905326, 0.905042, 0.904569, 0.904405, 0.934012, 1.28794, 0.93579, 1.10325, 0.914581, 0.91526, 0.918261, 0.916647, 0.915926, 0.915338, 0.914637, 0.91461, 0.915173, 0.916257, 0.917641, 0.915119, 0.914906, 0.915929, 0.916556, 0.923601, 0.925124, 0.925595, 0.930832, 0.933548, 0.93392, 0.93256, 0.932077, 0.935951, 0.930881, 0.931368, 0.931674, 0.931288, 0.958253, 0.943145, 0.944379, 0.944728, 0.946499, 0.951025, 1.40465, 1.05051, 1.04963, 1.04379, 0.943475, 0.944557, 0.945133, 0.946884, 0.946773, 0.946592, 0.944839, 0.944505, 0.944185, 0.94359, 0.943331, 0.940877, 0.94578, 0.945491, 0.945508, 0.946408, 0.944707, 0.943464, 0.944034, 0.943154, 0.943343, 0.942933, 0.945551, 0.944346, 0.943508, 0.941779, 0.938864, 0.939564, 0.94544, 0.945434, 0.944784, 0.942251, 0.944164, 0.946275, 0.950666, 0.9513, 0.954775, 0.956608, 0.957182, 0.956493, 0.957873, 0.954634, 0.955233, 0.956228, 0.956107, 0.956001, 0.978785, 0.95981, 0.959208, 0.958812, 0.957323, 0.955718, 0.956496, 0.956487, 0.970117, 0.962935, 0.962831, 0.963421, 0.961562, 0.961733, 0.962832, 0.962949, 0.959577, 0.959372, 0.960985, 0.965121, 0.965798, 0.965679, 0.966389, 0.971242, 0.970171, 0.971285, 0.971466, 1.0117, 0.970127, 0.971028, 0.96989, 0.966395, 0.967704, 1.24884, 1.24035, 0.963989, 0.991935, 0.961197, 0.957009, 0.954887, 0.955863, 0.955986, 0.956244, 0.973846, 0.969668, 0.967364, 0.947078, 0.948054, 0.948727, 0.952822, 1.00692, 1.08433, 1.04641, 0.971717, 0.963414, 0.956236, 0.95462, 0.953886, 0.954323, 0.955849, 0.956479, 1.05988, 1.0611, 1.06926, 0.987174, 0.987718, 0.985651, 1.0676, 0.967286, 0.967809, 0.969371, 0.969685, 0.97124, 1.36217, 0.971845, 0.978634, 0.97934, 0.977496, 0.976844, 1.336, 1.20381, 1.14587, 1.07696, 1.2127, 0.958952, 1.1235, 1.1953, 1.12272, 0.957874, 0.959118, 0.959498, 0.959972, 0.961127, 0.958157, 0.957467, 0.959444, 0.959463, 0.960317, 0.958664, 0.959245, 0.960618, 0.959213, 0.960194, 0.956297, 0.957767, 0.956657, 0.955168, 0.953629, 0.953385, 0.957301, 0.957183, 0.956764, 0.95626, 0.954511, 0.953143, 0.953092, 0.953939, 0.957436, 0.956597, 0.954072, 0.957033, 0.958295, 1.16044, 1.03754, 0.959171, 0.961718, 0.962984, 0.964433, 0.966525
0.976988, 0.98427, 0.987029, 0.99365, 0.994311, 0.993849, 0.994749, 0.996379, 1.19355, 0.999147, 0.998921, 0.999175, 0.998918, 1.02586, 1.15842, 0.97042, 0.969614, 0.96992, 0.969582, 0.969953, 0.971189, 0.972295, 0.96899, 0.968434, 0.968591, 0.967744, 0.969848, 0.969802, 0.967755, 0.964781, 0.965057, 1.11867, 0.956419, 0.95672, 0.957876, 0.957709, 0.954958, 0.953406, 0.952217, 0.949917, 0.947968, 0.949129, 0.950036, 0.949931, 0.950446, 0.943219, 1.1642, 0.938178, 0.936561, 0.933794, 0.934571, 0.933693, 0.933013, 0.932776, 0.930861, 0.932498, 0.933009, 0.932286, 0.93152, 0.931785, 0.927391, 0.928829, 1.43277, 0.918514, 0.913514, 0.913173, 0.913263, 0.913635, 0.913615, 0.914657, 0.91538, 0.975169, 1.00864, 0.93213, 0.968901, 0.914972, 0.912932, 0.911911, 1.02618, 0.905062, 0.906849, 0.905447, 0.905148, 1.2994, 0.926716, 0.937221, 1.45331, 1.20878, 1.21312, 0.917302, 0.918381, 0.920161, 0.920659, 0.918853, 0.916238, 0.915398, 0.915646, 0.917961, 0.92133, 0.919757, 1.26074, 0.923362, 0.929494, 0.929743, 0.928664, 0.92859, 0.99901, 0.934342, 0.931019, 0.930036, 0.93078, 0.930507, 0.931143, 0.933387, 0.933208, 0.947578, 0.942545, 0.944159, 0.945135, 1.0012, 1.05855, 1.05715, 1.30315, 1.28884, 1.27432, 0.963869, 1.09358, 0.947561, 0.94757, 0.948997, 0.947429, 0.945333, 0.945399, 0.945472, 0.945583, 1.20273, 0.944796, 0.946031, 0.953201, 0.952206, 0.946667, 0.945962, 0.945846, 0.945652, 0.944281, 0.945213, 0.944364, 0.945539, 0.991703, 0.944813, 0.938905, 0.93545, 0.936055, 0.944345, 0.94419, 0.993805, 0.946678, 0.945332, 0.952001, 0.953757, 0.954853, 0.954829, 0.955691, 0.95675, 0.957446, 0.956985, 0.954584, 0.953807, 0.955241, 0.954952, 0.953338, 0.98158, 1.0986, 0.961958, 0.965965, 0.952509, 0.956108, 0.956412, 0.957877, 0.96251, 0.963176, 0.966635, 0.96638, 0.961962, 0.962196, 0.962009, 0.96348, 0.961313, 0.962842, 0.962692, 0.965256, 0.966493, 0.967044, 0.968855, 0.969012, 0.974233, 0.975081, 0.976792, 0.975502, 0.971709, 0.971181, 0.972371, 0.972185, 0.971871, 0.971198, 0.969836, 1.01136, 1.01087, 0.990172, 0.999147, 0.959578, 0.959887, 0.954998, 1.35024, 0.972306, 0.969989, 0.969605, 0.96644, 0.952506, 0.952806, 0.954101, 0.957007, 0.966591, 0.967202, 0.966837, 0.966533, 1.05497, 1.05589, 1.1378, 0.953738, 0.955625, 0.956339, 1.05452, 1.00044, 0.992594, 0.998878, 0.990579, 0.990741, 0.987891, 0.972032, 0.97085, 0.975785, 0.976665, 0.974603, 1.11698, 1.35845, 0.977436, 0.975962, 0.977931, 1.25443, 1.35046, 1.10684, 0.969449, 0.983602, 1.21144, 0.98706, 0.99092, 1.06716, 1.12191, 1.08542, 0.959708, 0.959777, 0.959868, 0.959912, 0.96111, 0.961086, 0.962208, 0.961236, 0.961804, 0.962957, 0.959711, 0.95827, 0.959321, 0.960631, 0.960346, 0.962532, 0.962087, 0.96177, 0.953503, 0.95549, 0.95579, 0.955728, 0.955074, 0.954706, 0.955763, 0.954143, 0.954122, 0.955531, 0.956185, 0.957229, 0.960814, 1.17001, 1.21808, 1.00481, 1.02901, 1.02961, 0.971815, 0.968669, 0.968666, 0.964643
0.981108, 0.982267, 0.986824, 1.01515, 0.995012, 0.995239, 1.31533, 1.31533, 1.04351, 1.00538, 0.997127, 0.998411, 0.999446, 0.993043, 0.993177, 1.3227, 0.974665, 0.971782, 0.972907, 0.973592, 0.972969, 0.974453, 0.974232, 0.972405, 0.970782, 0.970558, 0.969658, 0.970061, 0.969702, 0.96717, 0.96751, 1.44153, 0.956532, 0.957748, 1.33756, 0.958943, 0.955945, 0.954571, 0.946545, 0.946635, 0.94919, 0.951446, 0.951293, 0.950746, 0.947916, 0.945891, 0.960017, 0.963236, 0.937897, 1.20673, 0.934948, 0.934296, 0.933885, 0.933148, 0.93305, 0.933445, 0.933267, 0.932663, 0.930696, 0.929636, 0.92996, 0.996091, 0.98372, 0.915368, 0.913959, 0.91457, 0.914533, 0.915777, 0.95715, 0.949168, 0.976158, 0.921846, 0.92326, 0.924136, 0.919442, 0.917563, 0.913378, 0.91442, 0.910451, 0.908881, 0.909214, 1.1599, 0.907388, 0.907905, 0.907744, 0.93965, 0.991215, 0.932641, 0.935048, 1.07863, 1.24369, 0.930609, 0.921263, 0.922443, 0.92288, 0.924214, 0.924059, 0.921868, 0.921259, 0.922187, 0.925673, 0.962157, 0.933273, 0.934213, 0.933264, 0.927683, 0.932777, 0.935851, 0.936804, 1.04236, 0.931253, 0.932111, 0.931353, 0.932961, 0.934394, 0.936291, 1.15555, 0.941046, 0.942645, 1.16114, 0.963301, 0.963236, 1.14469, 0.97363, 0.974253, 0.967082, 0.963164, 0.952978, 0.948823, 0.948981, 0.948812, 0.949056, 0.950182, 0.946329, 0.947243, 0.953113, 0.956782, 0.956479, 0.95632, 0.955779, 0.975396, 0.976159, 0.946189, 0.945594, 0.945667, 0.945837, 0.947692, 0.948727, 0.946878, 0.946278, 0.943031, 0.941861, 0.940974, 0.945457, 1.11603, 1.23326, 0.952513, 0.953018, 0.952689, 0.952594, 0.952446, 0.957246, 0.963605, 0.962784, 0.957279, 0.957288, 0.954423, 0.952471, 0.953773, 0.953818, 0.954104, 1.15805, 1.08518, 0.995585, 1.03513, 1.07505, 1.20483, 0.95903, 0.960488, 0.965833, 0.965451, 0.966775, 0.964773, 0.964537, 0.964146, 0.963154, 0.964715, 0.980708, 0.96124, 0.96001, 0.971574, 0.970565, 0.970387, 0.97011, 0.969671, 0.974411, 0.975576, 0.991693, 0.973555, 0.973038, 0.972248, 0.972024, 0.972701, 1.00702, 1.00433, 1.22579, 0.968643, 0.997944, 1.00802, 0.995589, 0.993365, 1.19758, 1.29535, 1.29621, 0.973779, 1.00568, 1.23047, 1.18657, 0.963293, 0.956376, 0.957085, 0.957368, 1.51004, 0.967481, 0.966416, 0.967251, 0.969888, 1.05267, 1.01118, 1.05077, 1.25459, 1.22681, 0.998307, 0.996585, 1.17381, 0.987475, 0.981719, 0.991767, 0.991557, 0.985819, 0.985421, 0.979116, 0.976712, 0.978646, 0.978626, 0.979018, 0.978393, 0.980266, 0.981878, 0.984351, 1.24826, 0.973318, 0.973226, 0.973799, 1.11003, 1.20734, 1.25225, 1.19277, 1.14598, 0.970989, 1.12213, 0.958166, 0.959511, 0.960476, 0.958389, 0.960934, 0.961415, 0.961678, 0.963363, 0.962916, 0.964, 0.964831, 0.963029, 0.974275, 0.963099, 0.964013, 0.96324, 0.963469, 0.9624, 0.959535, 0.959468, 0.959104, 0.95469, 0.954342, 0.956425, 0.956181, 0.954979, 0.956238, 0.955037, 0.958402, 0.962894, 0.963878, 1.26759, 1.14462, 0.992905, 1.14236, 0.976982, 0.978405, 0.980452, 1.05325
0.982537, 0.982162, 0.987174, 1.01866, 1.01586, 0.997309, 1.00132, 1.00137, 1.00656, 1.0071, 1.00768, 0.996865, 0.997338, 0.997591, 0.990321, 0.989836, 1.185, 0.974776, 0.973835, 0.973336, 0.971294, 0.974181, 0.979019, 0.976703, 1.48442, 0.972361, 0.972806, 0.973123, 0.971904, 1.0716, 0.987233, 0.98419, 1.33405, 0.959015, 0.959294, 0.959334, 0.958066, 0.956999, 1.18767, 0.948981, 0.949489, 0.951308, 0.952236, 0.950229, 0.952893, 0.952646, 0.947352, 1.07306, 1.30921, 1.21799, 1.10283, 1.28696, 1.09779, 0.936135, 0.936814, 0.935753, 1.02122, 0.993346, 1.00809, 1.29281, 1.22249, 1.12662, 0.986631, 0.917785, 0.915357, 0.914949, 0.915532, 0.956177, 0.956449, 1.37475, 0.956648, 1.15357, 0.924846, 0.924692, 0.922204, 0.919556, 0.918036, 0.91301, 0.911716, 0.911143, 0.910457, 0.959933, 1.15646, 0.935799, 1.03718, 1.03587, 0.943412, 1.02569, 0.957791, 1.19861, 1.1986, 1.1834, 0.921444, 0.924529, 0.925373, 0.925271, 0.922551, 0.922445, 0.921825, 0.922918, 1.0773, 0.936933, 0.936385, 0.945656, 0.936345, 0.935802, 0.935973, 1.3789, 0.94393, 0.951252, 0.968032, 0.939187, 0.938559, 0.970734, 0.938684, 0.93843, 0.938614, 0.944968, 0.943214, 0.942061, 0.942524, 1.04781, 1.13611, 0.974424, 0.974793, 0.975399, 1.04682, 0.953844, 0.95281, 0.952849, 0.952058, 0.950988, 0.951454, 0.952177, 0.94775, 0.949773, 0.955319, 0.954899, 0.954922, 0.952808, 0.952072, 1.15455, 0.972145, 0.969389, 0.94583, 0.94695, 0.94749, 0.952456, 1.1641, 0.948296, 0.947238, 0.942742, 0.942921, 1.2474, 0.95739, 0.983716, 0.952854, 0.952581, 0.952746, 0.954311, 0.952661, 0.961667, 0.962836, 0.964955, 0.961087, 0.957104, 0.955923, 0.954229, 0.953662, 0.955207, 0.958729, 0.959367, 0.98702, 0.985883, 0.985216, 0.976746, 1.02277, 0.964453, 0.96536, 0.965982, 0.966135, 0.964772, 0.9658, 0.966798, 0.963512, 0.963809, 0.963645, 1.12597, 0.971309, 0.968075, 0.969318, 0.973138, 0.973118, 0.970714, 0.972696, 0.981727, 0.982888, 0.990567, 0.990814, 0.97533, 0.975828, 0.976567, 0.976781, 1.112, 1.08063, 1.22629, 1.11866, 1.11963, 1.00265, 1.00416, 0.992407, 0.990377, 0.989156, 0.963165, 0.990611, 0.971332, 0.971562, 0.969447, 0.963602, 0.963638, 0.958966, 0.958474, 0.962933, 0.964292, 0.967953, 0.96822, 0.97023, 0.971219, 1.04079, 1.04491, 1.04593, 0.99878, 0.998021, 0.995533, 1.04961, 1.24719, 0.984838, 0.992557, 1.0067, 0.988394, 1.12722, 0.983631, 0.981987, 0.980961, 0.980196, 0.979984, 0.981506, 0.982611, 0.983822, 0.983831, 0.982246, 0.975939, 0.974624, 0.973457, 0.975634, 1.10356, 1.05137, 1.12531, 0.971553, 0.972892, 0.968899, 0.969922, 0.967155, 0.966622, 0.966806, 0.964906, 0.959908, 0.962754, 0.962709, 0.962893, 0.963382, 0.965753, 0.966781, 0.96809, 0.96954, 0.961594, 0.964092, 0.963708, 0.962988, 0.964006, 0.961221, 0.959008, 0.959801, 1.09847, 1.21116, 0.954428, 0.955031, 0.959381, 0.963904, 0.964361, 0.965388, 0.966579, 0.966425, 0.966818, 1.02645, 0.975372, 0.97628, 0.978345, 0.980558, 0.99029
1.0569, 0.984104, 0.987388, 0.988424, 0.989531, 0.994084, 1.00085, 1.00424, 1.00556, 1.00546, 1.01155, 1.00922, 0.999306, 1.0007, 0.991597, 0.99456, 0.994239, 0.977214, 0.978589, 0.976252, 0.976759, 0.979965, 0.979405, 0.973844, 0.975356, 0.975472, 0.97668, 0.974589, 0.974857, 1.00886, 1.05854, 0.980485, 0.979141, 1.4384, 0.95933, 0.958885, 0.957367, 0.957796, 0.953529, 0.951611, 0.951035, 0.95181, 0.955804, 0.953892, 0.952933, 0.952298, 0.951889, 0.948648, 0.947335, 0.944486, 1.09537, 0.942702, 0.94348, 0.942079, 0.94235, 0.940574, 0.945704, 0.997484, 1.21987, 0.945239, 1.22226, 1.267, 1.43683, 0.969253, 0.916471, 1.11666, 0.945491, 0.916623, 0.950579, 1.20817, 0.943937, 0.928712, 0.930959, 0.930402, 0.963254, 0.92516, 0.921914, 1.07813, 0.910867, 0.91127, 0.918513, 0.918511, 1.29735, 0.996581, 0.977355, 1.14242, 0.915125, 0.914821, 0.960116, 1.20274, 1.52239, 1.06063, 0.922447, 0.924198, 0.927254, 0.928441, 0.928822, 0.924449, 0.926931, 0.92716, 0.931932, 0.946964, 0.946786, 0.939027, 0.94019, 0.943059, 0.944128, 0.94556, 0.946266, 0.946066, 0.945903, 0.942677, 0.942563, 0.943594, 0.942874, 0.942783, 0.943881, 0.945028, 0.945433, 0.940539, 0.93873, 1.12785, 1.09862, 0.974417, 0.974681, 0.975037, 0.974779, 0.95595, 0.955588, 0.954786, 0.954745, 0.95042, 0.949825, 0.952306, 0.952533, 0.950157, 0.955316, 0.954461, 0.953999, 0.953233, 1.19621, 0.951936, 0.952928, 0.9515, 1.4209, 0.951785, 0.949854, 0.950536, 0.955776, 0.956017, 0.949505, 0.942973, 0.944358, 0.944806, 1.11979, 0.97788, 0.977652, 0.954019, 0.977013, 0.977069, 0.976456, 0.973516, 0.966428, 0.962759, 0.964581, 0.964201, 0.962961, 0.957543, 0.962522, 0.961352, 0.961187, 0.961957, 0.984615, 0.984808, 0.983691, 0.981322, 0.967034, 0.964994, 0.967722, 0.968801, 0.965255, 0.966046, 0.966927, 0.967862, 0.964598, 0.963765, 0.964679, 0.968121, 0.977835, 0.973348, 0.972825, 0.973687, 0.985493, 1.09196, 0.974813, 0.979215, 0.98101, 0.991361, 0.991897, 0.98206, 0.982516, 0.982461, 0.984695, 0.97971, 0.977691, 0.978193, 0.978419, 1.23428, 0.975519, 0.974993, 0.96919, 0.968237, 0.967612, 0.986817, 0.97844, 1.04935, 0.96973, 0.966831, 0.966507, 0.966442, 0.96386, 0.961226, 0.962803, 0.9636, 0.967443, 0.96874, 0.969837, 0.970926, 0.97358, 1.04734, 1.29249, 1.03899, 0.978155, 0.981254, 0.982155, 1.00181, 0.994455, 0.995884, 0.994895, 1.42921, 0.994257, 0.993956, 0.986157, 0.984651, 0.985402, 0.98162, 0.984315, 0.985013, 0.987454, 0.986263, 0.984386, 0.984322, 0.973674, 0.976536, 0.977369, 1.16762, 1.16778, 1.08038, 0.978128, 0.977567, 0.975397, 0.976022, 0.969606, 0.969262, 0.966803, 0.966235, 0.965534, 0.966396, 0.966395, 0.962155, 0.963419, 0.965061, 0.967276, 0.969933, 0.96862, 0.967005, 0.966486, 0.965011, 0.963894, 0.962882, 0.963772, 0.962779, 0.960148, 0.960637, 1.09832, 0.987414, 1.2421, 0.960375, 0.964639, 0.966889, 0.966756, 0.966211, 0.966228, 0.9683, 0.968859, 0.970344, 0.973815, 0.976817, 0.978238, 1.01487
0.994029, 0.994143, 0.988497, 0.988934, 0.99164, 0.993621, 0.99864, 1.00111, 1.00667, 1.0103, 1.01101, 1.01038, 1.00039, 1.00012, 1.00014, 0.99439, 0.994623, 1.12546, 0.980135, 0.977609, 0.977472, 0.980439, 0.980565, 0.975837, 0.976474, 0.976887, 0.980156, 0.978024, 0.978541, 0.975525, 0.973311, 0.968666, 0.969925, 0.969938, 0.991221, 0.959305, 0.957615, 0.956718, 0.954966, 0.95334, 0.954129, 0.955755, 0.956009, 0.955698, 0.953809, 0.954079, 0.952411, 0.950306, 0.947445, 0.944099, 1.09374, 0.945439, 0.944512, 0.943495, 0.940887, 0.941748, 0.941716, 0.947565, 0.945697, 0.999111, 1.01414, 1.13221, 1.24839, 0.919202, 0.918155, 0.944484, 0.94679, 0.944805, 1.49483, 1.12884, 0.930461, 0.931845, 0.931469, 0.931348, 0.928208, 0.924693, 0.922691, 0.922508, 0.922907, 0.920813, 0.919424, 0.919577, 0.919178, 1.30481, 1.02598, 0.949224, 0.942545, 0.936289, 0.960131, 0.968884, 0.972759, 0.920052, 0.921461, 0.922033, 0.940162, 0.928929, 0.928853, 0.928222, 0.927318, 0.930471, 0.932636, 1.08411, 1.27131, 0.975539, 0.9423, 0.942496, 0.946098, 0.947049, 0.946348, 0.946368, 0.94561, 0.945445, 0.94549, 0.947533, 0.945893, 0.94645, 0.94945, 0.949347, 0.945682, 0.945494, 0.946888, 0.947417, 1.08371, 1.06727, 0.97346, 0.973263, 1.17766, 1.06615, 0.95524, 0.955911, 0.947387, 0.949401, 0.947992, 0.949158, 0.950477, 0.95013, 0.950891, 0.953533, 0.954186, 0.974031, 0.978574, 1.17921, 0.980676, 0.954545, 1.12482, 0.95659, 0.952384, 0.951013, 0.950983, 0.951265, 0.99017, 0.949337, 0.948693, 0.956979, 1.07808, 1.2339, 0.970904, 0.974774, 0.974198, 0.968074, 0.963502, 0.968068, 0.967971, 0.9679, 0.966179, 0.966237, 0.966754, 0.967392, 0.967304, 0.965754, 0.966116, 1.14668, 0.970867, 0.9719, 0.972139, 0.971073, 0.967302, 0.967865, 0.968425, 0.972129, 0.965537, 0.965961, 0.966847, 0.968394, 0.968399, 0.966387, 0.965865, 0.966515, 0.969378, 0.970203, 0.971529, 0.983741, 0.9845, 0.977185, 0.973395, 0.973376, 0.97374, 1.00414, 0.996583, 1.04564, 0.986237, 0.987218, 0.986073, 1.04342, 0.974542, 0.974988, 0.977323, 0.975989, 0.976165, 0.973231, 0.970239, 0.970934, 0.970529, 0.971388, 0.984547, 1.05166, 0.967526, 0.968324, 0.967066, 0.966969, 0.962686, 0.963799, 0.965645, 0.96511, 0.966031, 0.967959, 0.970229, 0.973467, 0.974034, 0.974122, 1.03747, 0.976945, 0.977157, 0.980711, 0.981868, 0.981463, 1.03885, 1.05153, 1.16811, 0.989658, 0.991626, 0.992038, 0.991067, 0.990568, 0.990007, 0.98536, 0.987851, 0.988314, 0.988167, 0.988535, 0.990057, 1.22023, 0.984379, 0.979087, 0.978817, 0.980872, 1.1187, 1.18889, 0.982352, 0.980579, 0.980619, 0.978937, 0.975242, 0.972905, 0.974016, 0.969545, 0.969513, 0.968512, 0.967806, 0.968152, 0.963145, 0.963029, 0.966231, 0.968193, 0.964692, 0.966247, 0.966172, 0.966237, 0.964345, 0.964526, 0.966744, 0.961094, 0.959706, 0.959997, 0.960852, 1.25884, 1.09447, 0.978506, 0.970774, 0.966542, 0.96715, 0.96621, 0.968806, 0.972037, 0.972351, 0.972932, 0.974776, 0.976778, 0.97722, 0.979271
0.995196, 0.993896, 0.994082, 0.990749, 0.993331, 0.994013, 1.42651, 1.00142, 1.00616, 1.01057, 1.01144, 1.01515, 1.0159, 1.01474, 1.01166, 1.00515, 1.00543, 1.34374, 1.16063, 0.975865, 0.975831, 0.980843, 0.982633, 1.12227, 1.00537, 0.97713, 0.977033, 0.975504, 0.974331, 0.974962, 0.974659, 0.970225, 0.97053, 0.970138, 0.966716, 0.966237, 0.966316, 0.956433, 0.95592, 0.954861, 0.953394, 0.954238, 0.955205, 0.955949, 0.95596, 0.953268, 1.1341, 1.14235, 1.28771, 0.945626, 0.945719, 0.946533, 0.946534, 0.943196, 0.94322, 0.943044, 0.942962, 1.02765, 1.16582, 1.23374, 1.19726, 0.922612, 0.97335, 0.969696, 1.10795, 1.12139, 0.945522, 1.3143, 0.937161, 0.936318, 0.931944, 0.931604, 0.931027, 0.931865, 0.931823, 0.930515, 0.928245, 0.926808, 0.92479, 0.923862, 0.924861, 0.924993, 0.924805, 0.924773, 0.953399, 1.26933, 1.2897, 1.22939, 1.11171, 1.11244, 1.27082, 0.923727, 0.969763, 0.933535, 0.932076, 0.932219, 0.933232, 0.932577, 0.932441, 1.02647, 0.941108, 0.942553, 1.13687, 0.974035, 0.977028, 0.981044, 0.949277, 0.952152, 1.26078, 1.33305, 1.11422, 0.948503, 0.948406, 0.945835, 0.946401, 0.951164, 0.951679, 0.953879, 0.953731, 0.949309, 0.948838, 0.948405, 0.949608, 1.03864, 1.23212, 0.973122, 0.971551, 1.05041, 0.95974, 0.94678, 0.947924, 0.949327, 0.946947, 1.01167, 0.953611, 0.94959, 0.94917, 0.951321, 0.952868, 0.958095, 0.9593, 1.0367, 1.13141, 1.35025, 1.40241, 0.95608, 0.952244, 0.952358, 0.952688, 0.952452, 0.962844, 0.950536, 0.951665, 0.957174, 0.959878, 0.96692, 0.967003, 0.967282, 0.967854, 0.967587, 0.968293, 0.96701, 0.967328, 0.96702, 0.967595, 0.966352, 0.966387, 0.968271, 0.969965, 0.969946, 0.969534, 0.970099, 0.974628, 0.973362, 0.973087, 0.973153, 0.970653, 0.971523, 0.976325, 0.975294, 0.975949, 0.966436, 0.966298, 0.967636, 0.970184, 0.967098, 0.965115, 0.966088, 0.968284, 0.96968, 0.969154, 1.11679, 0.981153, 0.983381, 0.973204, 0.970992, 0.973104, 0.988899, 0.98873, 0.997957, 1.03949, 1.04347, 1.10542, 0.973666, 0.973477, 0.970751, 0.972448, 0.974096, 0.975529, 0.975351, 0.969985, 0.969792, 0.970916, 0.97054, 0.970815, 0.973312, 0.971573, 0.973401, 0.973233, 0.969752, 0.968656, 0.968368, 0.96636, 0.966392, 0.965022, 0.967479, 0.970797, 0.97178, 0.973677, 0.975677, 0.97554, 0.978041, 0.980796, 0.97956, 0.974394, 0.975603, 0.977031, 0.981554, 1.00408, 1.00483, 0.993801, 0.991873, 0.993735, 0.992464, 0.992701, 0.991105, 0.990393, 0.988405, 0.99107, 0.989695, 0.990542, 0.990538, 0.98741, 0.988366, 0.983442, 0.983754, 1.19383, 1.13698, 0.986299, 0.983803, 0.982839, 0.980531, 0.980308, 0.975353, 0.974249, 0.977152, 0.973316, 0.971374, 0.968223, 1.05462, 0.965964, 0.964412, 0.964518, 0.966144, 0.964553, 0.965064, 0.965214, 0.964859, 0.965948, 0.965975, 0.966503, 0.959704, 0.960533, 0.961586, 0.962985, 0.963109, 1.09087, 0.97328, 0.974899, 0.974941, 0.970962, 0.973432, 1.09966, 0.972738, 0.973425, 0.975399, 0.976887, 0.978665, 0.979922, 0.980095
0.998045, 0.99845, 0.997324, 0.994743, 0.993358, 0.996244, 0.997184, 1.00211, 1.36929, 1.00949, 1.01417, 1.01604, 1.01665, 1.01645, 1.01209, 1.0047, 1.00414, 1.00343, 1.16004, 1.14591, 1.10228, 0.985221, 0.985949, 0.985031, 1.06363, 0.977389, 0.977318, 0.97679, 0.975656, 0.975814, 0.975111, 0.973917, 0.973253, 0.967896, 0.966574, 0.966245, 0.966318, 0.963147, 0.957092, 0.954123, 0.954644, 0.955622, 0.955455, 0.954789, 0.954607, 0.954258, 1.13594, 0.966489, 0.974186, 0.946471, 0.94672, 0.94739, 0.946944, 0.946122, 0.945402, 0.943599, 0.942795, 1.24329, 1.00022, 1.01806, 0.925801, 0.925365, 0.973905, 1.20307, 1.07163, 1.01084, 1.11925, 1.03778, 1.35421, 0.931893, 0.935029, 0.933012, 0.932427, 0.933183, 0.932756, 0.932089, 0.929381, 0.92758, 0.927738, 0.925688, 0.924727, 0.928836, 0.927835, 0.932068, 1.24496, 1.37098, 1.25305, 0.92683, 0.927849, 0.93189, 1.25723, 1.26406, 0.930093, 0.929754, 1.12573, 0.934491, 0.933554, 0.932609, 1.0019, 0.943432, 0.948412, 1.02613, 1.13257, 0.949414, 1.24474, 1.1436, 0.953098, 0.953951, 0.974102, 0.953411, 0.952107, 0.95059, 0.949963, 0.946624, 0.952786, 0.952649, 0.956161, 0.955909, 0.95434, 0.953535, 0.947959, 0.951504, 0.953196, 0.954895, 0.955837, 1.01888, 0.960087, 0.960552, 0.959813, 0.9597, 0.967145, 0.967663, 0.955219, 0.955725, 0.956793, 0.997795, 1.08242, 0.957288, 0.953744, 0.960708, 0.966955, 0.968947, 0.97013, 0.969727, 0.96969, 0.959451, 0.959613, 0.959313, 0.960504, 1.00481, 0.966212, 0.953477, 0.954274, 0.959218, 0.960059, 0.960707, 0.963456, 0.963975, 0.964888, 0.96527, 0.96229, 0.963045, 0.96316, 0.964299, 0.965339, 0.966882, 0.967379, 0.968784, 0.973098, 0.971503, 0.971797, 0.975268, 0.975143, 0.974638, 0.971523, 0.972563, 0.971938, 0.973111, 0.975258, 0.975927, 0.97397, 0.966051, 0.96627, 0.969797, 0.970372, 0.967929, 0.96685, 0.967264, 0.966534, 0.967022, 0.967119, 0.965858, 0.974784, 0.979871, 0.980254, 0.968903, 0.969964, 0.990175, 0.996092, 1.00149, 1.02196, 1.02165, 1.0322, 0.976716, 0.976856, 0.975202, 0.974572, 0.975905, 0.976576, 0.973224, 0.972225, 0.970689, 0.970701, 0.970311, 0.97249, 0.973147, 0.973762, 0.973208, 0.97341, 0.974055, 0.969009, 0.968404, 0.965774, 0.966348, 0.966388, 0.967322, 0.968281, 0.970288, 0.974333, 0.975557, 0.97676, 0.979568, 0.979107, 0.974169, 0.974363, 0.975082, 0.97811, 0.979857, 1.05515, 1.05587, 1.3076, 0.99576, 0.994682, 0.995565, 0.995067, 0.995201, 0.994468, 0.993788, 0.99211, 0.992491, 0.989335, 0.989122, 0.989005, 0.988222, 0.98433, 0.986118, 0.988948, 0.986072, 0.988069, 0.981039, 0.981977, 0.980795, 0.981094, 0.978697, 0.977166, 0.976649, 0.976421, 0.974304, 0.975872, 0.976448, 0.976481, 0.967849, 0.967795, 0.970101, 0.96538, 0.965996, 0.966649, 0.969133, 0.968747, 0.968611, 0.967709, 0.967742, 0.966723, 0.966314, 0.961797, 0.963613, 0.968042, 0.972476, 0.974953, 0.975644, 1.04998, 1.17425, 1.09066, 1.091, 0.974821, 0.975198, 0.976599, 0.980098, 0.98257, 0.982913
1.0011, 0.999819, 1.00095, 0.997953, 0.994746, 0.997375, 1.00004, 1.00091, 1.00384, 1.00979, 1.01276, 1.01508, 1.01513, 1.01268, 1.01043, 1.00997, 1.008, 0.9984, 0.999111, 0.987469, 0.986875, 0.987674, 0.987634, 0.989654, 0.990466, 0.989325, 0.989725, 1.17137, 0.980546, 0.981995, 1.23709, 0.973886, 0.973245, 0.97325, 0.969588, 0.968646, 0.966338, 0.962085, 0.96028, 0.957537, 0.956828, 0.956735, 0.957042, 0.954044, 0.954207, 0.955591, 0.952661, 0.953451, 0.946562, 0.946824, 0.947097, 0.948337, 0.94851, 0.94917, 0.949001, 0.944746, 0.94548, 1.00658, 1.3341, 0.963733, 0.984537, 0.960543, 0.958204, 0.925128, 0.943107, 1.24255, 1.01424, 0.933731, 0.935426, 0.934505, 0.933473, 0.933277, 0.933226, 0.934198, 0.933667, 0.934135, 0.934391, 0.93296, 0.93312, 1.03839, 0.933956, 0.933981, 0.93263, 0.936656, 0.938699, 0.938882, 0.933463, 0.932772, 0.934105, 0.933838, 0.933972, 0.931839, 0.931843, 0.935715, 0.936709, 0.935299, 0.935824, 0.938797, 0.938871, 0.941871, 0.944613, 0.949842, 0.950791, 1.29311, 0.95298, 0.954888, 0.955965, 0.956116, 0.957101, 0.955993, 0.954056, 0.959644, 0.955979, 0.952902, 0.95393, 0.953745, 0.957115, 0.959453, 1.26458, 0.956401, 1.21389, 0.957664, 0.95916, 0.957066, 0.957049, 0.957843, 1.05345, 0.961437, 0.959536, 0.959837, 0.960184, 1.03529, 1.14037, 0.961424, 0.964332, 0.965006, 0.964335, 0.962755, 0.959785, 0.962522, 0.965884, 0.96692, 0.968725, 0.967384, 0.963817, 0.963843, 0.962848, 1.10398, 0.961554, 0.969534, 0.968746, 0.968443, 0.956715, 0.95727, 0.95871, 0.960539, 0.963053, 0.963168, 0.962693, 0.96295, 0.963711, 0.962917, 0.963752, 0.963511, 0.964736, 0.966808, 0.966459, 0.968547, 0.971346, 0.972997, 0.973496, 0.974527, 0.975434, 0.970464, 0.970347, 0.973255, 0.973622, 0.97319, 0.97493, 1.06821, 1.10534, 0.966415, 0.966966, 0.96893, 0.972723, 0.973309, 0.968065, 0.96909, 0.96802, 0.96813, 0.969066, 0.963964, 0.964759, 0.978891, 0.979092, 0.968146, 0.96765, 0.972033, 0.984769, 0.983734, 0.997532, 0.990149, 0.990256, 0.980265, 0.973736, 0.974518, 0.974658, 0.976354, 0.983387, 0.983686, 0.971151, 0.971039, 0.971766, 0.973346, 0.971667, 0.971373, 0.971766, 0.970723, 0.9726, 0.9733, 0.972655, 0.971869, 0.966197, 0.96475, 1.0559, 0.966904, 0.968796, 0.97127, 0.972896, 0.974383, 0.977452, 0.979464, 0.981011, 0.9823, 1.02559, 0.979006, 0.978728, 0.979134, 0.977533, 0.987386, 1.03932, 1.00057, 1.00082, 0.997408, 0.997277, 0.997445, 0.997726, 0.997847, 0.994542, 0.993704, 0.991614, 0.991569, 0.992319, 0.984714, 0.985938, 0.989011, 0.989136, 0.988688, 0.988758, 0.986778, 0.981513, 0.980476, 0.981208, 0.982578, 0.97801, 0.977977, 0.975271, 0.974681, 0.976297, 0.978782, 0.979023, 0.973351, 0.97208, 0.973679, 0.964728, 0.966235, 0.969177, 0.972129, 0.970836, 0.969822, 0.968926, 0.96695, 0.968607, 0.969665, 0.964685, 0.964974, 0.966483, 0.971782, 0.974092, 1.0749, 1.08097, 1.18533, 1.19289, 0.985763, 1.14749, 1.14962, 1.15817, 0.987216, 0.987086, 0.98544
1.00323, 1.00115, 1.00041, 1.00165, 1.00234, 1.05002, 0.999529, 1.00043, 1.00009, 1.00821, 1.01193, 1.01528, 1.01498, 1.01518, 1.01482, 1.01094, 1.00469, 1.00432, 0.997314, 0.990665, 0.990201, 0.98974, 0.989577, 0.990203, 0.99044, 0.990439, 0.989138, 1.25674, 0.984544, 0.984474, 0.984352, 1.0354, 0.975344, 0.973149, 0.971509, 0.970278, 0.964906, 0.963997, 0.955, 0.955026, 0.9594, 0.959279, 0.956466, 0.955154, 0.95367, 0.952888, 0.95233, 0.951162, 0.943542, 0.945836, 0.947028, 0.951606, 0.952509, 0.949603, 0.950568, 0.949235, 0.946944, 1.34777, 1.34843, 0.976227, 0.995352, 0.978976, 1.1642, 1.24246, 0.930055, 1.20618, 0.93507, 0.933448, 0.93621, 0.936317, 0.935089, 0.934637, 0.934985, 0.934958, 0.935652, 0.936031, 0.934138, 0.936667, 0.939727, 1.05455, 0.935927, 0.935466, 0.937397, 0.940034, 0.939006, 0.938046, 0.936431, 0.932552, 0.935191, 0.935163, 0.935633, 0.936161, 0.937523, 0.936084, 0.937612, 0.93847, 0.938847, 0.938581, 0.939057, 0.941378, 0.944233, 0.94627, 0.947106, 1.00857, 0.977527, 0.955534, 0.955822, 0.954982, 0.956102, 0.956807, 0.957055, 0.9578, 0.959555, 0.959713, 0.954971, 0.955879, 0.956187, 0.959325, 0.969791, 0.961302, 0.960811, 0.960974, 0.960753, 0.960489, 0.960182, 0.956804, 0.960889, 0.962147, 0.961704, 0.961563, 0.964847, 0.966602, 0.966292, 0.964003, 0.966016, 0.969481, 0.967841, 0.967933, 0.96723, 0.966375, 0.966284, 0.966231, 0.966816, 0.966427, 0.96576, 0.964907, 0.964774, 0.966445, 0.965419, 0.968733, 0.968988, 0.970513, 0.973095, 0.972652, 0.96814, 0.96212, 0.961901, 0.962669, 0.961807, 0.964657, 0.964354, 0.96432, 0.963172, 0.963742, 0.964396, 0.964308, 0.964343, 0.967695, 1.0161, 1.01642, 0.973989, 0.97478, 0.972494, 0.971119, 0.968694, 0.969858, 0.97155, 0.969899, 1.16681, 1.04284, 1.05009, 1.02581, 1.1979, 1.13228, 0.985739, 0.980279, 0.970874, 0.966873, 0.967996, 0.968788, 0.953148, 0.968665, 0.968054, 0.928421, 0.97512, 0.966459, 0.964427, 0.963523, 0.962741, 0.983504, 0.98065, 0.984765, 0.989086, 0.988885, 0.977078, 0.975465, 0.973685, 0.982334, 0.982532, 0.983496, 0.970615, 0.971824, 0.974377, 0.976894, 0.992163, 1.17445, 0.972402, 0.972186, 0.970734, 0.973044, 0.973989, 0.97333, 0.970233, 0.970055, 0.97112, 1.08103, 0.975286, 0.972761, 0.973951, 0.975691, 0.978688, 0.979614, 0.981654, 0.982165, 0.985546, 0.983901, 0.981523, 0.97755, 1.0647, 0.984839, 1.29195, 0.998361, 0.997839, 0.998658, 0.997886, 0.996082, 0.997887, 0.998745, 0.997758, 0.993077, 0.99344, 0.990236, 0.990703, 0.985021, 0.989992, 0.990098, 1.06659, 0.991595, 0.990876, 0.987293, 0.987083, 0.979176, 0.983003, 0.98354, 0.981107, 0.97994, 0.978051, 0.9758, 0.976772, 0.97763, 0.977195, 0.973587, 0.971356, 0.971523, 0.973076, 0.972049, 0.973301, 0.973454, 0.974932, 0.973537, 0.97363, 0.97039, 0.972736, 0.973088, 0.968082, 0.966371, 0.966371, 0.970671, 0.974084, 0.974568, 1.0675, 1.06887, 1.17573, 1.07375, 1.2384, 1.15902, 1.16279, 0.985513, 0.986867, 0.98811
1.00597, 1.00273, 1.00134, 1.00186, 1.00321, 1.00787, 1.00801, 1.00432, 1.00659, 1.01042, 1.01092, 1.01241, 1.01418, 1.01417, 1.0136, 1.01205, 1.00849, 1.00249, 1.00192, 0.996059, 0.990438, 0.990426, 0.990982, 0.988745, 0.989279, 0.992817, 0.991688, 0.987125, 0.984627, 0.984559, 0.98435, 0.982535, 0.975655, 0.975839, 0.973683, 0.969236, 0.96737, 0.964695, 0.961522, 0.961166, 0.96011, 0.956899, 0.958385, 0.95672, 0.953171, 0.950775, 0.948851, 0.94729, 1.01534, 0.946357, 1.04317, 0.951184, 0.952707, 0.952702, 0.953488, 0.949938, 0.946571, 0.946362, 0.974976, 1.23632, 1.34286, 1.17948, 1.17437, 1.23946, 1.24156, 0.939058, 0.938535, 0.937311, 0.937154, 0.936401, 0.936903, 0.943154, 0.943355, 0.940518, 0.938958, 0.937202, 0.942191, 0.942018, 0.944078, 0.94255, 0.941588, 0.941429, 1.28273, 0.94122, 0.94018, 0.941123, 0.940597, 0.940375, 0.941285, 0.939309, 0.939006, 0.93899, 0.939534, 0.93947, 0.938914, 0.941354, 0.939389, 0.937784, 0.938161, 0.942459, 0.943014, 0.944986, 0.944935, 0.944833, 0.953337, 0.982221, 1.10946, 0.954974, 0.955768, 0.956001, 0.956934, 0.962451, 0.960903, 0.960366, 0.958869, 0.958475, 0.96309, 0.966313, 0.966192, 0.963084, 0.963921, 0.964756, 0.964133, 1.1711, 0.962858, 1.19081, 0.960527, 0.966857, 0.965517, 0.963796, 0.967017, 0.967369, 0.966902, 0.974409, 0.973471, 1.01635, 0.966218, 0.966412, 0.967756, 0.969772, 0.968951, 0.966653, 0.968001, 0.967579, 0.967662, 0.967013, 0.96718, 0.968101, 0.970065, 0.975339, 0.977601, 0.977321, 0.978247, 0.979172, 0.971921, 0.963061, 0.962903, 0.963243, 0.965875, 0.966282, 0.966045, 0.967181, 0.966837, 0.965892, 0.965152, 0.965013, 0.96451, 1.15749, 1.00555, 1.01732, 1.01875, 1.02181, 1.21602, 1.02223, 1.22303, 1.23788, 1.04002, 1.18272, 0.9951, 1.025, 1.02522, 0.945972, 0.944688, 0.992495, 0.995277, 0.971127, 0.976642, 0.979138, 0.980333, 0.980867, 0.952756, 0.976755, 0.945506, 0.942138, 0.955097, 0.95555, 0.944721, 0.970336, 0.970287, 0.959894, 0.960968, 0.987057, 0.990449, 1.09865, 0.980277, 0.981412, 0.980422, 0.981344, 0.982525, 1.01399, 1.01479, 0.973468, 0.975899, 0.979203, 0.989014, 0.989025, 1.08513, 0.972641, 0.972093, 0.974107, 0.975517, 0.975524, 0.975102, 0.974732, 0.973523, 0.975854, 0.976399, 0.977892, 0.974732, 0.97825, 0.979446, 0.977349, 0.983114, 0.983876, 0.985853, 0.987772, 0.98877, 0.990606, 0.984933, 0.988246, 0.988783, 0.992318, 0.996575, 0.998708, 1.00039, 0.997924, 0.997604, 0.997684, 0.998092, 0.99126, 0.991198, 0.992261, 0.994317, 0.992359, 0.994657, 0.996154, 0.992033, 0.993014, 0.991306, 0.987608, 0.98652, 0.986906, 0.982879, 0.982607, 0.982268, 0.980843, 0.979829, 0.980598, 0.980625, 0.979528, 0.979929, 0.978907, 0.971619, 0.970722, 0.971957, 0.971066, 0.97329, 0.975683, 0.978719, 0.980161, 0.975749, 0.97583, 0.976449, 1.21119, 0.976408, 0.973465, 0.970344, 0.973282, 0.97412, 0.973325, 0.974502, 1.06213, 1.06252, 1.19187, 1.19206, 1.06741, 1.00017, 1.00151, 1.14546, 0.989586
1.0075, 1.00696, 1.00114, 1.00094, 1.00222, 1.00696, 1.05206, 1.05327, 1.00768, 1.00889, 1.00996, 1.01022, 1.01498, 1.0147, 1.01216, 1.01149, 1.00924, 1.00526, 1.0034, 0.995501, 0.994987, 0.990897, 0.989702, 0.989552, 0.990878, 0.991421, 0.990952, 0.991226, 0.984751, 0.984833, 0.984888, 0.979799, 0.978849, 0.976592, 0.972676, 0.967506, 0.967005, 0.964529, 0.964218, 0.962166, 0.96211, 0.958542, 0.957579, 0.955217, 0.953052, 0.951973, 0.947579, 0.946153, 1.04988, 1.01433, 0.965887, 0.980201, 0.952854, 0.952848, 0.952206, 0.950724, 0.947387, 0.948364, 1.00117, 1.25117, 1.25569, 1.16053, 0.935688, 1.17879, 1.23955, 0.937665, 0.937751, 0.9387, 0.939605, 0.941821, 0.944762, 0.944997, 0.94564, 0.939919, 0.939756, 0.939897, 0.94228, 0.942272, 0.942878, 0.942743, 0.941781, 0.942084, 0.941597, 0.944238, 0.943029, 0.942636, 0.941365, 0.941441, 0.940927, 0.943865, 0.942025, 0.941978, 0.942305, 0.942293, 0.942727, 0.942879, 0.944131, 0.945268, 1.16023, 0.942952, 0.942111, 0.943582, 0.948045, 0.949304, 0.95173, 1.10572, 1.12764, 1.19586, 0.956727, 0.958164, 0.959029, 0.961261, 0.960573, 0.960559, 0.961001, 0.960217, 0.964109, 0.965237, 0.966562, 0.969965, 0.969771, 0.966883, 0.965733, 1.10155, 1.05464, 0.965381, 0.96711, 0.966647, 0.967624, 0.96601, 0.966818, 0.970288, 0.971269, 0.974004, 0.973462, 0.967343, 0.967038, 0.967166, 0.968143, 0.968823, 0.967711, 0.970471, 0.969899, 0.96978, 0.970172, 0.969581, 0.970321, 0.971304, 0.97321, 0.97554, 0.976812, 0.982344, 0.982445, 0.978535, 0.971184, 0.963755, 0.96346, 0.963407, 0.964615, 0.970109, 0.970123, 0.968534, 0.967933, 0.966785, 0.964615, 0.966148, 0.993923, 0.994188, 0.956461, 1.02317, 1.17886, 1.01967, 0.95319, 0.949844, 0.95154, 0.985648, 1.14455, 0.99078, 0.97808, 0.979816, 1.00292, 0.948644, 0.95266, 0.953378, 0.995237, 0.971299, 0.970734, 0.970936, 0.94499, 0.945679, 0.969889, 0.926355, 0.92672, 0.931915, 0.939097, 0.97801, 0.981414, 0.95451, 0.968529, 0.954345, 0.96971, 0.963995, 0.984966, 0.991914, 0.991576, 1.02934, 0.972059, 0.964691, 0.98338, 0.981395, 0.981319, 0.994435, 1.05422, 0.981021, 0.987338, 0.985429, 0.985904, 0.986665, 0.972701, 0.973076, 0.974521, 0.976212, 1.16164, 1.15987, 0.977287, 0.975285, 0.980763, 0.980729, 0.981563, 0.980361, 0.980843, 0.981676, 0.984458, 0.985254, 0.98624, 0.987489, 0.989058, 1.25507, 0.992773, 0.991579, 0.991952, 0.994757, 0.995528, 0.998103, 0.998902, 0.997568, 0.996754, 0.997568, 0.996965, 0.997691, 0.997813, 0.995751, 0.997207, 0.996036, 0.997278, 0.997289, 0.996257, 0.994235, 0.992028, 0.991096, 0.988747, 0.988469, 0.987362, 0.985729, 0.984947, 0.983447, 0.982285, 0.979111, 0.983821, 0.979996, 0.979029, 0.979993, 0.979206, 0.976724, 0.976511, 0.97692, 0.976435, 0.977514, 0.979093, 0.980001, 0.979977, 0.979024, 0.980283, 0.981384, 0.980241, 0.980446, 0.976857, 0.976562, 0.976743, 0.972066, 0.973472, 0.974123, 1.059, 1.05211, 1.05243, 1.15973, 1.14958, 0.998779, 1.14326, 1.14725
1.00764, 1.00758, 1.00671, 1.0032, 1.00417, 1.00661, 1.10952, 1.01792, 1.01664, 1.01161, 1.01085, 1.01157, 1.01227, 1.01408, 1.01298, 1.01146, 1.01124, 1.00891, 1.50848, 1.00105, 0.996583, 0.996215, 0.994303, 0.991337, 0.991184, 0.992053, 0.993152, 0.991533, 0.986757, 0.98789, 0.984559, 0.980064, 0.979782, 0.977711, 0.976777, 0.969435, 0.966453, 0.965411, 0.963801, 0.96175, 0.961746, 0.961467, 1.08844, 1.06124, 1.06156, 1.09022, 1.06867, 1.1802, 1.31224, 1.24034, 1.23964, 1.30933, 0.95325, 0.951242, 0.951662, 0.949933, 0.949228, 0.947825, 0.946542, 0.950688, 0.956495, 0.947206, 1.15724, 0.943042, 0.94422, 0.942053, 0.942867, 0.938961, 0.940111, 0.943531, 0.944774, 0.944376, 0.945202, 0.944939, 1.0987, 0.943184, 0.942717, 0.942524, 0.942701, 0.938608, 0.935113, 0.94598, 0.946174, 0.94298, 0.945614, 0.945575, 0.943421, 0.945582, 0.945795, 0.946887, 0.945125, 0.942663, 0.939647, 0.941273, 0.942642, 0.945297, 0.945926, 0.945748, 0.947097, 0.946073, 0.944536, 0.944594, 0.948951, 0.952194, 0.952363, 0.953125, 0.959525, 0.961075, 0.96101, 0.958825, 0.96049, 0.961623, 0.963926, 0.962997, 0.958618, 0.960425, 0.966968, 1.12045, 0.972112, 0.972946, 0.971042, 1.17688, 1.13821, 0.998331, 1.11368, 0.968739, 0.972801, 0.972038, 0.971634, 0.969607, 0.96984, 0.97125, 0.973039, 0.973509, 0.97403, 0.96788, 0.967746, 0.968321, 0.968684, 0.973363, 0.973166, 0.973112, 0.97329, 0.969723, 0.96978, 0.970952, 0.972563, 0.973494, 0.973846, 0.978803, 0.983445, 0.982464, 0.981415, 0.978234, 0.97671, 0.963297, 1.10497, 0.967363, 0.968542, 0.967727, 1.03898, 1.06349, 1.30007, 0.959824, 0.985319, 0.945579, 0.991989, 0.962977, 0.963266, 0.956027, 0.950677, 0.950082, 0.952779, 0.953833, 0.971749, 0.956405, 0.959559, 0.960602, 0.976564, 0.964293, 1.00301, 0.94029, 0.94096, 1.00615, 0.987994, 0.957189, 0.959983, 0.940296, 0.939741, 0.939357, 0.975134, 0.942263, 0.953245, 0.9666, 0.957296, 0.93596, 0.949559, 0.970322, 1.00559, 0.969688, 0.980082, 0.996461, 0.969814, 0.990685, 0.988621, 0.971183, 0.971442, 0.964132, 0.983465, 0.985223, 0.991368, 0.993335, 0.993298, 0.995477, 0.987466, 0.988071, 0.988272, 0.988474, 0.977897, 0.975927, 0.974866, 0.976896, 0.978957, 0.979811, 1.07402, 1.10806, 1.16347, 0.981025, 0.980994, 0.983752, 0.984803, 0.984975, 0.985337, 0.987, 0.987566, 0.988124, 0.988307, 0.989409, 0.99311, 0.992716, 0.993865, 0.992691, 0.993958, 0.994822, 0.999036, 1.00089, 1.00015, 0.995499, 0.995338, 0.995938, 0.997125, 0.996691, 0.996984, 0.997523, 0.99721, 0.99689, 0.997347, 0.996417, 0.996792, 0.994202, 0.992995, 0.988812, 0.98909, 0.988048, 0.988102, 0.986843, 0.985557, 0.985069, 0.986351, 0.9872, 0.980694, 0.983016, 0.98247, 0.977203, 0.977683, 0.976573, 0.978531, 0.97718, 0.978381, 0.979425, 0.983444, 0.984019, 0.98365, 0.983541, 0.984116, 0.980216, 0.980668, 0.975644, 0.976825, 0.97301, 0.973203, 0.974646, 0.976419, 1.05339, 1.05138, 1.04814, 1.38514, 1.14764, 1.14315, 1.00194
1.00787, 1.00783, 1.00655, 1.00624, 1.00462, 1.01881, 1.19144, 1.02178, 1.02064, 1.01923, 1.06415, 1.01863, 1.01442, 1.0115, 1.01199, 1.00939, 1.01044, 1.01107, 1.00507, 1.00251, 1.00371, 0.997594, 0.996073, 0.994235, 0.99452, 0.990702, 0.994321, 0.994049, 0.994256, 0.986969, 0.983913, 0.981332, 0.980824, 0.97975, 1.14529, 0.969932, 0.969903, 0.966626, 0.96645, 0.963587, 0.96274, 1.07756, 1.08899, 1.06362, 1.04293, 1.04377, 0.936013, 0.936267, 0.938736, 0.940272, 1.00047, 1.22032, 0.988698, 0.950554, 0.950205, 0.951011, 0.951353, 0.950706, 0.947094, 0.945436, 0.943645, 0.943857, 0.945106, 0.944262, 0.944558, 0.943354, 0.942883, 0.941902, 0.940482, 0.940816, 0.944467, 0.946126, 0.945838, 0.945908, 1.33564, 1.11185, 1.11329, 0.943521, 0.946635, 0.947561, 0.944414, 0.944494, 0.951348, 0.950562, 1.09758, 1.12653, 0.949109, 0.949711, 0.948926, 0.948899, 0.948362, 0.947161, 0.945827, 0.94467, 0.945515, 0.945472, 0.946631, 0.948394, 0.94943, 0.948338, 0.948225, 0.950558, 0.952582, 0.952906, 0.956692, 0.956293, 0.960972, 0.961532, 1.31265, 0.962543, 0.962945, 0.963367, 0.964434, 0.964662, 0.958577, 0.964153, 0.964375, 0.967789, 0.97072, 0.971701, 0.971967, 1.16105, 1.33054, 0.998863, 1.2649, 1.17011, 1.20959, 0.973234, 0.970957, 0.97162, 0.973203, 0.973429, 0.975155, 0.97588, 1.02045, 1.23521, 0.968789, 1.09855, 0.969726, 1.17629, 0.974898, 0.975071, 0.976869, 0.976765, 0.974469, 0.974762, 0.976333, 0.976541, 0.977309, 0.978387, 0.983275, 0.983595, 0.979849, 0.978149, 0.978044, 0.973128, 0.970262, 0.969281, 0.968819, 0.969962, 1.06754, 1.17339, 0.988968, 0.959392, 0.953361, 0.939759, 0.945594, 0.961158, 0.960588, 0.942612, 0.949624, 1.05223, 1.05221, 0.980481, 0.981864, 0.958618, 0.960038, 0.960428, 0.955317, 0.953027, 0.959899, 1.00796, 0.942598, 0.948199, 0.958384, 0.959405, 0.945292, 0.944366, 0.93795, 0.938555, 0.968982, 0.994198, 0.994781, 0.945604, 0.992775, 1.01554, 0.974539, 1.01275, 0.998645, 1.00091, 0.980215, 0.978586, 0.980176, 1.00775, 0.988094, 0.990377, 0.969718, 0.970287, 1.01815, 1.01847, 1.02172, 1.02094, 1.03007, 0.981158, 0.983614, 0.987732, 0.983873, 0.983705, 0.986738, 0.995478, 0.976796, 0.976306, 0.978149, 0.998615, 0.983989, 0.983847, 0.984698, 1.18053, 0.985686, 0.987545, 0.990416, 0.989186, 0.990348, 0.990384, 0.99033, 0.990679, 0.988864, 0.989409, 1.11574, 1.04965, 1.05013, 0.99426, 0.995278, 1.11966, 1.00065, 1.00084, 1.00122, 0.997507, 0.997416, 0.996335, 0.995758, 0.995251, 0.995897, 0.996835, 0.998069, 0.996139, 0.99494, 0.995249, 0.99646, 0.996826, 0.994343, 0.992703, 0.99065, 0.989063, 0.988933, 0.986866, 0.986956, 0.986465, 0.989139, 0.988034, 0.987746, 0.982062, 0.980185, 0.981065, 0.98111, 0.98174, 0.983858, 0.983286, 0.983204, 0.982164, 0.984497, 0.985922, 0.987047, 0.98503, 0.985648, 0.987102, 0.981918, 0.983504, 1.1762, 0.976246, 0.976745, 0.976658, 0.978714, 1.15024, 1.00458, 1.0466, 1.04482, 1.04469, 1.17432, 1.01234
1.18287, 1.20779, 1.09857, 1.00827, 1.00808, 1.00853, 1.01155, 1.02203, 1.02288, 1.092, 1.23375, 1.06756, 1.0768, 1.0185, 1.1605, 1.00841, 1.00869, 1.00125, 1.00126, 1.00532, 1.00312, 1.00384, 0.994061, 0.993903, 0.995193, 0.992213, 0.994845, 0.99636, 0.996205, 0.995144, 0.98322, 0.981636, 0.978965, 0.980008, 1.14458, 0.974126, 0.971529, 0.969575, 0.966135, 0.965436, 1.12209, 1.03623, 1.04008, 1.03228, 1.08848, 0.940371, 0.937343, 0.93803, 0.937621, 0.937906, 1.04244, 1.31293, 0.986977, 1.22082, 0.951557, 0.952034, 0.950707, 0.952113, 0.950672, 0.946714, 0.944121, 0.946142, 0.947019, 0.945671, 0.9456, 0.945946, 0.943735, 0.943558, 0.942791, 0.943441, 0.944476, 0.94574, 0.958637, 0.973304, 0.947237, 0.947445, 0.991614, 0.988413, 1.03201, 0.955297, 0.949758, 0.953746, 0.954132, 0.953011, 1.15732, 1.01568, 0.954178, 0.954168, 0.952533, 0.95051, 0.949982, 0.949213, 0.945036, 0.945517, 0.948959, 0.949077, 0.949319, 0.949734, 0.95058, 0.949947, 0.956929, 0.955868, 0.954933, 0.951553, 0.946675, 0.946238, 0.959048, 0.963208, 0.967031, 0.967357, 0.965201, 0.963325, 0.96404, 0.964108, 0.965119, 0.965193, 0.971602, 0.97087, 0.97166, 0.973364, 0.973255, 0.987966, 1.32186, 1.32242, 1.21587, 0.977295, 0.977362, 1.1957, 1.02206, 1.18357, 1.20913, 0.974505, 0.975458, 0.973814, 0.973294, 0.973184, 1.10874, 1.10138, 1.09421, 1.08876, 0.976233, 0.977613, 0.982554, 0.982125, 0.979383, 0.978151, 0.977883, 0.978759, 0.977016, 0.977888, 0.982291, 0.983488, 0.98363, 1.0946, 0.9701, 0.973075, 0.973691, 0.993879, 0.99418, 0.991504, 0.993215, 0.963474, 0.945925, 0.948732, 0.951105, 0.949319, 0.959222, 0.939038, 0.937286, 0.957937, 0.946263, 0.953453, 1.01509, 0.961565, 0.964119, 0.960923, 0.958017, 0.959552, 0.959136, 0.957048, 0.989927, 0.986196, 0.9755, 0.951332, 0.953163, 0.958485, 0.990944, 0.97397, 0.949879, 0.96252, 0.963112, 0.9714, 0.971324, 0.994234, 0.960777, 0.991182, 0.987381, 0.980736, 1.00465, 1.00411, 0.988934, 0.985677, 0.986905, 1.03784, 1.0384, 0.98182, 0.982919, 0.960429, 0.961387, 0.961032, 0.956274, 1.03649, 1.03433, 1.04927, 0.977731, 0.977206, 1.01506, 0.982369, 0.98619, 1.0114, 0.982192, 0.983415, 1.17723, 0.989991, 0.983795, 0.984091, 0.986362, 0.987295, 1.2156, 1.36127, 0.992119, 0.993032, 0.992804, 0.994851, 0.9947, 0.992911, 0.989908, 0.989539, 1.11183, 1.11026, 1.07096, 1.00861, 1.00916, 1.24302, 1.01201, 1.02539, 1.00439, 1.00614, 1.13565, 0.992565, 0.993781, 0.997422, 0.998498, 1.00072, 0.998765, 0.998267, 0.998492, 0.998058, 0.99916, 0.999217, 0.999696, 0.995674, 1.12898, 0.990629, 0.988673, 0.989181, 0.988365, 0.990651, 0.987892, 0.988688, 0.9896, 0.976727, 0.980001, 0.983175, 0.983911, 0.984822, 0.983779, 0.983956, 0.987404, 0.981721, 0.984122, 0.984407, 0.987646, 0.988346, 0.989703, 0.988647, 0.986368, 0.985693, 0.98606, 0.985284, 0.976953, 0.977051, 0.977515, 0.979479, 0.984134, 0.988044, 1.04102, 1.03992, 1.36357, 1.3649
1.23353, 1.1508, 1.25015, 1.01351, 1.01124, 1.0122, 1.01471, 1.17815, 1.03245, 1.03241, 1.03293, 1.24503, 1.60367, 1.07432, 1.15921, 1.27945, 1.00785, 1.00767, 1.00785, 1.00682, 1.00343, 1.0038, 1.00328, 0.994897, 1.24483, 0.992571, 0.992341, 0.99685, 0.996309, 0.994178, 0.986732, 0.982416, 0.982081, 0.980872, 0.980336, 0.980217, 0.97468, 0.97009, 0.970131, 1.14379, 1.06247, 1.03744, 1.03652, 1.03934, 1.09043, 0.939916, 0.939205, 0.938919, 0.939278, 0.939543, 0.94036, 0.94056, 0.94233, 0.942563, 0.942743, 0.952079, 0.951655, 0.951456, 0.949401, 0.94915, 0.946608, 0.949469, 0.947208, 0.948565, 0.946368, 0.945922, 0.945274, 0.945547, 0.947378, 0.946749, 0.947987, 0.947961, 0.94891, 0.949264, 0.949108, 0.94984, 0.949172, 0.950266, 0.957161, 0.949985, 0.950193, 0.957569, 0.956865, 0.959168, 0.989349, 1.14413, 0.953998, 0.954381, 0.952729, 0.951797, 0.951549, 0.950243, 0.949097, 0.947161, 0.949333, 0.950926, 0.947782, 0.948341, 0.952482, 0.956809, 0.956734, 0.956547, 0.95275, 0.94619, 0.946367, 0.947145, 0.95719, 0.964664, 0.966296, 0.966657, 0.967775, 0.968863, 0.968617, 0.966202, 0.964083, 0.969827, 0.971152, 0.972846, 0.97714, 0.977154, 0.976893, 1.19547, 1.1208, 1.21953, 0.979596, 0.979297, 0.978081, 1.02221, 1.20179, 1.01808, 1.0369, 1.03732, 1.1799, 0.972467, 0.972361, 1.17826, 1.00308, 1.00587, 1.17589, 0.997404, 1.20378, 0.981773, 0.982814, 0.982651, 0.983741, 0.982346, 0.982362, 0.984645, 0.984242, 0.978849, 0.982449, 0.981694, 0.981572, 0.976807, 0.971073, 0.968981, 1.01192, 0.95994, 0.99351, 1.00981, 0.980581, 0.943228, 0.941905, 0.940881, 0.980731, 0.939374, 0.951101, 0.939205, 0.950223, 0.958316, 0.964628, 1.03535, 1.04419, 0.960992, 0.964876, 0.964737, 0.959354, 1.01189, 0.957582, 1.00472, 1.0046, 1.00915, 1.00813, 1.00673, 1.01875, 0.972067, 0.986427, 0.981706, 0.983868, 0.971902, 0.98873, 0.997666, 0.989255, 0.981846, 1.02894, 1.04008, 0.986072, 1.02495, 0.994387, 0.970647, 1.05258, 0.978864, 0.978134, 0.991353, 0.983805, 0.982041, 0.986762, 0.974762, 1.07484, 0.95029, 0.956888, 1.00376, 0.969968, 0.980144, 0.980108, 1.00466, 0.988135, 0.983952, 0.993009, 1.00169, 1.00211, 0.990621, 0.99177, 0.99421, 0.990867, 0.987358, 0.98742, 0.987722, 0.990243, 0.990984, 0.991454, 0.991651, 0.994025, 0.995289, 0.9974, 0.996024, 0.996519, 0.991378, 0.992515, 1.13403, 1.05997, 1.01113, 1.01202, 1.01308, 1.0154, 1.01517, 1.0078, 1.00844, 1.00911, 1.11472, 1.00409, 1.00258, 1.00103, 0.999919, 1.04933, 0.99933, 1.04344, 1.00109, 0.998146, 0.998984, 0.999812, 0.999177, 0.995952, 0.993156, 0.991397, 0.990305, 0.994321, 0.994334, 0.991559, 0.992432, 1.14286, 1.1298, 0.981327, 0.983612, 0.986188, 0.987758, 0.987482, 0.990039, 0.989966, 0.990011, 0.990382, 0.986138, 0.990768, 0.992492, 0.991081, 1.07031, 0.980905, 0.983306, 0.984284, 0.986135, 0.987177, 0.986282, 1.15662, 1.14463, 1.15132, 0.988499, 1.03942, 1.03871, 1.03777, 1.03942
1.16106, 1.16019, 1.01952, 1.01842, 1.01361, 1.01502, 1.01471, 1.01518, 1.02901, 1.02862, 1.04631, 1.04822, 1.05522, 1.44336, 1.09233, 1.15728, 1.15503, 1.00797, 1.00595, 1.00497, 1.00179, 1.00412, 1.10953, 1.11063, 1.00309, 1.00202, 0.99936, 1.24761, 1.24261, 1.24697, 0.983832, 0.982202, 0.982566, 0.981977, 0.980494, 0.979324, 0.976557, 0.971409, 0.97063, 1.06628, 1.04966, 1.03208, 1.11861, 1.34901, 1.08438, 1.20425, 0.940408, 0.940005, 0.940744, 0.977362, 0.941257, 0.942101, 0.941928, 0.942472, 0.94376, 0.952222, 0.953162, 0.952633, 0.9526, 0.952973, 0.951912, 0.952145, 0.95239, 0.949605, 0.947743, 0.947504, 0.945828, 0.948576, 0.9465, 0.947233, 0.945889, 0.946511, 0.947527, 0.947525, 0.95062, 0.95196, 0.951709, 0.963155, 1.05428, 0.960745, 0.961298, 0.962534, 0.961777, 0.962462, 0.983139, 0.976492, 0.958204, 0.957009, 0.956152, 0.95652, 0.953344, 0.952632, 0.95063, 0.951054, 0.950881, 0.952732, 0.95784, 0.958089, 0.956564, 0.959318, 0.960045, 0.959695, 1.24531, 0.972925, 0.961134, 0.966622, 0.963445, 0.962786, 0.964081, 0.967721, 0.969828, 0.969574, 0.972156, 0.973181, 0.971492, 0.97352, 0.973431, 0.973834, 0.976975, 0.977283, 0.978353, 0.979345, 1.43044, 0.981127, 0.980659, 0.980793, 0.982275, 0.984824, 1.0182, 1.17518, 1.17323, 0.991046, 1.23405, 1.17631, 1.17438, 0.984225, 1.10993, 1.09577, 1.09453, 0.997489, 0.997584, 0.990028, 0.989539, 0.990159, 0.987468, 0.987095, 0.986234, 0.986267, 0.984495, 0.987641, 0.981325, 0.981408, 1.02005, 0.971986, 0.971703, 0.978362, 0.96445, 0.96538, 0.958304, 0.959014, 0.975816, 0.947141, 0.988786, 0.995534, 0.961056, 0.945574, 0.949001, 0.988917, 0.974225, 0.99205, 0.992261, 1.05136, 1.04568, 1.04691, 1.03776, 0.994304, 0.999011, 0.977892, 1.01714, 1.00067, 1.0085, 1.03993, 1.03932, 1.02196, 1.00612, 1.04189, 0.977369, 0.978856, 0.979218, 0.987375, 0.987229, 1.01879, 1.08502, 1.04821, 1.03, 1.01117, 1.01025, 1.0018, 0.966845, 0.967366, 0.969475, 1.02957, 1.01263, 0.985653, 0.986111, 1.05182, 1.07619, 1.07581, 0.970864, 0.972246, 0.973128, 0.976948, 0.977889, 0.988503, 0.990993, 1.05124, 0.988241, 0.993222, 1.00129, 1.00095, 1.02685, 0.991785, 0.992138, 0.99378, 0.977639, 0.97767, 0.978614, 1.03542, 0.989182, 0.992134, 0.99464, 0.994906, 0.994766, 0.996897, 0.997353, 0.997152, 0.997479, 1.1778, 1.26527, 1.11616, 1.01466, 1.01272, 1.13065, 1.01297, 1.01507, 1.01757, 1.01505, 1.01099, 1.00876, 1.00737, 1.00498, 1.00581, 1.00647, 1.17995, 1.07033, 1.10152, 1.00582, 1.00444, 1.00549, 1.0047, 0.999139, 0.999259, 0.998713, 1.10147, 1.08491, 0.995078, 0.993487, 0.99368, 0.994511, 1.1174, 1.13643, 1.3807, 1.03552, 1.03638, 0.988933, 0.989811, 0.99248, 0.993975, 0.992204, 0.989723, 0.990697, 0.99773, 0.996018, 0.994592, 1.23225, 1.15927, 0.982688, 0.982009, 0.983903, 0.983787, 0.991042, 0.989915, 0.989618, 1.1467, 0.989601, 1.23355, 0.994962, 0.997531, 1.1286, 1.03689
1.1537, 1.16592, 1.15734, 1.02148, 1.0165, 1.0162, 1.01481, 1.01742, 1.0294, 1.03024, 1.0876, 1.19994, 1.05561, 1.05708, 1.10669, 1.15314, 1.14973, 1.14932, 1.00387, 1.00266, 1.00189, 1.00458, 1.00477, 1.00905, 1.00123, 1.00126, 1.00041, 0.999568, 1.23104, 1.28759, 1.13903, 0.983869, 0.983602, 0.983238, 0.980299, 0.979297, 0.978713, 0.971772, 0.972122, 1.09802, 1.03518, 1.12813, 1.07451, 1.21907, 1.03627, 1.38524, 0.941971, 0.941977, 1.20551, 0.960513, 1.3071, 1.0075, 0.943646, 1.00538, 1.30389, 1.06774, 0.956168, 0.954797, 0.953792, 0.953885, 0.955737, 0.955875, 0.954974, 0.952223, 0.952554, 0.946652, 0.946891, 0.950853, 0.949723, 0.951475, 0.951701, 0.951757, 0.952417, 0.951608, 0.952549, 0.951326, 0.950765, 0.961454, 0.961653, 0.961876, 0.960959, 0.96165, 0.963047, 0.966245, 0.965379, 1.24155, 0.964612, 0.955185, 0.955611, 0.955897, 0.955192, 0.953896, 0.952496, 0.952626, 0.953524, 0.955711, 0.956998, 0.959051, 0.96087, 0.96118, 0.963583, 0.963608, 0.976591, 0.978485, 0.968496, 0.968159, 0.966624, 0.963524, 0.970228, 0.969855, 0.973095, 0.971821, 0.976493, 0.975361, 0.974713, 0.970226, 0.97174, 0.973513, 0.977396, 0.978492, 0.979144, 0.981182, 0.983156, 0.983583, 0.982122, 0.981678, 0.984007, 0.985039, 1.01785, 1.02306, 1.1642, 0.992363, 0.991683, 0.987707, 0.98593, 0.983562, 0.9855, 0.987355, 0.988421, 1.15948, 0.993114, 0.992573, 0.988844, 0.987397, 0.990956, 0.987383, 0.991472, 0.992311, 0.992078, 1.00039, 1.00002, 0.991996, 1.0397, 0.973722, 0.974145, 1.02162, 0.963854, 0.967993, 0.968174, 0.978001, 0.977766, 0.944875, 0.982066, 0.955759, 0.970516, 0.985885, 0.985966, 1.01548, 0.996374, 1.02473, 1.06985, 1.05094, 1.07152, 1.06992, 1.06658, 1.0401, 1.04008, 1.00574, 1.00175, 1.08059, 1.05355, 1.03686, 1.07865, 1.0565, 1.05989, 1.07989, 1.07917, 1.03325, 1.02596, 1.0389, 1.07017, 1.05313, 1.03588, 1.01191, 1.06065, 1.01504, 1.01483, 0.975997, 0.96786, 0.971271, 0.971131, 1.03097, 1.01429, 1.01408, 1.0134, 1.0228, 1.07717, 1.08156, 1.05572, 1.04095, 1.0423, 1.08385, 1.03258, 0.991469, 0.990777, 0.989304, 0.989918, 1.009, 1.0015, 1.02017, 1.01965, 1.02064, 1.07574, 0.962394, 0.963295, 0.990564, 0.978473, 0.980397, 0.963558, 0.991294, 0.993161, 0.992699, 0.994937, 0.995701, 0.997412, 0.998819, 1.00762, 1.17401, 1.16402, 1.24683, 1.01488, 1.0202, 1.02128, 1.1598, 1.17362, 1.01394, 1.01447, 1.01487, 1.01535, 1.00878, 1.00827, 1.00814, 1.00622, 1.00779, 1.05585, 1.05649, 1.00886, 1.00691, 1.00503, 1.00546, 1.00438, 1.00236, 1.00244, 1.00245, 1.05765, 1.12317, 0.99747, 0.997604, 1.14397, 1.1367, 1.09872, 1.09836, 0.994401, 1.0348, 1.03576, 0.992589, 0.99603, 1.66828, 1.01517, 1.00046, 0.99757, 0.997857, 0.998274, 1.14136, 1.01459, 1.01413, 0.984571, 0.98369, 0.984526, 0.985168, 0.987357, 0.991813, 0.995774, 0.995522, 0.994814, 0.994434, 0.996376, 0.999066, 1.00162, 1.03033
1.2844, 1.28471, 1.05348, 1.02208, 1.01891, 1.01461, 1.01341, 1.01349, 1.02626, 1.03092, 1.05773, 1.14408, 1.40916, 1.05939, 1.0596, 1.14863, 1.15369, 1.0122, 1.00519, 1.00216, 1.00169, 1.00438, 1.00769, 1.0075, 1.0039, 1.00389, 1.00457, 0.997107, 0.996669, 0.997016, 0.9882, 0.987257, 0.98506, 0.983263, 0.980719, 0.983355, 0.978453, 0.976994, 0.974615, 1.13928, 1.03534, 1.12891, 1.34279, 1.00792, 1.10392, 0.998634, 1.00103, 1.01279, 1.02928, 1.12677, 0.951009, 0.952045, 0.953599, 0.953382, 0.955245, 0.955082, 0.953846, 0.953227, 0.954921, 0.954958, 0.95576, 0.955935, 0.954983, 0.953699, 0.953887, 0.95326, 0.952482, 0.951903, 0.953627, 0.952873, 0.954343, 0.952429, 0.9522, 0.954403, 0.954692, 0.959227, 0.959606, 0.961844, 0.962464, 0.962804, 0.962948, 0.963335, 0.963461, 0.964193, 0.965298, 0.969189, 0.967768, 0.967648, 0.964921, 0.962745, 1.08805, 0.958723, 0.958873, 0.958307, 0.956142, 0.95685, 0.957693, 0.958419, 0.961793, 0.962849, 0.962869, 0.969682, 0.970879, 0.971673, 1.16103, 1.34458, 0.971671, 0.972382, 0.971346, 0.969991, 0.97102, 0.974864, 0.976204, 0.976907, 0.97222, 0.971699, 0.971909, 1.2358, 1.1021, 0.980159, 0.980211, 0.982572, 0.984143, 0.985, 0.983994, 0.984471, 0.985604, 0.988172, 0.996413, 0.999423, 1.00063, 0.999001, 1.15585, 1.02198, 0.989065, 0.987239, 0.990816, 0.990604, 0.990263, 0.990664, 0.993087, 0.991164, 0.991181, 0.987466, 0.985432, 0.980764, 0.991351, 0.981518, 0.991963, 0.998907, 1.02007, 0.977446, 1.00419, 0.971305, 1.00397, 1.05326, 1.0358, 0.969563, 0.971907, 0.979003, 0.984689, 0.986572, 0.963354, 0.986873, 0.988257, 0.995694, 1.01543, 1.01307, 1.06885, 1.06624, 1.08533, 1.0857, 1.10672, 1.06478, 1.09984, 1.09934, 1.03917, 1.04022, 1.08442, 1.08253, 1.07242, 1.07448, 1.10209, 1.0687, 1.07143, 1.07062, 1.05993, 1.03002, 1.05707, 1.07035, 1.07404, 1.09249, 1.03868, 1.02883, 1.02867, 1.02059, 1.01211, 1.02923, 0.980062, 0.98051, 0.989038, 0.990913, 1.06281, 1.06027, 1.04899, 1.08385, 1.08089, 1.12262, 1.12666, 1.04091, 1.04385, 1.0042, 1.00488, 0.996123, 0.99519, 1.01675, 1.0459, 1.00705, 1.00679, 1.00494, 1.06141, 0.980271, 1.01249, 1.01199, 0.976745, 0.983267, 0.985019, 0.986286, 0.967183, 1.10108, 0.992941, 0.994195, 0.995125, 0.996105, 0.998102, 1.00339, 1.00444, 1.31348, 1.31197, 1.01816, 1.0202, 1.02352, 1.02459, 1.02521, 1.14423, 1.01688, 1.01491, 1.01241, 1.01841, 1.24184, 1.24208, 1.18273, 1.00822, 1.00884, 1.01037, 1.01186, 1.01094, 1.00957, 1.00743, 1.00779, 1.00767, 1.00814, 1.0078, 1.01174, 1.00786, 1.00788, 1.00699, 1.00304, 1.00227, 0.99956, 1.00136, 1.06714, 0.997135, 1.03171, 1.03372, 1.03237, 1.00165, 1.00338, 1.00098, 1.00126, 0.999266, 1.00091, 1.00099, 1.12991, 1.07334, 1.01329, 0.985064, 1.01837, 1.07247, 0.994871, 0.990124, 1.00124, 1.00102, 0.997835, 0.997616, 0.998384, 1.14327, 1.12569, 1.00466, 1.0083
1.03208, 1.11597, 1.28501, 1.0255, 1.15038, 1.01593, 1.01271, 1.01259, 1.09137, 1.09157, 1.14717, 1.05383, 1.05355, 1.05945, 1.06169, 1.062, 1.31275, 1.18647, 1.17884, 1.00323, 1.00347, 1.00458, 1.00527, 1.00455, 1.00297, 1.00431, 1.00428, 1.00513, 1.12607, 1.18139, 0.989215, 0.987861, 0.985414, 0.983862, 0.983398, 0.982095, 0.98173, 0.97906, 0.977086, 1.03301, 1.08744, 1.1206, 1.09149, 1.0042, 1.00438, 1.0798, 1.0092, 1.02962, 0.998323, 1.03923, 0.952531, 0.951713, 0.954328, 0.953632, 0.955645, 0.954816, 0.954251, 0.954053, 0.954745, 0.955695, 0.954252, 0.954899, 0.955845, 0.956481, 0.959146, 0.958858, 0.959612, 0.9584, 0.956505, 0.956293, 0.956084, 0.955372, 0.954951, 0.956994, 0.95672, 0.956365, 0.960329, 0.963514, 0.966446, 0.967036, 0.967942, 0.967164, 0.970616, 0.969951, 0.96965, 0.969501, 0.970673, 0.967642, 0.967282, 0.967017, 0.964252, 0.961743, 0.959515, 0.958828, 0.959233, 0.959204, 0.959829, 0.961843, 0.963772, 0.965976, 0.966545, 0.967308, 0.968091, 0.973084, 0.972848, 0.973189, 0.973542, 0.972326, 0.972786, 0.970261, 0.972464, 0.973101, 0.974631, 0.974223, 0.972934, 0.974074, 0.976766, 0.979142, 0.98003, 0.981565, 0.982225, 0.984393, 0.984593, 0.983973, 0.985081, 0.984818, 0.987327, 0.991762, 0.997158, 0.999641, 1.00013, 1.00417, 1.00486, 1.0033, 0.994185, 0.994388, 0.992793, 0.992766, 0.990749, 0.990189, 0.991547, 0.991551, 1.0142, 1.0156, 0.99765, 0.989012, 0.990243, 0.99097, 0.987415, 0.98928, 0.99631, 0.998313, 0.99814, 0.989744, 1.02801, 1.03043, 1.0041, 1.06806, 1.00766, 1.00083, 1.01251, 1.01208, 1.02808, 0.991965, 0.983946, 1.04789, 1.00239, 1.04386, 1.0578, 1.04924, 1.055, 1.09163, 1.13381, 1.11475, 1.11492, 1.08628, 1.07668, 1.08483, 1.12236, 1.08637, 1.10134, 1.09138, 1.16249, 1.11536, 1.10971, 1.10893, 1.07317, 1.09349, 1.08501, 1.14792, 1.14386, 1.1501, 1.06577, 1.06292, 0.986156, 0.998669, 1.01277, 1.02175, 1.01937, 0.992852, 1.01214, 1.06477, 1.03254, 1.04382, 1.09096, 1.09016, 1.08537, 1.04051, 1.03927, 1.05315, 1.05299, 1.01878, 1.0195, 1.03696, 1.01568, 1.05595, 1.00558, 1.00881, 1.00851, 1.00881, 1.0407, 0.977669, 0.977083, 1.01721, 1.01228, 0.977927, 0.996394, 0.987631, 0.979177, 0.981108, 1.02623, 1.0273, 0.995429, 0.998395, 0.998511, 1.00284, 1.00472, 1.10885, 1.11077, 1.04604, 1.04465, 1.02379, 1.0251, 1.02516, 1.02112, 1.01819, 1.01596, 1.01629, 1.01779, 1.01877, 1.1846, 1.20543, 1.06338, 1.12215, 1.01317, 1.01307, 1.01352, 1.18821, 1.00968, 1.01123, 1.15179, 1.01027, 1.01143, 1.01271, 1.01278, 1.01089, 1.00269, 1.00225, 0.999409, 0.999335, 1.00013, 1.00098, 1.00113, 1.03141, 1.00333, 1.03062, 1.35127, 1.00794, 1.00211, 1.00494, 1.00447, 1.00092, 1.00167, 1.21785, 1.13015, 1.07048, 1.12639, 1.09868, 1.06104, 1.1811, 1.1503, 1.32795, 1.2068, 0.999462, 0.999077, 1.00014, 1.00164, 1.00289, 1.00812, 1.00915
1.03376, 1.04956, 1.02826, 1.0294, 1.02886, 1.01875, 1.01504, 1.01451, 1.01272, 1.01156, 1.16523, 1.25867, 1.23054, 1.05895, 1.0608, 1.06119, 1.17855, 1.1791, 1.00751, 1.00549, 1.0049, 1.00725, 1.0078, 0.992647, 1.00254, 1.00394, 1.0042, 0.999037, 0.998994, 1.00872, 0.989601, 0.990431, 0.988544, 0.986559, 0.984425, 0.985695, 0.978039, 0.978082, 0.976196, 0.969406, 1.09233, 1.03504, 1.07826, 1.10553, 1.38689, 1.08785, 1.02692, 1.07248, 1.23981, 0.956856, 0.95257, 0.950397, 0.954237, 0.959594, 0.956973, 0.955772, 0.957255, 0.956675, 0.957897, 1.28098, 1.40917, 0.95702, 0.960309, 0.963039, 0.964041, 0.963129, 0.962945, 0.962844, 0.961284, 1.27467, 1.19793, 0.992389, 0.959817, 0.959276, 0.959141, 0.959422, 0.966287, 0.965457, 0.967002, 0.968275, 0.967129, 0.968753, 0.973262, 0.971827, 0.972033, 0.972874, 0.972664, 0.971829, 0.970457, 0.969044, 0.96846, 0.965324, 0.964993, 0.962584, 0.958559, 0.962628, 0.962624, 0.963514, 1.15326, 0.969746, 0.970042, 0.973561, 0.971653, 0.973672, 0.97487, 0.974216, 0.977112, 0.985542, 1.01357, 1.16075, 0.974225, 0.974297, 0.976409, 1.14749, 0.975115, 1.03287, 0.978524, 0.978454, 0.97892, 0.983512, 0.983488, 0.983694, 0.985436, 0.986, 0.988095, 0.988167, 0.990135, 0.990573, 0.995549, 0.997927, 0.99788, 0.997716, 0.998672, 0.997613, 0.997675, 0.999393, 0.998864, 1.00065, 0.994373, 0.989278, 1.01212, 0.987067, 0.967678, 0.967983, 0.993524, 0.973704, 0.988697, 0.992512, 0.994066, 1.00545, 1.00518, 0.98267, 1.00241, 1.01604, 0.98436, 1.04497, 1.0446, 1.06692, 1.02548, 1.0472, 1.02264, 1.0246, 1.02123, 1.04387, 1.01089, 1.01128, 1.03377, 1.04732, 1.05374, 1.09753, 1.14307, 1.1893, 1.1391, 1.11112, 1.11233, 1.12344, 1.09331, 1.11179, 1.13608, 1.20522, 1.10828, 1.1103, 1.13088, 1.15675, 1.15418, 1.14644, 1.20915, 1.1519, 1.13999, 1.11659, 1.19133, 1.14981, 1.10194, 1.14611, 1.01226, 1.03415, 1.00191, 1.0016, 1.00358, 1.02578, 1.01535, 1.0564, 1.08013, 1.08154, 1.1165, 1.11189, 1.1117, 1.12217, 1.12796, 1.07192, 1.06484, 1.05, 1.02957, 1.0215, 1.02261, 1.03651, 1.00552, 1.00468, 1.00425, 1.00082, 0.979577, 0.97924, 0.977496, 1.01545, 0.980512, 0.976918, 0.977428, 0.987556, 0.988419, 0.980037, 1.00775, 0.992179, 0.993051, 0.997706, 0.999994, 1.00471, 1.00762, 1.16364, 1.16364, 1.27127, 1.03639, 1.03639, 1.14837, 1.02125, 1.02094, 1.02026, 1.019, 1.01952, 1.01726, 1.02704, 1.04982, 1.07396, 1.06734, 1.01512, 1.01236, 1.01389, 1.01352, 1.0144, 1.29279, 1.12866, 1.01281, 1.01474, 1.01584, 1.01587, 1.01045, 1.00768, 1.00802, 1.00484, 0.999631, 0.998715, 0.998102, 0.998892, 1.12806, 1.02574, 1.00592, 1.0263, 1.14962, 1.00889, 1.00966, 1.00962, 1.00766, 1.00532, 1.0031, 1.08162, 1.1157, 1.03016, 1.11701, 1.09428, 1.09802, 1.07362, 1.07334, 1.08596, 1.17139, 1.00489, 1.0039, 1.00175, 1.00541, 1.00467, 1.00747, 1.03296
1.03311, 1.03382, 1.04971, 1.02835, 1.02852, 1.02945, 1.02164, 1.0164, 1.01309, 1.01165, 1.01491, 1.32884, 1.17756, 1.20304, 1.10962, 1.11327, 1.11316, 1.28513, 1.00795, 1.00662, 1.00631, 1.00691, 1.00683, 1.00723, 1.00477, 1.00409, 1.0025, 1.0027, 1.01695, 0.986855, 0.986998, 0.990427, 0.988573, 0.988908, 0.988181, 0.985476, 0.982495, 0.97437, 0.971174, 0.971051, 1.08437, 1.00139, 1.07808, 1.04743, 0.99718, 0.963237, 0.964215, 0.958722, 0.959207, 0.95895, 0.956146, 0.955196, 0.95453, 0.958196, 0.960153, 0.963073, 0.963716, 0.963829, 0.963608, 0.964076, 1.06031, 0.961387, 0.963029, 0.962661, 0.961576, 0.961362, 0.963335, 0.962933, 1.04168, 0.969746, 0.965623, 0.963914, 0.962918, 0.962145, 0.962205, 0.963014, 0.963807, 0.968127, 0.968962, 0.970006, 0.972847, 0.974296, 0.973827, 0.971385, 0.971952, 0.971733, 0.973755, 0.973551, 0.97699, 0.973563, 0.971265, 0.970285, 1.03042, 0.966479, 0.966961, 0.965215, 0.965114, 0.970185, 0.970472, 0.971583, 0.972722, 0.973444, 1.13163, 0.982535, 0.981667, 0.977263, 0.9785, 0.982917, 0.983152, 0.983784, 0.980109, 0.981991, 0.982857, 0.987748, 0.984791, 0.985652, 0.986829, 0.984469, 0.985809, 0.986592, 1.14265, 0.987381, 0.988957, 0.988353, 0.989582, 0.990481, 0.991098, 0.993477, 0.994826, 0.99801, 0.997087, 0.999047, 0.997714, 0.995765, 0.994708, 0.994554, 1.00318, 1.00379, 0.992432, 0.981171, 0.98169, 0.978401, 0.973734, 0.971973, 0.968472, 0.974613, 0.972181, 0.982331, 0.990959, 0.99993, 1.00671, 0.994736, 0.997078, 0.998644, 1.02316, 1.04164, 1.0944, 1.11986, 1.14701, 1.08833, 1.05309, 1.10811, 1.07087, 1.10222, 1.04777, 1.07264, 1.11154, 1.11369, 1.0996, 1.14976, 1.14975, 1.16072, 1.18112, 1.19121, 1.17788, 1.17823, 1.18133, 1.13576, 1.13717, 1.12495, 1.12543, 1.17363, 1.1886, 1.18502, 1.2126, 1.21286, 1.20836, 1.15286, 1.20408, 1.15714, 1.1558, 1.1838, 1.16054, 1.1633, 1.09514, 1.14634, 1.04063, 1.06324, 1.07269, 1.03059, 1.08794, 1.08842, 1.07229, 1.1169, 1.10789, 1.10902, 1.1114, 1.112, 1.12753, 1.09797, 1.08483, 1.07474, 1.05479, 1.0459, 1.02054, 1.02051, 1.03283, 1.00228, 1.00148, 1.00086, 0.983608, 0.983701, 0.980599, 0.981757, 0.974245, 0.973468, 0.975991, 1.00183, 0.981304, 0.983625, 0.989132, 0.988925, 0.996732, 1.07739, 0.999754, 1.2499, 1.03267, 1.0742, 1.06459, 1.03527, 1.03597, 1.03724, 1.03429, 1.03215, 1.3022, 1.02644, 1.02725, 1.23729, 1.26445, 1.02665, 1.02734, 1.06095, 1.06077, 1.0193, 1.01638, 1.01505, 1.01497, 1.01607, 1.0181, 1.01894, 1.01594, 1.01448, 1.01359, 1.01234, 1.01264, 1.00895, 1.00924, 1.00616, 1.0015, 1.00124, 0.998377, 1.00129, 1.00856, 1.00894, 1.00842, 1.11337, 1.02298, 1.10846, 1.01193, 1.0116, 1.01253, 1.14246, 1.00651, 1.00535, 1.00622, 1.13674, 1.0282, 1.07052, 1.06908, 1.09812, 1.07378, 1.07386, 1.07493, 1.00869, 1.00969, 1.01054, 1.00977, 1.00887, 1.0094, 1.01954
1.03392, 1.04047, 1.04459, 1.02964, 1.03009, 1.02623, 1.0252, 1.02339, 1.02253, 1.01531, 1.01518, 1.02122, 1.16522, 1.0764, 1.08109, 1.10963, 1.12534, 1.2779, 1.00782, 1.00787, 1.00747, 1.01192, 1.00888, 1.00885, 1.00495, 1.00445, 1.00122, 1.00162, 0.9954, 0.998183, 1.00562, 0.994815, 0.994107, 0.991514, 0.990416, 0.988167, 0.986737, 0.974466, 0.972386, 0.971474, 1.21841, 1.22439, 1.06786, 1.0877, 0.967172, 0.963634, 0.963441, 0.963927, 0.96014, 0.960634, 0.960244, 0.957589, 0.954052, 0.959752, 0.961488, 0.962396, 0.965268, 0.965397, 0.966418, 0.9663, 0.966368, 0.965878, 0.965393, 0.964329, 0.961979, 0.961288, 0.962436, 0.961857, 0.962586, 0.988031, 0.971621, 0.971314, 0.967645, 0.966804, 0.966507, 0.96611, 0.966733, 0.967888, 0.96901, 0.971027, 0.973519, 0.97415, 0.973727, 0.973372, 0.971645, 0.973621, 0.974237, 0.974717, 0.975855, 0.9772, 0.977819, 0.976175, 1.02498, 1.02493, 1.02503, 0.968253, 0.970757, 0.97318, 0.972306, 0.97769, 0.97761, 0.983037, 0.983635, 0.983129, 0.983292, 0.983639, 0.983874, 0.983728, 0.984483, 0.983513, 0.98343, 0.98355, 0.983762, 0.985781, 0.985747, 0.985938, 0.986875, 0.988768, 0.988612, 0.991684, 0.991976, 0.98726, 0.986367, 0.987136, 0.988639, 0.989778, 0.993601, 0.994237, 1.0071, 1.00589, 0.997631, 0.997662, 0.997477, 0.997307, 0.996774, 0.995816, 0.998348, 0.999223, 0.993873, 1.02232, 0.980254, 0.98803, 0.9916, 0.998196, 1.00628, 0.99111, 0.986192, 0.985819, 1.00171, 0.99829, 1.01075, 1.00653, 1.0158, 1.01826, 1.01977, 1.08716, 1.10612, 1.1132, 1.13883, 1.15985, 1.16383, 1.10591, 1.08111, 1.09884, 1.08073, 1.14878, 1.11889, 1.12756, 1.17326, 1.2118, 1.18791, 1.20273, 1.18014, 1.18043, 1.14837, 1.14954, 1.1507, 1.13593, 1.13481, 1.14945, 1.16242, 1.21557, 1.22992, 1.23171, 1.23658, 1.1911, 1.24072, 1.20874, 1.20859, 1.18463, 1.18504, 1.19108, 1.19048, 1.19131, 1.14188, 1.16182, 1.11101, 1.11296, 1.14953, 1.12372, 1.13922, 1.20516, 1.17053, 1.19808, 1.20491, 1.13961, 1.15668, 1.14601, 1.14699, 1.10565, 1.15684, 1.15714, 1.12707, 1.16042, 1.04296, 1.02991, 1.01684, 1.02291, 1.00849, 1.00635, 1.01835, 0.983268, 0.980782, 1.02044, 1.02148, 0.969014, 0.969581, 0.967946, 0.968253, 1.01461, 1.07327, 1.07346, 0.985611, 0.991434, 0.98681, 0.989899, 1.25067, 1.24288, 1.02669, 1.02835, 1.0323, 1.03503, 1.03272, 1.03221, 1.0305, 1.03182, 1.02848, 1.02967, 1.31963, 1.03221, 1.03319, 1.23228, 1.2816, 1.02279, 1.02311, 1.21875, 1.1464, 1.16548, 1.01891, 1.21611, 1.20837, 1.01399, 1.01576, 1.01663, 1.01665, 1.01693, 1.00968, 1.09553, 1.02807, 1.02786, 1.02942, 1.00825, 1.00878, 1.01102, 1.0128, 1.0155, 1.01519, 1.02411, 1.02299, 1.01577, 1.01479, 1.01463, 1.00822, 1.09347, 1.13075, 1.08086, 1.13335, 1.12884, 1.2136, 1.06807, 1.02172, 1.02118, 1.01765, 1.01628, 1.01545, 1.06291, 1.01789, 1.01585, 1.01495, 1.01747
1.03967, 1.03973, 1.03887, 1.166, 1.03665, 1.05703, 1.02575, 1.02493, 1.02487, 1.01964, 1.02024, 1.02026, 1.02038, 1.20149, 1.19889, 1.12304, 1.31554, 1.31478, 1.10547, 1.01464, 1.01474, 1.01456, 1.01259, 1.00795, 1.00772, 1.00182, 1.00156, 0.996108, 0.996298, 0.996926, 0.999031, 0.998284, 0.996648, 0.99508, 0.99319, 0.986846, 0.978163, 0.978308, 0.97067, 0.970317, 0.969943, 1.05387, 1.16759, 0.970246, 0.969815, 0.967006, 0.966357, 0.964465, 0.961738, 0.960159, 0.957269, 0.954449, 0.961398, 0.96356, 0.963672, 0.964881, 0.963521, 0.965861, 0.977159, 0.974041, 0.973512, 0.973368, 0.975008, 0.977297, 0.990703, 1.37541, 1.05995, 0.9655, 0.968265, 0.967804, 1.0298, 0.967013, 0.96881, 0.968588, 0.971463, 0.973122, 0.972077, 0.971006, 0.972416, 0.97301, 0.973928, 0.974138, 0.97458, 0.974556, 0.974878, 1.04627, 0.975513, 0.975242, 0.976041, 0.97755, 0.978278, 0.979425, 1.07772, 1.16115, 1.16046, 1.33419, 1.14355, 0.976226, 0.97666, 0.979788, 0.984887, 0.98423, 0.984293, 0.98365, 0.983981, 0.98397, 0.984994, 0.985006, 0.985227, 0.986286, 0.984278, 0.983732, 0.987029, 0.98792, 0.986906, 0.987532, 0.990763, 0.991318, 0.995888, 0.993804, 0.991989, 0.989974, 0.987127, 0.986084, 0.986833, 0.987273, 0.991968, 0.992514, 1.00775, 1.0049, 1.00187, 0.999255, 0.999581, 0.996247, 0.996198, 1.00087, 0.998403, 0.996871, 1.003, 0.970814, 0.970834, 0.965997, 0.990376, 1.01602, 0.998398, 1.0154, 1.00566, 0.979928, 1.04623, 1.02339, 1.01855, 1.04452, 1.04455, 1.09554, 1.12484, 1.11295, 1.11985, 1.16389, 1.14327, 1.22556, 1.16665, 1.15454, 1.10223, 1.13042, 1.13314, 1.13247, 1.12918, 1.17381, 1.17267, 1.22952, 1.18901, 1.18905, 1.18967, 1.18791, 1.19954, 1.20558, 1.21488, 1.15583, 1.15718, 1.15626, 1.18361, 1.24384, 1.21612, 1.21536, 1.2416, 1.26825, 1.19564, 1.24232, 1.24215, 1.25672, 1.24379, 1.22175, 1.21635, 1.17946, 1.20468, 1.2054, 1.24028, 1.16375, 1.18508, 1.18277, 1.18483, 1.1873, 1.18643, 1.22958, 1.22411, 1.21054, 1.21188, 1.20576, 1.19527, 1.15676, 1.18805, 1.16346, 1.19779, 1.17806, 1.05548, 1.05488, 1.04738, 1.04706, 1.03294, 1.00473, 0.987949, 0.98705, 0.983175, 0.980118, 0.970876, 0.970195, 0.969254, 0.974193, 0.973234, 0.976031, 0.970815, 0.974328, 0.98359, 0.987589, 0.9803, 0.980765, 1.00311, 1.00395, 1.02678, 1.03083, 1.03302, 1.03249, 1.03113, 1.03191, 1.03009, 1.03197, 1.03154, 1.02853, 1.02951, 1.14229, 1.13377, 1.11999, 1.03211, 1.03262, 1.03188, 1.03223, 1.03188, 1.02932, 1.02883, 1.19872, 1.02366, 1.02514, 1.01791, 1.01563, 1.01714, 1.02494, 1.01846, 1.07108, 1.02859, 1.23289, 1.23593, 1.01176, 1.01011, 1.01162, 1.01524, 1.01592, 1.01764, 1.01822, 1.01898, 1.02077, 1.01894, 1.01818, 1.0181, 1.01114, 1.1436, 1.02667, 1.07759, 1.09567, 1.12926, 1.12736, 1.06522, 1.01785, 1.01749, 1.01817, 1.01941, 1.02405, 1.02515, 1.02542, 1.02109, 1.02231
1.04225, 1.0423, 1.04279, 1.04273, 1.03578, 1.03491, 1.02868, 1.02552, 1.02521, 1.01981, 1.01972, 1.02133, 1.02065, 1.02055, 1.1963, 1.12477, 1.36481, 1.10794, 1.12308, 1.01799, 1.01668, 1.01534, 1.01842, 1.21044, 1.00941, 1.00912, 1.00009, 0.994212, 0.993734, 0.998158, 0.998882, 1.00105, 0.999877, 1.00029, 0.991288, 0.990641, 0.980475, 0.978844, 0.970752, 0.97083, 0.970798, 1.25839, 1.07896, 0.974118, 0.972597, 0.973183, 0.968926, 0.9678, 0.965738, 0.966579, 0.966206, 0.96539, 0.963557, 0.965939, 0.965884, 0.97061, 0.967465, 0.973332, 0.973844, 0.973519, 0.973359, 0.973123, 0.973169, 0.979471, 0.9804, 0.977966, 1.2025, 0.967351, 0.969115, 0.969608, 0.969309, 1.01077, 0.968758, 0.970781, 0.974433, 0.975334, 0.976649, 0.974793, 0.972533, 0.973568, 0.974019, 0.976566, 0.977587, 0.977249, 0.977313, 1.0564, 1.29478, 0.976653, 0.976685, 0.979563, 0.980006, 0.980441, 0.978582, 1.16287, 1.00336, 1.15745, 1.52652, 0.980227, 0.981944, 0.982121, 0.983549, 0.987078, 0.98497, 1.00237, 0.984273, 0.984434, 0.986694, 0.986296, 0.985027, 0.99221, 0.991059, 0.990889, 0.991229, 0.993054, 0.99297, 0.992799, 0.99539, 0.996892, 0.997232, 0.997443, 0.992026, 0.992575, 0.991915, 0.98797, 0.987659, 0.990455, 0.990706, 1.00628, 1.00733, 1.00331, 1.00173, 1.00132, 0.998379, 0.995642, 0.99665, 0.99572, 0.992098, 0.989366, 0.985645, 0.999039, 0.998423, 0.963689, 1.0225, 1.00894, 1.01093, 0.998374, 1.01249, 1.01596, 1.0196, 1.0525, 1.07601, 1.06898, 1.06582, 1.08617, 1.07328, 1.09266, 1.19538, 1.16639, 1.16719, 1.16275, 1.18967, 1.14898, 1.14984, 1.17275, 1.1785, 1.1795, 1.14298, 1.14302, 1.20188, 1.19588, 1.1749, 1.18086, 1.18344, 1.1756, 1.1721, 1.20515, 1.17955, 1.17184, 1.17095, 1.20963, 1.21663, 1.20313, 1.21156, 1.2081, 1.25827, 1.20338, 1.27104, 1.2722, 1.32744, 1.32703, 1.25977, 1.27259, 1.26942, 1.24605, 1.24369, 1.2439, 1.22217, 1.23948, 1.23968, 1.23543, 1.2171, 1.21472, 1.23129, 1.23889, 1.23877, 1.20967, 1.20151, 1.21309, 1.19789, 1.19673, 1.1891, 1.17369, 1.17168, 1.16415, 1.11503, 1.08078, 1.07783, 1.03968, 1.06484, 1.00446, 1.00565, 1.07114, 0.986596, 0.988586, 0.972098, 0.972776, 0.980277, 0.97301, 0.97472, 0.975855, 0.976625, 1.03542, 0.980626, 0.984733, 0.996808, 0.995336, 1.02213, 1.00171, 1.00259, 1.22579, 1.0362, 1.03617, 1.03276, 1.0321, 1.03206, 1.03327, 1.25362, 1.25382, 1.0357, 1.07949, 1.07813, 1.07628, 1.03495, 1.03752, 1.03288, 1.03291, 1.03353, 1.03268, 1.03246, 1.03263, 1.02487, 1.02204, 1.02341, 1.32343, 1.0228, 1.02396, 1.02489, 1.32694, 1.24357, 1.0249, 1.01843, 1.01985, 1.01104, 1.01467, 1.01457, 1.01755, 1.01829, 1.01942, 1.01951, 1.01967, 1.0216, 1.0216, 1.01967, 1.21632, 1.13984, 1.14104, 1.08634, 1.21113, 1.0617, 1.2123, 1.06742, 1.02204, 1.02014, 1.02189, 1.02229, 1.02393, 1.0246, 1.2809, 1.24309, 1.02609
1.04722, 1.04679, 1.0436, 1.04432, 1.04222, 1.20243, 1.02896, 1.02661, 1.02675, 1.0238, 1.01989, 1.01976, 1.02086, 1.02191, 1.02521, 1.03368, 1.11587, 1.02641, 1.02452, 1.02449, 1.01853, 1.01757, 1.01742, 1.01744, 1.01115, 1.0081, 1.0071, 1.18501, 0.99618, 0.996969, 0.998064, 0.999504, 0.999289, 0.997839, 0.99984, 0.992328, 1.06135, 1.06396, 1.05443, 1.12268, 1.3086, 1.2352, 0.97697, 0.976356, 0.974641, 0.973233, 0.971254, 0.969721, 0.966921, 0.966782, 0.966274, 0.966196, 0.966725, 0.969792, 0.968976, 0.969057, 0.970051, 0.973356, 0.974294, 0.973498, 0.973239, 0.973029, 0.971355, 0.972171, 0.970185, 0.970152, 1.05755, 0.971953, 0.969905, 0.969687, 0.969683, 1.03167, 1.02295, 0.973099, 0.974071, 0.978544, 0.979888, 0.979503, 0.975935, 0.975451, 0.97572, 0.977198, 0.97847, 0.981001, 0.981127, 1.03919, 1.06355, 0.980047, 0.979917, 0.981043, 0.982718, 0.984746, 0.984781, 1.15709, 1.00241, 0.999986, 1.15292, 1.01221, 0.981385, 0.981665, 0.9887, 0.989252, 0.990635, 1.00241, 1.00305, 1.00923, 0.988965, 1.3973, 1.00413, 1.47106, 1.11687, 0.99436, 0.997146, 0.995645, 0.995942, 0.997514, 0.997494, 0.998129, 1.00799, 1.08415, 0.99689, 0.992508, 0.993916, 0.993256, 0.992045, 0.992238, 1.00104, 1.00127, 1.00006, 1.00101, 1.0011, 0.996677, 0.992463, 0.991479, 0.996426, 0.997108, 0.99174, 0.99414, 0.978369, 0.97742, 0.975257, 0.975078, 1.00091, 1.01295, 1.02862, 1.00017, 1.04262, 1.05514, 1.04603, 1.06219, 1.05494, 1.10468, 1.10467, 1.10878, 1.10767, 1.09134, 1.15404, 1.16833, 1.1739, 1.21486, 1.22121, 1.22348, 1.22503, 1.22475, 1.25005, 1.18128, 1.19214, 1.17811, 1.18608, 1.18253, 1.23559, 1.19874, 1.18153, 1.27151, 1.21269, 1.20416, 1.29989, 1.2742, 1.2706, 1.21011, 1.19591, 1.19869, 1.18677, 1.25646, 1.19461, 1.19354, 1.26969, 1.26615, 1.26501, 1.25226, 1.25224, 1.29533, 1.26887, 1.22985, 1.231, 1.22977, 1.28174, 1.27966, 1.22192, 1.24439, 1.27698, 1.25842, 1.24752, 1.29339, 1.29934, 1.23439, 1.2686, 1.24581, 1.20497, 1.26059, 1.20826, 1.20924, 1.22372, 1.16803, 1.13995, 1.11757, 1.08205, 1.07324, 1.04459, 1.05439, 1.02215, 1.01338, 1.04295, 1.0277, 0.972017, 0.976965, 0.976861, 0.971122, 0.972116, 0.977301, 0.984858, 0.985739, 0.981989, 0.982286, 1.00991, 1.01142, 1.01817, 1.00322, 1.00453, 1.00478, 1.07324, 1.07688, 1.03634, 1.03602, 1.03555, 1.04018, 1.04131, 1.32987, 1.03573, 1.07926, 1.07978, 1.08193, 1.07445, 1.03572, 1.03544, 1.03538, 1.03572, 1.0352, 1.03564, 1.03042, 1.02927, 1.02463, 1.02533, 1.0242, 1.02592, 1.02753, 1.02717, 1.02875, 1.03055, 1.03305, 1.02213, 1.01972, 1.01737, 1.01745, 1.01531, 1.01685, 1.02005, 1.01986, 1.02201, 1.01927, 1.02007, 1.0227, 1.02259, 1.02344, 1.13933, 1.23036, 1.20924, 1.21029, 1.17776, 1.39957, 1.02706, 1.0667, 1.02551, 1.0232, 1.02392, 1.02396, 1.02748, 1.27785, 1.07132, 1.02646
1.04909, 1.04956, 1.04843, 1.04699, 1.04258, 1.19627, 1.03191, 1.02897, 1.02925, 1.02691, 1.02659, 1.02214, 1.02365, 1.02528, 1.02556, 1.02651, 1.02899, 1.02783, 1.02809, 1.02652, 1.02476, 1.01901, 1.01593, 1.01493, 1.0117, 1.01181, 1.18549, 0.994079, 0.992865, 0.998316, 0.996558, 0.994446, 0.998361, 0.997752, 0.995286, 0.994497, 0.991915, 0.988384, 1.11665, 1.02305, 0.977613, 0.978748, 0.978535, 0.976635, 0.974902, 0.973749, 0.973202, 0.970131, 0.969633, 0.969473, 0.969746, 0.966885, 0.970091, 0.971364, 0.973371, 0.97108, 0.971011, 0.973455, 0.973929, 0.974455, 0.973537, 0.972825, 0.97183, 0.971013, 0.969832, 0.969966, 0.973349, 0.973511, 0.97395, 0.974158, 0.970937, 0.980576, 0.980328, 0.980994, 0.976627, 0.977389, 0.978303, 0.97851, 0.978524, 0.977004, 0.978278, 0.980594, 0.982644, 0.982855, 0.983242, 1.11485, 1.24665, 0.984683, 0.983401, 0.982864, 0.983101, 0.985927, 0.987417, 1.0713, 1.06869, 0.997517, 1.00815, 0.985639, 0.986141, 0.986567, 0.988262, 0.988737, 0.997922, 0.996368, 0.999685, 1.0022, 1.11134, 1.00882, 1.00712, 1.00568, 1.0013, 1.00292, 1.0014, 1.00097, 1.00066, 1.00037, 1.11897, 1.01873, 1.21608, 1.08428, 1.08298, 0.992248, 0.993829, 0.993742, 1.00737, 1.00766, 0.995763, 0.995906, 0.995897, 0.995379, 0.995175, 0.995032, 0.988376, 0.988477, 0.98831, 0.98997, 0.990497, 0.990153, 0.974506, 0.998805, 0.970561, 0.991611, 1.0211, 1.03369, 1.0399, 1.03932, 1.06052, 1.06587, 1.06706, 1.10454, 1.10599, 1.12402, 1.12492, 1.09844, 1.11985, 1.11773, 1.13115, 1.14074, 1.19879, 1.24995, 1.23304, 1.24065, 1.2406, 1.21595, 1.19809, 1.19427, 1.21961, 1.19876, 1.1997, 1.19852, 1.22529, 1.21339, 1.21055, 1.26125, 1.29507, 1.29446, 1.29312, 1.30045, 1.30612, 1.19243, 1.19116, 1.19205, 1.20151, 1.25418, 1.20468, 1.2225, 1.24718, 1.26476, 1.28131, 1.29551, 1.29569, 1.28882, 1.27009, 1.28997, 1.27556, 1.22988, 1.233, 1.28312, 1.27508, 1.27388, 1.2788, 1.29228, 1.29188, 1.23833, 1.23781, 1.23337, 1.24663, 1.23642, 1.25685, 1.2469, 1.24747, 1.25349, 1.25383, 1.24767, 1.22059, 1.14906, 1.11941, 1.18528, 1.06722, 1.08559, 1.08732, 1.02272, 0.985768, 0.963633, 0.954668, 0.979823, 0.975156, 0.968948, 0.970688, 0.980869, 0.983773, 0.981409, 0.98139, 1.04308, 1.00986, 1.01155, 1.00823, 1.01116, 1.0098, 1.21964, 1.07215, 1.04264, 1.04223, 1.04049, 1.04049, 1.0398, 1.04119, 1.04232, 1.04093, 1.04156, 1.06636, 1.27216, 1.07686, 1.17085, 1.03565, 1.03578, 1.0372, 1.03616, 1.03399, 1.03433, 1.0342, 1.03128, 1.02943, 1.02821, 1.0308, 1.03237, 1.03001, 1.03069, 1.03206, 1.03059, 1.02582, 1.02169, 1.02187, 1.02125, 1.01737, 1.01981, 1.02096, 1.02283, 1.02341, 1.02276, 1.02252, 1.02152, 1.02197, 1.02359, 1.28869, 1.26669, 1.0837, 1.03751, 1.03706, 1.02961, 1.03061, 1.03092, 1.03106, 1.02754, 1.02552, 1.02599, 1.02934, 1.0317, 1.06726, 1.30748
