0.819375752993993,0.979788171525325,0.977453689003522,0.835462764092267,0.83281785396631,0.832686487028703,0.811633470996056,0.81194891899273,0.814257462819846,0.81223006097385,0.807910849942471,0.807823829805458,0.808242195848792,0.800397832536282,0.799038142895447,0.799465712991734,0.796020886990923,0.800065649897874,0.800681484713662,0.797849146600292,0.797383923560104,0.797824044637692,0.807031444519383,0.792054776900117,0.78902078635386,0.788748848425693,0.784156026001974,0.782509337255412,0.780698649019863,0.780073610151122,0.779794978366262,0.778764961167574,0.774838177484842,0.769797703394756,0.770096416749696,0.769209480737828,0.768171096218274,0.764476924055635,0.764062741672735,0.76323521363902,0.762436134496253,0.76541992111731,0.766454121976431,0.768030525227713,0.768709951682088,0.768428809700967,0.766454121976431,0.765496900469283,0.766910977695752,0.767028120187885,0.767612995916466,0.768245565373987,0.773930323170807,0.775547726294336,0.782671663280225,0.779573244363295,0.780854281187983,0.777343353352325,0.777502332448792,0.788117952432346,0.784504106550028,0.783377865161373,0.785478899430996,0.785841204424523,0.788271911136293,0.934002191742866,0.779796651830435,0.779404224481788,0.779902080073355,0.782705132563692,0.782726887597946,0.783231437046206,0.783708374335607,0.782239909523505,0.784158536198234,0.786713915990917,0.787920483659892,0.785611103100689,0.784973513250648,0.785563409371749,0.889789268283343,0.795588296502115,1.0348367755072,0.787524709382898,0.795888683321229,0.796102050003329,0.797927799416438,0.797804799799698,0.795768193900749,1.02146579676225,0.83302620025589,0.837719430530009,0.98851528718927,0.806456609575843,0.807061566874503,0.802386744706291,0.799627202284461,0.801577624778483,0.804837532988141,0.803125579138818,0.8044760647267,0.802882090101598,0.802905518600025,0.800980198068602,0.800248894224855,0.798114390671765,0.797691840967998,0.953154989206691,0.7942712801977,0.795098808231415,0.795518011006835,0.7943214841229,0.784371066148248,0.786247019486557,0.79104986166403,0.795021828879441,0.796978945230157,0.794426912365821,0.795481194795022,0.802601784852564,0.803031028413025,0.804086147574313,1.22859882481684,0.827872767334103,0.912757564062373,0.835095438706219,0.804234249153653,0.803373251836472,0.803036885537632,0.806510160429389,0.807462361544017,0.801875501401337,0.802759090484858,0.803720495652439,0.805620714221262,0.800131751732721,0.802185929005491,0.798413940758792,0.797562147494565,0.796297008579523,1.02518925454792,1.02400109498485,0.941424005351609,0.800343444950648,0.794856992658368,0.791331840377237,0.86418526643131,0.792543428438731,0.794429422562081,0.796645925859663
0.820083628339313,0.82533244871898,0.829008212775712,0.836450944686621,0.836200761792707,0.829520292812752,0.83032188215178,0.812798202060698,0.814180483467873,0.813313629026085,0.810344903582588,0.810319801619988,0.810491331697755,0.910582060637037,0.799877385178374,0.801343339794216,0.800254751349461,0.801606910401516,0.800060629505355,0.797632432989845,0.797579718868385,0.799440611029134,0.800027996953974,0.80477477808164,0.790024028125775,0.789616539599568,0.786500549308817,0.785630347938682,0.781383095866757,0.779530571026875,0.778934817781167,0.777674699258646,0.774298485288941,0.771181658266104,0.770383415855423,0.771088781004484,0.767237303209552,0.765260105288756,0.763928864538868,0.762490522081886,0.762289706381086,0.762913071785653,0.953088050639758,0.78603030587611,0.769287296821888,0.769140031974635,0.769015358893721,0.766952814300085,0.767259894975892,0.767761934227893,0.769137521778375,0.769605255014822,0.770285518201283,0.785458817860916,0.784868921739815,0.778717267438634,0.78139481011597,0.779933875892649,0.780223385194636,0.793682220808686,0.794290525035694,0.788512889977253,0.794605136300281,0.789125377864694,0.789616539599568,0.801129973112116,0.778855328232934,0.779559019917822,0.780795709941916,0.782510173987499,0.784520841191761,0.785641225455809,0.787066180199404,0.786084693461743,0.783102580304859,0.788362278201653,0.790756168701609,0.78585208194165,0.785771755661329,0.787571566379752,0.791241473311876,0.797044210332917,1.01699764741944,0.790080089175582,0.79162971700009,0.79654133434883,0.797477637553811,0.797457555983731,0.796271069884836,1.02742332921932,1.02112273660671,0.808965969103759,0.809980088392801,0.810450331825508,0.979327968877658,0.805634101934648,0.805345429364748,0.801760032373377,0.806392181205169,0.807099219818404,0.808827908309459,0.801491441373556,0.805731162856702,0.805752081158869,0.797251719890411,0.797336229831164,0.797386433756364,0.798505981288326,0.796901965878184,0.79695049633921,0.794932298546168,0.7944218919733,0.895629658248284,0.79639825316201,0.790119415583655,0.79670198690947,0.800057282577008,0.800434648748095,0.912590217645039,0.941992983170543,0.803698740618186,0.805177246215328,0.801970888859217,1.12416629307984,0.824251390863005,0.911661445028838,0.805512775782081,0.802735661986431,0.802998395861645,0.960727414591034,0.806354528261269,0.805981345750615,0.803606700088652,0.803427639422105,0.803008436646685,0.801194401482789,0.803251088951819,0.800892341199502,0.798471675272772,0.797501066052238,1.0107054221277,0.939365644418407,0.800186976050441,0.800286547168755,0.799379529586807,0.794039505409693,0.79418844372112,0.793314895422639,0.796853435417157,0.797621555472718
0.819087080424092,0.826263731531441,0.831714204343995,0.835092091777873,0.836479393577568,0.835653539008027,0.865883832567246,0.812940446515431,0.814383809364933,0.813423240929438,0.812722896172897,0.811120554226929,0.809722374910107,0.810010210747921,0.803360700855172,0.802992538737038,0.800525852545542,0.803623434730386,0.801273891031023,0.798614756459593,0.798511001680846,0.79958954934056,0.798295124802486,0.790450761489975,0.976123284985721,0.783175375996399,0.78650473296925,0.786882935872424,0.780325466509209,0.779651897179441,0.778314799304947,0.777564250623206,0.779091286681374,0.769888070460116,0.770397640300896,0.770042029164063,0.771288759973198,0.764461026145989,0.762250379973013,0.760994445110924,0.761094852961324,0.762293890041519,0.779930528964302,0.774546994718682,0.767076650648912,0.769037950660061,0.77062021103595,0.77083106752179,0.77036417101743,0.769806070715622,0.768305810084227,0.769356745585082,0.774587994590928,0.783836394344867,0.785381001776856,0.785848735013303,0.783417191569446,0.782493439345765,0.783131865927893,0.797860860849505,0.79158955385993,0.792919121145645,0.793954158736853,0.788886072487907,0.789665906792681,0.800503260779202,0.799655651175407,0.806449078987063,0.783382048821806,0.781829910801038,0.788408298466419,0.788205809301446,0.788055197525846,0.783085008931039,0.78602026509107,0.78866433848494,0.791019739308909,1.05428242920135,0.788600746846353,0.788427543304413,0.790285925268902,0.797327025778211,0.797450025394951,0.79390228134748,0.794702197222334,0.795630133106449,0.795641847355662,0.797889309740452,0.896391084447151,0.820988972457088,0.821245849207695,0.809770905371134,0.811021819840702,0.810440291040468,0.806147855435862,0.805697693573235,0.806259140803389,0.802739008914778,0.808270644739738,0.808607847770666,0.807045668964857,0.810322311816248,0.805617367292915,0.805633265202562,0.798444899845999,0.798355369512726,0.797409025522704,0.799125999764547,0.798467491612339,0.797690167503825,0.794838584552461,0.797512780301451,0.823911677635819,0.795887009857056,0.795118889801495,0.796652619716357,0.800739219227642,0.803281211306939,0.803322211179185,0.902206372449492,0.803402537459505,0.805676775271068,0.804625003038127,0.80699713850383,0.824874756267573,0.8251868573359,0.909686757304302,0.803116375085865,0.803027681484678,0.804426697533587,0.805957080520102,0.805527000227555,0.805655856968902,0.803359864123085,0.802910538992545,0.803387476281945,0.803546455378412,0.801634522560376,0.80153076778163,0.801217829981216,0.800186976050441,0.941541147843743,0.800863892308555,0.801473869999736,0.799797895630141,0.797801452871352,0.795543949701522,0.881371743491466,0.798274206500319,0.800927483947142
0.818580020779572,0.820393219211381,0.848094908404689,0.834871194506993,0.83540670304246,0.837911878909943,0.84079023728808,0.866963216959047,0.814546972121833,0.813224935424898,0.812805732649477,0.811392492155096,0.810792555248955,0.811845164213983,0.809996823034534,0.810836902049548,0.810287169068608,0.804939614302714,0.803600842964046,0.800417077374275,0.79901220420076,0.798838163926733,0.798231533163899,0.791515084704217,0.938369933235272,0.783806271989747,0.785833673835743,0.786858670641911,0.78337368150094,0.779010960401054,0.777067231763725,0.779734733656022,0.775342726933103,0.768946746862615,0.769081460728568,0.769819458429009,0.770165028780803,1.03999104516107,0.787547301149238,0.762339910306286,0.761221199506411,0.760002080856136,0.854094277466097,0.762179257745646,0.767124344377852,0.768145994255673,0.774259995612955,0.771728881050785,0.769346704800042,0.769332480354568,0.770969965048177,0.771394188216118,0.776171091698904,0.779585795344595,0.785168471826842,0.785267206213069,0.785155084113455,0.783675741784227,0.789753763661781,0.794732319577454,0.795037726789088,0.795726357296415,0.79630035550787,0.790833148053583,0.791704186155804,0.796507028333277,0.801827807672397,0.800222955530168,0.787940565229972,0.788635052861906,0.789987211913962,0.789519478677514,0.78868190985876,0.975085737198253,0.788430053500673,0.789399825989121,0.790454945150409,0.790776250271689,0.790033232178728,0.789812334907848,0.79401524017918,0.795095461303068,1.01808539913211,0.795146501960355,0.798377124546979,0.798454103898952,0.793181018288772,0.880350930345731,0.803450231188445,0.803542271717979,0.818325654225225,0.808568521362592,0.809537457118953,0.810142414417614,0.805584734741535,0.805620714221262,0.80673105770027,0.806429834149069,0.806439874934109,0.809787640012867,0.814493421268286,0.808844642951192,0.805343755900575,0.806995465039657,0.798413104026706,0.798562879070219,0.797365515454198,0.799932609496094,0.813950382144039,0.798362900101506,0.795595827090895,0.796929578037044,0.800069833558308,0.89521129220495,0.798172125185745,0.960267211943367,0.803293762288239,0.803723005848699,0.82769035973921,0.824296574395685,0.823248985823178,0.806807200320157,0.80929480481382,0.812379836017364,0.837460043583142,0.823106741368444,1.01230358041323,0.803857719714653,0.803277027646505,0.803127252602992,0.804855941094047,0.805425755645068,0.805226613408441,0.805337898775968,0.804165637122546,0.802453683273224,0.806198059361062,0.805578877616928,0.801554196280056,0.802987518344518,0.798449083506432,0.803380782425252,0.80169142034227,0.801295646065276,0.800325036844741,0.800432975283922,0.910004715497236,0.855357742916965,0.800538403526842,0.80204535801493
0.818713061181352,0.82030787253854,0.827990746558324,0.835648518615507,0.836824127197275,0.839518404516345,0.837384737695342,0.852270201517162,0.814388829757453,0.81458295160156,0.814518523230886,0.81220244881499,0.814224830268466,0.814769542856887,0.813532852832792,0.810519780588701,0.810009374015834,0.804914512340114,0.805424918912981,0.802216888092697,0.800672280660709,0.798516858805452,0.79920297911652,0.798666633848966,0.93653748996547,0.784732534409688,0.784773534281935,0.787467811601005,0.782807213878266,0.783091702787733,0.782633173604239,0.780191589375342,0.779374102126668,0.766864120698898,0.765612369497244,0.767749383246593,0.768348483420647,0.768042239476927,0.786611834676344,0.980340414702526,0.761671361369038,0.760698241952244,0.759581204616542,0.762291379845259,0.92628752190379,0.769472214613042,0.771279555920244,0.771218474477917,0.769821968625269,0.769440418793748,0.769461337095915,0.770900516284984,0.777463006040719,0.777881372084053,0.78399621017342,0.783389579410586,0.784954268412655,0.78364478269702,0.783077478342259,0.794368341119754,0.794529830412481,0.797219924071118,0.921660393464517,0.790329435337409,0.79428885157152,0.795691214548776,0.796038458364743,0.793720710484673,0.787641851875032,0.790659107779556,0.792171919392251,0.792445530784591,0.793182691752946,0.793156753058259,0.792098286968624,0.793725730877193,0.789308622191674,0.789012419032994,0.793579302762026,0.791146922586083,0.794606809764454,0.798156227276099,0.801667991843843,0.801422829342449,0.801467176143043,0.801760869105463,0.802786702643718,0.80417986156802,0.805216572623401,0.803325558107532,0.802893804350811,0.806642364099083,0.809263008994526,0.807437259581417,0.808209563297412,0.805338735508055,0.807378688335351,0.808964295639586,0.807702503652891,0.814398033810406,0.81452772728384,0.812481917331937,0.80968388523412,1.04619959724414,1.03992410659414,0.79888669438776,0.800642995037675,0.802749886431904,0.802617682762211,0.798340308335166,0.796928741304957,0.797102781578984,0.879664810034663,0.893621501240281,0.802742355843124,0.801893072775157,0.802726457933478,0.80436561609126,0.901553721421891,0.898675363043755,0.811575736482076,0.81225265274019,0.812439243995517,0.894717620273816,0.820580647198794,0.821286849079942,0.822030703904989,1.00695686237943,0.940277682392875,0.803628455122906,0.801760869105463,0.805462571856881,0.806379630223869,0.805426592377155,0.804201616602273,0.806113549420309,0.804962206069054,0.806567894943369,0.805278490797814,0.803623434730386,0.798515185341279,0.799213856633647,0.803241048166779,0.801449604769223,0.80160858386569,0.801179340305229,0.802399295687591,0.803821740234926,1.06394668480237,0.802733988522258
0.814243238374373,0.814233197589333,0.942453185818211,0.83565772266846,0.835975680861394,0.839225548286011,0.840949216384547,0.840706564079413,0.872569321939721,0.814815563121653,0.8149318688817,0.814736910305507,0.815611295336074,0.815335173747474,0.812969732138464,0.814282564782446,0.811528879485223,0.80411710666152,0.805204021642101,0.802237806394864,0.801155911806803,0.798185512899132,0.799546876004141,0.799036469431273,0.791804594006204,0.786813487109231,0.785372634455989,0.785910653187716,0.782987111276899,0.78337368150094,0.7839033329118,0.779267837151661,0.779945590141862,0.767540200224926,0.766920181748705,0.767355282433772,0.768602849974994,0.956267632569095,0.842898802146483,1.11261102296296,0.840873910496747,0.762001870543272,0.762262094222226,1.09294781892627,0.78633654981983,0.771021005705464,0.772860142831959,0.77078337379285,0.769643744690809,0.771253617225558,0.774181342796808,0.771003434331644,0.772461021626619,0.780536322995049,0.786187611508403,0.785693939577269,0.782645724585539,0.782721030473339,0.784111679201381,0.793404425755913,0.793995995341187,0.799588712608474,1.09751637611948,0.881882150064333,0.794880421156794,0.796351396165156,0.795807520308822,0.793905628275827,0.793758363428573,0.794169198883127,0.795258624059968,0.794927278153648,0.794033648285087,0.792639652628698,0.793935750630947,0.792942549644072,0.78870952201762,0.788363951665826,0.794034485017173,0.794272116929787,0.79405289312308,0.800707423408349,0.803328068303792,0.804015862079033,0.803013457039205,0.802810131142145,0.802666213223238,0.815512560949848,0.806056651638415,0.802774151662418,0.803582434858139,0.808558480577552,0.809185192910466,0.807310076304244,0.808428787104118,0.80452375845564,0.808527521490345,0.810544882551301,0.811283716983829,0.81498458300316,0.817489758870643,0.814059157315306,0.81452019669506,0.812575631325644,0.811679491260823,0.831976938219209,0.803950596976273,0.80204033762241,0.802775825126591,0.812701977870731,0.798366247029852,0.799302550234833,0.805603979579528,0.810354107635541,0.887245602739873,0.800908239109149,0.80147805366017,0.803201721758705,0.829771312438753,0.944963382078214,0.896658838714885,0.813061772667998,0.815002991109067,0.816755944830636,1.13782176073426,0.823415495508424,0.820869319768694,0.959514153065366,0.941072577875209,0.806624792725263,0.910105123347636,0.804791512723374,0.805543734869288,0.806289263158509,0.805360490542308,0.806578772460496,0.806253283678782,0.806013141569909,0.806056651638415,0.80660052749475,0.799980303225034,0.802919743045498,0.802289683784237,0.802303071497624,0.800453056854002,0.803058640571885,0.805029144635988,0.803927168477846,0.849843678465825,0.808618725287792
0.83025912724528,0.82241476393277,0.841635336695615,0.836478556845481,0.836414128474808,0.996129549177946,0.838807182242678,0.840530850341213,0.841258807256614,0.815828008946521,0.81743788148127,0.817119923288336,0.818043675512018,0.815457336632128,0.815669866582141,0.814945256595087,0.814182156932046,0.805429939305501,0.804932920446021,0.80421751451192,0.80202778664111,0.797117842756544,0.799390407103934,0.799033122502926,0.793416140005126,0.788466869712486,0.785726572128649,0.785247124642989,0.784193678945874,0.784062312008267,0.783264906329673,0.780562261689736,0.8351280712576,0.769329133426222,0.7680690149037,0.768015464050153,0.770004376220162,0.780357262328503,0.997560361046148,0.768740074037208,0.860654257025572,0.761872177069839,0.762092237608632,0.81210204096459,0.785826979979049,1.01516520414964,0.772101226829352,0.775083339986236,0.777028742087738,0.770220253098523,0.774879177357089,0.777026231891478,0.786112305620603,0.781210729056904,0.781670931704571,0.782700948903259,0.782237399327245,0.783261559401326,0.785099859795735,0.789543743908028,0.791973613887711,0.803884495141426,0.884894385576337,0.884852548972003,0.867548929419714,0.79678231318979,0.797393127613058,0.79656643631143,0.794416871580781,0.799784507916754,0.800348465343168,0.799492488418507,0.794333198372114,0.794493014200667,0.794009383054573,0.832448855116089,0.786872895087384,0.786737344489344,0.79399766880536,0.794535687537087,0.802388418170464,0.800847157666822,0.801906460488544,0.804243453206607,0.800940871660529,0.801019524476676,0.801004463299116,0.89523639416755,0.866921380354714,0.803073701749445,0.803885331873513,0.809464661427413,0.810940656828295,0.808191155191505,0.808634623197439,0.807559422466071,0.80709754635423,0.814719338931687,0.81215475508605,0.817466330372217,0.818087185580524,0.81505988889096,0.815621336121114,0.815212174130734,0.81207693900199,0.928304046232659,0.828850907143418,0.805175572751154,0.817062188774356,0.81469842062952,0.800393648875848,0.800232159583121,0.803536414593372,0.810729800342455,0.811729695186023,0.885028262710204,0.803171599403585,0.803978209135133,0.83792024623081,0.831431388898701,0.832043876786142,0.81734249402339,0.819978200096393,0.819702078507793,0.937006059934004,0.821726133425442,1.00026300568609,0.814060830779479,0.994857716406211,0.831417164453228,0.940378090243275,0.88518724180667,0.805746224034262,0.80716281145699,0.80687162869083,0.807677401690291,0.807542687824337,0.805621550953348,0.808498235867312,0.807958543671411,0.808361848537185,0.802785865911631,0.802227765609824,0.803076211945705,0.80151821680033,0.802595927727958,0.804384024197167,1.08208703644132,0.843810840120951,0.816464762064475
0.829075151342645,0.825521550170567,0.825896406145394,0.848948375133091,1.10059555019841,0.876292779725392,0.846237363172287,0.838656570467077,0.834382542968379,1.1152885656403,0.817805206867317,0.818054553029144,0.819079549835312,0.817844533275391,0.815321786034087,0.816037191968188,0.813690995197172,0.805467592249401,0.805339572240141,0.807088342301277,0.795662765657829,0.795863581358629,0.80179182819267,0.798238227020592,0.907101255156499,0.806177141058896,1.01082256461983,0.785522409499502,0.785082288421915,0.785184369736489,0.782597194124512,0.782637357264672,0.832104958228469,0.769490622718949,0.768863910386034,0.769135848314201,0.971864318664582,0.77617443862725,0.779776570260355,0.769012011965375,0.76575628741615,0.764515413731622,0.814054973654872,0.875004212311924,0.792796958260992,0.786634426442684,0.858754875188836,0.775797072456163,0.776728355268624,0.777106558171798,0.77574519506679,0.777436230613945,0.786048713982016,0.786345753872783,0.784145985216934,0.788675216002067,0.783925087946054,0.78361968073442,0.785827816711136,0.790322741480715,0.792228817174144,0.80941027384178,0.810896310027702,0.818760754910292,0.809206111212633,0.800414567178015,0.797705228681385,0.799311754287787,0.79633549825551,0.804286126543027,0.803451904652619,0.82747448286085,0.795067012412121,0.794627728066621,0.795991601367889,0.795898724106269,0.792239694691271,0.791575329414457,0.93706463118007,0.799971935904168,0.800407036589235,0.80186713408047,0.798462471219819,0.806111039224049,0.803096293515785,0.800827912828829,0.801149217950109,0.910439816182303,0.825640366126874,0.803386639549859,0.807514238933391,0.810846106102502,0.809970884339847,0.808817030792332,0.809051315776599,0.806576262264236,0.806571241871716,0.814403890935013,0.813797260172179,0.832171060063316,0.832495712112943,0.815821315089828,0.815161970205534,0.84325859694375,1.02628537358145,0.846371240306154,0.834806766136319,1.08275642211066,0.836365598013781,0.815423030616574,0.992498131921808,0.803634312247512,0.804430044461933,0.811499593862189,0.812542998774264,0.883647654767202,0.881790109534799,0.928170169098792,0.836072741783447,0.826896300988962,0.832394467530456,0.826990014982669,0.820435892547801,0.821649990805556,0.82225411137213,0.824079860785239,0.826414343307042,0.81703373988341,0.81770898267735,1.00900685599176,0.997526891762682,0.815398765386061,0.805786387174422,0.806541956248683,0.807500014487917,0.807686605743244,0.809237907031926,0.810095557420761,0.808677296533859,0.809336641418153,0.808714949477759,0.805712754750795,0.803443537331752,0.801339992865869,0.801780113943457,0.800929994143402,0.807727605615491,0.809309029259293,0.961304759730835,0.81997401643596
0.829421558426526,0.828743805436325,0.826145752307221,0.855617129863832,0.840112484297879,0.845643283390753,0.846429811552221,0.838480856728877,0.832490691720423,0.831690775845568,0.81984097603418,0.818065430546271,0.823238108306051,0.821351277450615,0.817909798378151,0.820291137896807,0.829558782488739,0.826341547615501,0.806644037563256,0.806610568279789,0.805452531071841,0.798599695282033,0.800545934115622,0.800396159072108,0.798434859060959,0.946042766470015,0.802465397522438,0.846438178873087,0.787979891638046,0.838238204423744,0.846546954044354,1.04951305630735,0.948460922200485,0.769533296055369,0.769544173572495,0.804131331106993,1.15087478128628,0.778307268716167,0.777211149682632,0.772740490143566,0.766777100561885,0.766370448767765,0.807305055911724,0.869013210571383,0.794587564926461,0.805193980857061,1.00387768830049,0.775373686020309,0.778526492522873,0.780130507933016,0.776500764141051,0.904214529457495,0.788794031958373,0.787959810067966,0.787338118127571,0.995778121701546,0.789613192671221,0.788605767238873,0.790957821134496,0.789670090453114,0.793025386120652,0.791661512819384,0.818308919583491,0.819724670274133,0.812824977487471,0.801104871149516,0.800169404676621,0.799565284110047,0.799911691193928,0.802939824615578,0.803916290960719,0.971738808851582,0.816504088472549,0.794790890823521,0.795961479012769,0.801602726741083,0.796007499277536,0.792208735604064,0.930780773209196,0.800478158816602,0.800553464704402,0.801729910018257,0.797355474669158,0.808012931257045,0.802777498590765,0.800576056470742,0.804721227228094,0.828538806075091,0.82767027816913,1.00482319555842,0.8098043746546,0.810257046713487,0.809820272564247,0.808004563936178,0.808807826739379,0.814918481168314,0.812648427017184,0.817104862110776,0.815890763853022,0.823664004938165,0.831403776739841,0.817899757593111,0.818906346293372,0.820930401211021,0.855215498462232,1.02000151561058,0.842313089685815,0.830426473662613,0.808696541371852,0.815728437828208,0.81256642727269,0.806649057955776,0.807461524811931,0.811496246933842,0.813005711618191,0.815599581086861,0.877974611219595,0.83807085800641,0.8358434771917,0.833004445221637,0.833791810115191,0.829601455825159,0.824731675080753,0.823059884371591,0.823473230022405,0.825922344840081,0.826221894927108,0.819333079657573,0.817762533530897,0.925760380689189,0.815864825158335,0.816071497983742,0.81449509473246,0.811554818179909,0.806545303177029,0.808335073110412,0.808635459929525,0.811271166002529,0.813318649418605,0.809083948327979,0.80940023305674,0.808621235484052,0.805529510423815,0.801095667096562,0.801921521666104,0.803865250303433,0.810380883062314,0.810512249999921,0.811840143821463,0.818924754399279
0.831497490733548,0.831679061596355,0.828930396691652,0.831587857798908,0.835610865671607,0.845668385353353,0.845375529123019,0.84852164176889,0.841325745823547,0.836324598141534,0.822213111499883,0.820874340161215,0.823575311336978,0.819532221894199,0.820675197924588,0.82019491370684,0.847910827345623,0.823939289794678,0.807617993712137,0.805945366270889,0.803953943904619,0.800114180358901,0.803396680334899,0.801493951569816,0.799995364402594,0.796603252523243,0.928245474986592,0.793011998407265,0.791968593495191,0.791040657611076,1.03178270339086,0.794458708185114,0.855165294537032,0.770741537188517,0.77096159772731,0.800118364019335,0.794575850677247,0.782904274800319,0.782299317501658,0.772806591978413,0.766301836736658,0.772471899143746,0.770957414066877,0.801572604385963,0.769611948871515,0.807286647805817,0.996924444660281,0.776142642807957,0.780423364163349,0.781576380978777,0.777843719140153,0.784156026001974,0.79657396690021,0.791066596305763,0.794087199138633,0.796066070523603,0.795772377561182,0.792523346868652,0.792911590556865,0.794338218764634,0.794339892228807,0.790066701462195,0.922304677171252,0.819716302953266,0.81994389408084,0.802975804095305,0.802787539375805,0.799234774935813,0.800070670290394,0.80158850229561,0.802084684423004,0.800816198579616,0.800904892180802,1.18296345680999,0.798294288070399,0.802682111132885,0.801246278872163,0.792895692647218,0.933617294983,0.820056016180453,0.801872991205077,0.820385688622601,0.817750819281684,0.80929229461756,0.809104029898059,0.806519364482343,0.806762016787476,0.826650301755482,0.826329833366288,0.808696541371852,0.811882817157883,0.810098067617021,0.810990024021408,0.811454410329509,0.808695704639766,0.813025793188271,0.815979457454208,0.825875487843228,0.817660452216324,0.822757824088304,0.831881550761329,0.823672372259031,0.823678229383638,0.820319586787754,0.820549688111587,0.819165733240239,0.813037507437484,0.812276917970703,0.828583152875684,0.810106434937887,0.811528042753136,0.809439559464813,0.80697454673749,0.809627824184313,0.813127874502845,0.815055705230527,0.878468283150728,0.821296053132895,0.824433798457899,0.881179295111532,0.835540580176327,0.832068142016656,0.83021896410512,0.827425115667736,0.824366023158879,0.828655948567225,0.827687012810863,0.826290506958215,0.819774874199333,0.977621035420856,0.977821851121656,0.820834177021055,0.81994138388458,0.814167095754486,0.811400859475962,0.812105387892937,0.808780214580519,0.811371573852929,0.814362891062766,0.811637654656489,0.810180904093601,0.809027887278173,0.808478154297232,0.80702224046643,1.0345606539186,0.811143982725355,0.811978204615763,0.811390818690922,0.812631692375451,0.815510887485674
0.838589631900144,0.835487866054867,0.83532386656588,0.832759282720243,0.835179111914886,0.841660438658215,0.849400210459891,0.849567556877225,0.840371871244746,0.840472279095146,0.824148472816345,0.822930190898157,0.823951840775978,0.820123791479474,0.821304420453762,0.823085823066277,0.818954040022312,0.816124212105202,0.815561928142961,0.805999753856522,0.802966600042352,0.803013457039205,0.803803332129019,0.80159101249187,0.800911586037496,0.797571351547518,0.918422240289113,0.794372524780187,0.792018797420391,0.792133429716264,0.79636813080689,0.843777370837484,1.04556368085828,0.800227139190601,0.795386644069228,0.794752401147534,0.782501806666632,0.78335862032338,0.782608908373725,0.777368455314925,0.777029578819825,0.773932833367068,0.773992241345221,0.817318228792877,0.859056098740037,0.85360897285583,0.816499904812116,0.775741848138443,0.77594350057133,0.781454218094124,0.779887855627882,0.783059070236353,1.06389648087717,0.792806999046032,0.79404034214178,0.795660255461569,0.794801768340648,0.795240215954062,0.795646867748182,0.796307049364563,0.794851135533761,0.789987211913962,0.910933488113437,0.818176715913798,0.818940652308925,0.803307986733712,0.797941187129825,0.797108638703591,0.799870691321681,0.798875816870633,0.803749781275472,0.987661820460869,0.801507339283203,0.802917232849238,0.799028102110406,0.799909180997668,0.831822979515262,0.796861802738024,0.93943258298534,0.821147114821468,0.818774142623679,0.811933021083083,0.813034160509138,0.810267087498528,0.811116370566495,0.811596654784243,0.809760027854007,0.960175171413833,0.815527622127408,0.81210455116085,0.812158938746483,0.809667150592387,0.810310597567034,0.81233548921677,0.810273781355221,0.811517165236009,0.81441978884466,0.826054548509774,0.817145861983023,0.817140004858416,0.836005803216514,0.827092096297243,0.827392483116356,0.818285491085065,0.819216773897526,0.819492895486126,0.814740257233853,0.81466327788188,0.814490911072026,0.811538083538176,0.811378267709622,0.808255583562178,0.807623014104658,0.809788476744954,0.813701035982212,0.816573537235742,0.81727722892063,0.870460757081318,0.824256411255526,1.21695151417043,0.883262758007335,0.833095649019084,0.834268747404592,0.829977148532073,0.828103705390024,0.829546231507439,0.8300507809557,0.829209028476512,0.822021499852036,0.975930836605787,0.824673940566773,0.822971190770404,0.820568096217494,0.81712912734129,0.812845895789638,0.812461835761857,0.80993992525264,0.811169921420042,0.812871834484324,0.811433492027342,0.811701246295076,0.809861272436494,0.808458909459239,0.806511833893563,1.05754568433936,0.812240938490977,0.811808348002169,0.812522917204184,0.81452019669506,0.816109987659728
0.837275962524076,0.837250860561476,0.83550209050034,0.832612854605076,0.834647787039852,0.843994921180018,0.84877266139489,0.852136324383295,0.841083093518414,0.846438178873087,0.844614102924152,0.8200342611462,0.822190519733543,0.93688891744187,0.821969622462663,0.821762112905169,0.820413300781461,0.815748519398288,0.814936052542134,0.81235808098311,0.803925495013673,0.802202663647224,0.802944845008098,0.803448557724272,0.80205790899623,0.958443135994431,0.794620197477841,0.796034274704309,0.792441347124158,0.792352653522971,0.867021788205114,1.00520809231829,0.818156634343718,0.813923606717266,0.794597605711501,0.789060112761934,0.784005414226374,0.7836648642671,0.78379288427636,0.779462795727855,0.777836188551373,0.776714967555238,0.777292312695038,0.79917536695766,1.03000883136712,0.933851579967266,1.06321872788697,0.78087017909763,0.799669038888794,0.784955941876828,0.785127471954595,0.86131527537404,0.913761642566374,0.821571337989409,0.796032601240136,0.811423451242302,0.797762963195365,0.796113764252543,0.796327130934643,0.798510164948759,0.800458913978608,0.796532130295877,0.797646657435318,0.816697373584569,0.817009474652896,0.805564653171455,0.797225781195724,0.797710249073905,0.800037201006928,0.798895061708626,0.800664750071929,0.805670918146462,0.95779048496683,0.803948086780013,0.800364363252815,0.798240737216852,0.8200342611462,0.796933761697477,0.806464140164623,0.812833344808337,0.813078507309731,0.81249363158115,0.812158102014397,0.812515386615404,0.811412573725176,0.813299404580612,0.814250768963153,0.816430456048922,0.816481496706209,0.81496701162934,0.818043675512018,0.818352429651998,0.810211026448721,0.812502835634104,0.809705640268374,0.811103819585195,0.813368016611718,0.823094190387144,0.822667457022944,0.815460683560474,0.830697574858694,0.832668078922796,0.925860788539589,0.816697373584569,0.815911682155188,0.817899757593111,0.813073486917211,0.813568832312518,0.814656584025186,0.815284969822274,0.817642880842504,0.813157996857965,0.811733878846456,0.810641106741268,0.812768079705577,0.815458173364214,0.818802591514625,0.821177237176588,0.817451269194657,0.819446875221359,1.14591296001234,0.83323705674173,0.833380974660637,0.832911567960017,0.831038961550054,0.83045492255356,0.831625510742808,0.829741190083633,0.824227125632492,0.825315714077247,0.828163113368177,0.826103915702888,0.822398029291036,0.818057899957491,0.816655536980236,0.813537873225312,0.812747161403411,0.808700725032286,0.809408600377606,0.811156533706655,0.811418430849782,0.810485474573148,0.806297630479376,0.805764632140168,1.02827679594772,0.8202476278283,0.815915029083535,0.814712645074993,0.81746800383639,0.820626667463561
0.841049624234947,0.837987184797743,0.838840651526144,0.834696317500879,0.836916167726809,0.842497170744882,0.848387764635023,0.854889172948432,0.854571214755498,0.844212471522551,0.843676962987084,0.968174330162377,0.828398235084531,0.827973175184504,0.821535358509682,0.820091158928094,0.819934690027887,0.816315823753049,0.814013973782626,0.812241775223063,0.806021508890775,0.802753233360251,0.803762332256773,0.802958232721485,0.800459750710695,0.813250874119585,0.795570725128295,0.796367294074803,0.795119726533582,0.792650530145825,0.861532825716574,1.01197725489943,1.0084211435311,0.898583322514221,0.942269104759144,1.12083609937491,0.784730024213428,0.783833884148607,0.784387800789981,0.781860033156158,0.780333833830076,0.778718940902807,0.778676267566387,1.04168124397614,0.777877188423619,0.779860243469022,0.929902204518195,1.03327208650513,0.916598164340177,0.785224532876649,0.785026227372108,0.860009973318838,0.861072623068906,0.821647480609295,0.801659624522976,0.811249410968275,0.982072450121928,0.798205594469212,0.795566541467862,0.802739845646865,0.801748318124163,0.797036679744137,0.802503887198424,0.802974967363218,0.852814077373496,0.806489242127223,1.03462759248553,0.802836069836831,0.803090436391178,0.801201932071569,0.800719137657562,0.88491112021807,0.813700199250125,0.855424681483899,0.806531915463643,0.799974446100428,0.831549368122922,0.800730015174689,0.806528568535296,0.81203677586183,0.812407448176224,0.81463566572302,0.808468113512192,0.81185102133859,0.810662861775521,0.814088442938339,0.815423030616574,0.817929043216144,0.816373558267029,0.815681580831355,0.817617778879904,0.818095552901391,0.810457025682201,0.812981446387678,0.811702083027163,0.811060309516689,0.810605963993628,0.80954833463608,0.818884591259119,0.813159670322138,0.828588173268204,0.836051823481281,0.865298120106578,0.817714839801957,0.816655536980236,0.818886264723292,0.816076518376262,0.813941178091086,0.814869950707287,0.816012090005588,0.816800291631229,0.812618304662064,0.811320533195642,0.810912207937348,0.811389145226749,0.816361844017815,0.819486201629433,0.821987193836483,0.818152450683284,0.818789203801238,0.82230682549359,0.832591099570823,0.833859585414211,0.834564113831185,0.834770786656592,0.832330039159783,0.831242287447114,0.830674146360267,0.827480339985456,0.82791878759887,0.83004827075944,0.824213737919105,0.823637229511391,0.822815558602284,0.820657626550768,0.818330674617745,0.820030077485767,0.811307145482256,0.809942435448901,0.810729800342455,0.812704488066991,0.813322833079038,0.812324611699644,0.808363522001358,0.808645500714565,0.817027046026716,0.818836060798092,0.985645296131999,0.816539231220189,0.818564959602012
0.842873700183883,0.840606156229013,0.839384527382478,0.837125350748475,0.837418206978809,0.841953294888548,0.848948375133091,0.852345507404962,0.850328983076093,0.849182660117358,0.842103906664148,0.969136572062045,0.828747152364671,0.829824026560213,0.884342142399136,0.883563981558535,1.03706248285773,0.818297205334278,0.815295010607314,0.812878528341018,0.80461161532474,0.802959906185658,0.804367289555433,0.802747376235645,0.802686294793318,0.800497403654595,0.796271906616923,0.79670449710573,0.797101944846897,0.793586833350806,1.12107875168004,1.04337144279121,1.02338191324071,0.959229664155899,0.852755506127429,0.785526593159936,0.785512368714462,0.785590184798522,0.784830432063828,0.784800309708708,0.78111115793859,0.777647923831872,0.784441351643528,1.15354395664275,1.05496018219156,0.78360963994938,0.785499817733162,0.784385290593721,1.00908216187956,0.787568219451405,0.787105506607478,0.794423565437474,0.806332773227016,0.816122538641028,0.802785029179545,0.803842658537093,0.81227022411401,0.799677406209661,0.801126626183769,0.803327231571705,0.803277027646505,0.802891294154551,0.802544887070671,0.803764842453033,0.901578823384491,0.806477527878009,0.807477422721577,0.864043021976577,0.894131907813149,0.809348355667366,0.806316875317369,0.811598328248416,0.813838260044425,0.813254221047931,0.806072549548062,0.806071712815976,0.813892647630059,0.80449112590426,0.805839938027968,0.808448031942112,0.808302440559032,0.807765258559391,0.808271481471825,0.80933245775772,0.811642675049009,0.816379415391635,0.816860536341469,0.818723101966392,0.815245643414201,0.815422193884487,0.81730986147201,0.818403470309285,0.809838680670154,0.815668193117968,0.811401696208049,0.811163227563349,0.811310492410602,0.8091893765709,0.821946193964236,0.811771531790356,0.838330244953277,0.83854779529581,0.869732800165917,0.818067940742531,0.817660452216324,0.818951529826052,0.8144925845362,0.814220646608033,0.814762012268107,0.815615478996508,0.816063130662875,0.817115739627903,0.812233407902197,0.80954833463608,0.811947245528556,0.814629808598413,0.819121386439646,0.822189683001456,0.824199513473632,0.820708667208054,0.822077560901843,0.873004422624788,0.837342901091009,0.837702695888276,0.838037388722943,0.834234441389038,0.833474688654344,0.831279103658928,0.828164786832351,0.830240719139373,0.829014069900318,0.827999950611277,0.823973595810232,0.823430556685984,0.820654279622421,0.820060199840887,0.821566317596889,0.815230582236641,0.811597491516329,0.811429308366909,0.813902688415099,0.814338625832253,0.812035939129743,0.80964623229022,0.81184349074981,0.818077144795484,0.885555403924804,0.982005511554995,0.828056011661084,0.823108414832617
0.84622899585142,0.846421444231354,0.841685540620814,0.842162477910215,0.840781869967213,0.840279830715213,0.849508985631158,0.852404078651028,0.852638363635295,0.851885304757294,0.839861464671879,0.837468410904009,0.830132780700193,0.832405345047583,0.832431283742269,0.980641638253726,0.827213422449809,0.819157365919372,0.81766630934093,0.814191360984999,0.810334862797548,0.806009794641562,0.805238327657654,0.802507234126771,0.80160607366943,0.800197016835481,0.796153090660616,0.798239063752679,0.798644042082626,0.794808462197341,0.84590267033762,1.08599457528606,0.818929774791799,1.04051818637567,0.785646245848329,0.785873000243816,0.785648756044589,0.78657501846453,0.786792568807064,0.785551695122536,0.78622359098813,0.787822586005752,0.786983343722824,0.790275884483862,0.786800099395844,0.786824364626358,0.787289587666545,0.784412066020494,0.788697807768407,0.788666011949113,0.789357989384787,0.793579302762026,0.798550328088919,0.802744866039385,0.803171599403585,0.803761495524686,0.804402432303073,0.806382140420129,0.802605968512998,0.803375762032732,0.806667466061683,0.807518422593824,0.807035628179817,0.806280895837643,0.80664571102743,0.805895999077775,0.807641422210564,0.810106434937887,0.809920680414647,0.81484652220886,0.811600001712589,0.811668613743696,0.812437570531344,0.809659620003607,0.80955084483234,0.811639328120663,0.814003096265499,0.813913565932226,0.805923611236635,0.808491542010619,0.808530868418692,0.809104029898059,0.809144193038219,0.808957601782893,0.80940525344926,0.814775399981493,0.817369269450163,0.818277123764198,0.81436205433068,0.815672376778401,0.816560149522356,0.83306636339605,0.810805942962342,0.815181215043527,0.811796633752956,0.811333920909029,0.812067734949037,0.810733147270801,0.811628450603536,0.811466124578722,0.823797045339945,0.823699147685805,0.828189052062864,0.922865287669319,0.81741026932241,0.822986251947964,0.814528564015926,0.814275870925753,0.815478254934294,0.815167827330141,0.814680012523613,0.816674781818229,0.816182783351268,0.814198054841693,0.814725196056293,0.815664846189621,0.817755839674204,0.821960418409709,0.824314982501592,0.821717766104576,0.820377321301734,0.827766502359097,0.839074936510411,0.837552084112676,0.838037388722943,0.837585553396143,0.834164155893758,0.832049733910749,0.828651764906791,0.831136859204194,0.830980390303988,0.82761003345889,0.825650406911914,0.825511509385527,0.820794013880894,0.820536300398201,0.823255679679871,0.816208722045955,0.817009474652896,0.812316244378777,0.816819536469223,0.814649053436407,0.815169500794314,0.812619978126237,0.811167411223782,0.816441333566049,0.830562024260654,0.903051471857027,0.971755543493315,0.969195143308112
0.846371240306154,0.84557634482382,0.843250229622883,0.842354926290149,0.843852676725284,0.842162477910215,0.848940007812224,0.853182239491629,0.855349375596099,0.85083938964896,0.842915536788216,0.832868894623597,0.832502405969636,0.832040529857795,0.832448855116089,0.827491217502583,0.827420095275216,0.820815768915148,0.819368222405213,0.814267503604886,0.809981761856974,0.806065855691369,0.805824040118322,0.803520516683726,0.800996095978249,0.797725310251465,0.795334766679855,0.800221282065995,0.801024544869196,0.795729704224762,0.817260494278896,0.838062490685543,0.976039611777054,1.04229205839941,0.789993069038568,0.787689545603972,0.788058544454192,0.787412587283285,0.787549811345498,0.788338849703226,0.791551064183944,0.97275125467645,0.789345438403487,0.791113453302616,0.78889025614834,0.787105506607478,0.787333097735051,0.789004051712127,0.789490193054481,0.789955416094668,0.78914629616686,0.794508912110314,0.795020992147355,0.988021615258136,0.803707944671139,0.803936372530799,0.804886900181254,0.807262382575304,0.805209878766708,0.806568731675456,0.809351702595713,0.811357349407456,0.810243659000101,0.806338630351622,0.807562769394417,0.808194502119852,0.811200880507249,0.812291142416177,0.81506239908722,0.812608263877024,0.813033323777051,0.81192883742265,0.811697062634643,0.811401696208049,0.811379941173796,0.812216673260463,0.813581383293818,0.817271371796023,0.81495948104056,0.807336851731017,0.809552518296513,0.810895473295615,0.809074744275026,0.808952581390373,0.808581909075979,0.851801631548628,0.852864281298696,0.820244280899954,0.813429934786132,0.812599896556157,0.870427287797852,0.817190208783616,0.904641262821695,0.839158609719078,0.815366132834681,0.82243735569911,0.812640059696317,0.812386529874057,0.779855223076502,0.809477212408713,0.807918380531251,0.810261230373921,0.830908431344534,0.921852841844451,0.823095863851317,0.822935211290677,0.814135299935193,0.814976215682294,0.819174937293192,0.815463193756734,0.814218973143859,0.816149314067802,0.816019620594368,0.814405564399186,0.817556697437577,0.818057063225404,0.8199589552584,0.821398971179555,0.824437982118332,0.826579179528115,0.825276387669173,0.828865968320978,0.837133718069342,0.838029021402077,0.837627390000476,0.838238204423744,0.833892217965591,0.831597061851862,0.830639003612627,0.833109873464557,0.832145958100716,0.828214990757551,0.826332343562548,0.826378363827315,0.822890027757997,0.821192298354148,0.820578137002534,0.816776863132803,0.816137599818588,0.815876539407548,0.817852900596257,0.817903104521457,0.815965233008735,0.816873924054856,0.811989918864977,0.81727722892063,0.818427735539798,1.0089733867083,0.974223903148985,0.975127573802586
0.844179002239084,0.845141244138752,0.842564109311816,0.842338191648415,0.847350216847555,0.845300223235219,0.848806130678357,0.849316537251224,0.852496119180562,0.850881226253293,0.843099617847283,0.84111656280188,0.832294896412143,0.831909999652275,0.833885524108898,0.82763764561775,0.827977358844937,0.82279380356803,0.820266035934207,0.813503567209758,0.810061251405207,0.808633786465352,0.806387997544736,0.802121500634817,0.796977271765984,0.795784091810396,0.875430945676125,0.799986160349641,0.800573546274482,0.796082805165336,0.810735657467061,1.00573523353289,0.988808143419604,0.799995364402594,0.78917139812946,0.788338849703226,0.788499502263866,0.793785138855346,0.791322636324283,0.79173012485049,0.794091382799067,0.792035532062124,0.793572608905333,0.792227143709971,0.791430574763463,0.791597921180797,0.791409656461297,0.790842352106536,0.790664128172076,0.791312595539243,0.789129561525127,0.793401915559653,0.794540707929607,0.801807726102317,0.931383220311597,0.803502108577819,0.804324616219013,0.808567684630505,0.807211341918017,0.80924460088862,0.812035939129743,0.810818493943641,0.811358186139542,0.977997564859856,0.811089595139722,0.811254431360796,0.812218346724637,0.813511097798538,0.818664530720325,0.811571552821643,0.812896936446924,0.813937831162739,0.812491958116977,0.812597386359897,0.812181530512823,0.814564543495653,0.820973074547441,0.821952051088843,0.815850600712861,0.808476480833059,0.809960006822721,0.810831881657028,0.81176065427323,0.80952323267348,0.808928316159859,0.970567383930247,0.852219997591961,1.10116452801735,1.00530013284782,0.8818654154226,0.857608552230102,0.858905486964437,0.793389364578353,0.832975159598603,0.816434639709355,0.82222649921327,0.81212965312345,0.812609100609111,0.799656487907494,0.791951022121371,0.814247422034806,0.805769652532688,0.822001418281956,0.821680949892762,0.823063231299937,0.822970354038317,0.821895990039036,0.818331511349831,0.827784073732917,0.829004029115278,0.815945151438655,0.817187698587356,0.817806043599404,0.818004349103944,0.818214368857698,0.818647796078592,0.820829993360621,0.820899442123815,0.825962507980241,0.828978090420592,0.826208507213721,0.829188110174345,0.833806034560664,0.838773712959211,0.836645066530728,0.837811471059543,0.831775285786322,0.834657827824892,0.834257033155378,0.834979969678259,0.832733344025556,0.828357235212284,0.827246891733276,0.825683039463294,0.823776963769865,0.823275761249951,0.822989598876311,0.82292684396981,0.816143456943195,0.816171069102055,0.821368848824435,0.822928517433984,0.819526364769593,0.819802486358193,0.816585251484956,0.816358497089469,0.817228698459603,0.891362324606279,0.999359335032484,0.840455544453413
0.844706143453685,0.84582736444982,0.846195526567954,0.842856965542149,0.847843888778689,0.887295806665073,0.848847967282691,0.849651230085891,0.853048362357763,0.850228575225692,0.848898171207891,0.837460043583142,0.833747463314598,0.83330985243327,0.833772565277198,0.830036556510226,0.828027562770137,0.823945146919285,0.820821626039755,0.813371363540065,0.810975799575935,0.809197743891766,0.805071817972408,0.80191733800567,0.798165431329052,0.795737234813542,0.851726325660827,0.801085626311522,0.801037095850496,0.797390617416798,0.796942129018344,1.12719526323358,1.00338401636936,0.791745186028051,0.789867559225568,0.790129456368695,0.794820176446554,0.795813377433429,0.791065759573676,0.792261449725524,0.793607751652973,0.792696550410592,0.792602836416885,0.794338218764634,0.791819655183764,0.793077263510025,0.792523346868652,0.792479000068058,0.793004467818485,0.794239484378407,0.880359297666598,0.793068896189159,0.797364678722111,0.799915874854361,0.927877312868459,0.805726142464182,0.805780530049815,0.808561827505899,0.808246379509225,0.810392597311528,0.812382346213624,0.814920154632487,0.812527100864617,0.924555486484388,0.813157996857965,0.813573015972952,0.812298673004957,0.815976947257948,0.818032797994891,0.812530447792964,0.813264261832971,0.814484217215333,0.814922664828747,0.814882501688587,0.814378788972413,0.81717180067771,0.821819010687062,0.824635450890786,0.822162907574683,0.808668092480906,0.808796112490166,0.812937936319171,0.812586508842771,0.809897251916221,0.833073057252744,0.803244395095125,1.12517873890471,0.854889172948432,0.797043373600831,0.957757015683364,0.819480344504826,0.840547584982946,0.795044420645781,0.810111455330407,0.81497454221812,0.794651993297134,0.815265724984281,0.77830894218034,0.788763072871167,0.799975282832514,0.7994113254061,0.836609087051001,0.809911476361694,0.831497490733548,0.814977889146467,0.823556066498985,0.823167822810771,0.832498222309203,0.826278792709002,0.825836161435154,0.816159354852842,0.816631271749722,0.818238634088211,0.970692893743247,0.819533058626286,0.822410580272336,0.82246496785797,0.824969306993366,0.828403255477051,0.828622479283758,0.832323345303089,0.831856448798729,0.834832704831006,0.837911878909943,0.836260169770861,0.836334638926574,0.837560451433543,0.835986558378521,0.836840861839008,0.836916167726809,0.834779153977459,0.831433062362875,0.831161961166794,0.828045134143957,0.826596750901935,0.822803007620984,0.822401376219383,0.822833129976104,0.82015726076294,0.820373974373387,0.821667562179376,0.822684191664677,0.822618926561917,0.823685759972418,0.822119397506176,0.8201221180153,0.816627924821376,0.817766717191331,0.884768875763337,0.963513732439638
0.993075477061609,0.846170424605354,0.846948585445955,0.84348451460715,0.847182870430222,0.855349375596099,0.849450414385091,0.850487962172559,0.851826733511228,0.849793474540625,0.849918984353625,0.840522483020346,0.837711063209143,0.834611807560126,0.833921503588625,0.834153278376632,0.831870673244202,0.823705004810411,0.821931132786676,0.812672692247697,0.811386635030489,0.808695704639766,0.808425440175772,0.929115676356727,0.916732041474044,0.98901732644127,1.03904553790313,0.801347523454649,0.799618834963594,0.798516022073366,0.796680231875217,0.801391033523156,0.796730435800417,0.792977692391712,0.792942549644072,0.791560268236897,0.794508912110314,0.794836074356201,0.794927278153648,0.793375976864966,0.793423670593906,0.787622607037038,0.796964720784684,0.794869543639668,0.793821118335073,0.796184049747823,0.794404320599481,0.790192211275195,0.792917447681472,0.795854377305676,0.796240947529716,0.794452851060507,0.797262597407538,0.801328278616656,0.806623955993176,0.808467276780105,0.807269913164084,0.810534841766261,0.806097651510662,0.813203180390645,0.817551677045057,0.817217820942477,0.987461004760068,0.861624866246107,0.817205269961176,0.815911682155188,0.814755318411413,0.817374289842683,0.818185919966751,0.813273465885925,0.81479882847992,0.81720694342535,0.817107372307036,0.814225667000553,0.816686496067442,0.817462146711784,0.825590162201674,0.824138432031305,0.819912098261547,0.8097039668042,0.811924653762216,0.81198657193663,0.891630078874012,0.827643502742357,0.831850591674122,0.808584419272239,0.797368862382544,0.799407978477754,0.8566295756887,0.804444268907407,0.80688668986839,0.840497381057746,0.789550437764721,0.803475333151046,0.803174109599845,0.788615808023913,0.820989809189175,0.791958552710151,0.80686158790579,0.785661307025889,0.840974318347147,0.823074108817064,0.835051928637713,0.828138848137664,0.815161970205534,0.808581909075979,0.830308494438393,0.831976938219209,0.827463605343723,0.827845155175243,0.81995393486588,0.817707309213177,0.82004932232376,0.821147114821468,1.0914333338494,0.822081744562276,0.825742447441447,0.825983426282408,0.828017521985097,0.828771417595185,0.830277535351187,0.83324960772303,0.833180158959837,0.836449271222448,0.839719220217146,0.835417580559587,0.836907800405942,0.836399904029335,0.837301064486676,0.836932902368542,0.836655944047855,0.835082887724919,0.830955288341387,0.830352841238987,0.828450112473904,0.827779053340397,0.828959682314685,0.824562655199246,0.820758034401168,0.820800707737588,0.821222420709268,0.824320839626199,0.825688896587901,0.826052875045601,0.823462352505278,0.820473545491701,0.81722451479917,0.819029345910112,0.884283571153069,0.987226719775801
1.05584711820342,0.925132831624188,0.846580423327821,0.845567977502953,0.846931850804221,0.858227733974236,0.857491409737968,0.854395501017298,0.850287146471759,0.850513064135159,0.848856334603557,0.843124719809883,0.837786369096943,0.836034252107461,0.833203587458264,0.835804987515714,0.829608986413939,0.824886470516786,0.824037187448819,0.815671540046314,0.811855204999023,0.809549171368167,1.1675926883779,0.875765638510792,0.877489306609327,0.786555773626537,0.840681462116813,1.03237678317239,0.799898303480541,0.800023813293541,0.796821639597864,0.794847788605414,0.794254545555967,0.79415079077722,0.793936587363033,0.79169749229911,0.794375871708534,0.796043478757263,1.11608346112263,0.933575458378666,0.792550122295425,0.797483494678418,0.79947157011634,0.921409373838517,0.797688494039651,0.797500229320151,0.797152148772097,0.795245236346582,0.794755748075881,0.796221702691723,0.798008962428845,0.797298576887264,0.800642158305589,0.803041905930152,0.808466440048019,0.81510507242364,0.810480454180628,0.811476165363762,0.811829266304336,0.811557328376169,0.815773621360888,0.817278065652717,1.1181752913393,0.942260737438277,0.818021920477764,0.816229640348122,0.81736257559347,0.818824346548878,0.818614326795125,0.814130279542672,1.02945658818992,0.817248780029683,0.819952261401707,0.817993471586817,0.818955713486485,0.818907183025459,0.825256306099093,0.825044612881167,0.821003196902561,0.813221588496551,0.812746324671324,0.813152976465445,0.859181608553037,0.794093892995327,0.793605241456713,0.806649894687863,0.797489351803024,0.851659387093894,0.81991879211824,0.805006552869648,0.804863471682827,0.805917754112029,0.789803130854895,0.805490184015741,0.792575224258025,0.793530772300999,0.788240115316999,0.793811077550033,0.794323157587074,0.843618391741017,0.813870892595806,0.818392592792158,0.836807392555542,0.819246059520559,0.813742872586545,0.8145427884614,0.859608341917238,0.860202421698772,0.824249717398832,0.825658774232781,0.826023589422568,0.818604286010085,0.818592571760872,0.824452206563806,0.825012817061873,0.826191772571988,0.828403255477051,0.830101821612986,0.829949536373213,0.829696006550953,0.829311109791085,0.880752561747332,0.834730623516432,0.839041467226945,0.839384527382478,0.836594025873441,0.835538906712153,0.835005071640859,0.836545495412415,0.837602288037876,0.836313720624408,0.836357230692914,0.832630425978896,0.830544452886834,0.828654275103051,0.828579805947338,0.829503558171019,0.824444675975026,0.823740147558052,0.824636287622873,0.825621121288881,0.826549893905082,0.82738411579549,0.827039382175782,0.827039382175782,0.825891385752874,0.820229219722394,0.819794119037326,0.842539007349216,0.843785738158351
1.05460875471515,0.878317671375128,0.921903045769651,0.848781028715757,0.848663886223623,0.85859589609237,0.911644710387105,0.91087491686737,0.90566207596743,0.847910827345623,0.841451255636548,0.843643493703617,0.843225127660283,0.835413396899153,0.834447808071139,0.837167187352809,0.826494669587362,0.824555124610466,0.823688270168678,0.819628446084166,0.812637549500057,0.811641001584836,0.917359590539045,0.911410425402838,0.786754079131077,0.789342928207227,0.875271966579658,0.829033314738312,0.800440505872702,0.799865670929161,0.800295751221708,0.793446262360246,0.795622602517669,0.795928846461389,0.793310711762206,0.793542486550213,0.794382565565227,0.796099539807069,0.819143978205986,0.79694547594669,0.796138866215143,0.802817661730925,0.80170648151983,0.80189474623933,0.802891294154551,0.799482447633467,0.799846426091168,0.795255277131622,0.796703660373643,0.799880732106721,0.798921000403313,0.802066276317097,0.803133109727598,0.806475854413836,0.807259872379044,0.813190629409345,0.809644558826047,0.810749045180448,0.811712123812203,0.811892021210836,0.817178494534403,0.818393429524245,1.1134561223705,0.836020027661987,0.821632419431736,0.816695700120396,0.817739941764557,0.81984097603418,0.816989393082816,0.901352905721091,0.918974483466314,0.819937200224147,0.821426583338415,0.822794640300117,0.820695279494668,0.820102873177307,0.826156629824348,0.824745899526226,0.815439765258308,0.815026419607494,0.834282971850065,0.833225342492517,0.795157379477481,0.797920268827658,0.78883503183062,0.785886387957203,0.803931352138279,0.800229649386861,0.821203175871275,0.804905308287161,0.804845063576921,0.832492365184596,0.817908124913977,0.806320222245716,0.852412445971895,0.810817657211555,0.813242506798718,0.847224707034555,0.832217917060169,0.829122008339498,0.823343536548971,0.872954218699588,0.826621016132449,0.873146667079522,0.828627499676278,0.805889305221082,0.805607326507875,0.869707698203317,0.820415810977721,0.849751637936292,0.823928412277552,0.847375318810155,0.826021915958394,0.825255469367007,0.825925691768428,0.962216797705303,0.831151920381754,0.831546021194575,0.834129849878205,0.830871615132721,0.83034196372186,0.930772405888329,0.842421864857082,0.980181435606059,0.842472068782282,0.841777581150348,0.833275546417717,0.836229210683654,0.837778001776076,0.838305142990677,0.836874331122475,0.838330244953277,0.834239461781558,0.832350957461949,0.830358698363593,0.829643292429492,0.831803734677269,0.82215370352173,0.823846412533058,0.825724039335541,0.825167612497907,0.825724876067627,0.82771546170181,0.829552088632046,0.829636598572799,0.828386520835317,0.822915966452684,0.820891911535034,0.823505025841698,0.875380741750925
0.860771399517706,0.880509909442198,0.964475974339306,0.850103065412692,0.850019392204025,0.857993448989969,0.867816683687448,1.05859159944769,0.984867135291399,0.847350216847555,0.846321036380954,0.84602818015062,0.84320839301855,0.836518719985641,0.834210176158525,0.837485145545742,0.836188210811407,0.825492264547534,0.82510151066306,0.821205686067535,0.814627298402153,0.954702943567026,0.872920749416121,0.874041970412256,0.788540502136113,0.788622501880606,0.789693518951541,0.792454734837545,0.797270964728404,0.799182060814353,0.799668202156707,0.795927172997216,0.797445841734518,0.79667688494687,0.796196600729123,0.795562357807429,0.796068580719863,0.79924565245294,0.798027370534752,0.798505144556239,0.826387567880268,0.800149323106541,0.804954675480274,0.80698458752253,0.803092946587438,0.801363421364296,0.799930099299834,0.796424191856696,0.797326189046124,0.798438205989306,0.800970157283562,0.804723737424354,0.8043882078576,0.796210825174596,0.795986580975369,0.812008326970883,0.813077670577645,0.811465287846636,0.811979878079936,0.814833134495473,0.817037923543843,0.818688795950838,0.838531060654077,0.821954561285103,0.821516950403775,0.858436916995903,0.987971411332936,0.818487980250038,0.81712410694877,0.988933653232604,0.920145908387649,0.820753850740734,0.823807922857072,0.824123370853745,0.822839823832797,0.822370417132177,0.823257353144044,0.823945983651372,0.821004870366735,0.813454200016645,0.833787626454758,0.845233284668286,0.789752926929695,0.789645825222601,0.798479205861552,0.791838900021757,0.820900278855901,0.875522986205658,0.808570194826765,0.803975698938873,0.804572288916667,0.803802495396933,0.849776739898892,0.836409944814375,0.81447501316238,0.818999223554992,0.83802065408121,0.829363823912545,0.861900987834707,0.873874623994923,0.846864912237288,0.829292701685179,0.820920360425981,0.831649775973322,0.824084881177759,0.806504303304783,0.800989402121556,0.813219915032378,0.821896826771123,0.84104125691408,0.823243128698571,0.836003293020254,1.10367472427735,0.829287681292659,0.828606581374111,0.829087702323945,0.832446344919829,0.832253059807809,0.834754888746946,0.835177438450713,0.830849023366381,1.10265391113162,0.848312458747223,0.848781028715757,0.844672674170218,0.844722878095418,0.933148725014465,0.84028819803608,0.839116773114745,0.83819636781941,0.83814616389421,0.839359425419878,0.836228373951568,0.832295733144229,0.83063565668428,0.830844839705947,0.832091570515082,0.825883018432008,0.8251868573359,0.828165623564437,0.828640050657578,0.828484418489458,0.82996794447912,0.832145121368629,0.829396456463926,0.826992525178929,0.828510357184144,0.820812421986801,0.968935756361245,0.828881029498538
0.86166670285044,0.970918811406647,0.97327839589105,0.855098355970098,0.853475095721963,0.85348346304283,0.867398317644114,1.03909574182833,0.979905314017459,0.856679779613901,0.845157978780486,0.845919404979353,0.843693697628817,1.04243430285414,0.83839718352021,0.837552084112676,1.05111958191375,0.825745794369794,0.824533369576212,0.823904147047039,0.816506598668809,0.89533680201795,0.870218104776185,0.912464707832039,0.789127888060954,0.789478478805267,0.789276826372381,0.793560057924033,0.793343344313586,0.800762647726069,0.801473869999736,0.799643100194107,0.800410383517582,0.797355474669158,0.796793190706917,0.796602415791157,0.797186454787651,0.798539450571792,0.799592059536821,0.800466444567388,0.886785400092206,0.800050588720315,0.806280895837643,0.806485058466789,0.803512986094945,0.802666213223238,0.800722484585909,0.799726773402774,0.799389570371847,0.801708154984003,0.803451067920532,0.808876438770486,0.812153918353963,0.818192613823444,0.813202343658558,0.811617573086409,0.814204748698386,0.81463566572302,0.813195649801865,0.81745796305135,0.821133727108082,0.823300026480464,0.837301064486676,0.823378679296611,0.823941799990938,1.15284110168995,0.859800790297171,0.825255469367007,0.817592676917304,1.09950779848575,0.837443308941409,0.837669226604809,0.828469357311898,0.828765560470578,0.827596645745503,0.826185915447381,0.823415495508424,0.823755208735611,0.832269794449542,0.843835942083551,0.80417735137176,0.841735744546015,0.79177028799065,0.791818818451677,0.7936060781888,0.83267226258323,0.82494085810242,0.881020316015065,0.834778317245372,0.8097541707294,0.826211017409981,0.844145532955618,0.838756978317478,0.84056431962468,0.818216042321871,0.820837523949401,0.827671951633303,0.859650178521571,0.869331168764317,0.823704168078325,0.841978396851148,0.880133380003197,0.820291137896807,0.825257979563267,0.823274087785778,0.814940236202567,0.814920154632487,0.819053611140625,0.820986462260828,0.82744687070199,0.827845155175243,0.837987184797743,0.831179532540614,0.832249712879462,0.827468625736243,0.829116151214892,0.831043145210488,0.833944932087051,0.835058622494406,0.836471026256701,0.938671156786473,0.86695484963818,0.848923273170491,0.85121591908796,0.84625409781402,0.846530219402621,0.84348451460715,0.842396762894482,0.880769296389065,0.922773247139785,0.843191658376816,0.839894933955346,0.839233915606878,0.944653791206147,0.834832704831006,0.834857806793606,0.834524787423112,0.869933615866717,0.826480445141888,0.832383590013329,0.832018774823542,0.832221263988516,0.834546542457365,0.832867221159423,0.825187694067987,0.825825283918027,0.82800162407545,0.829502721438932,0.963279447455371,0.831587021066822
0.863574452008043,0.976575120312521,0.965061686799973,0.856922431919034,0.852629996314428,0.853299381983763,0.864737509608511,0.8820160271982,1.02549047809912,0.965329441067707,0.845132876817886,0.843149821772483,0.84348451460715,0.841325745823547,0.842036968097215,1.03266963940273,0.829506068367279,0.826051201581428,0.824574369448459,0.823438087274765,0.816217089366822,0.956108653472628,0.869983819791918,0.912096545713905,1.06306811611137,0.791046514735683,0.792657224002518,0.792100797164884,0.797086046937251,0.80145797209009,0.80173158348243,0.80187968506177,0.801314054171183,0.798973714524773,0.797565494422911,0.797696024628431,0.799877385178374,0.800576056470742,0.800587770719955,0.800553464704402,0.808478991029319,0.808543419399992,0.808673949605512,0.810586719155635,0.956811508425429,0.803886168605599,0.803731373169566,0.802413520133064,0.801129973112116,0.804766410760774,0.806115222884482,0.807679075154464,0.807511728737131,0.821272624634468,0.811054452392082,0.8098796805424,0.81495446064804,0.817472187496823,0.818812632299665,0.817293126830277,0.821355461111049,0.822194703393976,0.824898184766,0.825772569796567,0.824704899653979,0.854002236936564,0.831552715051268,0.831627184206982,0.826342384347588,0.826582526456462,0.830352841238987,0.834034462420325,0.830096801220466,0.831049002335094,0.828295317037871,0.832110815353076,0.894190479059215,0.854562847434631,0.813460057141252,0.809370947433707,0.804630023430647,0.805742040373828,0.794059586979773,0.815745172469941,0.831847244745775,0.8351531732202,0.826340710883415,0.857324063320635,0.878434813867262,0.835355662385173,0.838614733862744,0.869933615866717,0.869724432845051,0.882953167135268,0.839493302553745,0.838698407071411,0.853257545379429,0.854111012107831,0.877698489630994,0.849525720272891,0.809830313349287,0.812512876419144,0.807859809285184,0.825899753073741,0.899671074226889,0.828995661794412,0.814057483851133,0.864745876929378,0.828882702962711,0.828387357567404,0.838455754766277,0.855324273633499,0.876970532715593,0.818951529826052,0.819435997704233,0.823612127548791,0.834355767541605,0.833140832551764,0.835687008291494,0.835919619811587,0.983093263267663,0.852872648619562,0.850421023605626,0.850630206627293,0.849283067967758,0.85093979749936,0.845894303016753,0.843927982613084,0.845166346101352,0.843392474077617,0.842371660931882,0.842965740713416,0.841610234733014,0.849350006534691,0.835937191185407,0.834493828335905,0.953355804907491,0.913435317052573,0.869716065524184,0.834253686227032,0.835020132818419,0.831788673499709,0.837560451433543,0.944921545473881,0.826191772571988,0.82539269342922,0.827548952016563,0.831714204343995,0.834925582092626,0.83571043678992
0.865365058673512,0.97327839589105,0.884450917570403,0.858830181076637,0.854763663135431,0.852328772763228,0.864611999795511,0.883873572430602,0.888977638159275,0.963572303685704,0.846136955321887,0.841585132770414,0.844045125105218,0.846638994573888,0.842781659654349,0.839192079002545,1.04727898163595,0.827370728082103,0.825940752945988,0.823473230022405,0.81738516735981,0.868469334715049,0.947197456749617,0.869950350508451,0.860930378614173,0.885446628753537,0.797906044382185,1.09179312864667,0.934462394390534,0.803303803073279,0.802988355076605,0.804455146424533,0.804327126415273,0.803139803584292,0.801067218205616,0.800727504978429,0.801010320423722,0.800708260140435,0.80150064542651,0.807922564191685,0.808873091842139,0.809699783143767,0.810460372610548,0.811688695313776,1.03192494784559,0.804535472704854,0.8046894314088,0.801968378662957,0.803587455250659,0.806300977407723,0.808381093375178,0.810201822395767,0.818247838141165,0.823070761888717,0.816004559416808,0.815448132579174,0.81717682107023,0.820911993105115,0.819907914601113,0.815505867093154,0.822208091107363,0.823424699561378,0.825732406656407,0.825872977646968,0.827245218269103,0.995794856343279,1.01784274682697,0.83323454654547,0.828401582012878,0.827964807863637,0.829581374255079,0.83256432414405,0.831772775590062,0.82803425662683,0.831711694147735,0.832217917060169,0.838464122087144,0.818345735795305,0.816850495556429,0.843568187815817,0.811311329142689,0.794982502471368,0.828795682825698,0.824970143725453,0.826041160796388,0.843785738158351,0.884626631308603,0.91341858241084,0.891914567783479,0.870351981910051,0.884551325420803,0.903335960766494,0.924245895612321,0.891228447472411,0.901754537122692,0.866645258766113,0.889764166320743,0.8818905173852,0.848981844416557,0.832643813692283,0.837552084112676,0.815094194906514,0.861206500202773,0.882208475578133,0.903930040548028,0.939742173857407,0.859181608553037,0.860461808645639,0.831525939624495,0.829681782105479,0.844237573485151,0.853106933603829,0.834966581964873,0.904657997463429,0.817780104904717,0.8253374691115,0.83298854731199,0.832325855499349,0.834798398815452,0.939340542455807,0.849241231363424,0.849868780428425,0.854931009552765,0.855675701109899,0.851801631548628,0.851174082483627,0.846814708312088,0.845710221957686,0.846011445508887,0.847617971115289,0.84585246641242,0.844940428437952,0.843141454451616,0.849592658839825,0.83789514426821,0.849810209182358,0.855834680206366,0.836032578643287,0.869130353063516,0.835841803727527,0.84320839301855,0.839811260746679,0.83842228548281,0.851249388371427,0.825716508746761,0.826272098852308,0.82741925854313,0.83530127479954,0.836656780779941,0.83522345871548
0.867590766024048,0.867364848360648,1.07554379152358,0.998263215998949,0.852353874725828,0.851868570115561,0.91578653421611,0.958802930791698,0.890952325883811,0.890642735011744,0.851349796221827,0.841953294888548,0.844262675447751,0.844212471522551,0.843593289778417,0.837928613551676,0.838087592648143,0.831199614110694,0.827595809013416,0.825775079992828,0.821197318746668,0.918723463840314,0.943741753231679,0.844547164357218,0.840999420309747,1.04242593553327,0.800841300542215,0.801191054554443,0.803680332512279,0.802832722908485,0.803363211051432,0.803431823082539,0.804183208496366,0.80464926826864,0.801340829597956,0.803868597231779,0.805209878766708,0.803225986989219,0.803370741640212,0.807055709749897,0.809544150975647,0.810643616937528,0.811057799320429,0.812783977615224,0.814385482829106,0.814123585685979,0.809745803408534,0.80714021969065,0.805065124115714,0.806034059872075,0.808627092608659,0.811661083154916,0.81703122968715,0.971479421904715,0.818814305763839,0.81703122968715,0.815885743460501,0.820527933077334,0.81714669871511,0.81708896420113,0.823134353527304,0.823753535271438,0.827253585589969,0.827373238278363,0.827564013194123,0.837577186075276,0.839585343083278,0.838924324734811,0.832601140355863,0.831765245001282,0.831448960272521,0.831681571792615,0.831655633097928,0.829793067473006,0.832024631948149,0.832038019661536,0.838154531215077,0.820935421603541,0.8144925845362,0.894182111738349,0.809097336041366,0.815927580064835,0.808828745041546,0.841543296166081,0.840212892148279,0.849676332048492,0.908440026495167,0.885413159470071,0.91875693312378,0.892625790057147,0.92646323564199,0.914171641288841,0.921534883651517,0.898524751268154,0.886827236696539,0.898265364321287,0.891855996537412,0.88773090735014,0.864218735714777,0.852822444694362,0.821299400061242,0.830107678737593,0.865465466523912,0.887571928253673,0.904624528179962,0.860453441324772,0.871849732345187,0.839175344360811,0.832708242062956,0.874970743028457,0.843241862302016,0.84068982943768,0.821071808933668,0.847124299184155,0.821250032868128,0.824178595171465,0.821301073525415,0.834336522703612,0.834364971594559,0.840673094795947,0.916230002222044,0.854428970300764,0.859030996777437,0.859767321013705,0.851500407997427,0.852730404164829,1.0407106347556,1.0351379990584,0.846513484760887,0.848931640491357,0.847634705757022,0.846756137066021,0.846982054729421,0.849785107219758,0.84620389388882,0.842296355044082,0.839978607164012,0.838012286760343,0.86675403393738,0.867147298018114,0.841375949748748,0.840698196758547,0.840497381057746,0.900792295223024,0.924471813275721,0.900022501703289,0.829330354629079,0.840798604608947,0.837669226604809,0.83829677566981
0.866913013033847,0.867055257488581,0.924789771468655,0.861892620513841,0.853826523198363,0.852370609367562,0.915978982596043,1.02991679083759,0.890006818625877,0.892107016163413,0.960702312628434,0.842689619124816,0.845367161802153,0.844045125105218,0.843760636195751,0.844145532955618,0.989469161768071,0.829588904843859,0.826580852992288,0.8254629789245,0.82261808982983,0.913276337956107,0.866561585557447,0.915359800851909,0.851960610645094,0.839033099906078,0.800416240642188,0.800722484585909,0.803566536948492,0.802975804095305,0.802941498079751,0.803118048550038,0.80420496353062,0.806402221990209,0.806417283167769,0.805818182993715,0.804850920701527,0.804977267246614,0.805481816694875,0.806410589311076,0.812630855643364,0.814581278137386,0.815949335099088,0.815708356258128,0.815996192095942,0.814147014184406,0.814071708296606,0.806915975491423,0.806614751940223,0.808371889322225,0.810192618342814,0.813122017378238,0.81435703393816,0.818170022057104,0.819731364130826,0.816284864665842,0.817318228792877,0.819189161738666,0.817574268811397,0.822651559113297,0.823318434586371,0.824506594149439,0.826925586611996,0.826748199409622,0.831172838683921,0.837928613551676,0.839727587538012,0.84358492245755,0.834655317628632,0.832709078795043,0.830914288469141,0.831485776484335,0.852228364912828,0.836229210683654,0.829794740937179,0.829299395541872,0.836153068063768,0.838631468504477,0.865306487427445,0.88740458183634,0.867281175151981,0.843442678002817,0.831559408907962,0.830059148276566,0.898390874134287,0.876518697388793,0.923810794927254,0.924036712590654,0.932897705388465,0.910264102444103,0.938721360711673,0.911209609702037,0.921995086299184,0.927115886669591,0.917367957859912,0.917694283373712,0.956275999889962,0.89236640311028,0.825894732681221,0.834915541307586,0.840062280372679,0.832859690570643,0.868804027549716,0.911837158767038,0.911962668580038,0.878560323680262,0.879639708072063,0.852922852544762,0.853316116625496,0.84330880086895,0.845065938250952,0.84565165071162,0.818436939592751,0.809448763517767,0.818620183919732,0.829603966021419,0.821608990933309,0.860319564190905,0.836208292381488,0.841124930122747,1.09924004421801,0.876409922217526,0.859357322291237,0.860060177244038,0.855307538991765,0.852010814570294,0.854587949397231,1.01119909405883,0.942436451176477,0.850580002702093,0.849165925475624,0.849458781705958,0.848956742453957,0.850362452359559,0.846513484760887,0.841375949748748,0.839334323457278,0.840581054266413,0.842338191648415,0.84328369890635,0.846329403701821,0.843718799591417,0.840798604608947,0.948050923478018,0.913795111849841,0.922697941251985,0.991427114850874,1.01079746265723,0.838480856728877,0.839978607164012
0.866695462691313,0.867691173874448,0.930487916978862,0.865130773689245,0.855993659302833,0.852596527030962,0.850621839306426,1.05407324617969,0.892098648842546,0.891747221366145,0.986448558935201,0.844932061117086,0.846337771022687,0.843392474077617,0.843877778687884,0.843442678002817,0.831566939496742,0.831994509593029,0.828937090548345,0.825853732808974,0.821508583082909,0.815628029977808,0.909987980855502,0.912690625495439,0.872343404276321,1.04618286260241,0.800772688511109,0.802333193852744,0.805561306243108,0.805350449757268,0.804245963402866,1.17896387743571,0.808233828527925,0.811358186139542,0.810117312455014,0.808646337446652,1.00407850400129,0.808446358477939,0.807729279079664,0.812559733415997,0.813552934402872,0.81439970727458,0.818839407726439,0.817586819792697,0.817752492745857,0.816658883908582,0.814714318539167,0.811864409051976,0.80712264831683,0.809678028109514,0.967228822904443,0.815527622127408,0.818563286137838,0.819649364386333,0.820706993743881,0.852211630271095,0.818824346548878,0.82026268900586,1.05808956019569,0.823014700838911,0.824952572351633,0.825946610070594,0.82774558405693,0.829829883684819,0.830403045164187,0.833775075473458,0.837610655358743,0.837669226604809,0.837585553396143,0.837962082835143,0.834896296469593,0.827387462723836,0.81247857040359,0.812196591690383,0.83567529404228,0.833965013657131,0.824827062538633,0.826049528117255,0.826669546593475,0.893429052860348,0.861231602165373,0.858035285594302,0.858102224161236,0.847057360617221,0.869774636770251,0.91822979190918,0.917351223218178,0.990824667748473,0.972500235050449,0.914012662192374,0.942561960989477,0.928078128569259,0.934830556508668,0.96554699141024,0.960166804092967,0.959673132161833,0.948469289521352,0.928044659285792,0.866101382909779,0.836167292509241,0.838664937787944,0.854596316718098,0.903971877152361,0.912606952286772,0.930939752305663,0.945222769025081,0.89757924401022,0.884618263987736,0.855658966468166,0.842430232177949,0.842815128937816,0.839233915606878,0.820170648476327,0.819867751460953,0.819350651031392,0.828993988330238,0.841777581150348,0.841292276540081,0.835323029833793,0.841844519717281,0.974449820812385,0.867607500665781,0.868084437955182,0.855324273633499,0.854454072263364,0.852864281298696,0.919342645584448,1.01375949424404,0.849718168652825,0.85068877787336,0.851575713885227,0.850253677188292,0.853240810737696,0.852830812015229,0.846111853359287,0.841526561524348,0.838355346915877,0.839735954858879,0.843618391741017,0.862185476744174,0.847492461302289,0.847576134510956,0.844103696351284,0.907352274782499,0.953414376153558,0.922020188261785,0.900691887372624,0.853031627716029,0.842463701461416,0.840706564079413
0.866737299295647,0.86967422891985,0.869280964839117,0.864252204998244,0.864879754063244,0.853625707497563,0.850387554322159,0.86446138801991,0.988783041457004,0.891973139029546,0.949188879115886,0.846496750119154,0.846095118717554,0.846488382798287,0.844061859746951,0.842145743268482,0.829146273570012,0.83065071786184,0.830952778145127,0.827068667798816,0.816902372945803,0.816668924693622,0.841626969374748,0.880593582650865,0.810421882934561,0.806546976641203,0.805791407566942,0.803345639677612,0.808291563041905,0.811402532940136,0.810384229990661,0.809230376443146,0.809672170984907,0.80986963975736,0.809988455713667,0.810549066211735,0.812635039303797,0.810247005928447,0.809210294873066,0.810910534473175,0.8149820728069,0.817916492234844,0.819958118526313,0.817438718213357,0.817411106054497,0.818648632810678,0.818308919583491,0.813010732010711,0.813717770623945,0.814197218109606,0.816677292014489,0.817796002814364,0.818803428246712,0.822516008515257,0.82236707020383,0.826588383581068,0.82508393928924,0.825920671375908,0.827962297667377,0.826774974836395,0.827633461957317,0.827165728720869,0.829481803136766,0.831125981687068,0.831850591674122,0.835176601718626,0.837418206978809,0.837359635732742,0.835779048821027,0.842430232177949,0.832942527047223,0.822654069309557,0.816257252506982,0.824464757545106,0.816135089622329,0.824258084719699,0.84333390283155,0.835319682905446,0.868293620976849,0.918765300444647,0.907293703536432,0.875748903869058,0.896934960303486,0.876861757544326,0.887948457692674,0.920631212997916,0.942018085133144,0.992514866563542,0.982607958657396,0.965254135179907,0.951916625718423,0.942762776690278,0.999777701075818,1.02717230959332,1.02720577887679,0.967429638605243,0.957748648362497,0.971713706888982,0.971127994428314,0.921242027421183,0.912740829420639,0.910054919422436,0.891780690649612,0.934152803518467,0.928429556045659,0.93139995495333,0.930429345732795,0.971186565674381,0.878685833493262,0.862938535622175,0.839861464671879,0.839342690778145,0.823535984928905,0.815876539407548,0.815269908644714,0.822874966580437,0.825870467450708,0.835142295703073,0.835998272627734,0.844622470245018,0.902582901888493,0.867900356896115,0.86897137396705,0.86390914484271,0.860696093629906,1.03681146323173,0.860821603442906,0.901704333197492,0.852855913977829,0.852203262950228,0.852127957062428,0.854939376873632,0.851893672078161,0.850170003979625,0.846906748841621,0.841283909219214,0.838054123364676,0.83817126585681,0.856286515533167,0.861273438769707,0.848714090148824,0.850722247156826,0.843476147286284,0.844229206164285,0.863967716088777,0.898641893760288,0.855943455377633,0.902206372449492,0.846044914792354,0.846831442953821
1.0084462454937,0.871975242158187,0.870895857766385,0.864888121384111,0.862001395685107,0.856746718180834,0.853692646064497,0.858252835936836,0.976893078505455,0.939650133327874,1.06797973346011,0.846346138343554,0.847701644323956,0.846705933140821,0.842480436103149,0.842078804701548,0.829903516108446,0.835463600824353,0.83323705674173,0.830390494182887,0.817787635493497,0.817073066291483,0.91316756278484,0.812571447665211,0.810796738909388,0.807865666409791,0.808731684119492,0.803372415104385,0.808655541499606,0.811671123939956,0.812266877185663,0.813086037898511,0.812384856409884,0.809605232417973,0.809068887150419,0.809579293723287,0.818738163143952,0.814394686882059,0.812317081110864,0.812951324032558,0.815025582875407,0.818161654736238,0.819932179831627,0.817514860833244,0.819179957685712,0.820757197669081,0.822393845630603,0.819273671679419,0.814331931975559,0.816125048837288,0.81755586070549,0.822312682618196,0.827633461957317,0.826377527095228,0.828506173523711,0.826933117200776,0.826944831449989,0.826337363955068,0.828255153897711,0.828906131461138,0.829717761585206,0.832230468041469,0.829493517385979,0.830478351051987,0.83325462811555,0.846212261209687,0.838129429252477,0.837242493240609,0.835747253001734,0.836342169515354,0.834614317756386,0.823561923623591,0.834269584136678,0.850119800054425,0.816932495300923,0.822927680701897,0.846212261209687,0.836593189141355,0.8562781482123,0.932019136697464,0.973947781560385,0.932989745917999,0.925726911405723,0.90551146419183,0.937424425977337,0.982959386133796,0.997150362323681,0.986967332828935,0.964124546862905,0.963421691910104,0.968207799445844,0.972843295205983,1.01092297247023,1.0373218698046,1.02241130402018,1.02248660990798,0.973956148881251,0.968132493558044,0.969161674024645,0.922957328198852,0.922313044492118,0.952652949954691,0.948193167932752,0.942754409369411,0.952117441419223,0.971186565674381,0.994272003945544,0.941482576597676,0.942118492983544,0.872845443528321,0.84358492245755,0.843944717254818,0.821844112649663,0.815193766024827,0.812732100225851,0.816459741671956,0.83295340456435,0.923300388354386,0.831818795854829,1.12450098591451,0.859641811200704,0.862319353878041,0.864921590667578,0.864486489982511,0.862436496370175,0.863699961821043,0.897052102795619,0.891128039622011,0.853006525753429,0.854997948119698,0.855031417403165,0.855315906312632,0.850897960895026,0.850571635381226,0.847634705757022,0.846387974947887,0.841518194203481,0.84580226248722,0.850998368745427,0.854964478836232,0.858980792852237,0.85091469553676,0.850596737343826,0.904423712479162,0.951690708055022,0.90024841936669,0.857583450267502,0.900081072949356,0.853257545379429,0.848304091426356
1.20815745993955,0.873138299758655,0.872795239603121,0.871933405553853,0.861624866246107,0.861106092352373,0.858077122198636,0.857742429363969,1.01995967900624,0.939867683670407,1.10096371231655,0.851860202794694,0.852270201517162,0.851525509960027,0.843710432270551,0.837861674984743,0.837510247508343,0.838280041028077,0.835955599291314,0.831979448415469,0.82214868312921,0.816617047304249,0.907486151916366,0.815448132579174,0.812906140499878,0.811164901027522,0.807823829805458,0.807118464656397,0.811382451370056,0.811375757513362,0.81734500421965,0.817482228281864,0.812430039942564,0.933006480559732,0.810196802003248,0.813300241312698,0.81487162417146,0.814220646608033,0.816066477591222,0.816553455665662,0.817303167615317,0.819476997576479,0.819967322579267,0.82014219958538,0.819984057221,0.820717034528921,0.823022231427691,0.982022246196728,0.975069002556519,0.818279633960458,0.821813153562456,0.824720797563626,0.82771797189807,0.827111341135236,0.828182358206171,0.828901111068618,0.826404302522002,0.827054443353342,0.829806455186393,0.831302532157355,0.833503137545291,0.831326797387868,0.82784348171107,0.828818274592038,0.834367481790818,0.846337771022687,0.837677593925676,0.837644124642209,0.835548110765107,0.837292697165809,0.835503763964513,0.815190419096481,0.832502405969636,0.841919825605081,0.823160292221991,0.83539415206116,0.864051389297443,0.877982978540461,0.88982273756681,0.951021322385688,0.957146201260096,0.968366778542311,0.967245557546176,0.962735571599037,0.943323387188345,0.982139388688862,1.02634394482752,0.98904242840387,1.00609502833016,0.992029561953274,0.971504523867315,0.972550438975649,1.03279514921573,1.03404188002486,1.01560867215557,1.02364966750845,1.05121162244328,1.0114835829683,0.979411642086325,0.966266581004775,0.971621666359448,0.989352019275938,0.993033640457276,1.00168545023342,1.00832910300156,1.00664727150736,0.993694658805743,1.00144279792829,0.901612292667958,0.878928485798396,0.867908724216982,0.84056431962468,0.824177758439379,0.853993869615697,0.81226269352523,0.810884595778488,0.814812216193307,0.824652185532519,0.829016580096578,0.827794114517957,0.859583239954638,0.863448942195043,0.865674649545579,0.863415472911576,0.863950981447043,0.862235680669374,0.958970277209032,0.864620367116377,0.865038733159711,0.962200063063569,0.863239759173375,1.00542564266083,0.854044073540897,0.853416524475896,0.85391019640703,0.863022208830842,0.86176711070084,0.846881646879021,0.84854674373149,0.852755506127429,0.855742639676833,0.852696934881362,0.853776319273163,0.957899260138097,0.862536904220575,0.862720985279642,1.10364125499388,0.852370609367562,0.8560020266237,0.857867939176969
0.993393435254543,0.875104620162324,0.875062783557991,0.877665020347527,0.863532615403709,0.861733641417374,0.8564287599879,0.857742429363969,0.858353243787236,0.942352777967811,0.926530174208924,0.852312038121495,0.851860202794694,0.849852045786692,0.847090829900688,0.8355422536405,0.836782290592942,0.839970239843146,0.833349178841344,0.831785326571362,0.815634723834501,0.815620499389028,0.873523196518522,0.815966069740822,0.816771006008196,0.81208948998329,0.803182476920712,0.808714949477759,0.811842654017723,0.81221248960003,0.818864509689039,0.819595813532786,0.818871203545732,0.823347720209404,0.823288312231251,0.814045769601919,0.814609727028333,0.814090953134599,0.818514755676812,0.820200770831447,0.81738767755607,0.820788993488374,0.821006543830908,0.822112703649483,0.820829993360621,0.821012400955515,0.823608780620445,0.823391230277911,0.979336336198525,1.27562316808757,0.824490696239792,0.826404302522002,0.828561397841431,0.827992420022497,0.828088644212464,0.829565476345432,0.830445718500607,0.831926734294009,0.831648102509148,0.834330665579005,0.837978817476876,0.831817959122742,0.831403776739841,0.828032583162657,0.833030383916324,0.84610348603842,0.840321667319546,0.837711063209143,0.836320414481101,0.837953715514277,0.867046890167714,0.836507842468515,0.857851204535235,0.852186528308495,0.849366741176424,0.836718698954355,0.904616160859095,0.87687849218606,0.916531225773244,0.985461215072933,0.969103102778578,1.02539843756958,0.981001433050994,0.982290000464462,0.968559226922244,1.00830400103896,0.986289579838734,0.987352229588802,1.01004440377923,1.01111542085017,0.983586935198797,0.994246901982944,1.01733234025411,1.01678846439777,1.0628338311271,1.06347811483383,1.05162162116575,1.01928192601604,1.02141559283705,1.01812723573644,0.994397513758544,0.991586093947341,1.02970760781592,1.00776012518263,1.01535765252957,0.992473029959208,0.992397724071408,0.97574675554672,0.978424298224057,0.882350720032867,0.87922134202873,0.841267174577481,0.822742762910744,0.813968790249946,0.814588808726166,0.817555023973404,0.818142409898244,0.818303062458885,0.824818695217766,0.841334113144414,0.840447177132546,0.865515670449112,0.864427918736444,0.863750165746243,0.864453020699044,0.862244047990241,0.863331799702909,0.865306487427445,0.865482201165645,0.866243627364513,0.864218735714777,0.858010183631702,0.858662834659303,0.852445915255362,0.858453651637636,1.11327204131143,0.860855072726373,0.847760215570022,0.851910406719894,0.852722036843962,0.854931009552765,0.856755085501701,0.854763663135431,0.969044531532512,0.901662496593158,0.935056474172068,0.89798087541182,0.855458150767366,0.855491620050832,0.859867728864105
1.02739822725672,0.994732206593211,0.87715461377466,0.876635839880926,0.872176057858987,0.862930168301309,0.860771399517706,0.857859571856102,0.859800790297171,0.950778670080555,0.861373846620107,0.860913643972439,0.854847336344098,0.854797132418898,0.848454703201957,0.835986558378521,0.840212892148279,0.84089064513848,0.840120851618746,0.834537338404412,0.824126717782092,1.15817945240289,1.03914594575354,0.819404201884939,0.818877060670339,0.813206527318991,0.812837528468771,0.81233799941303,0.815437255062048,0.815450642775434,0.819281202268199,0.819158202651459,0.818774979355765,0.817561717830097,0.823208822683018,0.815003827841154,0.814874971099807,0.966366988855175,0.819022652053419,0.821553766615589,0.819480344504826,0.821347093790182,0.823677392651551,0.823204639022584,0.894023132641882,0.821849133042182,0.825331611986894,0.828820784788298,0.970525547325913,0.841175134047947,0.825984263014494,0.826728954571629,0.83300109829329,0.850605104664693,0.83037208607698,0.842170845231082,0.833681361479751,0.833881340448465,0.834733133712692,0.836337985854921,0.83804575604381,0.834355767541605,0.83290822103167,0.832327528963523,0.831724245129035,0.841501459561748,0.840263096073479,0.836899433085075,0.836063537730494,0.832376896156636,0.834928929020972,0.81755084031297,0.848847967282691,0.851517142639161,0.884919487538937,0.878618894926329,0.904683099426029,0.894165377096615,0.910381244936236,0.972090236327982,0.976424508536921,0.972985539660717,0.973571252121384,0.970140650566046,0.977202669377522,1.00506584786356,1.00102443188495,0.989226509462938,0.982858978283396,1.01023685215916,1.06075873555216,1.0101029750253,0.993836903260477,1.00096586063889,0.999853006963618,1.05770466343583,1.0630095448653,1.0349622853202,1.01642866960051,1.03527187619226,1.03816696921213,1.0416143054092,1.02033620844524,1.0370206462534,1.0344602460682,0.997058321794148,1.05126182636848,1.00893155010396,1.00089055475109,0.910782876337837,0.87738053143806,0.841752479187748,0.825871304182794,0.814717665467513,0.820158934227114,0.814707624682473,0.81761108502321,0.823235598109791,0.833042934897623,0.833907279143151,0.839744322179745,0.898248629679554,0.86697995160078,0.86645281038618,0.866494646990513,0.86695484963818,0.867682806553581,0.959597826274033,0.952920704222424,0.868042601350849,0.867565664061448,0.866461177707046,0.858813446434903,0.859591607275504,0.860670991667306,0.862720985279642,1.04142185702927,0.8560522305489,0.851676121735627,0.855039784724032,0.856236311607967,0.8560522305489,0.858361611108103,0.861599764283507,0.907963089205766,0.89249191292328,0.890718040899544,0.859524668708571,0.858344876466369,0.859440995499904
0.897470468838953,0.882183373615533,0.880434603554398,0.876543799351393,0.86640260646098,0.865021998517978,0.862026497647707,0.858319774503769,0.860595685779506,0.863917512163576,0.862888331696975,0.860629155062972,0.855441416125632,0.855173661857899,0.847358584168422,0.835806660979887,0.837928613551676,0.838932692055678,0.838907590093078,0.835136438578466,0.893060890742214,0.897286387779886,0.823122639278091,0.820532116737767,0.817973390016738,0.816568516843222,0.813016589135318,0.813307771901478,0.817160923160583,0.815468214149254,0.819429303847539,0.818736489679778,0.81728475950941,0.816562659718616,0.817744125424991,0.818195124019704,0.816397823497542,0.824276492825606,0.819851853551307,0.823519250287171,0.821565480864802,0.822157050450076,0.825489754351274,0.825017837454393,0.882836024643134,0.825368428198707,0.826118976880448,0.828455969598511,0.980281843456459,0.84061452354988,0.826509730764922,0.831946815864089,0.833375117536031,0.84315818909335,0.847308380243222,0.844672674170218,0.948594799334352,0.837409839657942,0.837518614829209,0.838254939065477,1.01843682660851,0.909352064469635,0.833514015062417,0.844614102924152,0.839719220217146,0.839158609719078,0.840229626790013,0.835754783590514,0.843827574762684,0.831501674393981,0.82028779096846,0.824028820127952,0.850496329493426,0.844237573485151,0.873573400443722,0.90276698294756,0.907000847306098,0.923434265488253,0.918966116145447,0.966341886892575,1.00400319811349,1.01696417813597,1.02231926349065,0.985812642549333,0.982256531180995,1.00327524119809,1.01452928776377,1.01764193112617,1.01697254545684,1.08155989522672,1.07957684018132,1.00113320705622,1.00049729067035,1.02501354080972,1.02945658818992,1.07024727741497,1.04759693982888,1.04788142873835,1.0349371833576,1.04291960746441,1.06630626928677,1.04348021796247,1.09923167689715,1.03249392566453,1.02968250585332,1.05001509555935,1.01094807443283,1.01167603134823,0.961229453843035,0.938604218219539,0.899277810146155,0.878083386390861,0.868862598795783,0.838104327289877,0.819897037083987,0.814935215810047,0.8254504279432,0.825928201964688,0.846823075632954,0.847341849526689,0.840899012459347,0.897872100240553,0.944285629088013,0.869925248545851,0.872150955896387,0.87216769053812,0.904264733382695,0.890500490557011,0.86909688378005,0.868268519014249,0.868686885057583,0.865641180262112,0.861030786464573,0.862930168301309,0.861993028364241,0.864536693907711,0.867306277114581,0.854805499739765,0.85358387089323,0.8563032501749,0.857031207090301,0.856336719458367,0.858210999332503,0.858478753600236,1.01457949168897,1.01161746010217,1.17011125195877,0.862110170856374,0.859466097462504,0.859457730141637
0.892701095944947,0.878828077947996,0.880894806202065,0.880099910719731,1.01688887224817,0.866544850915713,0.864980161913645,0.86174200873824,0.861424050545307,0.862478332974508,0.864955059951044,0.864193633752177,0.8559769246611,0.85358387089323,0.850253677188292,0.835732191824174,0.83787004230561,0.837418206978809,0.838748610996611,0.837719430530009,0.938436871802206,0.822237376730396,0.823053190514897,0.820653442890334,0.818791713997498,0.815671540046314,0.814898399598234,0.81738767755607,0.818340715402785,0.818211021929351,0.820063546769234,0.82005685291254,0.81756339129427,0.816610353447556,0.817363412325557,0.820163117887547,0.81977571093142,0.825728222995974,0.824620389713226,0.823254842947784,0.823381189492871,0.823256516411958,0.826307241599948,0.826969933412589,0.855541823976032,0.82806688917821,0.829301905738132,0.830606371061247,0.89997229777809,0.838865753488744,0.829063437093432,0.831424695042008,0.832828731483437,0.840832073892413,0.99105895273274,0.847325114884955,0.843350637473283,0.842823496258683,0.840572686945547,0.842287987723215,0.846722667782554,0.836799025234675,0.833901422018545,0.846739402424288,0.835412560167066,0.835600824886567,0.834494665067992,0.845885935695887,0.829904352840533,0.831214675288254,0.824121697389572,0.822067520116803,0.865482201165645,0.868988108608783,0.887287439344206,0.889856206850277,0.93711483510527,0.942377879930411,0.957531098019964,0.944896443511281,1.00095749331802,1.03037699348526,1.03876941631453,1.01584295713984,1.01551663162604,1.02267905828791,1.02451986887858,1.01929866065778,1.09134966064074,1.08198662859092,1.0890486474024,1.03583248669033,1.01475520542717,1.00798604284603,1.03169903018219,1.07152747750758,1.08439641700053,1.07821296688005,1.03497065264106,1.05537854823489,1.05680099278222,1.06951095317871,1.06770361187151,1.03597473114506,1.03383269700319,1.05183917150828,1.05188937543348,1.02392578909705,1.01533255056697,0.951448055749889,0.924547119163521,0.886768665450473,0.841526561524348,0.801055503956402,0.817625309468684,0.817784288565151,0.824181942099812,0.822508477926477,0.846513484760887,0.843635126382751,0.846145322642754,0.896550063543618,0.872535852656254,0.870879123124652,0.870954429012452,0.870971163654186,0.871983609479054,0.903946775189761,0.906122278615097,0.870075860321451,0.869406474652117,0.867640969949248,0.864570163191177,0.863582819328909,0.866762401258247,0.866026077021979,0.865021998517978,0.858018550952569,0.8564538619505,0.857106512978101,0.858779977151437,0.860353033474372,0.857708960080502,0.85899752749397,1.0610013878573,0.871364427734919,0.864754244250244,0.866042811663712,0.861708539454774,0.861273438769707
