0.534623, 0.533482, 0.537429, 0.536816, 0.535424, 0.535331, 0.536492, 0.537805, 0.538163, 0.538925, 0.538344, 0.537997, 0.537772, 0.536842, 0.536874, 0.536916, 0.536531, 0.534617, 0.534, 0.532793, 0.533065, 0.532021, 0.53137, 0.530659, 0.530863, 0.527928, 0.520944, 0.521473, 0.520709, 0.519083, 0.517481, 0.518194, 0.503958, 0.506825, 0.506343, 0.505981, 0.506945, 0.507601, 0.501606, 0.500365, 0.499819, 0.499182, 0.598077, 0.595244, 0.506445, 1.48866, 0.772951, 0.773412, 0.622238, 0.572288, 0.563527, 0.562535, 0.933805, 0.554331, 1.01685, 1.00467, 0.608422, 0.939156, 0.771835, 0.93247, 0.909416, 0.776452, 0.579014, 0.580891, 0.582199, 0.583407, 0.582605, 0.586868, 0.587463, 0.625035, 0.633502, 0.708088, 0.705233, 0.615433, 0.616299, 0.616332, 0.956686, 0.956805, 0.659887, 0.721473, 0.705622, 0.75074, 0.717117, 0.719166, 0.71871, 0.719139, 0.645742, 0.655917, 0.655156, 0.65526, 0.654989, 0.654966, 0.648538, 0.746057, 0.747461, 0.659118, 0.701179, 0.713814, 0.730649, 0.811905, 0.843103, 0.864121, 0.847327, 0.88458, 0.929391, 0.928444, 0.960541, 1.04928, 1.04966, 0.968271, 0.973272, 0.945144, 0.963528, 0.939251, 1.00275, 0.957264, 0.970784, 0.958888, 0.960113, 0.98112, 0.984819, 0.970907, 0.971299, 0.935302, 0.936947, 0.953833, 0.971763, 0.973288, 0.958154, 0.988573, 1.00299, 1.00151, 0.981395, 1.02164, 1.03673, 1.07338, 1.08025, 1.08145, 1.09423, 1.09408, 1.08885, 1.09186, 1.09606, 1.11529, 1.10611, 1.08947, 1.15232, 1.12484, 1.126, 1.09523, 1.09636, 1.10967, 1.10984, 1.094, 1.13233, 1.0917, 1.22892, 1.2244, 1.30907, 1.2677, 1.43048, 1.23722, 1.21562, 1.11544, 1.11857, 1.09121, 1.0919, 1.09485, 1.13435, 1.13382, 1.21413, 1.21915, 1.17376, 1.1813, 1.1642, 1.16517, 1.09611, 1.07567, 1.06868, 1.07933, 1.04934, 1.04026, 1.03347, 1.0403, 0.999104, 0.985003, 0.992346, 0.991492, 0.980858, 0.980574, 0.974659, 0.967224, 0.967, 0.959555, 0.966643, 1.00493, 0.944322, 0.93254, 0.930789, 0.931594, 0.897701, 0.891224, 0.956692, 0.967442, 0.968715, 0.889184, 0.876639, 0.890809, 0.95637, 0.885002, 0.870376, 0.948627, 0.860533, 0.863033, 0.843964, 0.84546, 0.855424, 0.84809, 0.85034, 0.884342, 0.886192, 0.856358, 0.842025, 0.857265, 0.848924, 0.845727, 0.872812, 0.873319, 0.923078, 0.925702, 0.897949, 0.871073, 0.874646, 0.876951, 0.877652, 0.876615, 0.876396, 0.876397, 0.922968, 0.912178, 0.866572, 0.866765, 0.86617, 0.835646, 0.835977, 0.832381, 0.831597, 0.825273, 0.919002, 1.22922, 0.819921, 0.823739, 1.1739, 0.926145, 0.925493, 0.821992, 0.824131, 0.948488, 0.916746, 0.950014, 0.81319, 0.811995, 0.810635, 0.81074, 0.810983, 0.810007, 0.810013, 0.796721, 0.796902, 0.797592, 0.806102, 0.809882, 0.810706, 1.06053, 0.819281, 0.821022, 0.817621, 0.818189, 0.821093, 0.821423, 0.820362, 0.820758, 0.821379, 0.823333, 0.824595, 0.825748, 0.827021, 0.826196, 0.824844, 0.824678, 0.822761, 0.822234, 0.821305, 0.811924, 0.813869, 0.814341, 0.81525, 0.816444, 0.832386, 0.818324
0.53457, 0.533347, 0.535226, 0.535731, 0.535237, 0.533805, 0.537922, 0.537788, 0.538074, 0.537786, 0.537699, 0.538011, 0.537494, 0.537642, 0.536936, 0.536747, 0.535807, 0.534778, 0.52511, 0.525097, 0.533396, 0.533053, 0.532593, 0.531752, 0.531244, 0.528807, 1.01995, 0.52116, 0.520937, 0.519983, 0.519043, 0.519432, 0.518651, 0.819148, 0.975548, 0.506566, 0.506408, 0.505582, 0.495138, 0.495604, 0.496464, 0.496115, 0.495448, 0.512224, 0.508672, 0.544773, 0.55883, 0.986573, 0.985592, 0.624778, 0.829678, 0.781226, 1.00344, 0.570134, 0.686659, 0.686639, 0.62224, 0.562062, 0.659992, 0.773183, 0.690364, 0.790627, 0.909247, 1.11092, 1.11159, 0.582547, 0.582935, 0.58161, 0.581607, 0.756125, 0.735343, 0.691015, 0.660205, 0.616259, 0.616235, 0.615858, 0.836132, 0.693847, 0.725247, 0.784258, 0.746144, 0.745812, 0.707709, 0.708407, 0.701827, 0.646238, 0.646881, 0.647031, 0.659493, 0.656616, 0.656302, 0.655289, 0.6497, 0.748563, 0.747914, 0.659715, 0.768554, 0.712356, 0.757131, 0.798372, 0.855898, 0.846599, 0.887248, 0.887455, 0.843398, 0.862633, 0.862151, 0.931879, 0.874968, 0.876524, 0.963897, 0.949239, 0.928794, 0.931506, 0.934366, 0.922502, 1.01678, 1.0166, 0.964435, 0.963575, 1.04997, 0.980828, 0.94102, 0.932375, 0.932201, 0.943984, 0.934824, 0.935502, 0.950778, 0.974818, 0.976623, 0.977292, 0.977525, 1.00788, 1.02268, 1.04298, 1.03283, 1.10572, 1.15849, 1.15968, 1.10303, 1.0968, 1.09594, 1.1132, 1.07668, 1.09393, 1.09497, 1.12601, 1.1329, 1.06693, 1.08738, 1.08815, 1.10891, 1.08226, 1.08253, 1.06697, 1.0842, 1.08838, 1.09471, 1.1025, 1.43502, 1.3463, 1.11675, 1.11621, 1.08866, 1.09274, 1.10755, 1.11012, 1.16483, 1.16386, 1.20251, 1.21132, 1.15865, 1.19095, 1.17855, 1.08778, 1.10888, 1.04801, 1.08429, 1.02882, 1.01605, 1.01069, 0.997456, 0.997009, 0.998099, 0.963828, 0.9604, 0.958408, 0.96382, 0.969847, 0.976618, 0.957409, 0.949565, 0.944619, 0.961402, 0.94388, 0.926146, 0.935584, 0.93389, 0.918171, 0.899829, 0.901066, 0.964714, 0.966628, 0.968754, 0.970015, 0.88768, 0.87671, 0.872535, 0.871844, 0.886922, 0.877017, 0.891606, 0.85543, 0.935949, 0.847576, 0.849339, 0.847873, 0.852398, 0.864741, 0.886874, 0.864989, 0.865337, 0.844791, 0.843898, 0.853842, 0.86015, 0.85935, 0.860308, 0.860166, 0.891033, 0.86944, 0.877166, 0.877765, 0.878226, 0.877734, 0.87739, 0.873388, 0.869848, 0.87253, 0.874904, 0.857085, 0.846612, 0.852479, 0.826332, 0.826163, 0.823314, 0.816087, 0.818572, 1.26101, 1.04636, 0.83857, 0.814675, 0.832658, 0.811707, 0.925727, 0.798333, 0.947981, 0.939706, 0.94001, 0.80889, 0.884611, 0.808444, 0.809001, 0.810093, 0.809292, 0.80933, 0.795353, 0.797, 0.797497, 0.944143, 0.805443, 0.80772, 0.807535, 0.808167, 0.816802, 0.817232, 0.817871, 0.838939, 0.820913, 0.819804, 0.821259, 0.823101, 0.824133, 0.826043, 0.827327, 0.822714, 0.824004, 0.824693, 0.822538, 0.821747, 0.821424, 0.821246, 0.813455, 0.813349, 0.812793, 0.8155, 0.817315, 1.18767, 0.82975
0.532217, 0.533263, 0.533704, 0.534234, 0.534442, 0.535194, 0.536338, 0.535912, 0.535105, 0.535061, 0.535737, 0.535731, 0.537194, 0.535527, 0.535846, 0.526017, 0.527115, 0.525328, 0.525961, 0.525232, 0.526433, 0.532311, 0.532586, 0.531854, 0.53296, 0.533915, 0.534126, 1.15285, 1.15523, 0.522266, 0.52107, 0.519924, 0.519032, 0.515801, 0.71864, 1.07022, 1.0701, 0.495943, 0.495782, 0.495243, 0.496486, 0.49643, 0.495478, 0.512372, 0.510051, 0.513672, 1.02834, 1.02281, 1.02391, 0.550821, 0.573205, 0.932599, 0.81289, 0.686351, 0.687207, 0.698131, 0.72203, 0.544583, 0.545358, 0.545771, 0.797054, 1.15202, 0.679327, 1.10952, 0.565907, 0.566699, 0.567962, 0.579487, 0.578995, 0.579982, 0.672216, 0.672967, 0.718394, 0.614697, 0.614692, 0.694768, 0.694668, 0.696577, 0.693473, 0.853652, 0.698258, 0.678394, 0.669779, 0.801883, 0.650878, 0.648057, 0.647657, 0.647599, 0.647461, 0.65684, 0.655837, 0.644134, 0.747086, 0.653578, 0.653085, 0.650361, 0.698092, 0.752684, 0.752789, 0.790117, 0.796835, 0.850075, 0.849065, 0.846801, 0.844665, 0.869949, 0.872375, 0.872787, 0.873368, 0.873302, 0.878583, 0.963897, 0.895917, 0.907438, 0.907873, 0.903936, 0.918756, 0.917769, 0.917689, 0.915448, 0.912907, 0.92894, 0.928745, 0.931671, 0.928343, 0.928683, 0.949439, 0.942467, 0.99447, 0.947819, 0.945106, 0.974589, 1.0322, 1.02989, 1.09597, 1.00372, 1.01211, 1.01729, 1.09021, 1.09018, 1.09113, 1.09747, 1.09779, 1.08174, 1.07556, 1.0752, 1.04833, 1.08386, 1.04537, 1.04392, 1.05735, 1.05678, 1.08189, 1.08263, 1.08432, 1.10954, 1.10574, 1.07867, 1.1085, 1.10806, 1.07256, 1.09065, 1.08396, 1.07467, 1.07217, 1.10895, 1.1358, 1.1539, 1.14468, 1.20206, 1.20139, 1.16467, 1.15812, 1.17811, 1.16885, 1.0857, 1.04133, 1.04162, 1.05677, 1.06011, 1.01883, 1.01277, 0.983563, 0.982363, 0.961187, 0.966982, 0.944747, 0.942921, 0.942475, 0.944058, 0.956135, 0.960349, 0.957256, 0.923809, 0.918482, 0.96127, 0.960043, 0.920972, 0.977277, 0.918251, 0.900079, 0.883875, 0.878212, 0.877183, 0.870044, 0.887053, 0.885997, 0.877148, 0.859001, 0.87709, 0.883807, 0.844323, 0.844369, 0.935883, 0.846775, 0.846371, 0.84968, 0.844934, 0.845582, 0.899495, 0.878459, 0.84545, 0.845176, 0.843221, 0.895329, 0.863291, 0.862898, 0.860804, 0.860753, 0.860336, 0.929733, 0.929345, 0.874794, 0.877233, 0.877609, 0.875448, 0.874419, 0.894929, 1.01242, 1.01183, 0.838462, 0.847877, 0.849711, 0.824161, 0.823435, 0.819873, 0.805517, 0.806333, 0.815625, 0.936879, 1.13669, 0.910215, 1.0153, 0.801433, 0.804968, 0.803899, 0.791879, 0.798694, 1.19678, 0.901712, 0.801913, 0.80045, 0.803591, 0.807857, 0.808637, 0.811188, 0.811189, 0.947407, 0.790802, 0.790471, 0.803705, 0.801215, 0.801806, 0.803385, 0.80512, 0.974495, 0.814819, 0.814896, 1.05136, 1.20955, 0.818108, 0.819949, 0.822668, 0.824961, 0.828179, 0.826635, 0.825191, 0.82537, 0.824363, 0.824198, 0.822699, 0.821468, 0.811584, 0.81102, 0.812503, 0.81284, 0.816127, 0.822045, 0.822134, 0.823107
0.649962, 0.648009, 0.587124, 0.588862, 0.608418, 0.840186, 0.552575, 0.654088, 0.663243, 0.531517, 0.881432, 0.673912, 0.526478, 0.526826, 0.526796, 0.527341, 0.527987, 0.52781, 0.528288, 0.525911, 0.578598, 0.531765, 0.531721, 0.534285, 0.535045, 0.534603, 0.533887, 0.531623, 0.528917, 0.52625, 0.521939, 0.520429, 0.519044, 0.516669, 0.51552, 0.774443, 0.496035, 0.496375, 0.496141, 0.4963, 0.495852, 0.496499, 0.500272, 0.556949, 0.573655, 0.867019, 0.96074, 0.979986, 0.549321, 0.921444, 0.887669, 0.904264, 0.534648, 0.534031, 0.534068, 0.812923, 0.548058, 0.546728, 0.545609, 0.546445, 0.545659, 1.02941, 0.800538, 0.566525, 0.567145, 0.567276, 0.570208, 0.569424, 0.570693, 0.58136, 0.81826, 0.821865, 0.823193, 0.797387, 0.806483, 0.688804, 0.881401, 0.694432, 0.684191, 0.895383, 0.920031, 0.861224, 0.990597, 0.650309, 0.650993, 0.649906, 0.647512, 0.647457, 0.660231, 0.650736, 0.648761, 0.643151, 0.686093, 0.654218, 0.704502, 0.704465, 0.688274, 0.752814, 0.762647, 0.757908, 0.761604, 0.781304, 0.849605, 0.849639, 0.83836, 0.852195, 0.872999, 0.872597, 0.869299, 0.851529, 0.851259, 0.962734, 0.963318, 0.88437, 0.893089, 0.904906, 0.904498, 0.919583, 0.892097, 0.91233, 0.932368, 0.918922, 0.920405, 0.928927, 1.00296, 0.946414, 0.939326, 0.949885, 1.01493, 0.956073, 0.95615, 0.946092, 1.02236, 1.02245, 0.98796, 0.98724, 1.01543, 1.01645, 1.08979, 1.09163, 1.06733, 1.17871, 1.17449, 1.05886, 1.06177, 1.0456, 1.04291, 1.04234, 1.04296, 1.03726, 1.03652, 1.043, 1.12575, 1.26404, 1.08478, 1.07726, 1.0773, 1.05289, 1.06335, 1.06477, 1.07078, 1.07386, 1.05933, 1.0653, 1.06191, 1.08923, 1.0826, 1.10102, 1.09208, 1.09238, 1.11192, 1.12387, 1.08801, 1.0899, 1.0904, 1.09074, 1.08269, 1.08417, 1.0611, 1.06249, 1.00873, 1.00046, 0.9846, 0.969196, 0.960484, 0.954171, 0.949531, 0.941332, 0.944379, 0.957863, 0.955318, 0.943335, 0.932861, 0.949934, 0.960121, 0.897416, 0.91503, 0.917272, 0.918253, 0.908623, 0.852987, 0.864807, 0.862106, 0.83925, 0.840245, 0.875287, 0.885142, 0.926598, 0.8518, 0.884557, 0.888552, 0.842911, 0.850753, 0.836898, 0.836559, 0.841538, 0.84148, 0.845577, 0.840096, 0.908048, 0.908032, 0.849107, 0.849232, 0.919341, 0.875323, 0.875535, 0.94188, 0.950967, 0.846803, 0.847777, 0.912467, 1.08453, 0.883229, 0.869696, 0.873854, 1.06516, 1.06603, 0.992135, 0.834211, 0.839964, 0.839504, 0.836466, 0.89805, 0.846728, 1.14611, 0.807979, 0.804225, 0.805117, 0.807835, 0.801736, 1.24005, 1.13654, 0.911658, 0.910775, 0.90514, 0.79164, 0.790639, 1.19591, 1.19648, 1.196, 1.02611, 0.792468, 0.802137, 0.805451, 0.807924, 0.808737, 0.80946, 0.809236, 0.790388, 0.791232, 0.791879, 0.800711, 0.801653, 0.803982, 0.805578, 0.807966, 1.17228, 0.822852, 0.82424, 0.817358, 0.818426, 0.821773, 0.823299, 0.823297, 0.825402, 0.825361, 0.825381, 0.826225, 0.823199, 0.820345, 0.818958, 0.807986, 0.80843, 0.810109, 0.811041, 0.811888, 0.815477, 0.818747, 0.821509, 0.823838
0.861253, 0.631017, 0.630308, 0.586378, 0.604258, 0.672873, 0.641379, 0.563936, 0.518278, 0.518181, 0.517497, 0.519717, 0.525473, 0.525726, 0.525966, 0.527393, 0.527994, 0.527835, 0.527541, 0.527844, 0.529945, 0.530725, 0.531747, 0.534775, 0.535585, 0.534605, 0.533488, 0.530946, 0.529777, 0.527525, 0.526789, 0.525024, 0.516373, 0.51709, 0.512977, 0.510628, 0.510854, 0.494485, 0.494637, 0.495419, 0.502319, 0.501892, 1.04041, 0.573106, 0.512382, 0.908095, 1.24426, 1.05017, 0.957813, 1.03085, 0.529274, 0.531929, 0.534808, 0.534484, 0.533898, 0.533321, 0.54777, 0.547502, 0.546135, 0.54546, 0.545957, 0.804049, 0.803923, 0.565383, 0.564756, 0.566133, 0.568402, 0.569635, 0.570655, 0.583542, 0.820858, 0.808679, 0.805318, 0.92898, 0.680483, 0.678336, 0.877684, 1.06809, 1.09478, 1.0396, 0.939323, 0.940342, 0.942096, 0.646462, 0.646949, 0.646168, 0.647146, 0.647698, 0.645737, 0.647955, 0.647396, 0.648002, 0.652508, 0.631348, 0.650986, 0.647979, 0.645966, 0.718017, 0.713422, 0.770633, 0.752171, 0.733346, 0.7341, 0.748428, 0.750494, 0.852505, 0.852314, 0.855671, 0.858973, 0.841894, 0.891267, 0.918893, 0.917968, 0.900645, 0.941053, 0.888161, 0.870525, 0.89041, 0.888944, 0.9086, 1.01069, 0.918778, 0.918781, 0.938701, 0.997574, 0.956438, 0.956633, 0.948874, 0.949132, 1.03122, 1.02996, 0.946194, 0.952718, 0.969619, 1.00478, 1.00291, 0.998729, 1.0363, 1.00504, 1.00652, 1.04738, 1.03022, 1.02988, 1.04026, 1.06019, 1.05966, 1.02717, 1.03979, 1.08264, 1.02201, 1.03279, 1.07368, 1.07358, 1.25809, 1.23375, 1.28489, 1.04783, 1.05653, 1.03356, 1.03647, 1.03283, 1.05097, 1.04292, 1.03718, 1.05232, 1.04999, 1.07589, 1.06824, 1.08401, 1.05839, 1.06226, 1.0628, 1.08526, 1.08136, 1.06465, 1.06442, 1.06461, 1.15658, 1.03078, 1.06019, 1.03085, 1.03178, 0.976801, 0.999458, 0.95946, 0.967867, 0.94519, 0.967791, 0.949491, 0.960501, 0.961379, 0.970967, 0.971416, 0.924667, 0.994753, 0.898689, 0.904979, 0.905947, 0.904718, 0.859215, 0.853359, 0.851066, 0.873929, 0.840497, 0.840633, 0.840224, 0.846181, 0.822849, 0.823749, 0.824509, 0.880448, 0.879233, 0.853907, 0.835235, 0.838664, 0.839212, 0.842259, 0.842225, 0.944302, 0.944222, 0.943464, 0.87145, 0.858114, 0.908214, 0.890414, 0.880479, 0.872827, 0.851542, 0.847839, 0.847984, 0.853841, 0.888198, 0.870327, 0.860697, 0.866563, 0.974183, 0.840334, 0.85289, 1.12885, 1.01484, 1.11664, 1.11551, 0.816899, 0.839305, 0.797704, 0.798446, 0.794713, 0.794061, 0.794061, 0.7936, 0.793421, 1.21549, 0.788449, 0.790073, 1.1194, 1.1063, 0.987056, 1.2124, 1.21954, 1.19775, 0.877885, 1.19386, 1.19117, 0.80456, 0.806531, 0.808, 0.805193, 0.804988, 0.795393, 0.792275, 0.793853, 0.794077, 0.795377, 0.939582, 0.802992, 1.27467, 1.16659, 0.822144, 0.822793, 0.815844, 0.829157, 0.824875, 0.81945, 0.82842, 0.825029, 0.822902, 0.82239, 0.822038, 0.818471, 0.808003, 0.80852, 0.810128, 0.809278, 0.809994, 0.811383, 0.812162, 0.812982, 0.8317, 0.81928, 0.820886
0.860881, 0.861341, 0.860859, 0.572125, 0.573056, 0.572502, 0.845894, 0.841646, 0.513696, 0.51986, 0.518441, 0.51759, 0.525855, 0.526889, 0.525816, 0.526859, 0.526328, 0.526587, 0.527502, 0.523706, 0.527092, 0.525996, 0.528048, 0.53408, 0.534676, 0.533836, 0.532592, 0.53056, 0.529471, 0.527728, 0.526292, 0.52519, 0.790227, 0.517038, 0.512099, 0.511808, 0.511003, 0.509366, 0.508814, 0.505603, 0.506993, 0.504739, 0.59554, 0.942389, 0.943539, 0.825703, 0.710999, 0.928265, 1.04471, 0.522087, 0.529769, 0.530319, 0.534605, 0.534639, 0.533373, 0.532815, 0.54688, 0.54659, 0.545508, 0.639739, 0.741868, 0.759458, 0.758894, 0.566504, 0.566262, 0.565835, 0.566352, 0.629755, 0.826066, 0.830718, 0.790751, 1.02519, 0.736301, 0.650786, 0.663014, 0.61706, 0.728932, 0.748121, 0.839211, 0.83816, 0.93707, 0.936992, 0.93724, 0.644389, 0.645617, 0.645391, 0.647812, 0.647191, 0.644919, 0.64706, 0.647268, 0.670262, 0.666757, 0.630935, 0.630711, 0.630504, 0.62945, 0.727984, 0.72134, 0.721116, 0.721419, 0.733466, 0.735447, 0.738949, 0.719395, 0.85234, 0.851828, 0.850383, 0.836144, 0.836408, 0.856865, 0.857995, 0.920916, 0.847622, 0.90696, 0.870288, 0.870324, 0.869871, 0.860552, 0.903929, 0.979251, 0.904192, 0.903739, 0.915107, 0.956665, 0.956537, 0.947304, 0.943739, 0.943178, 1.02462, 1.02575, 0.942043, 0.950269, 0.96958, 1.05534, 0.994379, 1.0083, 1.03977, 0.991105, 0.976831, 0.978272, 0.984727, 1.00098, 1.00518, 1.01657, 0.997999, 0.997764, 1.00454, 1.0442, 1.00231, 1.09238, 1.0851, 1.08406, 1.2234, 1.29854, 1.22009, 1.01943, 1.02538, 1.0736, 1.02236, 1.01204, 1.04595, 1.01168, 1.00096, 1.01882, 1.01882, 1.06755, 1.04621, 1.06369, 1.06045, 1.06064, 1.07672, 1.07667, 1.07605, 1.0298, 1.06299, 1.05729, 1.06279, 1.02507, 1.03158, 1.00522, 0.990563, 0.979297, 0.9489, 0.96378, 0.957028, 0.952131, 0.953316, 0.936966, 0.970836, 1.04779, 1.04801, 1.06549, 0.975251, 0.911935, 0.935113, 0.899805, 0.895604, 0.875968, 0.887855, 0.887877, 0.854256, 0.833457, 0.832522, 0.842231, 0.852597, 0.852858, 0.815719, 0.824946, 0.814462, 0.821275, 0.821837, 1.01559, 0.923343, 0.836675, 1.01338, 0.922073, 1.02253, 0.8348, 0.834604, 0.834964, 0.929489, 0.900548, 0.909399, 0.880462, 0.858685, 0.858708, 0.852788, 0.852534, 0.852354, 0.853479, 0.853325, 0.877829, 0.873683, 0.862329, 0.853785, 1.01818, 0.815604, 1.02319, 1.12862, 0.932087, 0.942812, 0.91607, 0.798099, 0.79846, 0.799242, 0.799059, 0.795554, 0.795931, 0.791425, 0.791124, 0.789649, 0.790772, 0.790361, 1.0987, 1.17397, 1.17394, 1.19913, 1.1985, 1.19812, 1.19683, 0.78372, 0.857078, 1.1779, 1.17834, 0.828605, 0.804815, 0.880703, 0.792017, 0.791212, 0.792771, 0.795821, 0.796355, 0.796355, 0.802188, 0.806733, 0.807636, 0.809154, 0.809838, 0.824682, 1.05439, 0.962008, 0.999305, 0.986753, 0.847936, 0.817075, 0.818457, 0.819167, 0.831477, 0.807717, 0.809071, 0.810581, 0.810516, 0.812961, 0.813051, 0.812296, 0.814482, 0.816746, 0.816727, 0.820498
0.494293, 0.496829, 1.14949, 1.14944, 0.501519, 0.770755, 0.569359, 0.515563, 0.514788, 0.516722, 0.517823, 0.526085, 0.527136, 0.527243, 0.526749, 0.52559, 0.524435, 0.52478, 0.524843, 0.524481, 0.513484, 0.713286, 0.994964, 0.995334, 0.533144, 0.520446, 0.519391, 0.52838, 0.527474, 0.526883, 0.514477, 0.514521, 0.514237, 0.512118, 0.512247, 0.511934, 0.51118, 0.511396, 0.510094, 0.508083, 0.507113, 0.507384, 1.03977, 1.04591, 1.04241, 1.04369, 0.515302, 0.521344, 0.52429, 0.522952, 0.522008, 0.52967, 0.535055, 0.535394, 0.534661, 0.533084, 0.567426, 0.715049, 0.618722, 0.638246, 0.561748, 0.561492, 0.560419, 0.566166, 0.565604, 0.56689, 0.880987, 0.894872, 0.888004, 0.611756, 0.610717, 0.624499, 0.686418, 1.06559, 0.632229, 0.619147, 0.722629, 0.611683, 0.767576, 0.776241, 0.786841, 1.00123, 0.937078, 0.641949, 0.694283, 0.642298, 0.647172, 0.643933, 0.645258, 0.646246, 0.834191, 0.831628, 0.631779, 0.631489, 0.631642, 0.63099, 0.645631, 0.644164, 0.645829, 0.720849, 0.683941, 0.677694, 0.708953, 0.690759, 0.722566, 0.737952, 0.770024, 0.79448, 0.82208, 0.833938, 0.851142, 0.859298, 0.858194, 0.850247, 0.856212, 0.929269, 0.880169, 0.853632, 0.868301, 0.877979, 0.923643, 0.891888, 0.895715, 0.932204, 0.925527, 0.942819, 0.937899, 0.939862, 1.02062, 0.934728, 1.02813, 0.948768, 0.964139, 0.986077, 1.0549, 1.05546, 0.986824, 1.00423, 0.976289, 0.978373, 0.983324, 0.98362, 1.0175, 1.02157, 0.993659, 0.99383, 0.994009, 0.987815, 1.04764, 0.990646, 0.979259, 1.05245, 1.0332, 1.24986, 1.24761, 0.985643, 1.03948, 1.00787, 1.05316, 1.00525, 0.981227, 0.980896, 0.994889, 1.00828, 1.02023, 1.00406, 1.03077, 1.02172, 1.07441, 1.10147, 1.12981, 1.04149, 1.08171, 1.08332, 1.01431, 1.0182, 1.02255, 1.05018, 1.08263, 1.00699, 1.00872, 0.975057, 1.04011, 0.942557, 0.942884, 0.939821, 1.00533, 0.932789, 0.951341, 0.970641, 1.04675, 1.19836, 1.08443, 0.971572, 0.894332, 0.897686, 0.880489, 0.871458, 0.870322, 0.859293, 0.858654, 0.825888, 0.82518, 0.811077, 0.811686, 0.820016, 0.81854, 0.812241, 0.884469, 0.816216, 0.822045, 0.823024, 0.9881, 0.828952, 0.829553, 0.976692, 0.836827, 0.838526, 0.83762, 0.83465, 0.929722, 0.903084, 0.904859, 0.923004, 0.922747, 0.857099, 0.853339, 0.852577, 0.853828, 0.853466, 0.852659, 1.01418, 0.847017, 0.846288, 0.861567, 0.861047, 0.858181, 1.11119, 0.921081, 0.783483, 0.783078, 0.784357, 0.791466, 0.792917, 0.796402, 0.801776, 0.802644, 0.793794, 0.795372, 1.22341, 0.78665, 0.786734, 0.784138, 0.783333, 0.782314, 0.780864, 1.19993, 1.19885, 0.767965, 0.768393, 0.779833, 0.878908, 0.852977, 0.819733, 0.820624, 0.835754, 0.80235, 0.801741, 0.798609, 0.791252, 0.793457, 0.795901, 0.797047, 0.800557, 0.80128, 0.809183, 0.810288, 0.810608, 0.810597, 0.809971, 1.05831, 0.811423, 0.812483, 1.09642, 1.35308, 0.81716, 0.817863, 0.817692, 0.814366, 0.814094, 0.808454, 0.808116, 0.809111, 0.815062, 0.817994, 0.81781, 0.814467, 0.814504, 0.815741, 0.82252
0.493638, 0.656079, 0.503976, 0.500931, 0.498631, 0.499695, 0.500015, 0.515338, 0.514109, 0.513639, 0.524736, 0.872829, 0.527665, 0.527, 0.525193, 0.52455, 0.519514, 0.517133, 0.516099, 0.515695, 0.514369, 0.513947, 0.518813, 0.519138, 0.519985, 0.519715, 0.51904, 0.518371, 0.517571, 0.516173, 0.515593, 0.51438, 0.513747, 0.512806, 0.511845, 0.510579, 0.511504, 0.510749, 0.510164, 0.509399, 0.508579, 0.507483, 0.517466, 0.517271, 0.517328, 0.517092, 0.518137, 0.521501, 0.522455, 0.521219, 0.517982, 0.530444, 0.535536, 0.535165, 0.535555, 0.850606, 0.860536, 0.928601, 0.591535, 0.61159, 0.561512, 0.561409, 0.560083, 0.565643, 0.566215, 0.573313, 0.575722, 0.638788, 0.639907, 0.633022, 0.653459, 1.02914, 1.02667, 0.726965, 1.04664, 0.72535, 0.610149, 0.611646, 0.610573, 0.609707, 0.828226, 0.826257, 0.904057, 0.877653, 0.64639, 0.650998, 0.850909, 0.850041, 0.844833, 0.83685, 0.837834, 0.831541, 0.627504, 0.631449, 0.629517, 0.626579, 0.626583, 0.655728, 0.632974, 0.645021, 0.672727, 0.646886, 0.645332, 0.645298, 0.682256, 0.704453, 0.736977, 0.745414, 0.793276, 0.794184, 0.888564, 0.858357, 0.858975, 0.933725, 0.866041, 0.869558, 0.868703, 0.871235, 0.8878, 0.852848, 0.913118, 0.956404, 0.963329, 0.902199, 0.981325, 0.979068, 0.982383, 0.929269, 0.942713, 1.02568, 0.946616, 0.946735, 0.94669, 0.949829, 0.949413, 0.949668, 0.951237, 0.967964, 0.981358, 0.979345, 0.983387, 0.977838, 1.04727, 0.984775, 0.98196, 0.991692, 0.990911, 0.986894, 0.987238, 0.97813, 0.97869, 0.980056, 1.01188, 1.0261, 1.01077, 0.985775, 0.987336, 0.987476, 0.961874, 0.95591, 0.94701, 0.947505, 1.00192, 1.01275, 1.0468, 1.14048, 1.03275, 1.02383, 1.02552, 1.11653, 1.11741, 1.05635, 1.01255, 0.993609, 0.990008, 0.990901, 0.992372, 1.00661, 1.00759, 1.04363, 0.975796, 1.00493, 0.970951, 0.942854, 0.942268, 0.964611, 0.938285, 0.93662, 0.919356, 0.945653, 0.941319, 0.971932, 0.963004, 0.962843, 0.85763, 0.858818, 0.871378, 0.873075, 0.852722, 0.859771, 0.863387, 0.825252, 0.845363, 0.811287, 0.811437, 0.810706, 0.849005, 0.813393, 0.812682, 0.808465, 0.9877, 0.988242, 0.939133, 0.818706, 0.819198, 0.940563, 0.836577, 0.837687, 0.839045, 0.846971, 0.892196, 0.950652, 0.943093, 0.853284, 0.852903, 0.854346, 0.854283, 0.853652, 0.853222, 0.853673, 1.22259, 1.02602, 1.00327, 0.843618, 1.0787, 0.860639, 0.814175, 0.894766, 0.785093, 0.786759, 0.786434, 0.785693, 0.790967, 0.793285, 0.80159, 0.802945, 0.803418, 0.802768, 0.790345, 0.787505, 0.785501, 0.784216, 0.780143, 0.780096, 0.780653, 0.781368, 0.783083, 0.765858, 0.767629, 0.772789, 0.773767, 1.18448, 0.787395, 0.788297, 0.795342, 0.799819, 0.801097, 0.800023, 0.800305, 0.800554, 0.800249, 0.795631, 0.797322, 1.12948, 0.808236, 0.80965, 0.81072, 0.809871, 0.808414, 0.809319, 0.939318, 0.807909, 1.26186, 1.16005, 1.02648, 0.818527, 0.814472, 0.82283, 0.81011, 0.810766, 0.807391, 0.807895, 0.808118, 0.814394, 0.815441, 0.816612, 0.817054, 0.81643, 0.957138, 0.89756
0.496744, 0.49722, 0.4999, 0.499378, 0.499027, 0.498118, 0.499137, 0.653245, 0.642584, 0.650092, 0.650965, 0.516608, 0.516914, 0.517879, 0.5187, 0.518849, 0.518965, 0.517543, 0.516262, 0.516284, 0.516105, 0.514633, 0.520676, 0.519234, 0.52051, 0.520847, 0.520623, 0.520426, 0.518852, 0.518533, 0.514565, 0.513949, 0.513745, 0.512916, 0.510419, 0.509916, 0.510926, 0.509637, 0.509105, 0.508277, 0.508246, 0.50785, 0.517575, 0.519306, 0.519785, 0.518411, 0.51898, 0.51954, 0.519808, 0.516071, 0.514923, 0.790198, 0.530101, 0.533649, 0.584161, 0.579607, 0.543929, 0.548579, 0.549159, 0.583146, 0.77354, 0.721286, 0.630216, 0.629613, 0.721807, 0.577213, 0.628102, 0.628998, 0.64291, 0.759824, 0.594186, 0.751976, 0.59998, 0.956146, 0.604936, 0.607323, 0.608283, 0.610197, 0.610068, 0.610543, 0.609274, 0.60935, 0.624451, 0.631612, 0.631299, 0.689455, 0.849709, 0.847742, 0.84027, 0.617112, 0.617858, 0.61701, 0.61795, 0.621198, 0.619651, 0.6431, 0.642264, 0.63452, 0.63429, 0.633286, 0.652807, 0.649016, 0.646399, 0.645686, 0.686628, 0.694324, 0.703399, 0.77631, 0.79509, 0.794623, 0.772059, 0.860618, 0.857831, 0.857166, 0.866647, 0.865638, 0.867979, 0.922332, 0.911274, 0.904552, 0.875026, 0.880338, 0.947851, 0.893102, 0.915345, 0.924049, 0.922587, 0.942586, 0.914969, 0.916851, 0.945783, 0.97072, 0.974367, 0.95637, 0.949474, 0.949336, 0.939373, 0.971797, 0.973881, 0.977046, 1.01242, 0.98063, 1.04405, 0.985121, 0.974743, 0.970902, 1.01425, 1.01476, 0.994772, 0.983778, 0.980001, 0.982213, 1.00458, 1.00017, 1.02229, 1.01714, 0.957011, 0.955236, 1.02582, 0.973824, 0.99546, 0.945538, 0.945498, 0.983883, 1.17148, 1.219, 1.02396, 1.028, 1.02816, 1.11687, 1.11786, 1.04595, 1.01616, 1.04294, 0.963367, 0.97672, 0.96139, 1.01327, 1.03453, 1.05679, 0.973366, 0.974749, 0.960453, 0.943883, 0.969708, 0.970472, 0.928607, 0.925683, 0.942454, 0.894027, 0.9118, 0.883586, 0.880044, 0.874687, 0.859004, 0.859355, 0.868536, 0.891935, 0.858981, 0.858116, 0.843875, 0.844358, 0.821655, 0.811125, 0.811037, 0.811204, 0.811448, 0.807065, 0.804042, 0.804766, 0.843108, 0.925683, 0.982285, 0.799679, 0.798302, 0.907939, 0.909132, 0.944138, 0.88705, 0.84751, 0.848628, 0.843967, 0.849415, 0.909802, 0.854116, 0.854229, 0.851603, 0.852313, 0.852317, 0.852685, 1.06096, 1.05951, 1.02179, 0.832439, 0.829021, 0.81525, 0.942693, 0.796362, 0.784739, 0.786124, 0.7862, 0.788353, 0.818869, 0.794365, 0.798841, 0.801615, 0.801493, 0.790382, 0.790954, 0.787798, 0.784133, 0.778713, 0.781353, 0.780986, 0.782052, 0.783369, 0.783178, 0.78188, 0.777466, 0.773403, 0.775231, 0.7761, 0.78529, 0.80056, 0.815252, 0.81489, 0.797305, 0.798846, 0.799054, 0.800739, 0.801049, 0.801471, 0.802626, 0.8036, 0.808224, 0.803534, 0.804095, 0.805438, 0.805895, 0.807624, 1.26198, 0.804576, 0.806807, 0.801474, 0.802806, 0.803662, 0.811498, 0.811176, 0.813513, 0.809823, 0.811197, 0.807526, 0.875967, 0.813954, 0.815668, 0.817451, 0.81809, 0.81895, 0.908684, 0.911097
0.495808, 0.49784, 0.500457, 0.499863, 0.500299, 0.500224, 0.500311, 0.94695, 0.607737, 0.617649, 0.649036, 0.517467, 0.516928, 0.518059, 0.517713, 0.518486, 0.524814, 0.517838, 0.521446, 0.516753, 0.515575, 0.520165, 0.520244, 0.519608, 0.523971, 0.519828, 0.519218, 0.52073, 0.520523, 0.518166, 0.517359, 0.51377, 0.513788, 0.512604, 0.577772, 0.506283, 0.505722, 0.506941, 0.506998, 0.506608, 1.02625, 0.535279, 0.517237, 0.517667, 0.517085, 0.521064, 0.520689, 0.518624, 0.518214, 0.515679, 0.515613, 0.51997, 0.819009, 0.604363, 0.650049, 0.980442, 0.54839, 0.548962, 0.548568, 0.54851, 0.773234, 0.62774, 0.558822, 0.630826, 0.631213, 0.573522, 0.578276, 0.57964, 0.646292, 0.76001, 0.76025, 0.751193, 0.747506, 0.739618, 0.70492, 0.606593, 0.701268, 0.608083, 0.608546, 0.60905, 0.60861, 0.60733, 0.624447, 0.618547, 0.629266, 0.604882, 0.605179, 0.891942, 0.839687, 0.618545, 0.617963, 0.618481, 0.618919, 0.620893, 0.62159, 0.629693, 0.631108, 0.629744, 0.633615, 0.689655, 0.655829, 0.655594, 0.645603, 0.659325, 0.677697, 0.704411, 0.708965, 0.756861, 0.728249, 0.717111, 0.764445, 0.77327, 0.772196, 0.808103, 0.861266, 0.860981, 0.80503, 0.802045, 0.83882, 0.899347, 0.87462, 0.921751, 0.878627, 0.878408, 0.909455, 0.886822, 0.886907, 0.91657, 0.915512, 0.919128, 0.918607, 0.917793, 0.985446, 0.952188, 1.01968, 0.945612, 0.946196, 0.97098, 0.959634, 0.959371, 0.947676, 0.981475, 0.979007, 0.960658, 0.959103, 0.960762, 1.02591, 1.04111, 1.0046, 0.985689, 0.984047, 1.01951, 0.972009, 1.01428, 0.982335, 0.995269, 0.995821, 0.958258, 0.9585, 0.994316, 0.934825, 0.944395, 0.986378, 0.956938, 1.1575, 1.16503, 1.14324, 1.02535, 1.1061, 1.02592, 0.985967, 0.973329, 1.04205, 0.946244, 0.950211, 0.974666, 0.97306, 0.937198, 0.934691, 0.935076, 0.9493, 0.967681, 0.969105, 0.994765, 0.956963, 0.991471, 0.919375, 0.891927, 0.893775, 0.867941, 0.853447, 0.849779, 0.851311, 0.876901, 0.859257, 0.860603, 0.858081, 0.852148, 0.850089, 0.849912, 0.849945, 0.886638, 0.844652, 0.821496, 0.809807, 0.810681, 0.807839, 0.80772, 0.804329, 0.805268, 0.804992, 0.805956, 0.808773, 0.796813, 0.798472, 0.906021, 0.905852, 0.947389, 0.830703, 0.831757, 0.841753, 0.939246, 0.850363, 0.855472, 0.856082, 0.856471, 0.856093, 0.85246, 0.853157, 0.846167, 0.84321, 0.842923, 1.09215, 1.09273, 0.825777, 0.809877, 1.07112, 0.793029, 0.873572, 0.867491, 0.80895, 0.818958, 0.793979, 0.804174, 1.09765, 0.793166, 1.02204, 0.789823, 0.789781, 0.779495, 0.778279, 0.778517, 0.779925, 0.781154, 0.781869, 0.782532, 0.782349, 0.805738, 1.16396, 0.781285, 0.818391, 0.784512, 0.785513, 1.06287, 1.06444, 0.792872, 0.792172, 0.793451, 0.795115, 0.796707, 0.798871, 0.801686, 0.802701, 0.80303, 0.803182, 0.80357, 0.804002, 0.81187, 0.804567, 1.26121, 0.801714, 0.800532, 0.802822, 0.803966, 0.803663, 0.803747, 0.80759, 0.810688, 0.809726, 0.811078, 0.811235, 0.81084, 0.812887, 0.814409, 0.814835, 0.816769, 0.818197, 0.820364, 0.821656, 0.870193
0.49482, 0.49876, 0.499579, 0.500749, 0.500175, 0.639481, 0.638702, 0.707593, 0.521112, 0.51945, 0.521771, 0.523389, 0.523902, 0.518504, 0.523365, 0.52216, 0.524215, 0.524272, 0.522724, 0.522934, 0.524785, 0.524974, 0.524834, 0.525347, 0.525396, 0.524129, 0.52424, 0.523788, 0.522897, 0.522489, 0.522178, 0.521318, 0.913517, 1.19078, 0.753346, 0.506581, 0.505728, 0.505295, 0.505867, 0.947599, 1.21652, 0.516387, 0.517893, 0.517577, 0.517321, 0.518049, 0.517669, 0.516893, 0.515343, 0.514473, 0.520495, 0.520559, 0.52132, 0.827226, 0.827837, 0.567404, 0.548346, 0.549369, 0.549133, 0.54845, 0.548581, 0.629369, 0.62835, 0.722026, 0.572528, 0.572681, 0.57274, 0.601349, 0.773585, 0.678086, 0.75768, 0.751952, 0.594499, 0.593865, 0.924345, 0.92308, 0.667036, 0.632929, 0.600968, 0.603832, 0.644467, 0.644849, 0.602503, 0.60192, 0.601811, 0.605491, 0.605474, 0.833295, 0.611022, 0.617405, 0.618269, 0.618738, 0.618661, 0.629807, 0.630377, 0.630047, 0.62999, 0.629901, 0.690374, 0.656898, 0.65645, 0.655513, 0.635366, 0.635798, 0.635878, 0.636384, 0.671986, 0.7175, 0.712004, 0.71154, 0.782867, 0.836241, 0.766703, 0.839526, 0.804592, 0.804735, 0.803916, 0.802497, 0.801417, 0.849575, 0.797569, 0.921369, 0.877457, 0.877574, 0.94228, 0.886917, 0.887234, 0.919618, 0.900484, 0.920282, 0.918652, 0.91666, 0.918565, 0.981957, 0.966601, 0.969621, 0.937533, 0.940589, 0.951306, 0.985328, 0.98575, 0.953267, 0.959601, 0.941672, 0.941922, 0.942349, 0.945725, 0.953792, 0.966986, 1.03413, 1.0329, 0.96995, 0.970092, 0.968911, 0.999104, 0.99072, 0.956247, 0.958062, 0.949503, 0.95084, 0.942928, 0.993837, 0.994373, 1.0181, 1.01857, 1.02186, 1.10142, 1.01822, 0.973601, 0.960783, 0.967432, 0.966857, 0.952528, 0.971138, 0.929275, 0.913894, 0.915299, 0.964964, 0.990724, 0.954346, 0.932615, 0.934007, 0.9361, 0.993852, 0.951063, 0.9524, 0.872384, 0.887294, 0.866744, 0.861785, 0.854054, 0.832863, 0.870412, 0.843603, 0.845965, 0.828974, 0.838929, 0.841256, 0.821368, 0.833405, 0.82641, 0.825877, 0.822059, 0.859311, 0.859125, 0.857618, 0.805948, 0.80642, 0.805698, 0.805654, 0.805166, 0.804365, 0.824517, 0.788178, 0.799971, 0.923586, 0.821845, 0.830832, 0.831196, 0.831737, 0.95477, 0.933741, 0.905285, 0.855031, 0.855582, 0.856246, 0.85919, 0.850932, 0.850074, 0.845487, 0.843033, 1.09242, 1.05843, 1.08224, 0.794777, 0.798496, 0.791035, 0.825885, 0.770208, 0.770101, 0.769813, 0.824714, 1.01894, 0.790363, 1.01637, 0.781718, 0.787299, 0.791392, 1.10497, 0.77936, 0.778684, 0.779185, 0.78022, 0.780991, 0.782076, 0.782639, 0.783168, 0.807705, 0.80758, 0.782879, 0.783872, 0.785178, 0.786063, 0.789089, 0.790247, 0.791164, 0.793272, 0.793751, 0.795417, 0.796849, 0.796938, 0.797856, 0.800889, 0.803806, 0.802519, 0.802308, 0.803553, 0.800679, 0.797095, 0.797214, 0.797442, 0.800909, 0.801725, 0.804078, 0.804102, 0.805795, 0.807528, 0.810316, 0.809971, 0.810788, 0.811191, 0.810139, 0.812391, 0.814129, 0.812434, 0.814613, 0.818232, 0.820195, 0.856708, 0.824055
0.495667, 0.498556, 0.498907, 0.500021, 0.500151, 0.499954, 0.00411443, 0.514503, 0.784308, 0.755, 0.524423, 0.96086, 0.525388, 0.524978, 0.524555, 0.523969, 0.52324, 0.524016, 0.52257, 0.524569, 0.524626, 0.524558, 0.525699, 0.527227, 0.526267, 0.526279, 0.525045, 0.524704, 0.524202, 0.523693, 0.522493, 0.521259, 0.762432, 0.909871, 0.506428, 0.504967, 0.489591, 0.605244, 0.60244, 0.53537, 1.32439, 0.516408, 0.516438, 0.515643, 0.516281, 0.518407, 0.518083, 0.517133, 0.515413, 0.52019, 0.521766, 0.520792, 0.521065, 0.641873, 0.538004, 0.853791, 0.542014, 0.543795, 0.548447, 0.62262, 0.733475, 0.627868, 0.655512, 0.636079, 0.572943, 0.573959, 0.572733, 0.593451, 0.624167, 0.671838, 0.674716, 0.65657, 0.593749, 0.593065, 0.594027, 0.661416, 0.609655, 0.732424, 0.601839, 0.600577, 0.600188, 0.600963, 0.602387, 0.60303, 0.602458, 0.605512, 0.834979, 0.611026, 0.610922, 0.615353, 0.617983, 0.618811, 0.621725, 0.626267, 0.630155, 0.628564, 0.627499, 0.712696, 0.677852, 0.656881, 0.656053, 0.656101, 0.63152, 0.63272, 0.634144, 0.634677, 0.653118, 0.666046, 0.721794, 0.759447, 0.760915, 0.763676, 0.763039, 0.832606, 0.797208, 0.803157, 0.809374, 0.846012, 0.830055, 0.830714, 0.798845, 0.797888, 0.814901, 0.841429, 0.877209, 0.880311, 0.864588, 0.880297, 0.905079, 0.956559, 0.9404, 0.941906, 0.913178, 0.92187, 0.906414, 0.919592, 0.933317, 0.92899, 0.933201, 0.932733, 1.03259, 0.951635, 0.977948, 0.942552, 0.942868, 0.960279, 0.985294, 1.03677, 1.01519, 0.984622, 0.985561, 0.980063, 0.973756, 0.968363, 1.0046, 0.990855, 0.957945, 0.959077, 0.981011, 0.947359, 0.944176, 1.01064, 0.966359, 1.01881, 1.01998, 1.02357, 1.01432, 0.956794, 0.956171, 0.958606, 0.95836, 0.958526, 0.980316, 0.923971, 0.907973, 0.902735, 0.900297, 0.902243, 0.911234, 0.914964, 0.914557, 0.938818, 0.923495, 0.918421, 0.951412, 0.891151, 0.874628, 0.890073, 0.851931, 0.839221, 0.843249, 0.845059, 0.831823, 0.808415, 0.809112, 0.842741, 0.836636, 0.832893, 0.817232, 0.817647, 0.816636, 0.825666, 0.823318, 0.820563, 0.827539, 0.803996, 0.805675, 0.806486, 0.806225, 0.80402, 0.804641, 0.804803, 0.803654, 0.909974, 0.803183, 0.908127, 0.878971, 0.824193, 0.967716, 0.983133, 0.949499, 0.922864, 0.912886, 0.885056, 0.854143, 0.858509, 0.847097, 1.0836, 0.836389, 0.83559, 0.822922, 1.0996, 0.813813, 0.811061, 0.798204, 0.792162, 0.788633, 1.19793, 0.771503, 0.773744, 0.773439, 0.777967, 0.780204, 0.780175, 1.12056, 0.771343, 0.772172, 0.773418, 0.775726, 0.776632, 0.777399, 0.778356, 0.778573, 0.780797, 0.780636, 0.780287, 0.782935, 0.784264, 0.784271, 0.784139, 0.785286, 0.785887, 0.786747, 0.789957, 0.790454, 0.792697, 0.794213, 0.794525, 0.795495, 0.79637, 0.798372, 0.798847, 0.799316, 0.800548, 0.799322, 0.800139, 0.792903, 0.792686, 0.791298, 0.792322, 0.797393, 0.799024, 0.801564, 0.804379, 0.804877, 0.869074, 0.807686, 0.807297, 0.80746, 0.809838, 0.811163, 0.81183, 0.810212, 0.813224, 0.812238, 0.812208, 0.815655, 0.818598, 0.820397, 0.86832
0.807513, 0.505541, 0.50618, 0.507536, 0.508529, 0.509118, 0.515032, 0.515753, 0.516233, 0.52014, 0.520334, 0.519956, 0.519802, 0.526538, 0.525384, 0.524327, 0.523236, 0.518715, 0.518165, 0.518163, 0.525038, 0.524751, 0.524306, 0.525386, 0.527474, 0.527373, 0.527445, 0.525882, 0.522785, 0.522493, 0.521372, 0.704985, 0.508616, 0.695267, 0.653359, 0.694764, 0.490815, 0.489495, 0.538842, 0.611118, 0.515926, 0.516953, 0.517271, 0.516878, 0.520837, 0.518498, 0.517316, 0.517412, 0.517816, 0.520563, 0.52038, 0.520162, 0.616966, 0.539962, 0.54094, 0.541455, 0.541029, 0.73211, 0.731204, 0.733107, 0.662545, 0.559528, 0.656185, 0.57262, 0.572833, 0.572997, 0.573669, 0.580603, 0.621657, 0.671562, 0.627325, 0.760722, 0.734323, 0.753004, 0.69768, 0.901292, 0.593866, 0.734193, 0.599966, 0.599154, 0.599844, 0.599736, 0.601303, 0.601039, 0.600501, 0.601908, 0.601555, 0.604486, 0.609438, 0.609666, 0.609364, 0.782331, 0.781336, 0.62864, 0.628049, 0.628314, 0.627064, 0.716101, 0.714877, 0.702611, 0.674155, 0.641467, 0.635216, 0.634543, 0.634124, 0.635581, 0.668106, 0.671298, 0.72234, 0.759361, 0.696705, 0.705785, 0.762671, 0.839176, 0.769809, 0.794299, 0.791894, 0.781937, 0.81579, 0.831308, 0.856451, 0.813911, 0.835752, 0.838961, 0.83614, 0.837743, 0.881249, 0.858372, 0.85879, 0.859963, 0.942415, 0.939887, 0.902596, 0.921774, 0.895169, 0.904117, 0.886999, 0.890497, 0.960542, 0.972468, 0.974044, 0.932326, 0.932675, 0.934865, 0.964362, 0.962402, 0.99833, 1.02299, 0.985235, 0.958693, 0.959856, 0.961219, 0.991184, 0.970177, 0.99857, 0.956989, 0.957114, 1.01175, 0.936744, 0.932369, 0.942045, 0.941457, 0.938718, 0.943299, 1.0231, 1.0216, 1.01443, 0.949793, 0.95842, 0.957861, 0.970239, 0.926916, 0.923012, 0.907978, 0.919054, 0.956682, 0.88827, 0.895168, 0.880172, 0.877584, 0.942752, 0.929386, 0.929054, 1.00872, 1.03222, 0.8684, 0.881074, 0.876563, 0.850835, 0.839669, 0.819522, 0.922069, 0.819947, 0.808347, 0.80962, 0.808692, 0.832611, 0.896516, 0.818245, 0.816751, 0.811419, 0.811249, 0.81232, 0.931639, 0.791547, 0.791069, 0.794841, 0.928748, 0.972133, 0.80286, 0.804235, 0.921639, 0.807348, 0.809142, 0.809741, 0.810205, 0.880473, 0.825359, 0.82654, 0.946328, 0.94257, 0.895311, 0.88153, 0.853415, 0.846903, 0.859883, 0.851726, 0.823856, 1.0654, 0.820329, 0.81739, 1.07605, 1.03097, 0.804072, 0.785918, 1.23026, 0.998678, 0.783402, 0.772216, 0.771087, 0.77149, 0.871638, 0.783135, 0.784848, 0.79543, 0.771659, 0.772731, 0.772999, 0.77394, 0.77619, 0.776724, 0.778124, 0.779223, 0.778396, 0.778399, 0.778519, 0.778986, 0.783584, 0.786914, 0.787085, 0.784318, 0.785014, 0.784398, 0.850442, 0.792819, 0.793889, 0.793272, 0.7935, 0.795997, 0.797209, 0.797221, 0.797821, 0.799795, 0.799225, 0.798014, 0.7925, 0.793064, 0.791904, 0.79117, 0.792513, 0.795105, 0.79806, 1.24579, 0.867952, 0.870185, 0.805258, 0.806811, 0.808227, 0.807529, 0.810415, 0.810414, 0.810906, 0.810425, 0.808965, 0.810701, 0.812186, 0.813532, 0.81662, 0.817747, 0.8203
0.518303, 0.507973, 0.508283, 0.5071, 0.51036, 0.508431, 0.516833, 0.517265, 0.517271, 0.51646, 0.521401, 0.520509, 0.519208, 0.524547, 0.523912, 0.51771, 0.517561, 0.517839, 0.518803, 0.517821, 0.523924, 0.523486, 0.522607, 0.525029, 0.527884, 0.527762, 0.5277, 0.524248, 0.521223, 0.519542, 0.711948, 0.705593, 0.508804, 0.491501, 0.491653, 0.490603, 0.489291, 0.489589, 0.500112, 0.674096, 0.541549, 0.517765, 0.516859, 0.516889, 0.518738, 0.52206, 0.524165, 0.520986, 0.535326, 0.536771, 0.542076, 0.542967, 0.542964, 0.541945, 0.542025, 0.541483, 0.541524, 0.721825, 0.731866, 0.717954, 0.618193, 0.559384, 0.56106, 0.61376, 0.696909, 0.697787, 0.685258, 0.770328, 0.773732, 0.682083, 0.691997, 0.739041, 0.659898, 0.576444, 0.575428, 0.586875, 0.888714, 0.591128, 0.587836, 0.933965, 0.596374, 0.597591, 0.598314, 0.600069, 0.599287, 0.600077, 0.602706, 0.602358, 0.610815, 0.610363, 0.608876, 0.7966, 0.624521, 0.621703, 0.621333, 0.627716, 0.627186, 0.720614, 0.63465, 0.704439, 0.670375, 0.642761, 0.633845, 0.634745, 0.634441, 0.634151, 0.631898, 0.689624, 0.749748, 0.759248, 0.697937, 0.774104, 0.77676, 0.740929, 0.770746, 0.796997, 0.80537, 0.792591, 0.773751, 0.774724, 0.857039, 0.855587, 0.821386, 0.775504, 0.804692, 0.805358, 0.860832, 0.856445, 0.85921, 0.856593, 0.856744, 0.90074, 0.904432, 0.904582, 0.901651, 1.00263, 1.00095, 0.891065, 0.889305, 0.889618, 0.883992, 0.867764, 0.911445, 0.895261, 0.94347, 0.997635, 0.984476, 0.998686, 0.995654, 0.960078, 0.959721, 0.956745, 0.9563, 0.968769, 0.969689, 0.997866, 0.970934, 0.96486, 0.932681, 0.937288, 0.929415, 0.942651, 0.942469, 0.9257, 0.95346, 0.956732, 0.952313, 0.951051, 0.98297, 0.948811, 0.925778, 0.907794, 0.886315, 0.873469, 0.877944, 0.907716, 0.884602, 0.866478, 0.874561, 0.876638, 0.86735, 0.922038, 0.9668, 0.871696, 0.876519, 0.836877, 0.881231, 0.884708, 0.812132, 0.815774, 0.821611, 0.812698, 0.814147, 0.840504, 0.80513, 0.804247, 0.826504, 0.82544, 0.801095, 0.801056, 0.810729, 0.82205, 0.818504, 0.790778, 0.792165, 0.787177, 0.784983, 0.842791, 0.78953, 0.928886, 0.798945, 0.928943, 1.06385, 0.810428, 0.81098, 0.811037, 0.872512, 0.965166, 0.96594, 0.878828, 0.841058, 1.09488, 0.926089, 0.843848, 0.849015, 1.05613, 0.835667, 0.823694, 0.82497, 0.814336, 0.813861, 1.02152, 1.17692, 0.794793, 0.78429, 0.774521, 0.780591, 0.780693, 0.753738, 0.753872, 0.75437, 0.757364, 0.874482, 0.780842, 0.768648, 0.76873, 0.770923, 0.772813, 0.774999, 0.776328, 0.777275, 0.778017, 0.778203, 0.778309, 0.77765, 0.778025, 0.781828, 0.78273, 0.787416, 0.788359, 0.788031, 0.900739, 0.846113, 0.957769, 1.09384, 0.789237, 0.789913, 0.788918, 0.793178, 0.794616, 0.79528, 0.797004, 0.797297, 0.792528, 0.791872, 0.792418, 0.793277, 0.793296, 0.791856, 0.793806, 0.795029, 0.841134, 0.798685, 0.861948, 0.862852, 0.804192, 0.805937, 0.806573, 0.807751, 0.806821, 0.803407, 0.80536, 0.80733, 0.808417, 0.810886, 0.812594, 0.815672, 0.817861, 0.81756, 0.818333
0.502639, 0.503533, 0.835868, 0.835243, 0.514426, 0.514143, 0.517408, 0.517268, 0.517611, 0.518113, 0.518996, 0.519269, 0.51795, 0.517347, 0.519931, 0.518543, 0.518595, 0.517059, 0.517048, 0.518717, 0.518073, 0.518417, 0.520769, 0.521055, 0.528127, 0.525826, 0.52567, 0.523355, 0.520921, 0.519966, 0.542199, 0.510693, 0.69567, 0.49329, 0.493349, 0.491884, 0.491133, 0.499025, 0.673111, 0.691766, 0.507372, 0.514759, 0.515118, 0.513679, 0.513411, 0.556197, 0.00428239, 0.541428, 0.542457, 0.543206, 0.544121, 0.544965, 0.544339, 0.543112, 0.543239, 0.541925, 0.54171, 0.62787, 0.641058, 0.631705, 0.619055, 0.648973, 0.559674, 0.70049, 0.956507, 0.716586, 0.733791, 0.692119, 0.716279, 0.694131, 0.70783, 0.698864, 0.569254, 0.576472, 0.586077, 0.894618, 0.579633, 0.587151, 0.586009, 0.588047, 0.680516, 0.679489, 0.59061, 0.593965, 0.594688, 0.601653, 0.601287, 0.805287, 0.610311, 0.609623, 0.788679, 0.669931, 0.622877, 0.622584, 0.620777, 0.619243, 0.620965, 0.620766, 0.634988, 0.635506, 0.640354, 0.639118, 0.628424, 0.660286, 0.635985, 0.637668, 0.632787, 0.70125, 0.699398, 0.693887, 0.76098, 0.773759, 0.686454, 0.68502, 0.823141, 0.765984, 0.762209, 0.797875, 0.771033, 0.77032, 0.77813, 0.778023, 0.777626, 0.773353, 0.780441, 0.794051, 0.799972, 0.800636, 0.870563, 0.821546, 0.800904, 0.802082, 0.892182, 0.892157, 0.883391, 0.890264, 0.890998, 0.894049, 0.885101, 0.875076, 0.881684, 0.869541, 0.919229, 0.91866, 0.891767, 0.945404, 0.944583, 0.986937, 0.96049, 0.959762, 0.994764, 0.95714, 0.989594, 0.985325, 0.96542, 0.946034, 0.947093, 0.934354, 0.931814, 0.931841, 0.915636, 0.928329, 0.914749, 0.929095, 0.918723, 0.921719, 0.928627, 0.92729, 0.934659, 0.915287, 0.904528, 0.883958, 0.856937, 0.864341, 0.861116, 0.863064, 0.842951, 0.866258, 0.866163, 0.872371, 0.836461, 0.849501, 0.839898, 0.835443, 0.83693, 0.837461, 0.826722, 0.842983, 0.809429, 0.781124, 0.805474, 0.808669, 0.824526, 0.870209, 0.887088, 0.804233, 0.809187, 0.838753, 0.802379, 0.80473, 0.80588, 0.825306, 0.840122, 0.79725, 0.771053, 0.771184, 0.825149, 0.790192, 0.791042, 0.789272, 1.06135, 0.807439, 0.808753, 0.809044, 0.847091, 0.846633, 0.827996, 0.979358, 0.922451, 0.881715, 0.841256, 0.889231, 0.859766, 0.838342, 0.838011, 0.826502, 0.825891, 1.01273, 1.00348, 0.991396, 0.798218, 0.79828, 0.988904, 0.780839, 0.782584, 0.781222, 0.782774, 0.770291, 0.753818, 0.754132, 0.755685, 0.755245, 0.754877, 0.76648, 0.766797, 0.767341, 0.768309, 0.772849, 0.773416, 0.774961, 0.77351, 0.774653, 0.777529, 0.777037, 0.777606, 0.778571, 0.782252, 0.78206, 0.785912, 0.787578, 0.787104, 0.860309, 0.769985, 0.773462, 1.22286, 0.786318, 0.788606, 0.790245, 0.790376, 0.789727, 0.791508, 0.791205, 0.793338, 0.792642, 0.792499, 0.792087, 0.792004, 0.792654, 0.792625, 0.794617, 0.79372, 0.797013, 0.889807, 1.24054, 0.801762, 0.803915, 0.805323, 0.8053, 0.805056, 0.805246, 0.802252, 0.807753, 0.808116, 0.809811, 0.809872, 0.809527, 0.813086, 0.814776, 0.816853, 0.817331
0.503516, 0.502978, 0.501986, 0.514037, 0.515351, 0.514081, 0.514246, 0.516325, 0.51543, 0.514641, 0.51715, 0.515797, 0.516888, 0.516317, 0.521298, 0.520039, 0.518424, 0.517584, 0.519092, 0.520075, 0.520488, 0.518878, 0.52232, 0.521458, 0.522842, 0.522946, 0.523084, 0.521333, 0.54524, 0.544618, 0.539583, 1.12523, 0.499732, 0.49817, 0.497734, 0.497353, 0.498528, 1.23625, 0.529387, 0.668724, 0.515919, 0.516656, 0.515369, 0.514101, 0.513882, 0.512625, 0.63159, 0.540197, 0.543813, 0.544451, 0.544726, 0.544891, 0.544888, 0.543924, 0.542226, 0.742313, 0.658078, 0.662659, 0.626886, 0.626029, 0.573977, 0.651691, 0.587907, 0.959831, 0.714526, 0.741455, 0.794331, 0.736779, 0.71444, 0.714122, 0.680927, 0.610779, 0.64331, 0.56829, 0.57761, 0.579746, 0.579645, 0.587153, 0.586432, 0.585114, 0.587791, 0.591239, 0.592587, 0.593123, 0.592822, 0.592455, 0.780553, 0.628236, 0.782632, 0.769144, 0.612263, 0.613201, 0.617666, 0.619184, 0.61918, 0.620875, 0.621243, 0.628577, 0.632706, 0.633167, 0.641386, 0.639869, 0.63229, 0.633556, 0.637605, 0.639226, 0.613692, 0.613512, 0.697315, 0.693197, 0.766457, 0.764641, 0.687775, 0.689931, 0.75313, 0.76216, 0.713223, 0.714236, 0.742259, 0.741739, 0.777419, 0.780659, 0.78417, 0.77099, 0.787719, 0.798013, 0.801252, 0.801813, 0.790689, 0.856308, 0.801838, 0.801315, 0.849529, 0.840599, 0.832303, 0.893531, 0.876297, 0.876029, 0.887809, 0.874093, 0.855903, 0.859009, 0.845442, 0.896634, 0.872706, 0.973725, 0.976434, 0.977795, 0.978399, 0.996505, 0.953315, 0.964533, 0.956008, 0.942676, 0.972884, 0.928198, 0.94227, 0.94712, 0.918594, 0.920101, 0.903443, 0.902145, 0.895294, 0.901704, 0.921728, 0.920785, 0.912878, 0.915409, 0.90215, 0.898851, 0.86975, 0.867248, 0.864454, 0.881047, 0.841194, 0.849576, 0.84872, 0.869254, 0.82246, 0.822738, 0.819612, 0.810996, 0.840387, 0.811626, 0.81533, 0.785201, 0.791664, 0.791937, 0.842689, 0.798651, 0.826208, 0.853234, 0.804778, 0.859987, 0.858708, 0.849507, 0.887283, 0.902128, 0.897925, 0.804308, 0.781546, 0.779956, 0.777488, 0.761985, 0.762623, 0.762808, 0.966819, 0.790415, 0.794296, 1.0042, 0.808481, 0.808963, 0.809401, 0.81013, 0.810727, 0.853681, 0.802358, 0.842324, 0.87748, 0.84632, 0.870535, 0.838721, 0.849713, 0.820245, 0.83927, 0.827327, 0.915565, 1.01183, 1.01154, 1.22989, 0.794072, 0.795232, 0.784991, 0.780644, 0.779927, 0.783504, 0.77507, 0.759599, 0.757289, 0.757429, 0.757538, 0.755573, 0.757108, 0.764647, 0.765945, 0.767116, 0.767005, 0.768144, 0.771408, 0.773975, 0.774505, 0.775434, 0.772241, 0.773186, 0.775471, 0.777581, 0.779695, 0.780589, 0.781235, 0.787632, 0.859418, 0.766903, 0.76902, 0.768606, 0.774659, 0.784038, 0.785194, 0.785913, 0.787729, 0.788495, 0.789964, 0.791832, 0.792339, 0.792512, 0.793684, 0.790847, 0.790018, 0.789856, 1.00805, 0.79167, 0.793865, 0.79403, 0.796906, 0.859563, 0.857146, 0.801181, 0.839492, 0.804318, 0.806248, 0.806811, 0.80369, 0.804898, 0.806412, 0.808005, 0.809024, 0.810793, 0.81149, 0.814443, 0.814617, 0.817571
0.508203, 0.507089, 0.507181, 0.514684, 0.515353, 0.514592, 0.5137, 0.514549, 0.516393, 0.515186, 0.51715, 0.516316, 0.516245, 0.520627, 0.520398, 0.519774, 0.518347, 0.518118, 0.51928, 0.519354, 0.520079, 0.520763, 0.520797, 0.521422, 0.522008, 0.521926, 0.513475, 0.514064, 0.546218, 1.11816, 1.25454, 0.500204, 0.500266, 0.500222, 0.500038, 0.499033, 0.498233, 0.521296, 1.07741, 0.513788, 0.514326, 0.51489, 0.514564, 0.514798, 0.649147, 0.584205, 0.58067, 0.539617, 0.543049, 0.543953, 0.54416, 0.544423, 0.543528, 0.549221, 0.532974, 0.532924, 0.532045, 0.53442, 0.535188, 0.535434, 0.639628, 0.789643, 0.869428, 0.962956, 0.722894, 0.770995, 0.771215, 0.720201, 0.541569, 0.714084, 0.724125, 0.724432, 0.577134, 0.891041, 0.624964, 0.581356, 0.622512, 0.646518, 0.676694, 0.675518, 0.585061, 0.590545, 0.591565, 0.593839, 0.593068, 0.592724, 0.603613, 0.603988, 0.612778, 0.610997, 0.612015, 0.613844, 0.614989, 0.618914, 0.619266, 0.619281, 0.630412, 0.630288, 0.628601, 0.646831, 0.647008, 0.633807, 0.636047, 0.633614, 0.632951, 0.646838, 0.614565, 0.606203, 0.606206, 0.60541, 0.712205, 0.711046, 0.687753, 0.687133, 0.752585, 0.672081, 0.672795, 0.697078, 0.722296, 0.725937, 0.728296, 0.73378, 0.732516, 0.772671, 0.770754, 0.787426, 0.773102, 0.765509, 0.795515, 0.766995, 0.768441, 0.832674, 0.808065, 0.798135, 0.814179, 0.814773, 0.888848, 0.877123, 0.884253, 0.884635, 0.869684, 0.829806, 0.822338, 0.894032, 0.888532, 0.890224, 0.970809, 1.02665, 1.0274, 0.948241, 0.94808, 0.952073, 0.960831, 0.963281, 0.964911, 0.928338, 0.935072, 0.931637, 0.929042, 0.921795, 0.889553, 0.894503, 0.888441, 0.881038, 0.896358, 0.898692, 0.897222, 0.898587, 0.924985, 0.880644, 0.857051, 0.843982, 0.860329, 0.832578, 0.84479, 0.814806, 0.816053, 0.873636, 0.821965, 0.812526, 0.772812, 0.783135, 0.781424, 0.787814, 0.788473, 0.787268, 0.786207, 0.804577, 0.849036, 0.793307, 0.840357, 0.798965, 0.75502, 0.755441, 0.859432, 0.873642, 0.865029, 0.877838, 0.897909, 0.870534, 0.783192, 0.781335, 0.764579, 0.763467, 0.763581, 0.939821, 0.821647, 0.949365, 1.01028, 0.902857, 0.807883, 0.810057, 0.809846, 0.808832, 0.807639, 0.807902, 0.80755, 0.852795, 0.876099, 0.869754, 0.900418, 0.898664, 0.845978, 0.838736, 0.839055, 0.815608, 0.799995, 0.800223, 1.01042, 0.877703, 0.787124, 0.787354, 0.790426, 0.785421, 0.772857, 0.772364, 0.76226, 0.76061, 0.759667, 0.758398, 0.758209, 0.75918, 0.758317, 0.760635, 0.765727, 0.765958, 0.766495, 0.768393, 0.76927, 0.769003, 0.769428, 0.770145, 0.77283, 0.773465, 0.774431, 0.776982, 0.777755, 0.780557, 0.813036, 0.845038, 0.768124, 0.768311, 0.768768, 0.769633, 0.772639, 0.784104, 0.785267, 0.786574, 0.786568, 0.864738, 0.785693, 0.790009, 0.790468, 0.782824, 0.780844, 0.791655, 0.78439, 0.786597, 0.781331, 0.783538, 0.787424, 0.789059, 0.79392, 0.79372, 0.838648, 0.798331, 0.80094, 0.804911, 0.804821, 0.805276, 0.804934, 0.80553, 0.806938, 0.807884, 0.808938, 0.810853, 0.813051, 0.815116, 0.819474, 0.820743
0.507249, 0.507465, 0.506813, 0.505585, 0.515013, 0.514061, 0.513638, 0.516416, 0.517067, 0.516053, 0.517121, 0.516372, 0.515779, 0.518428, 0.518807, 0.518514, 0.517648, 0.517823, 1.37509, 0.518341, 0.519149, 0.760011, 0.569216, 0.538928, 0.515182, 0.514204, 0.513973, 0.512448, 0.646536, 1.26136, 1.23311, 0.499945, 0.50009, 0.499839, 0.499844, 0.49976, 0.499083, 0.500248, 0.510048, 0.514078, 0.514821, 0.513765, 0.513455, 0.514419, 0.906583, 0.756075, 0.611213, 0.539809, 0.541924, 0.542115, 0.542233, 0.525235, 0.528381, 0.530722, 0.533047, 0.531855, 0.53127, 0.53684, 0.536165, 0.671497, 0.725115, 0.745761, 0.757399, 0.730849, 0.749595, 0.746647, 0.531875, 0.725542, 0.534487, 0.731167, 0.728703, 0.706766, 0.696319, 0.660268, 1.00823, 0.88156, 0.579559, 0.579836, 0.57957, 0.583971, 0.587139, 0.606895, 0.591603, 0.593717, 0.59318, 0.604321, 0.605629, 0.60504, 0.612619, 0.612697, 0.611715, 0.61413, 0.613935, 0.617428, 1.02652, 0.630958, 0.631107, 0.630481, 0.630175, 0.648124, 0.648047, 0.645798, 0.636138, 0.633483, 0.632418, 0.832509, 0.612022, 0.60755, 0.607042, 0.605665, 0.60434, 0.662609, 0.711782, 0.67577, 0.679748, 0.673536, 0.675345, 0.675112, 0.710351, 0.710952, 0.708466, 0.726752, 0.749024, 0.749272, 0.756411, 0.776801, 0.77671, 0.800727, 0.761483, 0.746074, 0.749031, 0.747659, 0.807554, 0.806307, 0.805292, 0.815113, 0.794111, 0.794708, 0.894741, 0.886695, 0.846109, 0.845577, 0.894513, 0.893228, 0.93336, 0.8907, 0.944159, 0.945271, 0.937146, 0.961203, 0.924745, 0.927653, 0.916096, 0.917182, 0.961653, 0.89808, 0.904989, 0.902801, 0.912874, 0.893709, 0.87788, 0.866829, 0.846736, 0.873727, 0.865356, 0.87875, 0.873809, 0.872942, 0.950335, 0.823402, 0.828351, 0.832047, 0.82502, 0.843178, 0.820002, 0.814861, 0.821316, 0.795216, 0.808195, 0.779753, 0.773853, 0.774618, 0.784882, 0.785052, 0.787037, 0.821875, 0.799593, 0.811788, 0.750784, 0.795915, 0.95304, 0.953528, 0.755751, 0.757073, 0.898164, 0.791403, 0.866275, 0.908517, 0.832122, 0.870589, 0.912988, 0.764366, 0.764924, 0.766134, 0.764284, 0.88679, 0.957648, 1.02301, 0.994587, 0.903549, 0.80407, 0.809584, 0.808392, 0.808429, 0.808652, 0.81002, 0.810621, 0.866698, 0.864524, 0.846035, 0.885373, 0.856239, 0.848961, 0.810661, 0.81195, 0.852974, 0.800779, 0.800985, 0.796689, 0.794941, 0.787938, 0.790927, 1.13601, 0.774962, 0.768021, 0.763814, 0.763557, 0.762765, 0.762424, 0.759117, 0.758825, 0.75791, 1.07766, 0.762835, 0.762476, 0.76418, 0.763258, 0.764849, 0.767104, 0.769092, 0.76947, 0.766351, 0.773164, 0.769977, 0.772689, 0.772874, 0.77208, 0.777508, 0.770952, 0.771994, 0.774335, 0.772365, 0.772652, 0.772809, 0.884531, 0.883674, 0.784222, 0.786089, 0.77827, 0.779818, 0.780201, 0.783565, 0.783289, 0.786284, 0.766134, 0.766592, 0.766388, 0.787163, 0.782044, 0.816679, 0.787473, 0.789869, 0.790151, 0.789946, 0.829886, 0.792188, 0.791911, 0.794869, 0.800132, 0.801852, 0.803391, 0.8041, 0.80567, 0.808776, 0.808325, 0.810765, 0.811892, 0.816596, 0.819935, 0.82113
0.508876, 0.507853, 0.505795, 0.515549, 0.513714, 0.513796, 0.513885, 0.515622, 0.515582, 0.516286, 0.515703, 1.02991, 1.03013, 0.8566, 0.856127, 0.7951, 0.680797, 0.857921, 0.794505, 0.825635, 0.659669, 0.770204, 0.672995, 0.711802, 0.514061, 0.51298, 0.512289, 0.512293, 1.26434, 1.26364, 0.500265, 0.500035, 0.500665, 0.499922, 0.499974, 0.49989, 0.4999, 0.887769, 0.510123, 0.632123, 0.514624, 0.513358, 0.628599, 0.518829, 0.617555, 0.531123, 0.61065, 0.606193, 0.677369, 0.671348, 0.525875, 0.52471, 0.528002, 0.527745, 0.523724, 0.523218, 0.52331, 0.539422, 0.539756, 0.538869, 0.746263, 0.699752, 0.542992, 0.736284, 0.534666, 0.532167, 0.531612, 0.53178, 0.536179, 0.535162, 0.740219, 0.705094, 0.704374, 0.621574, 0.882951, 0.7615, 0.577397, 0.577037, 0.579816, 0.580413, 0.583551, 0.587526, 0.610172, 0.997154, 0.603724, 0.604477, 0.604938, 0.604824, 0.609587, 0.60933, 0.614966, 0.719744, 1.13228, 1.02496, 1.02515, 0.893665, 0.632041, 0.65115, 0.651567, 0.649756, 0.645189, 0.639653, 0.638202, 0.632953, 0.633159, 0.68016, 0.680054, 0.608709, 0.609464, 0.623008, 0.59988, 0.661455, 0.738174, 0.73633, 0.679858, 0.680098, 0.671188, 0.677403, 0.677043, 0.685104, 0.700228, 0.708441, 0.76088, 0.756408, 0.751443, 0.750962, 0.750419, 0.761476, 0.764362, 0.750976, 0.749445, 0.745634, 0.748223, 0.784242, 0.761221, 0.818995, 0.797137, 0.794817, 0.829882, 0.774831, 0.846518, 0.80903, 0.870151, 0.891165, 0.931875, 0.897306, 0.970874, 0.861138, 0.960846, 0.909033, 0.867195, 0.867642, 0.885638, 0.915097, 0.888395, 0.929273, 0.883655, 0.885545, 0.913625, 0.880581, 0.8508, 0.849601, 0.860981, 0.877598, 0.831475, 0.863791, 0.891671, 0.899231, 0.909994, 0.824862, 0.804138, 0.791257, 0.811146, 0.825505, 0.80266, 0.790253, 0.801796, 0.801459, 0.772982, 0.807696, 0.770827, 0.775895, 0.810003, 0.82515, 0.825539, 0.786398, 0.787114, 0.75076, 0.816893, 0.738525, 0.816524, 0.955449, 0.95642, 0.742257, 0.742401, 0.742945, 0.860237, 0.861413, 0.814154, 0.950177, 0.993727, 0.764592, 0.766218, 0.764146, 0.763362, 0.800386, 0.914098, 0.997953, 0.995983, 1.01004, 0.90199, 0.885683, 0.856408, 0.827237, 0.808334, 0.809128, 0.810283, 0.862048, 0.8668, 0.850676, 0.851856, 0.828992, 0.825499, 0.870367, 0.864359, 0.825594, 0.794147, 0.794208, 0.796161, 0.795735, 0.786613, 0.777856, 0.776276, 1.15811, 0.764283, 0.76472, 0.761963, 0.762448, 0.761376, 0.760583, 0.757241, 0.757568, 1.08298, 0.756489, 0.757053, 0.758369, 0.763334, 0.766027, 0.765489, 0.763306, 0.764588, 0.766153, 0.766105, 0.766499, 0.768882, 0.769821, 1.34306, 0.773299, 0.772799, 0.773271, 0.773311, 0.772762, 0.77277, 0.773002, 0.779632, 0.916373, 0.829309, 0.774455, 0.775581, 0.779771, 0.779746, 0.780823, 0.781729, 0.765871, 0.767239, 0.766824, 0.768072, 0.767648, 0.798507, 0.801318, 0.78459, 0.78556, 0.788839, 0.79008, 0.790986, 0.79316, 0.793995, 0.794356, 0.795908, 0.798719, 0.801092, 0.808278, 0.809105, 0.916705, 0.812257, 0.816281, 0.815855, 0.818044, 0.818131, 0.820148
0.506938, 0.507736, 0.553508, 0.530031, 0.512868, 0.543689, 0.513575, 0.513972, 0.514735, 0.550265, 0.735054, 0.822471, 0.834896, 1.08067, 0.97419, 0.963945, 0.807943, 0.711356, 1.42233, 0.666729, 0.644997, 0.634284, 0.726338, 0.697082, 0.545861, 0.753403, 0.684225, 0.745614, 0.745156, 0.499311, 0.500213, 0.500758, 0.500061, 0.500113, 0.50019, 0.49977, 0.499067, 0.490461, 0.490378, 0.886889, 1.02965, 0.511324, 0.51138, 0.725918, 0.602209, 0.528627, 0.529897, 0.528603, 0.51619, 0.516219, 0.515651, 0.527786, 0.523497, 0.528608, 0.525187, 0.524673, 0.523597, 0.522361, 0.535874, 0.534541, 0.732226, 0.541372, 0.542209, 0.540556, 0.540631, 0.532541, 0.531547, 0.531825, 0.534497, 0.729282, 0.742121, 0.739994, 0.664653, 0.674925, 0.674452, 0.660631, 0.659834, 0.579928, 0.581208, 0.581808, 0.583963, 0.58712, 0.589397, 0.797667, 0.603437, 0.604675, 0.60629, 0.605676, 0.608885, 0.609784, 0.675944, 1.03599, 1.03667, 1.25044, 1.02009, 0.803837, 0.664578, 0.652172, 0.652619, 0.650718, 0.648568, 0.639228, 0.637815, 0.681519, 0.618186, 0.61061, 0.610403, 0.611444, 0.609562, 0.637929, 0.63795, 0.661867, 0.626925, 0.625469, 0.687653, 0.690363, 0.689662, 0.729601, 0.674093, 0.675041, 0.6812, 0.694359, 0.709421, 0.737097, 0.752854, 0.752804, 0.751972, 0.752967, 0.794203, 0.749097, 0.749712, 0.74086, 0.740753, 0.761109, 0.770474, 0.870256, 0.870881, 0.871399, 0.781591, 0.805539, 0.758338, 0.761273, 0.762573, 0.895218, 0.894812, 0.797937, 0.886529, 0.884759, 0.843153, 0.842781, 0.84235, 0.84458, 0.844364, 0.861559, 0.866996, 0.947335, 0.912331, 0.886978, 0.885532, 0.811467, 0.811591, 0.804483, 0.810654, 0.828395, 0.807714, 0.832623, 0.81025, 0.83533, 0.834678, 0.852789, 0.83309, 0.834318, 0.836033, 0.833299, 0.843197, 0.791478, 0.791558, 0.770298, 0.771329, 0.745615, 0.797336, 0.79687, 0.773566, 0.80123, 0.801148, 0.787605, 0.781019, 0.777471, 0.732856, 0.738611, 0.81173, 0.735257, 0.735658, 0.750432, 0.750258, 0.743068, 0.743315, 0.748647, 0.871574, 0.744259, 0.743306, 0.745741, 0.763086, 0.764778, 0.769633, 0.823054, 1.01772, 1.01716, 1.0081, 1.00656, 0.867877, 0.92513, 0.925559, 1.04336, 0.894247, 0.997078, 0.866472, 0.926275, 0.809154, 0.86281, 0.80975, 0.84824, 0.82105, 0.817219, 0.831543, 0.801525, 0.793713, 0.794041, 0.77735, 0.78245, 0.77536, 0.776031, 0.774093, 0.763062, 0.76101, 0.759206, 0.758992, 0.759075, 0.75785, 0.757728, 0.755547, 0.755898, 0.765251, 0.766681, 0.756033, 0.759835, 0.761858, 0.763802, 0.759788, 0.761258, 0.762537, 0.764181, 0.765105, 0.765789, 0.764739, 0.769605, 0.772519, 0.773918, 0.773147, 0.773298, 0.773164, 0.770827, 0.773095, 0.780768, 0.773031, 0.774329, 0.772612, 0.77361, 0.775501, 0.776061, 0.775162, 0.775917, 0.766741, 0.767295, 0.768326, 0.768977, 0.769508, 0.768952, 0.79217, 0.784446, 0.785451, 0.786764, 0.787346, 0.790705, 0.789198, 0.7912, 0.792525, 0.794724, 0.796265, 0.797376, 0.806592, 0.807239, 0.814624, 0.917208, 0.812236, 0.913017, 0.815345, 0.815564, 0.818619, 0.817077
0.504245, 0.71491, 0.759102, 0.75852, 0.759584, 0.869075, 0.75759, 0.693766, 0.552878, 0.598203, 0.735866, 0.859655, 0.577185, 0.832707, 0.689159, 0.705665, 0.671451, 0.661048, 0.659897, 0.685767, 0.657602, 0.680765, 0.84202, 0.93522, 0.838289, 0.686597, 0.685944, 0.493088, 0.492497, 0.491894, 0.499839, 0.500344, 0.500161, 0.499592, 0.498593, 0.49874, 0.490133, 0.491069, 0.490147, 0.632255, 0.510861, 0.511112, 0.514308, 0.61089, 0.525661, 0.606111, 0.55977, 0.559369, 0.518666, 0.517404, 0.516859, 0.515492, 0.524588, 0.523769, 0.524549, 0.524297, 0.532909, 0.532934, 0.53273, 0.701673, 0.725038, 0.741612, 0.542165, 0.541896, 0.541464, 0.542884, 0.542307, 0.544502, 0.544947, 0.750478, 0.775597, 0.682908, 0.694424, 0.676511, 0.670021, 0.66679, 0.746768, 0.746686, 0.579656, 0.618143, 0.584733, 0.583388, 1.12453, 0.595547, 0.625366, 0.603568, 0.601299, 0.608166, 0.610217, 0.610641, 1.18852, 1.03169, 1.03017, 0.663291, 0.681519, 0.797108, 0.666557, 0.651767, 0.652034, 0.650313, 0.870861, 0.680327, 0.740447, 0.680912, 0.613165, 0.612361, 0.610395, 0.618315, 0.627963, 0.643616, 0.639642, 0.637806, 0.658513, 0.625209, 0.625941, 0.624937, 0.691609, 0.640654, 0.709534, 0.728499, 0.746373, 0.689167, 0.689711, 0.690182, 0.737845, 0.816638, 0.814772, 0.794292, 0.748595, 0.755263, 0.741002, 0.741028, 0.752325, 0.750325, 0.762782, 0.76277, 0.852767, 0.760068, 0.771663, 0.852697, 0.853119, 0.760637, 0.757902, 0.756281, 0.818961, 0.795882, 0.800007, 0.800438, 0.871782, 0.85583, 0.838418, 0.82229, 0.839117, 0.870496, 0.862958, 0.920015, 0.919091, 0.911949, 0.905092, 0.785265, 0.784897, 0.78322, 0.81099, 0.804099, 0.832918, 0.809949, 0.810935, 0.788984, 0.789628, 0.780993, 0.874875, 0.87046, 0.773212, 0.766791, 0.788566, 0.798153, 0.777207, 0.77746, 0.742869, 0.745407, 0.758918, 0.798608, 0.739298, 0.763485, 0.799262, 0.767312, 0.778315, 0.73251, 0.733188, 0.730167, 0.735107, 0.736638, 0.736348, 0.751761, 0.752265, 0.742881, 0.743702, 0.743268, 0.742701, 0.741701, 0.742864, 0.742273, 0.756101, 0.770705, 0.769629, 0.805712, 1.01384, 1.00755, 1.31241, 0.977261, 0.965755, 0.832844, 0.893952, 1.04239, 0.883148, 0.791528, 0.864857, 0.851143, 0.842218, 0.823638, 0.916538, 0.821238, 0.819463, 0.801698, 0.790696, 0.79044, 0.798104, 0.796647, 0.776798, 0.76903, 0.761543, 0.761171, 0.759903, 0.76036, 0.756916, 0.757473, 0.758117, 0.757419, 0.758101, 0.76151, 0.761091, 1.1154, 0.767252, 0.773627, 0.774347, 0.77707, 0.7563, 0.757661, 0.758188, 0.758618, 0.759747, 0.761931, 0.764139, 0.765028, 0.765207, 0.766694, 0.770187, 0.769586, 0.760298, 0.761644, 1.26526, 0.762358, 0.762635, 0.760001, 0.766865, 0.76682, 0.773724, 0.773007, 0.773882, 0.776113, 0.774749, 0.772853, 0.772955, 0.768972, 0.769338, 0.768022, 0.768965, 0.775161, 0.780135, 0.780744, 0.783683, 0.785416, 0.786606, 0.78615, 0.789684, 0.791387, 0.791591, 0.796952, 0.976545, 0.88068, 1.06452, 0.808393, 0.809083, 0.972951, 0.815057, 0.811466, 0.826007, 0.895515, 0.897565, 0.81605
0.591466, 0.749235, 0.472726, 0.472272, 0.586283, 0.756763, 0.844148, 1.12918, 0.553369, 0.667106, 0.732108, 0.674863, 0.476785, 0.818909, 0.685999, 0.688575, 0.686994, 0.693806, 0.694343, 0.705273, 0.66853, 0.667111, 0.772945, 0.98749, 0.721601, 0.718064, 0.491974, 0.492712, 0.491515, 0.492242, 0.496659, 0.492987, 1.08295, 0.490283, 0.489787, 0.48885, 0.490185, 0.489519, 0.489879, 0.712553, 0.627629, 0.694859, 0.514287, 0.516433, 0.527338, 0.527862, 0.566433, 0.518811, 0.518971, 0.519622, 0.517709, 0.514705, 0.524406, 0.525224, 0.52531, 0.533939, 0.533581, 0.533265, 0.534244, 0.533834, 0.533254, 0.539735, 0.541429, 0.541478, 0.541405, 0.543262, 0.54278, 0.546295, 0.739122, 0.749872, 0.726542, 0.77455, 0.740194, 0.674479, 0.707455, 0.567099, 0.648185, 0.74748, 0.653385, 0.632029, 0.624608, 0.624899, 0.593934, 1.24373, 0.597707, 0.599111, 0.601551, 0.607226, 0.929717, 0.615587, 0.615315, 1.03994, 0.669737, 0.634776, 0.663732, 0.707559, 0.980881, 1.11977, 0.847581, 0.643471, 0.949315, 0.943049, 0.681987, 0.681416, 0.609035, 0.608418, 0.60608, 0.61596, 0.626499, 0.608522, 0.621032, 0.631903, 0.65762, 0.647999, 0.623881, 0.621875, 0.63749, 0.698251, 0.642076, 0.728185, 0.727571, 0.709349, 0.690002, 0.689821, 0.748488, 0.750309, 0.771311, 0.746379, 0.816814, 0.756753, 0.756405, 0.745017, 0.741633, 0.742045, 0.751047, 0.759755, 0.754669, 0.754159, 0.757164, 0.761535, 0.7592, 0.760014, 0.757126, 0.753654, 0.752305, 0.836298, 0.806315, 0.847027, 0.863286, 0.82811, 0.827902, 0.833793, 0.862754, 0.863271, 0.828776, 0.920211, 0.919589, 0.919634, 0.840528, 0.782353, 0.787889, 0.767925, 0.781571, 0.781534, 0.835024, 0.835114, 0.784556, 0.790335, 0.782883, 0.74513, 0.724109, 0.760037, 0.75397, 0.763514, 0.786688, 0.811488, 0.770131, 0.7518, 0.753244, 0.791494, 0.736153, 0.729494, 0.72164, 0.747408, 0.7322, 0.742591, 0.717579, 0.717879, 0.741659, 0.736773, 0.735162, 0.736245, 0.736048, 0.738075, 0.750201, 0.742051, 0.743614, 0.743758, 0.743619, 0.742609, 0.743175, 0.743067, 0.757773, 0.763974, 0.810804, 0.825483, 0.862536, 0.860701, 1.28472, 0.851012, 0.846536, 0.827167, 0.82847, 0.788619, 0.789653, 0.86242, 0.840871, 0.838495, 0.817335, 0.816829, 0.816028, 0.812901, 0.8116, 1.13488, 1.12572, 0.874014, 0.857421, 0.84878, 0.776022, 0.767395, 0.75999, 0.7631, 0.760164, 0.761166, 0.757624, 0.75682, 0.756545, 0.761693, 0.761945, 0.762861, 0.763777, 0.768082, 0.768783, 0.767458, 0.771375, 0.772042, 0.756055, 0.756786, 0.756452, 0.756715, 0.935653, 0.7604, 0.763694, 0.763245, 0.7815, 1.33471, 0.787537, 0.76059, 0.761393, 0.761366, 0.759843, 0.758111, 0.757985, 0.759247, 0.759298, 0.767365, 0.769153, 0.768478, 0.767614, 0.768535, 0.772478, 0.772243, 0.771125, 0.769916, 0.771052, 0.771275, 0.772927, 0.774218, 0.780154, 0.780317, 0.782437, 0.783305, 0.785379, 0.787246, 1.05077, 0.796521, 0.790867, 0.792094, 0.793997, 0.796033, 1.06337, 0.920011, 0.820304, 0.819424, 0.794771, 0.838337, 0.901444, 0.809783, 1.33967, 0.810953
0.812352, 0.47223, 0.472832, 0.470932, 0.467456, 0.467074, 0.800823, 0.471321, 0.739803, 0.68286, 0.476464, 0.477521, 0.47629, 0.475838, 0.474147, 0.467515, 0.4671, 0.463502, 0.46192, 0.462544, 0.712631, 0.732133, 0.916236, 0.596976, 0.580307, 0.725859, 0.490033, 0.493012, 0.492857, 0.492097, 0.489954, 0.488858, 0.488593, 0.490576, 0.489597, 0.489623, 0.488763, 0.488235, 0.489411, 0.489286, 0.630048, 0.624746, 0.797813, 0.798104, 0.641249, 0.522514, 0.567358, 0.517583, 0.518679, 0.518344, 0.517808, 0.533003, 0.533479, 0.534095, 0.534697, 0.534871, 0.534593, 0.534968, 0.532977, 0.534236, 0.533966, 0.540014, 0.54038, 0.540888, 0.538081, 0.538406, 0.541517, 0.646546, 0.742718, 0.549883, 0.684443, 0.552656, 0.553345, 0.554292, 0.554902, 0.573867, 0.573037, 0.576701, 0.748635, 0.577803, 0.733797, 0.725241, 0.617847, 0.617315, 0.70755, 0.600216, 0.603481, 0.604885, 0.677045, 0.691213, 0.659917, 0.660713, 0.953816, 0.645495, 0.639872, 0.714418, 0.840043, 0.973667, 0.87148, 0.953144, 0.618728, 0.819508, 0.686915, 0.838636, 0.603616, 0.603501, 0.601481, 0.601124, 0.605035, 0.605693, 0.590617, 0.590285, 0.64812, 0.64786, 0.662073, 0.624105, 0.618722, 0.616879, 0.69862, 0.642648, 0.646907, 0.647174, 0.720925, 0.722069, 0.683937, 0.677024, 0.683941, 0.759727, 0.759511, 0.732205, 0.73893, 0.740007, 0.73949, 0.739018, 0.736056, 0.748645, 0.751949, 0.751359, 0.738884, 0.746431, 0.835649, 0.756974, 0.757602, 0.751924, 0.750755, 0.770914, 0.813753, 0.847601, 0.773779, 0.827242, 0.830168, 0.835023, 0.862723, 0.774288, 0.832057, 0.833638, 0.842776, 0.918231, 0.838527, 0.781797, 0.770806, 0.729047, 0.757051, 0.83525, 0.834995, 0.776803, 0.751022, 0.784924, 0.782945, 0.759405, 0.725298, 0.744854, 0.74259, 0.749156, 0.752857, 0.790004, 0.740356, 0.71899, 0.722168, 0.818823, 0.836462, 0.720991, 0.842974, 0.818807, 0.728101, 0.714161, 0.716975, 0.720255, 0.719642, 0.919276, 0.73507, 0.736054, 0.737541, 0.739008, 0.738889, 0.741809, 0.742733, 0.742138, 0.971229, 0.743058, 0.742467, 0.742324, 0.763091, 0.763519, 0.769413, 0.901636, 0.849966, 0.842398, 0.857373, 0.981398, 0.845467, 0.798025, 0.860511, 0.847181, 0.784697, 0.836109, 0.845097, 0.846483, 0.821737, 0.820746, 0.819101, 0.825563, 0.911791, 1.08578, 0.898188, 0.769786, 0.765071, 0.761803, 0.762998, 0.759045, 0.759344, 0.761439, 0.759822, 0.759171, 0.757504, 0.756183, 0.756284, 0.74238, 0.763834, 0.763168, 0.763784, 1.33997, 0.766652, 0.759508, 0.769666, 0.746721, 0.767415, 0.766771, 0.766731, 0.9577, 0.75228, 0.740555, 0.743402, 0.74325, 0.949818, 0.754204, 0.755909, 0.756078, 0.758445, 0.756023, 0.757346, 0.757421, 0.757295, 0.758431, 0.758591, 0.760096, 0.76123, 0.764446, 0.766815, 0.769257, 0.765898, 0.769594, 0.772356, 0.769947, 0.769632, 0.770164, 0.773522, 0.776538, 0.776428, 0.780073, 0.780346, 0.783744, 0.785775, 0.786838, 0.786976, 0.790509, 0.790332, 0.793705, 0.79308, 0.983542, 1.01405, 0.920778, 0.920426, 0.793924, 0.796793, 0.796919, 1.57779, 1.45151, 1.45159, 1.35027
0.472604, 0.4697, 0.471755, 0.469475, 0.468604, 0.46712, 0.466395, 0.46729, 1.05446, 0.471073, 0.477208, 0.477631, 0.477311, 0.476094, 0.473438, 0.470195, 0.468585, 0.468035, 0.466335, 0.463853, 0.46531, 0.466052, 0.467592, 0.599958, 0.601071, 0.489623, 0.492908, 0.492194, 0.491534, 0.490715, 0.490479, 0.489596, 0.48878, 0.487987, 0.489581, 0.489586, 0.489091, 0.488258, 0.490209, 0.489644, 0.638165, 0.625301, 0.797146, 0.798668, 0.522199, 0.507728, 0.508125, 0.509184, 0.509887, 0.514738, 0.514284, 0.534404, 0.535077, 0.53442, 0.534869, 0.536034, 0.534983, 0.53457, 0.533521, 0.531562, 0.529541, 0.529425, 0.538502, 0.537941, 0.538177, 0.65435, 0.546111, 0.546232, 0.546229, 0.545745, 0.555296, 0.555181, 0.554809, 0.555588, 0.555134, 0.554231, 0.570311, 0.570664, 0.587163, 0.579003, 0.662544, 0.581115, 0.58114, 0.620975, 0.594905, 0.680079, 0.740763, 0.65309, 0.728422, 0.662722, 0.65802, 1.14841, 0.618441, 0.619339, 0.897591, 0.99813, 0.97911, 1.17826, 0.693982, 0.712105, 0.696927, 0.666728, 0.603359, 0.603222, 0.603688, 0.603703, 0.603485, 0.601488, 0.605153, 0.605224, 0.602568, 0.591565, 0.629134, 0.637308, 0.624381, 0.624137, 0.631882, 0.621047, 0.615885, 0.615265, 0.649906, 0.694532, 0.724483, 0.714757, 0.738622, 0.67659, 0.694353, 0.674286, 0.714602, 0.736328, 0.738959, 0.738916, 0.739308, 0.738173, 0.73661, 0.747263, 0.756381, 0.750656, 0.739423, 0.733537, 0.738664, 0.757222, 0.757737, 0.790205, 0.750096, 0.750866, 0.747585, 0.774595, 0.749961, 0.770298, 0.772068, 0.787157, 0.761301, 0.769319, 0.747645, 0.747245, 0.756774, 0.82714, 0.841413, 0.758745, 0.766253, 0.729639, 0.729337, 0.780504, 0.772569, 0.77682, 0.776165, 0.72233, 0.718065, 0.710651, 0.719062, 0.724975, 0.760892, 0.762607, 0.732515, 0.759274, 0.758149, 0.714654, 0.70436, 0.703725, 0.703211, 0.760166, 0.708372, 0.706496, 0.718533, 0.714661, 0.717728, 0.720032, 0.724612, 0.725719, 0.736849, 0.738238, 0.738127, 0.740152, 0.740032, 0.852528, 0.970517, 0.971931, 0.950063, 0.840121, 0.755818, 0.963117, 0.894573, 0.770541, 0.771498, 0.983889, 0.968311, 0.953021, 0.978009, 0.908759, 0.811429, 0.797166, 0.784129, 0.845021, 0.842987, 0.838348, 0.836696, 0.846926, 0.808034, 0.811466, 0.814509, 0.804519, 1.35485, 0.904687, 0.767047, 0.766866, 0.77262, 0.760184, 0.759991, 0.759044, 0.754766, 0.75417, 0.753447, 0.756757, 0.756162, 0.757075, 0.739654, 0.739066, 0.740656, 0.741297, 1.06858, 0.766805, 0.756569, 1.05126, 1.2018, 1.04183, 0.76334, 0.767068, 0.74707, 0.974412, 0.742965, 0.744494, 0.743637, 0.743713, 0.744895, 0.745699, 0.750566, 0.75259, 0.75607, 0.757168, 0.758069, 0.757966, 0.756876, 0.759046, 0.759746, 0.760555, 0.761764, 0.765154, 0.766171, 0.765342, 0.76677, 0.769524, 0.768157, 0.767576, 0.768552, 0.767987, 0.76883, 0.991679, 0.77686, 0.779058, 0.7803, 0.783717, 0.786507, 0.78618, 0.788032, 0.79006, 0.790488, 0.788119, 0.789857, 0.902564, 0.904135, 0.877381, 0.877349, 0.792246, 0.796539, 0.794331, 1.36778, 1.42441, 1.52272, 1.4158
0.467712, 0.468327, 0.468169, 0.467775, 0.46698, 0.46602, 0.468551, 0.468762, 1.12704, 0.697513, 0.476733, 0.477314, 0.477624, 0.476034, 0.469456, 0.469677, 0.468964, 0.469363, 0.463562, 0.465471, 0.465816, 0.465205, 0.46904, 0.47015, 0.485507, 0.484315, 0.491685, 0.491435, 0.49037, 0.490131, 0.490824, 0.489621, 0.488736, 0.487037, 0.488406, 0.487317, 0.48864, 0.488445, 0.489119, 0.720047, 0.732203, 0.576714, 0.512085, 0.515905, 0.509461, 0.508397, 0.509314, 0.50845, 0.511999, 0.511836, 0.511552, 0.534514, 0.535341, 0.534559, 0.794719, 0.53529, 0.534687, 0.531826, 0.532015, 0.531388, 0.530029, 0.52953, 0.529231, 0.529217, 0.729235, 0.742183, 0.546364, 0.547391, 0.547512, 0.546653, 0.555206, 0.555133, 0.555206, 0.554905, 0.55569, 0.554033, 0.571173, 0.568778, 0.568759, 1.15402, 0.584083, 0.584144, 0.584052, 0.585694, 0.583943, 0.677593, 0.778221, 0.773513, 0.657108, 0.75322, 0.605553, 0.738361, 0.613826, 0.61422, 0.708352, 0.987204, 0.661536, 0.731611, 0.729515, 0.730976, 0.964314, 0.683567, 0.681648, 0.60306, 0.603292, 0.603562, 0.602675, 0.604439, 0.603569, 0.603595, 0.601855, 0.661524, 0.657682, 0.64316, 0.626273, 0.628041, 0.626695, 0.623125, 0.640161, 0.688622, 0.62665, 0.663597, 0.712348, 0.631973, 0.632024, 0.643464, 0.672777, 0.671974, 0.666722, 0.691254, 0.707421, 0.736545, 0.731365, 0.774689, 0.755234, 0.753308, 0.745063, 0.729123, 0.742519, 0.733526, 0.739721, 0.756057, 0.756939, 0.763162, 0.743435, 0.740689, 0.819304, 0.818246, 0.757231, 0.784827, 0.724807, 0.728963, 0.757294, 0.748487, 0.74613, 0.785528, 0.747674, 0.776456, 0.754665, 0.715543, 0.704766, 0.704739, 0.729845, 0.780357, 0.780962, 0.731581, 0.718277, 0.699327, 0.719171, 0.710575, 0.718535, 0.712764, 0.748687, 0.742797, 0.734414, 0.721203, 0.718686, 0.756073, 0.703611, 0.701798, 0.701199, 0.813326, 0.813075, 0.707385, 0.706497, 0.713767, 0.922771, 0.924678, 0.728032, 0.728512, 0.736903, 0.73806, 0.738421, 0.739597, 0.922463, 0.853292, 0.849451, 0.958859, 0.947198, 0.861424, 0.829016, 0.825642, 0.859982, 0.883521, 0.895351, 0.853728, 0.941994, 0.842491, 0.84001, 0.804265, 0.797488, 0.860708, 0.786688, 0.833014, 0.840618, 0.829451, 0.853808, 0.803729, 0.793757, 0.797999, 0.785626, 0.785389, 0.783859, 0.780455, 0.764162, 0.755691, 0.763306, 0.758448, 0.759362, 0.757359, 0.75302, 0.753933, 0.750672, 0.755701, 0.749434, 0.749361, 0.741915, 0.740659, 0.742261, 0.74203, 0.744201, 0.769976, 0.763791, 0.765605, 0.772226, 0.763465, 0.742923, 0.74484, 0.743198, 0.741861, 0.742685, 0.743264, 0.743888, 0.743172, 0.745082, 0.801184, 0.752006, 0.752142, 0.752345, 0.756115, 0.758667, 0.759457, 0.759573, 0.760863, 0.758796, 0.760488, 0.760067, 0.763538, 0.758008, 0.762778, 0.765007, 0.763692, 0.763872, 0.762709, 0.766958, 0.76653, 0.768117, 0.770736, 0.774654, 0.784328, 0.939635, 0.783275, 0.784098, 0.783912, 0.831958, 0.790409, 0.786976, 0.784188, 0.782969, 0.779958, 0.782343, 0.782075, 0.849449, 0.788121, 0.788958, 0.790374, 0.790065, 1.33819, 1.30939, 1.30896
0.731655, 0.732141, 0.467494, 0.466945, 0.465991, 0.468191, 0.468052, 0.469211, 0.511261, 0.520447, 0.473605, 0.475545, 0.475764, 0.470599, 0.470679, 0.470289, 0.46933, 0.470388, 0.472789, 0.468773, 0.469319, 0.471248, 0.470479, 0.469828, 0.469621, 0.49693, 0.484831, 0.487765, 0.489217, 0.48991, 0.489029, 0.488225, 0.487916, 0.485846, 0.487338, 0.48785, 0.487803, 0.489117, 0.487721, 0.487236, 0.666896, 0.569393, 0.553152, 0.498115, 0.498318, 0.498749, 0.508827, 0.512512, 0.511885, 0.5123, 0.51198, 0.645555, 0.534337, 0.533716, 0.794336, 0.792248, 0.532169, 0.532208, 0.530499, 0.530656, 0.530627, 0.531111, 0.530629, 0.529561, 0.528793, 0.672913, 0.654926, 0.547223, 0.547209, 0.6313, 0.63287, 0.55508, 0.554692, 0.553966, 0.553363, 0.552093, 0.569071, 0.569514, 0.56991, 0.570618, 1.15364, 0.582491, 0.583316, 0.583489, 0.58318, 0.583646, 0.622602, 0.621611, 0.613802, 0.614261, 0.734437, 0.750392, 0.750349, 0.818614, 0.713469, 0.990851, 1.26996, 0.724114, 0.701832, 0.8355, 0.688937, 0.619382, 0.963737, 0.595486, 0.602164, 0.60107, 0.604607, 0.606353, 0.60544, 0.601059, 0.599459, 0.602854, 0.660172, 0.618597, 0.626632, 0.627774, 0.627637, 0.623419, 0.63138, 0.631047, 0.628691, 0.656371, 0.668733, 0.634489, 0.632781, 0.633083, 0.72592, 0.65383, 0.655376, 0.655811, 0.694291, 0.715061, 0.7179, 0.780387, 0.733071, 0.740058, 0.720914, 0.735687, 0.714858, 0.743281, 0.748079, 0.809847, 0.756276, 0.755472, 0.749453, 0.722758, 0.728944, 0.727984, 0.744794, 0.740398, 0.725728, 0.725161, 0.74207, 0.788589, 0.787726, 0.791176, 0.794836, 0.793806, 0.777603, 0.745982, 0.706356, 0.703865, 0.69839, 0.718578, 0.718184, 0.735527, 0.708483, 0.707381, 0.708307, 0.710018, 0.726102, 0.807664, 0.730613, 0.755059, 0.745064, 0.721861, 0.742836, 0.714152, 0.739027, 0.700373, 0.728916, 0.814232, 0.813868, 0.812251, 0.919881, 0.919587, 0.799246, 0.728684, 0.727884, 0.72811, 0.912932, 0.926072, 0.743828, 0.745138, 0.745659, 0.746188, 0.895319, 0.853087, 0.850624, 1.04923, 1.03873, 0.823284, 0.828899, 0.839761, 0.853295, 0.851213, 0.821557, 0.824277, 0.841214, 0.902584, 0.861235, 0.860577, 0.912821, 0.924507, 0.791058, 0.792014, 0.791415, 0.78604, 0.790462, 0.787636, 0.780664, 1.00581, 0.780467, 0.771864, 0.768362, 0.750175, 0.750273, 0.740969, 0.741748, 0.746896, 0.747242, 0.753255, 0.746188, 0.739499, 0.72952, 0.738872, 0.73851, 0.740269, 0.740444, 0.74264, 0.743221, 0.744912, 0.747163, 0.755564, 1.03946, 0.765968, 0.787583, 0.740744, 0.742438, 0.742708, 0.74308, 0.742743, 0.742986, 0.742788, 1.09807, 0.747644, 0.748547, 0.750359, 0.750597, 0.755873, 0.758109, 0.758943, 0.759059, 0.759452, 0.759047, 0.758762, 0.759179, 0.755501, 0.758083, 0.757548, 0.757535, 0.762893, 0.756085, 0.756852, 0.757446, 1.04156, 0.76666, 0.767851, 0.976931, 0.955747, 0.982309, 0.9836, 0.781612, 0.783612, 0.784773, 0.777552, 0.777149, 0.777794, 0.778694, 0.7812, 0.780345, 0.78169, 0.78215, 1.19392, 0.7886, 0.789172, 0.789848, 0.79099, 0.792517, 0.79579
0.460778, 0.46053, 0.459831, 0.466138, 0.46556, 0.466178, 0.466118, 0.461143, 0.468854, 0.521594, 0.719065, 1.45595, 0.470332, 0.470234, 0.470458, 0.469857, 0.473116, 0.472514, 0.473052, 0.472689, 0.471784, 0.472233, 0.471733, 0.470614, 0.721325, 0.721312, 0.934363, 0.634843, 0.804027, 0.798967, 0.487264, 0.486841, 0.486835, 0.486313, 0.486659, 0.486382, 0.48971, 0.488573, 0.487886, 0.488748, 0.522153, 0.657061, 0.49758, 0.498002, 0.497764, 0.498301, 0.497822, 0.513499, 0.512188, 0.510962, 0.529543, 0.680172, 0.532586, 0.6178, 0.700456, 0.794841, 0.745274, 0.791543, 0.528754, 0.527571, 0.530031, 0.529622, 0.530699, 0.52966, 0.528454, 0.746202, 0.690739, 0.663227, 0.657814, 0.539793, 0.540079, 0.543402, 0.553212, 0.554786, 0.552296, 0.55211, 0.563141, 0.569134, 0.569014, 0.573637, 0.667017, 0.582482, 0.583608, 0.583973, 0.583616, 0.582137, 0.625142, 0.746147, 0.610687, 0.777892, 0.818181, 0.836589, 0.615491, 0.660757, 0.648234, 0.691619, 1.2728, 0.708509, 0.714013, 0.976794, 0.631924, 0.632999, 0.73032, 0.71156, 0.590287, 0.763233, 0.604287, 0.605099, 0.602257, 0.599124, 0.597748, 0.596458, 0.605386, 0.67377, 0.745213, 0.622408, 0.628112, 0.627729, 0.626263, 0.631693, 0.687393, 0.685197, 0.629037, 0.63194, 0.63296, 0.635412, 0.634399, 0.66915, 0.676572, 0.676193, 0.661564, 0.695896, 0.69551, 0.706082, 0.73599, 0.737084, 0.735771, 0.708853, 0.700631, 0.701055, 0.733459, 0.777687, 0.758303, 0.746533, 0.733113, 0.756902, 0.69833, 0.703062, 0.707859, 0.695093, 0.680214, 0.705387, 0.702139, 0.781272, 0.779251, 0.776662, 0.791874, 0.761681, 0.749643, 0.711986, 0.709656, 0.705275, 0.698214, 0.693281, 0.690475, 0.692444, 0.691203, 0.690945, 0.71214, 0.748691, 0.752104, 0.714944, 0.708528, 0.679766, 0.681203, 0.672655, 0.673354, 0.791202, 0.749485, 0.750421, 0.796424, 0.792331, 0.813954, 0.812023, 0.703133, 0.697736, 0.79138, 0.926803, 0.728869, 0.727041, 0.736115, 0.742065, 0.745269, 0.745998, 0.746969, 0.746479, 0.932336, 0.943294, 0.813325, 0.812047, 1.01938, 0.911769, 0.852566, 0.854131, 0.829931, 0.828967, 0.810289, 0.788556, 0.864013, 0.763188, 0.768005, 0.773587, 0.780676, 0.81834, 0.818064, 0.800691, 0.767499, 0.769214, 0.767918, 0.766508, 0.766554, 0.760909, 0.762779, 0.75092, 0.751877, 0.766012, 0.742494, 0.742361, 0.742797, 0.741988, 0.74516, 0.743134, 0.738654, 0.729495, 0.730152, 0.730816, 0.737689, 0.73745, 0.736838, 0.730186, 0.732219, 0.732022, 0.729582, 0.729952, 1.02902, 1.11738, 0.732022, 0.735559, 0.738048, 0.739442, 0.740745, 0.745278, 0.743969, 0.743675, 0.745964, 0.74766, 0.751254, 0.750557, 0.750729, 0.75117, 0.756175, 0.757201, 0.755536, 0.757679, 0.758422, 0.757988, 0.756977, 0.756498, 0.756597, 0.753717, 0.755641, 0.753059, 0.755748, 0.757289, 0.763027, 0.763579, 0.765629, 0.912814, 0.977039, 0.977696, 0.884321, 0.825663, 0.985392, 0.776495, 0.778485, 0.778823, 0.77881, 0.778645, 0.779827, 0.779893, 0.780466, 0.78122, 0.781115, 1.19392, 0.80856, 0.924163, 1.44346, 1.34855, 0.90555, 0.805665
0.461669, 0.460847, 0.460213, 0.459944, 0.459683, 0.459825, 0.45999, 0.458856, 0.459886, 1.11901, 1.12815, 1.12589, 0.468868, 0.469645, 0.469214, 0.472886, 0.473769, 0.472603, 0.472534, 0.472636, 0.472071, 0.470941, 0.466977, 0.465048, 0.46406, 0.464306, 0.934338, 0.663136, 0.472306, 0.472262, 0.472149, 0.749398, 0.485174, 0.484511, 0.485493, 0.48855, 0.489275, 0.489471, 0.488443, 0.493047, 0.664003, 0.500304, 0.498834, 0.499069, 0.498701, 0.498818, 0.541693, 0.513188, 0.511308, 0.680704, 0.637775, 0.684719, 0.704426, 0.687666, 0.688647, 0.687833, 0.67024, 0.66609, 0.52574, 0.515495, 0.714541, 0.528438, 0.528784, 0.528291, 0.527367, 0.527215, 0.527821, 0.67779, 0.533476, 0.540397, 0.544356, 0.544776, 0.553471, 0.553255, 0.559886, 1.284, 0.679271, 0.57623, 0.656109, 0.581302, 0.881141, 0.581093, 0.58299, 0.582943, 0.590833, 0.579948, 0.590887, 0.580229, 0.826781, 0.695347, 0.77627, 1.2609, 0.631996, 0.687077, 0.564079, 0.692367, 0.611516, 0.673298, 0.977222, 0.584439, 0.584793, 0.584927, 0.770234, 0.586403, 0.589563, 0.589816, 0.602383, 0.651919, 0.599345, 0.598655, 0.597991, 0.597946, 0.666844, 0.607305, 0.751239, 0.921557, 0.616304, 0.626195, 0.625981, 0.645296, 0.646137, 0.687142, 0.62924, 0.634923, 0.633512, 0.632968, 0.63372, 0.680078, 0.676135, 0.659158, 0.662854, 0.65814, 0.66234, 0.664142, 0.674426, 0.737387, 0.753267, 0.692314, 0.671537, 0.671695, 0.72188, 0.73879, 0.769598, 0.755359, 0.746139, 0.715186, 0.69931, 0.700904, 0.691035, 0.670918, 0.668722, 0.670271, 0.680252, 0.662698, 0.665325, 0.68738, 0.68966, 0.767796, 0.708873, 0.70905, 0.710787, 0.686896, 0.686976, 0.686304, 0.6904, 0.691023, 0.682006, 0.710866, 0.701479, 0.750095, 0.720761, 0.665437, 0.67516, 0.679509, 0.679472, 0.673656, 0.667428, 0.65419, 0.657428, 0.797028, 0.797629, 0.666919, 0.667441, 0.815508, 0.820426, 0.819461, 0.769799, 0.92228, 0.920834, 0.739017, 0.942084, 0.921507, 0.742302, 0.745262, 0.746849, 0.901643, 0.797102, 0.935441, 1.03318, 0.92919, 0.913134, 1.00204, 0.928638, 0.888821, 0.767429, 0.76903, 0.769682, 0.789823, 0.762262, 0.762802, 0.763113, 0.76791, 0.822544, 0.825661, 0.81925, 0.764962, 0.766916, 0.768017, 0.768041, 0.765097, 0.764933, 0.760036, 0.75742, 0.744216, 0.749543, 0.740361, 0.743375, 0.74328, 0.743009, 0.741944, 0.741728, 0.736646, 0.723349, 0.724611, 0.729559, 0.73146, 0.728818, 0.728893, 0.73062, 0.731324, 0.732351, 0.731398, 0.730106, 0.729189, 0.729028, 0.746026, 1.20577, 0.734706, 0.733563, 0.740832, 0.741319, 0.741507, 0.742081, 0.770439, 0.777136, 0.747879, 0.745758, 0.746664, 0.746428, 0.746153, 0.749027, 0.748778, 0.749797, 0.756124, 0.755517, 0.755276, 0.755858, 0.755386, 0.753064, 0.752112, 0.752169, 0.753201, 0.758793, 0.761949, 0.76344, 0.764202, 0.766065, 0.766555, 0.852568, 0.97835, 0.907159, 0.984198, 0.983969, 0.778449, 0.776444, 0.778461, 0.778117, 0.776957, 0.778257, 0.778191, 0.776556, 0.774007, 1.29671, 0.776144, 0.774809, 1.3238, 1.32445, 1.28488, 0.901081, 1.27512
0.461888, 0.46188, 0.461103, 0.460705, 0.461366, 0.459626, 0.459588, 0.459371, 0.459408, 1.12899, 1.12681, 1.12425, 0.468602, 0.468313, 0.467762, 0.473694, 0.473582, 0.47181, 0.470883, 0.472542, 0.471679, 0.469922, 0.466078, 0.465041, 0.465079, 0.464393, 0.911471, 0.923037, 0.473334, 0.472726, 0.472757, 0.572336, 0.464646, 0.772374, 0.482285, 0.48155, 0.489824, 0.488807, 0.492446, 0.474945, 0.617815, 0.639098, 0.49915, 0.498403, 0.497391, 0.496839, 0.529407, 0.74256, 0.724639, 0.722732, 0.645768, 0.676712, 0.69416, 0.604969, 0.608471, 0.687341, 0.684281, 0.687274, 0.520314, 0.517287, 0.516712, 0.516131, 0.520224, 0.520143, 0.528042, 0.527891, 0.704068, 0.58696, 0.618062, 0.529851, 0.530177, 0.705555, 1.33306, 1.3335, 1.33432, 0.676924, 0.56398, 0.641332, 0.659547, 0.580166, 0.646705, 0.600847, 0.617647, 0.581422, 0.577293, 0.607271, 0.777523, 0.825162, 0.788971, 0.696695, 0.694656, 0.64273, 0.635963, 0.763528, 0.750362, 0.58983, 0.680885, 0.676644, 0.673758, 1.06979, 0.667795, 0.693996, 0.716763, 0.583905, 0.586538, 0.905495, 0.835008, 0.589903, 0.753764, 0.597783, 0.598089, 0.59887, 0.607281, 0.608263, 0.607168, 0.921052, 0.614887, 0.650189, 0.643385, 0.652135, 0.646528, 0.645722, 0.646763, 0.632485, 0.733941, 0.631712, 0.631919, 0.711115, 0.700911, 0.659755, 0.659871, 0.657099, 0.654559, 0.655406, 0.704707, 0.704383, 0.646578, 0.647089, 0.656175, 0.65544, 0.757434, 0.704705, 0.762986, 0.723486, 0.715905, 0.7091, 0.705924, 0.665326, 0.675977, 0.669363, 0.66855, 0.68251, 0.66672, 0.6908, 0.685115, 0.694655, 0.66251, 0.663464, 0.665716, 0.690779, 0.69851, 0.686505, 0.686666, 0.687184, 0.682324, 0.683008, 0.682854, 0.681198, 0.672808, 0.672815, 0.665988, 0.667224, 0.674123, 0.676366, 0.676574, 0.647688, 0.64809, 0.654161, 0.653476, 0.652801, 0.652535, 0.66654, 0.667118, 0.813707, 0.669127, 0.820132, 0.762842, 0.77272, 0.830825, 0.835714, 0.722489, 0.924321, 0.742616, 0.784015, 0.791595, 0.807464, 0.914974, 0.936984, 1.01702, 1.00146, 1.00112, 1.00121, 0.964201, 0.932445, 0.768126, 0.769385, 0.769316, 0.867586, 0.762476, 0.762947, 0.764153, 0.764598, 0.765517, 0.765738, 0.764913, 0.762596, 0.767141, 0.766577, 0.766318, 0.765523, 0.763807, 0.756701, 0.749999, 0.746664, 0.745976, 0.738973, 0.739675, 0.742463, 0.741781, 0.742271, 0.740897, 0.752722, 0.724561, 0.723947, 0.721735, 0.72244, 0.724654, 0.728762, 0.729428, 0.731022, 0.730677, 0.731047, 0.729367, 0.728259, 0.728487, 0.728578, 0.729445, 0.732116, 0.732241, 0.739091, 0.731027, 0.738749, 0.751692, 0.751638, 1.01701, 1.02344, 0.745548, 0.745095, 0.745235, 0.745889, 0.748318, 0.748696, 0.747335, 0.745934, 0.746871, 0.74685, 0.746735, 0.748997, 0.750866, 0.752234, 0.752784, 0.784546, 0.760205, 0.761969, 0.762906, 0.764279, 0.766132, 0.956907, 0.957476, 0.780774, 1.17096, 1.1707, 0.775466, 0.776278, 0.776655, 0.776938, 0.776725, 0.776145, 0.776449, 0.773475, 0.772672, 0.772741, 0.766339, 0.767327, 1.36882, 1.32449, 1.32367, 1.16097, 1.14983, 0.78188
0.462854, 0.461645, 0.461145, 0.460678, 0.461651, 0.461111, 0.460541, 0.461191, 0.459385, 0.459312, 0.459681, 0.461897, 0.693536, 0.504227, 0.496088, 0.912646, 0.472966, 0.471546, 0.471295, 0.471173, 0.470521, 0.467669, 0.466121, 0.465344, 0.465584, 0.466546, 0.465554, 0.929737, 0.472383, 0.471096, 0.468813, 0.464591, 0.462925, 0.462694, 0.463181, 0.529638, 0.725987, 0.718548, 0.522332, 0.476073, 0.474529, 0.642652, 0.49694, 0.488261, 0.486909, 0.518496, 0.715358, 0.716142, 0.486098, 0.48616, 0.716603, 0.614798, 0.650228, 0.500351, 0.674658, 0.666118, 0.682445, 0.679661, 0.514188, 0.5175, 0.517253, 0.516605, 0.517475, 0.517791, 0.596611, 0.564987, 0.534878, 0.536156, 0.533576, 0.53122, 0.530634, 0.529952, 0.701101, 0.536805, 0.912395, 0.708266, 0.676736, 0.776676, 0.58077, 0.62702, 0.562902, 0.563429, 0.567139, 0.587441, 0.567272, 0.847436, 0.916629, 0.835015, 0.594617, 0.705385, 0.699183, 0.702545, 0.551022, 0.552711, 0.689467, 0.688347, 0.683075, 1.02512, 1.02587, 0.670489, 0.666518, 0.664597, 0.577458, 0.642125, 0.657276, 0.58439, 0.731701, 0.795199, 0.596932, 0.597215, 0.598331, 0.598592, 0.597364, 0.606806, 0.606611, 0.6059, 0.73555, 0.749167, 0.721032, 0.638711, 0.637873, 0.725865, 0.734919, 0.73194, 0.735564, 0.624736, 0.624414, 0.702247, 0.704111, 0.657891, 0.660749, 0.653687, 0.651229, 0.655612, 0.6494, 0.662543, 0.750201, 0.687235, 0.655935, 0.654363, 0.703447, 0.690684, 0.698965, 0.772678, 0.729255, 0.708592, 0.666403, 0.665905, 0.664542, 0.662835, 0.655087, 0.673478, 0.672177, 0.680353, 0.659011, 0.669551, 0.682151, 0.665864, 0.665638, 0.665669, 0.701095, 0.671466, 0.656641, 0.65765, 0.664005, 0.655257, 0.655432, 0.76507, 0.673243, 0.762586, 0.679994, 0.680214, 0.678087, 0.660606, 0.646828, 0.647195, 0.64854, 0.649103, 0.645638, 0.651986, 0.650864, 0.69739, 0.815072, 0.812243, 0.670049, 0.759258, 0.756755, 0.758085, 0.749067, 0.723156, 0.724319, 0.812426, 0.829708, 0.976983, 0.932548, 0.930812, 0.913667, 0.913891, 1.00109, 0.997834, 1.00452, 0.953424, 0.983618, 0.790024, 0.768025, 0.770021, 0.755978, 0.756405, 0.757263, 0.763058, 0.763758, 0.764977, 0.765927, 0.765681, 0.764617, 0.762985, 0.825473, 0.816866, 0.763313, 0.765745, 0.763771, 0.755938, 0.753067, 0.748745, 0.739554, 0.73962, 0.738385, 0.7374, 0.741367, 0.741657, 0.741877, 0.753793, 0.759503, 0.723638, 0.723578, 0.722552, 0.725069, 0.727883, 0.728122, 0.718897, 0.72022, 0.728368, 0.726107, 0.727888, 0.72826, 0.729283, 0.730997, 0.732087, 0.733264, 0.734473, 0.726927, 0.726049, 0.727798, 0.733245, 0.740224, 0.738972, 0.742253, 0.739939, 0.738539, 0.739106, 0.739589, 0.740089, 0.74602, 0.746348, 0.748748, 0.748574, 0.748518, 0.750089, 0.755887, 0.756386, 0.756561, 0.758706, 0.758052, 0.758634, 0.759921, 0.761291, 0.765269, 0.76614, 0.766632, 0.801324, 1.33084, 1.33035, 0.773069, 0.774869, 0.775294, 0.777605, 0.775198, 0.776372, 0.773568, 0.771692, 0.771613, 0.767683, 0.76686, 0.768344, 1.51503, 0.777324, 0.775249, 0.776102, 0.774795, 0.775349
0.461798, 0.461716, 0.46181, 0.461907, 0.461784, 0.461893, 0.460654, 0.460868, 0.460872, 0.459271, 0.459172, 0.460239, 0.46211, 0.463461, 0.459929, 0.46141, 0.462869, 0.462085, 0.905411, 0.90747, 0.859029, 0.466311, 0.465708, 0.466861, 0.467658, 0.466296, 0.464784, 0.460323, 0.460083, 0.466244, 0.466287, 0.467177, 0.466178, 0.463009, 0.462642, 0.703737, 0.702809, 0.662905, 0.567181, 0.481358, 0.472562, 0.479551, 0.541541, 0.487714, 0.48734, 0.512488, 0.696854, 0.487006, 0.487054, 0.487121, 0.48672, 0.722234, 0.638908, 0.50038, 0.500814, 0.500316, 0.671726, 0.506955, 0.515052, 0.515693, 0.516564, 0.516879, 0.517381, 0.51826, 0.621611, 0.592385, 0.534926, 0.534791, 0.533959, 0.531719, 0.531109, 0.53135, 0.535125, 0.738758, 0.530787, 0.714756, 0.641146, 0.662831, 0.562802, 0.562978, 0.563238, 0.545542, 0.867673, 0.564071, 0.560121, 0.72544, 0.724774, 0.711847, 0.536113, 0.535775, 0.706859, 0.813457, 0.813803, 0.541679, 0.543242, 0.596572, 1.01932, 1.02248, 0.563369, 0.572545, 1.04829, 0.761581, 0.653169, 0.580564, 0.579013, 0.797184, 0.796882, 0.758653, 0.773912, 0.596979, 0.712002, 0.595802, 1.16771, 0.602293, 0.603312, 0.60634, 0.6071, 0.684384, 0.635059, 0.636623, 0.638797, 0.639874, 0.636441, 0.637062, 1.03877, 0.624083, 0.623618, 0.701952, 0.68728, 0.683698, 0.652826, 0.652968, 0.652958, 0.647571, 0.64828, 0.667877, 0.634974, 0.695342, 0.695487, 0.680692, 0.681785, 0.687263, 0.708871, 0.743368, 0.743687, 0.662204, 0.662373, 0.653571, 0.65246, 0.636633, 0.642561, 0.642127, 0.636722, 0.671661, 0.649581, 0.635572, 0.708196, 0.665518, 0.665704, 0.666335, 0.693249, 0.656485, 0.657578, 0.659458, 0.66404, 0.664163, 0.657078, 0.657587, 0.659217, 0.790346, 0.79049, 0.682235, 0.680807, 0.647011, 0.647285, 0.647094, 0.649015, 0.648439, 0.649728, 0.651942, 0.654712, 0.655386, 0.78432, 0.797622, 0.79892, 0.758065, 0.758047, 0.76958, 0.777863, 0.722828, 0.723707, 0.819054, 0.922085, 0.826071, 0.801428, 0.794509, 1.02553, 1.02249, 0.997803, 1.00881, 0.967687, 0.977725, 0.957624, 0.794494, 0.758811, 0.757027, 0.758536, 0.756787, 0.757626, 0.76425, 0.766386, 0.766042, 0.76588, 0.765479, 0.763786, 0.768733, 0.75039, 0.75443, 0.753957, 0.940252, 0.781204, 0.78239, 0.79777, 0.799064, 0.745919, 0.737084, 0.737345, 0.738277, 0.738592, 0.738278, 0.737273, 0.75248, 0.732332, 0.72245, 0.72192, 0.717897, 0.717357, 0.71823, 0.718973, 0.718274, 0.71882, 0.718859, 0.724471, 0.724817, 0.724509, 0.724934, 0.729228, 0.731081, 0.73019, 0.730009, 0.727036, 0.727512, 0.726548, 0.732422, 0.728291, 0.726192, 0.731108, 0.737288, 0.738181, 0.740405, 0.740336, 0.740671, 0.749096, 0.751424, 0.752425, 0.753338, 0.753666, 0.755225, 0.75559, 0.755514, 0.754764, 0.755665, 0.755801, 0.758406, 0.76031, 0.761307, 0.765819, 0.765798, 0.767017, 0.767043, 0.779608, 0.780137, 1.51799, 0.765896, 0.774034, 0.767058, 0.769712, 0.769586, 0.850639, 1.42681, 1.43974, 0.764648, 0.768586, 1.05802, 1.51542, 0.780163, 0.774387, 0.771372, 0.774452, 0.776842
0.871963, 0.678791, 0.955329, 0.460514, 0.96024, 0.461583, 0.462183, 0.461474, 0.460593, 0.459962, 0.458946, 0.463278, 0.463941, 0.902262, 0.943692, 0.462229, 0.462317, 0.46177, 0.460259, 0.897464, 0.449452, 0.452631, 0.452826, 0.453025, 0.465518, 0.463254, 0.459724, 0.460466, 0.462283, 0.465516, 0.466842, 0.46702, 0.464907, 0.463667, 0.463568, 0.506964, 0.702412, 0.541997, 0.538757, 0.543668, 0.543401, 0.48312, 0.613753, 0.528993, 0.510705, 0.514987, 0.485912, 0.485866, 0.486708, 0.486697, 0.486647, 0.638608, 0.641009, 0.500617, 0.501441, 0.500327, 0.506255, 0.510202, 0.513697, 0.515824, 0.515257, 0.516458, 0.51717, 0.518445, 0.523722, 0.538342, 0.538764, 0.532968, 0.531597, 0.530337, 0.530167, 0.528677, 0.528927, 0.529202, 0.527693, 0.604716, 0.74405, 0.746701, 0.563575, 0.65197, 0.870245, 0.542841, 0.72458, 0.7188, 0.713981, 0.877567, 0.872175, 0.871165, 0.538381, 0.536027, 0.535802, 0.964651, 0.987159, 0.540602, 0.696092, 1.01311, 0.795488, 0.549001, 0.548643, 0.548575, 0.810719, 0.805174, 0.761936, 1.17751, 1.17035, 1.16523, 0.579594, 0.579143, 1.17335, 0.674111, 0.762354, 0.752592, 0.829386, 0.601444, 0.605239, 0.875044, 0.760625, 0.728601, 0.806436, 0.807503, 0.747566, 0.741997, 0.63755, 0.637441, 0.622695, 0.622417, 0.632334, 0.705608, 0.625458, 0.626486, 0.673907, 0.65351, 0.65276, 0.620518, 0.648083, 0.668573, 0.71093, 0.699988, 0.628842, 0.682776, 0.682703, 0.686759, 0.686676, 0.665529, 0.673392, 0.67407, 0.637564, 0.638326, 0.635548, 0.637198, 0.641737, 0.640486, 0.638745, 0.636047, 0.629957, 0.630631, 0.710023, 0.71557, 0.650534, 0.650535, 0.656172, 0.657613, 0.658506, 0.648437, 0.661488, 0.662595, 0.662864, 0.770579, 0.661727, 0.669459, 0.754531, 0.79322, 0.792557, 0.651197, 0.650524, 0.65212, 0.743238, 0.695658, 0.654121, 0.654927, 0.657737, 0.654809, 0.654242, 0.798416, 0.80254, 0.74403, 0.773, 0.771387, 0.773151, 0.7737, 1.00531, 0.766701, 0.771173, 0.770917, 0.790322, 0.788516, 1.02931, 1.0011, 0.985272, 0.77957, 0.959634, 0.966635, 0.783741, 0.759292, 0.758638, 0.759026, 0.759306, 0.75963, 0.759617, 0.763417, 0.764561, 0.766087, 0.765659, 0.764022, 0.757354, 0.757217, 0.749002, 0.748866, 0.749572, 0.739593, 0.750305, 0.977178, 0.742596, 0.74402, 1.02283, 0.741456, 0.742196, 0.739298, 0.738893, 0.738381, 0.737211, 0.736769, 0.733698, 0.723054, 0.715284, 0.716292, 0.717937, 0.719726, 0.719859, 0.720016, 0.719882, 0.717578, 0.717766, 0.716039, 0.7238, 0.712589, 0.714472, 0.709029, 0.70932, 0.71468, 0.716581, 0.719115, 0.727403, 0.727328, 0.728841, 0.729807, 0.728339, 0.729763, 0.734272, 0.738058, 0.741568, 0.749209, 0.752378, 0.753645, 0.754398, 0.754045, 0.754219, 0.755769, 0.755723, 0.75173, 0.752912, 0.753971, 0.756936, 0.757525, 0.761405, 0.762881, 0.764007, 0.76496, 0.766227, 0.76587, 1.49712, 1.58147, 0.77013, 0.76599, 0.766369, 0.766063, 0.767404, 0.769178, 0.755799, 0.763375, 0.755892, 0.758146, 0.762827, 0.770252, 0.764773, 0.764949, 0.766828, 0.767803, 0.770577, 0.854017
