0,2.2462584384644,2.24714601566472,2.24858209562929,2.24870176895967,0,2.25008798503658,2.25171354777424,2.25306984551856,2.25336902884451,0,2.25502450991477,2.25583230489484,2.25750773152017,2.25949231424898,0,2.26058931977747,2.26341161581894,2.26462829467781,2.34071061446721,0,2.33975322782416,2.33846673952257,2.33345043242412,2.33497626738648,0,2.335454960708,2.33454743795261,2.33532531460009,2.33610319124756,0,2.33590373569692,2.33434798240198,2.33434798240198,2.33411860851875,0,2.33398896241084,2.33382939797033,2.33540509682034,2.3337895068602,0,2.33420836351653,2.33369975186242,2.33478678461337,2.33477681183584,0,2.3348565940561,2.33534526015515,2.33614308235769,2.33637245624092,0,2.33696085011529,2.33833709341466,2.33963355449378,2.34052113169411,0,2.33971333671404,2.34239601387007,2.3356743618137,2.33399893518837,0,2.33509594071686,2.33677136734218,2.3380977467539,2.34150843666974,0,2.28166179870196,2.27832091822884,2.27694467492947,2.27705437548232,0,2.27687486548674,2.27619671661459,2.27624658050225,2.27689481104181,0,2.27689481104181,2.27655573660573,2.27704440270478,2.27704440270478,0,2.27769263324434,2.27686489270921,2.27744331380605,2.27741339547346,0,2.27764276935669,2.27847050989182,2.27845056433675,2.27841067322663,0,2.27910876765385,2.27897912154593,2.27942789653486,2.27969716152822,0,2.28018582762727,2.28025563706999,2.28154212537158,2.28156207092665,0,2.28157204370418,2.28207068258076,2.28162190759184,2.28373613642856,0,2.28404529253204,2.28596006581813,2.28648862302731,2.28744600967035,0,2.2890316812979,2.29132542013019,2.36002788454613,2.36587193217971,0,2.36364800279014,2.36438598832748,2.36457547110059,2.36503421886704,0,2.36708861103858,2.36969150597435,2.36651018994174,2.36723820270155,0,2.36782659657592,2.36985107041486,2.36992087985758,2.36762714102529,0,2.36883384710663,2.3671584204813,2.3681955893446,2.36887373821675,0,2.37293265867216,2.36913303043258,2.36762714102529,2.36823548045472,0,2.3667196182699,2.36801607934903,2.29198362344728,2.29154482123589,0,2.29116585568968,2.29080683569854,2.29046776126246,2.2900389318286,0,2.29258199009919,2.29012868682638,2.28957021128461,2.29037800626468,0,2.29067718959063,2.29076694458841,2.29147501179317,2.29078689014348,0,2.29256204454412,2.29090656347386,2.2916744673438,2.2928712006476,0,2.29196367789222,2.29257201732165,2.29267174509697,2.29215316066532,0,2.2926817178745,2.2934994856321,2.29361915896248,2.29377872340299,0,2.29455660005046,2.29520483059002,2.29589295223971,2.296142271678,0,2.29683039332769,2.29695006665807,2.29725922276156,2.298186691072,0,2.30040064768404,2.30190653709133,2.30493826146097,2.38416200617286,0,2.38142946512917,2.37913572629688,2.37908586240922,2.37899610741144,0,2.37986373905669,2.38309491897697,2.3816588390124,2.38210761400133,0,2.38180843067538,2.38248657954753,2.3843315433909,2.38388276840197,0,2.3839226595121,2.38542854891939,2.38740315887067,2.38736326776054,0,2.38897885772068,2.38909853105106,2.3882009810732,2.38943760548713,0,2.39276851318272,2.39319734261659,2.39383560037862,2.39396524648653,0,2.39913114524795,2.39882198914447,2.39955997468182,2.40010847744606,0,2.39831337749035,2.39788454805649,2.3186907216772,2.31710505004966,0,2.31587839841325,2.31478139288477,2.31712499560472
0,0,0,0,0,0,0,0,0,0,0,0,0,0,0,0,0,0,0,0,0,0,0,0,0,0,0,0,0,0,0,0,0,0,0,0,0,0,0,0,0,0,0,0,0,0,0,0,0,0,0,0,0,0,0,0,0,0,0,0,0,0,0,0,0,0,0,0,0,0,0,0,0,0,0,0,0,0,0,0,0,0,0,0,0,0,0,0,0,0,0,0,0,0,0,0,0,0,0,0,0,0,0,0,0,0,0,0,0,0,0,0,0,0,0,0,0,0,0,0,0,0,0,0,0,0,0,0,0,0,0,0,0,0,0,0,0,0,0,0,0,0,0,0,0,0,0,0,0,0,0,0,0,0,0,0,0,0,0,0,0,0,0,0,0,0,0,0,0,0,0,0,0,0,0,0,0,0,0,0,0,0,0,0,0,0,0,0,0,0,0,0,0,0,0,0,0,0,0,0,0,0,0,0,0,0,0,0,0,0,0,0,0,0,0,0,0,0,0,0,0,0,0,0,0,0,0,0,0,0,0,0,0,0
0,2.24609887402389,2.24720585232991,2.24700639677928,2.2487416600698,0,2.24944972727455,2.250377195585,2.25187311221475,2.25306984551856,0,2.25426657882236,2.25516412880022,2.25657029043219,2.25794653373156,0,2.25932277703094,2.26248414750849,2.26434905690692,2.26619402075029,0,2.3422165038745,2.33194454301684,2.33393909852318,2.33373964297254,0,2.33360999686463,2.33383937074786,2.33517572293711,2.3337895068602,0,2.33395904407824,2.33418841796147,2.33346040520166,2.33252296411368,0,2.33258280077887,2.33296176632507,2.33279222910703,2.33279222910703,0,2.33395904407824,2.33462722017287,2.33333075909374,2.33337065020387,0,2.33410863574122,2.33433800962445,2.33521561404724,2.33587381736433,0,2.33676139456465,2.33780853620548,2.33689104067256,2.33838695730232,0,2.33969339115897,2.34029175781088,2.3370605778906,2.33276231077444,0,2.33554471570578,2.33528542348996,2.33189467912918,2.33502613127413,0,2.28334719810482,2.27882952988296,2.27794195268264,2.2773635315858,0,2.27663551882598,2.27660560049339,2.27620668939212,2.27645600883041,0,2.275698077738,2.27551856774243,2.27626652605731,2.277742497132,0,2.27684494715415,2.2767651649339,2.27706434825985,2.27752309602631,0,2.27754304158137,2.27816135378833,2.27845056433675,2.27850042822441,0,2.27888936654815,2.27909879487632,2.27890931210321,2.28035536484531,0,2.27967721597315,2.28017585484974,2.2804152015105,2.28090386760955,0,2.28178147203234,2.28236986590672,2.28238981146178,2.28352670810039,0,2.28518218917066,2.2857606102675,2.28662824191276,2.28763549244346,0,2.2900389318286,2.36029714953948,2.36038690453727,2.36317928224615,0,2.36261083392684,2.36268064336956,2.36392724056102,2.3641067505566,0,2.36642043494395,2.36577220440439,2.3647051172085,2.36630076161357,0,2.37015025374081,2.36923275820789,2.36725814825662,2.36823548045472,0,2.36599160551009,2.36740773991959,2.3663107343911,2.365333402193,0,2.36496440942432,2.36474500831862,2.367377821587,2.36994082541264,0,2.36833520823004,2.2924922351014,2.29161463067861,2.29243239843621,0,2.28979958516784,2.29077691736595,2.29009876849379,2.2898494490555,0,2.28948045628682,2.2898195307229,2.28905162685296,2.28998906794094,0,2.2904178973748,2.29027827848936,2.28993920405328,2.29055751626025,0,2.29056748903778,2.29062732570297,2.29139522957291,2.29070710792322,0,2.29127555624253,2.29353937674223,2.29185397733937,2.29382858729065,0,2.2923027523283,2.29265179954191,2.29406793395141,2.29389839673337,0,2.2939382878435,2.29445687227515,2.29521480336756,2.29624199945332,0,2.296142271678,2.29646140055902,2.2971794405413,2.29832630995745,0,2.30033083824132,2.30234533930273,2.30204615597678,2.30827914193409,0,2.38416200617286,2.37990363016682,2.37782929244023,2.37844760464719,0,2.3787966518608,2.37931523629245,2.37955458295321,2.38014297682758,0,2.38235693343962,2.38237687899468,2.38317470119722,2.3828854906488,0,2.38346391174564,2.38391268673457,2.38504958337318,2.38858991939694,0,2.38783198830453,2.38717378498744,2.38739318609313,2.38899880327574,0,2.39123270544284,2.39222001041848,2.39470323202388,2.39482290535426,0,2.3954013264511,2.39895163525238,2.39904139025017,2.39812389471725,0,2.39873223414669,2.32191192881994,2.31822200113321,2.31880042223005,0,2.31652662895282,2.31568891564015,2.3147913656623
0,2.24521129682357,2.24642797568244,2.24822307563815,2.24786405564701,0,2.24857212285176,2.25096558945937,2.25192297610241,2.25169360221918,0,2.25385769494356,2.25450592548312,2.25537355712838,2.25737808541226,0,2.2589637570398,2.26113782254171,2.26274343972431,2.26531641632749,0,2.26660290462909,2.3336299424197,2.33305152132286,2.33323103131843,0,2.33185478801905,2.33318116743077,2.33313130354311,2.33258280077887,0,2.33266258299912,2.33192459746177,2.33291190243741,2.33213402578994,0,2.33239331800576,2.3319644885719,2.332153971345,2.3321838896776,0,2.33176503302127,2.33246312744849,2.33219386245513,2.33261271911146,0,2.33271244688678,2.33458732906274,2.33517572293711,2.33500618571907,0,2.33488651238869,2.335454960708,2.33620291902288,2.33683120400737,0,2.33854652174283,2.33927453450264,2.334198390739,2.33830717508207,0,2.33292187521494,2.33209413467981,2.33187473357411,2.33233348134057,0,2.2808240853893,2.27802173490289,2.27724385825542,2.27691475659687,0,2.27659562771586,2.27614685272693,2.27624658050225,2.27595736995383,0,2.27580777829085,2.2761368799494,2.27602717939655,2.27737350436333,0,2.27628647161237,2.2763263627225,2.27675519215636,2.27751312324877,0,2.27794195268264,2.27872980210764,2.27875972044024,2.27823116323106,0,2.27835083656144,2.27832091822884,2.27907884932125,2.28059471150607,0,2.27957748819784,2.28015590929468,2.28054484761841,2.28111329593772,0,2.28113324149278,2.28226016535387,2.28259923978995,2.2834967897678,0,2.28364638143077,2.28655843247003,2.28719669023206,2.28844328742353,0,2.2912356651324,2.36108499896449,2.36063622397556,2.36093540730151,0,2.3622518139357,2.36230167782336,2.364076832224,2.36275045281228,0,2.36324909168887,2.36284020781007,2.36475498109616,2.36321917335627,0,2.36643040772148,2.36675950938003,2.36638054383383,2.36912305765504,0,2.36558272163129,2.36494446386926,2.36480484498381,2.36465525332084,0,2.36460538943318,2.36393721333856,2.36400702278128,2.36782659657592,0,2.37115750427151,2.29153484845836,2.29157473956848,2.29039795181974,0,2.28959015683967,2.28889206241245,2.28933086462385,2.28899179018777,0,2.28851309686625,2.28968988461499,2.28947048350929,2.28926105518113,0,2.28970983017005,2.29043784292987,2.28907157240802,2.28932089184632,0,2.289221164071,2.29040792459727,2.29062732570297,2.29052759792765,0,2.29172433123146,2.29244237121374,2.29199359622481,2.29179414067418,0,2.29341970341185,2.29335986674666,2.2934994856321,2.29337981230172,0,2.29399812450869,2.29481589226629,2.29559376891376,2.29440700838749,0,2.29559376891376,2.29620210834319,2.29607246223528,2.29751851497738,0,2.29991198158499,2.30127825210683,2.30725194584833,2.37830798576175,0,2.37793899299307,2.37522639750445,2.37500699639875,2.37595441026426,0,2.37763980966712,2.37730073523104,2.37771959188738,2.38038232348834,0,2.3800532218298,2.38027262293549,2.38095077180765,2.38176853956525,0,2.38285557231621,2.38188821289563,2.38274587176336,2.38346391174564,0,2.38445121672128,2.38472048171464,2.38613661612414,2.38691449277161,0,2.38774223330674,2.38874948383745,2.39133243321816,2.39162164376658,0,2.3937657909359,2.39740585473497,2.39717648085174,2.39642852253686,0,2.39747566417769,2.39693713419098,2.39792443916662,2.31832172890852,0,2.31624739118193,2.31539970509173,2.31471158344204
0,2.24495200460775,2.24601909180364,2.24609887402389,2.2479238923122,0,2.24815326619543,2.24909070728341,2.25081599779639,2.25079605224133,0,2.25229196887108,2.25369813050306,2.25467546270116,2.25591208711509,0,2.25765732318314,2.259342722586,2.26303265027273,2.26631369408067,0,2.26870716068828,2.33337065020387,2.33483664850103,2.33159549580323,0,2.33087745582094,2.33131625803234,2.33226367189785,2.33262269188899,0,2.33192459746177,2.33216394412253,2.33116666636936,2.33060819082759,0,2.33186476079658,2.33099712915132,2.33116666636936,2.33132623080987,0,2.33137609469753,2.33137609469753,2.33172514191114,2.33206421634722,0,2.33225369912032,2.33266258299912,2.33437790073457,2.3337895068602,0,2.33505604960673,2.33467708406052,2.33622286457794,2.33671153067699,0,2.33756918954472,2.33606330013743,2.33326094965102,2.33200437968203,0,2.33191462468424,2.3315855230257,2.33222378078772,2.33532531460009,0,2.27819127212093,2.27977694374847,2.27705437548232,2.27628647161237,0,2.27672527382377,2.27616679828199,2.27581775106838,2.27585764217851,0,2.27707432103738,2.27588756051111,2.27575791440319,2.27616679828199,0,2.27641611772029,2.27638619938769,2.27704440270478,2.27751312324877,0,2.2785602648896,2.27748320491618,2.27869988377505,2.27845056433675,0,2.27908882209878,2.27869988377505,2.27902898543359,2.279786916526,0,2.27986669874626,2.28020577318234,2.28138256093108,2.28118310538044,0,2.28132272426589,2.28177149925481,2.28261918534501,2.28481319640198,0,2.28579052860009,2.28583041971022,2.2869872619039,2.28971980294758,0,2.35909044345815,2.35990821121575,2.36025725842936,2.36142407340057,0,2.36212216782779,2.36224184115817,2.36209224949519,2.36243132393127,0,2.36233159615595,2.36319922780121,2.36389732222843,2.36337873779678,0,2.36421645110944,2.36446577054774,2.36529351108287,2.36424636944204,0,2.3632590644664,2.36400702278128,2.36367792112273,2.36384745834077,0,2.36332887390912,2.36341862890691,2.36373775778792,2.36548299385597,0,2.29206340566754,2.29270166342957,2.29136531124032,2.28917130018334,0,2.2888122801922,2.28810421298745,2.28891200796752,2.28979958516784,0,2.28884219852479,2.28873249797195,2.28873249797195,2.28932089184632,0,2.28873249797195,2.28886214407986,2.28893195352258,2.28934083740138,0,2.29043784292987,2.29004890460613,2.29037800626468,2.29050765237259,0,2.29038797904221,2.29057746181531,2.29052759792765,2.29129550179759,0,2.29129550179759,2.29265179954191,2.29240248010361,2.29235261621596,0,2.29313049286343,2.2935294039647,2.29486575615395,2.29572341502167,0,2.29651126444668,2.29603257112516,2.29603257112516,2.29877508494638,0,2.29915405049258,2.29979230825461,2.30096909600335,2.37910580796428,0,2.37823817631903,2.37499702362122,2.37516656083926,2.37446846641204,0,2.37655277691617,2.37701152468263,2.37831795853928,2.37799882965826,0,2.37868695130795,2.3789861346339,2.37970417461619,2.38145938346177,0,2.38174859401019,2.38122003680101,2.3822572056643,2.38342402063551,0,2.38355366674343,2.38437143450103,2.38534876669913,2.38571775946781,0,2.38655547278047,2.38850016439915,2.39165156209917,2.39064431156847,0,2.39185101764981,2.39296796873336,2.39461347702609,2.39562072755679,0,2.39651827753465,2.39740585473497,2.32276958768767,2.31780314447687,0,2.31671611172592,2.31345501347305,2.31407332568002
0,2.24412426407261,2.24550050737199,2.2458495545856,2.24728563455017,0,2.24804356564258,2.24910068006094,2.24916051672613,2.25058662391316,0,2.25207256776539,2.25268090719482,2.25458570770338,2.25553312156889,0,2.25857481871606,2.25961198757936,2.26058931977747,2.26590481020187,0,2.26638350352339,2.26938530956043,2.3290723830877,2.33081761915575,0,2.33021925250385,2.33053838138487,2.33119658470196,2.33147582247285,0,2.33046857194214,2.33038878972189,2.32988017806777,2.3294812669665,0,2.33268252855418,2.33154563191557,2.33014944306113,2.33053838138487,0,2.33129631247728,2.33078770082316,2.33160546858076,2.33154563191557,0,2.33194454301684,2.33368977908489,2.33270247410925,2.33368977908489,0,2.33421833629407,2.33476683905831,2.33487653961116,2.33563447070357,0,2.33726003344124,2.33905513339694,2.33591370847446,2.33301163021273,0,2.33336067742634,2.33168525080101,2.33268252855418,2.33399893518837,0,2.28020577318234,2.27707432103738,2.27683497437662,2.27627649883484,0,2.27442156221394,2.27558837718515,2.27564821385034,2.27438167110382,0,2.27565818662788,2.27590750606617,2.27581775106838,2.27617677105953,0,2.27634630827756,2.27636625383263,2.27697459326206,2.27686489270921,0,2.27790206157251,2.27960740653043,2.27813143545574,2.27844059155922,0,2.27806162601302,2.27853034655701,2.27897912154593,2.2794079509798,0,2.27992653541145,2.279786916526,2.28212054646842,2.28119307815797,0,2.28163188036937,2.28295825978109,2.28372616365103,2.28556115471686,0,2.28528191694597,2.28778508410643,2.28891200796752,2.35901066123789,0,2.35874139624454,2.36094538007904,2.36158363784107,2.36101518952177,0,2.36163350172873,2.36175317505911,2.36158363784107,2.36182298450183,0,2.36193268505468,2.36142407340057,2.36336876501925,2.36384745834077,0,2.36275045281228,2.36333884668665,2.3634784655721,2.36387737667337,0,2.36396713167115,2.36291999003032,2.36309950002589,2.36309950002589,0,2.36243132393127,2.36307955447083,2.36409677777906,2.36399705000375,0,2.29118580124475,2.29111599180202,2.29005887738366,2.2894405651767,0,2.289221164071,2.28897184463271,2.28817402243017,2.28809424020992,0,2.28817402243017,2.2894405651767,2.28901173574283,2.28802443076719,0,2.28830366853808,2.28893195352258,2.28902170852037,2.28945053795423,0,2.28886214407986,2.28920121851594,2.28982950350043,2.29039795181974,0,2.29017855071404,2.2906672168131,2.29053757070518,2.29054754348272,0,2.29070710792322,2.29146503901563,2.29231272510583,2.29260193565425,0,2.29303076508811,2.29669077444225,2.29321027508368,2.29436711727736,0,2.29505523892705,2.29523474892262,2.29888478549922,2.29820663662707,0,2.29794734441124,2.2985955749508,2.29964271659163,2.30616491309737,0,2.37646302191838,2.37403963697818,2.37305233200254,2.37346121588134,0,2.37456819418736,2.37557544471806,2.37610400192724,2.37665250469148,0,2.37804869354592,2.37843763186966,2.37916564462947,2.37887643408106,0,2.37979392961397,2.38025267738043,2.38275584454089,2.38232701510703,0,2.38311486453203,2.38340407508045,2.3839226595121,2.38489999171021,0,2.3863759627849,2.38772228775168,2.39168148043177,2.39121275988778,0,2.39056452934822,2.40082651742834,2.39374584538083,2.39420459314729,0,2.39492263312957,2.39507222479255,2.32125372550285,2.31872064000979,0,2.31490106621515,2.3141630806778,2.31367441457875
0,2.24395472685458,2.24513151460332,2.24532099737642,2.24618862902168,0,2.24716596121979,2.24860204118435,2.24926024450144,2.25103539890209,0,2.2509456439043,2.25244156053406,2.25440619770781,2.25535361157332,0,2.25637083488155,2.25928288592081,2.26060926533253,2.26395014580565,0,2.26440889357211,2.26885675235125,2.32924192030574,2.32868344476397,0,2.32920202919562,2.32955107640923,2.33143593136272,2.33140601303012,0,2.33023919805891,2.32930175697093,2.32935162085859,2.32906241031017,0,2.32879314531682,2.32895270975732,2.3291023014203,2.3290723830877,0,2.32961091307442,2.32966077696208,2.33050846305227,2.33186476079658,0,2.33178497857633,2.33209413467981,2.33249304578108,2.33339059575893,0,2.33353021464438,2.33354018742191,2.33480673016844,2.33570428014629,0,2.3368710951175,2.33588379014186,2.33851660341023,2.33416847240641,0,2.33241326356083,2.33202432523709,2.33252296411368,2.33425822740419,0,2.27811148990068,2.2785602648896,2.27683497437662,2.2755085949649,0,2.27578783273579,2.27657568216079,2.27542881274465,2.27580777829085,0,2.27619671661459,2.27622663494718,2.27599726106395,2.27620668939212,0,2.27623660772471,2.27631638994497,2.27669535549117,2.27710423936997,0,2.27757295991396,2.27860015599973,2.27821121767599,2.27834086378391,0,2.27804168045795,2.27846053711429,2.27932816875955,2.27910876765385,0,2.27955754264277,2.28020577318234,2.28066452094879,2.28072435761398,0,2.28190114536273,2.28219035591114,2.28381591864881,2.28470349584914,0,2.28587031082035,2.28816404965264,2.28979958516784,2.35889098790751,0,2.35905055234802,2.35955916400214,2.35983840177302,2.36098527118917,0,2.36091546174645,2.36139415506797,2.36059633286543,2.3601774762091,0,2.36012761232144,2.36112489007461,2.35980848344043,2.3628800989202,0,2.36277039836735,2.36278037114488,2.36257094281671,2.36234156893348,0,2.36267067059203,2.36342860168444,2.36274048003475,2.36221192282557,0,2.36243132393127,2.36271056170216,2.36375770334299,2.36432615166229,0,2.29077691736595,2.28988934016562,2.28911146351815,2.28895189907764,0,2.28833358687068,2.28801445798966,2.28910149074062,2.28800448521213,0,2.28692742523871,2.28751581911308,2.28754573744567,2.28954029295201,0,2.28857293353144,2.28861282464156,2.28911146351815,2.28883222574726,0,2.28920121851594,2.28877238908207,2.29046776126246,2.2908566995862,0,2.29050765237259,2.29051762515012,2.29014863238145,2.29049767959506,0,2.2916744673438,2.29131544735266,2.2910461823593,2.29215316066532,0,2.29234264343842,2.2926817178745,2.29438706283242,2.29403801561881,0,2.29468624615838,2.29507518448211,2.29511507559224,2.29565360557895,0,2.29642150944889,2.30110871488879,2.30296365150969,2.30163727209798,0,2.3730722775576,2.37343129754874,2.37580481860129,2.37332159699589,0,2.37439865696932,2.37427898363894,2.37507680584147,2.38017289516018,0,2.37774951021997,2.37845757742472,2.37715114356807,2.37762983688959,0,2.37753010911427,2.38163889345734,2.38278576287348,2.38080118014467,0,2.38227715121937,2.38099066291778,2.38318467397475,2.38422184283805,0,2.38545846725198,2.38784196108206,2.38844032773396,2.39026534602227,0,2.39004594491657,2.39360622649539,2.3972263447394,2.39626895809635,0,2.39570050977705,2.39726623584952,2.39710667140902,2.31927911555157,0,2.31578864341547,2.31444231844869,2.31357468680343
0,2.24370540741628,2.24549053459446,2.24590939125079,2.24612879235649,0,2.24674710456345,2.24780421898182,2.24895108839796,2.25046695058278,0,2.25036722280746,2.25209251332045,2.25494472769452,2.25453584381572,0,2.25642069876921,2.25845514538568,2.26071896588538,2.26184588974646,0,2.26492747800376,2.26957479233353,2.32627003260129,2.32872333587409,0,2.32894273697979,2.32977047751492,2.33047854471968,2.33017936139372,0,2.3301394702836,2.32852388032346,2.32861363532125,2.32945134863391,0,2.32833439755036,2.32837428866049,2.32794545922662,2.32874328142916,0,2.32909232864277,2.33168525080101,2.33144590414025,2.33029903472411,0,2.32971064084973,2.33084753748835,2.33140601303012,2.33195451579437,0,2.33434798240198,2.33451751962002,2.33541506959787,2.33517572293711,0,2.33558460681591,2.33491643072129,2.33517572293711,2.33383937074786,0,2.3325628552238,2.33229359023045,2.33298171188013,2.33618297346781,0,2.27734358603073,2.27696462048453,2.27761285102409,2.2752891938592,0,2.27542881274465,2.27446145332407,2.27583769662345,2.27565818662788,0,2.27542881274465,2.2759174788437,2.27576788718072,2.27580777829085,0,2.2761368799494,2.27638619938769,2.2763562810551,2.27641611772029,0,2.27681502882155,2.27764276935669,2.27767268768928,2.27874974766271,0,2.27849045544688,2.27817132656587,2.27829099989625,2.27890931210321,0,2.27929825042695,2.2795974337529,2.28013596373961,2.28095373149721,0,2.28131275148835,2.28193106369532,2.28319760644185,2.28460376807382,0,2.2865783780251,2.28776513855137,2.35213941751855,2.35277767528057,0,2.3552708696635,2.35924003512112,2.35973867399771,2.36013758509898,0,2.35972870122018,2.36040685009233,2.35899071568283,2.35921011678853,0,2.35991818399328,2.35790368293187,2.36029714953948,2.36049660509012,0,2.36047665953505,2.36317928224615,2.36098527118917,2.36237148726608,0,2.36113486285215,2.36199252171987,2.36237148726608,2.36226178671323,0,2.36169333839392,2.36273050725722,2.36265072503697,2.29127555624253,0,2.290009013496,2.29004890460613,2.28992923127575,2.28720666300959,0,2.28850312408872,2.28795462132447,2.28768535633112,2.2871468263444,0,2.28733630911751,2.2875557102232,2.2878050296615,2.28815407687511,0,2.28885217130233,2.28819396798523,2.28844328742353,2.28811418576498,0,2.28782497521656,2.2881839952077,2.28884219852479,2.29017855071404,0,2.28825380465042,2.28985942183303,2.28948045628682,2.29011871404885,0,2.29098634569411,2.29084672680867,2.29100629124917,2.29231272510583,0,2.29221299733051,2.29295098286786,2.29224291566311,2.29291109175773,0,2.29356929507482,2.29583311557452,2.29742875997959,2.29699993054573,0,2.29734897775934,2.29565360557895,2.29943328826347,2.30442964980685,0,2.37342132477121,2.36975134263954,2.37141679648734,2.37369058976457,0,2.37393990920286,2.3738900453152,2.37356094365665,2.37420917419622,0,2.37506683306394,2.37618378414749,2.37640318525319,2.37680209635446,0,2.37792902021554,2.37999338516461,2.38037235071081,2.37969420183865,0,2.38006319460733,2.38122003680101,2.38256636176779,2.38158902956968,0,2.38427170672571,2.38921820438144,2.38972681603555,2.39044485601784,0,2.38971684325802,2.39018556380201,2.3908437671191,2.39278845873779,0,2.39242943874665,2.39533151700837,2.39600966588053,2.31832172890852,0,2.31525011342876,2.31437250900597,2.31290651070881
0,2.24306714965425,2.24410431851755,2.24515146015838,2.24583958180807,0,2.24634819346219,2.24760476343118,2.24859206840682,2.24902089784068,0,2.25077610668626,2.25191300332488,2.25274074386001,2.25409704160432,0,2.25655034487712,2.25790664262144,2.26146692420026,2.26129738698222,0,2.26442883912717,2.26994378510221,2.32424555876236,2.32616033204845,0,2.3266190798149,2.32740692923991,2.32792551367156,2.32820475144245,0,2.32790556811649,2.32836431588295,2.32999985139815,2.32720747368927,0,2.3268683992532,2.32741690201744,2.32738698368485,2.32818480588738,0,2.32871336309656,2.32835434310542,2.32807510533453,2.32876322698422,0,2.32830447921776,2.33083756471082,2.33069794582537,2.33112677525924,0,2.33144590414025,2.33144590414025,2.33453746517508,2.33481670294597,0,2.33621289180041,2.33510591349439,2.33311135798805,2.33459730184027,0,2.33478678461337,2.33343048686906,2.33499621294154,2.33412858129628,0,2.27806162601302,2.27787214323991,2.27744331380605,2.27607704328421,0,2.27492020109053,2.27489028275793,2.27493017386806,2.27534903052439,0,2.27529916663673,2.27517949330635,2.27583769662345,2.27606707050668,0,2.27597731550889,2.27633633550003,2.27679508326649,2.27680505604402,0,2.27699453881712,2.27712418492504,2.27757295991396,2.27748320491618,0,2.27795192546017,2.2785901832222,2.28034539206778,2.27901901265606,0,2.28051492928582,2.28050495650829,2.28024566429246,2.28194103647285,0,2.28310785144406,2.28331727977223,2.28309787866653,2.28506251584028,0,2.28715679912194,2.35011494367961,2.35192001641285,2.35101249365746,0,2.35773414571383,2.35744493516541,2.3603669589822,2.35860177735909,0,2.35783387348915,2.35800341070719,2.35801338348472,2.3593896267841,0,2.35962897344486,2.36231165060089,2.35809316570497,2.35850204958377,0,2.35958908233473,2.36128445451512,2.35982842899549,2.35956913677967,0,2.35989823843821,2.3597685923303,2.36167339283886,2.36183295727937,0,2.36219197727051,2.36069606064075,2.36139415506797,2.29448679060774,0,2.29026830571183,2.2885928790865,2.28783494799409,2.28734628189504,0,2.28682769746339,2.2867379424656,2.28682769746339,2.28718671745453,0,2.2869573435713,2.2865783780251,2.28705707134662,2.28697728912636,0,2.28703712579156,2.28794464854694,2.28786486632669,2.28764546522099,0,2.28863277019663,2.28752579189061,2.28897184463271,2.28916132740581,0,2.28875244352701,2.29021844182417,2.28987936738809,2.28942061962163,0,2.29070710792322,2.29006885016119,2.29058743459284,2.29198362344728,0,2.29184400456184,2.29118580124475,2.29212324233273,2.29266177231944,0,2.29332994841406,2.29345959452198,2.29429730783464,2.29533447669794,0,2.29645142778149,2.29763818830776,2.29902440438467,2.30238523041285,0,2.37623364803515,2.37014028096328,2.37236421035285,2.37321189644304,0,2.37234426479779,2.37302241366994,2.37303238644747,2.37490726862344,0,2.37413936475349,2.37462803085255,2.37507680584147,2.37554552638546,0,2.37655277691617,2.37755005466934,2.37758994577946,2.37856727797757,0,2.37913572629688,2.3808410712548,2.38023273182537,2.38361350340862,0,2.38362347618615,2.38580751446559,2.38715383943237,2.38871956550485,0,2.38889907550042,2.39078393045391,2.39076398489885,2.39148202488113,0,2.39205047320044,2.39344666205488,2.39488274201945,2.31794276336232,0,2.31606788118636,2.31474150177464,2.31359463235849
0,2.24368546186122,2.24460295739414,2.24475254905711,2.24561020792484,0,2.24653767623529,2.24772443676156,2.24869179618214,2.2487416600698,0,2.25044700502772,2.25159387444386,2.25241164220146,2.25324935551413,0,2.25570265878693,2.25713873875149,2.25907345759265,2.2611976592069,0,2.26469810412053,2.26766999182498,2.32350757322501,2.3260506314956,0,2.325232863738,2.32628000537883,2.32742687479497,2.32789559533896,0,2.32699804536111,2.32748671146016,2.32620022315857,2.32636976037661,0,2.3272473647994,2.32613041371585,2.32696812702851,2.32798535033675,0,2.32824464255257,2.32903249197758,2.33149576802791,2.32846404365827,0,2.32864355365384,2.32908235586524,2.32918208364055,2.33034889861176,0,2.33105696581651,2.33143593136272,2.3319944069045,2.33222378078772,0,2.3323733724507,2.33391915296811,2.332153971345,2.33453746517508,0,2.33429811851432,2.33328089520609,2.33429811851432,2.33342051409153,0,2.27928827764942,2.27754304158137,2.27422210666331,2.27525927552661,0,2.27503987442091,2.27422210666331,2.27674521937883,2.27510968386363,0,2.27548864940984,2.2751296294187,2.27515954775129,2.27540886718958,0,2.2759174788437,2.27542881274465,2.27626652605731,2.27652581827313,0,2.27690478381934,2.27699453881712,2.27836080933897,2.27713415770257,0,2.27844059155922,2.27809154434561,2.27905890376619,2.27932816875955,0,2.28033541929025,2.28033541929025,2.28004620874183,2.28137258815354,0,2.28149226148393,2.28302806922381,2.28502262473015,2.28524202583585,0,2.2884033963134,2.34984567868625,2.35090279310461,2.35136154087107,0,2.35869153235688,2.35732526183503,2.35724547961478,2.35730531627997,0,2.35673686796066,2.35678673184832,2.35781392793409,2.35682662295845,0,2.35866161402428,2.35823278459042,2.35931981734138,2.35990821121575,0,2.35875136902207,2.35958908233473,2.35915028012334,2.35879126013219,0,2.35864166846922,2.35937965400657,2.36019742176417,2.36237148726608,0,2.35282753916823,2.35094268421474,2.35073325588657,2.2896001296172,0,2.28877238908207,2.2882139135403,2.28750584633555,2.28683767024092,0,2.28660829635769,2.28656840524756,2.28687756135105,2.28677783357573,0,2.2869872619039,2.28656840524756,2.28664818746782,2.28772524744124,0,2.287176744677,2.287176744677,2.28850312408872,2.287176744677,0,2.2873662274501,2.28767538355358,2.28763549244346,2.28785489354915,0,2.28853304242131,2.28825380465042,2.29014863238145,2.29006885016119,0,2.28986939461056,2.29046776126246,2.2902583329343,2.29089659069633,0,2.29134536568525,2.29127555624253,2.29196367789222,2.29221299733051,0,2.29323022063875,2.29413774339413,2.29471616449097,2.29448679060774,0,2.29589295223971,2.29771797052801,2.2982166094046,2.30276419595906,0,2.368165671012,2.3677867054658,2.37097799427594,2.37057908317467,0,2.37074862039271,2.37153646981772,2.3716561431481,2.37272323034399,0,2.37314208700032,2.37336148810602,2.37418922864115,2.37630345747787,0,2.37539593472249,2.37666247746902,2.37680209635446,2.37699157912756,0,2.3796144196184,2.3781683668763,2.38111033624816,2.38145938346177,0,2.38037235071081,2.38205775011367,2.38663525500072,2.38526898447888,0,2.38763253275389,2.38847024606656,2.39030523713239,2.39117286877765,0,2.39179118098462,2.39149199765867,2.39184104487228,2.31785300836453,0,2.31370433291134,2.31321566681229,2.311709777405
0,2.2431768502071,2.24445336573116,2.24419407351534,2.24570993570016,0,2.24609887402389,2.2475150084334,2.24812334786283,2.24929016283404,0,2.25021763114449,2.25076613390873,2.25349867495242,2.25379785827837,0,2.25540347546098,2.25701906542111,2.25942250480626,2.26325205137843,0,2.26549592632307,2.26911604456708,2.3241956948747,2.32452479653325,0,2.32488381652439,2.3258312303899,2.32691826314086,2.32637973315414,0,2.32610049538326,2.32577139372471,2.32598082205288,2.32603068594053,0,2.32489378930192,2.3264295970418,2.32494365318958,2.3262101959361,0,2.32882306364941,2.32862360809878,2.32598082205288,2.3270279636937,0,2.32790556811649,2.32805515977947,2.32906241031017,2.32905243753264,0,2.32975053195986,2.33088742859848,2.33053838138487,2.33113674803677,0,2.33184481524152,2.3325628552238,2.33286203854975,2.33395904407824,0,2.33538515126528,2.33650210234883,2.33435795517951,2.27732364047567,0,2.27946778764499,2.27668538271364,2.27466090887471,2.2751296294187,0,2.27538892163452,2.2744714261016,2.27452128998926,2.27517949330635,0,2.27495011942312,2.2750997110861,2.275698077738,2.27603715217408,0,2.27546870385477,2.27624658050225,2.27623660772471,2.27648592716301,0,2.27671530104624,2.2771740488127,2.27694467492947,2.27701448437219,0,2.27743334102852,2.27817132656587,2.2787796659953,2.27881955710543,0,2.27987667152379,2.27977694374847,2.28068446650386,2.28079416705671,0,2.28251945756969,2.28388572809154,2.2849428425099,2.28631908580927,0,2.34902791092865,2.34880850982295,2.35059363700113,2.3526280836176,0,2.35094268421474,2.35498165911508,2.35576950854009,2.3569363235113,0,2.35624820186161,2.35689643240117,2.3569064051787,2.35885109679739,0,2.35782390071162,2.35786379182175,2.35740504405529,2.35856188624897,0,2.35855191347143,2.35722553405972,2.35871147791194,2.35725545239231,0,2.3581330568151,2.35890096068504,2.35968881011005,2.35465255745654,0,2.36398707722621,2.34958638647043,2.34983570590872,2.289221164071,0,2.28801445798966,2.28767538355358,2.28767538355358,2.28675788802067,0,2.28664818746782,2.28571074637984,2.28643875913965,2.28614954859123,0,2.28550131805167,2.28649859580484,2.28709696245675,2.28682769746339,0,2.28693739801624,2.28677783357573,2.28678780635326,2.28687756135105,0,2.28691745246117,2.28733630911751,2.28682769746339,2.2875557102232,0,2.28844328742353,2.28885217130233,2.28905162685296,2.28902170852037,0,2.28891200796752,2.28950040184189,2.28990928572069,2.29137528401785,0,2.29171435845393,2.29220302455298,2.2916445490112,2.2920833512226,0,2.29171435845393,2.29299087397798,2.29364907729508,2.29486575615395,0,2.30072974934259,2.2967705566625,2.29854571106315,2.30464905091255,0,2.36688915548794,2.36872414655378,2.36998071652277,2.36836512656263,0,2.37078851150284,2.3703995731791,2.3710278581636,2.37236421035285,0,2.37273320312152,2.37320192366551,2.37645304914085,2.37458813974242,0,2.37379031753988,2.37579484582376,2.37691179690731,2.37973409294878,0,2.37628351192281,2.37696166079497,2.38081115292221,2.3806515884817,0,2.38014297682758,2.38811122607542,2.38646571778269,2.38523906614628,0,2.38597705168363,2.38712392109978,2.38836054551371,2.39040496490771,0,2.39158175265645,2.390654284346,2.39152191599126,2.39132246044063,0,2.3139436795721,2.31301621126165,2.31210868850627
0,0,0,0,0,0,0,0,0,0,0,0,0,0,0,0,0,0,0,0,0,0,0,0,0,0,0,0,0,0,0,0,0,0,0,0,0,0,0,0,0,0,0,0,0,0,0,0,0,0,0,0,0,0,0,0,0,0,0,0,0,0,0,0,0,0,0,0,0,0,0,0,0,0,0,0,0,0,0,0,0,0,0,0,0,0,0,0,0,0,0,0,0,0,0,0,0,0,0,0,0,0,0,0,0,0,0,0,0,0,0,0,0,0,0,0,0,0,0,0,0,0,0,0,0,0,0,0,0,0,0,0,0,0,0,0,0,0,0,0,0,0,0,0,0,0,0,0,0,0,0,0,0,0,0,0,0,0,0,0,0,0,0,0,0,0,0,0,0,0,0,0,0,0,0,0,0,0,0,0,0,0,0,0,0,0,0,0,0,0,0,0,0,0,0,0,0,0,0,0,0,0,0,0,0,0,0,0,0,0,0,0,0,0,0,0,0,0,0,0,0,0,0,0,0,0,0,0,0,0,0,0,0,0
0,2.24286769410362,2.24466279405933,2.24423396462546,2.2454406707068,0,2.24573985403275,2.24706623344447,2.24855217729669,2.249120625616,0,2.25000820281632,2.25067637891095,2.25169360221918,2.25366821217046,0,2.25534363879579,2.25756756818536,2.25924299481068,2.26106801309899,0,2.26467815856547,2.32358735544527,2.32317847156647,2.32391645710381,0,2.32473422486141,2.32512316318515,2.32499351707724,2.32524283651553,0,2.32531264595825,2.32483395263673,2.3252029454054,2.32481400708167,0,2.32446495986806,2.32463449708609,2.32461455153103,2.32450485097818,0,2.32490376207945,2.32487384374686,2.32557193817408,2.32610049538326,0,2.32608054982819,2.32741690201744,2.32791554089403,2.32915216530796,0,2.32956104918676,2.33016938861619,2.33086748304341,2.33125642136715,0,2.33172514191114,2.33257282800133,2.33296176632507,2.3333806229814,0,2.33439784628964,2.33143593136272,2.33399893518837,2.27874974766271,0,2.27601720661902,2.27742336825099,2.27515954775129,2.27434177999369,0,2.27563824107281,2.2750997110861,2.2738730594497,2.27458112665445,0,2.27486036442534,2.27503987442091,2.27486036442534,2.27579780551332,0,2.27619671661459,2.27619671661459,2.27615682550446,2.27641611772029,0,2.27701448437219,2.27678511048896,2.27690478381934,2.27720396714529,0,2.27804168045795,2.27894920321334,2.27848048266935,2.27939797820227,0,2.27953759708771,2.28077422150164,2.28090386760955,2.28194103647285,0,2.28280866811811,2.28397548308932,2.28524202583585,2.28659832358016,0,2.34556735712515,2.350553745891,2.34961630480302,2.35167069697455,0,2.35232890029165,2.35533070632869,2.35655735796509,2.35556008021192,0,2.35965889177745,2.3553007879961,2.35594901853566,2.35822281181289,0,2.35705599684168,2.35785381904421,2.35675681351573,2.35740504405529,0,2.35677675907079,2.35698618739896,2.35629806574927,2.35700613295402,0,2.35679670462585,2.355899154648,2.354642584679,2.35362536137077,0,2.35216933585114,2.35057369144607,2.28951037461942,2.28854301519884,0,2.28794464854694,2.28667810580041,2.28734628189504,2.28653848691497,0,2.28589025637541,2.28597003859566,2.28612960303617,2.28615952136877,0,2.28620938525642,2.28624927636655,2.28631908580927,2.28638889525199,0,2.2863589769194,2.2863290585868,2.28659832358016,2.28662824191276,0,2.28589025637541,2.28815407687511,2.28688753412858,2.28756568300074,0,2.28746595522542,2.29307065619824,2.29056748903778,2.29001898627354,0,2.28998906794094,2.28950040184189,2.2894405651767,2.28982950350043,0,2.29092650902892,2.29098634569411,2.29109604624696,2.29153484845836,0,2.29207337844507,2.2928712006476,2.29385850562324,2.29544417725078,0,2.29503529337198,2.29794734441124,2.29942331548594,2.30487842479578,0,2.37063891983986,2.36960175097657,2.36878398321897,2.36812577990187,0,2.36900338432466,2.36987101596992,2.37043946428923,2.37106774927373,0,2.37250382923829,2.37254372034842,2.37331162421836,2.37250382923829,0,2.37363075309938,2.37418922864115,2.3775700002244,2.37665250469148,0,2.37558541749559,2.37564525416078,2.37963436517346,2.37801877521333,0,2.37937507295764,2.38101060847284,2.38281568120608,2.38354369396589,0,2.38443127116622,2.38608675223648,2.38715383943237,2.39018556380201,0,2.39023542768967,2.39034512824252,2.39160169821151,2.31852118445916,0,2.3156091334199,2.31340514958539,2.31158013129709
0,2.2432067685397,2.24363559797356,2.24449325684129,2.24552045292705,0,2.2460689556913,2.24673713178592,2.2472956073277,2.24869179618214,0,2.24979877448816,2.25123485445272,2.25268090719482,2.25294019941065,0,2.25505442824737,2.25575252267459,2.25940255925119,2.26247417473096,0,2.26367090803476,2.32189198326487,2.32317847156647,2.32362724655539,0,2.32325825378672,2.32509324485255,2.32526278207059,2.3252029454054,0,2.32569161150446,2.3241657765421,2.3235674098902,2.32347765489242,0,2.323976293769,2.32576142094718,2.32408599432185,2.32391645710381,0,2.3241956948747,2.32446495986806,2.32512316318515,2.32512316318515,0,2.32557193817408,2.32684845369813,2.32771608534339,2.32886295475954,0,2.3288829003146,2.32986023251271,2.33009957917347,2.33043865360955,0,2.3321838896776,2.33233348134057,2.33165533246842,2.33426820018172,0,2.33442776462223,2.33539512404281,2.27905890376619,2.27520941163895,0,2.27575791440319,2.27532908496933,2.27498003775572,2.27439164388135,0,2.27381322278451,2.27445148054654,2.27391295055983,2.2744714261016,0,2.2752891938592,2.27516952052882,2.2755385132975,2.27543878552218,0,2.27556843163009,2.27570805051553,2.27630641716744,2.27703442992725,0,2.2767352466013,2.27652581827313,2.27648592716301,2.27715410325763,0,2.27779236101966,2.27794195268264,2.27846053711429,2.2788095843279,0,2.2798168348586,2.28015590929468,2.28149226148393,2.28169171703456,0,2.28338708921495,2.28395553753426,2.28577058304503,2.34918747536916,0,2.34777134095966,2.34726272930554,2.35091276588215,2.3517803975274,0,2.35370514359102,2.35367522525843,2.35405419080463,2.35548029799167,0,2.35451293857109,2.35439326524071,2.35436334690812,2.35441321079577,0,2.35583931798281,2.35585926353787,2.35700613295402,2.35669697685054,0,2.35616841964136,2.35559997132205,2.35632798408186,2.35609861019863,0,2.35863169569169,2.35569969909737,2.35418383691255,2.35405419080463,0,2.35364530692583,2.35434340135305,2.2894106468441,2.28806432187732,0,2.28775516577384,2.28667810580041,2.28608971192604,2.28580050137762,0,2.28701718023649,2.28692742523871,2.28607973914851,2.28495281528743,0,2.28559107304946,2.28634900414187,2.28583041971022,2.285920174708,0,2.28699723468143,2.28642878636212,2.28621935803395,2.28574066471243,0,2.28608971192604,2.2865484596925,2.28677783357573,2.2865783780251,0,2.28775516577384,2.28725652689725,2.28773522021877,2.2881839952077,0,2.28850312408872,2.28874247074948,2.28946051073176,2.29013865960392,0,2.2898195307229,2.29034808793208,2.29139522957291,2.29125561068747,0,2.29219305177545,2.29244237121374,2.29293103731279,2.29411779783907,0,2.29419758005932,2.29666085610965,2.29765813386282,2.36646032605408,0,2.36969150597435,2.36688915548794,2.3681955893446,2.36798616101643,0,2.3681955893446,2.3685745548908,2.3698012065272,2.3700206076329,0,2.37256366590348,2.37153646981772,2.37188551703133,2.3720650270269,0,2.37193538091899,2.37218470035728,2.37392993642533,2.37362078032184,0,2.37513664250666,2.37522639750445,2.37541588027755,2.37788912910542,0,2.37943490962283,2.38985646214347,2.38096074458518,2.38219736899911,0,2.38532882114407,2.38655547278047,2.38613661612414,2.38834059995865,0,2.38987640769853,2.38895891216561,2.39000605380644,2.3184713205715,0,2.31709507727212,2.31305610237178,2.31512046732084
0,2.24278791188337,2.24373532574888,2.24388491741185,2.24529107904382,0,2.24609887402389,2.24694656011409,2.24795381064479,2.24872171451473,0,2.24938989060936,2.2505367600255,2.25175343888437,2.25290030830052,0,2.25461562603597,2.25645061710181,2.25727835763694,2.26027019089645,0,2.26677244184712,2.32246043158418,2.32214130270317,2.32255018658197,0,2.32361727377786,2.32269977824494,2.32341781822723,2.32464446986363,0,2.32331809045191,2.32247040436171,2.32239062214146,2.3227496421326,0,2.3227795604652,2.32323830823166,2.32312860767881,2.3227795604652,0,2.32198173826266,2.32723739202187,2.32365716488799,2.32525280929306,0,2.32530267318072,2.32566169317186,2.32660910703737,2.3276562486782,0,2.32852388032346,2.32875325420669,2.32918208364055,2.33031898027917,0,2.33045859916461,2.33107691137158,2.3297305864048,2.33018933417126,0,2.33028906194657,2.33299168465767,2.27756298713643,2.27744331380605,0,2.27511965664116,2.27460107220951,2.2765158454956,2.27600723384149,0,2.27422210666331,2.27461104498705,2.27470079998483,2.2747207455399,0,2.27476063665002,2.27441158943641,2.274910228313,2.27551856774243,0,2.27548864940984,2.27560832274022,2.27587758773357,2.27660560049339,0,2.27638619938769,2.2765158454956,2.27696462048453,2.27712418492504,0,2.27726380381048,2.2775829326915,2.27827105434118,2.27916860431904,0,2.27946778764499,2.28021574595987,2.2812628876007,2.28225019257634,0,2.28435444863553,2.28515227083806,2.28686758857352,2.34878856426789,0,2.34749210318877,2.34738240263592,2.34917750259163,2.35090279310461,0,2.3530369674964,2.35367522525843,2.35273778417045,2.35343587859767,0,2.35371511636856,2.35291729416602,2.35324639582457,2.35432345579799,0,2.35389462636413,2.35536062466129,2.3548919041173,2.35529081521857,0,2.35439326524071,2.35534067910622,2.35479217634198,2.35542046132648,0,2.35547032521414,2.35471239412173,2.35416389135748,2.35143135031379,0,2.35200977141063,2.35337604193248,2.28954029295201,2.28810421298745,0,2.28649859580484,2.28562099138205,2.28546142694154,2.28524202583585,0,2.28524202583585,2.28534175361116,2.28540159027635,2.28531183527857,0,2.28571074637984,2.28463368640641,2.28487303306717,2.28503259750768,0,2.28585036526528,2.2851024069504,2.28540159027635,2.28566088249218,0,2.2863589769194,2.28685761579598,2.28665816024535,2.28686758857352,0,2.28741609133776,2.28737620022763,2.28729641800738,2.28748590078048,0,2.28797456687954,2.28921119129347,2.28964002072733,2.29017855071404,0,2.28996912238588,2.28995914960835,2.29138525679538,2.29030819682196,0,2.29140520235044,2.29134536568525,2.29264182676437,2.29623202667579,0,2.29533447669794,2.29538434058559,2.29784761663593,2.30030091990873,0,2.36982115208226,2.36454555276799,2.3679462699063,2.36657999938446,0,2.36760719547022,2.36811580712434,2.36936240431581,2.36968153319682,0,2.369422240981,2.37006049874302,2.37086829372309,2.3741094464209,0,2.37197527202911,2.37097799427594,2.37183565314367,2.37204508147183,0,2.37315205977785,2.37490726862344,2.37424906530634,2.37468786751774,0,2.38009311293992,2.37774951021997,2.38101060847284,2.38325448341747,0,2.38241677010481,2.38703416610199,2.38626626223205,2.38744304998079,0,2.38776217886181,2.38816108996307,2.38893896661055,2.3890486671634,0,2.31241784460975,2.31265719127051,2.31150034907684
0,2.24285772132609,2.24331646909255,2.24365554352862,2.2452511879337,0,2.24552045292705,2.24653767623529,2.2475150084334,2.24867185062707,0,2.2495594278274,2.25043703225019,2.2519828127676,2.25268090719482,0,2.25411698715939,2.25590211433756,2.25911334870277,2.26098823087873,0,2.26428922024173,2.32158282716139,2.32123377994778,2.32223105770095,0,2.3223407582538,2.32261002324716,2.32254021380444,2.3229690432383,0,2.32332806322944,2.32177230993449,2.32136342605569,2.32168255493671,0,2.32243051325159,2.32198173826266,2.32190195604241,2.32231083992121,0,2.32260005046963,2.32504338096489,2.32383667488356,2.32435525931521,0,2.32465444264116,2.32475417041648,2.32614038649338,2.32685842647567,0,2.32801526866934,2.3284740164358,2.32861363532125,2.32977047751492,0,2.32896268253486,2.3301394702836,2.33246312744849,2.32890284586967,0,2.32940148474625,2.33226367189785,2.27778238824213,2.27702445714972,0,2.27517949330635,2.27501992886585,2.27502990164338,2.2745013444342,0,2.27367360389907,2.27361376723388,2.27385311389464,2.27454123554432,0,2.27375338611932,2.27476063665002,2.27482047331521,2.27516952052882,0,2.27496009220066,2.27567813218294,2.27599726106395,2.27618674383706,0,2.27609698883927,2.27636625383263,2.27700451159466,2.27688483826428,0,2.27761285102409,2.27826108156365,2.27852037377948,2.27916860431904,0,2.27944784208993,2.28020577318234,2.28111329593772,2.28210060091336,0,2.28392561920166,2.28547139971908,2.28713685356687,2.34887831926568,0,2.34841957149922,2.34837968038909,2.34924731203435,2.35185020697013,0,2.35223914529386,2.35222917251633,2.35156099642171,2.35234884584671,0,2.35231892751412,2.35196988030051,2.35280759361317,2.35249843750969,0,2.35263805639513,2.35422372802267,2.35390459914166,2.35353560637298,0,2.35361538859324,2.35420378246761,2.35422372802267,2.35343587859767,0,2.35134159531601,2.35617839241889,2.35065347366632,2.34933706703214,0,2.35138148642614,2.35124186754069,2.28774519299631,2.28598998415073,0,2.28664818746782,2.28605979359345,2.28556115471686,2.28493286973236,0,2.28538164472129,2.28519216194819,2.28490295139977,2.28509243417287,0,2.28563096415958,2.28497276084249,2.28515227083806,2.2853517263887,0,2.2857306919349,2.28599995692826,2.2855412091618,2.28545145416401,0,2.28552126360674,2.28833358687068,2.28639886802953,2.28757565577827,0,2.28660829635769,2.28649859580484,2.28708698967921,2.28751581911308,0,2.2878050296615,2.28880230741467,2.28817402243017,2.28911146351815,0,2.28910149074062,2.29032814237702,2.29053757070518,2.29055751626025,0,2.29118580124475,2.29163457623367,2.29241245288115,2.29266177231944,0,2.29480591948876,2.29474608282357,2.29681044777263,2.29762821553023,0,2.36056641453284,2.36296985391798,2.36691907382054,2.3656824494066,0,2.36666975438224,2.36657999938446,2.36731798492181,2.36812577990187,0,2.36940229542593,2.36890365654935,2.36989096152499,2.37037962762404,0,2.37018017207341,2.3706189742848,2.37176584370095,2.37130709593449,0,2.37278306700918,2.37365069865444,2.37280301256424,2.37454824863229,0,2.38012303127252,2.37769964633231,2.37773953744244,2.38110036347063,0,2.38112030902569,2.38335421119279,2.38357361229849,2.38727351276275,0,2.38685465610642,2.38753280497858,2.38744304998079,2.38739318609313,0,2.38889907550042,2.31218847072652,2.30979500411891
0,2.24283777577102,2.24341619686786,2.24390486296692,2.24512154182579,0,2.24575979958782,2.24663740401061,2.24720585232991,2.24824302119321,0,2.24935997227676,2.25039714114006,2.25173349332931,2.25237175109134,0,2.25442614326287,2.2558821687825,2.25714871152903,2.25829558094517,0,2.26254398417368,2.32101437884208,2.32134348050063,2.32162271827152,0,2.32221111214589,2.32257013213703,2.32261999602469,2.32175236437943,0,2.32198173826266,2.32090467828924,2.32106424272974,2.32105426995221,0,2.32183214659968,2.32101437884208,2.32096451495443,2.32137339883323,0,2.32168255493671,2.32211138437057,2.32280947879779,2.32374691988577,0,2.32354746433514,2.32485389819179,2.32518299985034,2.32578136650224,0,2.32738698368485,2.32785570422884,2.32774600367599,2.32833439755036,0,2.32831445199529,2.32959096751935,2.32652932481712,2.32653929759465,0,2.32656921592725,2.32535253706838,2.27659562771586,2.27718402159023,0,2.27474069109496,2.27533905774686,2.27363371278894,2.27539889441205,0,2.27459109943198,2.27356390334622,2.27422210666331,2.27384314111711,0,2.27449137165667,2.27413235166552,2.27475066387249,2.27481050053768,0,2.27539889441205,2.27659562771586,2.27568810496047,2.27606707050668,0,2.27624658050225,2.27665546438105,2.27666543715858,2.27669535549117,0,2.27656570938326,2.27964729764056,2.27823116323106,2.27926833209435,0,2.27973705263835,2.28098364982981,2.28204076424817,2.28265907645513,0,2.28362643587571,2.28663821469029,2.34318386329507,2.34560724823528,0,2.3491675298141,2.34878856426789,2.34934703980967,2.35204966252076,0,2.35192998919038,2.35250841028722,2.35172056086221,2.35109227587772,0,2.35201974418816,2.35107233032265,2.35176045197234,2.35232890029165,0,2.35161086030937,2.35239870973437,2.35225909084893,2.35529081521857,0,2.35311674971665,2.35306688582899,2.35327631415716,2.35305691305146,0,2.35275772972551,2.35019472589986,2.34945674036252,2.34983570590872,0,2.35042409978309,2.28823385909536,2.28658835080263,2.2869872619039,0,2.28577058304503,2.28538164472129,2.28516224361559,2.28747592800295,0,2.28517221639313,2.28567085526971,2.28559107304946,2.28597003859566,0,2.2861395758137,2.28548137249661,2.28418491141749,2.28451401307603,0,2.28417493863995,2.28443423085578,2.28481319640198,2.28552126360674,0,2.28582044693269,2.28589025637541,2.28557112749439,2.28622933081149,0,2.28600992970579,2.28667810580041,2.28672796968807,2.28694737079377,0,2.28694737079377,2.28741609133776,2.28772524744124,2.28806432187732,0,2.28901173574283,2.28942061962163,2.29030819682196,2.29067718959063,0,2.29034808793208,2.29090656347386,2.29250220787893,2.29262188120931,0,2.29254209898906,2.29501534781692,2.29682042055016,2.29839611940017,0,2.3618429300569,2.36468517165343,2.36394718611609,2.36377764889805,0,2.36519378330755,2.3659317688449,2.36675950938003,2.36718833881389,0,2.36779667824333,2.36824545323225,2.3679761882389,2.36944218653606,0,2.36849477267055,2.37081842983543,2.37306230478007,2.37043946428923,0,2.37140682370981,2.37161625203797,2.37286284922943,2.37311216866773,0,2.37532612527977,2.37796891132567,2.37846755020225,2.37997343960954,0,2.38037235071081,2.38131976457632,2.38633607167477,2.38501966504059,0,2.3887993477251,2.38701422054693,2.38764250553143,2.38769236941909,0,2.31450215511388,2.31474150177464,2.30983489522904
0,2.24319679576217,2.24344611520046,2.24398464518717,2.24497195016281,0,2.24573985403275,2.24661745845554,2.2476745728739,2.24869179618214,0,2.24886133340018,2.25004809392645,2.25171354777424,2.25267093441729,0,2.25477519047648,2.25623121599611,2.25758751374042,2.26140708753507,0,2.317055186162,2.31848129334903,2.32035617552499,2.32110413383987,0,2.32104429717468,2.3221213571481,2.32145318105348,2.32113405217247,0,2.32119388883766,2.32026642052721,2.32109416106234,2.31989742775853,0,2.3195084894348,2.31984756387087,2.3204858216329,2.32080495051392,0,2.32103432439715,2.32197176548513,2.32297901601583,2.32275961491013,0,2.32265988713482,2.32385662043862,2.32399623932407,2.32467438819622,0,2.32613041371585,2.32651935203959,2.32704790924877,2.32774600367599,0,2.32803521422441,2.32877319976175,2.33169522357854,2.32458463319844,0,2.32840420699308,2.32609052260572,2.32744682035004,2.2757279960706,0,2.27434177999369,2.27414232444306,2.27313507391235,2.27418221555318,0,2.27314504668989,2.2734641755709,2.27377333167438,2.27393289611489,0,2.27403262389021,2.2748803099804,2.27446145332407,2.2743118616611,0,2.27549862218737,2.27487033720287,2.27615682550446,2.27576788718072,0,2.27621666216965,2.27626652605731,2.27685491993168,2.27685491993168,0,2.27788211601745,2.27778238824213,2.27833089100637,2.27878963877283,0,2.27997639929911,2.28094375871968,2.28172163536715,2.28393559197919,0,2.28531183527857,2.28664818746782,2.34783117762485,2.34704332819984,0,2.34848938094194,2.34827995261377,2.35097260254734,2.35156099642171,0,2.35160088753183,2.35249843750969,2.34984567868625,2.35128175865082,0,2.35053380033594,2.35050388200335,2.35057369144607,2.35032437200777,0,2.35116208532044,2.35147124142392,2.35313669527172,2.35268792028279,0,2.35204966252076,2.35224911807139,2.35320650471444,2.35183026141506,0,2.35170061530715,2.35072328310904,2.35067341922138,2.35005510701442,0,2.35016480756727,2.28770530188618,2.28730639078491,2.28563096415958,0,2.28546142694154,2.28482316917952,2.28580050137762,2.28420485697255,0,2.28724655411972,2.28483314195705,2.28462371362888,2.28463368640641,0,2.28457384974122,2.28480322362445,2.28509243417287,2.28413504752983,0,2.2842846391928,2.28485308751211,2.28468355029407,2.28460376807382,0,2.28548137249661,2.28553123638427,2.2855112908292,2.2861395758137,0,2.28631908580927,2.28646867747225,2.28655843247003,2.2865783780251,0,2.28692742523871,2.28734628189504,2.28761554688839,2.28765543799852,0,2.28854301519884,2.28918127296087,2.28956023850708,2.28940067406657,0,2.29040792459727,2.29043784292987,2.29124563790994,2.2918938684495,0,2.29298090120045,2.29366902285014,2.29506521170458,2.29823655495966,0,2.3667196182699,2.36390729500596,2.36326903724393,2.3634485472395,0,2.36422642388698,2.36474500831862,2.36658997216199,2.36699885604079,0,2.36680937326769,2.36751744047244,2.36727809381168,2.36867428266612,0,2.36783656935345,2.36822550767719,2.36912305765504,2.36905324821232,0,2.36982115208226,2.3732617603307,2.37122731371423,2.37233429202025,0,2.37435876585919,2.37484743195825,2.37796891132567,2.37796891132567,0,2.37953463739815,2.38052194237379,2.38241677010481,2.3843315433909,0,2.38498974670799,2.38622637112192,2.38603688834882,2.38693443832668,0,2.31341512236292,2.31107151964297,2.31409327123508
0,2.24282780299349,2.24321674131723,2.24374529852641,2.24505173238306,0,2.24562018070237,2.24633822068465,2.24702634233434,2.24813332064036,0,2.24864193229448,2.24997828448373,2.25183322110463,2.2528005805252,0,2.25404717771666,2.25598189655782,2.25795650650909,2.26067907477525,0,2.31669616617085,2.31763360725884,2.31999715553385,2.32021655663955,0,2.32077503218132,2.32244048602912,2.32075508662626,2.32047584885537,0,2.32008691053164,2.3194785711022,2.32054565829809,2.3202963388598,0,2.31908963277846,2.31919933333131,2.31918936055378,2.31956832609999,0,2.32034620274746,2.32128364383544,2.32112407939493,2.32185209215475,0,2.32183214659968,2.32458463319844,2.32554201984148,2.32490376207945,0,2.32579133927977,2.32687837203073,2.32679858981047,2.32673875314528,0,2.32771608534339,2.32867347198644,2.32749668423769,2.32682850814307,0,2.32432534098261,2.32848398921333,2.27627649883484,2.27486036442534,0,2.27439164388135,2.27617677105953,2.27354395779115,2.27377333167438,0,2.27304531891457,2.27312510113482,2.27364368556647,2.27392292333736,0,2.27401267833514,2.27407251500033,2.27439164388135,2.27440161665888,0,2.27493017386806,2.27519943886142,2.27669535549117,2.27598728828642,0,2.27581775106838,2.27630641716744,2.27679508326649,2.27685491993168,0,2.2771740488127,2.27821121767599,2.27902898543359,2.2788095843279,0,2.27987667152379,2.28151220703899,2.28280866811811,2.28310785144406,0,2.28594012026307,2.34636517932769,2.34713308319763,2.34722283819541,0,2.34730262041567,2.34784115040238,2.3483497620565,2.34795085095523,0,2.35060360977866,2.34982573313119,2.34989554257391,2.3499553792391,0,2.34915755703656,2.34990551535144,2.34900796537359,2.34949663147264,0,2.34996535201663,2.34961630480302,2.35197985307804,2.35127178587329,0,2.35124186754069,2.35187015252519,2.35063352811126,2.35070333755398,0,2.35144132309133,2.35070333755398,2.35038420867296,2.34986562424132,0,2.34948665869511,2.28761554688839,2.28648862302731,2.28568082804724,0,2.28546142694154,2.28385580975894,2.28370621809596,2.28408518364217,0,2.28362643587571,2.28353668087793,2.2847234414042,2.28482316917952,0,2.28375608198362,2.28443423085578,2.28318763366432,2.28457384974122,0,2.283875755314,2.28394556475673,2.28365635420831,2.28429461197034,0,2.28490295139977,2.28552126360674,2.28593014748554,2.28542153583142,0,2.28577058304503,2.28581047415516,2.28823385909536,2.28723658134219,0,2.28625924914408,2.28706704412415,2.28741609133776,2.28747592800295,0,2.287964594102,2.28915135462828,2.28955026572955,2.2898494490555,0,2.28985942183303,2.29059740737037,2.29088661791879,2.29197365066975,0,2.29213321511026,2.29446684505268,2.29663093777706,2.29797726274384,0,2.3614340461781,2.36391726778349,2.362820262255,2.36275045281228,0,2.36276042558981,2.36384745834077,2.36692904659807,2.3655228849661,0,2.3657422860718,2.36608136050787,2.36672959104743,2.36691907382054,0,2.36666975438224,2.36738779436453,2.36730801214427,2.36826539878732,0,2.36866430988859,2.37028987262625,2.37009041707562,2.37133701426708,0,2.37319195088798,2.37418922864115,2.37560536305065,2.37843763186966,0,2.37912575351935,2.37960444684087,2.38178848512031,2.38322456508488,0,2.3851493111485,2.38584740557572,2.3851493111485,2.38676490110864,0,2.3867549283311,2.31434259067337,2.3108920096474
0,2.24284774854856,2.24304720409919,2.24379516241407,2.2446528212818,0,2.24505173238306,2.24595925513845,2.24708617899953,2.24783413731441,0,2.2487117417372,2.25001817559385,2.25140439167076,2.2526110977521,0,2.25399731382901,2.25603176044547,2.258554873161,2.26046964644708,0,2.3170252678294,2.32100440606455,2.31896995944808,2.3199173733136,0,2.32079497773639,2.32023650219461,2.31954838054492,2.31886025889524,0,2.31918936055378,2.31905971444587,2.31860096667941,2.31904974166834,0,2.3192591699965,2.31848129334903,2.3188802044503,2.31931900666169,0,2.31930903388416,2.31957829887752,2.32028636608227,2.32140331716582,0,2.32119388883766,2.32289923379558,2.32480403430413,2.32303885268102,0,2.3229690432383,2.32522289096047,2.32569161150446,2.32631989648895,0,2.32677864425541,2.32760638479054,2.32719750091174,2.32785570422884,0,2.32350757322501,2.32516305429528,2.2763562810551,2.27562826829528,0,2.27358384890128,2.27325474724273,2.27300542780444,2.27306526446963,0,2.27289572725159,2.27343425723831,2.27342428446077,2.27400270555761,0,2.27366363112153,2.27360379445634,2.2745013444342,2.27467088165224,0,2.274910228313,2.27521938441648,2.27568810496047,2.275698077738,0,2.27608701606174,2.27608701606174,2.27716407603516,2.27693470215193,0,2.2773635315858,2.27919852265163,2.2785602648896,2.28008609985195,0,2.28021574595987,2.28170168981209,2.28279869534058,2.28447412196591,0,2.28669805135548,2.34799074206535,2.34745221207864,2.34623553321977,0,2.34678403598402,2.34919744814669,2.34805057873055,2.34888829204321,0,2.34952654980524,2.34858910871726,2.34877859149036,2.34870878204764,0,2.3475319942989,2.34927723036695,2.3489481287084,2.3489481287084,0,2.3491675298141,2.34915755703656,2.34951657702771,2.34971603257834,0,2.35052382755841,2.35119200365303,2.35138148642614,2.350553745891,0,2.35051385478088,2.35020469867739,2.35225909084893,2.35078311977423,0,2.28681772468586,2.28629914025421,2.28674791524314,2.28570077360231,0,2.2851024069504,2.28658835080263,2.28364638143077,2.28338708921495,0,2.28334719810482,2.28376605476115,2.28413504752983,2.28400540142192,0,2.28490295139977,2.28362643587571,2.28341700754755,2.28416496586242,0,2.28398545586685,2.28352670810039,2.28395553753426,2.28475335973679,0,2.2843145575254,2.28543150860895,2.28511237972794,2.28503259750768,0,2.2846935230716,2.28574066471243,2.2904478157074,2.28597003859566,0,2.28651854135991,2.28679777913079,2.28702715301402,2.2873662274501,0,2.28850312408872,2.28884219852479,2.29024836015676,2.28923113684853,0,2.29029822404442,2.2908267812536,2.29073702625582,2.2914550662381,0,2.29196367789222,2.29326013897134,2.29510510281471,2.29701987610079,0,2.3640469138914,2.36183295727937,2.36191273949962,2.36205235838506,0,2.3630396633607,2.36314936391355,2.36443585221514,2.3677867054658,0,2.3647051172085,2.3659317688449,2.36636059827876,2.36600157828762,0,2.36567247662907,2.36662986327212,2.36622097939332,2.36743765825219,0,2.36825542600979,2.3700206076329,2.37393990920286,2.37059902872974,0,2.371466660375,2.37295260422722,2.37536601638989,2.37618378414749,0,2.3785772507551,2.37859719631017,2.38054188792885,2.38271595343076,0,2.3820677228912,2.38394260506716,2.38500969226306,2.38540860336432,0,2.31509054898825,2.30882764469834,2.30995456855942
0,2.24220949078653,2.24295744910141,2.24357576130837,2.24487222238749,0,2.24518137849098,2.24614873791155,2.2479238923122,2.24817321175049,0,2.24857212285176,2.24987855670841,2.25110520834481,2.25257120664197,0,2.25400728660654,2.25587219600497,2.2587144376015,2.26067907477525,0,2.31726461449016,2.31775328058922,2.31781311725441,2.3190696872234,0,2.3188802044503,2.31941873443701,2.32150304494114,2.32057557663069,0,2.31956832609999,2.31795273613985,2.31798265447245,2.31899987778068,0,2.31759371614871,2.31819208280061,2.31805246391517,2.31822200113321,0,2.31943867999207,2.32056560385316,2.31883034056264,2.31992734609113,0,2.32103432439715,2.32069524996107,2.32225100325602,2.32833439755036,0,2.32254021380444,2.32489378930192,2.32535253706838,2.32575144816965,0,2.32632986926648,2.32648943370699,2.32609052260572,2.32813494199972,0,2.32815488755479,2.27760287824656,2.27523932997154,2.2751296294187,0,2.27361376723388,2.27300542780444,2.27315501946742,2.27354395779115,0,2.27336444779558,2.27333452946299,2.27330461113039,2.27377333167438,0,2.27326472002027,2.2736835766766,2.27495011942312,2.27396281444749,0,2.27449137165667,2.27536897607946,2.27574794162566,2.27626652605731,0,2.27567813218294,2.27664549160352,2.27712418492504,2.27726380381048,0,2.27732364047567,2.27751312324877,2.27869988377505,2.27976697097094,0,2.2806046842836,2.28238981146178,2.28360649032065,2.28560104582699,0,2.28808426743238,2.34800071484289,2.34558730268021,2.34585656767357,0,2.34684387264921,2.34723281097295,2.34763172207421,2.34779128651472,0,2.34705330097737,2.34614577822199,2.34736245708086,2.34765166762928,0,2.34764169485175,2.34798076928782,2.34814033372833,2.3483198437239,0,2.34843951705428,2.34859908149479,2.34874867315777,2.34944676758498,0,2.34996535201663,2.34964622313562,2.3497359781334,2.34923733925682,0,2.35006507979195,2.35270786583785,2.35048393644828,2.35171058808468,0,2.28745598244789,2.28571074637984,2.285132325283,2.28503259750768,0,2.28376605476115,2.28423477530515,2.28321755199691,2.28357657198805,0,2.2834967897678,2.28385580975894,2.28367629976337,2.2834668714352,0,2.28342698032508,2.28344692588014,2.2833073069947,2.28423477530515,0,2.28343695310261,2.2834967897678,2.28372616365103,2.28539161749882,0,2.28529188972351,2.28423477530515,2.28406523808711,2.28448409474344,0,2.28441428530072,2.28598998415073,2.2851024069504,2.28636894969693,0,2.2863290585868,2.28703712579156,2.28663821469029,2.28750584633555,0,2.28800448521213,2.28884219852479,2.28825380465042,2.28948045628682,0,2.29005887738366,2.29014863238145,2.29175424956405,2.29152487568082,0,2.2928712006476,2.29340973063432,2.29445687227515,2.2961721900106,0,2.36018744898663,2.36064619675309,2.3605863600879,2.36086559785879,0,2.36314936391355,2.36287012614266,2.36293993558539,2.36327901002146,0,2.36378762167558,2.36528353830534,2.36494446386926,2.36505416442211,0,2.36618108828319,2.36513394664236,2.36461536221071,2.36700882881832,0,2.36662986327212,2.36843493600536,2.3686044732234,2.37308225033513,0,2.37044943706676,2.37346121588134,2.37360083476678,2.37644307636332,0,2.37985376627916,2.37729076245351,2.38352374841083,2.38094079903012,0,2.38481023671242,2.38399246895482,2.38387279562444,2.38488004615514,0,2.38382293173678,2.31201893350848,2.30886753580846
0,0,0,0,0,0,0,0,0,0,0,0,0,0,0,0,0,0,0,0,0,0,0,0,0,0,0,0,0,0,0,0,0,0,0,0,0,0,0,0,0,0,0,0,0,0,0,0,0,0,0,0,0,0,0,0,0,0,0,0,0,0,0,0,0,0,0,0,0,0,0,0,0,0,0,0,0,0,0,0,0,0,0,0,0,0,0,0,0,0,0,0,0,0,0,0,0,0,0,0,0,0,0,0,0,0,0,0,0,0,0,0,0,0,0,0,0,0,0,0,0,0,0,0,0,0,0,0,0,0,0,0,0,0,0,0,0,0,0,0,0,0,0,0,0,0,0,0,0,0,0,0,0,0,0,0,0,0,0,0,0,0,0,0,0,0,0,0,0,0,0,0,0,0,0,0,0,0,0,0,0,0,0,0,0,0,0,0,0,0,0,0,0,0,0,0,0,0,0,0,0,0,0,0,0,0,0,0,0,0,0,0,0,0,0,0,0,0,0,0,0,0,0,0,0,0,0,0,0,0,0,0,0,0
0,2.24239897355963,2.24275799355077,2.24330649631501,2.24420404629287,0,2.24497195016281,2.24633822068465,2.2471061245546,2.24809342953024,0,2.24879152395745,2.24978880171063,2.25126477278532,2.25254128830938,0,2.25396739549641,2.25705895653124,2.25803628872935,2.26083863921576,0,2.31505065787812,2.31775328058922,2.31789289947466,2.31858102112435,0,2.31898990500315,2.31889017722783,2.31861093945694,2.31961818998765,0,2.31769344392403,2.31879044945251,2.31759371614871,2.31726461449016,0,2.3168357850563,2.31645681951009,2.31774330781168,2.31703524060693,0,2.31773333503415,2.31835164724112,2.31870069445473,2.31973786331803,0,2.32042598496771,2.32112407939493,2.32061546774082,2.32018663830695,0,2.3237568926633,2.32421564042976,2.32447493264559,2.32521291818293,0,2.3258013120573,2.32522289096047,2.32631989648895,2.32629995093389,0,2.32591101261015,2.27763279657915,2.27606707050668,2.27504984719844,0,2.27335447501805,2.27253670726045,2.27293561836172,2.27293561836172,0,2.27274613558862,2.27298548224938,2.27336444779558,2.27303534613704,0,2.27336444779558,2.27335447501805,2.27420216110825,2.27392292333736,0,2.27455120832186,2.27502990164338,2.27482047331521,2.27611693439433,0,2.27603715217408,2.27631638994497,2.27648592716301,2.27685491993168,0,2.27745328658358,2.27834086378391,2.2783707821165,2.27974702541588,0,2.28131275148835,2.28168174425703,2.28360649032065,2.34516844602388,0,2.34296446218937,2.34516844602388,2.34541776546217,2.34543771101724,0,2.34494904491818,2.34566708490047,2.34700343708972,2.34572692156566,0,2.34563716656787,2.34579673100838,2.34699346431218,2.34652474376819,0,2.34727270208307,2.34684387264921,2.34701340986725,2.34802066039795,0,2.34766164040681,2.34720289264035,2.34767161318434,2.34861902704985,0,2.34914758425903,2.34892818315334,2.35004513423689,2.34855919038466,0,2.34860905427232,2.34783117762485,2.35151113253405,2.28833358687068,0,2.28704709856909,2.28683767024092,2.28478327806939,2.28438436696812,0,2.28413504752983,2.28375608198362,2.28363640865324,2.28378600031622,0,2.28323749755197,2.28429461197034,2.28333722532729,2.28314774255419,0,2.2833073069947,2.28269896756526,2.2833073069947,2.2833073069947,0,2.28331727977223,2.2834967897678,2.28334719810482,2.28319760644185,0,2.2845339586311,2.28418491141749,2.28423477530515,2.28451401307603,0,2.28517221639313,2.28549134527414,2.28540159027635,2.28564093693712,0,2.28637892247446,2.28602987526085,2.28648862302731,2.28683767024092,0,2.28759560133333,2.2878050296615,2.28812415854251,2.29004890460613,0,2.28904165407543,2.29062732570297,2.29094645458399,2.29129550179759,0,2.29279141842735,2.29392831506597,2.29603257112516,2.30014135546822,0,2.36091546174645,2.36147393728822,2.36023731287429,2.36107502618696,0,2.36217203171544,2.36232162337842,2.36262080670437,2.36360811168001,0,2.36446577054774,2.36391726778349,2.36359813890248,2.36402696833634,0,2.3636380300126,2.36468517165343,2.3659018505123,2.36607138773034,0,2.36650021716421,2.3677867054658,2.36833520823004,2.37056911039714,0,2.37041951873417,2.37286284922943,2.37443854807944,2.37515658806173,0,2.37783926521776,2.3780088024358,2.37903599852156,2.38140951957411,0,2.38287551787127,2.38323453786241,2.38320461952982,2.38559808613743,0,2.31231811683444,2.3090669913591,2.3088475902534
0,2.24237902800457,2.24286769410362,2.24367548908369,2.24450322961882,0,2.24510159627072,2.24609887402389,2.24728563455017,2.24800367453245,0,2.24879152395745,2.25003812114892,2.25096558945937,2.25237175109134,0,2.25370810328059,2.25670990931763,2.25788669706637,2.2617960258588,0,2.315010766768,2.31555926953224,2.31720477782497,2.31881039500758,0,2.3186907216772,2.31948854387973,2.32108418828481,2.32160277271646,0,2.31688564894396,2.31760368892624,2.3168357850563,2.31666624783826,0,2.31695545838668,2.31667622061579,2.31647676506516,2.31655654728541,0,2.31722472338004,2.31792281780726,2.31820205557814,2.31932897943923,0,2.32008691053164,2.32057557663069,2.3204858216329,2.32114402495,0,2.32309868934621,2.32421564042976,2.32443504153546,2.32448490542312,0,2.32481400708167,2.32544229206616,2.32534256429085,2.3264595153744,0,2.32745679312757,2.32811499644466,2.27427197055097,2.27459109943198,0,2.2732746927978,2.27309518280223,2.27288575447406,2.27275610836615,0,2.27310515557976,2.27311512835729,2.27303534613704,2.27340433890571,0,2.27357387612375,2.27335447501805,2.27438167110382,2.27448139887913,0,2.27442156221394,2.27463099054211,2.27496009220066,2.27567813218294,0,2.27621666216965,2.27680505604402,2.27667540993611,2.27665546438105,0,2.27728374936554,2.27794195268264,2.27907884932125,2.27968718875069,0,2.28045509262063,2.28333722532729,2.28410512919723,2.34192729332608,0,2.34270516997355,2.34434070548875,2.34476953492261,2.34571694878813,0,2.34433073271122,2.34568703045553,2.34529809213179,2.34592637711629,0,2.34552746601502,2.34555738434762,2.3458665404511,2.34559727545774,0,2.34612583266693,2.34575683989825,2.34633526099509,2.34603607766914,0,2.34623553321977,2.34898801981853,2.34724278375048,2.34749210318877,0,2.34764169485175,2.34780125929225,2.34739237541345,2.34920742092422,0,2.34722283819541,2.34964622313562,2.34713308319763,2.28727647245232,0,2.28646867747225,2.28542153583142,2.28421482975008,2.28459379529629,0,2.28328736143963,2.28429461197034,2.28316768810925,2.28317766088678,0,2.28303804200134,2.28345689865767,2.2832773886621,2.28350676254533,0,2.28260921256748,2.28322752477444,2.28299815089121,2.28325744310704,0,2.28314774255419,2.28301809644628,2.28348681699027,2.28343695310261,0,2.28347684421274,2.28370621809596,2.28385580975894,2.28392561920166,0,2.28419488419502,2.28509243417287,2.28498273362002,2.28509243417287,0,2.28591020193047,2.28668807857795,2.28706704412415,2.28692742523871,0,2.28721663578713,2.28730639078491,2.28855298797637,2.28857293353144,0,2.28879233463714,2.29451670894034,2.29171435845393,2.29047773403999,0,2.29130547457513,2.29676058388497,2.29373883229286,2.29692014832548,0,2.36060630564297,2.36096532563411,2.35869153235688,2.36141410062303,0,2.36135426395784,2.36174320228158,2.36183295727937,2.36399705000375,0,2.36308952724836,2.36291999003032,2.36299977225058,2.36422642388698,0,2.36441590666008,2.36420647833191,2.36354827501482,2.36437601554995,0,2.36518381053002,2.3677867054658,2.3677567871332,2.36905324821232,0,2.36994082541264,2.37001063485537,2.37098796705347,2.37396982753545,0,2.37463800363008,2.37876673352821,2.37926537240479,2.38032248682315,0,2.38014297682758,2.38386282284691,2.38267606232064,2.38211758677886,0,2.31275691904583,2.29346956729951,2.29325016619381
0,2.24169090635488,2.2423890007821,2.24325663242736,2.24433369240078,0,2.24565009903497,2.24642797568244,2.24665734956567,2.24778427342675,0,2.24861201396188,2.24989850226347,2.25085588890652,2.25223213220589,0,2.25456576214831,2.25634091654896,2.2585249548284,2.26125749587209,0,2.31492101177021,2.31594820785598,2.31644684673256,2.31801257280504,0,2.31808238224776,2.31489109343762,2.31516035843097,2.31544956897939,0,2.31593823507845,2.31668619339332,2.31605790840883,2.31565899730756,0,2.31500079399046,2.31563905175249,2.3155792150873,2.31599807174364,0,2.31672608450345,2.3176236344813,2.31776325336675,2.31815219169048,0,2.32016669275189,2.32020658386202,2.32075508662626,2.3215529088288,0,2.32286931546298,2.32257013213703,2.32395634821394,2.32433531376014,0,2.32452479653325,2.32466441541869,2.32473422486141,2.32672878036775,0,2.32651935203959,2.27595736995383,2.27449137165667,2.2743118616611,0,2.27311512835729,2.27266635336836,2.27251676170539,2.2726763261459,0,2.27262646225824,2.27285583614147,2.27315501946742,2.2732447744652,0,2.27343425723831,2.27375338611932,2.27419218833072,2.27432183443863,0,2.27427197055097,2.27500995608832,2.27612690717187,2.27540886718958,0,2.27552854051996,2.2763263627225,2.2765457638282,2.27670532826871,0,2.27730369492061,2.27803170768042,2.27871982933011,2.27990658985638,0,2.28098364982981,2.28321755199691,2.28552126360674,2.34279492497134,0,2.34212674887671,2.34350299217609,2.34483934436534,2.34563716656787,0,2.3446698071473,2.34424097771343,2.34364261106153,2.34474958936755,0,2.3454576565723,2.34460997048211,2.34458005214951,2.34505874547103,0,2.34554741157009,2.34508866380363,2.34554741157009,2.3452681737992,0,2.34600615933654,2.34727270208307,2.34774142262706,2.34665438987611,0,2.34670425376376,2.34669428098623,2.34730262041567,2.34693362764699,0,2.34862899982738,2.34610588711186,2.34559727545774,2.28720666300959,0,2.28578055582256,2.28562099138205,2.28401537419945,2.28326741588457,0,2.28351673532286,2.28347684421274,2.28263913090007,2.28260921256748,0,2.2828685047833,2.2840951564197,2.28258926701241,2.28285853200577,0,2.28291836867096,2.28274883145292,2.28320757921938,2.28287847756083,0,2.283087905889,2.28337711643742,2.28335717088236,2.2834967897678,0,2.28386578253647,2.28344692588014,2.28374610920609,2.28383586420388,0,2.28404529253204,2.28547139971908,2.28457384974122,2.28496278806496,0,2.28465363196148,2.2859500930406,2.2863589769194,2.28763549244346,0,2.28785489354915,2.28810421298745,2.28748590078048,2.2886227974191,0,2.29056748903778,2.28842334186846,2.29039795181974,2.29112596457956,0,2.29058743459284,2.29109604624696,2.29507518448211,2.29593284334984,0,2.36097529841164,2.36179306616924,2.36101518952177,2.35952924566954,0,2.36159361061861,2.3605863600879,2.36112489007461,2.36186287561196,0,2.36117475396227,2.36227175949076,2.3628501805876,2.36307955447083,0,2.36393721333856,2.36236151448855,2.36304963613823,2.36234156893348,0,2.36389732222843,2.36642043494395,2.36589187773477,2.36600157828762,0,2.36764708658035,2.36882387432909,2.37304235922501,2.37353102532406,0,2.37485740473578,2.37660264080383,2.37944488240036,2.38008314016239,0,2.38020281349277,2.38113028180322,2.3818483217855,2.38259628010038,0,2.38325448341747,2.30990470467176,2.30132811599449
0,2.24184049801785,2.24242889189222,2.24360567964097,2.24423396462546,0,2.24531102459889,2.24637811179478,2.24706623344447,2.24730558010523,0,2.2485222589641,2.24964918282518,2.25106531723468,2.2528005805252,0,2.25377791272331,2.25539350268345,2.25858479149359,2.26023029978632,0,2.31452210066894,2.31495093010281,2.31645681951009,2.31679589394617,0,2.31760368892624,2.31551937842211,2.31471158344204,2.31590831674585,0,2.31535981398161,2.31550940564458,2.31549943286705,2.31482128399489,0,2.31578864341547,2.31508057621072,2.31475147455217,2.31500079399046,0,2.31586842563572,2.31613769062908,2.31737431504301,2.31772336225662,0,2.31893006833796,2.31992734609113,2.32105426995221,2.32164266382658,0,2.32165263660411,2.32279950602026,2.32281945157532,2.32352751878008,0,2.32443504153546,2.32450485097818,2.32449487820065,2.32508327207502,0,2.32824464255257,2.32830447921776,2.27523932997154,2.27328466557533,0,2.27329463835286,2.27289572725159,2.27277605392121,2.27213779615918,0,2.27238711559748,2.27268629892343,2.27311512835729,2.27328466557533,0,2.2734940939035,2.27322482891014,2.27371349500919,2.27396281444749,0,2.27421213388578,2.27424205221837,2.27552854051996,2.27577785995826,0,2.27585764217851,2.27575791440319,2.27626652605731,2.27665546438105,0,2.27725383103295,2.27934811431461,2.27917857709657,2.27984675319119,0,2.28177149925481,2.28389570086907,2.34308413551975,2.34187742943842,0,2.34293454385678,2.34242593220266,2.34443046048654,2.34468975270236,0,2.34444043326407,2.34348304662102,2.34379220272451,2.34374233883685,0,2.34381214827957,2.34371242050425,2.34446037881913,2.34427089604603,0,2.34411133160552,2.3438221210571,2.34396173994254,2.34509863658116,0,2.34574686712072,2.34555738434762,2.34664441709857,2.34570697601059,0,2.34579673100838,2.34609591433433,2.34614577822199,2.34464986159223,0,2.34638512488275,2.34616572377705,2.34310408107482,2.28614954859123,0,2.28523205305832,2.28398545586685,2.28411510197476,2.28317766088678,0,2.28406523808711,2.28262915812254,2.2833073069947,2.28238981146178,0,2.28290839589343,2.28260921256748,2.28260921256748,2.28174158092222,0,2.28258926701241,2.28237983868425,2.28302806922381,2.28258926701241,0,2.28260921256748,2.28277874978552,2.2832773886621,2.28351673532286,0,2.28319760644185,2.28363640865324,2.28328736143963,2.28333722532729,0,2.28355662643299,2.28493286973236,2.28553123638427,2.28447412196591,0,2.2845040402985,2.2857606102675,2.28602987526085,2.28621935803395,0,2.28745598244789,2.28722660856466,2.28761554688839,2.28731636356244,0,2.28808426743238,2.28795462132447,2.28943059239916,2.28954029295201,0,2.29127555624253,2.29377872340299,2.29505523892705,2.29600265279256,0,2.36097529841164,2.35687648684611,2.35806324737238,2.35923006234359,0,2.3593896267841,2.36088554341385,2.36051655064518,2.36135426395784,0,2.36196260338728,2.36166342006133,2.36112489007461,2.36155371950848,0,2.3605863600879,2.36214211338285,2.36168336561639,2.36172325672652,0,2.36359813890248,2.36666975438224,2.36449568888033,2.36506413719964,0,2.36635062550123,2.36850474544808,2.37395985475792,2.37192540814145,0,2.37476764973799,2.37527626139211,2.37629348470034,2.37785921077282,0,2.378387767982,2.38141949235164,2.38067153403676,2.38136962846398,0,2.38183834900797,2.30978503134138,2.3096952763436
0,2.24188038912798,2.24182055246279,2.24315690465204,2.24433369240078,0,2.24473260350205,2.24555037125965,2.24683685956124,2.24809342953024,0,2.24827293952581,2.24921038061379,2.25066640613342,2.25226205053849,0,2.25498461880465,2.25558298545655,2.25806620706194,2.26086855754835,0,2.3141929990104,2.31556924230977,2.31556924230977,2.31673605728098,0,2.31709507727212,2.31593823507845,2.31432264511831,2.31440242733856,0,2.31575872508287,2.31420297178793,2.31423289012052,2.31545954175692,0,2.31392373401704,2.31412318956767,2.31432264511831,2.31454204622401,0,2.31514041287591,2.31651665617528,2.3162075000718,2.31740423337561,0,2.31781311725441,2.31889017722783,2.32017666552942,2.32085481440158,0,2.32119388883766,2.3215229904962,2.32203160215032,2.32249034991678,0,2.32371700155318,2.32269977824494,2.32490376207945,2.32651935203959,0,2.32662905259244,2.27460107220951,2.2740625422228,2.27353398501362,0,2.2726464078133,2.27377333167438,2.27282591780887,2.2724270067076,0,2.27255665281551,2.27256662559305,2.27276608114368,2.27279599947628,0,2.27348412112596,2.27313507391235,2.27320488335508,2.27410243333293,0,2.27418221555318,2.27441158943641,2.27467088165224,2.27707432103738,0,2.27603715217408,2.2761069616168,2.27663551882598,2.27677513771143,0,2.2773336132532,2.27846053711429,2.27894920321334,2.28100359538487,0,2.2826790220102,2.2840951564197,2.34006238392765,2.34265530608589,0,2.34202702110139,2.34306418996469,2.34471967103495,2.34418114104824,0,2.34481939881027,2.34313399940741,2.3431938360726,2.34275503386121,0,2.34354288328621,2.34258549664317,2.34267525164095,2.34393182160995,0,2.34381214827957,2.34296446218937,2.34364261106153,2.34416119549318,0,2.34473961659002,2.34518839157895,2.34527814657673,2.34658458043338,0,2.34488920825299,2.34430081437862,2.34428086882356,2.34496899047325,0,2.34860905427232,2.34271514275108,2.28656840524756,2.28570077360231,0,2.28484311473458,2.28457384974122,2.28333722532729,2.28274883145292,0,2.28230005646399,2.28182136314247,2.28195100925038,2.28214049202349,0,2.28230005646399,2.28206070980323,2.28190114536273,2.28215046480102,0,2.28236986590672,2.28216043757855,2.28239978423931,2.28231002924153,0,2.28214049202349,2.28194103647285,2.28351673532286,2.28296823255862,0,2.28342698032508,2.28290839589343,2.28261918534501,2.28301809644628,0,2.28343695310261,2.28360649032065,2.28391564642413,2.28392561920166,0,2.28432453030293,2.28553123638427,2.28534175361116,2.2861395758137,0,2.28668807857795,2.28683767024092,2.28733630911751,2.28688753412858,0,2.28760557411086,2.28770530188618,2.28826377742796,2.28942061962163,0,2.29113593735709,2.29192378678209,2.29757835164257,2.35903060679296,0,2.35776406404643,2.35710586072934,2.35759452682839,2.35829262125561,0,2.35992815677081,2.35932979011891,2.35991818399328,2.36062625119803,0,2.36070603341828,2.36049660509012,2.36134429118031,2.36104510785436,0,2.36009769398885,2.36029714953948,2.36087557063632,2.36268064336956,0,2.36254102448412,2.36342860168444,2.36305960891577,2.36440593388255,0,2.36626087050344,2.36789640601864,2.37006049874302,2.37254372034842,0,2.37248388368323,2.3753061797247,2.37669239580161,2.38367334007381,0,2.38305502786684,2.38067153403676,2.38034243237822,2.38128984624373,0,2.3810604723605,2.30909690969169,2.2985955749508
0,2.2413817502514,2.24231919133938,2.24432371962325,2.24393478129951,0,2.24460295739414,2.24593930958339,2.24634819346219,2.24750503565586,0,2.24835272174606,2.24947964560714,2.25100548056949,2.25257120664197,0,2.2542466332673,2.25605170600054,2.25825568983505,2.31283670126608,0,2.31449218233635,2.31452210066894,2.31506063065565,2.31529000453888,0,2.31573877952781,2.31487114788255,2.31459191011166,2.31533986842654,0,2.31415310790027,2.31308602070438,2.31345501347305,2.31318574847969,0,2.31309599348191,2.3139735979047,2.31414313512274,2.3139436795721,0,2.31462182844426,2.31516035843097,2.31551937842211,2.31634711895725,0,2.31832172890852,2.31793279058479,2.31930903388416,2.319887454981,0,2.32109416106234,2.32144320827595,2.3217124732693,2.3219617927076,0,2.32224103047848,2.32270975102248,2.32285934268545,2.32367711044305,0,2.32682850814307,2.27425202499591,2.2730552916921,2.27280597225381,0,2.27294559113925,2.27355393056869,2.27268629892343,2.2728358905864,0,2.27207795949399,2.27309518280223,2.27333452946299,2.27296553669431,0,2.272865808919,2.27317496502248,2.27369354945413,2.27337442057312,0,2.27384314111711,2.27592745162123,2.27404259666774,2.27521938441648,0,2.27545873107724,2.275698077738,2.27624658050225,2.27720396714529,0,2.27771257879941,2.27889933932568,2.27920849542916,2.28284855922824,0,2.28318763366432,2.33844679396751,2.34013219337037,2.34190734777101,0,2.34190734777101,2.34245585053526,2.34483934436534,2.34468975270236,0,2.34316391774001,2.34340326440077,2.34191732054854,2.34253563275551,0,2.34185748388335,2.34157824611247,2.34190734777101,2.34273508830614,0,2.34248576886785,2.34233617720488,2.34283481608146,2.34308413551975,0,2.34470969825742,2.34483934436534,2.34471967103495,2.34498893602831,0,2.34104968890329,2.34448032437419,2.34367252939413,2.34321378162767,0,2.34250571442292,2.34509863658116,2.287176744677,2.28598998415073,0,2.28374610920609,2.28354665365546,2.28357657198805,2.28260921256748,0,2.28223024702127,2.28163188036937,2.2824895392371,2.28180141758741,0,2.28160196203677,2.28213051924595,2.28284855922824,2.28202081869311,0,2.28176152647728,2.28103351371747,2.28273885867539,2.28171166258962,0,2.28192109091779,2.28234992035165,2.28251945756969,2.28269896756526,0,2.28323749755197,2.28405526530957,2.28259923978995,2.28292834144849,0,2.2842846391928,2.28352670810039,2.28474338695926,2.28435444863553,0,2.28440431252318,2.28541156305389,2.28503259750768,2.28544148138648,0,2.28650856858237,2.28720666300959,2.28794464854694,2.28813413132004,0,2.28728644522985,2.28843331464599,2.28820394076276,2.28950040184189,0,2.29038797904221,2.29391834228843,2.2939083695109,2.29542423169572,0,2.35910041623568,2.35619833797395,2.35706596961921,2.3575047718306,0,2.35826270292301,2.35893087901764,2.35981845621796,2.36049660509012,0,2.36013758509898,2.35940957233916,2.35961900066733,2.35922008956606,0,2.35967883733252,2.35988826566068,2.36030712231701,2.36596168717749,0,2.36125453618253,2.36145399173316,2.3634784655721,2.36415661444425,0,2.36506413719964,2.36660991771705,2.37314208700032,2.36994082541264,0,2.37166611592563,2.37355097087912,2.37689185135224,2.37632340303294,0,2.37817833965383,2.38004324905227,2.38039229626587,2.38101060847284,0,2.38027262293549,2.30901712747144,2.30664360641889
0,2.24165101524475,2.24271810244064,2.24364557075109,2.24433369240078,0,2.24441347462103,2.24556034403718,2.2458495545856,2.24754492676599,0,2.2487117417372,2.2497189922679,2.25125480000779,2.25263104330716,0,2.2546555171461,2.25593203267016,2.2603499731167,2.31161004962968,0,2.3125574634952,2.31409327123508,2.31491103899268,2.31548946008952,0,2.31484122954996,2.31412318956767,2.31417305345533,2.3135347956933,0,2.31284667404362,2.31421294456546,2.31268710960311,2.31208874295121,0,2.31223833461418,2.31247768127494,2.31300623848412,2.31327550347748,0,2.31386389735185,2.31452210066894,2.31502073954553,2.31590831674585,0,2.31779317169934,2.3182818377984,2.31858102112435,2.31956832609999,0,2.31989742775853,2.32058554940822,2.32125372550285,2.32139334438829,0,2.32192190159747,2.32269977824494,2.32301890712596,2.32226097603355,0,2.27552854051996,2.27480052776015,2.27285583614147,2.27301540058197,0,2.27336444779558,2.27266635336836,2.27198820449621,2.27205801393893,0,2.27215774171425,2.27263643503577,2.27231730615475,2.27269627170096,0,2.27306526446963,2.27328466557533,2.2732746927978,2.27367360389907,0,2.27396281444749,2.27422210666331,2.27510968386363,2.27543878552218,0,2.27626652605731,2.27619671661459,2.2767651649339,2.2769247293744,0,2.27765274213422,2.278999067101,2.2806046842836,2.28098364982981,0,2.28361646309818,2.33745948899187,2.33859638563049,2.33958369060612,0,2.34067072335708,2.34167797388778,2.33989284670961,2.3440415221628,0,2.34290462552418,2.34162811000013,2.3417777016631,2.34162811000013,0,2.34120925334379,2.34170789222038,2.34131895389664,2.34168794666532,0,2.34224642220709,2.34187742943842,2.34209683054412,2.34272511552861,0,2.34292457107925,2.34373236605932,2.34340326440077,2.34570697601059,0,2.3438221210571,2.34267525164095,2.34116936223367,2.3418076199957,0,2.3415583005574,2.34174778333051,2.28542153583142,2.28523205305832,0,2.28389570086907,2.28304801477887,2.28369624531843,2.28178147203234,0,2.28226016535387,2.2820806553583,2.28155209814912,2.28237983868425,0,2.28148228870639,2.28243967534944,2.28193106369532,2.28179144480988,0,2.2816717714795,2.28195100925038,2.28237983868425,2.28236986590672,0,2.28210060091336,2.28193106369532,2.28216043757855,2.28249951201463,0,2.28204076424817,2.28284855922824,2.28400540142192,2.28307793311147,0,2.28391564642413,2.28358654476558,2.28454393140863,2.28386578253647,0,2.28415499308489,2.28475335973679,2.28487303306717,2.28541156305389,0,2.28582044693269,2.28640884080706,2.28686758857352,2.28638889525199,0,2.28771527466371,2.2877751113289,2.28771527466371,2.29185397733937,0,2.29377872340299,2.29150493012576,2.29531453114287,2.29654118277927,0,2.35942951789422,2.3546725030116,2.35853196791637,2.35691637795623,0,2.35717567017206,2.35771420015877,2.35971872844264,2.35885109679739,0,2.35953921844707,2.35846215847365,2.35891093346258,2.35964891899992,0,2.35926995345372,2.35919017123346,2.36000793899106,2.35986832010562,0,2.36028717676195,2.3614041278455,2.36229170504582,2.36284020781007,0,2.3659317688449,2.3675373860275,2.36719831159142,2.37027989984872,0,2.37145668759746,2.37428895641647,2.37505686028641,2.37578487304623,0,2.37670236857914,2.37976401128138,2.37968422906112,2.37952466462062,0,2.38071142514689,2.31290651070881,2.30678322530434
0,2.24174077024254,2.24250867411248,2.24284774854856,2.2440245362973,0,2.24456306628401,2.24580966347547,2.24668726789826,2.24754492676599,0,2.2483028578584,2.2493400267217,2.25087583446158,2.25274074386001,0,2.25457573492585,2.25638080765908,2.25971171535467,2.31052301687873,0,2.31316580292463,2.31384395179679,2.31410324401261,2.31495093010281,0,2.31453207344647,2.31352482291577,2.3135347956933,2.31241784460975,0,2.31224830739171,2.31115130186323,2.31165991351734,2.31224830739171,0,2.31187931462304,2.31178955962525,2.31226825294678,2.31251757238507,0,2.31311593903697,2.31395365234963,2.3143824817835,2.31595818063351,0,2.31653660173035,2.31783306280947,2.31770341670156,2.31954838054492,0,2.31923922444144,2.32041601219018,2.32083486884651,2.32105426995221,0,2.32137339883323,2.32194184715253,2.3227795604652,2.32197176548513,0,2.27619671661459,2.27391295055983,2.2738730594497,2.27262646225824,0,2.27210787782659,2.27192836783102,2.27228738782216,2.27203806838387,0,2.27216771449178,2.27253670726045,2.27304531891457,2.2726763261459,0,2.27314504668989,2.2730852100247,2.27319491057754,2.27359382167881,0,2.27418221555318,2.27425202499591,2.27475066387249,2.27503987442091,0,2.27597731550889,2.27611693439433,2.27629644438991,2.2771441304801,0,2.27843061878169,2.27886942099309,2.28030550095765,2.28147231592886,0,2.28486306028964,2.335454960708,2.33836701174726,2.33908505172954,0,2.34048124058398,2.34110952556848,2.34253563275551,2.34219655831943,0,2.34175775610804,2.34128903556405,2.34108958001341,2.33990281948714,0,2.34018205725803,2.34169791944285,2.34047126780645,2.34097987946056,0,2.34147851833715,2.34093001557291,2.34201704832386,2.34170789222038,0,2.34185748388335,2.34212674887671,2.34252565997798,2.34226636776215,0,2.34302429885456,2.33963355449378,2.3401421661479,2.34235612275994,0,2.34335340051311,2.28597003859566,2.28548137249661,2.28485308751211,0,2.28506251584028,2.28314774255419,2.28218038313361,2.28176152647728,0,2.28176152647728,2.28179144480988,2.28201084591557,2.28139253370861,0,2.28173160814469,2.28143242481873,2.28147231592886,2.28090386760955,0,2.28195100925038,2.28137258815354,2.28151220703899,2.28189117258519,0,2.28287847756083,2.28214049202349,2.28172163536715,2.2810135681624,0,2.28246959368203,2.28228011090893,2.28281864089564,2.28361646309818,0,2.28300812366874,2.28339706199248,2.28379597309375,2.28385580975894,0,2.28460376807382,2.2839056736466,2.28447412196591,2.28553123638427,0,2.28521210750325,2.28601990248332,2.28691745246117,2.28791473021435,0,2.28757565577827,2.28909151796309,2.28834355964821,2.28942061962163,0,2.28783494799409,2.29114591013462,2.29161463067861,2.35548029799167,0,2.35370514359102,2.3540741363597,2.35622825630655,2.35631801130433,0,2.3573152890575,2.35814302959263,2.35807322014991,2.35892090624011,0,2.3589807429053,2.35890096068504,2.35839234903093,2.35881120568726,0,2.35956913677967,2.35946940900435,2.35841229458599,2.36217203171544,0,2.36037693175974,2.36139415506797,2.36278037114488,2.36332887390912,0,2.36359813890248,2.36547302107844,2.36933248598321,2.37014028096328,0,2.37200519036171,2.37287282200697,2.37518650639432,2.37595441026426,0,2.37933518184751,2.37913572629688,2.38045213293106,2.37899610741144,0,2.37981387516904,2.30907696413663,2.30674333419421
0,2.24168093357735,2.24244883744729,2.24313695909698,2.24294747632387,0,2.24483233127737,2.24534094293148,2.24650775790269,2.24738536232548,0,2.24872171451473,2.24964918282518,2.25057665113563,2.25236177831381,0,2.25415687826951,2.2562611343287,2.26034000033917,2.30852846137239,0,2.31035347966069,2.31328547625501,2.31411321679014,2.31357468680343,0,2.3131558301471,2.31354476847084,2.31431267234078,2.31227822572431,0,2.31126100241607,2.31101168297778,2.31207877017367,2.31171975018253,0,2.31162999518475,2.31131086630373,2.31150034907684,2.31194912406576,0,2.31239789905469,2.31340514958539,2.31430269956324,2.31525011342876,0,2.31591828952338,2.31698537671927,2.31785300836453,2.31838156557371,0,2.31872064000979,2.31944865276961,2.32106424272974,2.32104429717468,0,2.32129361661297,2.32232081269874,2.32140331716582,2.32410593987691,0,2.27555845885256,2.27407251500033,2.2734641755709,2.27272619003355,0,2.27251676170539,2.27198820449621,2.27155937506234,2.27181866727817,0,2.27232727893229,2.27252673448292,2.27249681615032,2.27314504668989,0,2.27289572725159,2.27307523724716,2.27348412112596,2.27376335889685,0,2.27385311389464,2.27389300500476,2.27433180721616,2.27477060942755,0,2.27562826829528,2.27702445714972,2.27625655327978,2.27722391270035,0,2.27822119045353,2.27951765153265,2.27992653541145,2.28293831422602,0,2.28429461197034,2.3369010134501,2.3364921295713,2.33760908065485,0,2.33987290115454,2.34065077780202,2.34170789222038,2.33859638563049,0,2.34082031502006,2.34051115891657,2.34008232948271,2.34109955279094,0,2.3399526833748,2.33961360893872,2.34029175781088,2.34065077780202,0,2.34233617720488,2.33983301004442,2.34045132225138,2.3413987361169,0,2.34150843666974,2.34162811000013,2.34227634053969,2.34178767444063,0,2.34198712999127,2.34239601387007,2.33974325504663,2.34118930778873,0,2.33970336393651,2.28593014748554,2.28459379529629,2.28372616365103,0,2.28353668087793,2.28221030146621,2.28232000201906,2.28177149925481,0,2.28252943034722,2.28109335038266,2.28131275148835,2.28155209814912,0,2.28191111814026,2.28144239759627,2.28102354093993,2.28143242481873,0,2.28192109091779,2.28170168981209,2.28131275148835,2.28158201648171,0,2.28209062813583,2.28161193481431,2.28084403094436,2.28141247926367,0,2.28198092758298,2.28231002924153,2.28231002924153,2.28292834144849,0,2.28259923978995,2.28307793311147,2.28394556475673,2.28362643587571,0,2.28255934867982,2.28385580975894,2.2851024069504,2.28540159027635,0,2.28552126360674,2.2859500930406,2.28549134527414,2.28633903136434,0,2.28707701690168,2.2877751113289,2.28882225296973,2.28975969405771,0,2.28895189907764,2.29011871404885,2.29355932229729,2.3557096718749,0,2.35417386413501,2.35372508914609,2.35401429969451,2.35577948131762,0,2.3569363235113,2.35697621462142,2.35673686796066,2.3573152890575,0,2.35783387348915,2.35764439071605,2.35811311126004,2.35812308403757,0,2.35759452682839,2.35777403682396,2.35858183180403,2.35829262125561,0,2.35922008956606,2.3593597084515,2.36230167782336,2.36138418229044,0,2.36390729500596,2.36438598832748,2.36644038049901,2.3734811614364,0,2.3704294915117,2.37152649704019,2.37296257700475,2.37413936475349,0,2.37588460082154,2.37671234135667,2.37790907466048,2.37830798576175,0,2.3802127862703,2.31066263576417,2.3078104213901
0,0,0,0,0,0,0,0,0,0,0,0,0,0,0,0,0,0,0,0,0,0,0,0,0,0,0,0,0,0,0,0,0,0,0,0,0,0,0,0,0,0,0,0,0,0,0,0,0,0,0,0,0,0,0,0,0,0,0,0,0,0,0,0,0,0,0,0,0,0,0,0,0,0,0,0,0,0,0,0,0,0,0,0,0,0,0,0,0,0,0,0,0,0,0,0,0,0,0,0,0,0,0,0,0,0,0,0,0,0,0,0,0,0,0,0,0,0,0,0,0,0,0,0,0,0,0,0,0,0,0,0,0,0,0,0,0,0,0,0,0,0,0,0,0,0,0,0,0,0,0,0,0,0,0,0,0,0,0,0,0,0,0,0,0,0,0,0,0,0,0,0,0,0,0,0,0,0,0,0,0,0,0,0,0,0,0,0,0,0,0,0,0,0,0,0,0,0,0,0,0,0,0,0,0,0,0,0,0,0,0,0,0,0,0,0,0,0,0,0,0,0,0,0,0,0,0,0,0,0,0,0,0,0
