0,0,0,0,0,0,0,0,0,0,0,0,0,0,0,0,0,0,0,0,0,0,0,0,0,0,0,0,0,0,0,0,0,0,0,0,0,0,0,0,0,0,0,0,0,0,0,0,0,0,0,0,0,0,0,0,0,0,0,0,0,0,0,0,0,0,0,0,0,0,0,0,0,0,0,0,0,0,0,0,0,0,0,0,0,0,0,0,0,0,0,0,0,0,0,0,0,0,0,0,0,0,0,0,0,0,0,0,0,0,0,0,0,0,0,0,0,0,0,0,0,0,0,0,0,0,0,0,0,0,0,0,0,0,0,0,0,0,0,0,0,0,0,0,0,0,0,0,0,0,0,0,0,0,0,0,0,0,0,0,0,0,0,0,0,0,0,0,0,0,0,0,0,0,0,0,0,0,0,0,0,0,0,0,0,0,0,0,0,0,0,0,0,0,0,0,0,0,0,0,0,0,0,0,0,0,0,0,0,0,0,0,0,0,0,0,0,0,0,0,0,0,0,0,0,0,0,0,0,0,0,0,0,0,0,0,0,0,0,0,0,0,0,0,0,0,0,0,0,0,0,0,0,0,0,0,0,0,0
2.28215007821736,2.28545969476544,0,2.22304551040544,2.22357385280619,2.22104179677242,2.22131095233506,0,2.22273647994463,2.22321497872266,2.22398257051243,2.22456075653589,0,2.22724234343779,2.22628534588172,2.22747162410227,2.22707287512057,0,2.22756134262315,2.2292659945199,2.22990399289062,2.23048217891408,0,2.23099058386574,2.23204726866723,2.23282482918154,2.23302420367239,0,2.23466904322189,2.23435004403653,2.23495813623362,2.23669269430399,0,2.23694191241755,2.23865653303885,2.23869640793702,2.23990262360665,0,2.24063034049824,2.24203593065872,2.24340164592103,2.24562467149399,0,2.2472495735944,2.24961216131095,2.25160590621943,2.25415789970229,0,2.29570754359503,2.29624585472032,2.29743213294087,2.29790066299436,0,2.2996252523402,2.29841903667057,2.29693369671375,2.29642529176209,0,2.29473060858988,2.29397298552465,2.29355429909387,2.29314558138763,0,2.29274683240594,2.29309573776492,2.29350445547116,2.29336489332757,0,2.29394307935103,2.29438170323089,2.2951592637452,2.29606641767856,0,2.29722278972548,2.29904706631674,2.29917665973579,2.30104081122522,0,2.30236665158936,2.30403142858794,2.30523764425757,2.30495851997039,0,2.30748060727961,2.3075703258005,2.30678279656165,2.30429061542604,0,2.269370173354,2.26842314452247,2.26644933706307,2.26627986874585,0,2.26570168272239,2.26581133869236,2.26723686630192,2.26697767946382,0,2.26602068190775,2.26565183909968,2.26619015022497,2.26639949344036,0,2.26674839879935,2.2671371790565,2.26832345727705,2.26742627206823,0,2.26833342600159,2.26906114289318,2.26916083013861,2.26925054865949,0,2.26991845320383,2.27112466887346,2.27244054051306,2.27318819485374,0,2.27421497348161,2.27867099335206,2.32203494511152,2.32270284965587,0,2.32714890080178,2.32631152794022,2.32536449910869,2.32391903405004,0,2.32308166118848,2.32121750969905,2.32059944877742,2.32012094999938,0,2.31817704871361,2.31704061411578,2.31693095814581,2.31585433589523,0,2.31586430461978,2.31605371038608,2.3152362749736,2.31737955075022,0,2.31667177130771,2.31677145855314,2.31723001988209,2.31782814335463,0,2.31894464050338,2.31998138785579,2.32055957387925,2.32130722821993,0,2.32249350644048,2.32373959700828,2.32441747027716,2.32443740772624,0,2.32401872129546,2.32573334191676,2.28318682556977,2.28194073500197,0,2.28121301811038,2.28082423785322,2.28126286173309,2.27972767815356,0,2.27339753806913,2.27218135367496,2.27231094709401,2.27133401208885,0,2.27142373060973,2.27013776514376,2.2788205242202,2.27850152503484,0,2.27801305753226,2.27828221309491,2.27837193161579,2.27748471513152,0,2.27777380814325,2.27778377686779,2.27714577849707,2.27690652910806,0,2.27700621635348,2.27771399579599,2.27702615380257,2.27803299498135,0,2.27715574722162,2.2777638394187,2.27670715461721,2.27701618507802,0,2.27839186906488,2.27835199416671,2.27814265095131,2.27859124355572,0,2.27945852259091,2.27891024274108,2.2785613373821,2.27944855386637,0,2.27896008636379,2.27989714647078,2.28054511356603,2.28203045352285,0,2.28122298683492,2.28163170454116,2.28312701322252,2.28298745107892,0,2.28917802901976,2.28625719272883,2.3440558576257,2.34279979833336,0,2.34333810945864,2.34255058021979,2.34493310538543,2.34760472356279,0,2.34495304283451,2.34534182309167,2.34577047824699,2.34478357451729,0,2.34451441895465,2.34487329303818,2.34463404364916,2.34330820328502,0,2.34272004853702,2.34323842221322,2.34886078285514,2.3483125030053,0,2.34803337871812,2.34925953183683,2.35058537220097,2.35287817884573,0,2.35214049322959,2.35301774098932,2.3529180537439,2.35349623976736,0,2.35300777226478,2.35182149404423,2.35104393352992,2.35131308909257,0,2.29876794202955
2.28325660664157,2.28364538689872,0,2.22056329799438,2.22361372770436,2.22141063958049,2.22184926346035,0,2.22267666759737,2.22391278944063,2.22375328984795,2.22598628414545,0,2.22572709730735,2.22643487674986,2.22721243726417,2.22794015415576,0,2.22887721426275,2.22963483732797,2.23026286697414,2.23113014600933,0,2.23102049003937,2.23231642422988,2.23283479790608,2.23442979383287,0,2.23451951235375,2.23476873046731,2.23539676011348,2.237280849052,0,2.23736059884834,2.23803847211722,2.238457158548,2.23971321784034,0,2.24100915203086,2.2425941792331,2.24397983194449,2.24489695460239,0,2.24763835385155,2.24928319340105,2.25170559346486,2.25423764949863,0,2.29619601109761,2.29638541686392,2.29698354033646,2.29808010003613,0,2.29942587784935,2.29876794202955,2.29934612805301,2.29700347778555,0,2.2950894826734,2.29510942012249,2.29404276659645,2.29311567521401,0,2.2929960505195,2.29279667602865,2.29305586286675,2.29368389251292,0,2.29449135920086,2.29468076496717,2.29539851313422,2.29653494773205,0,2.29769131977897,2.29822963090426,2.29928631570576,2.30101090505159,0,2.30233674541573,2.3032937429718,2.30473920803045,2.30084143673437,0,2.29976481448379,2.3052675504312,2.30053240627356,2.30121027954244,0,2.30131993551241,2.26979882850932,2.26613033787772,2.26606055680592,0,2.26609046297955,2.26679824242206,2.26568174527331,2.26627986874585,0,2.26603065063229,2.26607052553046,2.26597083828504,2.26697767946382,0,2.26768545890633,2.26701755436199,2.2674661469664,2.26847298814518,0,2.26860258156423,2.26883186222871,2.26932032973129,2.26916083013861,0,2.27017764004193,2.27059632647271,2.27234085326764,2.27271966480025,0,2.27484300312778,2.276188780941,2.32257325623681,2.32719874442449,0,2.32592274768306,2.32677008926917,2.32513521844421,2.32532462421052,0,2.32692958886185,2.3215365088844,2.3206891672983,2.32097826031003,0,2.31972220101769,2.31736958202568,2.31683127090039,2.31597396058974,0,2.31586430461978,2.31601383548791,2.31650230299049,2.31621320997876,0,2.3168113334513,2.31749917544473,2.31766864376195,2.31867548494073,0,2.31897454667701,2.32019073107118,2.32117763480088,2.32284241179946,0,2.32324116078116,2.32350034761926,2.32393897149912,2.32361997231377,0,2.32359006614014,2.32447728262441,2.28285785765987,2.28177126668475,0,2.28181114158292,2.28059495718875,2.27972767815356,2.28044542632061,0,2.28189089137926,2.2828179827617,2.28442294741303,2.28225973418733,0,2.28258870209723,2.2801363958598,2.27739499661063,2.2787507431484,0,2.27834202544216,2.27894014891471,2.2785613373821,2.2778336204905,0,2.27753455875423,2.27735512171247,2.27671712334175,2.27740496533518,0,2.27742490278426,2.27705605997619,2.27818252584948,2.27791337028684,0,2.27771399579599,2.27742490278426,2.27803299498135,2.27695637273077,0,2.27788346411321,2.27799312008318,2.2786809620766,2.27948842876454,0,2.27916942957918,2.27967783453085,2.27967783453085,2.27893018019016,0,2.27955820983634,2.27992705264441,2.2804653637697,2.28069464443417,0,2.28079433167959,2.2820404222474,2.28306720087526,2.28433322889215,0,2.28660609808782,2.34466394982279,2.34343779670407,2.342480799148,0,2.34327829711139,2.34334807818319,2.34536176054075,2.34810315978991,0,2.3465480387613,2.34754491121554,2.34602966508509,2.34492313666089,0,2.34478357451729,2.34544151033709,2.34478357451729,2.34818290958625,0,2.34825269065805,2.34931934418409,2.34832247172985,2.34823275320897,0,2.35076480924274,2.35070499689548,2.35065515327277,2.35211058705596,0,2.35162211955338,2.35313736568383,2.35518095421502,2.35365573936003,0,2.35391492619814,2.35398470726993,2.35165202572701,2.29850875519145,0,2.29738228931816
2.28214010949282,2.2213209210596,0,2.22251716800469,2.2220486379512,2.22092217207791,2.22196888815486,0,2.22284613591459,2.22342432193805,2.22469034995494,2.22581681582823,0,2.22590653434911,2.22668409486342,2.2271027812942,2.22766102986857,0,2.22845852783197,2.23040242911774,2.23033264804594,2.23086099044669,0,2.23121986453021,2.232814860457,2.23352263989951,2.23409085719843,0,2.23435004403653,2.23475876174277,2.23824781533261,2.23656310088494,0,2.23767959803369,2.23857678324251,2.23935434375682,2.24048080963011,0,2.24145774463526,2.24268389775398,2.24382033235181,2.24645207563101,0,2.24726951104349,2.25027009713075,2.25245324780554,2.28988580846227,0,2.28954687182783,2.29711313375551,2.29625582344487,2.29686391564195,0,2.29826950580243,2.29820969345518,2.29777106957531,2.29603651150493,0,2.29510942012249,2.29356426781842,2.29386332955469,2.2936539863393,0,2.29315555011218,2.29310570648947,2.29343467439936,2.29409261021916,0,2.29434182833272,2.29516923246974,2.29600660533131,2.29675425967199,0,2.29756172635992,2.29901716014311,2.29972493958562,2.30183830918861,0,2.30254608863112,2.30322396190001,2.30463952078503,2.30358283598353,0,2.29801031896433,2.29812994365884,2.29894737907131,2.30031309433362,0,2.30008381366915,2.26824370748071,2.26894151819868,2.26701755436199,0,2.26558205802788,2.26594093211141,2.2656319016506,2.266080494255,0,2.26587115103961,2.26599077573412,2.26642939961399,2.26670852390118,0,2.26759574038545,2.26754589676274,2.26811411406166,2.26774527125359,0,2.26835336345067,2.2686424564624,2.26941004825217,2.26966923509027,0,2.2712741997416,2.27128416846614,2.27190222938777,2.27362681873361,0,2.27419503603252,2.27637818670731,2.32421809578631,2.32631152794022,0,2.32655077732923,2.3273881501908,2.3269196201373,2.32411840854089,0,2.32264303730861,2.3220050389379,2.32539440528232,2.31976207591586,0,2.31755898779199,2.31726989478026,2.31659202151137,2.3166917087568,0,2.31637270957144,2.31647239681686,2.31697083304398,2.31684123962493,0,2.31748920672019,2.31741942564839,2.31831661085721,2.31884495325796,0,2.31945304545504,2.32060941750196,2.32198510148881,2.32407853364272,0,2.32347044144563,2.32424800195994,2.32411840854089,2.32372962828373,0,2.32509534354604,2.3232511295057,2.28607775568707,2.2836154807251,0,2.28181114158292,2.28061489463783,2.28132267408034,2.28083420657776,0,2.28120304938583,2.28251892102543,2.27673706079084,2.28225973418733,0,2.27977752177627,2.28042548887153,2.27938874151912,2.27863111845389,0,2.27826227564582,2.27839186906488,2.27832208799308,2.27801305753226,0,2.27804296370589,2.27729530936521,2.27857130610664,2.27781368304142,0,2.27749468385606,2.27588971920473,2.27727537191613,2.27799312008318,0,2.27799312008318,2.27755449620331,2.27780371431687,2.27820246329857,0,2.27702615380257,2.27860121228027,2.27887036784291,2.27924917937552,0,2.27950836621362,2.27905977360922,2.27937877279457,2.28119308066129,0,2.27963795963268,2.28029589545248,2.28102361234407,2.28127283045763,0,2.28149214239756,2.28256876464814,2.28374507414415,2.28493135236469,0,2.28894874835528,2.33636000227896,2.34351754650041,2.34285961068061,0,2.34278982960881,2.3464782576895,2.35130312036803,2.34898040754965,0,2.34862153346612,2.3468770066712,2.3478639104009,2.34610941488143,0,2.34506269880448,2.34516238604991,2.34971809316578,2.35004706107568,0,2.34967821826761,2.34757481738917,2.34891062647785,2.34990749893209,0,2.35036606026104,2.35099408990721,2.35439342497617,2.35242958624132,0,2.3532470216538,2.35279842904939,2.35470245543699,2.35452301839522,0,2.35370558298275,2.35434358135346,2.35196105618783,2.29819972473063,0,2.2962159485467
2.22130098361052,2.22066298523981,0,2.22086235973065,2.22284613591459,2.22205860667574,2.22309535402815,0,2.22327479106992,2.22353397790802,2.22411216393148,2.22608597139088,0,2.22600622159454,2.22719249981508,2.2275015302759,2.22782052946125,0,2.22872768339461,2.23021302335143,2.23019308590235,2.23131955177564,0,2.23171830075733,2.23249586127164,2.23317373454053,2.23416063827022,0,2.23448960618012,2.23658303833403,2.23567588440067,2.23729081777654,0,2.23804844084176,2.23813815936264,2.23954374952312,2.24018174789384,0,2.24154746315615,2.24307267801113,2.24427889368076,2.24562467149399,0,2.24803710283325,2.25030997202892,2.25238346673374,2.28732384625487,0,2.28788209482924,2.28978612121684,2.29201911551434,2.2944315468536,0,2.29681407201924,2.29678416584561,2.29672435349836,2.29682404074378,0,2.29497982670344,2.29723275845002,2.2932552373576,2.29330508098031,0,2.2929960505195,2.29316551883672,2.29362408016567,2.29394307935103,0,2.29399292297374,2.29500973287706,2.29579726211591,2.29696360288738,0,2.29777106957531,2.29848881774236,2.30023334453728,2.30142959148237,0,2.30276540057106,2.30326383679818,2.30379217919892,2.29963522106474,0,2.29946575274752,2.29753182018629,2.29947572147206,2.29990437662739,0,2.30033303178271,2.26850289431881,2.26676833624843,2.26610043170409,0,2.26593096338687,2.26565183909968,2.26515340287256,2.26604061935683,0,2.26569171399785,2.26652908685941,2.26599077573412,2.26703749181108,0,2.26743624079277,2.26715711650558,2.26763561528362,2.26793467701989,0,2.26816395768437,2.26860258156423,2.27117451249617,2.26974898488661,0,2.27039695198187,2.2712044186698,2.27257013393211,2.27329785082371,0,2.27538131425307,2.32261313113498,2.32857442841134,2.3269196201373,0,2.32765730575344,2.32701930738273,2.32661058967649,2.32542431145594,0,2.32379940935553,2.32328103567933,2.32163619612983,2.32406856491818,0,2.31853592279714,2.32012094999938,2.31691102069673,2.31715027008575,0,2.31640261574507,2.31697083304398,2.31771848738466,2.31778826845646,0,2.31739948819931,2.31898451540155,2.31931348331145,2.31997141913125,0,2.32064929240013,2.32304178629031,2.32241375664414,2.32327106695478,0,2.32389909660095,2.32457696986984,2.32490593777974,2.32723861932266,0,2.32305175501485,2.32319131715844,2.28366532434781,2.28294757618075,0,2.28345598113242,2.28185101648109,2.28099370617044,2.28075445678143,0,2.28151207984665,2.28169151688841,2.28090398764956,2.2802560205543,0,2.2803258016261,2.27935883534549,2.27978749050081,2.27917939830373,0,2.27925914810006,2.27812271350223,2.27763424599965,2.27847161886121,0,2.27780371431687,2.27806290115498,2.27799312008318,2.27799312008318,0,2.27747474640697,2.27766415217328,2.2768467167608,2.27772396452053,0,2.27775387069416,2.27799312008318,2.27805293243043,2.27848158758576,0,2.2784217752385,2.27863111845389,2.2788205242202,2.27915946085464,0,2.27929902299823,2.28027595800339,2.27929902299823,2.28009652096163,0,2.27979745922535,2.27993702136895,2.28231954653458,2.28174136051112,0,2.28234945270821,2.28167157943933,2.28422357292218,2.2840640733295,0,2.28659612936327,2.34512251115174,2.34359729629675,2.34857168984341,0,2.34679725687486,2.34577047824699,2.34840222152619,2.34966824954307,0,2.34776422315547,2.34846203387344,2.34727575565289,2.34481348069092,0,2.34515241732536,2.34653807003676,2.34869131453792,2.34935921908226,0,2.34811312851446,2.34934925035772,2.34860159601703,2.34931934418409,0,2.35030624791379,2.35059534092552,2.35197102491237,2.35328689655197,0,2.35298783481569,2.35490182992783,2.35491179865238,2.35429373773075,0,2.35428376900621,2.35440339370071,2.35248939858857,2.29629569834303,0,2.29502967032615
0,0,0,0,0,0,0,0,0,0,0,0,0,0,0,0,0,0,0,0,0,0,0,0,0,0,0,0,0,0,0,0,0,0,0,0,0,0,0,0,0,0,0,0,0,0,0,0,0,0,0,0,0,0,0,0,0,0,0,0,0,0,0,0,0,0,0,0,0,0,0,0,0,0,0,0,0,0,0,0,0,0,0,0,0,0,0,0,0,0,0,0,0,0,0,0,0,0,0,0,0,0,0,0,0,0,0,0,0,0,0,0,0,0,0,0,0,0,0,0,0,0,0,0,0,0,0,0,0,0,0,0,0,0,0,0,0,0,0,0,0,0,0,0,0,0,0,0,0,0,0,0,0,0,0,0,0,0,0,0,0,0,0,0,0,0,0,0,0,0,0,0,0,0,0,0,0,0,0,0,0,0,0,0,0,0,0,0,0,0,0,0,0,0,0,0,0,0,0,0,0,0,0,0,0,0,0,0,0,0,0,0,0,0,0,0,0,0,0,0,0,0,0,0,0,0,0,0,0,0,0,0,0,0,0,0,0,0,0,0,0,0,0,0,0,0,0,0,0,0,0,0,0,0,0,0,0,0,0
2.28097376872136,2.2216498889695,0,2.22082248483249,2.22143057702957,2.22127107743689,2.22283616719005,0,2.22350407173439,2.22543800429562,2.22544797302016,2.22561744133738,0,2.2262554397081,2.2271027812942,2.22744171792864,2.22870774594553,0,2.2287476208437,2.23031271059685,2.23083108427306,2.23279492300791,0,2.23181798800276,2.23250582999618,2.23337310903137,2.23436001276107,0,2.23470891812006,2.23439988765924,2.23857678324251,2.2376098169619,0,2.23778925400366,2.23830762767986,2.23894562605058,2.24082971498909,0,2.24196614958693,2.24315242780747,2.24469758011155,2.24582404598484,0,2.24837603946769,2.25081837698058,2.25332052684073,2.28460238445479,0,2.28725406518307,2.28773256396111,2.29028455744396,2.29662466625293,0,2.29685394691741,2.29677419712107,2.29672435349836,2.29719288355185,0,2.29401286042282,2.29377361103381,2.29323529990852,2.29366395506384,0,2.29329511225577,2.29322533118397,2.29381348593198,2.29421223491367,0,2.29426207853638,2.29491004563164,2.29580723084046,2.29657482263022,0,2.29773119467714,2.29786078809619,2.30009378239369,2.30146946638054,0,2.30276540057106,2.30330371169635,2.30322396190001,2.30333361786997,0,2.29842900539511,2.29704335268372,2.29718291482731,2.29927634698121,0,2.30315418082821,2.26942998570125,2.26671849262572,2.26601071318321,0,2.26587115103961,2.26584124486599,2.26564187037514,2.2655621205788,0,2.26569171399785,2.26671849262572,2.26663874282938,2.26691786711657,0,2.26722689757738,2.268193863858,2.26756583421182,2.26795461446898,0,2.26817392640891,2.26886176840234,2.26958948529393,2.27019757749102,0,2.26972904743753,2.27060629519726,2.27198197918411,2.27349722531455,0,2.27549097022304,2.27687662293443,2.32662055840103,2.32679999544279,0,2.32701930738273,2.32667040202374,2.33169463919312,2.32519503079147,0,2.32345050399655,2.3231115673621,2.32374956573282,2.32126735332176,0,2.32448725134896,2.31801754912094,2.31782814335463,2.31772845610921,0,2.31769854993558,2.31784808080371,2.31765867503741,2.31782814335463,0,2.31816707998907,2.31795773677368,2.31883498453341,2.32091844796278,0,2.32027048086752,2.3217458520998,2.32274272455404,2.32335081675112,0,2.32405859619363,2.32469659456435,2.32494581267791,2.32660062095195,0,2.32806602345968,2.28438307251486,2.28301735725255,2.28151207984665,0,2.28145226749939,2.28109339341587,2.28172142306204,2.2793388978964,0,2.28016630203342,2.28062486336237,2.28070461315871,2.28121301811038,0,2.27946849131546,2.27902986743559,2.27991708391986,2.27857130610664,0,2.27814265095131,2.27748471513152,2.27719562211979,2.2774348715088,0,2.27752459002969,2.27807286987952,2.27827224437037,2.27813268222677,0,2.27877068059749,2.27876071187294,2.27844171268759,2.27839186906488,0,2.27805293243043,2.27778377686779,2.27791337028684,2.27802302625681,0,2.27802302625681,2.2782323694722,2.27888033656745,2.27925914810006,0,2.27989714647078,2.28051520739241,2.28024605182976,2.27979745922535,0,2.28104354979315,2.28100367489499,2.281242924284,2.28179120413384,0,2.28223979673824,2.28311704449798,2.28326657536611,2.2850509770592,0,2.28590828736985,2.28752322074572,2.35073490306911,2.34882090795697,0,2.34701656881479,2.35093427755996,2.34850190877161,2.34905018862144,0,2.35196105618783,2.34414557614658,2.34403592017661,2.34417548232021,0,2.34488326176272,2.34824272193351,2.34880097050788,2.34917978204049,0,2.35007696724931,2.34919971948958,2.34903025117236,2.34979784296212,0,2.35116355822443,2.3512732141944,2.35159221337976,2.35264889818125,0,2.35572923406485,2.3541641443117,2.35498157972417,2.35408439451536,0,2.35497161099963,2.35613795177109,2.30062212479444,2.29702341523463,0,2.29467079624262
2.28024605182976,2.22208851284937,0,2.22092217207791,2.22112154656876,2.22167979514313,2.22333460341717,0,2.22359379025527,2.22396263306334,2.2248000059249,2.22517881745752,0,2.22622553353447,2.22704296894695,2.22805977885027,2.22804981012573,0,2.22946536901075,2.23005352375875,2.23070149085401,2.23135942667381,0,2.23165848841008,2.23262545469069,2.23280489173246,2.233991169953,0,2.23519738562263,2.23576560292155,2.2361543831787,2.23693194369301,0,2.23741044247105,2.23826775278169,2.23956368697221,2.24066024667187,0,2.24222533642503,2.24308264673568,2.2450863603687,2.24629257603833,0,2.24939284937102,2.25006075391536,2.28149214239756,2.28272826424082,0,2.28374507414415,2.28807150059555,2.29027458871942,2.29848881774236,0,2.2973922580427,2.29818975600609,2.29681407201924,2.29703338395917,0,2.29598666788222,2.29356426781842,2.29310570648947,2.29313561266309,0,2.29316551883672,2.29347454929753,2.29407267277008,2.29357423654296,0,2.29411254766825,2.29513932629612,2.29549820037964,2.29644522921117,0,2.29761156998263,2.29872806713138,2.30016356346549,2.30114049847064,0,2.30293486888828,2.30466942695866,2.30595539242463,2.30440027139601,0,2.30521770680849,2.29743213294087,2.30635414140632,2.26938014207854,0,2.26905117416864,2.26921067376132,2.26738639717006,2.26614030660226,0,2.26601071318321,2.26544249588429,2.26536274608795,2.26668858645209,0,2.2664792432367,2.26623999384768,2.26597083828504,2.2668082111466,0,2.26695774201474,2.26730664737372,2.26758577166091,2.26842314452247,0,2.26855273794152,2.26913092396498,2.26909104906681,2.26894151819868,0,2.27004804662288,2.27177263596872,2.27273960224933,2.27321810102737,0,2.27556075129483,2.27704609125165,2.32561371722225,2.3263314653893,0,2.32707911972998,2.32921242678206,2.32805605473514,2.32800621111243,0,2.32425797068448,2.32315144226027,2.32323119205661,2.32232403812325,0,2.31965241994589,2.31939323310779,2.31872532856345,2.3176088314147,0,2.31792783060005,2.31861567259348,2.31745930054656,2.31802751784548,0,2.31808733019273,2.31968232611952,2.32059944877742,2.32024057469389,0,2.32202497638698,2.32268291220678,2.32294209904488,2.32516512461784,0,2.32433772048082,2.32713893207724,2.32612212217391,2.32695949503547,0,2.32457696986984,2.31835648575538,2.2838746675632,2.28198060990014,0,2.28070461315871,2.28030586417702,2.27992705264441,2.28059495718875,0,2.27981739667444,2.2801363958598,2.27991708391986,2.27967783453085,0,2.27958811600996,2.27878064932203,2.27887036784291,2.27908967978284,0,2.27840183778942,2.27834202544216,2.27772396452053,2.27974761560264,0,2.27808283860406,2.27819249457403,2.2790797110583,2.27906974233376,0,2.27825230692128,2.27839186906488,2.27817255712494,2.27749468385606,0,2.27796321390955,2.27771399579599,2.27855136865755,2.27881055549566,0,2.27825230692128,2.27877068059749,2.27899996126196,2.27946849131546,0,2.27912955468101,2.28002673988983,2.28010648968617,2.28035570779973,0,2.28043545759607,2.28099370617044,2.28110336214041,2.2820404222474,0,2.28272826424082,2.28377498031777,2.2844628223112,2.28874937386443,0,2.289586746726,2.34087583449667,2.34892059520239,2.34800347254449,0,2.34856172111887,2.34815300341263,2.34912993841778,2.34910003224415,0,2.34230136210623,2.34312876624325,2.34337798435681,2.34421535721838,0,2.3488508141306,2.34957853102219,2.34935921908226,2.3493691878068,0,2.35143271378708,2.35098412118267,2.35024643556653,2.35050562240463,0,2.3512034331226,2.35132305781711,2.35144268251162,2.35379530150363,0,2.35497161099963,2.35462270564065,2.35372552043183,2.35434358135346,0,2.35493173610146,2.35563951554397,2.29808010003613,2.29582716828954,0,2.29416239129096
2.28260863954631,2.22183929473581,0,2.2211315152933,2.22200876305303,2.22275641739371,2.22181935728673,0,2.22426169479961,2.22530841087657,2.22579687837915,2.2257869096546,0,2.22673393848613,2.22720246853962,2.23060180360858,2.22919621344811,0,2.22932580686716,2.23019308590235,2.23099058386574,2.2324858925471,0,2.23200739376906,2.23270520448703,2.23342295265408,2.23452948107829,0,2.23545657246074,2.23502791730541,2.23627400787321,2.23746028609376,0,2.23768956675824,2.23843722109892,2.23990262360665,2.24099918330631,0,2.24169699402428,2.24332189612469,2.24493682950056,2.24551501552402,0,2.24950250534098,2.25143643790221,2.27985727157261,2.28057501973966,0,2.28437310379032,2.28450269720937,2.2964751353848,2.29657482263022,0,2.2983093807006,2.29842900539511,2.29790066299436,2.29604648022947,0,2.29636547941483,2.29534866951151,2.29333498715394,2.29286645710045,0,2.29271692623231,2.29276676985502,2.29387329827923,2.29399292297374,0,2.29479042093713,2.29524898226608,2.29594679298405,2.29616610492398,0,2.29724272717456,2.29921653463396,2.3002134070882,2.30160902852414,0,2.30302458740916,2.30322396190001,2.30205762112855,2.30687251508253,0,2.30527751915574,2.30512798828761,2.30725132661514,2.30674292166348,0,2.26795461446898,2.26741630334369,2.26583127614144,2.26808420788803,0,2.2658213074169,2.26528299629161,2.26562193292605,2.26587115103961,0,2.2661502753268,2.26681817987114,2.26625993129677,2.26674839879935,0,2.26763561528362,2.26716708523013,2.26802439554077,2.26825367620525,0,2.26846301942064,2.26837330089976,2.26914089268952,2.26977889106024,0,2.27171282362146,2.27118448122072,2.27173276107055,2.27224116602221,0,2.27439441052337,2.27736509043701,2.32476637563614,2.32495578140245,0,2.32702927610727,2.32861430330951,2.3295513634165,2.32973080045826,0,2.32556387359954,2.33084729760701,2.32238385047051,2.32136704056718,0,2.32002126275396,2.32079882326827,2.32016082489755,2.31905429647335,0,2.31821692361178,2.31781817463009,2.31840632937809,2.31907423392243,0,2.31910414009606,2.31969229484406,2.32038013683749,2.32063932367559,0,2.32163619612983,2.32322122333207,2.32612212217391,2.32589284150944,0,2.32559377977316,2.32603240365303,2.32664049585012,2.32736821274171,0,2.33116629679237,2.32584299788672,2.28374507414415,2.28193076627743,0,2.28133264280488,2.28155195474482,2.2807245506078,2.27969777197993,0,2.28083420657776,2.27979745922535,2.2791494921301,2.27896008636379,0,2.2791494921301,2.27932892917186,2.27846165013667,2.27886039911837,0,2.27869093080115,2.27936880407003,2.27821243202311,2.27855136865755,0,2.27785355793959,2.27800308880772,2.27874077442386,2.27813268222677,0,2.27814265095131,2.2786809620766,2.27805293243043,2.27794327646047,0,2.27990711519532,2.27898999253742,2.27818252584948,2.27841180651396,0,2.27985727157261,2.27894014891471,2.27921927320189,2.2791494921301,0,2.27947846004,2.28049526994332,2.27990711519532,2.28108342469132,0,2.28123295555946,2.28151207984665,2.28073451933234,2.28206035969648,0,2.28249898357635,2.28465222807751,2.2861076618607,2.28641669232151,0,2.28758303309297,2.3522601179241,2.34927946928592,2.34760472356279,0,2.34979784296212,2.34892059520239,2.34955859357311,2.34246086169891,0,2.34204217526813,2.342480799148,2.34344776542861,2.35157227593067,0,2.34992743638117,2.34967821826761,2.35129315164348,2.35026637301562,0,2.35082462158999,2.35099408990721,2.35123333929623,2.35199096236145,0,2.35202086853508,2.35373548915637,2.35414420686261,2.35462270564065,0,2.35413423813807,2.35325699037834,2.35401461344356,2.3540943632399,0,2.3527784916003,2.29917665973579,2.29967509596291,2.29504960777523,0,2.29379354848289
2.28523041410097,2.28668584788416,0,2.28175132923567,2.22243741820835,2.22445110056592,2.22387291454246,0,2.22363366515344,2.22524859852931,2.22657443889345,2.22564734751101,0,2.22639500185169,2.22784046691034,2.22862799614919,2.22896693278363,0,2.22981427436974,2.23053202253679,2.23069152212947,2.23172826948188,0,2.23252576744527,2.23310395346873,2.23382170163578,2.23492823005999,0,2.23550641608345,2.23592510251423,2.23846712727254,2.23752009844101,0,2.23761978568644,2.23921478161322,2.24071009029458,2.24129824504259,0,2.24165711912611,2.24316239653202,2.24502654802144,2.24737916701345,0,2.2490838189102,2.25074859590879,2.25360961985246,2.28027595800339,0,2.28282795148625,2.28743350222484,2.29418232874005,2.29641532303754,0,2.29723275845002,2.29762153870717,2.29671438477382,2.29532873206242,0,2.29383342338106,2.29359417399204,2.2933947995012,2.29298608179496,0,2.29322533118397,2.29344464312391,2.29360414271659,2.29395304807557,0,2.29460101517083,2.29551813782873,2.29580723084046,2.29668447860019,0,2.29848881774236,2.29947572147206,2.30052243754901,2.30167880959593,0,2.30293486888828,2.30340339894177,2.30639401630449,2.30698217105249,0,2.30646379737629,2.30703201467521,2.30686254635798,2.26927048610857,0,2.26851286304335,2.2678648959481,2.26695774201474,2.26636958726673,0,2.2655621205788,2.26538268353704,2.26540262098612,2.26561196420151,0,2.26623002512314,2.26618018150043,2.2680543017144,2.26761567783453,0,2.26696771073928,2.26796458319352,2.26795461446898,2.26833342600159,0,2.26836333217522,2.26852283176789,2.26907111161773,2.26870226880966,0,2.27053651412546,2.27103495035258,2.27198197918411,2.27332775699733,0,2.27450406649334,2.27721555956887,2.32382931552916,2.32410843981634,0,2.32798627366334,2.32897317739304,2.32794639876517,2.32864420948314,0,2.32662055840103,2.33066786056525,2.32394894022367,2.32267294348224,0,2.32184553934522,2.31962251377226,2.32012094999938,2.31953279525138,0,2.32059944877742,2.31886489070704,2.31901442157518,2.31952282652684,0,2.31960257632318,2.3206193862265,2.32102810393274,2.32097826031003,0,2.32196516403973,2.32378944063099,2.3250155937497,2.32455703242075,0,2.32662055840103,2.32690965141276,2.32739811891534,2.32826539795053,0,2.33142548363047,2.31723001988209,2.2836154807251,2.28233948398367,0,2.2819008601038,2.28092392509865,2.2799968337162,2.27969777197993,0,2.27962799090813,2.27946849131546,2.27889030529199,2.27975758432718,0,2.27896008636379,2.2791494921301,2.27865105590298,2.27887036784291,0,2.27834202544216,2.27825230692128,2.27850152503484,2.27810277605315,0,2.2788205242202,2.27815261967586,2.27817255712494,2.27738502788609,0,2.27864108717844,2.27836196289125,2.2784217752385,2.27870089952569,0,2.27810277605315,2.27870089952569,2.27874077442386,2.27998686499166,0,2.27896008636379,2.27898002381288,2.27941864769274,2.27964792835722,0,2.28010648968617,2.2803955826979,2.2807245506078,2.2805849884642,0,2.2819706411756,2.2829575449053,2.28194073500197,2.28220989056462,0,2.28332638771337,2.28543975731636,2.28578866267534,2.35259905455854,0,2.28946712203149,2.34996731127934,2.35067509072186,2.34839225280164,0,2.34802340999358,2.34677731942577,2.3500271236266,2.35019659194382,0,2.34205214399267,2.34289948557878,2.35047571623101,2.35053552857826,0,2.34993740510572,2.35116355822443,2.35046574750646,2.3509442462845,0,2.35100405863175,2.35148255740979,2.35196105618783,2.35162211955338,0,2.35236977389406,2.3540943632399,2.35386508257542,2.35591863983116,0,2.35457286201794,2.3535062084919,2.35302770971386,2.35517098549048,0,2.35415417558715,2.35398470726993,2.29745207038995,2.29395304807557,0,2.29275680113048
0,0,0,0,0,0,0,0,0,0,0,0,0,0,0,0,0,0,0,0,0,0,0,0,0,0,0,0,0,0,0,0,0,0,0,0,0,0,0,0,0,0,0,0,0,0,0,0,0,0,0,0,0,0,0,0,0,0,0,0,0,0,0,0,0,0,0,0,0,0,0,0,0,0,0,0,0,0,0,0,0,0,0,0,0,0,0,0,0,0,0,0,0,0,0,0,0,0,0,0,0,0,0,0,0,0,0,0,0,0,0,0,0,0,0,0,0,0,0,0,0,0,0,0,0,0,0,0,0,0,0,0,0,0,0,0,0,0,0,0,0,0,0,0,0,0,0,0,0,0,0,0,0,0,0,0,0,0,0,0,0,0,0,0,0,0,0,0,0,0,0,0,0,0,0,0,0,0,0,0,0,0,0,0,0,0,0,0,0,0,0,0,0,0,0,0,0,0,0,0,0,0,0,0,0,0,0,0,0,0,0,0,0,0,0,0,0,0,0,0,0,0,0,0,0,0,0,0,0,0,0,0,0,0,0,0,0,0,0,0,0,0,0,0,0,0,0,0,0,0,0,0,0,0,0,0,0,0,0
2.28337623133608,2.28525035155005,0,2.28713444048856,2.22315516637541,2.22328475979446,2.22419191372782,0,2.22432150714687,2.22523862980477,2.22664421996525,2.22791024798214,0,2.2273619681323,2.22760121752132,2.22839871548471,2.22909652620268,0,2.23015321100418,2.23077127192581,2.23125973942838,2.23244601764893,0,2.23343292137863,2.23361235842039,2.23447963745558,2.23480860536548,0,2.23581544654426,2.23630391404684,2.23606466465782,2.23761978568644,0,2.23933440630773,2.23938424993044,2.24005215447478,2.2410889018272,0,2.24213561790415,2.24392998832178,2.24471751756063,2.24693057440904,0,2.24914363125746,2.25121712596228,2.27782365176596,2.28017627075797,0,2.29577732466683,2.29576735594229,2.29619601109761,2.29657482263022,0,2.29726266462365,2.2980501938625,2.29618604237307,2.29488013945801,0,2.29528885716425,2.29381348593198,2.29270695750777,2.29319542501035,0,2.29315555011218,2.29331504970486,2.29368389251292,2.29363404889021,0,2.294640890069,2.29554804400235,2.29678416584561,2.29818975600609,0,2.29773119467714,2.29965515851383,2.30024331326183,2.30193799643404,0,2.30311430593004,2.30441024012055,2.3055267372693,2.3062544541609,0,2.30669307804076,2.30802888712945,2.30915535300274,2.26925054865949,0,2.26778514615176,2.26722689757738,2.26664871155392,2.26689792966748,0,2.26689792966748,2.26531290246524,2.26525309011799,2.26579140124327,0,2.26623002512314,2.26663874282938,2.26689792966748,2.26710727288287,0,2.26745617824186,2.26715711650558,2.2683832696243,2.26796458319352,0,2.2683134885525,2.26825367620525,2.26901129927047,2.27006798407197,0,2.2702175149401,2.27225113474675,2.27143369933428,2.27326794465008,0,2.27470344098418,2.27573021961205,2.27948842876454,2.33085726633155,0,2.32878377162673,2.32570343574313,2.32829530412416,2.32739811891534,0,2.326730214371,2.32699936993364,2.32532462421052,2.32235394429688,0,2.3215365088844,2.32093838541186,2.32078885454372,2.32024057469389,0,2.31894464050338,2.31961254504772,2.31967235739498,2.31922376479057,0,2.32102810393274,2.32038013683749,2.32185550806976,2.32212466363241,0,2.32291219287126,2.32491590650428,2.32503553119879,2.32588287278489,0,2.32748783743622,2.32716883825086,2.32736821274171,2.32825542922599,0,2.33031895520626,2.32903298974029,2.28350582475513,2.28112329958949,0,2.28120304938583,2.2805849884642,2.27953827238725,2.27976755305173,0,2.28028592672793,2.27912955468101,2.27943858514183,2.27886039911837,0,2.27984730284807,2.27871086825023,2.27895011763925,2.27834202544216,0,2.27879061804657,2.27888033656745,2.27957814728542,2.27881055549566,0,2.27867099335206,2.27811274477769,2.27830215054399,2.27789343283775,0,2.27839186906488,2.27795324518501,2.27819249457403,2.27808283860406,0,2.2785613373821,2.27935883534549,2.27913952340556,2.27903983616013,0,2.27894014891471,2.27941864769274,2.27938874151912,2.27956817856088,0,2.28177126668475,2.27995695881803,2.28161176709207,2.28113326831404,0,2.28202048479831,2.28224976546279,2.28206035969648,2.28283792021079,0,2.28305723215072,2.28395441735954,2.28654628574056,2.2884602808527,0,2.34836234662802,2.34748509886829,2.34905018862144,2.34859162729249,0,2.34815300341263,2.34211195633993,2.34211195633993,2.34269014236339,0,2.35080468414091,2.35228005537318,2.35239968006769,2.35265886690579,0,2.3514626199607,2.35095421500904,2.34989753020755,2.35097415245813,0,2.35224018047501,2.35195108746328,2.35229002409772,2.35206074343325,0,2.35306758461203,2.35353611466553,2.35466258053882,2.35446320604797,0,2.35522082911319,2.3544931122216,2.35273861670213,2.35217039940322,0,2.3514626199607,2.29855859881416,2.29940594040027,2.29369386123747,0,2.29435179705727
2.28422357292218,2.28468213425113,0,2.28352576220421,2.28225973418733,2.22304551040544,2.223882883267,0,2.22410219520694,2.22521869235569,2.22509906766118,2.22688346935427,0,2.22762115497041,2.22893702661,2.22836880931109,2.22956505625617,0,2.23019308590235,2.23049214763862,2.23141923902106,2.23158870733828,0,2.23243604892439,2.23346282755226,2.23488835516182,2.23461919959917,0,2.23610453955599,2.2362241642505,2.23832756512895,2.23828769023078,0,2.23898550094875,2.23929453140956,2.24086958988726,2.24099918330631,0,2.2416072755034,2.24381036362727,2.24573432746396,2.24729941721711,0,2.2483062583959,2.253619588577,2.2778336204905,2.29462095261991,0,2.29455117154811,2.29510942012249,2.29615613619944,2.296405354313,0,2.29664460370202,2.29725269589911,2.29873803585592,2.29532873206242,0,2.29425210981184,2.29442157812906,2.29287642582499,2.2939131731774,0,2.29363404889021,2.29386332955469,2.29280664475319,2.29393311062648,0,2.29412251639279,2.29594679298405,2.29663463497748,2.29760160125809,0,2.29848881774236,2.29872806713138,2.30159905979959,2.30215730837397,0,2.30298471251099,2.30356289853445,2.30680273401073,2.30617470436456,0,2.30623451671181,2.30921516534999,2.26991845320383,2.26756583421182,0,2.26723686630192,2.26617021277589,2.26618018150043,2.26695774201474,0,2.26551227695609,2.26548237078246,2.26577146379419,2.26607052553046,0,2.26603065063229,2.26587115103961,2.26708733543379,2.26731661609826,0,2.26761567783453,2.26768545890633,2.26806427043894,2.26795461446898,0,2.26841317579793,2.26966923509027,2.26915086141407,2.26940007952763,0,2.27039695198187,2.27067607626905,2.27145363678336,2.27375641215266,0,2.27454394139151,2.27657756119816,2.33296066721,2.33163482684586,0,2.33061801694254,2.33137564000776,2.32662055840103,2.32820558560327,0,2.32744796253805,2.32690965141276,2.32696946376002,2.32468662583981,0,2.32164616485437,2.32140691546535,2.32037016811294,2.32232403812325,0,2.3201707936221,2.32039010556203,2.32028044959206,2.32116766607634,0,2.32095832286095,2.32191532041702,2.32280253690129,2.32267294348224,0,2.32367978466102,2.32395890894821,2.32486606288157,2.32676012054463,0,2.32777693044795,2.32742802508897,2.32769718065161,2.32730840039446,0,2.32745793126259,2.28497122726286,2.28335629388699,2.28252888974997,0,2.28118311193675,2.28211020331919,2.27956817856088,2.27981739667444,0,2.27954824111179,2.27950836621362,2.27911958595647,2.27753455875423,0,2.27896008636379,2.27859124355572,2.27890027401654,2.27938874151912,0,2.27855136865755,2.27925914810006,2.27813268222677,2.27795324518501,0,2.27992705264441,2.27848158758576,2.27854139993301,2.27797318263409,0,2.27810277605315,2.27885043039383,2.2782323694722,2.27781368304142,0,2.27870089952569,2.27896008636379,2.27910961723193,2.27958811600996,0,2.27898002381288,2.27957814728542,2.27960805345905,2.27972767815356,0,2.28028592672793,2.28086411275139,2.28118311193675,2.28090398764956,0,2.28203045352285,2.28134261152943,2.28282795148625,2.28339616878516,0,2.28336626261154,2.28706465941677,2.34790378529907,2.34704647498842,0,2.34637857044408,2.34729569310198,2.34693681901845,2.34917978204049,0,2.34925953183683,2.34931934418409,2.35288814757027,2.35584885875936,0,2.35298783481569,2.35007696724931,2.35190124384057,2.3516021821043,0,2.35145265123616,2.35112368332626,2.35115358949989,2.35207071215779,0,2.35192118128966,2.3518613689424,2.35379530150363,2.35373548915637,0,2.35264889818125,2.35440339370071,2.35473236161061,2.35504139207143,0,2.35455292456885,2.35487192375421,2.35228005537318,2.35137290143982,0,2.35123333929623,2.29492001435618,2.2936539863393,2.29247767684329,0,2.29367392378838
2.28431329144306,2.28631700507609,0,2.28445285358666,2.22416200755419,2.22348413428531,2.22455078781134,0,2.22441122566775,2.22467041250585,2.22657443889345,2.22675387593522,0,2.22708284384512,2.22796009160485,2.22869777722099,2.22924605707082,0,2.23072142830309,2.23075133447672,2.23104042748845,2.23218683081083,0,2.23304414112147,2.23349273372588,2.2343201378629,2.23491826133545,0,2.2353070415926,2.23624410169959,2.23705156838752,2.2383873774762,0,2.23958362442129,2.23979296763668,2.24034124748651,2.24181661871879,0,2.24260414795764,2.24400973811812,2.24533557848226,2.24674116864274,0,2.24869503865305,2.2505392526934,2.25499527256385,2.29409261021916,0,2.29687388436649,2.29540848185876,2.29603651150493,2.29671438477382,0,2.29674429094744,2.29672435349836,2.29655488518114,2.29697357161192,0,2.29382345465652,2.2936539863393,2.29296614434587,2.29290633199862,0,2.29328514353123,2.29347454929753,2.2932552373576,2.29470070241625,0,2.29474057731442,2.29573744976866,2.29631563579212,2.29767138232989,0,2.29928631570576,2.30000406387281,2.30163893469776,2.30313424337912,0,2.30248627628387,2.30446008374326,2.30680273401073,2.30709182702246,0,2.3064438599272,2.30811860565033,2.3068426089089,2.2692306112104,0,2.26646927451216,2.26609046297955,2.26678827369752,2.26575152634511,0,2.26526305884253,2.26595090083595,2.26593096338687,2.26700758563745,0,2.26606055680592,2.26652908685941,2.26618018150043,2.26636958726673,0,2.26811411406166,2.26741630334369,2.26858264411515,2.26825367620525,0,2.26893154947413,2.26939011080308,2.26925054865949,2.27029726473644,0,2.27013776514376,2.271134637598,2.27187232321414,2.27373647470357,0,2.27550093894758,2.27562056364209,2.32904295846484,2.33109651572057,0,2.33193388858213,2.33099682847515,2.33213326307298,2.32824546050144,0,2.32665046457466,2.32603240365303,2.32451715752258,2.32433772048082,0,2.32215456980603,2.32176578954888,2.3218654767943,2.32125738459722,0,2.32070910474738,2.32045988663383,2.32021066852026,2.32110785372908,0,2.32493584395336,2.32206485128515,2.32218447597966,2.32361000358923,0,2.32408850236726,2.32470656328889,2.32784671151975,2.32737818146625,0,2.32722865059812,2.32838502264504,2.32791649259154,2.32781680534612,0,2.32628162176659,2.2856391318072,2.2828877638335,2.28252888974997,0,2.2805849884642,2.28126286173309,2.27968780325539,2.27960805345905,0,2.27958811600996,2.2797376468781,2.27899996126196,2.27996692754257,0,2.27954824111179,2.27902986743559,2.27840183778942,2.27884046166928,0,2.27876071187294,2.27925914810006,2.27780371431687,2.27844171268759,0,2.27822240074765,2.27851149375938,2.2784915563103,2.27853143120847,0,2.27853143120847,2.27860121228027,2.27881055549566,2.27949839748908,0,2.27884046166928,2.27884046166928,2.28201051607377,2.27898999253742,0,2.27930899172278,2.28057501973966,2.2797376468781,2.28026598927885,0,2.28011645841071,2.28036567652427,2.28156192346936,2.28165164199024,0,2.28224976546279,2.2838746675632,2.2835456996533,2.28341610623425,0,2.2844628223112,2.28609769313615,2.28726403390762,2.34494307410997,0,2.34519229222353,2.34496301155906,2.34609944615689,2.34928943801046,0,2.35037602898558,2.34484338686455,2.35239968006769,2.35198099363691,0,2.35242958624132,2.35222024302593,2.35262896073217,2.35237974261861,0,2.35241961751678,2.3514626199607,2.35137290143982,2.35189127511603,0,2.35263892945671,2.35313736568383,2.35374545788092,2.3535062084919,0,2.35382520767726,2.35495167355055,2.35459279946702,2.35526070401136,0,2.35466258053882,2.35529061018499,2.35486195502967,2.35398470726993,0,2.29869816095775,2.29761156998263,2.29402282914737,2.29304589414221,0,2.29304589414221
2.28434319761669,2.22518878618206,0,2.22550778536742,2.22570715985826,2.22348413428531,2.22378319602158,0,2.2249395680685,2.22593644052274,2.2259264717982,2.22713268746783,0,2.22793018543122,2.22895696405909,2.22975446202248,2.23028280442323,0,2.23057189743496,2.2325556736189,2.23187780035001,2.23279492300791,0,2.23289461025334,2.23393135760575,2.23447963745558,2.23491826133545,0,2.23536685393985,2.23666278813037,2.23750016099193,2.23831759640441,0,2.24039109110923,2.23938424993044,2.24085962116272,2.24141786973709,0,2.24154746315615,2.24385023852544,2.24642216945738,2.24773804109698,0,2.24978162962817,2.2521143111711,2.30009378239369,2.29549820037964,0,2.29684397819287,2.29701344651009,2.2961461674749,2.29642529176209,0,2.29626579216941,2.29650504155843,2.29608635512764,2.29395304807557,0,2.29492001435618,2.29284651965136,2.29285648837591,2.29635551069029,0,2.29357423654296,2.29413248511733,2.29408264149462,2.29460101517083,0,2.29563776252324,2.29565769997232,2.29858850498779,2.29788072554528,0,2.29957540871749,2.30072181203986,2.30083146800983,2.30182834046407,0,2.30562642451473,2.30507814466489,2.30579589283195,2.30616473564002,0,2.30529745660483,2.30391180389343,2.30638404757995,2.26678827369752,0,2.26657893048213,2.2662200563986,2.26896145564776,2.26598080700958,0,2.26718702267921,2.26564187037514,2.26617021277589,2.26570168272239,0,2.26572162017148,2.26597083828504,2.26674839879935,2.26651911813487,0,2.2674661469664,2.26730664737372,2.26748608441548,2.26804433298986,0,2.26861255028878,2.26835336345067,2.27044679560458,2.26951970422213,0,2.27006798407197,2.2716031676515,2.27205176025591,2.27323803847645,0,2.27417509858344,2.2768467167608,2.32954139469196,2.33114635934328,0,2.33069776673888,2.3313856087323,2.3292921765784,2.32779686789704,0,2.32801617983697,2.32813580453148,2.32773705554978,2.32487603160611,0,2.32471653201343,2.32242372536868,2.32215456980603,2.32180566444705,0,2.32224428832692,2.32312153608665,2.32191532041702,2.32182560189613,0,2.32305175501485,2.3217458520998,2.32400875257092,2.32440750155262,0,2.32433772048082,2.32565359212042,2.32616199707208,2.32692958886185,0,2.32766727447798,2.331784357714,2.32899311484212,2.33024917413447,0,2.32476637563614,2.32530468676143,2.28374507414415,2.28334632516245,0,2.28302732597709,2.28178123540929,2.27926911682461,2.28014636458434,0,2.28134261152943,2.28014636458434,2.27926911682461,2.27871086825023,0,2.27909964850739,2.2791494921301,2.27867099335206,2.27889030529199,0,2.27879061804657,2.27861118100481,2.27826227564582,2.27857130610664,0,2.27866102462752,2.27859124355572,2.27845168141213,2.2785613373821,0,2.27883049294474,2.2786809620766,2.27921927320189,2.27899996126196,0,2.27949839748908,2.2793388978964,2.27942861641729,2.27959808473451,0,2.27967783453085,2.27995695881803,2.28112329958949,2.28056505101512,0,2.28051520739241,2.28100367489499,2.28140242387668,2.28109339341587,0,2.28303729470164,2.285708912879,2.28272826424082,2.28398432353316,0,2.28586841247168,2.286885222375,2.3445742313019,2.34255058021979,0,2.34315867241688,2.34311879751871,2.34325835966231,2.34378670206305,0,2.34364713991946,2.3522601179241,2.3521903368523,2.35263892945671,0,2.35351617721644,2.35269874180396,2.35272864797759,2.35293799119298,0,2.35187133766694,2.35229999282227,2.35199096236145,2.3529180537439,0,2.35380527022817,2.352589085834,2.35367567680912,2.35546007850221,0,2.35811175923049,2.35789244729056,2.35753357320703,2.35568935916668,0,2.35581895258574,2.35395480109631,2.35519092293956,2.35420401920987,0,2.29679413457016,2.29613619875036,2.29444151557815,2.2939131731774,0,2.29270695750777
0,0,0,0,0,0,0,0,0,0,0,0,0,0,0,0,0,0,0,0,0,0,0,0,0,0,0,0,0,0,0,0,0,0,0,0,0,0,0,0,0,0,0,0,0,0,0,0,0,0,0,0,0,0,0,0,0,0,0,0,0,0,0,0,0,0,0,0,0,0,0,0,0,0,0,0,0,0,0,0,0,0,0,0,0,0,0,0,0,0,0,0,0,0,0,0,0,0,0,0,0,0,0,0,0,0,0,0,0,0,0,0,0,0,0,0,0,0,0,0,0,0,0,0,0,0,0,0,0,0,0,0,0,0,0,0,0,0,0,0,0,0,0,0,0,0,0,0,0,0,0,0,0,0,0,0,0,0,0,0,0,0,0,0,0,0,0,0,0,0,0,0,0,0,0,0,0,0,0,0,0,0,0,0,0,0,0,0,0,0,0,0,0,0,0,0,0,0,0,0,0,0,0,0,0,0,0,0,0,0,0,0,0,0,0,0,0,0,0,0,0,0,0,0,0,0,0,0,0,0,0,0,0,0,0,0,0,0,0,0,0,0,0,0,0,0,0,0,0,0,0,0,0,0,0,0,0,0,0
2.28677556640504,2.22259691780103,0,2.22384300836883,2.22474019357765,2.2242118511769,2.22534828577474,0,2.22453085036226,2.22593644052274,2.22616572118721,2.22740184303047,0,2.22822924716749,2.2286080587001,2.22890712043638,2.22944543156167,0,2.23052205381225,2.23207717484086,2.23147905136832,2.23229648678079,0,2.23315379709144,2.23387154525849,2.23431016913836,2.23492823005999,0,2.23608460210691,2.23686216262122,2.23821790915898,2.23800856594359,0,2.24007209192387,2.24074996519275,2.24041102855831,2.24147768208435,0,2.24330195867561,2.24514617271595,2.2470601678281,2.24786763451603,0,2.24985141069997,2.25150621897401,2.29529882588879,2.29625582344487,0,2.29712310248005,2.2970632901328,2.29812994365884,2.29641532303754,0,2.29637544813937,2.2968041032947,2.295229044817,2.29447142175177,0,2.29491004563164,2.29456114027266,2.29343467439936,2.29558791890052,0,2.29354433036933,2.29412251639279,2.295229044817,2.29600660533131,0,2.29645519793571,2.29625582344487,2.29700347778555,2.29800035023979,0,2.29971497086108,2.3008015618362,2.30227693306848,2.30469933313228,0,2.30613482946639,2.305337331503,2.30569620558652,2.30705195212429,0,2.30498842614401,2.30368252322896,2.30498842614401,2.30632423523269,0,2.2678648959481,2.26639949344036,2.266080494255,2.26521321521982,0,2.26547240205792,2.26656896175758,2.26574155762056,2.26605058808138,0,2.26653905558396,2.26679824242206,2.26804433298986,2.26788483339718,0,2.26764558400816,2.26783498977447,2.26836333217522,2.26821380130708,0,2.26894151819868,2.26900133054593,2.26874214370783,2.26951970422213,0,2.27055645157454,2.27215144750133,2.27235082199218,2.27307853888377,0,2.27506231506771,2.27575015706114,2.27860121228027,2.32998001857182,0,2.33107657827149,2.33127595276233,2.33092704740335,2.33362857175434,0,2.3289632086685,2.3276473370289,2.32796633621426,2.32457696986984,0,2.32485609415703,2.32290222414671,2.3229919426676,2.32255331878773,0,2.32231406939871,2.32225425705146,2.32307169246394,2.32197513276427,0,2.32164616485437,2.32302184884122,2.32420812706177,2.32516512461784,0,2.32522493696509,2.32560374849771,2.32722865059812,2.32821555432782,0,2.32888345887216,2.33002986219453,2.32973080045826,2.32494581267791,0,2.32459690731892,2.32514518716876,2.28588834992076,2.28366532434781,0,2.28322670046794,2.28044542632061,2.28021614565614,2.28021614565614,0,2.27969777197993,2.27986724029715,2.27959808473451,2.27894014891471,0,2.27925914810006,2.27903983616013,2.27869093080115,2.27918936702827,0,2.2788205242202,2.27874077442386,2.27836196289125,2.2788205242202,0,2.27862114972935,2.27889030529199,2.27859124355572,2.27864108717844,0,2.27912955468101,2.27951833493817,2.27892021146562,2.27870089952569,0,2.27942861641729,2.27939871024366,2.27942861641729,2.28007658351254,0,2.27969777197993,2.28043545759607,2.28050523866786,2.28075445678143,0,2.28143233005031,2.28096379999682,2.28140242387668,2.28195070372651,0,2.28260863954631,2.28342607495879,2.2835456996533,2.28428338526944,0,2.28553944456178,2.28750328329663,2.34102536536481,2.34124467730474,0,2.34131445837654,2.34279979833336,2.34284964195607,2.35298783481569,0,2.35250933603766,2.35636723243557,2.35362583318641,2.35413423813807,0,2.35430370645529,2.35469248671244,2.35227008664864,2.35230996154681,0,2.35279842904939,2.35234983644498,2.35231993027135,2.35296789736661,0,2.35364577063549,2.35380527022817,2.35500151717326,2.354353550078,0,2.3551510480414,2.35760335427883,2.35703513697991,2.35700523080628,0,2.35568935916668,2.35656660692642,2.35308752206112,2.29928631570576,0,2.29695363416283,2.29587701191225,2.29345461184845,2.29387329827923,0,2.29296614434587
2.22174957621493,2.2223776058611,0,2.22222807499296,2.22393272688972,2.22422181990145,2.22527850470294,0,2.22517881745752,2.2255975038883,2.22638503312715,2.22778065456308,0,2.22873765211916,2.22967471222614,2.23055195998587,2.22990399289062,0,2.23086099044669,2.23140927029652,2.23233636167896,2.2328846415288,0,2.23388151398304,2.23414070082114,2.2344597000065,2.23532697904168,0,2.23595500868786,2.23706153711206,2.2376098169619,2.24077987136638,0,2.23950387462495,2.23960356187038,2.2409493396836,2.24204589938327,0,2.24329198995107,2.24425895623168,2.24536548465589,2.24805704028234,0,2.24972181728092,2.25421771204954,2.29497982670344,2.29606641767856,0,2.29712310248005,2.29752185146175,2.29760160125809,2.29667450987565,0,2.29677419712107,2.29620597982215,2.29554804400235,2.29475054603896,0,2.29456114027266,2.2945013279254,2.2939131731774,2.2939829542492,0,2.29411254766825,2.29439167195544,2.29474057731442,2.29544835675693,0,2.29591688681042,2.29663463497748,2.29799038151524,2.2989673165204,0,2.30075171821349,2.30008381366915,2.3028451503674,2.3043504277733,0,2.3061148920173,2.3057859241074,2.30589558007737,2.30793916860856,0,2.3021174334758,2.30306446230733,2.30412114710882,2.26758577166091,0,2.26629980619494,2.26733655354735,2.2661502753268,2.26652908685941,0,2.26553221440517,2.265492339507,2.26559202675243,2.26627986874585,0,2.26581133869236,2.26618018150043,2.26752595931365,2.26931036100674,0,2.26833342600159,2.26834339472613,2.26826364492979,2.26889167457596,0,2.26889167457596,2.26887173712688,2.26933029845583,2.27007795279651,0,2.27043682688004,2.27137388698702,2.27207169770499,2.27357697511089,0,2.27427478582886,2.27623862456372,2.33118623424145,2.33063795439162,0,2.33058811076891,2.33033889265535,2.33042861117623,2.33101676592423,0,2.32940183254836,2.32844483499229,2.32622180941934,2.326142059623,0,2.32571340446767,2.3273881501908,2.32527478058781,2.32322122333207,0,2.32265300603315,2.32265300603315,2.32385922170279,2.32301188011668,0,2.32353025379289,2.32426793940902,2.32399878384638,2.32638130901201,0,2.32634143411384,2.32690965141276,2.32775699299887,2.32871399055494,0,2.32950151979379,2.32997004984728,2.33042861117623,2.32960120703921,0,2.32531465548598,2.32554393615045,2.28366532434781,2.28239929633092,0,2.28180117285838,2.28106348724224,2.28027595800339,2.28050523866786,0,2.2794086789682,2.27970774070447,2.27923921065098,2.27939871024366,0,2.27878064932203,2.27901989871105,2.27951833493817,2.27919933575281,0,2.27831211926854,2.2786809620766,2.27881055549566,2.27910961723193,0,2.27879061804657,2.27831211926854,2.27903983616013,2.27874077442386,0,2.27908967978284,2.27944855386637,2.27888033656745,2.27889030529199,0,2.28045539504515,2.27959808473451,2.28014636458434,2.28024605182976,0,2.28042548887153,2.28182111030746,2.28215007821736,2.28176129796021,0,2.28225973418733,2.28206035969648,2.28170148561295,2.28159182964299,0,2.28310707577343,2.28331641898882,2.28311704449798,2.28459241573025,0,2.2850509770592,2.28650641084239,2.3399188369406,2.34103533408935,0,2.34085589704759,2.34333810945864,2.34265026746522,2.35225014919956,0,2.35177165042152,2.35866003908032,2.3550812669696,2.35504139207143,0,2.354353550078,2.35441336242526,2.35320714675563,2.35315730313291,0,2.35492176737692,2.35382520767726,2.35348627104281,2.3535759895637,0,2.35425386283258,2.35418408176078,2.35479217395787,2.35703513697991,0,2.35706504315354,2.35696535590811,2.35682579376452,2.35705507442899,0,2.35549995340038,2.35474233033516,2.29974487703471,2.29783088192257,0,2.29766141360534,2.29350445547116,2.29310570648947,2.29323529990852,0,2.29224839617882
2.22104179677242,2.22184926346035,0,2.22256701162741,2.22287604208822,2.22360375897982,2.22485981827216,0,2.22462056888314,2.22678378210884,2.227172562366,2.22845852783197,0,2.23101052131482,2.22925602579536,2.22960493115434,2.23100055259028,0,2.23198745631998,2.23275504810974,2.23244601764893,2.23298432877422,0,2.23453944980283,2.23528710414352,2.2353768226644,2.23545657246074,0,2.2361543831787,2.23670266302854,2.23765966058461,2.23787897252454,0,2.23902537584692,2.24021165406746,2.24106896437811,2.24266396030489,0,2.24376052000456,2.24464773648883,2.24571439001487,2.24793741558783,0,2.25017040988533,2.25274234081727,2.29577732466683,2.29609632385219,0,2.29659476007931,2.29678416584561,2.29715300865368,2.29687388436649,0,2.29764147615626,2.29714303992914,2.29489010818256,2.29480038966167,0,2.29387329827923,2.29379354848289,2.29427204726093,2.29413248511733,0,2.29375367358472,2.29543838803239,2.2949000769071,2.29534866951151,0,2.29685394691741,2.29704335268372,2.29764147615626,2.29844894284419,0,2.29979472065742,2.30112056102156,2.30335355531906,2.30513795701215,0,2.30680273401073,2.30555664344293,2.30708185829792,2.30667314059168,0,2.30300464996007,2.30339343021723,2.30374233557621,2.26716708523013,0,2.26638952471582,2.26691786711657,2.26569171399785,2.26637955599128,0,2.266080494255,2.26635961854219,2.26624996257223,2.26632971236856,0,2.26609046297955,2.26638952471582,2.26794464574443,2.26731661609826,0,2.26851286304335,2.26780508360084,2.26794464574443,2.26907111161773,0,2.26869230008511,2.26912095524044,2.26931036100674,2.26946986059942,0,2.27052654540092,2.27178260469326,2.27266982117753,2.27280938332113,0,2.2741651298589,2.27725543446704,2.33051832969711,2.33037876755352,0,2.33034886137989,2.33298060465909,2.33082736015793,2.33123607786416,0,2.331196202966,2.32934202020111,2.32825542922599,2.32692958886185,0,2.32660062095195,2.32531465548598,2.32414831471451,2.32486606288157,0,2.32414831471451,2.32320128588299,2.32433772048082,2.32341062909838,0,2.32438756410353,2.32381934680462,2.32524487441418,2.32575327936584,0,2.32648099625744,2.32750777488531,2.32834514774687,2.32989030005094,0,2.32973080045826,2.33074761036159,2.33048842352348,2.33083732888247,0,2.33110648444511,2.32583302916218,2.28293760745621,2.28298745107892,0,2.28231954653458,2.28095383127227,2.28012642713525,2.28153201729573,0,2.27975758432718,2.28017627075797,2.27988717774624,2.27926911682461,0,2.27965789708176,2.27926911682461,2.27925914810006,2.2790797110583,0,2.27876071187294,2.27890027401654,2.27922924192644,2.28093389382319,0,2.27861118100481,2.27832208799308,2.27921927320189,2.27905977360922,0,2.27918936702827,2.2793388978964,2.27917939830373,2.27930899172278,0,2.27986724029715,2.27998686499166,2.27993702136895,2.2802560205543,0,2.28012642713525,2.28093389382319,2.28051520739241,2.28068467570963,0,2.28094386254773,2.28191082882834,2.28188092265472,2.28246907740272,0,2.28305723215072,2.28437310379032,2.28368526179689,2.28428338526944,0,2.28485160256835,2.28855996809813,2.34003846163511,2.35238971134315,0,2.35195108746328,2.34144405179559,2.35223021175047,2.35174174424789,0,2.35249936731312,2.35386508257542,2.35441336242526,2.35476226778424,0,2.35448314349705,2.35408439451536,2.35438345625163,2.35439342497617,0,2.35561957809489,2.354941704826,2.35423392538349,2.35493173610146,0,2.35505136079597,2.35546007850221,2.35607813942384,2.35822141520046,0,2.35746379213523,2.35572923406485,2.35791238473964,2.354941704826,0,2.35399467599448,2.35460276819156,2.29958537744203,2.29470070241625,0,2.29410257894371,2.29404276659645,2.29514929502066,2.29485023328439,0,2.29186958464621
2.29094249326376,2.22236763713656,0,2.22264676142375,2.2227763548428,2.22466044378131,2.22514891128389,0,2.22696321915061,2.2264448454744,2.22681368828247,2.22778065456308,0,2.22861802742465,2.22914636982539,2.22941552538804,2.22953515008255,0,2.23199742504452,2.23252576744527,2.23212701846357,2.23313385964236,0,2.23446966873104,2.23418057571931,2.23414070082114,2.23638366384318,0,2.23689206879484,2.23775934783003,2.23800856594359,2.23858675196705,0,2.24086958988726,2.24031134131289,2.24116865162353,2.24207580555689,0,2.2437704887291,2.24497670439873,2.24639226328375,2.24857541395854,0,2.25084828315421,2.29554804400235,2.29629569834303,2.29697357161192,0,2.29727263334819,2.29644522921117,2.29877791075409,2.29692372798921,0,2.29738228931816,2.29655488518114,2.29664460370202,2.29557795017598,0,2.29500973287706,2.29453123409903,2.29571751231958,2.29394307935103,0,2.2939829542492,2.29471067114079,2.29479042093713,2.29481035838622,0,2.29624585472032,2.29646516666026,2.29803025641341,2.29910687866399,0,2.30011371984278,2.30172865321865,2.30258596352929,2.30436039649784,0,2.30572611176015,2.30605507967005,2.30622454798727,2.30701207722612,0,2.30721145171697,2.30597532987371,2.2676555527327,2.26782502104993,0,2.26724683502647,2.26670852390118,2.26631974364402,2.26623999384768,0,2.26648921196124,2.26572162017148,2.26658889920667,2.26659886793121,0,2.26733655354735,2.26657893048213,2.2679845206426,2.26743624079277,0,2.26678827369752,2.26732658482281,2.26777517742721,2.26889167457596,0,2.26945989187488,2.26910101779135,2.26974898488661,2.26987857830566,0,2.27098510672987,2.271134637598,2.2721215413277,2.27407541133801,0,2.27454394139151,2.27676696696446,2.33036879882898,2.33030898648172,0,2.33077751653521,2.33155507704952,2.33163482684586,2.33187407623488,0,2.32977067535643,2.32921242678206,2.32964108193738,2.32717880697541,0,2.32795636748971,2.3245670011453,2.32599252875486,2.32470656328889,0,2.32418818961268,2.32452712624713,2.32368975338556,2.32374956573282,0,2.32554393615045,2.32615202834754,2.32702927610727,2.32695949503547,0,2.32817567942965,2.32865417820768,2.32967098811101,2.33114635934328,0,2.33147532725318,2.33176442026491,2.33094698485244,2.33125601531325,0,2.33223295031841,2.28559925690903,2.28336626261154,2.28327654409065,0,2.28223979673824,2.28195070372651,2.28102361234407,2.28002673988983,0,2.27995695881803,2.27997689626712,2.27979745922535,2.27959808473451,0,2.28008655223708,2.27953827238725,2.2790099299865,2.2790099299865,0,2.27888033656745,2.27923921065098,2.27910961723193,2.27889030529199,0,2.27938874151912,2.27975758432718,2.27860121228027,2.27965789708176,0,2.27924917937552,2.27997689626712,2.27944855386637,2.27908967978284,0,2.27942861641729,2.2796678658063,2.27978749050081,2.28056505101512,0,2.28003670861437,2.28130273663126,2.281242924284,2.28029589545248,0,2.28143233005031,2.2821600469419,2.28300738852801,2.28266845189357,0,2.28319679429431,2.28432326016761,2.28480175894564,2.28535003879547,0,2.28679550385412,2.28819112529006,2.34959846847128,2.35139283888891,0,2.35124330802077,2.35121340184714,2.35152243230796,2.3559983896275,0,2.35414420686261,2.35337661507285,2.3546825179879,2.35489186120329,0,2.35430370645529,2.35446320604797,2.35514107931685,2.35477223650878,0,2.35476226778424,2.3546825179879,2.35493173610146,2.35652673202825,0,2.35542020360404,2.35552985957401,2.35622767029197,2.3568457312136,0,2.35754354193157,2.35709494932716,2.35607813942384,2.35557970319672,0,2.35486195502967,2.35616785794472,2.29660472880385,2.29661469752839,0,2.29437173450635,2.29342470567482,2.2927368636814,2.29396301680011,0,2.29269698878323
0,0,0,0,0,0,0,0,0,0,0,0,0,0,0,0,0,0,0,0,0,0,0,0,0,0,0,0,0,0,0,0,0,0,0,0,0,0,0,0,0,0,0,0,0,0,0,0,0,0,0,0,0,0,0,0,0,0,0,0,0,0,0,0,0,0,0,0,0,0,0,0,0,0,0,0,0,0,0,0,0,0,0,0,0,0,0,0,0,0,0,0,0,0,0,0,0,0,0,0,0,0,0,0,0,0,0,0,0,0,0,0,0,0,0,0,0,0,0,0,0,0,0,0,0,0,0,0,0,0,0,0,0,0,0,0,0,0,0,0,0,0,0,0,0,0,0,0,0,0,0,0,0,0,0,0,0,0,0,0,0,0,0,0,0,0,0,0,0,0,0,0,0,0,0,0,0,0,0,0,0,0,0,0,0,0,0,0,0,0,0,0,0,0,0,0,0,0,0,0,0,0,0,0,0,0,0,0,0,0,0,0,0,0,0,0,0,0,0,0,0,0,0,0,0,0,0,0,0,0,0,0,0,0,0,0,0,0,0,0,0,0,0,0,0,0,0,0,0,0,0,0,0,0,0,0,0,0,0
2.28899859197799,2.29006524550403,0,2.22216826264571,2.22354394663256,2.22380313347066,2.22481994337399,0,2.22623550225901,2.22623550225901,2.22668409486342,2.22767099859312,0,2.22851834017922,2.23009339865692,2.22972455584885,2.23076130320126,0,2.23109027111116,2.23218683081083,2.23262545469069,2.23311392219327,0,2.23383167036032,2.23470891812006,2.23477869919185,2.23587525889152,0,2.23718116180657,2.23750016099193,2.23821790915898,2.23901540712237,0,2.23968331166672,2.24081974626455,2.24234496111954,2.2421954302514,0,2.24404961301629,2.24615301389474,2.24654179415189,2.2487548510003,0,2.25241337290737,2.25313112107442,2.29625582344487,2.29694366543829,0,2.29822963090426,2.29721282100094,2.29757169508446,2.29710316503097,0,2.2967343222229,2.29645519793571,2.29546829420602,2.29480038966167,0,2.29569757487049,2.29475054603896,2.29382345465652,2.29404276659645,0,2.29436176578181,2.29543838803239,2.29597669915768,2.29579726211591,0,2.29655488518114,2.29766141360534,2.29843897411965,2.29992431407647,0,2.30077165566258,2.30172865321865,2.30312427465458,2.3042806467015,0,2.30574604920923,2.30754041962687,2.30655351589717,2.30645382865175,0,2.30630429778361,2.30978338264891,2.26813405151074,2.2671371790565,0,2.26581133869236,2.26586118231507,2.26697767946382,2.26645930578762,0,2.26679824242206,2.26509359052531,2.26572162017148,2.26679824242206,0,2.26662877410484,2.2664792432367,2.26755586548728,2.26766552145725,0,2.26744620951731,2.26792470829535,2.26854276921698,2.26873217498328,0,2.26902126799501,2.27038698325732,2.26977889106024,2.27031720218553,0,2.27088541948444,2.27144366805882,2.27205176025591,2.27335766317096,0,2.27522181466039,2.27683674803626,2.33071770418796,2.32947161362016,0,2.33073764163704,2.33280116761732,2.33251207460559,2.33367841537705,0,2.33185413878579,2.33073764163704,2.33150523342681,2.32921242678206,0,2.326142059623,2.3263314653893,2.3256735295695,2.32484612543248,0,2.32479628180977,2.32522493696509,2.32571340446767,2.3244972200735,0,2.32526481186326,2.32521496824055,2.32719874442449,2.32794639876517,0,2.3292921765784,2.33030898648172,2.33049839224803,2.33153513960044,0,2.3317145766422,2.33316004170085,2.33272141782098,2.33480488125035,0,2.33313013552722,2.28516063302917,2.28415379185039,2.28327654409065,0,2.28239929633092,2.28095383127227,2.2820404222474,2.27971770942901,0,2.28103358106861,2.28035570779973,2.2804653637697,2.28005664606346,0,2.27959808473451,2.27955820983634,2.27926911682461,2.2793388978964,0,2.27942861641729,2.27902986743559,2.27953827238725,2.27928905427369,0,2.27910961723193,2.28106348724224,2.27976755305173,2.27915946085464,0,2.27916942957918,2.27995695881803,2.27989714647078,2.28004667733891,0,2.28059495718875,2.28103358106861,2.28005664606346,2.28021614565614,0,2.28123295555946,2.28090398764956,2.28161176709207,2.28201051607377,0,2.28225973418733,2.28251892102543,2.28264851444448,2.28316688812069,0,2.28655625446511,2.28650641084239,2.28586841247168,2.28670578533324,0,2.28798178207467,2.35247942986403,2.35069502817094,2.35036606026104,0,2.35149252613433,2.35147258868525,2.35102399608084,2.35608810814838,0,2.35471242416153,2.35473236161061,2.3550114858978,2.3540943632399,0,2.35504139207143,2.35483204885604,2.35553982829855,2.35478220523333,0,2.35567939044214,2.35649682585462,2.35561957809489,2.35669620034547,0,2.35650679457916,2.35664635672276,2.35741394851252,2.3585603518349,0,2.35813169667957,2.35737407361435,2.35699526208174,2.35696535590811,0,2.3575734481052,2.29811997493429,2.29595676170859,2.29492998308073,0,2.29440164067998,2.29320539373489,2.2939829542492,2.29377361103381,0,2.29270695750777
2.2872141902849,2.28936743478606,0,2.22302557295636,2.22391278944063,2.22392275816517,2.22524859852931,0,2.22577694093006,2.22688346935427,2.22690340680335,2.22924605707082,0,2.22894699533455,2.2296647435016,2.23026286697414,2.23053202253679,0,2.23236626785259,2.23160864478737,2.23331329668412,2.23378182673761,0,2.23428026296473,2.23507776092812,2.23515751072446,2.23585532144243,0,2.23691200624393,2.24089949606089,2.23809828446447,2.23872631411064,0,2.24013190427112,2.24078984009092,2.24168702529974,2.24263405413127,0,2.24392998832178,2.24599351430206,2.24779785344423,2.25056915886702,0,2.25252302887733,2.29686391564195,2.29710316503097,2.2968041032947,0,2.29764147615626,2.29897728524494,2.29864831733504,2.29853866136508,0,2.2966645411511,2.29656485390568,2.29770128850351,2.29439167195544,0,2.29466082751808,2.29458107772174,2.29377361103381,2.29496985797889,0,2.29409261021916,2.29485023328439,2.29452126537449,2.29586704318771,0,2.29705332140826,2.29861841116141,2.29963522106474,2.30048256265085,0,2.30119034209336,2.30250621373295,2.30406133476157,2.30458967716232,0,2.30778963774043,2.30859710442836,2.30925504024816,2.30685257763344,0,2.30785941881223,2.30762016942321,2.26827361365433,2.26742627206823,0,2.26574155762056,2.26580136996782,2.26761567783453,2.26808420788803,0,2.26708733543379,2.26612036915317,2.26623002512314,2.26705742926016,0,2.26815398895983,2.2677253338045,2.26759574038545,2.26731661609826,0,2.26816395768437,2.26833342600159,2.26796458319352,2.2692306112104,0,2.26824370748071,2.27034710835915,2.26942001697671,2.27067607626905,0,2.27055645157454,2.27180254214234,2.27232091581855,2.27311841378194,0,2.27488287802595,2.27474331588235,2.27918936702827,2.33182423261217,0,2.33165476429495,2.33310022935359,2.33180429516308,2.33299057338363,0,2.33189401368396,2.33147532725318,2.33059807949345,2.33299057338363,0,2.33149526470227,2.32931211402748,2.32854452223772,2.32638130901201,0,2.32512524971967,2.32566356084496,2.32983048770369,2.32535453038415,0,2.32615202834754,2.32695949503547,2.32710902590361,2.32777693044795,0,2.32944170744653,2.33022923668538,2.3308672350561,2.33200366965393,0,2.33286097996458,2.33269151164736,2.33367841537705,2.33159495194769,0,2.33152517087589,2.33161488939678,2.2840640733295,2.28349585603059,0,2.28272826424082,2.28166161071478,2.28086411275139,2.27996692754257,0,2.28121301811038,2.28048530121878,2.27963795963268,2.28062486336237,0,2.27995695881803,2.28095383127227,2.2794086789682,2.28026598927885,0,2.2805849884642,2.27943858514183,2.28041552014698,2.28182111030746,0,2.28009652096163,2.28050523866786,2.27983733412352,2.27948842876454,0,2.27936880407003,2.28110336214041,2.28094386254773,2.2797376468781,0,2.27997689626712,2.28075445678143,2.2817114543375,2.28074448805688,0,2.2813127053558,2.28159182964299,2.28175132923567,2.28244913995363,0,2.28196067245106,2.28308713832435,2.28219992184007,2.28412388567676,0,2.28414382312584,2.28552947583724,2.28542978859181,2.28697494089589,0,2.3532470216538,2.3516719631761,2.35117352694898,2.35103396480538,0,2.35047571623101,2.35060530965006,2.35418408176078,2.3559983896275,0,2.35591863983116,2.35654666947733,2.35752360448249,2.3560681706993,0,2.35563951554397,2.35569932789123,2.35393486364722,2.3538351764018,0,2.35647688840553,2.35647688840553,2.35735413616527,2.35725444891984,0,2.35762329172791,2.35755351065611,2.35861019545761,2.35831113372134,0,2.358231383925,2.35855038311036,2.35934788107375,2.35673607524364,0,2.29826950580243,2.29986450172922,2.29624585472032,2.29430195343455,0,2.2932552373576,2.29267705133414,2.29282658220228,2.29307580031584,0,2.2935144241957
2.28677556640504,2.28808146932009,0,2.22347416556076,2.2246803812304,2.22420188245236,2.22541806684653,0,2.22645481419894,2.22702303149786,2.22757131134769,2.22773081094037,0,2.22837877803563,2.22913640110085,2.23009339865692,2.23129961432655,0,2.23131955177564,2.23247592382256,2.23382170163578,2.23414070082114,0,2.23544660373619,2.23555625970616,2.23492823005999,2.2362241642505,0,2.23775934783003,2.23783909762637,2.23854687706888,2.23952381207404,0,2.23974312401397,2.24030137258834,2.24222533642503,2.24342158337012,0,2.24484711097968,2.2450863603687,2.24728944849257,2.25031994075346,0,2.25345012025978,2.29900719141857,2.29783088192257,2.29750191401267,0,2.29820969345518,2.29794053789253,2.2991567222867,2.29757169508446,0,2.29775113212623,2.29622591727124,2.29543838803239,2.29513932629612,0,2.2954882316551,2.29497982670344,2.29518916991883,2.2945013279254,0,2.29462095261991,2.2954184505833,2.29632560451666,2.29645519793571,0,2.29702341523463,2.29800035023979,2.29926637825667,2.30028318816,0,2.30140965403329,2.30266571332563,2.30322396190001,2.30463952078503,0,2.306513640999,2.30863697932653,2.3105808806123,2.30622454798727,0,2.3051977693594,2.30654354717263,2.27092529438261,2.26600074445867,0,2.26597083828504,2.26593096338687,2.26638952471582,2.26623999384768,0,2.26535277736341,2.26696771073928,2.26591102593778,2.26740633461914,0,2.26725680375101,2.2673963658946,2.26742627206823,2.26764558400816,0,2.26843311324701,2.2686424564624,2.26866239391149,2.26867236263603,0,2.26902126799501,2.26993839065292,2.26975895361115,2.2717925734178,0,2.27137388698702,2.2708754507599,2.27215144750133,2.27232091581855,0,2.27410531751164,2.27730527808975,2.27648784267728,2.33155507704952,0,2.33126598403779,2.33213326307298,2.3324422935338,2.33189401368396,0,2.331784357714,2.33158498322315,2.32968095683555,2.32998998729636,0,2.32965105066192,2.32833517902233,2.32758752468164,2.32697943248456,0,2.32604237237757,2.32737818146625,2.32643115263473,2.32663052712557,0,2.32694952631093,2.326730214371,2.32803611728605,2.32781680534612,0,2.32893330249487,2.33071770418796,2.3313158276605,2.33242235608471,0,2.33229276266566,2.33348900961075,2.33261176185102,2.32937192637474,0,2.32958126959013,2.33254198077922,2.28425347909581,2.28526032027459,0,2.28235942143275,2.28191082882834,2.28067470698509,2.28067470698509,0,2.28000680244074,2.28086411275139,2.27986724029715,2.28055508229058,0,2.27927908554915,2.27997689626712,2.28123295555946,2.27993702136895,0,2.28048530121878,2.2797376468781,2.27968780325539,2.28010648968617,0,2.27997689626712,2.27963795963268,2.28049526994332,2.28052517611695,0,2.27996692754257,2.28026598927885,2.2805849884642,2.28102361234407,0,2.28173139178658,2.28011645841071,2.28086411275139,2.28111333086495,0,2.28133264280488,2.2816416732657,2.28169151688841,2.28189089137926,0,2.28388463628774,2.28330645026428,2.28360551200055,2.28348588730604,0,2.28411391695222,2.28555938201086,2.28616747420795,2.28764284544023,0,2.35262896073217,2.3514626199607,2.35007696724931,2.34999721745297,0,2.35882950739754,2.35703513697991,2.35567939044214,2.35553982829855,0,2.35636723243557,2.35721457402167,2.35557970319672,2.35552985957401,0,2.35607813942384,2.3569852933572,2.35657657565096,2.35953728684005,0,2.35520089166411,2.35708498060262,2.35768310407517,2.35811175923049,0,2.35892919464297,2.36073353378514,2.358819538673,2.35964694281002,0,2.35862016418215,2.35803200943415,2.35932794362466,2.35710491805171,0,2.3569852933572,2.30017353219003,2.29644522921117,2.29406270404554,0,2.29479042093713,2.29436176578181,2.29370382996201,2.29357423654296,0,2.29341473695028
2.28818115656552,2.28881915493623,0,2.22377322729704,2.22516884873297,2.22490966189487,2.22701306277332,0,2.22688346935427,2.22709281256966,2.22735199940776,2.2292659945199,0,2.22883733936458,2.23056192871042,2.23080117809943,2.23071145957855,0,2.23147905136832,2.2331438283669,2.23339304648046,2.23339304648046,0,2.23534691649077,2.23540672883802,2.23607463338237,2.23725094287837,0,2.23755997333918,2.23676247537579,2.23892568860149,2.23955371824766,0,2.2405505907019,2.24161724422794,2.24122846397079,2.24366083275914,0,2.24494679822511,2.2460732640984,2.24844582053949,2.25056915886702,0,2.25487564786934,2.29554804400235,2.29914675356216,2.29735238314453,0,2.29888756672406,2.29925640953213,2.29832931814969,2.29780097574894,0,2.296405354313,2.29629569834303,2.29796047534162,2.2955580127269,0,2.29590691808588,2.2945013279254,2.29511938884703,2.29551813782873,0,2.29566766869686,2.29518916991883,2.29649507283388,2.29644522921117,0,2.29721282100094,2.29892744162223,2.29991434535193,2.30029315688454,0,2.30154921617688,2.30332364914543,2.30490867634767,2.30546692492205,0,2.3069123899807,2.3083478863148,2.31000269458884,2.31103944194125,0,2.30405136603703,2.26951970422213,2.26795461446898,2.2668082111466,0,2.26660883665575,2.26618018150043,2.26610043170409,2.26656896175758,0,2.26583127614144,2.26578143251873,2.26669855517663,2.26748608441548,0,2.26614030660226,2.26648921196124,2.26846301942064,2.2670673979847,0,2.26788483339718,2.26824370748071,2.26850289431881,2.26869230008511,0,2.26940007952763,2.26942998570125,2.26965926636573,2.27001814044925,0,2.2708056696881,2.27205176025591,2.27215144750133,2.27308850760832,0,2.27422494220615,2.27580000068385,2.2777638394187,2.33187407623488,0,2.3342765388496,2.3320435445521,2.33272141782098,2.33345910343712,0,2.3330304482818,2.33116629679237,2.33085726633155,2.33090710995427,0,2.32964108193738,2.32980058153006,2.32766727447798,2.32802614856151,0,2.32787661769337,2.32677008926917,2.3269894012091,2.32942176999745,0,2.32746789998714,2.33437622609502,2.32436762665445,2.33081739143338,0,2.32426793940902,2.32371965955919,2.33511391171116,2.33508400553753,0,2.33449585078953,2.33447591334045,2.32756758723256,2.32781680534612,0,2.32873392800402,2.33181426388762,2.28414382312584,2.28341610623425,0,2.28299741980347,2.2822298280137,2.28111333086495,2.28048530121878,0,2.28052517611695,2.28018623948251,2.27990711519532,2.28232951525912,0,2.28066473826054,2.27991708391986,2.2790099299865,2.27976755305173,0,2.28018623948251,2.28001677116529,2.28049526994332,2.28035570779973,0,2.280066614788,2.28024605182976,2.27912955468101,2.28017627075797,0,2.28067470698509,2.27985727157261,2.28027595800339,2.2809837374459,0,2.28154198602028,2.28042548887153,2.28409397950313,2.28117314321221,0,2.28185101648109,2.28202048479831,2.2823693901573,2.28242920250455,0,2.28286782638442,2.28254882719906,2.28344601240787,2.28477185277201,0,2.28462232190388,2.28741356477575,2.28674566023141,2.28981602739047,0,2.35056543475189,2.34998724872843,2.35969678643273,2.34990749893209,0,2.35843075841585,2.3556694217176,2.35467254926336,2.35521086038865,0,2.35586879620845,2.35555976574763,2.35528064146045,2.35590867110662,0,2.35752360448249,2.35621770156743,2.35744385468615,2.35696535590811,0,2.35887935102025,2.35876969505029,2.35867997652941,2.35895910081659,0,2.35877966377483,2.35938775597192,2.36028494118073,2.35930800617558,0,2.35833107117042,2.35867000780486,2.35946750576826,2.29817978728155,0,2.29559788762507,2.29599663660676,2.29485023328439,2.29441160940452,0,2.29369386123747,2.29442157812906,2.29335492460303,2.2942421410873,0,2.2931854562858
0,0,0,0,0,0,0,0,0,0,0,0,0,0,0,0,0,0,0,0,0,0,0,0,0,0,0,0,0,0,0,0,0,0,0,0,0,0,0,0,0,0,0,0,0,0,0,0,0,0,0,0,0,0,0,0,0,0,0,0,0,0,0,0,0,0,0,0,0,0,0,0,0,0,0,0,0,0,0,0,0,0,0,0,0,0,0,0,0,0,0,0,0,0,0,0,0,0,0,0,0,0,0,0,0,0,0,0,0,0,0,0,0,0,0,0,0,0,0,0,0,0,0,0,0,0,0,0,0,0,0,0,0,0,0,0,0,0,0,0,0,0,0,0,0,0,0,0,0,0,0,0,0,0,0,0,0,0,0,0,0,0,0,0,0,0,0,0,0,0,0,0,0,0,0,0,0,0,0,0,0,0,0,0,0,0,0,0,0,0,0,0,0,0,0,0,0,0,0,0,0,0,0,0,0,0,0,0,0,0,0,0,0,0,0,0,0,0,0,0,0,0,0,0,0,0,0,0,0,0,0,0,0,0,0,0,0,0,0,0,0,0,0,0,0,0,0,0,0,0,0,0,0,0,0,0,0,0,0
2.28708459686585,2.22652459527074,0,2.22693331297698,2.22425172607507,2.22433147587141,2.22599625286999,0,2.22735199940776,2.22778065456308,2.22814949737115,2.22882737064004,0,2.2290068076818,2.22995383651333,2.23047221018953,2.23161861351191,0,2.2318977377991,2.23291454770242,2.23302420367239,2.23393135760575,0,2.23410082592297,2.23485844898819,2.23664285068128,2.23660297578311,0,2.23605469593328,2.23808831573993,2.23891571987695,2.23994249850482,0,2.24097924585723,2.24148765080889,2.24288327224483,2.24453808051887,0,2.24516611016504,2.24761841640247,2.24840594564132,2.25081837698058,0,2.25232365438649,2.29913678483762,2.29958537744203,2.30040281285451,0,2.29939597167572,2.29883772310135,2.29736235186907,2.29804022513796,0,2.29775113212623,2.29672435349836,2.29604648022947,2.29567763742141,0,2.29605644895402,2.29526891971517,2.29521907609246,2.29527888843971,0,2.29527888843971,2.29529882588879,2.29599663660676,2.29703338395917,0,2.29763150743172,2.29942587784935,2.2999542202501,2.30058224989627,0,2.30224702689485,2.30328377424726,2.30400152241431,2.30567626813744,0,2.30639401630449,2.30781954391405,2.3089360410628,2.31055097443867,0,2.31167744031197,2.27015770259285,2.26799448936715,2.26679824242206,0,2.26646927451216,2.26566180782422,2.26578143251873,2.26651911813487,0,2.26714714778104,2.2667384300748,2.26644933706307,2.26623002512314,0,2.26634964981765,2.26782502104993,2.26784495849901,2.2674661469664,0,2.26869230008511,2.26862251901332,2.26855273794152,2.26884183095325,0,2.26883186222871,2.26954961039576,2.27041688943095,2.26989851575475,0,2.27133401208885,2.27213151005224,2.27229100964492,2.27392588046988,0,2.2746835035351,2.27565046981571,2.27782365176596,2.27889030529199,0,2.33294072976092,2.33388775859244,2.33426657012506,2.33437622609502,0,2.33288091741366,2.33279119889278,2.33172454536674,2.33331954129353,0,2.33044854862531,2.3309868597506,2.32992020622457,2.32977067535643,0,2.3283052728487,2.3281657107051,2.3289632086685,2.32779686789704,0,2.33080742270884,2.33070773546342,2.32431778303174,2.33276129271915,0,2.33457560058587,2.33781543606215,2.33882227724094,2.32059944877742,0,2.33593134712364,2.3382739973911,2.33790515458303,2.32873392800402,0,2.32930214530294,2.3373568747332,2.28409397950313,2.28252888974997,0,2.28442294741303,2.28168154816387,2.28162173581661,2.28084417530231,0,2.28153201729573,2.28101364361953,2.28008655223708,2.28026598927885,0,2.2802560205543,2.28052517611695,2.2799968337162,2.28041552014698,0,2.27991708391986,2.28026598927885,2.28070461315871,2.28086411275139,0,2.280066614788,2.28016630203342,2.28020617693159,2.28083420657776,0,2.28056505101512,2.28087408147593,2.280654769536,2.28099370617044,0,2.28159182964299,2.28126286173309,2.28158186091845,2.28178123540929,0,2.28260863954631,2.28238932760638,2.28266845189357,2.28300738852801,0,2.28363541817418,2.28370519924598,2.28346594985696,2.28458244700571,0,2.28521047665188,2.28642666104605,2.28737368987758,2.29029452616851,0,2.35314733440837,2.35007696724931,2.35668623162093,2.3575734481052,0,2.35663638799821,2.35504139207143,2.35531054763407,2.35603826452567,0,2.35657657565096,2.35537035998133,2.35644698223191,2.35925816255287,0,2.35858028928398,2.3580918217814,2.35831113372134,2.35935784979829,0,2.35925816255287,2.35945753704371,2.35948744321734,2.35941766214554,0,2.3591485065829,2.36016531648623,2.3598762234745,2.35990612964812,0,2.35845069586493,2.35885941357117,2.35579901513665,2.29773119467714,0,2.29825953707789,2.29616610492398,2.29428201598547,2.29338483077665,0,2.29370382996201,2.29313561266309,2.29363404889021,2.29408264149462,0,2.29344464312391
2.22570715985826,2.22739187430593,0,2.22642490802532,2.22311529147724,2.22505919276301,2.22498941169121,0,2.22683362573156,2.22744171792864,2.22828905951475,2.2290765887536,0,2.22944543156167,2.22916630727448,2.23085102172214,2.23078124065035,0,2.23202733121815,2.23270520448703,2.2337319831149,2.23440985638378,0,2.2349780736827,2.23626403914867,2.23586529016697,2.23657306960949,0,2.2368123189985,2.23808831573993,2.23887584497878,2.23889578242787,0,2.24032131003743,2.24213561790415,2.24371067638185,2.24478729863243,0,2.24579413981121,2.24695051185813,2.24913366253292,2.2507286584597,0,2.25335043301435,2.29803025641341,2.29918662846033,2.29946575274752,0,2.29992431407647,2.29882775437681,2.29866825478413,2.29745207038995,0,2.296405354313,2.29649507283388,2.2968041032947,2.29639538558846,0,2.29503963905069,2.29481035838622,2.29469073369171,2.2950894826734,0,2.2970632901328,2.29582716828954,2.29635551069029,2.29800035023979,0,2.29845891156874,2.3002134070882,2.30141962275783,2.30202771495492,0,2.30290496271465,2.30400152241431,2.30538717512571,2.30569620558652,0,2.30695226487887,2.30755038835141,2.30847747973385,2.30957403943352,0,2.31109925428851,2.26913092396498,2.27308850760832,2.26639949344036,0,2.26585121359053,2.26585121359053,2.26613033787772,2.2662200563986,0,2.2667384300748,2.26714714778104,2.26646927451216,2.26648921196124,0,2.26849292559427,2.26766552145725,2.26883186222871,2.26855273794152,0,2.26792470829535,2.26834339472613,2.26966923509027,2.26949976677305,0,2.27106485652621,2.27001814044925,2.27056642029909,2.27032717091007,0,2.27109476269983,2.27176266724418,2.27236079071672,2.27386606812262,0,2.27411528623618,2.27536137680398,2.27657756119816,2.27898999253742,0,2.33426657012506,2.3361107841654,2.33505409936391,2.33555253559103,0,2.33699800064967,2.33759612412222,2.33374819644885,2.33143545235501,0,2.33066786056525,2.3314553898041,2.32918252060843,2.32880370907582,0,2.33004979964362,2.32867411565677,2.32901305229121,2.32904295846484,0,2.33050836097257,2.33096692230152,2.33349897833529,2.3348646935976,0,2.33447591334045,2.33741668708046,2.3379450294812,2.33807462290026,0,2.33932071346806,2.33857305912738,2.3372870936614,2.33845343443287,0,2.33905155790541,2.33310022935359,2.2843930412394,2.28340613750971,0,2.2844628223112,2.28376501159323,2.281831079032,2.28147220494848,0,2.28161176709207,2.28109339341587,2.28118311193675,2.28031583290156,0,2.28089401892502,2.28087408147593,2.27965789708176,2.28011645841071,0,2.28053514484149,2.28036567652427,2.28177126668475,2.2809837374459,0,2.28089401892502,2.28064480081146,2.28053514484149,2.28189089137926,0,2.28071458188326,2.28118311193675,2.28149214239756,2.28099370617044,0,2.28115320576312,2.2813127053558,2.28212017204373,2.28207032842102,0,2.28261860827085,2.28316688812069,2.28270832679174,2.28378494904232,0,2.28372513669506,2.28360551200055,2.28516063302917,2.2859680997171,0,2.28536997624456,2.28744347094938,2.2876827203384,2.35420401920987,0,2.35775288514696,2.35568935916668,2.35154236975704,2.35679588759089,0,2.35590867110662,2.35565945299306,2.35555976574763,2.35621770156743,0,2.35556973447218,2.35561957809489,2.35710491805171,2.3562575764656,0,2.35934788107375,2.35835100861951,2.35934788107375,2.35958713046277,0,2.36047434694704,2.35972669260636,2.36113228276684,2.3603945971507,0,2.36067372143789,2.36060394036609,2.36001578561809,2.3596668802591,0,2.35932794362466,2.35933791234921,2.30040281285451,2.29751188273721,0,2.29549820037964,2.2954882316551,2.29517920119429,2.29430195343455,0,2.29399292297374,2.29340476822574,2.29394307935103,2.29388326700377,0,2.2936539863393
2.22356388408165,2.22385297709338,0,2.22415203882965,2.2254579417447,2.22516884873297,2.22601619031908,0,2.22723237471325,2.22714265619237,2.22786040435942,2.22882737064004,0,2.22944543156167,2.23052205381225,2.23078124065035,2.23147905136832,0,2.23231642422988,2.23325348433686,2.2341307320966,2.23443976255741,0,2.23494816750907,2.2356360095025,2.23583538399335,2.23677244410033,0,2.23795872232088,2.23929453140956,2.23943409355316,2.23952381207404,0,2.24063034049824,2.24154746315615,2.2432521150529,2.24528573485955,0,2.24619288879291,2.24791747813874,2.24876481972485,2.25182521815937,0,2.25346008898432,2.30107071739885,2.29945578402298,2.30038287540542,0,2.29942587784935,2.29938600295118,2.2996252523402,2.29804022513796,0,2.29738228931816,2.29745207038995,2.29610629257673,2.29703338395917,0,2.29517920119429,2.29559788762507,2.29511938884703,2.29657482263022,0,2.29612623002581,2.29602654278039,2.29786078809619,2.29775113212623,0,2.29918662846033,2.29996418897464,2.30059221862081,2.30222708944577,0,2.30313424337912,2.30403142858794,2.30600523604734,2.30666317186714,0,2.30805879330307,2.30797904350673,2.30816844927304,2.30711176447154,0,2.30669307804076,2.26920070503678,2.26799448936715,2.26588111976416,0,2.26612036915317,2.26678827369752,2.2665490243085,2.26666864900301,0,2.26624996257223,2.26625993129677,2.26741630334369,2.2683134885525,0,2.26694777329019,2.26726677247555,2.26810414533711,2.26794464574443,0,2.2683832696243,2.26935023590491,2.26873217498328,2.26952967294668,0,2.26919073631224,2.26932032973129,2.27034710835915,2.27125426229251,0,2.27166297999875,2.27326794465008,2.27264988372845,2.2727096960757,0,2.27480312822961,2.27576012578568,2.27718565339524,2.27817255712494,0,2.33607090926723,2.33543291089652,2.33605097181815,2.33619053396174,0,2.3358515973273,2.33440613226865,2.33323979149719,2.3323027313902,0,2.33377810262248,2.33275132399461,2.33073764163704,2.33065789184071,0,2.33141551490593,2.3307276729125,2.32969092556009,2.32952145724287,0,2.33090710995427,2.33102673464877,2.3314553898041,2.33371829027522,0,2.33494444339394,2.3366989389134,2.34027771102413,2.33883224596548,0,2.33831387228927,2.33755624922405,2.33691825085334,2.34194248802271,0,2.33843349698378,2.33972943117429,2.28869953024172,2.28506094578374,0,2.28324663791703,2.28223979673824,2.28381485521594,2.2813824864276,0,2.28152204857119,2.280654769536,2.28069464443417,2.28101364361953,0,2.28094386254773,2.28079433167959,2.2805849884642,2.28027595800339,0,2.28108342469132,2.28084417530231,2.28096379999682,2.28136254897851,0,2.28070461315871,2.2803258016261,2.28168154816387,2.28155195474482,0,2.28184104775655,2.28103358106861,2.28122298683492,2.28263854571994,0,2.2826285769954,2.28201051607377,2.28178123540929,2.28323666919248,0,2.28301735725255,2.28335629388699,2.2838048864914,2.2842036354731,0,2.28398432353316,2.28444288486211,2.28533010134639,2.28541981986727,0,2.28590828736985,2.28704472196768,2.35643701350737,2.35560960937035,0,2.35620773284289,2.35562954681943,2.35486195502967,2.35668623162093,0,2.35509123569414,2.35555976574763,2.36184006220935,2.35866003908032,0,2.35683576248906,2.35678591886635,2.35901891316385,2.35956719301368,0,2.35922825637924,2.35935784979829,2.35935784979829,2.35992606709721,0,2.36103259552141,2.36142137577857,2.36187993710752,2.36283693466359,0,2.36191981200569,2.36156093792216,2.36077340868331,2.35990612964812,0,2.36025503500711,2.36056406546792,2.29838913049694,2.29958537744203,0,2.29539851313422,2.29564773124778,2.29436176578181,2.29408264149462,0,2.29307580031584,2.29367392378838,2.29369386123747,2.29400289169828,0,2.29354433036933
2.222118419023,2.22414207010511,0,2.22426169479961,2.22474019357765,2.22605606521725,2.22616572118721,0,2.22741181175501,2.22766102986857,2.22880743319095,2.2294055566635,0,2.23114011473387,2.23092080279394,2.23104042748845,2.2311700209075,0,2.23173823820642,2.23262545469069,2.23348276500134,2.23437995021016,0,2.23491826133545,2.23658303833403,2.23795872232088,2.23718116180657,0,2.2377992227282,2.23820794043444,2.24082971498909,2.24068018412096,0,2.2415374944316,2.24178671254516,2.24437858092619,2.2444284245489,0,2.24684085588816,2.24831622712044,2.2509878452978,2.25231368566194,0,2.29967509596291,2.30035296923179,2.29972493958562,2.30018350091457,0,2.30015359474095,2.29907697249037,2.29926637825667,2.29844894284419,0,2.29690379054012,2.29797044406616,2.29655488518114,2.29652497900751,0,2.29575738721775,2.29571751231958,2.29592685553497,2.29617607364853,0,2.29642529176209,2.2964751353848,2.29727263334819,2.29945578402298,0,2.29950562764569,2.30001403259735,2.30107071739885,2.30306446230733,0,2.30616473564002,2.30396164751614,2.30985316372071,2.30682267145981,0,2.3075005447287,2.30839772993751,2.30924507152362,2.31098959831854,0,2.30896594723643,2.26886176840234,2.26815398895983,2.26761567783453,0,2.26752595931365,2.26562193292605,2.26635961854219,2.26617021277589,0,2.26576149506965,2.26693780456565,2.26710727288287,2.26762564655908,0,2.26778514615176,2.26730664737372,2.26806427043894,2.26827361365433,0,2.26889167457596,2.26865242518695,2.26918076758769,2.26997826555109,0,2.26990848447929,2.26891161202505,2.27059632647271,2.27111470014892,0,2.27129413719068,2.27232091581855,2.27365672490723,2.27423491093069,0,2.27507228379225,2.2766573109945,2.27634828053368,2.27866102462752,0,2.33452575696316,2.3346055067595,2.33590144095001,2.33566219156099,0,2.3357818162555,2.33561234793828,2.33461547548404,2.33348900961075,0,2.33360863430526,2.33144542107956,2.33249213715651,2.33044854862531,0,2.33094698485244,2.33076754781067,2.33139557745684,2.33259182440193,0,2.33134573383413,2.33333947874261,2.33317001042539,2.33474506890309,0,2.33521359895658,2.33687837595517,2.33721731258961,2.33918115132446,0,2.33963971265341,2.33814440397205,2.33769581136764,2.33813443524751,0,2.33932071346806,2.33820421631931,2.28539988241819,2.28383479266503,0,2.28251892102543,2.28169151688841,2.28256876464814,2.28207032842102,0,2.28078436295505,2.28146223622394,2.28080430040414,2.28104354979315,0,2.28064480081146,2.28049526994332,2.28114323703858,2.28158186091845,0,2.28081426912868,2.28059495718875,2.2813127053558,2.28059495718875,0,2.28057501973966,2.28073451933234,2.28137251770305,2.28186098520563,0,2.28146223622394,2.28090398764956,2.28296751362984,2.28280801403716,0,2.28428338526944,2.28239929633092,2.28330645026428,2.2844628223112,0,2.28290770128258,2.28271829551628,2.28434319761669,2.28358557455147,0,2.28442294741303,2.28358557455147,2.28502107088557,2.28632697380063,0,2.28673569150687,2.28810140676918,2.29068330642566,2.35270871052851,0,2.3557392027894,2.35473236161061,2.35460276819156,2.35532051635862,0,2.35561957809489,2.3618998745566,2.36002575434263,2.35941766214554,0,2.35887935102025,2.36047434694704,2.36026500373165,2.35941766214554,0,2.35962700536093,2.35985628602541,2.36184006220935,2.36168056261667,0,2.36059397164155,2.36146125067674,2.36151109429945,2.36180018731118,0,2.36193974945477,2.36223881119105,2.36113228276684,2.36111234531775,0,2.36052419056975,2.30273549439743,2.29810003748521,2.29656485390568,0,2.29613619875036,2.29337486205211,2.29497982670344,2.29395304807557,0,2.29349448674662,2.29488013945801,2.29380351720743,2.29356426781842,0,2.29441160940452
0,0,0,0,0,0,0,0,0,0,0,0,0,0,0,0,0,0,0,0,0,0,0,0,0,0,0,0,0,0,0,0,0,0,0,0,0,0,0,0,0,0,0,0,0,0,0,0,0,0,0,0,0,0,0,0,0,0,0,0,0,0,0,0,0,0,0,0,0,0,0,0,0,0,0,0,0,0,0,0,0,0,0,0,0,0,0,0,0,0,0,0,0,0,0,0,0,0,0,0,0,0,0,0,0,0,0,0,0,0,0,0,0,0,0,0,0,0,0,0,0,0,0,0,0,0,0,0,0,0,0,0,0,0,0,0,0,0,0,0,0,0,0,0,0,0,0,0,0,0,0,0,0,0,0,0,0,0,0,0,0,0,0,0,0,0,0,0,0,0,0,0,0,0,0,0,0,0,0,0,0,0,0,0,0,0,0,0,0,0,0,0,0,0,0,0,0,0,0,0,0,0,0,0,0,0,0,0,0,0,0,0,0,0,0,0,0,0,0,0,0,0,0,0,0,0,0,0,0,0,0,0,0,0,0,0,0,0,0,0,0,0,0,0,0,0,0,0,0,0,0,0,0,0,0,0,0,0,0
2.22268663632192,2.22363366515344,0,2.22501931786484,2.22482991209853,2.22579687837915,2.22696321915061,0,2.22733206195868,2.22799996650302,2.22886724553821,2.22994386778879,0,2.22943546283712,2.23063170978221,2.23204726866723,2.23188776907455,0,2.23266532958886,2.23384163908487,2.23345285882771,2.23485844898819,0,2.23513757327538,2.23585532144243,2.23700172476481,2.23782912890183,0,2.238457158548,2.23881603263153,2.23925465651139,2.2407599339173,0,2.24142783846164,2.24203593065872,2.24453808051887,2.24693057440904,0,2.24754863533067,2.24795735303691,2.25042959672343,2.25347005770886,0,2.2966645411511,2.29912681611308,2.29983459555559,2.30024331326183,0,2.30221712072122,2.2987081296823,2.30031309433362,2.29884769182589,0,2.29876794202955,2.29893741034677,2.29843897411965,2.29660472880385,0,2.29590691808588,2.2968041032947,2.29598666788222,2.29660472880385,0,2.29693369671375,2.29716297737822,2.29818975600609,2.29851872391599,0,2.29960531489111,2.30055234372264,2.30149937255417,2.30339343021723,0,2.30416102200699,2.30610492329276,2.30669307804076,2.30785941881223,0,2.3075703258005,2.30835785503935,2.30826813651846,2.31050113081596,0,2.26907111161773,2.26963932891664,2.26763561528362,2.26776520870267,0,2.26741630334369,2.26715711650558,2.2662200563986,2.26697767946382,0,2.26755586548728,2.26658889920667,2.26752595931365,2.26677830497297,0,2.26784495849901,2.26832345727705,2.26803436426532,2.26888170585142,0,2.26888170585142,2.26866239391149,2.26953964167122,2.26949976677305,0,2.26973901616207,2.26989851575475,2.27036704580824,2.27088541948444,0,2.27110473142438,2.27147357423245,2.27220129112404,2.27334769444642,0,2.27420500475707,2.27535140807944,2.27740496533518,2.27848158758576,0,2.33444600716682,2.3342067577778,2.33463541293313,2.33635003355442,0,2.33620050268628,2.33566219156099,2.33487466232214,2.33339929108987,0,2.33360863430526,2.33344913471258,2.33255194950376,2.3321133256239,0,2.33162485812132,2.33129589021142,2.33349897833529,2.3317145766422,0,2.33416688287963,2.33489459977123,2.33447591334045,2.33442606971773,0,2.33566219156099,2.33679862615883,2.33720734386507,2.33759612412222,0,2.33851324678012,2.33859299657646,2.33835374718744,2.33803474800209,0,2.33622044013537,2.33641981462622,2.28578866267534,2.2851905392028,0,2.28416376057493,2.28440300996395,2.28371516797052,2.28240926505546,0,2.28228964036096,2.28189089137926,2.28140242387668,2.28139245515214,0,2.28125289300855,2.28083420657776,2.28102361234407,2.28068467570963,0,2.28162173581661,2.28114323703858,2.28113326831404,2.28066473826054,0,2.28128279918217,2.28205039097194,2.28206035969648,2.28112329958949,0,2.28272826424082,2.28242920250455,2.28253885847452,2.28265848316902,0,2.28245910867818,2.28326657536611,2.28315691939614,2.28315691939614,0,2.28494132108924,2.28465222807751,2.2840640733295,2.28502107088557,0,2.28471204042476,2.2844628223112,2.28543975731636,2.28517060175371,0,2.28804159442192,2.28739362732667,2.35410433196444,2.35424389410804,0,2.35457286201794,2.35428376900621,2.35430370645529,2.35470245543699,0,2.3613815008804,2.35944756831917,2.359995848169,2.36129178235952,0,2.36025503500711,2.36059397164155,2.36103259552141,2.35972669260636,0,2.3598762234745,2.36102262679687,2.36202946797565,2.36240827950827,0,2.3617104687903,2.3619696556284,2.36283693466359,2.36259768527457,0,2.36254784165186,2.36166062516759,2.3624880293046,2.36110237659321,0,2.36218896756833,2.2976514448808,2.29618604237307,2.29768135105443,0,2.29414245384188,2.29312564393855,2.29437173450635,2.29399292297374,0,2.29436176578181,2.29408264149462,2.29472063986533,2.29427204726093,0,2.29449135920086
