2.32115927565173,2.32115927565173,2.32184730131532,2.32217635706746,2.32150827417674,2.32148833140388,2.32198690072532,2.32214644290818,2.32399114939749,2.32342278037105,2.32408089187535,2.32432020514964,2.32472903199322,2.32518771576894,2.32595551252395,2.32657373848253,2.32764067683041,2.3279497898097,2.32832870249399,2.32797970396898,2.32976458213972,2.329166298954,2.32986429600401,2.33152951753761,2.32900675677114,2.32890704290685,2.33167908833404,2.27741480338891,2.27674672049819,2.27715554734176,2.27481227153101,2.27439347330101,2.273765275956,2.27384504704743,2.27325673524813,2.2730373647467,2.27314704999742,2.27381513288814,2.27394476091172,2.273765275956,2.27486212846316,2.27453307271101,2.27454304409744,2.27476241459887,2.27490201400887,2.27575955324174,2.27569972492317,2.27565983937746,2.27583932433317,2.27624815117675,2.27645755029175,2.27662706386104,2.27720540427391,2.2778635157782,2.27795325825606,2.27830225678107,2.27904013937679,2.27927945265108,2.28047601902253,2.28097458834397,2.28209138362398,2.28366686267972,2.28504291400689,2.28648876503905,2.34858058833073,2.34853073139859,2.34771307771143,2.3482216184193,2.34990678272575,2.35168168951006,2.35179137476078,2.35191103139793,2.35139251930363,2.35185120307935,2.35192100278435,2.35159194703221,2.35262897122079,2.35212043051293,2.35241957210579,2.35234977240079,2.35342668213509,2.35346656768081,2.35334691104366,2.35317739747437,2.35382553759224,2.35400502254796,2.35361613847724,2.35301785529151,2.35605912815228,2.35424433582225,2.35066460809433,2.34878998744573,2.35069452225362,2.34996661104432,2.28813404379979,2.28662836444905,2.28547168362332,2.28628933731048,2.28551156916904,2.2848036007326,2.28449448775331,2.28478365795974,2.28463408716331,2.28549162639618,2.28465402993617,2.2840756895233,2.2851525992576,2.28451443052616,2.2843548883433,2.28454434468545,2.28545174085046,2.28610985235476,2.2856711113519,2.28444463082116,2.28523237034903,2.28511271371189,2.28819387211836,2.28590045323976,2.28697736297406,2.28548165500975,2.28618962344619,2.28632922285619,2.28644887949334,2.28714687654335,2.28741610397692,2.28852292787051,2.28755570338693,2.28880212669052,2.2888320408498,2.2886226417348,2.29016820663125,2.29006849276697,2.29026792049554,2.29094597477269,2.29089611784055,2.29198299896128,2.29218242668986,2.29329922196987,2.29461544497846,2.29646015146778,2.29582198273634,2.29746726149708,2.36011748242877,2.36140379127807,2.36606042874029,2.36550203110028,2.36604048596743,2.36621997092315,2.366170113991,2.36716725263388,2.36831396207318,2.36916152991962,2.36904187328248,2.36913161576033,2.37055752401964,2.36985952696963,2.3705076670875,2.37041792460964,2.37133529216108,2.37090652254465,2.37323982696897,2.3733195980604,2.37248200160039,2.37416716590684,2.37957165735121,2.375194218709,2.37729818124546,2.37758735145189,2.3803992824248,2.38121693611195,2.38298187150984,2.38310152814698,2.38521546206987,2.38738922431133,2.38671117003418,2.38738922431133
2.32078036296744,2.32067067771673,2.32105956178745,2.32054104969315,2.32090001960459,2.32068064910315,2.32130884644816,2.32138861753959,2.32176753022389,2.32219629984032,2.32324329541534,2.32330312373391,2.32341280898463,2.32487860278965,2.32506805913179,2.3253472579518,2.32693270839397,2.32783013317255,2.32732159246469,2.32797970396898,2.32854807299542,2.32848824467685,2.32955518302472,2.32570622786323,2.32587574143252,2.32634439659467,2.32495837388108,2.32689282284825,2.27711566179605,2.27496184232744,2.27382510427457,2.27561995383174,2.27380516150171,2.27511141312388,2.27399461784386,2.27399461784386,2.27375530456957,2.27355587684099,2.27399461784386,2.27385501843386,2.273765275956,2.27486212846316,2.27459290102958,2.27496184232744,2.27622820840389,2.27526098392031,2.27537066917102,2.27608860899389,2.27606866622103,2.27631795088175,2.27635783642747,2.27639772197318,2.27628803672247,2.27951876592537,2.2778635157782,2.27846179896393,2.27919968155965,2.27970822226752,2.28103441666254,2.2823406682847,2.2824104679897,2.28767536002407,2.28616968067333,2.3430165547035,2.34791250544001,2.34376440868566,2.34818173287358,2.34886975853716,2.34939824201789,2.35178140337435,2.35144237623578,2.35167171812364,2.35109337771077,2.35082415027719,2.35081417889077,2.35208054496721,2.35104352077863,2.35234977240079,2.35088397859577,2.35122300573434,2.35213040189936,2.35278851340365,2.35416456473082,2.35302782667794,2.35285831310865,2.35253922874293,2.35295802697294,2.3532571685658,2.35228994408222,2.34999652520361,2.34902930072002,2.3490891290386,2.34982701163432,2.35092386414148,2.28734630427192,2.28618962344619,2.28692750604192,2.28526228450832,2.28499305707474,2.28469391548188,2.28613976651405,2.28503294262046,2.28464405854974,2.28523237034903,2.28544176946404,2.2843548883433,2.2856013116469,2.28535202698618,2.28417540338759,2.28394606149973,2.28401586120473,2.28401586120473,2.28411557506902,2.28449448775331,2.28519248480332,2.28518251341689,2.28541185530475,2.28537196975903,2.28538194114546,2.28540188391832,2.28605002403619,2.2895599520591,2.28623948037833,2.28678790663191,2.28666824999477,2.28693747742834,2.28749587506835,2.28766538863764,2.28781495943407,2.28954000928624,2.28968958008267,2.29008843553982,2.29006849276697,2.28999869306196,2.29058700486126,2.29228214055414,2.29228214055414,2.29224225500843,2.29430633199917,2.2942465036806,2.29729774792779,2.29780628863566,2.36158327623379,2.36449492107098,2.36339806856382,2.3634279827231,2.36409606561383,2.36559177357814,2.36594077210314,2.36626982785529,2.36726696649816,2.36733676620316,2.36791510661603,2.36841367593747,2.36786524968389,2.3690518446689,2.36807464879889,2.36947064289891,2.37244211605467,2.3702982679725,2.37086663699893,2.37129540661537,2.37244211605467,2.3726614865561,2.3732497983554,2.37813577770547,2.37689932578831,2.37846483345762,2.37975114230693,2.38007022667265,2.3809576800648,2.38608297268917,2.38426818035914,2.38672114142061,2.38768836590419,2.3864419426006
2.32092993376387,2.31963365352814,2.31947411134528,2.31938436886742,2.31981313848386,2.32041142166958,2.32033165057815,2.32071056326244,2.32153818833602,2.32247549866033,2.32248547004675,2.32257521252461,2.32290426827676,2.32371195057749,2.32478886031179,2.3244099476275,2.32584582727323,2.32625465411681,2.32685293730254,2.32700250809897,2.32755093435255,2.32773041930826,2.329236098659,2.32542702904323,2.33006372373259,2.32797970396898,2.32591562697824,2.32672330927896,2.27618832285818,2.27416413141315,2.27412424586743,2.27297753642813,2.27326670663456,2.27727520397891,2.27276813731313,2.27302739336027,2.27387496120671,2.27385501843386,2.27301742197384,2.27395473229814,2.27400458923029,2.27408436032172,2.27425387389101,2.27523106976102,2.27442338746029,2.27648746445104,2.27544046887602,2.2755700968996,2.27583932433317,2.27596895235675,2.27667692079319,2.27675669188462,2.27742477477534,2.27740483200248,2.2774447175482,2.27836208509964,2.2791099390818,2.27999739247395,2.28161275707541,2.28157287152969,2.28367683406615,2.28516257064403,2.28618962344619,2.34691536679713,2.34612762726926,2.34821164703287,2.34791250544001,2.34921875706217,2.35024580986433,2.3509637496872,2.35123297712077,2.3521104591265,2.34940821340431,2.35024580986433,2.35115320602934,2.34994666827147,2.35010621045433,2.35001646797647,2.35038540927433,2.35063469393505,2.35107343493791,2.35175148921507,2.35209051635364,2.35175148921507,2.35184123169292,2.35254920012936,2.35235974378722,2.35160191841863,2.3511731488022,2.35078426473148,2.34937829924503,2.35141246207649,2.34947801310932,2.28877221253123,2.28723661902121,2.28687764910977,2.28465402993617,2.28512268509832,2.28426514586545,2.2850827995526,2.28413551784187,2.28370674822544,2.28474377241403,2.2842152889333,2.28419534616045,2.28447454498045,2.28427511725188,2.28437483111616,2.28531214144046,2.28368680545258,2.2837964907033,2.28416543200116,2.28469391548188,2.28425517447902,2.28422526031973,2.28521242757618,2.28499305707474,2.28505288539332,2.28546171223689,2.28606996680905,2.2860201098769,2.28606996680905,2.28631925146976,2.28619959483262,2.28664830722191,2.28691753465549,2.28749587506835,2.28700727713335,2.28769530279693,2.28897164025981,2.28872235559909,2.28919101076124,2.28930069601195,2.29009840692625,2.29012832108554,2.29086620368126,2.29085623229483,2.29233199748629,2.29313967978701,2.29392741931488,2.29791597388637,2.29791597388637,2.36586100101171,2.36345789688239,2.36303909865238,2.36302912726595,2.36326844054024,2.36400632313597,2.36471429157241,2.36608037151314,2.36684816826816,2.36652908390244,2.36712736708816,2.36673848301744,2.36960027092249,2.3678353355246,2.36736668036245,2.36901195912319,2.36817436266318,2.36902193050962,2.36944072873963,2.37349908301612,2.37058743817893,2.37206320337038,2.37320991280968,2.37440647918113,2.37448625027256,2.37737795233689,2.37817566325119,2.37925257298549,2.38012008360479,2.38186507622982,2.38343058389913,2.384427722542,2.38475677829415,2.3872396535149
2.32041142166958,2.32039147889672,2.31850688686169,2.31888579954598,2.31888579954598,2.31868637181741,2.31942425441314,2.31992282373457,2.32074047742173,2.32094987653673,2.32099973346887,2.32181738715603,2.3220168148846,2.32426037683107,2.32518771576894,2.32449969010536,2.32544697181609,2.3264241676861,2.3260751691611,2.32641419629967,2.32695265116682,2.32766061960326,2.32849821606328,2.3272916783054,2.32661362402825,2.32385154998749,2.32802956090113,2.27611852315318,2.27483221430387,2.27473250043958,2.27392481813886,2.27344619159028,2.27356584822742,2.27316699277027,2.27265845206241,2.27263850928955,2.27325673524813,2.27327667802099,2.273765275956,2.273695476251,2.27371541902385,2.27389490397957,2.27438350191458,2.27444333023315,2.27530086946602,2.27571966769603,2.27560001105888,2.27553021135388,2.27574958185531,2.27613846592603,2.27641766474604,2.2764376075189,2.27690626268105,2.27827234262178,2.27856151282822,2.27854157005536,2.27913985324108,2.28038627654467,2.2811939588454,2.28258995294542,2.283068579494,2.28583065353476,2.34801221930429,2.34646665440784,2.34660625381784,2.34670596768213,2.34840110337501,2.34730425086785,2.34758344968786,2.34777290603,2.35035549511504,2.34954781281432,2.34924867122146,2.34927858538074,2.3487800160593,2.34921875706217,2.34907915765217,2.34866035942216,2.34912901458431,2.34960764113289,2.34917887151645,2.34984695440718,2.3519708597165,2.35055492284362,2.35099366384648,2.35109337771077,2.35039538066076,2.35071446502648,2.35100363523291,2.35036546650147,2.34913898597074,2.34958769836003,2.34925864260788,2.28749587506835,2.28676796385906,2.28554148332832,2.28554148332832,2.2851525992576,2.28339763524615,2.28336772108686,2.28384634763544,2.28318823613114,2.28324806444972,2.28356714881544,2.28418537477402,2.28440474527545,2.28338766385972,2.28346743495115,2.28301872256186,2.2840756895233,2.28346743495115,2.28354720604258,2.28364691990687,2.28344749217829,2.28378651931687,2.28451443052616,2.28427511725188,2.28547168362332,2.28496314291546,2.28568108273833,2.28499305707474,2.28592039601262,2.28710699099763,2.2868178207912,2.2858107107619,2.28661839306263,2.28774515972907,2.28673804969977,2.28741610397692,2.28853289925694,2.28839329984694,2.28965966592339,2.28967960869624,2.28944029542196,2.29015823524482,2.29044740545126,2.29139468716199,2.2915741721177,2.29363824910845,2.29623080957992,2.29615103848849,2.29914245441711,2.36075565116021,2.36359749629239,2.36248070101237,2.3621416738738,2.36224138773809,2.36310889835738,2.36482397682313,2.36662879776672,2.36462454909455,2.36522283228027,2.36562168773742,2.365681516056,2.36635957033315,2.36695785351887,2.36669859747173,2.36635957033315,2.36757607947745,2.3679051352296,2.36864301782533,2.36963018508177,2.36955041399034,2.37069712342965,2.37132532077465,2.37384808154112,2.37482527741114,2.37496487682114,2.3777967505669,2.37869417534548,2.37914288773478,2.38155596325053,2.3814063924541,2.38343058389913,2.38619265793989,2.38510577681915
2.31872625736312,2.31822768804169,2.31869634320384,2.31944419718599,2.31801828892668,2.3187162859767,2.3189954847967,2.31898551341027,2.31969348184671,2.31975331016528,2.32121910397031,2.32064076355744,2.32161795942745,2.32344272314391,2.32408089187535,2.32276466886676,2.32271481193461,2.32455951842393,2.32533728656537,2.32585579865966,2.32632445382181,2.32670336650611,2.32706233641754,2.32730164969183,2.3253472579518,2.32325326680177,2.32501820219965,2.27560998244531,2.27527095530674,2.27349604852242,2.27290773672313,2.27292767949599,2.27267839483527,2.27272825176741,2.27232939631026,2.27325673524813,2.27293765088241,2.27336642049885,2.27331656356671,2.27356584822742,2.27330659218028,2.27448321577887,2.27426384527743,2.27443335884672,2.27490201400887,2.27492195678173,2.27554018274031,2.27579943878746,2.27547038303531,2.27672677772533,2.27711566179605,2.27698603377248,2.27688631990819,2.2784518275775,2.27844185619107,2.27830225678107,2.27978799335895,2.28041619070396,2.28156290014326,2.28280932344685,2.28440474527545,2.28631925146976,2.34814184732787,2.34747376443714,2.34600797063212,2.34598802785926,2.34767319216572,2.34764327800643,2.34786264850786,2.34923869983503,2.34934838508574,2.3483612178293,2.3485706169443,2.34841107476144,2.34821164703287,2.34781279157572,2.34866035942216,2.34920878567574,2.34845096030716,2.34884981576431,2.34873015912716,2.34907915765217,2.34935835647217,2.34982701163432,2.34976718331575,2.3513127482122,2.35139251930363,2.35018598154576,2.3500962390679,2.34971732638361,2.35140249069006,2.35100363523291,2.34901932933359,2.28640899394762,2.28583065353476,2.28621953760548,2.28496314291546,2.2846640013226,2.28619959483262,2.28426514586545,2.28307855088043,2.28305860810757,2.28317826474472,2.28656853613048,2.28336772108686,2.28318823613114,2.28436485972973,2.28328794999543,2.28286915176542,2.28401586120473,2.28359706297472,2.28436485972973,2.28318823613114,2.28401586120473,2.28459420161759,2.28392611872687,2.28506285677974,2.28493322875617,2.28413551784187,2.28506285677974,2.29074654704412,2.28502297123403,2.28647879365262,2.28573093967047,2.28612979512762,2.28626939453762,2.28694744881477,2.28646882226619,2.28791467329836,2.28819387211836,2.28874229837194,2.2894901523541,2.28927078185267,2.2898391508791,2.29055709070197,2.29004854999411,2.29085623229483,2.29148442963984,2.29235194025914,2.2933091933563,2.29524364232347,2.29688892108421,2.36338809717739,2.36144367682379,2.36145364821022,2.36197216030451,2.36135393434593,2.36288952785595,2.36344792549596,2.36475417711812,2.36480403405027,2.36426557918312,2.36576128714743,2.365960714876,2.36590088655743,2.36517297534813,2.36583108685243,2.36665871192601,2.366100314286,2.36719716679316,2.36838376177818,2.3696401564682,2.37346916885683,2.37021849688107,2.37065723788393,2.37197346089252,2.37444636472685,2.37487513434328,2.37657027003616,2.37817566325119,2.37811583493262,2.37951182903264,2.38195481870768,2.38211436089054,2.38325109894341,2.38373969687842
2.31757954792382,2.31827754497383,2.31685163671452,2.31739009158167,2.31768923317454,2.31816785972312,2.31763937624239,2.31914505559313,2.31980316709743,2.31895559925099,2.31964362491457,2.32013222284957,2.32031170780529,2.32041142166958,2.32175755883746,2.32782016178612,2.32222621399961,2.32439000485464,2.32505808774537,2.32556662845323,2.3262845682761,2.32578599895466,2.32669339511968,2.32609511193395,2.32776033346755,2.32789993287755,2.27689629129462,2.27482224291744,2.27549032580817,2.27332653495313,2.2731071644517,2.27264848067598,2.27316699277027,2.27293765088241,2.27293765088241,2.27285787979098,2.27294762226884,2.27374533318314,2.27306727890599,2.27354590545457,2.27378521872886,2.27449318716529,2.27357581961385,2.27420401695886,2.27510144173745,2.2757096963096,2.27599886651603,2.27527095530674,2.27547038303531,2.27653732138318,2.27731508952462,2.27681652020319,2.27699600515891,2.27721537566034,2.2781726287575,2.27883074026179,2.27995750692824,2.28152301459755,2.2823406682847,2.28369677683901,2.28649873642548,2.2878249308205,2.34697519511571,2.34533988774139,2.34516040278568,2.34593817092712,2.34711479452571,2.34719456561714,2.34749370721,2.34716465145785,2.34709485175285,2.34567891487997,2.3464865971807,2.34748373582357,2.34732419364071,2.34712476591214,2.34778287741643,2.34775296325715,2.34835124644287,2.34809199039572,2.3481518187143,2.34842104614787,2.34887972992359,2.34940821340431,2.34992672549861,2.34896947240145,2.35239962933293,2.34861050249002,2.34971732638361,2.35210048774007,2.35069452225362,2.35092386414148,2.28734630427192,2.28607993819547,2.2850827995526,2.28605002403619,2.28409563229616,2.28347740633758,2.28420531754687,2.28281929483328,2.28326800722257,2.28295889424328,2.28339763524615,2.28323809306329,2.28350732049686,2.28314835058543,2.28303866533471,2.28303866533471,2.28288909453828,2.28408566090973,2.28359706297472,2.28388623318115,2.28314835058543,2.28351729188329,2.28599019571762,2.2849432001426,2.28395603288616,2.28369677683901,2.28392611872687,2.28397597565901,2.28437483111616,2.28544176946404,2.28481357211903,2.28604005264976,2.28591042462619,2.28664830722191,2.28613976651405,2.28680784940477,2.28744601813621,2.28864258450766,2.28792464468479,2.28819387211836,2.28944029542196,2.28954000928624,2.28980923671982,2.29194311341557,2.29086620368126,2.29175365707342,2.29278070987558,2.29383767683702,2.29475504438847,2.29644020869492,2.35982831222233,2.3602670532252,2.3604764523402,2.3604764523402,2.36102487859378,2.36299921310667,2.36253055794452,2.36250064378523,2.3632185836081,2.36370718154311,2.36504334732456,2.36467440602669,2.36467440602669,2.36573137298814,2.36538237446313,2.36455474938955,2.36450489245741,2.36740656590817,2.36616014260457,2.36813447711746,2.36806467741246,2.37321988419611,2.37028829658607,2.37111592165965,2.37277117180682,2.37437656502185,2.37588224437258,2.37940214378192,2.37708878213046,2.37835514820691,2.3806086815398,2.38725959628776,2.38354026914984,2.38395906737985
2.31764934762882,2.31709094998881,2.3163929529388,2.31643283848452,2.31681175116881,2.31751971960525,2.31663226621309,2.31752969099168,2.31830745913312,2.31820774526883,2.31872625736312,2.31992282373457,2.32056099246601,2.32097979069602,2.32033165057815,2.32013222284957,2.3236122367132,2.32401109217035,2.32379172166892,2.32469911783393,2.3255566570668,2.32564639954466,2.32523757270108,2.3262845682761,2.32553671429394,2.32557659983966,2.27722534704677,2.27672677772533,2.27439347330101,2.27341627743099,2.27276813731313,2.27264848067598,2.27252882403884,2.27264848067598,2.27253879542526,2.27280802285884,2.27311713583813,2.27279805147241,2.27298750781456,2.27298750781456,2.27336642049885,2.27387496120671,2.27358579100028,2.27430373082315,2.27503164203245,2.27538064055745,2.2760586948346,2.27565983937746,2.27586923849246,2.27608860899389,2.27621823701746,2.27676666327104,2.27721537566034,2.27801308657464,2.27801308657464,2.27908999630894,2.28005722079252,2.28100450250325,2.2820614694647,2.28406571813687,2.34469174762353,2.34250801399564,2.34537977328711,2.34519031694496,2.34511054585353,2.3456190865614,2.34615754142855,2.34613759865569,2.34647662579427,2.3463469977707,2.34524017387711,2.34569885765283,2.34638688331641,2.34651651133998,2.34661622520427,2.34672591045499,2.34611765588284,2.34712476591214,2.34769313493857,2.34740396473214,2.34691536679713,2.34685553847856,2.34869027358145,2.34835124644287,2.34886975853716,2.34872018774073,2.34903927210645,2.34832133228358,2.34827147535144,2.34733416502714,2.3505150372979,2.28836338568765,2.28711696238406,2.28663833583548,2.2848036007326,2.28432497418402,2.28429506002473,2.28377654793044,2.28420531754687,2.28353723465615,2.28346743495115,2.28298880840257,2.28293895147043,2.28346743495115,2.28298880840257,2.2824802676947,2.28288909453828,2.28235063967113,2.283208178904,2.28284920899257,2.283138379199,2.28310846503971,2.28308852226686,2.28317826474472,2.28318823613114,2.28419534616045,2.28374663377115,2.28437483111616,2.2839360901133,2.28451443052616,2.28485345766474,2.28535202698618,2.28495317152903,2.28546171223689,2.28587053908047,2.28555145471475,2.28616968067333,2.28645885087977,2.28693747742834,2.28771524556979,2.2879645302305,2.28781495943407,2.29040751990554,2.2887622411448,2.29019812079054,2.29074654704412,2.29125508775198,2.29135480161627,2.29215251253057,2.29378781990488,2.29791597388637,2.29516387123204,2.36044653818091,2.36210178832808,2.35964882726662,2.36041662402163,2.36144367682379,2.36177273257594,2.36208184555523,2.36243084408023,2.3633581830181,2.36410603700026,2.36371715292954,2.36295932756095,2.36331829747239,2.36351772520096,2.36285961369667,2.36487383375527,2.36540231723599,2.36624988508243,2.36625985646886,2.36738662313531,2.36806467741246,2.36953047121748,2.37020852549464,2.3725916868511,2.37218286000753,2.37451616443185,2.37461587829613,2.37680958331045,2.37753749451975,2.37874403227763,2.38070839540409,2.38196479009411,2.38288215764555,2.38261293021197
2.31728040633096,2.31657243789452,2.31626332491523,2.31725049217167,2.31619352521023,2.3161137541188,2.31638298155237,2.31674195146381,2.31782883258454,2.31771914733382,2.31838723022455,2.31944419718599,2.320002594826,2.32038150751029,2.32012225146315,2.32079033435387,2.32276466886676,2.32345269453034,2.32383160721463,2.32418060573964,2.32426037683107,2.32471906060679,2.32500823081322,2.32524754408751,2.32596548391038,2.32721190721397,2.32765064821683,2.27441341607387,2.27394476091172,2.27363564793242,2.27304733613313,2.2726883662217,2.27242911017455,2.27241913878812,2.27292767949599,2.27260859513027,2.27283793701813,2.27276813731313,2.27346613436314,2.27274819454027,2.27327667802099,2.27446327300601,2.27396470368457,2.27436355914172,2.27432367359601,2.27453307271101,2.27531084085245,2.27562992521817,2.27622820840389,2.27667692079319,2.27638775058675,2.27638775058675,2.27690626268105,2.2776541166632,2.27973813642681,2.2792495384918,2.27965836533538,2.28021676297538,2.28352726326972,2.28426514586545,2.34189975942348,2.34239832874492,2.34389403670923,2.34419317830209,2.34497094644353,2.34522023110425,2.34467180485067,2.34823158980572,2.34520028833139,2.3457586859714,2.34519031694496,2.34529003080925,2.34553931546997,2.34506068892139,2.34523020249068,2.34562905794783,2.34571880042569,2.34605782756426,2.34611765588284,2.34576865735783,2.34761336384714,2.34615754142855,2.34721450839,2.34723445116285,2.34726436532214,2.34750367859643,2.34722447977642,2.34834127505644,2.34623731251998,2.34919881428931,2.34714470868499,2.34667605352284,2.28642893672048,2.2856711113519,2.2846640013226,2.28580073937547,2.28360703436115,2.282928980084,2.28420531754687,2.28288909453828,2.28283923760614,2.28235063967113,2.28300875117543,2.28258995294542,2.28289906592471,2.28377654793044,2.28229081135256,2.282998779789,2.28267969542328,2.28281929483328,2.28291900869757,2.28235063967113,2.28311843642614,2.28311843642614,2.28323809306329,2.28315832197186,2.28328794999543,2.28303866533471,2.28406571813687,2.28348737772401,2.28409563229616,2.28446457359402,2.28492325736974,2.28489334321046,2.28517254203046,2.28626939453762,2.28664830722191,2.28673804969977,2.28680784940477,2.28714687654335,2.28843318539265,2.28798447300336,2.28835341430122,2.28829358598265,2.29377784851845,2.29147445825342,2.2905670620884,2.29067674733912,2.29179354261913,2.2938277054506,2.29432627477203,2.29643023730849,2.36009753965591,2.36188241782665,2.35813317652945,2.35926991458232,2.3611345638445,2.36082545086521,2.36159324762022,2.36175278980308,2.36389663788525,2.36259038626309,2.36245078685309,2.36271004290024,2.36341801133667,2.36435532166098,2.36364735322454,2.36301915587953,2.36345789688239,2.36407612284097,2.36480403405027,2.36745642284031,2.36713733847459,2.36886238832676,2.36932107210248,2.36949058567177,2.37042789599607,2.37149483434394,2.37347914024326,2.37521416148186,2.37813577770547,2.37872408950477,2.37991068448979,2.37989074171693,2.38136650690838,2.38258301605269
2.31570492727522,2.31566504172951,2.31497701606592,2.31501690161164,2.31518641518093,2.31511661547593,2.31560521341093,2.31640292432523,2.31682172255524,2.31735020603596,2.31764934762882,2.31870631459027,2.31980316709743,2.31985302402957,2.32092993376387,2.32147836001745,2.32256524113818,2.32244558450104,2.32311366739176,2.32378175028249,2.32426037683107,2.32417063435321,2.32458943258322,2.32500823081322,2.32551677152109,2.32620479718467,2.32559654261252,2.27442338746029,2.27373536179671,2.27320687831599,2.27258865235741,2.27188068392097,2.27279805147241,2.27231942492383,2.27217982551383,2.27247896710669,2.27264848067598,2.2729675650417,2.27292767949599,2.27314704999742,2.27330659218028,2.27382510427457,2.27386498982029,2.273974675071,2.27452310132458,2.27548035442174,2.27572963908246,2.27506155619173,2.27531084085245,2.27596895235675,2.27629800810889,2.27639772197318,2.27699600515891,2.27740483200248,2.27818260014392,2.27968827949466,2.27946890899323,2.28257998155899,2.28294892285685,2.34216898685706,2.3421490440842,2.34179007417277,2.34300658331707,2.34433277771209,2.34501083198925,2.34460200514567,2.34412337859709,2.34255787092778,2.34384417977709,2.34421312107495,2.34530000219568,2.34556922962925,2.34419317830209,2.34464189069138,2.34469174762353,2.34497094644353,2.34477151871496,2.34512051723996,2.34477151871496,2.34562905794783,2.34610768449641,2.34759342107429,2.34622734113355,2.34613759865569,2.34657633965856,2.34624728390641,2.34884981576431,2.34552934408354,2.34693530956999,2.34595811369998,2.34487123257924,2.28692750604192,2.28489334321046,2.28529219866761,2.2851525992576,2.28297883701614,2.28365689129329,2.28296886562971,2.282998779789,2.28237058244399,2.28221104026113,2.28215121194256,2.28269963819614,2.28363694852044,2.2821312691697,2.28189195589541,2.28266972403685,2.28226089719327,2.28283923760614,2.28253012462685,2.28287912315185,2.28210135501041,2.28275946651471,2.28310846503971,2.28300875117543,2.28340760663258,2.28314835058543,2.28284920899257,2.28377654793044,2.28338766385972,2.28395603288616,2.28491328598331,2.28390617595401,2.28495317152903,2.28450445913974,2.28540188391832,2.28594033878547,2.28722664763478,2.28760556031907,2.28749587506835,2.28714687654335,2.28718676208906,2.29043743406483,2.28863261312123,2.28790470191193,2.29025794910911,2.29099583170484,2.28999869306196,2.29041749129197,2.29205279866628,2.29534335618776,2.2957023260992,2.36037673847591,2.36175278980308,2.3606160517502,2.35973856974447,2.3593297429009,2.36001776856448,2.36107473552592,2.36072573700092,2.36052630927234,2.36133399157307,2.36185250366736,2.36239095853452,2.36278981399166,2.36238098714809,2.36358752490596,2.36173284703022,2.36272998567309,2.36195221753165,2.36384678095311,2.36604048596743,2.36510317564313,2.36559177357814,2.36678833994958,2.36791510661603,2.36968004201391,2.37320991280968,2.37302045646754,2.37451616443185,2.37567284525758,2.37855457593548,2.3789434600062,2.38063859569908,2.37993062726265,2.38069842401766
2.31527615765879,2.31535592875021,2.31507672993021,2.31492715913378,2.31432887594806,2.31459810338163,2.31421919069734,2.31551547093307,2.31571489866165,2.31640292432523,2.31736017742239,2.31765931901525,2.31929462638956,2.32045130721529,2.32068064910315,2.32151824556317,2.32128890367531,2.32243561311461,2.32259515529747,2.32311366739176,2.32431023376321,2.32352249423534,2.32439997624107,2.32400112078392,2.32503814497251,2.32791987565041,2.32810933199256,2.27539061194388,2.27338636327171,2.27264848067598,2.27263850928955,2.27266842344884,2.27199036917168,2.2721000544224,2.27199036917168,2.2723094535374,2.27267839483527,2.27276813731313,2.27332653495313,2.27304733613313,2.27265845206241,2.27359576238671,2.27363564793242,2.27392481813886,2.273974675071,2.27514132728316,2.2757096963096,2.27535072639817,2.27530086946602,2.27560001105888,2.27616838008532,2.27637777920032,2.27682649158962,2.27884071164822,2.27857148421464,2.2792495384918,2.28026661990753,2.2821312691697,2.34380429423137,2.34262767063278,2.34150090396633,2.34272738449707,2.34225872933492,2.3448911753521,2.34428292077995,2.34430286355281,2.34394389364137,2.34296669777136,2.34345529570636,2.34331569629636,2.34310629718136,2.34329575352351,2.34400372195994,2.34445243434924,2.34335558184208,2.34339546738779,2.34354503818422,2.3436746662078,2.34494103228424,2.34539971605997,2.34529003080925,2.34615754142855,2.3460378847914,2.34490114673853,2.34620739836069,2.3460378847914,2.34532991635497,2.34894952962859,2.34588831399497,2.34640682608927,2.34331569629636,2.28569105412475,2.28563122580618,2.28415546061473,2.283417578019,2.28339763524615,2.28305860810757,2.28433494557045,2.28214124055613,2.28307855088043,2.28212129778327,2.28279935206042,2.28182215619041,2.28249023908113,2.28168255678041,2.28161275707541,2.28201161253255,2.28210135501041,2.28253012462685,2.2823406682847,2.28166261400755,2.28244038214899,2.28247029630828,2.28314835058543,2.28281929483328,2.28283923760614,2.28328794999543,2.28288909453828,2.28301872256186,2.28325803583615,2.28349734911043,2.28479362934617,2.28476371518688,2.28399591843187,2.28378651931687,2.28535202698618,2.28586056769404,2.28575088244333,2.2870272199062,2.28672807831334,2.28732636149907,2.28705713406549,2.28683776356406,2.28771524556979,2.28748590368193,2.28889186916838,2.28966963730982,2.28985909365196,2.29206277005271,2.2940371045656,2.29505418598133,2.29638038037635,2.36165307593879,2.35643804083657,2.35754486473016,2.35891094467089,2.35866166001017,2.3601274538152,2.35991805470019,2.36076562254663,2.36066590868235,2.36181261812165,2.36136390573236,2.36090522195664,2.36095507888878,2.36037673847591,2.36129410602736,2.36150350514236,2.36131404880021,2.36211175971451,2.36312884113024,2.3671074243153,2.36417583670526,2.36455474938955,2.36478409127741,2.36881253139462,2.36845356148318,2.37328968390111,2.37083672283965,2.37401759511041,2.37481530602471,2.37556316000686,2.3776571511569,2.37758735145189,2.38082805204123,2.3807482809498
2.31383030662662,2.31558527063808,2.31377047830805,2.31361093612519,2.31391007771805,2.31409953406019,2.31413941960591,2.31493713052021,2.31608383995951,2.31600406886808,2.31692143641952,2.31723054939882,2.31806814585883,2.31858665795312,2.31989290957529,2.32058093523887,2.32094987653673,2.32120913258388,2.32205670043032,2.32211652874889,2.32290426827676,2.32327320957462,2.32237578479604,2.32532731517894,2.32699253671254,2.32674325205182,2.27454304409744,2.27394476091172,2.27285787979098,2.2728279656317,2.27234933908312,2.27332653495313,2.27293765088241,2.27201031194454,2.27228951076455,2.27209008303597,2.27236928185598,2.27238922462883,2.2728279656317,2.27301742197384,2.2729675650417,2.2731071644517,2.27382510427457,2.27386498982029,2.27429375943672,2.27416413141315,2.27649743583747,2.27554018274031,2.27585926710603,2.27621823701746,2.27625812256318,2.27688631990819,2.27694614822676,2.27808288627964,2.27860139837393,2.28010707772467,2.28205149807827,2.282859180379,2.33907785706415,2.34078296414347,2.34249804260921,2.34170033169491,2.34260772785992,2.3448911753521,2.34433277771209,2.34408349305137,2.3429467549985,2.34288692667993,2.34296669777136,2.34279718420207,2.34335558184208,2.34277724142921,2.34219890101635,2.34323592520493,2.34341541016065,2.34309632579493,2.34290686945279,2.34340543877422,2.34399375057352,2.34439260603067,2.34491111812496,2.34579857151712,2.34585839983569,2.34545954437854,2.34466183346424,2.34358492372994,2.34408349305137,2.34484131841996,2.34791250544001,2.34195958774206,2.28639902256119,2.28575088244333,2.28460417300402,2.28459420161759,2.283417578019,2.28282926621971,2.28280932344685,2.2821312691697,2.28156290014326,2.28174238509898,2.2814731576654,2.28179224203112,2.2820614694647,2.28171247093969,2.28167258539398,2.28156290014326,2.2819916697597,2.28177229925827,2.28186204173612,2.28205149807827,2.28195178421398,2.28196175560041,2.28233069689827,2.28291900869757,2.28284920899257,2.28311843642614,2.28255006739971,2.28238055383042,2.28261986710471,2.28311843642614,2.283208178904,2.28325803583615,2.28354720604258,2.28362697713401,2.28422526031973,2.28516257064403,2.28506285677974,2.28554148332832,2.28649873642548,2.28649873642548,2.28632922285619,2.28712693377049,2.28680784940477,2.28751581784121,2.28759558893264,2.28791467329836,2.28777507388836,2.29092603199984,2.29089611784055,2.29629063789849,2.2969188352435,2.35869157416946,2.35731552284229,2.35701638124943,2.357006409863,2.35778417800444,2.35903060130804,2.35873145971517,2.35951919924304,2.35966877003947,2.36058613759092,2.36020722490662,2.3601972535202,2.36046648095377,2.36138384850521,2.36036676708948,2.3596787414259,2.36011748242877,2.36100493582092,2.36281972815095,2.36219153080594,2.36311886974381,2.36258041487666,2.36399635174954,2.3648140054367,2.3670376246103,2.36770570750103,2.37201334643824,2.37233243080396,2.37201334643824,2.37502470513971,2.37652041310402,2.3762711284433,2.38327104171627,2.37939217239549,2.38026965440122
2.31405964851448,2.31321208066804,2.31287305352946,2.31310239541732,2.31381036385376,2.31363087889804,2.31374056414876,2.31422916208377,2.31456818922235,2.31528612904521,2.31594424054951,2.31644280987095,2.31744991990025,2.3178487753574,2.31926471223028,2.31975331016528,2.32230598509104,2.32115927565173,2.32143847447174,2.3216678163596,2.32192707240675,2.32148833140388,2.32318346709677,2.32273475470747,2.32730164969183,2.32647402461824,2.27367553347814,2.27295759365527,2.27248893849312,2.27274819454027,2.27267839483527,2.27426384527743,2.27234933908312,2.27145191430453,2.2718208556024,2.27286785117741,2.27232939631026,2.27349604852242,2.27256870958455,2.2728977653367,2.27330659218028,2.27305730751956,2.27311713583813,2.27366556209171,2.27582935294674,2.27413421725386,2.27504161341887,2.27522109837459,2.27494189955459,2.2757096963096,2.27601880928889,2.27673674911176,2.27748460309391,2.2784518275775,2.27907005353608,2.28283923760614,2.28235063967113,2.28362697713401,2.338050804262,2.34231855765349,2.34189975942348,2.34138124732919,2.34159064644419,2.3440934644378,2.34465186207781,2.34362480927565,2.34264761340564,2.34240830013135,2.34176016001348,2.34216898685706,2.34144107564776,2.34123167653276,2.34181001694563,2.34187981665063,2.34222881517563,2.34208921576563,2.34223878656206,2.34271741311064,2.34288692667993,2.34430286355281,2.34435272048495,2.34472166178281,2.34472166178281,2.34051373670989,2.34166044614919,2.34365472343494,2.34357495234351,2.34251798538206,2.34227867210778,2.34451226266781,2.28743604674978,2.28547168362332,2.28378651931687,2.28337769247329,2.28311843642614,2.28301872256186,2.28217115471541,2.28186204173612,2.28152301459755,2.28230078273899,2.28177229925827,2.28074524645611,2.2821312691697,2.2819218700547,2.28233069689827,2.28150307182469,2.28151304321112,2.28111418775397,2.28693747742834,2.28157287152969,2.28164267123469,2.28184209896327,2.28249023908113,2.28210135501041,2.28282926621971,2.28273952374185,2.28257998155899,2.2823406682847,2.28237058244399,2.28460417300402,2.28304863672114,2.28376657654401,2.28395603288616,2.2838662904083,2.28408566090973,2.2850827995526,2.28513265648475,2.28484348627831,2.28582068214833,2.28669816415406,2.28604005264976,2.2879645302305,2.28823375766408,2.28669816415406,2.28795455884408,2.2875457320005,2.28905141135124,2.29019812079054,2.29174368568699,2.29320947949201,2.29453567388703,2.29530347064205,2.35890097328446,2.35596938567442,2.35612892785728,2.35678703936157,2.3575249219573,2.35837248980374,2.35963885588019,2.35923002903661,2.36059610897735,2.35952917062947,2.35913031517232,2.35917020071804,2.35904057269446,2.3592599431959,2.35928985735518,2.35995794024591,2.36020722490662,2.36535246030385,2.36103484998021,2.36107473552592,2.3631487839031,2.3632883833131,2.36451486384383,2.36513308980242,2.36651911251601,2.36988944112892,2.36993929806106,2.37147489157109,2.37306034201325,2.37640075646688,2.37597198685044,2.3763409281483,2.37964145705621,2.37955171457835
2.3124343125266,2.31187591488659,2.31196565736445,2.31179614379516,2.31238445559445,2.31263374025517,2.31309242403089,2.3135112222609,2.31411947683305,2.3143787328802,2.31527615765879,2.31654252373523,2.31835731606526,2.31785874674383,2.31853680102098,2.31932454054885,2.31955388243671,2.32019205116815,2.32102964762816,2.32083021989959,2.32142850308531,2.32179744438317,2.32290426827676,2.32226609954532,2.32328318096105,2.27504161341887,2.27433364498244,2.27302739336027,2.2727581659267,2.27259862374384,2.27221971105955,2.27212996858169,2.27177099867025,2.27221971105955,2.27169122757882,2.27208011164954,2.27217982551383,2.27211002580883,2.27271828038098,2.27262853790312,2.27266842344884,2.27301742197384,2.27353593406814,2.27365559070528,2.27371541902385,2.27435358775529,2.27483221430387,2.27596895235675,2.27552023996745,2.27585926710603,2.27681652020319,2.27651737861033,2.27783360161892,2.27857148421464,2.28042616209039,2.28016690604324,2.28257001017256,2.33619612638625,2.34060347918775,2.33781149098771,2.34063339334704,2.3402744234356,2.34120176237347,2.34088267800775,2.34432280632566,2.34317609688636,2.34071316443847,2.3408627352349,2.34159064644419,2.34126159069205,2.34083282107561,2.34126159069205,2.3408627352349,2.34120176237347,2.34145104703419,2.34153081812562,2.34163053198991,2.34164050337634,2.34229861488063,2.34258778508707,2.34342538154708,2.34319603965922,2.34543960160568,2.34151087535276,2.34458206237281,2.34202938744706,2.34181998833205,2.34144107564776,2.34097242048561,2.34130147623776,2.28568108273833,2.28486342905117,2.28378651931687,2.28307855088043,2.28257001017256,2.28351729188329,2.28151304321112,2.28191189866827,2.28173241371255,2.28142330073326,2.28229081135256,2.28092473141182,2.28113413052683,2.28242043937613,2.28099453111682,2.28149310043826,2.2813335582554,2.28156290014326,2.28186204173612,2.28207144085113,2.28174238509898,2.28125378716397,2.28175235648541,2.28201161253255,2.28201161253255,2.28158284291612,2.28229081135256,2.28359706297472,2.28286915176542,2.28261986710471,2.28413551784187,2.28333780692758,2.28329792138186,2.28354720604258,2.28371671961187,2.28446457359402,2.28427511725188,2.28486342905117,2.28490331459688,2.28605999542262,2.28627936592405,2.28634916562905,2.2875457320005,2.28757564615978,2.28735627565835,2.28746596090907,2.29080637536269,2.29125508775198,2.28866252728051,2.29094597477269,2.29393739070131,2.29658977949135,2.3591901434909,2.35415459334439,2.35678703936157,2.35688675322586,2.35664743995157,2.35729558006944,2.3579437201873,2.35884114496589,2.35885111635232,2.35904057269446,2.35763460720801,2.35865168862374,2.3591901434909,2.35844228950874,2.35883117357946,2.35901065853518,2.35956905617519,2.35926991458232,2.35997788301876,2.36079553670592,2.36199210307737,2.36236104437523,2.36414592254597,2.36449492107098,2.36653905528887,2.36705756738316,2.36945070012605,2.37105609334108,2.37392785263255,2.3740475092697,2.37501473375328,2.37631101398902,2.37934231546335,2.37945200071407
2.31127763170087,2.31092863317586,2.31172634409016,2.31129757447372,2.3114970022023,2.31192577181873,2.31213517093374,2.31274342550589,2.31346136532876,2.31393002049091,2.31540578568236,2.3150368443845,2.31695135057881,2.31730034910382,2.31738012019525,2.31884591400027,2.31872625736312,2.31996270928029,2.32041142166958,2.32077039158101,2.32065073494387,2.32147836001745,2.32332306650677,2.32205670043032,2.32082024851316,2.27573961046889,2.27354590545457,2.27347610574956,2.27209008303597,2.27170119896525,2.27145191430453,2.27149179985025,2.27188068392097,2.27163139926025,2.27167128480597,2.27231942492383,2.27253879542526,2.27218979690026,2.27258865235741,2.27272825176741,2.27272825176741,2.2729675650417,2.27346613436314,2.273765275956,2.27384504704743,2.27375530456957,2.27446327300601,2.27536069778459,2.27551026858103,2.27567978215031,2.27600883790246,2.27697606238605,2.27790340132392,2.27849171312321,2.28001733524681,2.28070536091039,2.283138379199,2.33517904497052,2.33672460986697,2.33830008892271,2.33845963110557,2.34000519600203,2.34064336473346,2.3413513331699,2.34238835735849,2.3421490440842,2.3407929355299,2.33981573965988,2.34076302137061,2.33928725617916,2.33965619747702,2.3410023346449,2.34001516738845,2.34046387977775,2.34088267800775,2.34023453788989,2.34082284968918,2.34151087535276,2.34134136178348,2.34137127594276,2.34161058921705,2.34230858626706,2.34210915853849,2.34181001694563,2.34378435145851,2.33938697004344,2.33970605440916,2.34195958774206,2.34312623995422,2.28571099689761,2.28530217005403,2.28477368657331,2.28384634763544,2.28307855088043,2.28228083996613,2.28152301459755,2.28146318627897,2.2812637585504,2.28141332934683,2.28120393023183,2.2814731576654,2.28113413052683,2.28082501754754,2.2809845597304,2.28074524645611,2.28058570427325,2.28141332934683,2.28082501754754,2.28108427359468,2.28117401607254,2.28150307182469,2.28163269984826,2.2814731576654,2.2814731576654,2.28143327211969,2.28202158391898,2.28176232787184,2.28228083996613,2.28356714881544,2.28254009601328,2.28257998155899,2.28315832197186,2.28346743495115,2.28332783554115,2.28408566090973,2.28340760663258,2.28418537477402,2.28449448775331,2.28492325736974,2.28505288539332,2.2860899095819,2.28698733436049,2.28745598952264,2.28738618981764,2.28889186916838,2.28774515972907,2.28882206946337,2.28691753465549,2.28941038126267,2.29032774881411,2.29728777654136,2.29774646031708,2.35326713995223,2.35356628154509,2.35610898508442,2.35534118832941,2.35635826974514,2.35729558006944,2.35719586620515,2.35850211782731,2.35848217505446,2.35810326237016,2.35826280455302,2.3578041207773,2.35829271871231,2.3588112308066,2.35945937092447,2.35812320514302,2.35923002903661,2.36250064378523,2.35966877003947,2.36119439216307,2.36253055794452,2.36251061517166,2.36312884113024,2.36384678095311,2.36663876915315,2.37002904053892,2.36989941251535,2.37191363257395,2.37230251664467,2.37476544909257,2.37493496266185,2.37694918272046,2.37771697947547,2.37976111369336
2.31161665883944,2.31212519954731,2.31129757447372,2.31101837565372,2.310978490108,2.31106823258586,2.31158674468016,2.31202548568302,2.31299271016661,2.31375053553519,2.31446847535806,2.3152462434995,2.31690149364667,2.31641289571166,2.31742997712739,2.3181977738824,2.31834734467883,2.31921485529813,2.32036156473744,2.32068064910315,2.32090001960459,2.32189715824746,2.3210795045603,2.32362220809963,2.32355240839463,2.27506155619173,2.27375530456957,2.27320687831599,2.27195048362597,2.27257868097098,2.27186074114811,2.27129237212167,2.27138211459953,2.27159151371454,2.27193054085311,2.27198039778526,2.27192056946668,2.27233936769669,2.27300745058741,2.27269833760812,2.27276813731313,2.27334647772599,2.2732467638617,2.27363564793242,2.27341627743099,2.27389490397957,2.27407438893529,2.27523106976102,2.27548035442174,2.27660712108819,2.27602878067532,2.27731508952462,2.2778635157782,2.27892048273965,2.27961847978966,2.28155292875683,2.28308852226686,2.33691406620912,2.3362459833184,2.33678443818555,2.33717332225627,2.33987556797845,2.34028439482203,2.34175018862705,2.33534855853981,2.34063339334704,2.33993539629702,2.33972599718202,2.34018468095774,2.33987556797845,2.33953654083988,2.33935705588416,2.3395465122263,2.34018468095774,2.34196955912848,2.34188978803705,2.33950662668059,2.3402046237306,2.34072313582489,2.34105219157704,2.34119179098704,2.34163053198991,2.34157070367134,2.34169036030848,2.34134136178348,2.34166044614919,2.33977585411417,2.34073310721132,2.33924737063344,2.28576085382976,2.28444463082116,2.28438480250259,2.28232072551185,2.28322812167686,2.28177229925827,2.2823406682847,2.2813335582554,2.28157287152969,2.28055579011396,2.28110421636754,2.28245035353542,2.28050593318182,2.28148312905183,2.28064553259182,2.28078513200182,2.28108427359468,2.28170249955326,2.28152301459755,2.28087487447968,2.2811939588454,2.28183212757684,2.28156290014326,2.28057573288682,2.28063556120539,2.28122387300469,2.28160278568898,2.28209138362398,2.28231075412542,2.28296886562971,2.28189195589541,2.28275946651471,2.28291900869757,2.28359706297472,2.283208178904,2.28231075412542,2.28353723465615,2.28431500279759,2.2851525992576,2.28497311430189,2.28601013849047,2.28528222728118,2.28516257064403,2.28590045323976,2.28705713406549,2.2874759322955,2.28870241282623,2.28952006651339,2.28999869306196,2.28860269896194,2.29064683317983,2.2941767039756,2.35541098803441,2.35338679658938,2.35382553759224,2.35340673936223,2.35511184644155,2.3557201010137,2.35683689629372,2.35637821251799,2.35668732549728,2.35712606650015,2.35710612372729,2.35725569452372,2.35725569452372,2.35755483611658,2.35836251841731,2.35667735411086,2.35916022933161,2.35827277593945,2.35801351989231,2.35882120219303,2.35898074437589,2.36231118744309,2.36075565116021,2.36258041487666,2.36347783965525,2.36538237446313,2.36757607947745,2.37343925469754,2.36992932667463,2.37118572136465,2.37275122903396,2.37351902578897,2.37449622165899,2.37589221575901,2.37681955469688
2.31089871901657,2.31129757447372,2.31043006385442,2.31064943435586,2.31039017830871,2.31065940574228,2.31106823258586,2.31167648715801,2.31239442698088,2.3133716228509,2.3141693337652,2.31506675854378,2.31556532786522,2.31723054939882,2.31769920456097,2.31852682963455,2.31884591400027,2.31978322432457,2.31915502697956,2.32013222284957,2.32098976208245,2.32150827417674,2.31998265205314,2.32118918981102,2.3216678163596,2.27447324439244,2.27345616297671,2.27228951076455,2.27194051223954,2.2731769641567,2.27145191430453,2.27157157094168,2.27177099867025,2.27154165678239,2.27185076976168,2.27186074114811,2.27269833760812,2.27201031194454,2.2726883662217,2.27294762226884,2.2728279656317,2.27259862374384,2.27361570515957,2.27416413141315,2.27355587684099,2.27415416002672,2.27459290102958,2.27488207123602,2.27508149896459,2.27610855176675,2.27617835147175,2.27701594793176,2.27791337271035,2.27921962433251,2.28168255678041,2.28270960958257,2.28373666238472,2.33566764290553,2.33678443818555,2.33683429511769,2.33910777122344,2.34105219157704,2.33949665529416,2.33622604054554,2.33519898774338,2.33353376620978,2.33857928774272,2.33884851517629,2.3404838225506,2.33822031783128,2.33868897299343,2.338399802787,2.33864908744772,2.3407929355299,2.33850948803772,2.33899808597272,2.34030433759489,2.33967614024988,2.34016473818489,2.34081287830275,2.34089264939418,2.34320601104565,2.34216898685706,2.34002513877488,2.33997528184274,2.34103224880418,2.34040405145917,2.33968611163631,2.3420094446742,2.28521242757618,2.28395603288616,2.28318823613114,2.2842850886383,2.28303866533471,2.28209138362398,2.28120393023183,2.28095464557111,2.28059567565968,2.28209138362398,2.28146318627897,2.28118398745897,2.28007716356538,2.28031647683967,2.28048599040896,2.28122387300469,2.28094467418468,2.28036633377181,2.28049596179539,2.28107430220825,2.28066547536468,2.28079510338825,2.2811241591404,2.28058570427325,2.28101447388968,2.2811241591404,2.28085493170682,2.28191189866827,2.28215121194256,2.28200164114613,2.28231075412542,2.28322812167686,2.28281929483328,2.28314835058543,2.28340760663258,2.28365689129329,2.28404577536401,2.28413551784187,2.28499305707474,2.28524234173546,2.2851525992576,2.28566113996547,2.28546171223689,2.28596028155833,2.28679787801834,2.28686767772334,2.28749587506835,2.28783490220693,2.28911123966981,2.29040751990554,2.28999869306196,2.29007846415339,2.35697649570372,2.35399505116153,2.35415459334439,2.35414462195796,2.35466313405225,2.35595941428799,2.35616881340299,2.35659758301943,2.35669729688371,2.35694658154443,2.35716595204586,2.35702635263586,2.35683689629372,2.35655769747371,2.3560690995387,2.35725569452372,2.35660755440586,2.35687678183943,2.3574551222523,2.35975851251733,2.3587414311016,2.35922005765018,2.35986819776805,2.36272998567309,2.36377698124811,2.36533251753099,2.36660885499387,2.36894215941819,2.37228257387181,2.37228257387181,2.37342928331112,2.37388796708684,2.37473553493328,2.37543353198329,2.37628109982973
2.30934318273369,2.30911384084583,2.31009103671585,2.31034032137657,2.30995143730585,2.31049986355943,2.31081894792514,2.31117791783658,2.3117762010223,2.31275339689232,2.31377047830805,2.3144485325852,2.31533598597736,2.31614366827808,2.3173302632631,2.31727043494453,2.31782883258454,2.32141853169888,2.31898551341027,2.31934448332171,2.31942425441314,2.31933451193528,2.32128890367531,2.31937439748099,2.32076042019458,2.27437353052815,2.27247896710669,2.27228951076455,2.27237925324241,2.27181088421597,2.27147185707739,2.27134222905382,2.27100320191524,2.27141202875882,2.27181088421597,2.27158154232811,2.2723094535374,2.27220973967312,2.27240916740169,2.2728279656317,2.27278808008598,2.27247896710669,2.2728279656317,2.27364561931885,2.27413421725386,2.27409433170815,2.27439347330101,2.2754304974896,2.27576952462817,2.27644757890533,2.27710569040962,2.27708574763676,2.27861136976036,2.27973813642681,2.28151304321112,2.28332783554115,2.33481010367266,2.33523887328909,2.33729297889341,2.33752232078127,2.338609201902,2.33897814319987,2.33779154821485,2.33743257830341,2.33470041842194,2.33413204939551,2.33804083287557,2.3374624924627,2.33754226355413,2.3373926927577,2.33692403759555,2.33736277859841,2.33791120485199,2.338190403672,2.33850948803772,2.338260203377,2.33675452402626,2.33914765676916,2.33945676974845,2.34043396561846,2.33961631193131,2.34151087535276,2.33948668390773,2.33961631193131,2.34039408007275,2.3391277139963,2.33984565381917,2.34022456650346,2.33970605440916,2.28505288539332,2.28364691990687,2.28329792138186,2.283277978609,2.2820614694647,2.28189195589541,2.28122387300469,2.28156290014326,2.28111418775397,2.28014696327038,2.28055579011396,2.28048599040896,2.28086490309325,2.2804660476361,2.28111418775397,2.28080507477468,2.2801170491111,2.27985779306395,2.27997744970109,2.28044610486324,2.28023670574824,2.28238055383042,2.28066547536468,2.28009710633824,2.2803962479311,2.28058570427325,2.28171247093969,2.28101447388968,2.28101447388968,2.28127372993683,2.28229081135256,2.28258995294542,2.28238055383042,2.28180221341755,2.28275946651471,2.28331786415472,2.28337769247329,2.28387626179473,2.28432497418402,2.28529219866761,2.28492325736974,2.2847338010276,2.28555145471475,2.28625942315119,2.28678790663191,2.28733633288549,2.28820384350479,2.28776510250193,2.28792464468479,2.28871238421266,2.29198299896128,2.29341887860702,2.35763460720801,2.35468307682511,2.35401499393439,2.35305774083723,2.35422439304939,2.35583975765084,2.35584972903727,2.35605912815228,2.35796366296016,2.35639815529085,2.35604915676585,2.35575001517298,2.35553064467155,2.35573007240013,2.35555058744441,2.35541098803441,2.35568021546798,2.35722578036444,2.35727563729658,2.35719586620515,2.35894085883018,2.35895083021661,2.36095507888878,2.36085536502449,2.3622812732838,2.36462454909455,2.365751315761,2.36843361871032,2.3688424455539,2.37079683729393,2.37208314614324,2.37258171546467,2.37486516295685,2.37530390395972,2.37565290248472
2.3088944703444,2.30874489954797,2.30921355471012,2.30898421282226,2.3095525818487,2.3099015803737,2.31032037860371,2.31099843288086,2.31171637270373,2.31237448420803,2.31318216650875,2.31438870426663,2.3145881319952,2.31592429777665,2.31654252373523,2.31775903287954,2.31941428302671,2.31623341075594,2.31916499836599,2.31898551341027,2.31877611429527,2.31905531311527,2.3181279741774,2.31662229482666,2.31794848922168,2.273835075661,2.27342624881742,2.27239919601526,2.27091345943738,2.27265845206241,2.2713721432131,2.27131231489453,2.2713721432131,2.27080377418667,2.27125248657596,2.27150177123668,2.2718208556024,2.27174108451097,2.27255873819812,2.27228951076455,2.27263850928955,2.27251885265241,2.27424390250458,2.27520115560173,2.27452310132458,2.274114274481,2.27434361636886,2.27499175648673,2.27551026858103,2.27586923849246,2.27668689217961,2.27748460309391,2.27853159866893,2.28036633377181,2.28141332934683,2.33477021812694,2.33314488213906,2.33462064733051,2.33634569718268,2.338609201902,2.33863911606129,2.33773171989628,2.33738272137127,2.33793114762485,2.33470041842194,2.33317479629835,2.33420184910051,2.33694398036841,2.33769183435056,2.33564770013267,2.33664483877555,2.3357972709291,2.33654512491126,2.33716335086984,2.33757217771342,2.33646535381983,2.33582718508839,2.33862914467486,2.33897814319987,2.33923739924701,2.33894822904058,2.33858925912915,2.33848954526486,2.33904794290487,2.33717332225627,2.33897814319987,2.3399254249106,2.33968611163631,2.2849432001426,2.28443465943473,2.28336772108686,2.28279935206042,2.28212129778327,2.28094467418468,2.28102444527611,2.28134352964183,2.28134352964183,2.28109424498111,2.28034639099896,2.28030650545324,2.28040621931753,2.27984782167752,2.2803962479311,2.27949882315252,2.28040621931753,2.27999739247395,2.28005722079252,2.27967830810823,2.28038627654467,2.28075521784254,2.27985779306395,2.28050593318182,2.28007716356538,2.28083498893396,2.27974810781323,2.28082501754754,2.28029653406681,2.28064553259182,2.2814033579604,2.28157287152969,2.28156290014326,2.28207144085113,2.28148312905183,2.28230078273899,2.28282926621971,2.28365689129329,2.28303866533471,2.28410560368259,2.28374663377115,2.28359706297472,2.28410560368259,2.28433494557045,2.28566113996547,2.28541185530475,2.28751581784121,2.28676796385906,2.2879645302305,2.28964969453696,2.28939043848981,2.29313967978701,2.29377784851845,2.2941767039756,2.35295802697294,2.35359619570438,2.3533269682708,2.3533269682708,2.35591952874227,2.35535115971584,2.35562038714941,2.35570015824084,2.35542095942084,2.35535115971584,2.35536113110226,2.35553064467155,2.35568021546798,2.35486256178083,2.35528136001083,2.3560690995387,2.35614887063013,2.35733546561515,2.35637821251799,2.35725569452372,2.3586018316916,2.35924000042304,2.35997788301876,2.36172287564379,2.36316872667596,2.36531257475813,2.36815441989032,2.36838376177818,2.37097632224965,2.37186377564181,2.3724520874411,2.37604178655544,2.3743965077947,2.37494493404828
2.30834604409082,2.30830615854511,2.30810673081653,2.30947281075727,2.30863521429725,2.30945286798441,2.30986169482799,2.31058960603728,2.31218502786588,2.31192577181873,2.31245425529946,2.31418927653805,2.31454824644949,2.31527615765879,2.31626332491523,2.31727043494453,2.31767926178811,2.32060087801172,2.31938436886742,2.31806814585883,2.31928465500313,2.31997268066672,2.32057096385244,2.32071056326244,2.27391484675243,2.27367553347814,2.27212996858169,2.27150177123668,2.27090348805095,2.27149179985025,2.27096331636953,2.27077386002738,2.27184079837525,2.27153168539596,2.27113282993881,2.27142200014525,2.27166131341954,2.27160148510096,2.27212996858169,2.27226956799169,2.2729675650417,2.27200034055811,2.27269833760812,2.27331656356671,2.273974675071,2.27343622020385,2.27536069778459,2.27517124144245,2.27551026858103,2.27576952462817,2.27647749306461,2.27752448863963,2.27883074026179,2.27992759276895,2.28204152669184,2.28415546061473,2.33310499659335,2.33450099069337,2.33546821517696,2.33726306473413,2.33691406620912,2.33712346532412,2.33728300750698,2.338120603967,2.33335428125407,2.33420184910051,2.33608644113554,2.33470041842194,2.33553801488196,2.33499956001481,2.33555795765481,2.33620609777268,2.33681435234483,2.33689412343626,2.33648529659269,2.33680438095841,2.33676449541269,2.33869894437986,2.338120603967,2.33869894437986,2.33859923051558,2.33859923051558,2.33847957387843,2.33874880131201,2.33577732815625,2.33733286443913,2.33740266414413,2.33658501045697,2.28455431607188,2.2839360901133,2.28303866533471,2.28261986710471,2.28165264262112,2.28066547536468,2.28040621931753,2.28021676297538,2.28003727801967,2.28005722079252,2.28001733524681,2.28020679158896,2.2803264482261,2.28010707772467,2.28027659129396,2.27969825088109,2.27999739247395,2.27947888037966,2.27919968155965,2.27949882315252,2.27943899483394,2.27974810781323,2.27994753554181,2.27979796474538,2.28023670574824,2.28103441666254,2.28029653406681,2.27994753554181,2.28075521784254,2.28073527506968,2.28077516061539,2.28051590456825,2.28164267123469,2.28121390161826,2.28167258539398,2.28222101164756,2.28225092580684,2.28297883701614,2.28277940928757,2.28410560368259,2.28380646208973,2.28437483111616,2.28628933731048,2.28471385825474,2.2859503101719,2.28565116857904,2.28635913701548,2.28671810692691,2.28714687654335,2.28971949424196,2.28953003789981,2.29133485884341,2.29187331371056,2.34600797063212,2.35507196089583,2.35345659629438,2.35215034467221,2.35295802697294,2.35459333434725,2.35563035853584,2.35497224703154,2.35555058744441,2.35515173198726,2.35512181782798,2.35521156030583,2.35401499393439,2.35441384939154,2.35557053021727,2.35399505116153,2.35433407830011,2.35454347741511,2.35569018685441,2.35636824113157,2.356657411338,2.35818303346159,2.35923002903661,2.36058613759092,2.36217158803308,2.36253055794452,2.3648838051417,2.36716725263388,2.36944072873963,2.37046778154178,2.37262160101039,2.37268142932896,2.37371845351755,2.37354893994826,2.3745361072047
2.30787738892867,2.30894432727654,2.30949275353012,2.30789733170153,2.30850558627368,2.3091038694594,2.30946283937084,2.31425907624305,2.310838890698,2.31106823258586,2.31234457004874,2.31320210928161,2.31382033524019,2.31455821783592,2.31556532786522,2.31686160810095,2.31770917594739,2.31664223759952,2.31730034910382,2.31734023464953,2.31762940485596,2.319862995416,2.32128890367531,2.32030173641886,2.27495187094102,2.27372539041028,2.2730373647467,2.27155162816882,2.27110291577953,2.27111288716596,2.27113282993881,2.27033511902452,2.27057443229881,2.27082371695952,2.27214991135454,2.27111288716596,2.27152171400953,2.27170119896525,2.27165134203311,2.27187071253454,2.27255873819812,2.27291770810956,2.27323679247528,2.27344619159028,2.27348607713599,2.27378521872886,2.2749119853953,2.27462281518887,2.27579943878746,2.27632792226818,2.27736494645677,2.27802305796106,2.27912988185465,2.28155292875683,2.28291900869757,2.33231725706548,2.3329155402512,2.33376310809764,2.33452093346623,2.33567761429196,2.33674455263983,2.33643543966054,2.33601664143054,2.33703372284627,2.33587704202053,2.33356368036907,2.33710352255127,2.33511921665195,2.33397250721265,2.33442121960194,2.3354482724041,2.33441124821551,2.33594684172553,2.33761206325913,2.33637561134197,2.33693400898198,2.33771177712342,2.33775166266913,2.33716335086984,2.33882857240344,2.33810066119414,2.33869894437986,2.33827017476343,2.33802089010271,2.33707360839198,2.33449101930694,2.33587704202053,2.33928725617916,2.28360703436115,2.28332783554115,2.28344749217829,2.28216118332899,2.28338766385972,2.28020679158896,2.28156290014326,2.28100450250325,2.28082501754754,2.28013699188395,2.28041619070396,2.27982787890466,2.27985779306395,2.27989767860966,2.27969825088109,2.27976805058609,2.27998742108752,2.27980793613181,2.27972816504038,2.27949882315252,2.27916976740037,2.27985779306395,2.27994753554181,2.27987773583681,2.27994753554181,2.28024667713467,2.28062558981896,2.27998742108752,2.27984782167752,2.28031647683967,2.28083498893396,2.28130364409611,2.28158284291612,2.28106433082183,2.28155292875683,2.28196175560041,2.28270960958257,2.28290903731114,2.28415546061473,2.28359706297472,2.2837266909983,2.28365689129329,2.28405574675044,2.28561128303332,2.28539191253189,2.28580073937547,2.28659845028977,2.28733633288549,2.28739616120407,2.28788475913907,2.28874229837194,2.29080637536269,2.29114540250127,2.35748503641158,2.35118312018863,2.35177143198792,2.35275859924437,2.35248937181079,2.35296799835937,2.35397510838867,2.35422439304939,2.35469304821154,2.35442382077796,2.35319734024723,2.35473293375725,2.3539152800701,2.35486256178083,2.35486256178083,2.35456342018797,2.3547129909844,2.35530130278369,2.35467310543868,2.35536113110226,2.35547081635298,2.35676709658871,2.35800354850588,2.35963885588019,2.36199210307737,2.36571143021528,2.3689820449639,2.36512311841599,2.36602054319457,2.37082675145322,2.36992932667463,2.37160451959466,2.37182389009609,2.37363868242612,2.37412728036113
2.30752839040366,2.3072292488108,2.30725916297009,2.30780758922367,2.30766798981367,2.3079571600201,2.30891441311726,2.31009103671585,2.31034032137657,2.31101837565372,2.3119158004323,2.31268359718732,2.31389013494519,2.31450836090377,2.31535592875021,2.31601404025451,2.31681175116881,2.31773909010668,2.31790860367597,2.31815788833669,2.31797840338097,2.31880602845455,2.32086013405887,2.32117921842459,2.27467267212101,2.27385501843386,2.27183082698883,2.27244905294741,2.27060434645809,2.2704348328888,2.27039494734309,2.27034509041095,2.27035506179737,2.27171117035168,2.27212996858169,2.27173111312454,2.27241913878812,2.27134222905382,2.27199036917168,2.27255873819812,2.27274819454027,2.27253879542526,2.27287782256384,2.27308722167884,2.27398464645743,2.27399461784386,2.274114274481,2.27436355914172,2.27579943878746,2.27656723554247,2.2768564057489,2.27874099778393,2.2792495384918,2.28113413052683,2.33122040455832,2.33286568331906,2.33331439570835,2.33379302225693,2.33568758567839,2.33651521075197,2.33650523936554,2.33476024674052,2.33438133405622,2.3336434514605,2.33403233553122,2.33296539718335,2.33341410957264,2.33489984615052,2.33396253582622,2.33340413818621,2.33310499659335,2.33321468184406,2.33731292166627,2.33476024674052,2.33496964585552,2.33589698479339,2.33588701340696,2.33833997446843,2.3375322921677,2.33724312196127,2.33704369423269,2.33762203464556,2.33668472432126,2.33705366561912,2.33583715647482,2.33506935971981,2.33801091871628,2.28551156916904,2.28384634763544,2.28380646208973,2.28210135501041,2.28091476002539,2.2812637585504,2.28050593318182,2.28015693465681,2.27991762138252,2.28017687742967,2.27984782167752,2.27990764999609,2.28027659129396,2.27946890899323,2.2801170491111,2.28000736386038,2.27954868008466,2.2795287373118,2.27985779306395,2.2796683367218,2.27963842256252,2.27956862285752,2.2796683367218,2.27998742108752,2.27972816504038,2.28010707772467,2.2810543594354,2.27995750692824,2.27992759276895,2.27953870869823,2.28012702049753,2.28091476002539,2.28079510338825,2.2811241591404,2.28163269984826,2.28208141223756,2.28240049660327,2.28259992433185,2.28269963819614,2.283138379199,2.28288909453828,2.28355717742901,2.28371671961187,2.28472382964117,2.28496314291546,2.28637907978834,2.28622950899191,2.28677793524549,2.28720670486192,2.28720670486192,2.28743604674978,2.28887192639552,2.28989897919768,2.29032774881411,2.3521802588315,2.35188111723864,2.35171160366935,2.35233980101436,2.35235974378722,2.35298794113223,2.35339676797581,2.35428422136796,2.35595941428799,2.35385545175153,2.35333693965723,2.35388536591081,2.35353636738581,2.35379562343295,2.35340673936223,2.35343665352152,2.35324719717937,2.35329705411152,2.35415459334439,2.35488250455368,2.35548078773941,2.35629844142656,2.35698646709015,2.35923002903661,2.36270007151381,2.36348781104168,2.36657894083458,2.3641558939324,2.36630971340101,2.36782536413817,2.36994926944749,2.37067718065679,2.3724520874411,2.37357885410755,2.37294068537611
2.30717939187866,2.30672070810294,2.30675062226222,2.3069500499908,2.30717939187866,2.3086152715244,2.30872495677511,2.30966226709941,2.30979189512299,2.31075911960657,2.31122777476872,2.3125739119366,2.31375053553519,2.31456818922235,2.31581461252594,2.31621346798309,2.31634309600666,2.31695135057881,2.31715077830739,2.31745989128668,2.31754963376453,2.31818780249597,2.3210795045603,2.31523627211307,2.27377524734243,2.27287782256384,2.27309719306527,2.27221971105955,2.27224962521883,2.26988640663522,2.27096331636953,2.27059437507166,2.27038497595666,2.27075391725452,2.27047471843452,2.27121260103024,2.27173111312454,2.27161145648739,2.27174108451097,2.27270830899455,2.27231942492383,2.27257868097098,2.27305730751956,2.27344619159028,2.27379519011528,2.273625676546,2.27419404557243,2.27480230014459,2.27589915265175,2.27665697802033,2.27813274321178,2.27891051135322,2.27968827949466,2.28148312905183,2.33071186385045,2.33143977505975,2.33234717122476,2.33332436709478,2.33511921665195,2.33503944556052,2.33509927387909,2.33514913081124,2.33307508243406,2.3327061411362,2.33304516827477,2.33316482491192,2.33261639865834,2.33196825854047,2.3318386305169,2.33201811547262,2.33239702815691,2.3327061411362,2.33306511104763,2.33417193494122,2.33450099069337,2.3361761836134,2.33481010367266,2.33553801488196,2.33594684172553,2.3365949818434,2.33662489600269,2.3371134939377,2.33605652697625,2.33651521075197,2.33817046089914,2.33453090485266,2.33583715647482,2.28415546061473,2.28360703436115,2.28281929483328,2.2819916697597,2.28174238509898,2.28137344380112,2.2806056470461,2.28097458834397,2.28079510338825,2.28000736386038,2.28050593318182,2.27985779306395,2.27981790751823,2.27947888037966,2.27947888037966,2.27969825088109,2.27860139837393,2.27949882315252,2.27936919512894,2.27979796474538,2.27939910928823,2.27943899483394,2.27967830810823,2.27957859424395,2.28142330073326,2.27946890899323,2.27993756415538,2.27977802197252,2.28044610486324,2.28005722079252,2.27963842256252,2.28094467418468,2.28086490309325,2.28036633377181,2.28150307182469,2.28197172698684,2.28176232787184,2.28195178421398,2.28245035353542,2.282859180379,2.28296886562971,2.28337769247329,2.283277978609,2.28350732049686,2.28438480250259,2.28456428745831,2.28634916562905,2.28585059630761,2.28631925146976,2.28798447300336,2.28773518834264,2.28915112521552,2.28985909365196,2.29041749129197,2.34944809895003,2.34948798449574,2.35209051635364,2.35184123169292,2.35239962933293,2.35300788390508,2.35357625293152,2.35248937181079,2.35445373493725,2.35387539452438,2.35346656768081,2.35278851340365,2.35344662490795,2.35235974378722,2.35247940042436,2.3539850797751,2.35285831310865,2.35296799835937,2.35305774083723,2.35429419275439,2.3551317892144,2.35611895647085,2.35710612372729,2.35852206060017,2.36051633788592,2.36018728213377,2.36272001428666,2.36464449186741,2.36543223139528,2.36860313227961,2.36967007062749,2.3703680676775,2.37427685115756,2.37214297446181,2.37220280278038
2.3058731402565,2.30623211016793,2.30659108007936,2.30647142344222,2.30686030751294,2.30747853347152,2.30744861931224,2.30838592963654,2.30943292521155,2.31041012108157,2.310978490108,2.31204542845588,2.31308245264447,2.31392004910448,2.31455821783592,2.31494710190664,2.3147277314052,2.31664223759952,2.31657243789452,2.31664223759952,2.31802826031311,2.31774906149311,2.31710092137524,2.2764376075189,2.2727581659267,2.27142200014525,2.27179094144311,2.2710929443931,2.27131231489453,2.27004594881808,2.27046474704809,2.27039494734309,2.27074394586809,2.27111288716596,2.27085363111881,2.2721000544224,2.27062428923095,2.27104308746096,2.27183082698883,2.2718906553074,2.27229948215097,2.27236928185598,2.27284790840456,2.27265845206241,2.27357581961385,2.27423393111815,2.27486212846316,2.27560998244531,2.27614843731246,2.27656723554247,2.27698603377248,2.27926948126466,2.28151304321112,2.33037283671188,2.33163920278832,2.33128023287689,2.33235714261119,2.33358362314193,2.33413204939551,2.33487990337766,2.33510924526552,2.33488987476409,2.33235714261119,2.33283576915977,2.33192837299476,2.33182865913047,2.33145971783261,2.33198820131333,2.33132011842261,2.33116057623975,2.33171897387975,2.33240699954334,2.33278591222763,2.33340413818621,2.33332436709478,2.33440127682908,2.33456081901194,2.33452093346623,2.33536850131267,2.33557790042767,2.33629584025054,2.3353784726991,2.33591692756625,2.33594684172553,2.33407222107693,2.33495967446909,2.33795109039771,2.28337769247329,2.28300875117543,2.28219109748827,2.28243041076256,2.28089481725254,2.28019682020253,2.28030650545324,2.27958856563037,2.28085493170682,2.27999739247395,2.2795287373118,2.27958856563037,2.2794589376068,2.28010707772467,2.27951876592537,2.27975807919966,2.28007716356538,2.27961847978966,2.27981790751823,2.27960850840323,2.28028656268039,2.27982787890466,2.27942902344751,2.27978799335895,2.27975807919966,2.28001733524681,2.28041619070396,2.27935922374251,2.27988770722324,2.27964839394895,2.28054581872753,2.28045607624967,2.28038627654467,2.28038627654467,2.28027659129396,2.2810543594354,2.28174238509898,2.28177229925827,2.28225092580684,2.28231075412542,2.28300875117543,2.28298880840257,2.28329792138186,2.28376657654401,2.28380646208973,2.28562125441975,2.28477368657331,2.28641896533405,2.28710699099763,2.28692750604192,2.28816395795908,2.29005852138054,2.28964969453696,2.29083628952198,2.29329922196987,2.35019595293218,2.35167171812364,2.35214037328579,2.35137257653077,2.35294805558651,2.35203068803507,2.35273865647151,2.3530477694508,2.35326713995223,2.35244948626508,2.35187114585221,2.3523198582415,2.35224008715007,2.35307768361009,2.3523896579465,2.35227000130936,2.35413465057153,2.35293808420008,2.35315745470152,2.35596938567442,2.35527138862441,2.35623861310799,2.35725569452372,2.36220150219237,2.36281972815095,2.36135393434593,2.36302912726595,2.36632965617386,2.3668980252003,2.3681145343446,2.36941081458034,2.36995924083392,2.37134526354751,2.37124554968322
2.30651130898793,2.30573354084649,2.30612242491721,2.30640162373722,2.30750844763081,2.30691016444508,2.30746856208509,2.30846570072796,2.30899418420869,2.31023063612585,2.31131751724658,2.31171637270373,2.31342147978304,2.31518641518093,2.31435879010734,2.31435879010734,2.31505678715735,2.31543569984164,2.31617358243737,2.31654252373523,2.31750974821882,2.31839720161098,2.31429896178877,2.27313707861099,2.27253879542526,2.27162142787382,2.27007586297737,2.26997614911308,2.27060434645809,2.2700858343638,2.26990634940808,2.26995620634022,2.26986646386237,2.27051460398023,2.27134222905382,2.27076388864095,2.2713721432131,2.27142200014525,2.27227953937812,2.27266842344884,2.27221971105955,2.27257868097098,2.27300745058741,2.27361570515957,2.27316699277027,2.27511141312388,2.27479232875816,2.2755700968996,2.27588918126532,2.27633789365461,2.27877091194322,2.28008713495181,2.28073527506968,2.33092126296546,2.3306919210776,2.3318386305169,2.33215771488262,2.33247679924834,2.33369330839264,2.3329155402512,2.33517904497052,2.33448104792051,2.33452093346623,2.33109077653474,2.33108080514832,2.33210785795047,2.33042269364402,2.3306919210776,2.33047255057616,2.33124034733118,2.33094120573831,2.33192837299476,2.33186854467619,2.33325456738978,2.33294545441049,2.33329445293549,2.33430156296479,2.33435141989694,2.33486993199123,2.33475027535409,2.33588701340696,2.33489984615052,2.33527875883481,2.33522890190267,2.3349297603098,2.33429159157837,2.3357972709291,2.28344749217829,2.282928980084,2.2822708685797,2.2811241591404,2.28169252816684,2.28001733524681,2.27948885176609,2.27990764999609,2.27977802197252,2.28068541813753,2.27981790751823,2.27930936681037,2.27914982462751,2.28000736386038,2.27989767860966,2.27921962433251,2.27915979601394,2.27939910928823,2.27942902344751,2.27929939542394,2.27944896622037,2.27883074026179,2.27905011076322,2.27913985324108,2.27949882315252,2.27933928096966,2.27929939542394,2.27947888037966,2.2794589376068,2.27922959571894,2.27998742108752,2.28050593318182,2.28001733524681,2.27978799335895,2.28085493170682,2.28034639099896,2.28195178421398,2.28300875117543,2.28218112610184,2.28262983849114,2.28265975265042,2.28424520309259,2.28357712020186,2.283138379199,2.28409563229616,2.28434491695688,2.28422526031973,2.28765541725121,2.28652865058477,2.28756567477335,2.28821381489122,2.28809415825408,2.29354850663059,2.29121520220627,2.35212043051293,2.35010621045433,2.34855067417144,2.35055492284362,2.35038540927433,2.35076432195862,2.35207057358078,2.35263894260722,2.35212043051293,2.35167171812364,2.3519708597165,2.35186117446578,2.35182128892007,2.35170163228292,2.35212043051293,2.35184123169292,2.35149223316792,2.35200077387578,2.35466313405225,2.35369590956867,2.35409476502582,2.35553064467155,2.35582978626441,2.35809329098374,2.36046648095377,2.36119439216307,2.3634977824281,2.36323852638096,2.36445503552526,2.36637951310601,2.36948061428534,2.36909173021462,2.37072703758893,2.3706472664975,2.37110595027322
2.30609251075793,2.30546431341292,2.30621216739507,2.30600276828007,2.30616231046293,2.30684036474008,2.30727910574295,2.30766798981367,2.30876484232083,2.30926341164226,2.31036026414942,2.31100840426729,2.31218502786588,2.31292291046161,2.31380039246733,2.31434881872091,2.31479753111021,2.31543569984164,2.3163929529388,2.31582458391236,2.31532601459093,2.3147277314052,2.31446847535806,2.27405444616243,2.27278808008598,2.27067414616309,2.27012571990951,2.27021546238737,2.2693579231545,2.27005592020451,2.26966703613379,2.26983654970308,2.27021546238737,2.27028526209237,2.27004594881808,2.27072400309524,2.27158154232811,2.2711627440981,2.27194051223954,2.27245902433383,2.27244905294741,2.27241913878812,2.27278808008598,2.2731769641567,2.27391484675243,2.27423393111815,2.2756398966046,2.27575955324174,2.27646752167818,2.27777377330035,2.27847177035036,2.2795287373118,2.28094467418468,2.33191840160833,2.33138991812761,2.33137994674118,2.33159931724261,2.33245685647548,2.33234717122476,2.33278591222763,2.3330551396612,2.33366339423336,2.33020332314259,2.33137994674118,2.33085146326046,2.33038280809831,2.32966486827544,2.33048252196259,2.33136997535475,2.33065203553188,2.33005375234616,2.33075174939617,2.33144974644618,2.33172894526618,2.33226740013333,2.33273605529548,2.33341410957264,2.33356368036907,2.33430156296479,2.33449101930694,2.3346505614898,2.33553801488196,2.33580724231553,2.33619612638625,2.33539841547195,2.33051243612188,2.28455431607188,2.28371671961187,2.2822708685797,2.28197172698684,2.28093470279825,2.28057573288682,2.27969825088109,2.27973813642681,2.27947888037966,2.2793891379018,2.28062558981896,2.27969825088109,2.27965836533538,2.27968827949466,2.27961847978966,2.28006719217895,2.27922959571894,2.27974810781323,2.27928942403751,2.27943899483394,2.27920965294608,2.2782424284625,2.27887062580751,2.27880082610251,2.27891051135322,2.27977802197252,2.2793891379018,2.27919968155965,2.27896036828536,2.27909996769537,2.27963842256252,2.27944896622037,2.2794589376068,2.27961847978966,2.28024667713467,2.28071533229682,2.28160278568898,2.28135350102826,2.28103441666254,2.2818520703497,2.28282926621971,2.28281929483328,2.28262983849114,2.28276943790114,2.28303866533471,2.28394606149973,2.28424520309259,2.2852223989626,2.28438480250259,2.28537196975903,2.28596028155833,2.28801438716265,2.28868247005337,2.28944029542196,2.2906368617934,2.29460547359204,2.35056489423005,2.34905921487931,2.35092386414148,2.35042529482004,2.35178140337435,2.35144237623578,2.35175148921507,2.3514523476222,2.3518312603065,2.35242954349222,2.35169166089649,2.35139251930363,2.35108340632434,2.35118312018863,2.35123297712077,2.35119309157506,2.35153211871363,2.35273865647151,2.35349648184009,2.35327711133866,2.35547081635298,2.35535115971584,2.35719586620515,2.35936962844661,2.3601274538152,2.36536243169028,2.36305904142524,2.36385675233954,2.36615017121815,2.36873276030319,2.3684934470289,2.3698495555832,2.37040795322321,2.37247203021396
2.30558397005006,2.30537457093506,2.30576345500578,2.30534465677577,2.30591302580221,2.3060825393715,2.30699990692294,2.30785744615581,2.30886455618511,2.30946283937084,2.31024060751228,2.31132748863301,2.31232462727588,2.31268359718732,2.3137904210809,2.31402973435519,2.31442858981234,2.3151764437945,2.31629323907451,2.31566504172951,2.31652258096238,2.31388016355876,2.31489724497449,2.27255873819812,2.27443335884672,2.27291770810956,2.27068411754952,2.27000606327237,2.26954737949665,2.26974680722522,2.26969695029308,2.27061431784452,2.27024537654666,2.27009580575023,2.27014566268237,2.2713023435081,2.27132228628096,2.2719604550124,2.27163139926025,2.2722396538324,2.27274819454027,2.27308722167884,2.27288779395027,2.27332653495313,2.27335644911242,2.27466270073458,2.27423393111815,2.2759190954246,2.2769262054539,2.27875096917036,2.27907005353608,2.2803264482261,2.2819916697597,2.329236098659,2.32993409570901,2.33113066208046,2.33158934585618,2.33116057623975,2.33127026149046,2.33200814408619,2.33029306562045,2.33113066208046,2.329096499249,2.32980446768544,2.32939564084186,2.33013352343759,2.32968481104829,2.33021329452902,2.33004378095973,2.32940561222829,2.32929592697757,2.32997398125473,2.33081157771474,2.33134006119546,2.33149960337832,2.33347393789121,2.33323462461692,2.33346396650478,2.33420184910051,2.33423176325979,2.33413204939551,2.33463061871694,2.33523887328909,2.33400242137193,2.33653515352483,2.28661839306263,2.28315832197186,2.28342754940543,2.28267969542328,2.28150307182469,2.28081504616111,2.28007716356538,2.28064553259182,2.27981790751823,2.27989767860966,2.27951876592537,2.27990764999609,2.28000736386038,2.27933928096966,2.27905011076322,2.28016690604324,2.2791797387868,2.27889056858036,2.27930936681037,2.27957859424395,2.27919968155965,2.27883074026179,2.27946890899323,2.27920965294608,2.27882076887536,2.27909996769537,2.27943899483394,2.27998742108752,2.2792495384918,2.2793891379018,2.27926948126466,2.27961847978966,2.27986776445038,2.27961847978966,2.27968827949466,2.27954868008466,2.28069538952396,2.28052587595467,2.28097458834397,2.28188198450898,2.28131361548254,2.28232072551185,2.28367683406615,2.28293895147043,2.28279935206042,2.28296886562971,2.28307855088043,2.28413551784187,2.28398594704544,2.28506285677974,2.28513265648475,2.28686767772334,2.28694744881477,2.28806424409479,2.28974940840125,2.29011834969911,2.35031560956933,2.35034552372862,2.35101360661934,2.35014609600004,2.35043526620647,2.35104352077863,2.35120306296149,2.3520406594215,2.35126289128006,2.35112329187006,2.35105349216505,2.35201074526221,2.35092386414148,2.35120306296149,2.35130277682577,2.35127286266649,2.35081417889077,2.35153211871363,2.3521104591265,2.35265888538008,2.35302782667794,2.35371585234152,2.35509190366869,2.3601274538152,2.35811323375659,2.36017731074734,2.36116447800378,2.36237101576166,2.3639464948174,2.366239913696,2.3675561367046,2.36840370455104,2.36848347564247,2.37117574997822,2.36923132962462
2.30456688863433,2.3050056296372,2.30501560102363,2.30561388420935,2.30565376975506,2.3062221387815,2.30687027889937,2.30748850485795,2.30825630161296,2.3087548709344,2.30909389807297,2.31127763170087,2.31210525677445,2.31280325382446,2.31384027801305,2.31339156562376,2.31412944821948,2.31515650102164,2.3146579317002,2.3142391334702,2.31435879010734,2.31343145116947,2.27402453200314,2.27485215707673,2.27124251518953,2.27176102728382,2.26990634940808,2.27034509041095,2.27024537654666,2.27016560545523,2.26958726504236,2.26963712197451,2.27002600604523,2.27035506179737,2.2700160346588,2.27082371695952,2.2719604550124,2.27180091282954,2.27166131341954,2.27288779395027,2.27328664940742,2.27325673524813,2.27311713583813,2.27357581961385,2.27365559070528,2.27387496120671,2.27481227153101,2.27582935294674,2.27672677772533,2.27835211371321,2.27944896622037,2.27953870869823,2.32845833051756,2.32991415293615,2.32963495411615,2.33041272225759,2.33047255057616,2.33046257918973,2.33121043317189,2.33014349482402,2.32861787270042,2.32936572668258,2.32925604143186,2.32872755795114,2.32800961812827,2.32825890278899,2.3283685880397,2.32824893140256,2.32804950367398,2.32838853081256,2.32853810160899,2.32938566945543,2.32985432461758,2.33091129157903,2.33136997535475,2.33139988951404,2.3325665417262,2.33345399511835,2.33321468184406,2.33341410957264,2.33293548302406,2.33428162019194,2.33254659895334,2.33238705677048,2.33510924526552,2.33220757181476,2.28413551784187,2.28335774970043,2.28219109748827,2.28102444527611,2.28104438804897,2.28028656268039,2.27984782167752,2.27962845117609,2.27922959571894,2.27986776445038,2.27860139837393,2.27937916651537,2.27950879453894,2.27962845117609,2.27881079748893,2.27900025383108,2.27915979601394,2.27965836533538,2.27925950987823,2.27837205648607,2.27822248568964,2.27926948126466,2.27918971017323,2.27923956710537,2.27894042551251,2.27862134114679,2.27883074026179,2.27926948126466,2.27941905206109,2.27904013937679,2.27907005353608,2.27926948126466,2.28020679158896,2.27962845117609,2.28026661990753,2.27993756415538,2.28080507477468,2.28085493170682,2.28085493170682,2.28123384439111,2.28178227064469,2.2823406682847,2.28172244232612,2.282998779789,2.28326800722257,2.283417578019,2.28337769247329,2.28521242757618,2.28495317152903,2.28557139748761,2.28692750604192,2.28733633288549,2.28817392934551,2.28891181194123,2.29039754851911,2.34637691192998,2.34691536679713,2.34935835647217,2.34998655381718,2.34966746945146,2.35112329187006,2.35091389275505,2.35042529482004,2.35073440779934,2.3502358384779,2.35168168951006,2.35078426473148,2.35017601015933,2.35091389275505,2.35146231900863,2.35049509452505,2.35167171812364,2.35062472254862,2.35228994408222,2.35186117446578,2.35265888538008,2.35286828449508,2.35448364909654,2.35631838419942,2.35891094467089,2.35982831222233,2.36107473552592,2.36313881251667,2.36375703847525,2.36506329009741,2.36652908390244,2.36777550720603,2.3674863369996,2.37300051369468,2.36780542136531
2.30411817624504,2.30485605884077,2.30461674556648,2.30545434202649,2.30492585854577,2.30543439925363,2.30633182403222,2.30707967801437,2.30763807565438,2.30895429866297,2.3096921812587,2.31072920544729,2.31117791783658,2.31251408361803,2.31324199482732,2.31380039246733,2.31410950544662,2.31461804615449,2.3150368443845,2.31476761695092,2.31319213789518,2.31347133671519,2.31426904762948,2.27365559070528,2.2710929443931,2.27072400309524,2.27141202875882,2.27045477566166,2.26980663554379,2.26999609188594,2.26952743672379,2.26990634940808,2.27053454675309,2.27011574852308,2.2702254337738,2.27044480427523,2.27131231489453,2.27099323052881,2.27187071253454,2.2730373647467,2.27250888126598,2.27300745058741,2.27285787979098,2.27355587684099,2.27386498982029,2.27447324439244,2.27455301548387,2.2757096963096,2.27641766474604,2.27802305796106,2.27958856563037,2.28022673436181,2.32797970396898,2.32929592697757,2.32945546916043,2.32961501134329,2.3301734089833,2.32952526886543,2.33020332314259,2.3297546107533,2.32956515441115,2.32770050514898,2.32787999010469,2.32814921753827,2.32857798715471,2.32747116326112,2.32772044792183,2.32779024762684,2.32775036208112,2.32776033346755,2.32789993287755,2.32803953228755,2.32931586975043,2.33075174939617,2.33123037594475,2.33117054762617,2.33167908833404,2.33213777210976,2.33332436709478,2.33297536856977,2.33292551163763,2.33306511104763,2.33276596945477,2.33113066208046,2.33101100544331,2.3330551396612,2.28295889424328,2.28244038214899,2.28139338657397,2.28143327211969,2.28095464557111,2.27995750692824,2.27997744970109,2.2792495384918,2.27935922374251,2.27892048273965,2.27960850840323,2.27872105501107,2.27947888037966,2.2786612266925,2.27861136976036,2.27876094055679,2.27981790751823,2.27935922374251,2.27847177035036,2.27844185619107,2.27840197064536,2.27848174173679,2.27914982462751,2.27922959571894,2.2791099390818,2.27883074026179,2.27811280043892,2.27892048273965,2.27911991046822,2.27887062580751,2.27913985324108,2.27981790751823,2.27921962433251,2.27996747831467,2.27992759276895,2.2812637585504,2.28269963819614,2.28121390161826,2.28071533229682,2.28055579011396,2.28202158391898,2.28265975265042,2.28244038214899,2.28243041076256,2.28231075412542,2.28351729188329,2.28329792138186,2.28671810692691,2.28597025294476,2.28644887949334,2.28703719129263,2.28676796385906,2.28799444438979,2.29000866444839,2.29128500191127,2.29353853524416,2.35267882815294,2.35108340632434,2.35102357800577,2.35008626768147,2.3503754378879,2.35130277682577,2.3500962390679,2.35097372107362,2.35004638213575,2.34962758390575,2.34932844231288,2.34873015912716,2.34890964408288,2.34817176148715,2.34935835647217,2.35064466532148,2.35122300573434,2.35113326325648,2.35166174673721,2.35185120307935,2.35275859924437,2.35439390661868,2.35564032992227,2.3588810305116,2.36541228862242,2.36102487859378,2.3638068954074,2.36362741045168,2.36511314702956,2.36525274643956,2.36671854024458,2.36746639422674,2.36765585056888,2.36639945587886
2.30335037949003,2.30377914910646,2.30490591577291,2.30496574409148,2.30534465677577,2.30645148066936,2.30649136621508,2.30716942049223,2.3079571600201,2.30870501400225,2.30974203819084,2.31065940574228,2.31175625824944,2.31235454143517,2.31304256709875,2.31321208066804,2.31499695883878,2.31454824644949,2.31449838951734,2.31434881872091,2.31527615765879,2.31725049217167,2.31183602934087,2.27266842344884,2.27238922462883,2.27041489011595,2.2700160346588,2.26986646386237,2.26937786592736,2.26959723642879,2.26972686445236,2.26930806622236,2.26984652108951,2.26950749395093,2.2705046325938,2.27004594881808,2.27055448952595,2.27115277271167,2.27177099867025,2.27237925324241,2.27302739336027,2.27377524734243,2.2728279656317,2.27438350191458,2.27351599129528,2.27451312993815,2.27492195678173,2.27642763613247,2.27778374468677,2.27750454586677,2.27995750692824,2.32772044792183,2.32819907447041,2.32891701429328,2.32938566945543,2.32878738626971,2.3319782299269,2.32919621311329,2.32911644202186,2.32859792992756,2.33029306562045,2.32828881694827,2.32759081989826,2.32771047653541,2.32720193582754,2.32677316621111,2.32691276562111,2.32685293730254,2.32728170691897,2.32776033346755,2.32761076267112,2.32824893140256,2.32853810160899,2.32871758656471,2.33012355205116,2.33047255057616,2.33126029010403,2.33181868774404,2.33231725706548,2.33212780072333,2.33189845883547,2.33124034733118,2.33241697092977,2.33294545441049,2.32525751547394,2.28443465943473,2.28269963819614,2.28183212757684,2.28161275707541,2.28122387300469,2.27988770722324,2.27963842256252,2.27927945265108,2.2796683367218,2.27865125530607,2.28030650545324,2.27911991046822,2.27887062580751,2.27880082610251,2.27886065442108,2.27860139837393,2.27979796474538,2.27880082610251,2.27861136976036,2.2784518275775,2.27898031105822,2.27833217094035,2.27876094055679,2.2785216272825,2.2783820278725,2.27867119807893,2.27816265737107,2.27822248568964,2.27863131253322,2.27908002492251,2.27897033967179,2.27907005353608,2.27906008214965,2.27881079748893,2.28024667713467,2.27971819365395,2.2795985370168,2.28003727801967,2.28091476002539,2.28123384439111,2.28144324350612,2.28054581872753,2.28149310043826,2.28231075412542,2.2818520703497,2.28256003878613,2.282998779789,2.28304863672114,2.28584062492119,2.2898391508791,2.28525231312189,2.28549162639618,2.28696739158763,2.2880343299355,2.28944029542196,2.29158414350413,2.35298794113223,2.3513127482122,2.34976718331575,2.34962758390575,2.35047515175219,2.35064466532148,2.35106346355148,2.34963755529218,2.35106346355148,2.34979709747503,2.34891961546931,2.34944809895003,2.34940821340431,2.34980706886146,2.34961761251932,2.34949795588217,2.34995663965789,2.35035549511504,2.35078426473148,2.35116317741577,2.35116317741577,2.35205063080793,2.35390530868367,2.35507196089583,2.35628847004014,2.35793374880088,2.36074567977378,2.36454477800312,2.36313881251667,2.36564163051028,2.36714730986102,2.36874273168961,2.36747636561317,2.36803476325318,2.36880256000819
2.30338029364931,2.30343015058146,2.30348997890003,2.30391874851647,2.30424780426861,2.3049358299322,2.3059429399615,2.30685033612651,2.30777767506438,2.30899418420869,2.30965229571298,2.31085883347086,2.31118788922301,2.31206537122874,2.31355110780662,2.31221494202517,2.3124343125266,2.31288302491589,2.31346136532876,2.31461804615449,2.31556532786522,2.31760946208311,2.31431890456163,2.27146188569096,2.27092343082381,2.27047471843452,2.27049466120738,2.2693579231545,2.26974680722522,2.26948755117807,2.26991632079451,2.26953740811022,2.26978669277094,2.27024537654666,2.27014566268237,2.27056446091238,2.27191059808026,2.27117271548453,2.27199036917168,2.27202028333097,2.27241913878812,2.27269833760812,2.27290773672313,2.27373536179671,2.27408436032172,2.27460287241601,2.27539061194388,2.27589915265175,2.2765772069289,2.27828231400821,2.27994753554181,2.32841844497185,2.32763070544398,2.32826887417542,2.32931586975043,2.32990418154973,2.32874750072399,2.32849821606328,2.32800961812827,2.32746119187469,2.32706233641754,2.32744124910183,2.32672330927896,2.32568628509038,2.32554668568037,2.32554668568037,2.3255566570668,2.32567631370395,2.32672330927896,2.32684296591611,2.32702245087182,2.3272218786004,2.32802956090113,2.329445497774,2.32960503995686,2.33062212137259,2.33129020426332,2.33187851606261,2.33224745736048,2.33259645588548,2.33128023287689,2.33121043317189,2.33122040455832,2.33100103405689,2.33060217859974,2.28413551784187,2.28298880840257,2.28173241371255,2.2810543594354,2.28117401607254,2.27993756415538,2.2801868488161,2.27964839394895,2.27892048273965,2.27967830810823,2.27862134114679,2.27914982462751,2.27832219955393,2.27865125530607,2.27848174173679,2.27857148421464,2.27848174173679,2.2784518275775,2.27897033967179,2.27844185619107,2.27935922374251,2.27844185619107,2.2783122281675,2.27822248568964,2.27842191341821,2.2781726287575,2.27947888037966,2.27886065442108,2.27823245707607,2.27892048273965,2.27914982462751,2.27942902344751,2.27885068303465,2.27976805058609,2.28001733524681,2.27928942403751,2.2801170491111,2.27977802197252,2.28013699188395,2.2803962479311,2.28095464557111,2.28118398745897,2.28124381577754,2.2821312691697,2.28252015324042,2.28287912315185,2.28297883701614,2.28389620456758,2.28387626179473,2.28492325736974,2.28455431607188,2.28593036739904,2.28684773495049,2.29004854999411,2.28932063878481,2.29688892108421,2.34769313493857,2.34884981576431,2.34948798449574,2.34953784142789,2.3496475266786,2.34952787004146,2.35013612461361,2.35054495145719,2.3492985281536,2.34858058833073,2.34874013051359,2.34895950101502,2.34818173287358,2.34886975853716,2.34865038803573,2.34880993021859,2.34987686856646,2.3495079272686,2.35053498007076,2.35107343493791,2.35198083110293,2.35316742608794,2.35362610986367,2.35543093080727,2.35653775470085,2.3577343210723,2.35995794024591,2.36539234584956,2.36419577947812,2.36399635174954,2.36542226000885,2.36628977062815,2.36802479186675,2.36709745292887,2.36692793935959
2.30296149541931,2.30278201046359,2.30343015058146,2.30372929217432,2.30418797595004,2.30437743229219,2.30625205294079,2.30648139482865,2.30738879099366,2.30871498538868,2.30946283937084,2.31040014969514,2.31099843288086,2.31119786060944,2.31153688774801,2.31130754586015,2.31132748863301,2.31312233819018,2.31276336827875,2.31434881872091,2.31448841813092,2.31324199482732,2.2729675650417,2.27160148510096,2.27076388864095,2.27063426061738,2.26986646386237,2.26936789454093,2.26934795176807,2.2692183237445,2.27039494734309,2.2692881234495,2.27007586297737,2.26962715058808,2.27120262964382,2.2702952334788,2.27086360250524,2.27128240073525,2.27235931046955,2.27246899572026,2.2721698541274,2.27233936769669,2.2729675650417,2.27353593406814,2.27388493259314,2.2747723859853,2.27575955324174,2.27641766474604,2.27775383052749,2.2792495384918,2.28229081135256,2.32448971871893,2.32514783022322,2.329305898364,2.32915632756757,2.32927598420472,2.32886715736114,2.329236098659,2.32699253671254,2.32667345234682,2.32699253671254,2.32659368125539,2.32617488302538,2.32511791606394,2.32524754408751,2.32465923228822,2.32483871724393,2.3252774582468,2.32590565559181,2.32579597034109,2.3263543679811,2.3264241676861,2.32720193582754,2.32810933199256,2.32904664231686,2.32980446768544,2.33133008980903,2.3309711198976,2.33155943169689,2.3311805190126,2.33135003258189,2.33078166355545,2.33025318007473,2.33132011842261,2.33063209275902,2.28339763524615,2.28295889424328,2.28182215619041,2.28205149807827,2.28047601902253,2.28031647683967,2.27973813642681,2.27935922374251,2.27907005353608,2.27934925235608,2.27884071164822,2.27864128391965,2.27877091194322,2.27929939542394,2.27876094055679,2.27829228539464,2.27841194203178,2.2783122281675,2.27784357300535,2.27864128391965,2.27893045412608,2.27840197064536,2.27887062580751,2.27816265737107,2.27818260014392,2.27861136976036,2.27891051135322,2.27844185619107,2.27867119807893,2.27892048273965,2.27939910928823,2.27970822226752,2.27902019660394,2.27914982462751,2.27927945265108,2.28009710633824,2.27934925235608,2.28008713495181,2.28043613347682,2.28070536091039,2.28056576150039,2.28073527506968,2.2811939588454,2.2818520703497,2.28240049660327,2.28277940928757,2.28349734911043,2.28333780692758,2.28338766385972,2.28357712020186,2.28412554645544,2.28689759188263,2.28682779217763,2.28874229837194,2.29073657565769,2.34652648272641,2.34653645411284,2.34746379305071,2.34858058833073,2.34837118921573,2.34906918626574,2.3494381275636,2.34919881428931,2.34870024496788,2.35008626768147,2.34905921487931,2.34819170426001,2.34882987299145,2.34809199039572,2.34821164703287,2.34825153257858,2.34882987299145,2.34884981576431,2.35095377830077,2.34952787004146,2.3503056381829,2.35063469393505,2.35220020160436,2.35343665352152,2.35451356325582,2.35636824113157,2.35796366296016,2.36105479275307,2.36384678095311,2.36260035764952,2.36259038626309,2.36501343316527,2.36622994230958,2.36660885499387,2.366170113991,2.36690799658673
2.30255266857573,2.30257261134859,2.30312103760217,2.30353983583217,2.30366946385575,2.30449708892933,2.30520505736577,2.30630190987293,2.30751841901724,2.30835601547725,2.30920358332369,2.30942295382512,2.31182605795445,2.31035029276299,2.31088874763015,2.310769090993,2.31095854733515,2.31199557152373,2.3132320234409,2.31375053553519,2.31399982019591,2.3174698626731,2.27271828038098,2.27168125619239,2.27083368834595,2.27026531931952,2.26870978303663,2.26951746533736,2.26925820929021,2.2694277228595,2.26968697890665,2.26999609188594,2.27085363111881,2.27023540516023,2.27020549100094,2.27045477566166,2.27063426061738,2.27087357389167,2.27144194291811,2.27161145648739,2.27241913878812,2.27262853790312,2.27323679247528,2.27355587684099,2.27410430309457,2.27494189955459,2.27579943878746,2.27731508952462,2.27799314380178,2.27978799335895,2.32338289482534,2.33077169216903,2.33002383818687,2.32938566945543,2.32926601281829,2.32960503995686,2.33047255057616,2.32865775824614,2.32702245087182,2.32688285146182,2.32605522638824,2.32497831665394,2.32478886031179,2.32467917506107,2.32433017653607,2.32418060573964,2.32416066296678,2.32476891753893,2.32483871724393,2.32514783022322,2.32550680013466,2.3262845682761,2.32745122048826,2.32769053376255,2.32795976119612,2.32905661370328,2.33025318007473,2.33035289393902,2.33140986090046,2.33060217859974,2.33071186385045,2.33051243612188,2.33124034733118,2.32612502609324,2.28417540338759,2.283208178904,2.28247029630828,2.28193184144112,2.28054581872753,2.2796683367218,2.2796683367218,2.27907005353608,2.27951876592537,2.27905011076322,2.27915979601394,2.27911991046822,2.27874099778393,2.27902019660394,2.27885068303465,2.27905011076322,2.27850168450964,2.27813274321178,2.2776541166632,2.27844185619107,2.27808288627964,2.27849171312321,2.2791099390818,2.27816265737107,2.27782363023249,2.27782363023249,2.27803302934749,2.27823245707607,2.2791099390818,2.27864128391965,2.27898031105822,2.27878088332965,2.27878088332965,2.27880082610251,2.27933928096966,2.27920965294608,2.27991762138252,2.28017687742967,2.28002730663324,2.27999739247395,2.28069538952396,2.28104438804897,2.28078513200182,2.28108427359468,2.28231075412542,2.28180221341755,2.28300875117543,2.283417578019,2.28311843642614,2.28394606149973,2.28373666238472,2.28511271371189,2.28604005264976,2.28718676208906,2.28718676208906,2.28933061017124,2.29058700486126,2.34799227653144,2.34663616797713,2.34813187594144,2.34775296325715,2.34860053110359,2.34849084585287,2.34875010190002,2.34861050249002,2.34847090308001,2.34831136089715,2.34813187594144,2.34820167564644,2.34860053110359,2.34759342107429,2.347284308095,2.34938827063146,2.34872018774073,2.34869027358145,2.34841107476144,2.34997658243075,2.35301785529151,2.3519708597165,2.35305774083723,2.35433407830011,2.35779414939087,2.35778417800444,2.36039668124877,2.36129410602736,2.36215164526023,2.36345789688239,2.36362741045168,2.36483394820955,2.36706753876959,2.365821115466,2.36643934142458
