2.3059908565358,2.30637115593437,2.3065816198894,2.30676158259962,2.30774987213473,2.30959841154482,2.30272324337414,2.27119096624893,2.26877589657924,2.26737880301716,2.26715700417975,2.26729626490352,2.26673598766353,2.26650235828343,2.26715551149838,2.26661852897016,2.26703532441802,2.26670294107931,2.26708033316093,2.26700392541031,2.26724014301958,2.26732557018755,2.26755717032961,2.26803135859829,2.26815509534689,2.26869141253831,2.2689524692598,2.26926506790846,2.26942982120053,2.27038564348658,2.27067626448088,2.27090041821062,2.27175945385211,2.27250397574703,2.27379341405965,2.2753824647721,2.27617156421219,2.27756919390712,2.32526039844212,2.32634021262311,2.32564079652792,2.32570158237046,2.32564001827791,2.32486246009479,2.32435123042845,2.32332046375933,2.32262239022183,2.32028107697786,2.3196774376842,2.31816231451423,2.31767715350422,2.3172002269841,2.31667859808139,2.3166460483663,2.31651994641771,2.31864773965632,2.31660075884232,2.31553041897467,2.31516586681131,2.31493756971535,2.31506236112928,2.31501855302048,2.31618396230555,2.31736365172307,2.31752760278366,2.31826226776016,2.31892279589386,2.31992691836651,2.32083799346806,2.32116993105903,2.32140292434575,2.32160647293681,2.32228352709218,2.32301456639789,2.32319171438618,2.32301725239538,2.32318939556067,2.32371563903863,2.28321014418491,2.28248502758957,2.28213697184312,2.28187921856841,2.28179967058434,2.28148287790973,2.28048708114144,2.27961245366019,2.27559411828135,2.27782946391641,2.27053289427915,2.27107727809527,2.27126091611225,2.27143750321985,2.27468724418127,2.27691968398505,2.27784722217418,2.27840095253498,2.27882880407304,2.27799882802958,2.27765803716642,2.2774652818847,2.27754196145225,2.27728925074998,2.27738987825466,2.27749830167783,2.27765821619151,2.2776862873371,2.27757430083983,2.27720240069357,2.27740459773324,2.27733559728275,2.2774091657777,2.27736212191502,2.27703716120854,2.27669849029213,2.27681762870612,2.27726152840826,2.27737196716358,2.27761797826549,2.27876482194619,2.27872393043162,2.27887156352605,2.27900608532061,2.27854201224619,2.28019024352598,2.2800861968183,2.27973095817295,2.27998775944132,2.27990736222326,2.28029257804824,2.28038878292908,2.28072163167221,2.28119708169815,2.28225481889346,2.28213874856017,2.28337782235048,2.28462312299433,2.28573069793276,2.28647211640698,2.34232855521731,2.34183756216015,2.34192728773807,2.34149696623522,2.34236352688872,2.34387265329496,2.3432150080367,2.34401702921984,2.34455669161314,2.34510723026824,2.3452631037556,2.34616748074268,2.34589257317614,2.34576462401879,2.34555441568403,2.34528843828055,2.34456666678342,2.34324929845713,2.34314594886092,2.34354370661312,2.34385745124804,2.34606490081304,2.34698075806262,2.34852229390816,2.34913276241288,2.3495816645635,2.35038296863472,2.35134207870277,2.35228517585269,2.35262218456014,2.35319070610112,2.35396019293374,2.35383099691511,2.35397656655269,2.35389821014325,2.35378187374332,2.35417976097449,2.35454733644485
2.30639148152446,2.30700524548988,2.30707305068715,2.30756290100387,2.30866155317752,2.3101691287776,2.26998344821389,2.26908271057002,2.26827686539377,2.26682061587975,2.26682447508034,2.26662075028823,2.26642673699812,2.26667147486065,2.26704088829031,2.26640414202888,2.26672831265272,2.26688391638024,2.26690606526636,2.26753664545203,2.2675274300657,2.26783036578974,2.26780137352747,2.26820766407313,2.26876987290927,2.26878122978282,2.26897590726159,2.2690403413763,2.26950828752359,2.27050367982449,2.27070873834106,2.2710855802717,2.27166045948443,2.27323724193264,2.27368338831663,2.27485379672007,2.27603236956719,2.27753426418985,2.3251897938542,2.32530948452388,2.32551089118256,2.32581998219168,2.3260225460613,2.32490314264484,2.32483219802598,2.3252679329534,2.32296899413015,2.32148353865846,2.31987372086059,2.31815419440473,2.31772338387619,2.31698770196549,2.3172543657344,2.31771852435416,2.3168734549191,2.3163642007686,2.31573949343809,2.31567569415991,2.31552921046215,2.31538470137064,2.3155185636812,2.3157204718624,2.3162543621629,2.31725162046262,2.31762953699504,2.31829095673693,2.31933299692709,2.32003904918168,2.32095967826722,2.32174169547023,2.32193934301696,2.32250184044836,2.32310186530716,2.32338393143021,2.32344115779942,2.32326574146422,2.32370535303696,2.28440800576278,2.28368766284941,2.28274448924567,2.28225538268148,2.28210953429598,2.28163036614486,2.28160700423318,2.27956806149883,2.27962167939793,2.27622695726133,2.27132727795187,2.27074963060596,2.27029619936769,2.27066044852769,2.27031121934921,2.27180592979294,2.27310406573569,2.27782734696697,2.27846618465199,2.27856315336798,2.27851462514669,2.27779159680258,2.27776423039851,2.27769226844506,2.27744743863439,2.27741008070989,2.27763176749733,2.27768199582208,2.27765070396554,2.27732849555294,2.2774227506213,2.27754574784157,2.27746171290197,2.27760601001071,2.27778172738778,2.2771121507617,2.27721331783612,2.27701533308513,2.27700509082117,2.27774431682527,2.27808727546086,2.27834187148153,2.27873475227906,2.27882173943932,2.27886821910289,2.27908224005912,2.27993165797251,2.27991512599657,2.27978351715608,2.27983825809035,2.27976869833036,2.28028856952535,2.2802502477746,2.28073958803764,2.28078267318315,2.28131471667562,2.28189464162668,2.28313011852291,2.28491787550378,2.2855244261155,2.28656095915095,2.34517628830218,2.34230858918024,2.34233991145774,2.34175791876415,2.34317580302199,2.34380621405327,2.3443632051295,2.3441755969585,2.34405450832509,2.34588157231313,2.34754148546365,2.3467214851962,2.34637158888133,2.34650813281666,2.3457888342587,2.34524086463129,2.34478123023761,2.34320824487885,2.34314426635405,2.34366598613147,2.34441680820684,2.34776273967256,2.34781522497237,2.34869789699214,2.3487342893668,2.34943928736359,2.35176691034078,2.35227087899976,2.35221624824448,2.35321673107384,2.35481895854113,2.35472219915179,2.35405996793879,2.35416388560736,2.35388249452865,2.35379515267791,2.35417303107718,2.35458311694096
2.30636906931033,2.30722231944667,2.30712486454259,2.3072372387056,2.30784387671085,2.30956182938096,2.30991618355311,2.2688808208767,2.26735955296951,2.26664073176657,2.26680279895346,2.26680244260016,2.26656892986478,2.26653467448897,2.26633650426423,2.26635442669813,2.26658746424887,2.26665279103683,2.26682491045338,2.26704020214627,2.26753774059958,2.26809155653826,2.26833013338006,2.26807930853267,2.26863277824386,2.26889055428369,2.26926974259401,2.26959236866706,2.27023233544655,2.2702259436842,2.27060780304869,2.27095503770764,2.27198301151318,2.27259830298023,2.27342029449396,2.27474850925342,2.27622528672248,2.27810341608763,2.32472441501944,2.3246566220758,2.32532739926113,2.32571242954302,2.32569819486701,2.32539670369469,2.32493908953596,2.32496371571942,2.32277360322967,2.32154635701215,2.31975065702239,2.3187695984991,2.3182144850408,2.31774658009801,2.31809102086851,2.31772152514746,2.31718063850845,2.31615091366593,2.31597309453468,2.31560767215996,2.31578246851286,2.31603240241659,2.3160293961946,2.31619314312895,2.31632419975222,2.31739859478375,2.31785866802132,2.31858154956606,2.31956852752603,2.32043242269878,2.32120159662887,2.32176131887579,2.32223670382252,2.32274689869918,2.32352874122443,2.32404480721224,2.3242187702835,2.32451568236397,2.32426489916247,2.28410874651155,2.28301765222898,2.28255827091567,2.28222385853142,2.28191898048557,2.28196781380619,2.28234806314698,2.28138687526274,2.27925643942247,2.2783178485689,2.27146640786104,2.27243787449318,2.27031072097765,2.27094318644815,2.27043425270182,2.27099842880012,2.27202229416265,2.27748810277534,2.27777849853159,2.27859961458396,2.27890431069654,2.27844825824311,2.27849376106707,2.27806479449126,2.27810510784261,2.27769179185887,2.27756015986772,2.27790003944844,2.27794108039363,2.27817877390097,2.27822550437379,2.27793153200909,2.27778251147893,2.27781614733654,2.27818366549049,2.27719877440461,2.27723281029399,2.27727012266624,2.27717922987476,2.27780401437098,2.27827602195834,2.27849605229881,2.27853074913755,2.27885932683215,2.27899168566794,2.27937828357375,2.27967790280477,2.27983774663021,2.27997158713681,2.28015037475846,2.28021918586928,2.28025669994275,2.28124958374581,2.28124461421887,2.28136809650393,2.28191125265918,2.28295815767764,2.28342850071384,2.28484008527949,2.28581323640064,2.28669476347524,2.34471754423039,2.34417987601772,2.34343266753694,2.34393498995977,2.3431336170485,2.34373629121239,2.34433000436297,2.34406319548069,2.34454197260094,2.34640624767836,2.3470994296013,2.34639155526216,2.34652778860332,2.34749324289196,2.3454572737765,2.34591686402531,2.34436647035132,2.34349883481773,2.34316506394112,2.34409222987295,2.34507432215482,2.34690963664925,2.34798316371918,2.34848696318247,2.34910847194954,2.35004755509155,2.35122688139265,2.35211356062174,2.35245494246409,2.35297712573453,2.35351312790289,2.35349274652078,2.35373489279664,2.35383009207776,2.35388670460152,2.35340063198876,2.35355328293942,2.35360530155911
2.30575268593356,2.30702087577785,2.30775701621155,2.30689247428684,2.30642294821529,2.30695720284139,2.26993629843954,2.26836814739053,2.26719015053734,2.26711945027047,2.26692583046691,2.26702212129836,2.26759135061314,2.2668441988095,2.26683891833817,2.26677829720884,2.26679728974086,2.266802865367,2.26688485454326,2.26741632284938,2.26749495136817,2.2676146805642,2.26789628283701,2.26820624644894,2.26868980042274,2.26910814008777,2.26921566819692,2.26936644148025,2.27005646096601,2.27016269918717,2.2705521572094,2.27097697960406,2.27157681681855,2.27240172223585,2.27296797880204,2.27466189507666,2.27620537447616,2.32319962941158,2.32391389870229,2.3244232283681,2.32556836163811,2.32663461295806,2.32592355298481,2.32569706187083,2.32650091739493,2.32496832461856,2.32241939041492,2.32235944833353,2.32090990709008,2.31938426504987,2.31870796450925,2.31819636023612,2.31796995594738,2.31899070386489,2.31727544664045,2.31725791138627,2.31672821680853,2.31588852946938,2.31611453199588,2.31634691211884,2.31647761669568,2.31690618717502,2.31701382697286,2.31775040539098,2.31875177529952,2.31873846686822,2.32007360710827,2.32076254056787,2.32138720873394,2.32228851457066,2.32261899039639,2.32311142603209,2.323597039832,2.32456186546603,2.325170908396,2.32489496380202,2.3251767640902,2.28428765631309,2.28271010373867,2.2823670961107,2.28220643764529,2.28197183128326,2.28146972451007,2.28218400309603,2.28108277323139,2.28062340397107,2.27712164737836,2.27352520819375,2.27270944953308,2.27139791486208,2.2726452102581,2.27130236148253,2.27100553856547,2.27226457480537,2.27491689746019,2.27785766272331,2.27854015268957,2.27850763489632,2.27811055660548,2.27827105991464,2.27798987100308,2.27771050088445,2.2776677024951,2.27768434851779,2.2778496431416,2.27801166267263,2.27775075889229,2.27788474967078,2.27797606301394,2.27778030331829,2.2777154223996,2.27755168148672,2.27723086529359,2.27744329650986,2.27760850246548,2.27772032420118,2.27807425374409,2.2784160526118,2.27848896036828,2.27918739014785,2.27911976932975,2.27928015695901,2.27938739297209,2.27947255138737,2.27993266852958,2.28033307821602,2.28046690542326,2.28048172359376,2.28222930816342,2.28167407150131,2.28166122168921,2.28195156065139,2.2824643821872,2.28327617415854,2.2833751659236,2.2848330052165,2.28620741096698,2.34487532876339,2.34416741251537,2.34371708850945,2.34343295192588,2.34341727603113,2.34381605682873,2.3433929493412,2.34390678030575,2.34415883229893,2.34683505042625,2.34708031763927,2.3469250608403,2.34620546416148,2.34607309069873,2.34577101744305,2.34521118611677,2.34689284832009,2.34481639785977,2.34464681695719,2.34424952580793,2.34586952454698,2.34831932015749,2.35049862768009,2.34894596000085,2.34787415543275,2.34981032135965,2.35059355946377,2.35207893941172,2.35274939211763,2.35369333178324,2.35334113935678,2.35342417014426,2.35370739878109,2.35379829866367,2.35380751376912,2.35360964159466,2.35284363617768,2.35261449604768,2.35266226269033
2.30432330889926,2.30587017836688,2.30174551307572,2.30162504754121,2.3031378359377,2.30447001740987,2.30739732349061,2.26840920065025,2.26685936112377,2.26679587226322,2.26676221256656,2.26677730861521,2.26662458189785,2.26676062976744,2.26694036449519,2.26680288942013,2.26652551449257,2.26673436072757,2.26682244312712,2.26721633246318,2.26743510402406,2.26752650861698,2.2675866127388,2.26786223443256,2.26857872487267,2.26879513303654,2.26917774432538,2.26946064134798,2.26961992312173,2.27012508767339,2.27049015074229,2.27054141922432,2.27136607279142,2.27248891701247,2.2730704497625,2.27458700732631,2.27683275390109,2.32371046711281,2.32355077556363,2.3264209468108,2.32610439135589,2.32626331905317,2.32675231290741,2.3262644438796,2.32567765429875,2.32483122243673,2.32342020373218,2.32255182923104,2.32244662228056,2.32022759038855,2.31917983557447,2.31861053000353,2.31775390728719,2.31749892893059,2.31704305311313,2.31659490719234,2.31633296302492,2.31635159496234,2.31653828824071,2.31649219352737,2.31675066996103,2.31696818083427,2.31732893799806,2.31794229887215,2.31858332379406,2.31921785874018,2.32040794540365,2.32142483685457,2.32161296894476,2.32257219589327,2.32296546025002,2.32334365975259,2.32403288695202,2.32445836275692,2.32476384413811,2.32565878102355,2.32581948880618,2.28382157925131,2.28317855531612,2.28238487676741,2.28227751281457,2.28215998011929,2.28133807989664,2.28119658400344,2.28152447703413,2.28224147473213,2.27427962191979,2.2737516147825,2.27221412104168,2.28222817832743,2.27665416935731,2.27200862373051,2.27107527677677,2.28010090536111,2.27983849715889,2.27823500174409,2.27844492505221,2.27853990054913,2.27869002186689,2.27821753074482,2.27795540423019,2.27752177495803,2.27777177665172,2.27774300772212,2.27821304878358,2.27800281493835,2.27792830989135,2.27796960692264,2.27831885623064,2.27773755779431,2.27775536387104,2.27763405887438,2.27756360367542,2.27764600612471,2.27744954372683,2.2782081933462,2.27835163260309,2.27875373945127,2.27841641596674,2.27913725926882,2.27919145355637,2.27910864656673,2.27954290000533,2.27952253594054,2.27995223315414,2.28027718698173,2.28049975595847,2.28070325254796,2.28135032315377,2.28197452432149,2.28180816766846,2.28185774463639,2.28273768670059,2.28252002568292,2.28354398638501,2.2843280365126,2.28553946176718,2.34368629492098,2.34331193619658,2.34343885444029,2.34337073916501,2.34327822448058,2.34447791661107,2.34391925814086,2.34423376675893,2.3461684095168,2.34708474422226,2.34733380996135,2.34712118245783,2.3465067219987,2.3459495802863,2.3456147591654,2.34565150384918,2.34579536972531,2.34806407614277,2.34826523592051,2.34563568136513,2.34797789351357,2.34832901711186,2.34928869507576,2.34959884493026,2.35021087000918,2.35067893440329,2.35150752088862,2.3521749237759,2.35269625338844,2.35385782031121,2.35391216814353,2.35384975532597,2.3542820674676,2.35414793596365,2.35417900111198,2.3542314147848,2.35213642422683,2.35202053746994,2.2987813978223
2.30143726015556,2.29973207019164,2.30014339996586,2.30061583304178,2.30145672647444,2.30179782212878,2.30174678652262,2.26673392775249,2.26718550136771,2.2666623221743,2.26653349298418,2.26636206051367,2.26659389438814,2.26669524244776,2.2663835834875,2.2666837928034,2.26671478689788,2.26690733291994,2.26704170933703,2.26724535395219,2.26751125271098,2.26781401750666,2.26771034652614,2.26798668191166,2.2683177920605,2.2686659191333,2.26899774996904,2.26923512325258,2.26964836581143,2.27039705086182,2.27075083468067,2.27130466424402,2.27186318689574,2.27243402872192,2.27333479570557,2.27452522133196,2.27618246526156,2.27651770709185,2.32422587599273,2.32556374929984,2.32633270492439,2.32689739180093,2.32747949873737,2.32652329357108,2.32563913921308,2.32523280447763,2.32443023552591,2.32299026807578,2.32363071679823,2.32004694322189,2.31926404457912,2.31848754565261,2.31789906342147,2.3177759291661,2.31721916590192,2.31694802287075,2.3165090921381,2.31676536434547,2.31693981383316,2.31698834084592,2.31716772938786,2.31744209307591,2.31787240113263,2.31818347377181,2.31895843202219,2.31963811288971,2.32061501731518,2.32164543375865,2.32197720994369,2.32317632062344,2.32344686594177,2.32389500652936,2.32440822251277,2.32441605719242,2.32446264122854,2.32447614079653,2.32462698192046,2.32511493209072,2.28285689784997,2.28247855663098,2.28234006905895,2.28197825463062,2.2813862201236,2.28163692455556,2.28150610211774,2.28220656462825,2.28368246285791,2.28335575073436,2.28296865734348,2.28228527309145,2.28050895471228,2.28149437007767,2.28146914121318,2.2807846415564,2.28030542486338,2.27871624364554,2.27907792319202,2.278830570046,2.27916906314318,2.2782141639694,2.2781156143368,2.27794800976627,2.27806456703415,2.27800803071172,2.27800173699323,2.27835270641526,2.27799221683132,2.27760032383807,2.27770087896236,2.27818481729053,2.2779576387835,2.27779061439951,2.27797176401188,2.27798125695167,2.27824437951767,2.27816904465413,2.27838371850594,2.27853047438815,2.27845448828443,2.27926719942487,2.27942878123709,2.2797850434172,2.2796040223596,2.27999739788049,2.27989412691975,2.28035738528067,2.28097176583327,2.28084540957351,2.28167452219925,2.28149436340293,2.28178356568536,2.28173835505869,2.28259773598929,2.28347192515678,2.28419189555278,2.28543323099681,2.28611217364967,2.33995197712923,2.34299724722503,2.34313109116657,2.34353164552616,2.34308917505243,2.3443598697213,2.34493407461806,2.34605464900047,2.34799930040099,2.34824433294531,2.34758624918072,2.34687569009954,2.34592138727825,2.34582129344665,2.34566106729634,2.34555474064393,2.34596290556388,2.34758362528107,2.34864524066272,2.34799594741436,2.34892125670755,2.3488744002502,2.35060419551065,2.35018046739475,2.35017603113613,2.35133503703271,2.35177457146195,2.35264688600607,2.35266018530952,2.35327248365782,2.3540454952622,2.35458683395142,2.3544842868088,2.35449526352157,2.3548275711295,2.35466291923851,2.35255176894145,2.29872079086281,2.29797773897728
2.3004435615677,2.2990363089223,2.29910102120518,2.29974984828959,2.30094258526629,2.30075421566725,2.30111184799524,2.26772515074564,2.26783705125423,2.26672494607322,2.26642824621307,2.26632668626739,2.26629491568115,2.2662476464814,2.26623783378365,2.26666484331351,2.26670569784608,2.26670686255344,2.26698033769644,2.26730645728108,2.26758061986032,2.26804734801311,2.2679112726227,2.2682235239681,2.26829713724044,2.2682994411436,2.26902323406955,2.26943653304106,2.26982792340243,2.27059278310372,2.27085497756894,2.27145805458558,2.27208564147232,2.27260355211799,2.27338817725146,2.27462956445015,2.27595862732203,2.3273383504757,2.32705079909682,2.32652745348586,2.32688472326922,2.32730731851946,2.3274314951106,2.32716512763563,2.32560429147084,2.32467009024356,2.32366565020622,2.32344652018535,2.32336300318788,2.3200177924888,2.31948161534162,2.31884550474732,2.31815378981605,2.3177195947867,2.31716062312087,2.31708097606927,2.31710341654161,2.31708990676285,2.31742059949327,2.3175045201963,2.31761258716172,2.31796897474201,2.31852208830137,2.31875573932171,2.31953708069659,2.32012920878123,2.32088217876137,2.32173360494231,2.32256094989477,2.32397131505734,2.32387822605848,2.3241505918564,2.32470726845948,2.3246105252509,2.32464745751335,2.32462656938125,2.32450102935323,2.324547541727,2.28346314889583,2.28312516573298,2.28272082743208,2.28283198587548,2.28282024784612,2.28220125095677,2.28183059582093,2.28168142943025,2.2821161295991,2.28246313931759,2.28213027196377,2.28199435688045,2.28120822484603,2.28106799510526,2.28068399516603,2.28006992022428,2.27978066960331,2.27931455857494,2.27913172946599,2.27863601101997,2.27873837223025,2.27854230652669,2.27839321907166,2.27853640416293,2.27826069771887,2.27885353412869,2.27856785837005,2.27819648013022,2.27843175341087,2.27823925352209,2.27806350363088,2.27820983170014,2.27815436220884,2.278323910426,2.27826818859404,2.27830504666568,2.27851665810652,2.27817098522233,2.27949601569751,2.27909471220417,2.27936959053775,2.27938403970867,2.27952121238539,2.27959336389468,2.27984820753838,2.28050259901913,2.28058211999153,2.28024989430503,2.28058579666116,2.28100259269818,2.28224329190589,2.28242459056591,2.28214668162516,2.28213736396013,2.28316845250658,2.28435076636708,2.28502469594969,2.28623367739464,2.28725563135048,2.33811130842925,2.34294112993975,2.34362142161053,2.34465466930598,2.34474966537378,2.34675770349267,2.34617875446277,2.34841415133719,2.3492372985416,2.34806374889981,2.34835489001351,2.34813855055659,2.34649253642963,2.34591293266333,2.34571687469036,2.34624509181811,2.34897758574979,2.34911069336326,2.34956071791331,2.35060295955252,2.34981802731953,2.34958111514033,2.35071011439602,2.35051644645809,2.35083091214877,2.35167258247422,2.35379656854489,2.35310361844812,2.35290134922249,2.35355914898218,2.35526137867754,2.35505443973482,2.35489574329764,2.35457493306648,2.35437282424309,2.35462701854119,2.3529598522,2.29848214632783,2.29732691710002
2.30065704919375,2.29993986457397,2.29886741228549,2.29952712683777,2.30033633253707,2.30042212141192,2.30137953105309,2.2677627504238,2.26739201074079,2.26647548018582,2.2663174671883,2.2664429639455,2.26625468839657,2.26612992589858,2.26609770468951,2.26667683498026,2.26664858766167,2.26668693409117,2.2667714761437,2.26731962960942,2.26749552678032,2.2677417161368,2.26794094942113,2.26813653962014,2.26833090682866,2.26857568515487,2.26916249806531,2.2696648074985,2.27073074689371,2.27030416903041,2.27066546739594,2.27109095045364,2.27145718471543,2.27257662709605,2.27362172209781,2.27494501463379,2.27597637109453,2.32458715004564,2.32757312272958,2.32728746898478,2.32735755147932,2.32795331800179,2.32746731055392,2.32687765828481,2.32625177726844,2.32466564532535,2.32390304124038,2.32352609128018,2.3226579909092,2.32093710816914,2.31991665454367,2.31911836254395,2.31892326410749,2.31784564736726,2.31744436657858,2.31786127108997,2.31761419136256,2.31766985395686,2.31831329561329,2.31790295221694,2.31792998425596,2.31820800230252,2.31911236054916,2.31942345536658,2.32009588416474,2.32071970761752,2.32143603668778,2.32275316482081,2.3231851840002,2.32382412639468,2.32407631235813,2.32457702862838,2.32501818180798,2.3252474239626,2.32589706864136,2.32403621558882,2.32432072780228,2.28517145971012,2.28384166105651,2.28329432781664,2.28281843056375,2.28295257689979,2.28231133673512,2.28189673030595,2.28146968884063,2.28145612743851,2.28197223932108,2.28183885050971,2.28155630823222,2.28139023657927,2.28111460779434,2.28071089792633,2.28004615055254,2.28016947058995,2.27958111059859,2.27904339665293,2.27922051425031,2.27881011534093,2.27839611539169,2.27865216202832,2.2784291155288,2.27840344356875,2.27837877159,2.27875439260147,2.2784920058344,2.27832970648371,2.27893400679335,2.27874999380108,2.27847985817295,2.27808521150319,2.27817358094231,2.27832563489775,2.27832512698715,2.27846957329682,2.27891416688657,2.27859153370871,2.27939834773153,2.27896612258287,2.27910161961186,2.27986698225978,2.27973289945851,2.27982801009261,2.28018974941925,2.28002435904102,2.28040079153057,2.28047348869057,2.28056590509958,2.28094432417763,2.28217025779173,2.28228384622904,2.28233501470764,2.28266986704602,2.28311403931581,2.2844619745134,2.28497236566693,2.28614200368285,2.33869323397887,2.34532478211574,2.34421672070187,2.34731259686426,2.34677116739061,2.34765992676861,2.35002155830092,2.34811335245699,2.34928714218839,2.34884660774024,2.34830225698078,2.34787990477863,2.34719896365937,2.34579149768537,2.34584924300999,2.34604060453464,2.3477430968412,2.34948117755871,2.34952678364999,2.34922840188796,2.3494036449518,2.34985626987301,2.34948973612734,2.35059859806097,2.350599425891,2.35102886235317,2.35142757666974,2.35241164726733,2.3532947119434,2.35361282696455,2.35392489311174,2.35494487481759,2.35507369559759,2.35490825989649,2.35457640866047,2.3546534218162,2.35463805916976,2.35352619697507,2.29688673511646,2.29615465842763
2.30106013105079,2.30009539673735,2.29921064097044,2.29933215784669,2.30022630939635,2.30103980753369,2.30139033739131,2.26796547286593,2.2674150373235,2.26664929609694,2.26628557986692,2.26626014006435,2.26624139489368,2.2662592302529,2.26632073722905,2.26653347402306,2.26663572628932,2.26685760613309,2.26689864350129,2.26718928974481,2.26740792644198,2.26765183960198,2.26800407365163,2.26824187847449,2.26848783892891,2.26871941085303,2.26918739643709,2.26970941252907,2.27021859132494,2.27030517800423,2.27052697691979,2.27090462240448,2.27162137889964,2.27279879593296,2.27403427291822,2.27544345235825,2.27639528181392,2.32483453590834,2.32610299496756,2.32677972031233,2.32726518481759,2.32768829410863,2.32764685779083,2.32720697483059,2.32619914396115,2.32496772491859,2.32410261501326,2.32347756161616,2.32271675136873,2.32147283171823,2.32031703152876,2.31942206832909,2.31887321100563,2.3183067580683,2.31800524040022,2.31813397749096,2.3181170253283,2.3184546512923,2.31822278097965,2.31810955469946,2.31817257966404,2.31844820341166,2.31898587077951,2.31950445091162,2.32023201480743,2.32088230880367,2.32169284840878,2.32279624651015,2.32335097907054,2.32378731261156,2.32418990122616,2.32467245994214,2.32512638536579,2.32546871563993,2.3257356861166,2.32495637090086,2.32470166853747,2.28501666516264,2.28437046415489,2.2836981158348,2.28274357728814,2.28233252362146,2.28215097912568,2.2818127933794,2.28142966899798,2.28130703305026,2.28144169010992,2.28133580596842,2.28140057882009,2.28150295035462,2.28102867586495,2.28056411944769,2.28010567285167,2.27999484183193,2.2795010570159,2.2790641235969,2.27881822774601,2.27861696889297,2.27837992855111,2.27832778731577,2.27835525212481,2.27843375526198,2.27851848628652,2.27865977762623,2.27866527646747,2.2787455341191,2.27904156290692,2.27887784618581,2.27859270232238,2.27830665331987,2.27822268594653,2.27824616815122,2.27832442104262,2.27845858495763,2.27863177873949,2.27868034737442,2.2790747003143,2.27922412921001,2.27940150176875,2.27968549108603,2.27980723475536,2.27999968711905,2.28030138480051,2.28043937659386,2.28054244570112,2.28076654146644,2.28110082598326,2.28135649480802,2.28197374159884,2.28223297383613,2.28241129593392,2.28276586769504,2.28346386167177,2.28452473441629,2.28560582551691,2.28632738932419,2.31332648442455,2.34578269128766,2.34615443883335,2.34723012099436,2.34753883688314,2.34813563171026,2.34935861704817,2.34898898969642,2.34903465191072,2.34838481431825,2.34724127773714,2.34653491531089,2.34601260083431,2.34566416284047,2.34592678481728,2.34642105022391,2.34776757697198,2.34892443231882,2.34936533773843,2.3495642757823,2.34970381609483,2.34986376329906,2.34983885889863,2.35024473308036,2.3505643709332,2.35102364736842,2.35162079235169,2.35229732081188,2.35308033410374,2.35384296715403,2.35436239724213,2.35472511938099,2.35488360915949,2.35470828957967,2.35436525028892,2.35415243549545,2.35423836675683,2.32633444277396,2.29722178992162,2.29633105379556
2.3016790748342,2.29974514788668,2.29848601805814,2.29855098432525,2.30030392835304,2.30297712617762,2.30292173713807,2.26809456078955,2.26721119289394,2.2664458174727,2.26638550991713,2.26644912910572,2.26636449131939,2.26642610495641,2.26639730002843,2.26653211842471,2.26650024635235,2.26724836830542,2.26680158797864,2.26720216315389,2.2673870618958,2.26752415181556,2.26822004082075,2.2683772046628,2.26866690564801,2.26865774121693,2.26916109763482,2.26980578068661,2.27016574442596,2.27026931181214,2.2704127811225,2.27057775949071,2.27148754700498,2.27282664385232,2.27359785271896,2.27510898474807,2.27614771542129,2.32573194842335,2.32672365228023,2.32721426554468,2.32732559072856,2.32774100981584,2.32814012329387,2.32812906968324,2.32646098441271,2.32501767313832,2.32418631047463,2.32368537008257,2.32339845281672,2.32210087526252,2.32070360331702,2.31956925193269,2.31895447008849,2.31864863436043,2.31822612363363,2.31870103587194,2.31835459997315,2.31995160055857,2.31812619676339,2.31832360889118,2.31844362612066,2.3185924016846,2.31902125289302,2.31947745771805,2.32058513073389,2.32098638944442,2.32180106369668,2.32349784745058,2.32378892393659,2.3239527512646,2.32443106388881,2.32484514807933,2.32530473621563,2.32587916161333,2.32716703551595,2.32639556905786,2.32613547123161,2.28399851587332,2.28386448495059,2.28413445403404,2.28265692199211,2.28199639887232,2.28245500595579,2.28191654450756,2.28119092997915,2.28091106200203,2.28113273682478,2.28065632984333,2.28123013841823,2.28228710153147,2.28105967036642,2.28049678445319,2.27985138715072,2.28020812623751,2.27939034620823,2.27893341918251,2.27840641729503,2.27850131468351,2.27823450617139,2.27800911503561,2.2783497020489,2.27854442427873,2.27865090063308,2.27874731836252,2.27878744058355,2.27898802180194,2.27963230839446,2.27918095261736,2.27875308934937,2.27841871875193,2.27828013621295,2.27820600836684,2.27830936474192,2.27847018676975,2.27848709618085,2.27847976469197,2.27900879015418,2.27951402243807,2.27963704180796,2.27976080324408,2.27993190534347,2.2801539914539,2.28063511840576,2.2809382109686,2.28060009217331,2.28098605891888,2.28174833652594,2.28145583371744,2.28220255406715,2.28241488834799,2.28258154754175,2.28275795538065,2.28349627511024,2.28418382438908,2.28577798224407,2.28619377030733,2.28730309287638,2.34791209749393,2.34886905870438,2.34864508627611,2.34821504676147,2.34799725800931,2.35034592678134,2.34954638785114,2.3496675127269,2.34859178941042,2.34594055210689,2.34514906356995,2.34487632979548,2.34518420336503,2.34616062526818,2.34622977169633,2.3482252700779,2.34925197363499,2.34967754264129,2.35013410230271,2.35021457349635,2.35022302362368,2.35000526958993,2.35028228442651,2.35079971293246,2.35119733883997,2.35198453828267,2.35226859898881,2.35310959998661,2.35450223730032,2.35511146826714,2.35472732356608,2.35498237418557,2.35473642255922,2.35449928763903,2.35439307433483,2.35526916179266,2.29862730816711,2.29722444260754,2.29578385500028
2.30381813055669,2.30455165595414,2.29918677363713,2.30658048698002,2.30686006822735,2.26906098278132,2.2688110839078,2.26769810769683,2.26743422667696,2.26673900069027,2.26673128830498,2.26704903718251,2.26684721185353,2.26626108953383,2.26684672196066,2.26731171711999,2.26665226182795,2.26678175357498,2.26695473335597,2.26720506872278,2.26748687125702,2.2677726189974,2.26775846797399,2.26855274306997,2.2687666219037,2.26880653376516,2.26931591037298,2.27028822616385,2.26995412714953,2.27012188627234,2.27038179792065,2.27061012760223,2.27231794636696,2.27282748475827,2.27390420736207,2.27509179828445,2.276436507018,2.32612203912817,2.32569397965684,2.32669023566636,2.32703514233094,2.3275659272543,2.32811883781151,2.32975389593156,2.32809794619166,2.32760071938591,2.32446015048595,2.323367822563,2.32344603965445,2.32188750842578,2.32100752281381,2.32024948145607,2.31952873569885,2.31923829775498,2.31860468566013,2.31910024627618,2.31905605986361,2.31984152865063,2.31879996077195,2.31851349803927,2.31885879728592,2.31893024478645,2.3196312783236,2.3204300218589,2.32088838476384,2.3213777782865,2.32270262896157,2.32345709128036,2.32460576891165,2.32458487916741,2.32489161748701,2.32500399173427,2.325856618982,2.32610106082776,2.32692763178449,2.3274361406552,2.32610640571638,2.28437291392976,2.28350298587348,2.28259433977467,2.28219644595686,2.28173344282941,2.2813251580162,2.28117493964281,2.28095918663784,2.2806403022733,2.2810028173038,2.28039062086486,2.28071046482493,2.28087552696153,2.28053340728155,2.28006194636919,2.2795594571961,2.27959219464323,2.27947048128706,2.27903824680192,2.27853302067036,2.27853249637863,2.27846621974102,2.27831852740077,2.27857515484586,2.27879534877889,2.27881598266895,2.27878266208331,2.27941250168055,2.27958884244269,2.28121657766741,2.27912780975937,2.27878099279754,2.2782742834936,2.27836608351263,2.27817209202193,2.278667918212,2.2789895535826,2.27852238953056,2.27865207748325,2.2792123912109,2.27978324664018,2.27974700879491,2.28001228665206,2.28009926126333,2.28011722248734,2.27973123819267,2.28053343745513,2.28065676912986,2.28130345428258,2.28154749622891,2.28151788548625,2.28192209124238,2.28256099631558,2.28291800111689,2.28321137230836,2.28421347623838,2.28521744814338,2.28535417029898,2.28685243516525,2.28748217209264,2.34447617790923,2.34817908394498,2.34897106813887,2.34874454246962,2.34866190811798,2.34955184086516,2.34986090452708,2.3490056994145,2.3452732854696,2.34408177330221,2.34414089136073,2.34440446804836,2.34570286044793,2.34755318899322,2.34918367490039,2.34962803275459,2.34965670420809,2.350045874521,2.35077245375848,2.35155897956421,2.35205598858948,2.35098666326027,2.35133180529599,2.35146900445768,2.35188327276324,2.35246285289245,2.35292165718865,2.35398837028202,2.3545045624897,2.35504489833859,2.3548217049731,2.35487096051677,2.35484947352339,2.35480130620247,2.35533447321983,2.35490359794953,2.29994871454702,2.29746704248084,2.29503461744743
2.30490787102847,2.3054677939742,2.30610658615525,2.30700355560193,2.30677371492074,2.26887018159968,2.26792546711277,2.26765979192845,2.26727525367139,2.26714800901305,2.26695214029496,2.26703157301281,2.26667750452143,2.26631388979459,2.26644161006855,2.26696451086514,2.26657525243296,2.26714828984258,2.26712780256127,2.26753476460313,2.26760778234714,2.26767107576246,2.26776905930877,2.26799607742874,2.26835123058282,2.26875772474289,2.26912084558244,2.26964508688349,2.2701815180849,2.270000421302,2.27045228423862,2.27098222681683,2.2719389993689,2.27299969790841,2.27341732663318,2.27477432605911,2.27649743492197,2.27739707220273,2.32540097463923,2.32585913428759,2.32657839986232,2.32674758896466,2.32814922491737,2.32876697217656,2.32862102018663,2.3264426252614,2.32489426458673,2.32326710487198,2.32357579518717,2.32148623907015,2.32132105834742,2.32088319857193,2.31986847016953,2.32041130972317,2.3199734331176,2.31946769288532,2.31886082271813,2.31899177467107,2.31994316272442,2.31969342918137,2.31967975834936,2.32023900660253,2.32007654789192,2.3206502310702,2.32117412673128,2.32191621448932,2.32279155571858,2.32428372396184,2.32592583082554,2.32573281301685,2.32569529929383,2.3262531459442,2.32680658581832,2.32701312183425,2.32753338885891,2.328345266498,2.3294974921528,2.2843181629257,2.28369510364976,2.28247810482395,2.28210376263519,2.28159021455542,2.28154824552648,2.2809472075225,2.28090444359637,2.28081607251251,2.28069666308879,2.28017022963607,2.28043417783246,2.28044102311216,2.28022680407483,2.27998966337976,2.2797899963496,2.27951951608303,2.2799467531906,2.27925263260286,2.27963162840428,2.27961176249152,2.2789202590054,2.27893854071372,2.27889270902269,2.27912613822196,2.2790975568923,2.27874994001698,2.2787528175587,2.27894427134489,2.28014676614479,2.27887562563772,2.27876250130169,2.27884939675376,2.27877803519449,2.27884521108218,2.27927001935116,2.27911805484255,2.279014638467,2.27934780539015,2.27983123934092,2.28005985193985,2.27979463601156,2.28046371668965,2.28037867171462,2.280472078449,2.27996989716058,2.2803799230175,2.28112922228887,2.28157421214757,2.28145443234486,2.28214571218197,2.28244765901718,2.28286892918007,2.28340043797859,2.28434505798047,2.28457430505949,2.28596109280754,2.28643288542338,2.28711769295888,2.35424828660984,2.35064728329152,2.35043967786353,2.34950350774885,2.34920714389342,2.34929757326314,2.34939232866784,2.34965640138308,2.34944039374189,2.34958644593664,2.34322585430747,2.34369010407184,2.34493118248218,2.34902263592863,2.34941238221235,2.35065737576375,2.35031156991398,2.35019162106728,2.35057671735656,2.35100789409201,2.35184756185705,2.35254313136162,2.35166732652426,2.35186843621801,2.35211213296014,2.35260516072935,2.35455976386018,2.35379975122496,2.35460038168921,2.35507919579234,2.35467852102626,2.35449872959376,2.35421932211551,2.35467473577407,2.35474688960936,2.35564380930989,2.30056594591294,2.29914452129668,2.29685151296947,2.29465724117909
2.30669951268774,2.30810270886137,2.30694570974068,2.30692862721552,2.26990628925635,2.26955155103664,2.26802980278244,2.26753249007286,2.26739242167652,2.26705148980237,2.26700175583278,2.26729435763827,2.26618408850378,2.26609828326765,2.26624524741899,2.26666240317487,2.26675140516702,2.26720411512328,2.26785718966302,2.2679697655148,2.26778002565847,2.26746852871295,2.26803104875639,2.26836374173521,2.26865272051416,2.26837563059301,2.26897754590699,2.26930997852416,2.26969198410796,2.26998956965652,2.27046602590529,2.27088378254103,2.2715684843114,2.27219662483864,2.27312765732412,2.27468894778807,2.27586461180994,2.3248369723893,2.32446765955357,2.32441606536457,2.32675255755447,2.32834835244344,2.32812088205917,2.32873105838861,2.32927826056717,2.32808238251264,2.32647695426177,2.32541173874238,2.32394127978448,2.32192922148812,2.32203309567674,2.32208299124293,2.32208377772055,2.3229227222045,2.32083696436559,2.31960557176677,2.31909283454424,2.31909082666134,2.32012569392712,2.31997096840806,2.32004480282438,2.32019393600322,2.32049599657801,2.32126533373965,2.32189609999858,2.32265210677066,2.32348209818815,2.32476735524272,2.32554218668179,2.3255788542003,2.32601597416751,2.32659904361988,2.3270537642489,2.32767155896656,2.32832764996351,2.32852547219092,2.33047000546746,2.31771851880184,2.28385324319457,2.28227939542008,2.28224566915616,2.28199558101727,2.2816301926408,2.2809288831587,2.28040732817631,2.28071940073906,2.28067801146416,2.2800857896752,2.28060090837138,2.28006589380131,2.27995804156048,2.27990123850407,2.27966481702719,2.27969182461536,2.27947661929269,2.27931706393641,2.27920127306023,2.27871505621166,2.27892484798906,2.27912199997635,2.27897254651458,2.27881796099127,2.27899769834159,2.27862907236079,2.27857983759556,2.27854479746298,2.27867253781085,2.27894011317235,2.27918763007208,2.27903460584842,2.27911111589642,2.2793099140636,2.27899478627777,2.27923816066171,2.27933368084992,2.27987764630825,2.28036516563912,2.27997081892907,2.28027122934739,2.28051371613436,2.28053993160776,2.28063285936788,2.28044920230124,2.28077294121688,2.28090979610757,2.28211087480929,2.28205548215382,2.2820910393171,2.28267639406403,2.28317033421589,2.28353496149349,2.28408210256355,2.28437697423709,2.28556226344989,2.28654262036005,2.28735703360511,2.35118321426339,2.35108493720829,2.35017734536696,2.35077111664599,2.34936944814631,2.34829642599058,2.34948916026203,2.34936869444127,2.34857503216504,2.34496031334221,2.34390273299191,2.35077766942816,2.35193528655173,2.35090809106524,2.35066391266359,2.35109076887255,2.35092830626956,2.35039879030277,2.35070335306892,2.35122821235864,2.35173902359604,2.35190125818514,2.35203396811211,2.35208662014161,2.35269880644475,2.35385768914271,2.35474633485703,2.35478955856749,2.35594138326424,2.35527133524601,2.35449019394745,2.35400641988725,2.35413661771835,2.35431414776587,2.35417144882537,2.35460886189522,2.29865253533196,2.29773420596764,2.29660148938349,2.29524247747929
2.30679338655747,2.30712333818584,2.30747114998067,2.30774879008602,2.2703996176504,2.2701293946097,2.26791442267586,2.26709198284932,2.26661778276918,2.26684990771832,2.26671586654046,2.26650871484826,2.26606229706509,2.26620008434243,2.26656490503963,2.26664500289815,2.26654740402464,2.2672391703183,2.26776756371554,2.26883264219381,2.26806825468907,2.26784592184366,2.26820084367398,2.26847444826674,2.26916418578973,2.26913563454201,2.2690562046064,2.26932379685934,2.26960962512996,2.27006004846793,2.27057227748856,2.27109043691545,2.27176959753803,2.27210369768985,2.27317972622129,2.27454072201582,2.27630394897265,2.27817390770473,2.32573591325137,2.32442776618888,2.32771957324056,2.32922388691034,2.32893300380442,2.32864369102323,2.32871834869681,2.32737272486989,2.32925439371766,2.32616217114251,2.32457230225514,2.32248846631766,2.32291977587676,2.32428297974343,2.32219562767908,2.32183125613859,2.32035780373315,2.3196788515516,2.31975595646943,2.31928505976329,2.31988700422171,2.32006472900432,2.3204522874479,2.32072176085631,2.32083537278453,2.32140805638228,2.32275165055538,2.32291184094899,2.32398163812738,2.32503343635588,2.32569730729164,2.32602329495659,2.32634015375655,2.32666423521736,2.32734108887815,2.32777388970284,2.32835039917448,2.32999072383215,2.31614071832719,2.28532711525101,2.2836443643637,2.28288295022724,2.28263973049034,2.28272193770893,2.28182239816575,2.28081355011999,2.28114288884149,2.28100067499987,2.28072897764835,2.28007307928276,2.27991030346864,2.27976991027983,2.27970743558591,2.27952699198532,2.27955634973656,2.27936484864117,2.27911211659172,2.27895711488685,2.27931251498029,2.27910680640141,2.27923304048015,2.27936772060152,2.27909123222445,2.27887388131195,2.27924449227972,2.27900540559473,2.27869859736156,2.27868886393841,2.27872596717147,2.27906351099341,2.27919858391805,2.2797776673957,2.27933428752031,2.27898919197102,2.27927050762869,2.2793846935483,2.27928853389816,2.27960300883993,2.28020705503267,2.28000340692364,2.28019836797258,2.28035050088819,2.28065078484924,2.28070416123436,2.28091787838746,2.28196754494704,2.28123902721692,2.28164081859483,2.28225182996795,2.28271908602591,2.28250042193472,2.28265874583601,2.28351369745466,2.28411216013586,2.2852581839883,2.28680517484355,2.28733203643855,2.35063725961276,2.3501279262992,2.35014764836358,2.35021377989183,2.3505714154163,2.34939649482343,2.34876897000165,2.34856123899367,2.34541453297583,2.34898340649422,2.34542012631794,2.3482683117677,2.34689773578193,2.35147059762804,2.35130978558795,2.35139756226035,2.35206489931919,2.35087201258548,2.35077858589905,2.35123587570387,2.35153075632082,2.35267951609732,2.3522814263232,2.35271063345295,2.352555229209,2.35297915254381,2.35350800072218,2.35648968757392,2.35526924488167,2.35532918643905,2.35512951845008,2.35504729601255,2.35428266934367,2.35385015315178,2.35276721602602,2.35347516700164,2.35395581142244,2.29834659065795,2.29690904761087,2.29510684782306,2.29459236159774
2.30673671913844,2.30697009100898,2.30774494582243,2.30772176225995,2.26974569146778,2.26869097163693,2.26865707351096,2.26868383803329,2.26682258472494,2.26651285751269,2.26654203682893,2.26651710963305,2.26601215837066,2.26621262059492,2.26630007289454,2.26682703064272,2.26692214036496,2.26715414302368,2.2677492947344,2.26777829001612,2.26785102667881,2.26778616229877,2.26801598792905,2.26818135197324,2.2684630660328,2.2686619272508,2.26908931365353,2.26935588035436,2.26986946740469,2.27016381889463,2.27067944357507,2.27135919269314,2.27182998107581,2.27264007040031,2.27357315492212,2.27428852778391,2.27644765477362,2.27814148197129,2.32970607956047,2.33127358065863,2.33057346976332,2.33219168056997,2.33034039248818,2.32907524484912,2.32923674643321,2.32844870310009,2.32944965003017,2.32618786930852,2.32671612119876,2.32336693813501,2.32300463030539,2.32237492676331,2.32157657866561,2.32220137433718,2.32146988027782,2.32123205348668,2.32087341968232,2.32228322160814,2.32065225262398,2.32107920076648,2.32109548768315,2.32126846377258,2.32173509891656,2.32238066360179,2.32303436999763,2.32416450985962,2.32462955973578,2.32500373590341,2.32559052325317,2.32606369098671,2.32677681968078,2.32722302089798,2.32769604137522,2.32812771490261,2.32820706763395,2.32859432708304,2.32894459706412,2.284653361184,2.28368173777635,2.28350314203641,2.28268886352338,2.2823765534146,2.28114514486808,2.28048881856714,2.28099398971158,2.28079826285503,2.28058546384597,2.28060787842932,2.2801778314878,2.27959162423164,2.27957781549863,2.27951686410076,2.27936434667583,2.27940634426958,2.27915921295078,2.27901176113138,2.27906786793563,2.27894723681589,2.27907331716773,2.27929260255148,2.2791830958428,2.2792552732311,2.27924186890176,2.27887981525181,2.27880344688232,2.27883369034359,2.27891961198276,2.27887780411125,2.27905787875861,2.27907050137264,2.27951625238159,2.28002850920799,2.27994951670319,2.2797215276123,2.27967491618014,2.27976607221179,2.28006663799268,2.28009997237306,2.28036566641776,2.28161061957346,2.28106862039191,2.28106137804946,2.28132463634369,2.28114131165249,2.28151135858302,2.28216398866939,2.28297993092786,2.2829065572299,2.28288087584646,2.28317925363088,2.28381624939104,2.28439717762601,2.28555980320795,2.28618110294403,2.28783603384296,2.34851736725717,2.34832310334974,2.34886901484018,2.34948604931673,2.34973789508222,2.34907403677345,2.34809402958902,2.34547642385655,2.34376374368053,2.34412853565406,2.34961447855013,2.34998051057704,2.35136532150045,2.35207205100443,2.35183052363657,2.35173407868166,2.35195546366815,2.35165321103539,2.3515964860831,2.35202929498096,2.35185835222002,2.35262260889188,2.35245237415687,2.35253335795938,2.35308942999798,2.353380171192,2.35344495084172,2.35456735464912,2.35581541757452,2.355630290189,2.35546248615466,2.3545527555406,2.35472593303843,2.35316393518236,2.35290114531755,2.33928915172579,2.29769778573334,2.29648982402134,2.29581595119519,2.29545323681088,2.29574246152703
2.30671182891788,2.30711998495892,2.30909158575197,2.26969969055216,2.26894079450276,2.26835661451768,2.26766419961075,2.26733123518327,2.26692469729758,2.26690537802764,2.26641485790129,2.26587575017762,2.2661989642349,2.26642895804217,2.2664812345414,2.26657954474227,2.26683024744327,2.26736353813003,2.26734241815398,2.26715905756716,2.26776604105821,2.26820592689944,2.26847084023554,2.26792730022824,2.2683861841603,2.26878768723255,2.26974439787474,2.26991022932281,2.26990778864065,2.27004950096647,2.27065018573744,2.27101560794969,2.27145447199109,2.27319340606474,2.27442542770363,2.27505195041436,2.27651696739842,2.27757412004049,2.33039935623555,2.3317049122364,2.33135244574843,2.33180614500667,2.3324335339906,2.33041412138428,2.32945157325856,2.32828107198117,2.32734705602182,2.32568563481468,2.32565223189313,2.3244957631161,2.32347985527339,2.32247712828641,2.3223789725843,2.32186047186792,2.32176936326333,2.32301409458773,2.3224207182586,2.32147884290095,2.32098126328562,2.32122984398963,2.3217036123453,2.32223779257662,2.32249528933438,2.32324596119482,2.32402409295454,2.3244706599509,2.32487830939895,2.32541812469071,2.32654794877308,2.32724987472672,2.32763164313545,2.32865644582587,2.32847603204119,2.32821959132214,2.32901879010102,2.32799759471324,2.32778281784806,2.28411876566614,2.28324845914172,2.28256029177357,2.28231330266265,2.28174182112588,2.28159251511761,2.28067871042395,2.28081580359057,2.28023118805124,2.28007863999572,2.27971296961425,2.2797171280224,2.27968216666603,2.27956679321717,2.27938877783489,2.27933550832142,2.2794047695605,2.27923965730246,2.27921058157416,2.27916044388833,2.27905759188119,2.27879048465392,2.27894572400549,2.27912766121929,2.27937674650766,2.27896778214281,2.27901261717018,2.27896225625194,2.2789145170827,2.27910072696862,2.27897853120087,2.27922926881348,2.27933782981857,2.2796450273918,2.2800061624427,2.27996533175908,2.28135727507085,2.27987956994653,2.27978051055844,2.28016535537911,2.28031917546395,2.28029251590555,2.2808352105189,2.28097307908433,2.28110285159774,2.28110713825501,2.28149991732042,2.28183671697002,2.28272325880827,2.28278346582982,2.28335944656395,2.28366938291381,2.28397867338239,2.28427051384616,2.28477074143786,2.28651361828526,2.28697974380981,2.34618360241864,2.34644262402675,2.34638944251489,2.34747035306158,2.34936180373761,2.34942328447379,2.34929610349168,2.34943392899863,2.34938760662426,2.35136993282184,2.35235441384496,2.35057681580559,2.35136829192812,2.35312068229436,2.35285618972746,2.35204616236511,2.35201562160756,2.35217941817567,2.35257061333797,2.35313300391056,2.35229836247686,2.35232019236584,2.35302947257428,2.35393445352487,2.35383150007416,2.3542513624926,2.35427819249504,2.35458570032767,2.35519759085204,2.35553983783735,2.35582569329359,2.35574236869041,2.35510329063622,2.35461229688967,2.35432875601904,2.35260531387302,2.32909276284323,2.29799339559224,2.2960855244516,2.29508517344726,2.2946885396361,2.29464736773258
2.30667192221893,2.3069628537555,2.30739902837201,2.30738626397064,2.30621257952508,2.26827471150008,2.26726192096698,2.26676283797302,2.26669247160585,2.26645372852458,2.266386864361,2.26607437586956,2.2663079063005,2.2671033683094,2.26662144636763,2.26700435963198,2.26681565350154,2.26736611146591,2.26726720534959,2.26744506785311,2.26789495453111,2.26851316762053,2.26817728601491,2.26838064479112,2.26860459026687,2.26901827183609,2.26963575074072,2.26967811093395,2.26994337349945,2.27076712408823,2.2708762919152,2.27142589485094,2.27153737820218,2.27268247861025,2.27373200744187,2.2752782088841,2.27640781161292,2.27833386813391,2.33065543688421,2.33156572238129,2.33151358653032,2.33180509126226,2.33191203546846,2.33193786171105,2.32925762166281,2.32824437330839,2.32740538275884,2.32639887850817,2.32655050797971,2.32489661041045,2.32407282698635,2.32321263045158,2.32256424817393,2.32225041557915,2.32201310848835,2.3225296132362,2.3216957033091,2.32182818336063,2.32145846925685,2.32274289857759,2.32236943252177,2.32254512368782,2.32281695327443,2.32372493907156,2.32411594130553,2.32459704834385,2.3251064879154,2.32635716999805,2.32736211036962,2.32809227991729,2.32796864385079,2.32817298276725,2.32911721403676,2.32840997403858,2.32887188552077,2.32716906901769,2.32693861148249,2.28351318313782,2.28303410024499,2.28302708001781,2.28242672666394,2.28187656324487,2.28097713332063,2.28142632468581,2.28047506557432,2.28054398321748,2.27997625340126,2.28022487677177,2.28011716286049,2.27985018094728,2.27963360976651,2.27962907767986,2.27940642970666,2.279371080198,2.27926427114668,2.27935727195122,2.27927360070096,2.27922128509932,2.27889822189572,2.27894106578863,2.27904588142663,2.27910367644135,2.27893246134052,2.27891865580931,2.27891916984698,2.27901688855235,2.27903107255208,2.2792806585796,2.27969154256343,2.27978360072562,2.27978061486253,2.2801124625892,2.28003028593544,2.28004302943388,2.27979803301266,2.27975648341524,2.28093049339645,2.28060764464425,2.28055746109173,2.28072202194451,2.2809534809246,2.28120605977386,2.28134682490288,2.2813997783957,2.28215545011383,2.28215638936988,2.28329107372965,2.28355358131736,2.28378381292582,2.28432481420707,2.28471365221629,2.28540817575262,2.28670885455981,2.28724085575977,2.34453778421359,2.34476172545844,2.34572553212561,2.34624886785074,2.347390692281,2.34829646291986,2.34943892251367,2.35061794755828,2.34792793359224,2.35195302484736,2.35275522829103,2.35270080371871,2.3526167574653,2.35350454640066,2.35298431844274,2.35232811726469,2.35230595618305,2.35254677317455,2.35255010710343,2.35261513640877,2.35301291592982,2.35299039233635,2.35423813840525,2.35438507536552,2.35417979898418,2.35466075870104,2.35513454322376,2.35597948135784,2.35581093317523,2.35572288308776,2.35618745743341,2.35619795646131,2.35520022715755,2.35519199415856,2.35498615236175,2.35431266671394,2.3183787972483,2.29777743558054,2.29635333078804,2.29525486032653,2.29475534971201,2.2938926550772
2.30639496094541,2.30594939576249,2.30550201212645,2.30644203401016,2.26768626126312,2.26801205873117,2.26761938173751,2.26695070593628,2.2678277278411,2.2668421647465,2.26663087210503,2.26691533978914,2.26655044604273,2.26695401745136,2.26649168711578,2.26651429384181,2.26643862614099,2.26708446302291,2.26734268439345,2.26754649958093,2.26788041538532,2.26814940594389,2.26818185908703,2.26859544317651,2.26876053829368,2.26909023802045,2.26925246674667,2.26983981842685,2.27043654805107,2.27031694425235,2.27071253937242,2.27098827961921,2.27188626685018,2.27236013775035,2.2736655312509,2.27495818074014,2.27666977452957,2.27787176970921,2.33045027852924,2.33134117847532,2.33137482286553,2.33148367518898,2.33187170975612,2.33175230161063,2.32973293094603,2.32892500055282,2.32873647339131,2.327580553386,2.32651755165543,2.32554850949803,2.32484128924664,2.32469597691949,2.32330136608553,2.3231361665705,2.32260621163514,2.3228702435897,2.32283894433701,2.32309881246815,2.32223023049776,2.32238221778018,2.32262819458305,2.32314282669314,2.32293418454461,2.32422278621716,2.32515896318222,2.32499012804784,2.32549123769504,2.32636141258488,2.32724290582692,2.32767440394439,2.328136387065,2.32860364195178,2.33044579085974,2.33007123520397,2.32869086483944,2.32621357640327,2.32571432115263,2.32590377041308,2.28395353001299,2.28332987499448,2.28280514243756,2.28284650216714,2.28215056002882,2.28076710279796,2.28036873848225,2.28114892036508,2.28078866489069,2.2803217109832,2.27959356520379,2.27948208608233,2.27957246419842,2.27963903362557,2.27954485703074,2.27933914448378,2.27943894825124,2.27934441862672,2.27937992381619,2.27911473544177,2.2791211975335,2.27908322190443,2.27906873407581,2.27913268159206,2.27915300070365,2.27914859933504,2.27921704278676,2.27927309369275,2.27937424272778,2.27936883492734,2.28009763456119,2.2793291132874,2.27962699051112,2.27985859174968,2.28006420260195,2.28000140028738,2.28032748007363,2.27996960478255,2.28080419000205,2.28085774986913,2.28095244856906,2.28096905159187,2.28096212963361,2.28078857475542,2.28143807795796,2.28186438522661,2.28207409597847,2.28245554792476,2.28324426783097,2.28360525138339,2.28365903318875,2.28453848417974,2.28513662823401,2.28627905863814,2.28722503693592,2.2877575074956,2.34333605861627,2.34348618819989,2.34391060340498,2.3446186755619,2.34499114337756,2.34611426010732,2.3497993941898,2.35301447844049,2.35241803485555,2.35258281260019,2.35274145708706,2.35354813131075,2.35292956291309,2.35312170429946,2.35336431363728,2.35288384682236,2.35259348134344,2.35266697672218,2.35281878190042,2.35276956164369,2.35319174942994,2.35381955990412,2.35383341922035,2.35406192541694,2.35433757638074,2.35547577547119,2.35592458060625,2.35774145470467,2.35713633414402,2.35666868652358,2.35633428624272,2.35653901897892,2.35588365270065,2.35537459517254,2.35550159781114,2.29784405269256,2.29381100459543,2.29610200383846,2.29622639428077,2.29528956130297,2.29459209257387,2.29396770267066
2.30643973239605,2.30583586976603,2.30536976370154,2.30561245649494,2.28688119633552,2.26783960991771,2.26762984126638,2.26702491888439,2.26692335282896,2.26660552672449,2.26648658848348,2.26651433995954,2.26655905641861,2.2665926411167,2.2665519367237,2.2666636668942,2.26687907710409,2.26743307615122,2.26782623446583,2.26786980682787,2.26800922371613,2.2681784279235,2.26835543322994,2.2687117007958,2.26889023291053,2.26921153179655,2.26955356595916,2.26976032034442,2.27008281952932,2.27033303526289,2.27074105403165,2.27125134667429,2.27200310876379,2.2727465967613,2.27386637729085,2.27522143905136,2.27677156170488,2.27793882624583,2.30682393295527,2.33104750836027,2.33124431898022,2.33155685767738,2.33173722561896,2.33151200383128,2.33075681162143,2.32953921534557,2.3288091242364,2.32775343684483,2.32676969791615,2.32583477352656,2.32523858710859,2.32474342974466,2.3237749179123,2.32336047654812,2.32300112081251,2.32291739932811,2.32289338241631,2.32285931125973,2.32278895548249,2.32268169671374,2.32279917720532,2.32304371793407,2.32329096361484,2.32423438204845,2.32494019087852,2.3254048786827,2.32586425562124,2.32669439738066,2.32743978132041,2.32799687346383,2.32847821238074,2.32906881259655,2.32986289822453,2.32949392426198,2.32795181415219,2.32611805557016,2.32523009280067,2.32497218644868,2.28445267302264,2.28371223464908,2.28296593603444,2.28255560317215,2.28169953708279,2.280975212095,2.28067133628166,2.28073426561284,2.28049215031637,2.28014950134778,2.27982014602585,2.27963689141162,2.27960774614486,2.27964459679549,2.27953418530884,2.27940411941502,2.27937731887891,2.27935154189484,2.27932107466007,2.27923485338592,2.27915543056004,2.27915548046727,2.27909718461286,2.27910259467514,2.27915036164637,2.27917476438239,2.27927012621608,2.27940138014887,2.27951442078611,2.27955931491968,2.27965949694085,2.27949247993169,2.27963104613714,2.27981177348746,2.27990428701965,2.27998653256841,2.28020383766611,2.28028111783836,2.28062955202586,2.28088324098491,2.2811235489421,2.28119660196702,2.28123799488566,2.28130790908663,2.28153518204819,2.28184675527657,2.28225375305238,2.28272830967031,2.28348153338625,2.28362744000995,2.2839722132721,2.28457921529165,2.28531538779676,2.28636052347828,2.28734090840652,2.31522594162782,2.34200977704283,2.34236946629873,2.34313240611686,2.34410281203759,2.34549734679456,2.34883960121613,2.35090958693885,2.35268635790702,2.35348780378526,2.35341171733736,2.35354770010934,2.3537260665388,2.35359343910921,2.3533894528774,2.35313262140611,2.35295960418072,2.35284812617439,2.35284496063948,2.35285046453986,2.35299405846714,2.35332800259611,2.35371804564823,2.35399763236792,2.35438566681988,2.35469329113546,2.35517076974548,2.35572224377455,2.35648239089212,2.35682197561665,2.35677431775063,2.35657248517042,2.356278522524,2.35566901287874,2.35478319534263,2.35422805924992,2.33049024336903,2.29185654846856,2.2939694839658,2.29476833860436,2.29446564690621,2.29422088602882,2.29387255929612
2.30652302669078,2.30553276382669,2.3046636485848,2.30519891980095,2.30613743837362,2.26795532776731,2.26813463630387,2.26680420891737,2.26649760341111,2.26641134998656,2.26636015657604,2.26618211999696,2.26660203793736,2.26634491540786,2.26645344017958,2.26674347101231,2.26697516797859,2.26798505841519,2.26868567810765,2.26817332543753,2.26820241620022,2.26827101188082,2.26838195437344,2.26903866961896,2.26888362823978,2.26934066007876,2.26999824014357,2.26960680421453,2.26983736642521,2.27026986586392,2.27078585514037,2.27139429808502,2.27232063752774,2.27292839889219,2.27384127795094,2.2748070599152,2.27628808400908,2.27794376992119,2.27904263197324,2.33083031925942,2.33123749081308,2.33169075871507,2.33183239921404,2.33163302701552,2.3322546627852,2.32972472722639,2.32935444449367,2.32796533005221,2.3271341496189,2.32596449735414,2.32580488020059,2.32546605837026,2.32382390478093,2.32368557751071,2.32322104463006,2.32305789619106,2.32305321036874,2.32279724534907,2.32350591617699,2.32294548703952,2.32310282176792,2.32311632804485,2.32311265786857,2.32458582048002,2.32512413400792,2.32592620780179,2.3260317546607,2.32721862433075,2.32799594203937,2.32857082605075,2.3289853621748,2.3294387187465,2.33040192521496,2.32997483962781,2.32759517681898,2.32575299068587,2.32551352584304,2.32566814942666,2.28486950550235,2.28371586269509,2.28313173209113,2.28319926985527,2.28152648587545,2.28097569061231,2.28071618464726,2.28066022616797,2.28034339225905,2.27999578130044,2.27996763244038,2.27971792963942,2.27970438775812,2.27987729385043,2.27961119039147,2.27939392768405,2.2793664868269,2.27937911855679,2.27937093828682,2.27937533733419,2.27917958463954,2.27936498910622,2.27918656558192,2.27911407413418,2.27923020167375,2.27917053989201,2.27932440590896,2.27957957384839,2.27976035367071,2.27973198006951,2.27955039899401,2.27943157831494,2.27971908053547,2.2799349829139,2.27982245638702,2.27987023350284,2.28027118471346,2.28034396205452,2.28060048322145,2.28095522447246,2.28152830140232,2.28154148920716,2.28161013404261,2.28177458703738,2.28158901045552,2.28181105488329,2.28238061350696,2.28281467216106,2.28440706433402,2.28369944381902,2.28436333244691,2.2849175786257,2.2854173883338,2.28612830313658,2.28768532366616,2.34185410518242,2.34161190780416,2.34188905455154,2.34277985472791,2.34319531264561,2.34381503076038,2.35281772017613,2.35253091626217,2.35364878527868,2.35593952951041,2.35423231710632,2.35454287819802,2.35441478579832,2.3545595053038,2.35391264143575,2.35307984837716,2.35330750031226,2.35341894476083,2.35334135983123,2.353008724949,2.35322247695851,2.35366690291523,2.35395330033534,2.35433962780081,2.35503212980285,2.35519429867804,2.35517122906658,2.35579914505052,2.35601041102933,2.35714881829239,2.3571451622411,2.35698328556372,2.35645919070023,2.35622595206672,2.35471101182325,2.3534704337129,2.35566133265921,2.29342890892119,2.2963270006435,2.29556059065349,2.29409481739415,2.2942159343971,2.29403607427517
2.30625132229496,2.30429672266232,2.30414056834779,2.30448200928699,2.26788761748517,2.26798945893469,2.26739165897305,2.26706251531528,2.26678952432921,2.2667049727144,2.26645593111341,2.26613144981035,2.26617215298831,2.26642639578027,2.26679462357685,2.26700207369846,2.26696906178026,2.26748372568843,2.26825567235838,2.26887608714283,2.26842801758024,2.26837185435253,2.26877990922781,2.268708139733,2.26897573253516,2.26954255309675,2.2695723233497,2.26989943799993,2.27020436880143,2.270462991813,2.27081366006127,2.27116903039322,2.27201206011055,2.27265067803566,2.27379942055428,2.27449031028191,2.27590542175038,2.27750185808988,2.33246829861572,2.33155407387512,2.33134056082604,2.33134023705903,2.33142748769224,2.33142622895866,2.33142122421399,2.33080952174775,2.33089878685869,2.32914357727492,2.32735376103742,2.32733538287081,2.32674133731475,2.32645709700434,2.32593916509801,2.32531378541162,2.32435505266016,2.32360262547534,2.32308845956834,2.32314079598516,2.32335796279235,2.32349391417317,2.32373292497011,2.32415158867839,2.32454561169315,2.32521087110615,2.32596683658616,2.32651560495032,2.32707647037076,2.32785669113037,2.32839625891845,2.32900633738054,2.32963029130481,2.33023566724288,2.3303964019144,2.33047346688626,2.32965795928246,2.32721672079886,2.32624634058941,2.28465839735255,2.28383214387729,2.28352098504942,2.28299356311075,2.28244738436677,2.28182759059158,2.28141172320311,2.28092324331525,2.28021730584177,2.27992138203467,2.28007075326107,2.27976513843462,2.27970400748858,2.27970372162336,2.279576015888,2.27966567256489,2.27959008632725,2.27945655456823,2.27945698437016,2.27936174537548,2.27953022779611,2.27970105022982,2.27952150486383,2.27924864293719,2.27893680548412,2.27929049024076,2.27935171899625,2.27947235822007,2.27952049218288,2.27963956591554,2.279795673219,2.27969758347058,2.27972560042128,2.27995176062035,2.2802890830721,2.28039051775736,2.28041305169295,2.28045371179532,2.28102229986741,2.28074166799607,2.28121047265765,2.28136016136358,2.28252212318018,2.28197682535377,2.28191657272121,2.2823374468259,2.28211343496753,2.28274447690709,2.28235986392136,2.28373784627691,2.28440432745188,2.28466940491696,2.28496582939847,2.28555353919048,2.28592060943503,2.28723617653936,2.34125508651974,2.34146898254292,2.34151417595163,2.34185965718353,2.34294500583695,2.35281069067528,2.3527553057385,2.35295005559665,2.35358279205333,2.35548777332696,2.35539725687431,2.35616676198485,2.35512907998251,2.35518009999124,2.35549840051145,2.35461375908113,2.35503449086233,2.35451169016134,2.35441575987293,2.35426030689069,2.3543347180294,2.35443749998345,2.35470607297308,2.35487954484273,2.35575008592021,2.35614506062896,2.35679740771458,2.35667499719863,2.35739770698221,2.35740345335171,2.35708602251766,2.35695737544386,2.35669791766957,2.35660067770213,2.35555169786064,2.29875162917648,2.29730389083619,2.29544203294364,2.29586327498009,2.29442860016927,2.29454840736062,2.2942059115341,2.29401398624147
2.30725372458649,2.30769474258525,2.304687271385,2.30451549853457,2.26781740590383,2.26757883802664,2.26697398489153,2.26683903964705,2.26671296057852,2.26681049548507,2.26667411327909,2.26654234743561,2.26641944408412,2.26653892792375,2.26662002133254,2.26733505984402,2.26715100716189,2.26763524419398,2.26854021403567,2.26842152184446,2.2683003674676,2.26800561711279,2.26838420940968,2.26865829136426,2.26922883420063,2.26992160844897,2.26953329500056,2.26975258678,2.26995864548591,2.27044126133527,2.2708819782984,2.27122302817573,2.27233470574685,2.2723475852048,2.27355680940039,2.27423389927427,2.2759337158639,2.2771215188576,2.33156588455068,2.33127024854699,2.33134417407394,2.33142341429964,2.33205581552924,2.3319196137232,2.33165153395025,2.33177033572472,2.33003076888869,2.32891801692547,2.32778790811458,2.32805462926158,2.327517077002,2.32757586815661,2.32552402957893,2.32477660983688,2.32475357665624,2.3260361243879,2.32481841354094,2.32349660626394,2.32400666331113,2.32414349095135,2.32432365002702,2.32460590272599,2.32483942599455,2.32544491653085,2.32620988610138,2.32700357024262,2.32786904691347,2.32867964725376,2.32974865887332,2.33008398570454,2.33046220096499,2.33086808742933,2.33119045180165,2.33135501583379,2.3314474410704,2.33094605005676,2.33006133994426,2.28448377740543,2.28377268271217,2.28391335863568,2.28317597146084,2.28237046535543,2.28168336990691,2.28212473639144,2.28165960979631,2.280413699975,2.28006860571813,2.28052825639717,2.27984771541554,2.28020199843525,2.27988429135959,2.27959210232144,2.2796721624997,2.28005142474453,2.27965759979621,2.27944459659501,2.27952135909769,2.27999332433309,2.28076162676793,2.27974713126779,2.27941880184757,2.27895401342609,2.27922967166825,2.27948632670318,2.27948144350562,2.27986242627693,2.2800199998843,2.2800231190052,2.27982675254011,2.28027374507105,2.28015864679052,2.2799978303455,2.28000772737484,2.28052312327887,2.28107503462153,2.28160753677491,2.28125053453501,2.28109884967402,2.28181698212817,2.28187432518736,2.28191789976524,2.28186314599112,2.2825165535448,2.28296599923987,2.28333161001125,2.28364174546423,2.2843948958552,2.28436090742725,2.28493794435035,2.28575688584836,2.28606057021508,2.28629920238425,2.28825772433346,2.34040139982944,2.34126747864558,2.35282232887177,2.3421297366517,2.34329040764754,2.35243070147036,2.35268664303456,2.35318140684169,2.35354852370332,2.35557182421408,2.35503476772884,2.35545660497222,2.35509121575398,2.3550614984137,2.35507749934359,2.35551028096462,2.35544110596679,2.35545345956594,2.35631372200246,2.35473857131463,2.35513053686005,2.35570837037018,2.3556784453209,2.3555975575009,2.35582753795509,2.3564134858974,2.35678005141275,2.3570215002305,2.35734398325761,2.35734203843917,2.35658329068062,2.35626961995874,2.35667262978923,2.35521431560539,2.35532114536868,2.35555496791282,2.29630936446032,2.29620830551288,2.29681500609553,2.29478009464672,2.29565797793442,2.29502466000336,2.2936444397611
2.30762459099529,2.3083762687818,2.30867317679252,2.3042750951466,2.26805054612554,2.26764156621946,2.26695142356918,2.26656651018334,2.26709474218419,2.26680017296351,2.26690684702405,2.26689664816137,2.26700382291698,2.26679929238321,2.26690272885206,2.26713225248786,2.26725238929957,2.26754328705807,2.26839432561264,2.26848770014392,2.26837939166327,2.26827274237439,2.26844774468165,2.2686158613552,2.26955277063346,2.26984799344843,2.26966066421947,2.27014737377473,2.27055151907734,2.27069911524083,2.27107787457126,2.27151080531931,2.2720094639001,2.27277429513357,2.27348234354645,2.27517581184617,2.27614402355635,2.27724203699627,2.33127050352478,2.33127477181701,2.33144959654285,2.33193688325276,2.33257466586253,2.33237845456534,2.33249528796823,2.33321868158553,2.33294213873696,2.32970391153703,2.32862382807998,2.32877681568537,2.32782964396097,2.3271395133194,2.32668626528817,2.32557618096003,2.32656376426398,2.32500334123751,2.32452524653785,2.32398540897887,2.32431586085563,2.32450128754596,2.32493683518416,2.32518888413383,2.32561459127188,2.32610129733031,2.32743387885421,2.32812367174364,2.32973786256567,2.33033035930338,2.33089385799088,2.33147158673201,2.3313905933232,2.33143019163298,2.33216215431009,2.33274459742264,2.33248111201627,2.33134299393778,2.32814156690253,2.28512567526067,2.28521905709005,2.28525633597036,2.28361524572587,2.28252213747778,2.28194124637229,2.2815500432878,2.28120159735239,2.28055237315107,2.28046487849857,2.28006702944004,2.28027958702749,2.28026911196073,2.28008795731854,2.2799257496349,2.2798085360002,2.27990350107712,2.27998821097329,2.27965658562062,2.27976094824612,2.27975704759235,2.28007617007914,2.27974086431588,2.27975325612794,2.2797659929329,2.27954597943363,2.27955050782392,2.27942204244289,2.27946646463481,2.28003556685961,2.28003421547826,2.28013581124672,2.28011786869473,2.28042703560623,2.28039605635981,2.28090539028094,2.28078699914014,2.28082735663144,2.28108458108884,2.28133346311217,2.2805646442221,2.28164642280389,2.28156302131466,2.28200217902051,2.28229560635185,2.28271480394567,2.28315120466716,2.28352046481117,2.28371416888577,2.28493059304624,2.28424379771956,2.2848065819684,2.28588633313867,2.28663982457472,2.28667042708583,2.34982386778055,2.35131348254286,2.35197710536918,2.35169831082101,2.35205132937978,2.35198374765417,2.35288584389873,2.3532691494296,2.35367882876286,2.35388736690128,2.35560874273526,2.35523659751181,2.35531595964144,2.35520327351264,2.35477331707333,2.35513217843554,2.35570038278314,2.35581943916753,2.35575794327835,2.35613354710249,2.3564910198637,2.35604655291091,2.35638515811921,2.35669703719956,2.35684007399786,2.35795486128715,2.35696783679934,2.35755060572415,2.35754654267374,2.35772585769884,2.35802858677001,2.35694614237122,2.35730289566969,2.35666080531634,2.355682426639,2.30042390572475,2.29771970331666,2.2971852844704,2.29644594441281,2.2962816720525,2.29483603010482,2.29460400194632,2.29385200715411,2.29354322536039
2.30747328022221,2.30786836548593,2.30930207863596,2.26828360451671,2.26764992334888,2.26685416412279,2.26662471098521,2.26677990342789,2.26658413274667,2.2677011207667,2.26727587402026,2.26698170029721,2.26665632044294,2.26686495863845,2.267179735484,2.26782553429354,2.26777844528565,2.26783946978264,2.26836236830558,2.26888178797533,2.26846424433151,2.2681917407671,2.26835254934856,2.26825133871858,2.26973844917974,2.26943232917885,2.26961161062584,2.27004679388311,2.27072767371257,2.27118235426212,2.27124224313672,2.27133863150394,2.27187453213802,2.27250224558907,2.27361671882218,2.27471097483019,2.27637539587996,2.27752471566995,2.33157631231256,2.33105173002533,2.33144437561092,2.3315078669507,2.33226368665656,2.33272711588364,2.33267608113713,2.33297227765711,2.33197509878702,2.32999812206921,2.32918173370994,2.32836598026603,2.32802374742384,2.32746243974836,2.32674195881607,2.3261754095161,2.32613717315476,2.32526673733219,2.32535282477708,2.3266780656626,2.32540911473578,2.32534207375725,2.32586448077231,2.32715960846514,2.32665209543791,2.32780950403846,2.32890162245693,2.3287782265654,2.32988118665897,2.33079460126263,2.33130274149663,2.3325171826028,2.3323599742139,2.33306275979389,2.33314214711531,2.33446730017829,2.33382133523686,2.33232604479771,2.33178751860905,2.2849569248592,2.28445567331598,2.28413981918253,2.28358276518039,2.2830508045774,2.28271684740699,2.28171647706967,2.2813903705164,2.28074898976306,2.28047432141118,2.280267043638,2.2806857299948,2.28034109667666,2.28030352878515,2.28046686928558,2.2804823691617,2.28011737195685,2.28017669245503,2.27978452079197,2.27992250451148,2.27979144814986,2.2801646693628,2.28039646329609,2.28013814458306,2.28020880929925,2.27992775386388,2.28053646768342,2.27991587129666,2.27993104819141,2.27997123848054,2.27991319571553,2.28015031686541,2.28038708854107,2.28110993931163,2.28203909779555,2.2811474834465,2.28080074847392,2.28076672250336,2.28105188462809,2.28154517361611,2.28132050021854,2.28174886292786,2.28186465458116,2.28227438542315,2.28261130828715,2.28256450957702,2.28321578127301,2.28330685842907,2.28413664728399,2.28427198054902,2.28479682144522,2.28531582129056,2.28626835971835,2.28755050899289,2.28792273768729,2.28930172377498,2.35183047447224,2.34974130870457,2.35133140346916,2.35161876502344,2.35219799680996,2.35309783827532,2.3543543233781,2.35457646208041,2.35502669435791,2.35532050054826,2.35540535513689,2.35549535425257,2.35533025867731,2.35544367458141,2.35569475656722,2.35627766994969,2.35597690689462,2.35589903994644,2.35595041380897,2.3567206590701,2.35648849838305,2.35654328533413,2.35722630064965,2.35693813330579,2.35785771571222,2.35739659889471,2.35847087154701,2.35819076462925,2.35859680963468,2.35764378840729,2.35716081478242,2.3573081769827,2.35767272131447,2.35846195454506,2.29791610365513,2.29590956513357,2.29633624010251,2.2961027241225,2.29632559487924,2.29450978778755,2.29354558491172,2.29266408697267,2.29311072911777
2.30724219004187,2.30749618773317,2.30918972287431,2.26807392436362,2.26777035164873,2.2668273294339,2.2664016695233,2.26657873629392,2.26594435566183,2.26852773674108,2.26752100551273,2.26701161343025,2.26665728138026,2.26681465566882,2.26700577224674,2.26808515872841,2.2675267487944,2.26764006580702,2.26816103638187,2.26849453738519,2.26842787163904,2.26831129503627,2.26817284772865,2.26854193484245,2.26921599971322,2.26946430657783,2.26979214396293,2.27049505115568,2.27056747223077,2.27115711446755,2.2713878087034,2.27151430681358,2.27204381338739,2.27217799204173,2.27332466900926,2.27482935972326,2.27612576150696,2.27689173247734,2.33361703072878,2.33237153208098,2.33197267464569,2.33158999538266,2.33203488641529,2.33276835729088,2.33287130048281,2.3342078493573,2.33197887411536,2.33115797058003,2.32983984905475,2.3293708450934,2.32857389293464,2.32760358333757,2.32819611801941,2.32809697524346,2.32671981723689,2.32555218077649,2.32580880251444,2.32573523481879,2.32523098192955,2.3254638656619,2.32615065646366,2.32655861277983,2.32729679631422,2.32811517137306,2.32849989104166,2.32924460479301,2.33040660196987,2.33097024730286,2.33160664631728,2.33230605000791,2.33259349872739,2.33301726655714,2.33352538739589,2.3337854276429,2.33298212823369,2.33212477597804,2.33430599697986,2.28509370837863,2.28471186616093,2.28399191054511,2.28356594248579,2.28308774283095,2.2821388737483,2.28130224235327,2.28065694709393,2.28051391193035,2.28070665581225,2.28020531387451,2.28040618104674,2.28043770300174,2.28035533135086,2.28016225274603,2.28033845378908,2.28029447548088,2.28035166994334,2.28031223231144,2.28042451978122,2.28016541089929,2.28158582087829,2.28040081843858,2.28021251680329,2.27999019214152,2.2802345717878,2.28038632612326,2.28024021963792,2.28015606144479,2.2800570519645,2.28018230403806,2.28042790988229,2.28112200419796,2.28159009125448,2.2827324452927,2.28146584972171,2.28166688699355,2.2812290583304,2.28136488451343,2.28181003410923,2.28214205615987,2.28205937041991,2.28268451240722,2.28265621073164,2.28278480841821,2.28309408495536,2.28306357066548,2.28336464904223,2.28407494145439,2.28501758636047,2.28541246900597,2.28707161642383,2.28773777204986,2.28854464631012,2.28850651324609,2.35283333597533,2.3518874169758,2.35142998845446,2.35074429061115,2.35150630164415,2.35336067675063,2.35532844830875,2.35601566920193,2.35550601225129,2.35590046426701,2.35550677858704,2.35567713132791,2.35531981233794,2.3557828882571,2.35587597899053,2.35595570557565,2.35620448372701,2.35582397187871,2.35616502479922,2.35597009778634,2.3575952601807,2.35709164782466,2.35782725082293,2.35840752797921,2.3582553271826,2.35854767906631,2.35817598872663,2.35841672587668,2.35842322138001,2.35861351398592,2.35820105107214,2.35735451345262,2.35727172132268,2.3576454750219,2.29844238298754,2.29774912732232,2.29591658058303,2.2955859974684,2.29529102625136,2.29497688930026,2.29412095049852,2.29313998047328,2.29278490385457,2.29352968204657
2.30683422075369,2.30482220302611,2.30699613629285,2.30873860407042,2.26752929476753,2.26667823332338,2.26649123991713,2.26655814900413,2.26661515568072,2.26741507959629,2.26728523852292,2.26711486749576,2.26683032896455,2.26689126988009,2.26710077579683,2.2680479215305,2.2682058016632,2.26807039230818,2.26841117801086,2.26850377098438,2.26844450493388,2.26851256523013,2.26888055480575,2.2691605203709,2.26907621672586,2.26935326194239,2.26980294321809,2.27009673782177,2.27068709243825,2.27177983752159,2.27166202797002,2.27178444009236,2.27260468206798,2.27288249616809,2.27375560177749,2.27459356587397,2.27569170393635,2.27612796923772,2.33291622255551,2.33305885474665,2.33262958587055,2.33256060618082,2.33283567740538,2.33284915358376,2.33299994490593,2.3325772987327,2.33212129468203,2.33148632554996,2.33120206875533,2.33012733579583,2.32943988087362,2.32895534116565,2.32951260269218,2.3286827965246,2.32691453649686,2.32616396437345,2.32616418467966,2.32652253274071,2.32618421423652,2.32688348901095,2.32685248583942,2.32688548630461,2.32746333365356,2.32771458412553,2.32856565332527,2.32897647175249,2.33023088028909,2.33110493808925,2.33185519064895,2.33260118493523,2.33287450225105,2.33322831970831,2.3333693019835,2.33338948549398,2.33335472988405,2.3311388446057,2.33243314863383,2.28566655410048,2.28445902951658,2.283992651796,2.28365483519035,2.28359679224282,2.28210403605752,2.2812917537887,2.28093155057126,2.28109456323153,2.28053929288896,2.28055471422093,2.28047009763135,2.28083832774103,2.28054957509423,2.28016168487113,2.28053419022548,2.28037946525567,2.28054275192281,2.28085354930733,2.28035576956186,2.28034079200726,2.28044083188392,2.28042424072909,2.28037484522815,2.28039584021035,2.28037086226198,2.280274940906,2.28031854321526,2.28058579424751,2.28043614730134,2.28105018355975,2.28105310567332,2.28106732505224,2.28146999330358,2.28176862843699,2.28219316870118,2.28237133461972,2.28137478727811,2.28177327485957,2.28221086649839,2.28229572086644,2.28262472601394,2.28303601228735,2.28292448413995,2.28295162421028,2.28326734344351,2.2833763525816,2.28380481256531,2.28462003627182,2.28535796190707,2.28558262953703,2.28711775736284,2.28778447874843,2.28898276388569,2.28904381267816,2.3520588615515,2.35104152479099,2.35077591189925,2.35106597466055,2.35293226713703,2.35565245684156,2.35665561264835,2.35618047460927,2.35582682649581,2.35602040185907,2.35617032482899,2.35677897856591,2.3563040371893,2.35646593525282,2.35641800049108,2.35706450818273,2.35537092515073,2.35669003056963,2.35729161307302,2.35869046131381,2.35747020258893,2.35755416549223,2.3577450768799,2.35821055482435,2.35898835517445,2.35910301922218,2.35879107780428,2.35894748782372,2.35874123671231,2.35861939292505,2.35878062311316,2.35824990977438,2.35724779990563,2.29986038419546,2.35854162544887,2.29690648715698,2.2957683637685,2.29454573145662,2.29455720148137,2.29409076482144,2.29373735684524,2.29391362614826,2.29367480352468,2.29338517580479
2.3073807285377,2.30556927146238,2.30588596696733,2.27065102820596,2.26800765588882,2.26689010499287,2.26670255620046,2.26647493465891,2.26718367384563,2.26734882303618,2.26710721018901,2.26673883383782,2.26704189473907,2.26708497312731,2.26819254807075,2.26859449535622,2.26859164273115,2.26837783007417,2.26784648029324,2.26803233031689,2.26837065281921,2.26869446892061,2.26888695680776,2.2690601289361,2.26921914530541,2.26940089623693,2.26971367840337,2.27065841979703,2.27084360880284,2.27175753181049,2.27172318695651,2.27205509494449,2.27240057924236,2.27259011424814,2.27349978520524,2.2747382943404,2.27566361458392,2.27771720243649,2.33249234670435,2.33210702886534,2.33277161016384,2.33227747295586,2.33220800446756,2.3326704103825,2.33315683662993,2.33354911085133,2.33328959217046,2.33200280762705,2.33133659855796,2.33104976927186,2.33024278051899,2.3299622065136,2.32963337679224,2.32882641832047,2.32828490552303,2.32750275826812,2.32706744852558,2.32711961676449,2.32703460895419,2.32750411015316,2.32762525851685,2.32763539003401,2.3283905896542,2.32762193118349,2.32795284198092,2.32858959635764,2.32981265715214,2.3307005836541,2.33249749755187,2.33328648761606,2.33338804001112,2.33327793187721,2.333746571224,2.33285795436287,2.33121924273603,2.33064774642736,2.33359132132215,2.28571253297119,2.28458441795139,2.28412462915224,2.28360327849341,2.28319652816375,2.28237359236404,2.28163152285097,2.28119402001898,2.28095808628886,2.28075994779676,2.28111102332916,2.28097227188151,2.28118141170367,2.2808897105801,2.28054268816959,2.28050435519357,2.28070157359357,2.28083826921458,2.28089681355078,2.28037926846455,2.28029348133297,2.28046548626962,2.28061801135403,2.28049629005354,2.28045718242274,2.28051028298923,2.28121762019374,2.28111847393997,2.28058218580021,2.2807090643087,2.28096350853404,2.2812892831799,2.28133736474949,2.28146824259396,2.28160463923809,2.28164546983995,2.28182727161133,2.28134777202422,2.28209042424635,2.28203125316261,2.28258158882915,2.28241100356453,2.28254394645041,2.28310012359865,2.28371074324144,2.28400540501787,2.28383507746365,2.28404063893667,2.28473482766938,2.28528769955712,2.28611602510504,2.28772816812347,2.2876392980355,2.31852691754894,2.35216431425183,2.35189012151573,2.35075906628773,2.35031188666035,2.35073672955048,2.35714583324071,2.35604732999427,2.35647252761963,2.35598554597563,2.35586028828247,2.35621189899746,2.35684825516775,2.35653902606726,2.35658922100989,2.35684493934441,2.35693964329442,2.35743683827662,2.35697964444006,2.35831728673458,2.35791185788057,2.35799072691837,2.35793040043554,2.35846207369253,2.35879285908937,2.35904518886091,2.35967097382497,2.35967495328267,2.35938039679786,2.35960108095036,2.35915109706073,2.35898002707961,2.3588852676413,2.35877321608461,2.35836715290604,2.29902820839861,2.29907195519991,2.29709143055941,2.29595788983985,2.29419593677419,2.29437035202561,2.2943798569921,2.29428121340554,2.29469080434645,2.29405430036407,2.2942273218308
2.30901311737288,2.30621485093836,2.30555327778707,2.26940742945371,2.26805792596228,2.2675116362529,2.26686904703693,2.26682433600125,2.2666976538036,2.26746004729766,2.26709595889607,2.26675572810882,2.26690348866369,2.26721394913414,2.26769245837398,2.26735569178745,2.26729400074218,2.26811095833975,2.26825433816046,2.26803262372664,2.26834306900802,2.26856429270165,2.26884116618414,2.26905383154244,2.26923451562469,2.26983161646044,2.27036215013047,2.27025049149173,2.2705197092815,2.27118341462181,2.27146617478638,2.27167328708102,2.27229713285442,2.27285454639921,2.27366674219648,2.27476340976103,2.27535125784606,2.2770989378984,2.27822768818849,2.33298834280531,2.33361883552587,2.33447411636547,2.33307754736018,2.33285393971045,2.33374012978772,2.33374299181171,2.33305296791297,2.33180160292344,2.33130309981309,2.33144020926291,2.33068278361698,2.33021103129211,2.33036812953873,2.32908526681446,2.32841546334738,2.32847536221796,2.32787373590056,2.32731006670774,2.32787998235199,2.32908135148666,2.32869068467769,2.32893771117405,2.33272576860941,2.32595781895935,2.32599067777613,2.32618642722307,2.32587978618048,2.3260141184156,2.33433101369259,2.33501083679943,2.33467390398422,2.33494333370781,2.33446888456242,2.33051462116636,2.32913309662961,2.3294862192322,2.3305980951172,2.28586549971265,2.2846181663187,2.28434458141315,2.28369462016457,2.28349305840466,2.28236773131174,2.28180517551873,2.28138884898988,2.28115169739299,2.28082598180687,2.28096386562714,2.2814434611767,2.28245256122511,2.28133984381922,2.28094091427837,2.28078921476571,2.28032880145742,2.28044919506523,2.28058870326042,2.28085070584608,2.28041768936253,2.28080297511614,2.28061748877619,2.28061026986102,2.28070329315345,2.28075892837198,2.28034354036535,2.28084238082012,2.28091235875938,2.28105623305627,2.28110915603526,2.28118503574987,2.28144071483663,2.28154794818535,2.28176271161009,2.28160617517913,2.28334695936304,2.28186209430786,2.2821396526304,2.28230504381803,2.28271141294611,2.28283897269306,2.2830001145452,2.28328677007286,2.28363203411922,2.28424560010102,2.28406521672416,2.284738367606,2.28550847645416,2.28656277257543,2.28731356774244,2.28805222332342,2.35094554946186,2.35192150113102,2.35179452533262,2.35140002367995,2.35942700975202,2.35143095745852,2.35207404080759,2.35569957526335,2.35578317765143,2.35579602767106,2.35589084472311,2.35573945638393,2.35574042637668,2.35620503427879,2.35621212749121,2.3566970451524,2.35720339165917,2.3570948003019,2.3573672512985,2.35796964483117,2.35856928815861,2.35841478793113,2.35883131043461,2.35894812134502,2.35901041795119,2.35930522656807,2.35944512927484,2.35983468046616,2.35997489777532,2.36053847910979,2.36029538592711,2.35939344278484,2.35892895349209,2.35899662354266,2.35914560055808,2.30070101430798,2.29834278092469,2.29742803094193,2.29635159714631,2.29531645418319,2.29494378148028,2.29447977101269,2.29452776170498,2.29457588348869,2.2941344823582,2.29434320982975,2.29385167134649
2.3108696644287,2.31045382976769,2.28877503680805,2.26943168942109,2.26826919062764,2.26735364483597,2.26681620096833,2.26673956199497,2.26681250962499,2.26709404662002,2.26712077941468,2.26710225768314,2.26708962351545,2.26722237288855,2.26736374776494,2.26750233339068,2.26794321032036,2.26816835911474,2.26829729099876,2.26827764911087,2.26847997641883,2.26874899633832,2.26895745572067,2.26910602401028,2.26929717403333,2.26964541785599,2.27003672288926,2.27026506730907,2.27060763850704,2.27092956841131,2.27135325011767,2.27177474015765,2.27231691734986,2.27297323297553,2.27385109034531,2.27490390738652,2.27588285455231,2.27737986195681,2.27850368181975,2.30569302456954,2.32713149170775,2.33445928042366,2.33422589228257,2.3341805637726,2.33423971374771,2.33404147779,2.33338495176149,2.33252656271725,2.33194247449685,2.33163319357995,2.33102920615731,2.33062159334409,2.33049545514933,2.32989785503117,2.32954705310856,2.32893966080873,2.32860445466006,2.32844851097191,2.32865718632112,2.32904095483571,2.32941196303677,2.33003385425672,2.33079703049332,2.32905173927842,2.3278960451157,2.32982045451423,2.33134251895209,2.33255274217459,2.33512632655961,2.33507877074099,2.33570579621024,2.33580862463413,2.33525555647497,2.33332136640272,2.33010164528459,2.32919588614742,2.32949890482645,2.28649638011818,2.28546523923652,2.28442076512691,2.283706910893,2.28328727298649,2.28244130873359,2.28180490153084,2.28152959614306,2.28150012743357,2.28125031784591,2.28119779337675,2.28123659306917,2.28151766665832,2.28116924292146,2.28090480848898,2.28082151500795,2.28066273515535,2.28063212799636,2.28068702787013,2.28081760577369,2.28066135878381,2.280751117417,2.28076893481129,2.28070482446295,2.28068954929162,2.28072972583983,2.28074615540073,2.28094747803452,2.2811388402113,2.28134220412277,2.28138670168839,2.28140891411931,2.28152298279498,2.281592617175,2.28173837447041,2.28185813565816,2.28236961762391,2.28220181353942,2.28244360185491,2.2826689044199,2.2829421274734,2.28306433450197,2.28328454271426,2.28350866273697,2.28379674118728,2.28405847679446,2.28428024687222,2.28490709460001,2.28576188488141,2.28690577534409,2.28777172216609,2.28841147186617,2.35162555432436,2.35275608437732,2.35361951134207,2.35380846370785,2.356099822138,2.3550525887047,2.35491906599134,2.35550485586622,2.35572225993756,2.35583245892309,2.35584337345758,2.35585327068953,2.35605101806043,2.35621041101447,2.35672296794996,2.35782659988506,2.35785880485766,2.35791357586379,2.35784485395036,2.35824278024341,2.35863813656281,2.3587767252948,2.35912508359765,2.35914630493447,2.35923302207616,2.35953239983764,2.3596254578214,2.35996150958378,2.36017978261475,2.36030211671276,2.35999820854054,2.35931894517698,2.35860568721314,2.35810066100628,2.35733628738983,2.30131350919131,2.29951947396135,2.29783514303729,2.29644780175035,2.29523515287675,2.29453975304071,2.2942622312702,2.2942465607852,2.29422885209437,2.29408681777353,2.29415025957589,2.29412190382665
2.31159252060183,2.31306615712399,2.271198872696,2.27060550443673,2.26826662178635,2.26696239585468,2.26655599277442,2.26669467291019,2.26686064195126,2.26705972461375,2.2672881220684,2.26750600551332,2.26717221893169,2.26724335307395,2.26706213178587,2.26735313384281,2.26883354879252,2.26834393715011,2.26853268723924,2.26837029814296,2.26864717260393,2.26906595456138,2.26917264816342,2.26914193286472,2.26922644655929,2.26942630519992,2.26990267161375,2.27018655801757,2.27076720195505,2.27063969405945,2.27135345486086,2.27183011520863,2.27234825196457,2.2730186159415,2.27409607982118,2.27516748322953,2.27557113136391,2.27719155659542,2.27883708825006,2.27980995267798,2.31862732865426,2.33392819406895,2.33464890438564,2.3350337581464,2.33489190492158,2.33477358215274,2.33404522672283,2.33308730435491,2.33248818922813,2.3323016711729,2.33149077182276,2.33095153201931,2.33124490647234,2.33062683396534,2.33106113315922,2.32930042889594,2.32927835898649,2.3293821251474,2.32940347844558,2.32921291226749,2.33020442757993,2.33136792773115,2.3315931605839,2.33181372000246,2.32631294591675,2.33504175305211,2.33667399764845,2.33912835163931,2.33864977603553,2.32141101221379,2.33738486320853,2.33766673096867,2.33769533411257,2.33776283575442,2.32973202214285,2.32920453680751,2.33043610605012,2.28660835151567,2.28517534938436,2.28379659761844,2.28380865361691,2.28395141078381,2.28257778175948,2.2815954910595,2.28146786557092,2.28213281747849,2.28149322560154,2.28140776615305,2.2808332950129,2.28131360770365,2.28103839736384,2.28077872003903,2.28098591057481,2.28091409706686,2.28076634000659,2.28074539953857,2.28111112022365,2.28070070270768,2.28083443541507,2.28108815988304,2.28088098708227,2.28070167263811,2.28079608497946,2.28099312261763,2.28111861644573,2.28137221234451,2.28184615909895,2.28171432806305,2.28161891259758,2.28172784876595,2.28169840445385,2.28181643293322,2.28180793453066,2.28209362459602,2.28220716484443,2.28277353019873,2.28305285707489,2.28334562203839,2.28326809688284,2.28364687383583,2.28380907171483,2.28411585552465,2.28406157500559,2.28429169605062,2.28498316601942,2.28556487527446,2.28672186385307,2.2870348364033,2.28758318454102,2.35117141060536,2.3536975345109,2.35559619502356,2.35339295348541,2.35688993058094,2.35739817644204,2.35695513093115,2.35591745078935,2.35602278715071,2.35626345074486,2.35618244258743,2.35626769734782,2.35677771545994,2.3561768102975,2.35689667146297,2.36034642661463,2.35878026052855,2.35920040482784,2.35815116374266,2.35888146826264,2.35938937215374,2.35948460306635,2.36017108953952,2.3596414119826,2.35954507015571,2.36032341331735,2.35986404385214,2.3605096212288,2.36063446387807,2.3605573170634,2.36007095950745,2.3595319514959,2.35911320105257,2.35935704240119,2.35721055204222,2.30169091820983,2.29900909751349,2.29706626586816,2.29612116550401,2.29477841266092,2.29396000050644,2.29406263098574,2.29414308449267,2.29408962913904,2.29393083368754,2.29409559985564,2.2942695456647
2.31051805392052,2.27119181676228,2.27172383794614,2.26972265073055,2.26763809202545,2.26697290717692,2.26632656121043,2.26654153364397,2.26666907531604,2.26704234170642,2.26752120738677,2.26830374899919,2.26751629225717,2.26726610247947,2.26724630092269,2.26761018433673,2.26824965099913,2.26804452549058,2.26876880205674,2.26856761150853,2.26873694102571,2.26891827155323,2.26905031447825,2.26928663368104,2.26965204011559,2.26920106399033,2.27035739625205,2.27044708485451,2.27100730450554,2.27082946987466,2.27164933897205,2.2725188801666,2.27253245553253,2.27299422187981,2.27386560592424,2.27436334055765,2.27504470724003,2.27653003277554,2.27809362571963,2.27965564843202,2.31031000126433,2.3341963997313,2.33563016138249,2.33596709081138,2.33637057604096,2.33605798999413,2.33529064719785,2.33400090241346,2.33332904026082,2.33220167665532,2.33187079688254,2.33150275768551,2.33155624002001,2.33079909801897,2.33010747340571,2.32959738079554,2.32988261783007,2.32953716958203,2.33078552456442,2.3314206992957,2.33101435390178,2.33136686453392,2.33157654432389,2.33297671105007,2.33420066130327,2.33545992097967,2.33705843959331,2.33882770313697,2.33964168333164,2.34056785035736,2.33889620033948,2.33797721532236,2.3392878526324,2.33798024593485,2.33824491126203,2.33681822483683,2.33839156984219,2.28610112957448,2.28483442722193,2.2844125136942,2.28413795461281,2.28396579602809,2.28358371497456,2.28239542575787,2.28223328540576,2.2817700052299,2.28195302431439,2.28174143365066,2.28136014889711,2.28102008462632,2.28098907558145,2.28077822832499,2.28077982120923,2.28073048398326,2.28081952736997,2.2808383635499,2.28084656817577,2.28147759048391,2.28100180276341,2.2811215722366,2.28111826875369,2.28109973681139,2.28104888845499,2.28109116464949,2.28228887306865,2.28240477643495,2.28168355757866,2.28256598392589,2.28164237102347,2.2813459667092,2.28173735019208,2.28187164521492,2.2818393802445,2.28232814853145,2.28258931699049,2.2827793749241,2.28310053026829,2.28321606628355,2.28411372313306,2.28391827992986,2.28405244748132,2.28414317658258,2.28464293059933,2.28548458114772,2.28553340665612,2.28567720642165,2.28600201176883,2.28679275982684,2.28854972267781,2.28974636948288,2.35544942320806,2.35762496284771,2.35737320364083,2.35682721027622,2.35668265795615,2.35654782627329,2.35636846684634,2.35622335431702,2.35721651074955,2.35686167190344,2.35663605043569,2.35614431332107,2.35614568610096,2.35706790708783,2.35883511674503,2.36019026086048,2.35981776279819,2.35925117350505,2.35956022111768,2.35986312086809,2.36002144231718,2.36064034296553,2.36013131854601,2.36022736791633,2.36111331118915,2.36086984951226,2.36094500108132,2.36100911335189,2.36051818222529,2.36047141060993,2.35981501389339,2.35955909138936,2.36016095858833,2.29874834369765,2.2985336365208,2.29646138083305,2.2957521427291,2.29507258188347,2.29466530145187,2.29423461063325,2.29407092789362,2.29402148122779,2.29539090812018,2.29432361668666,2.29448869156959,2.29405002938622
2.30934781964934,2.30872866846505,2.27001207187228,2.26940946388025,2.26762623223002,2.2671844022236,2.26668742125456,2.2660354010948,2.26722651835175,2.26710211191595,2.26750163276528,2.26764195096366,2.26748946476548,2.26746088234764,2.26779685274242,2.26783195874964,2.26801117557269,2.26809538021116,2.26832725506239,2.26821916929679,2.2688607383002,2.26915695743624,2.26913116125748,2.2692881137392,2.26967443137526,2.26976531381272,2.27030074826859,2.2706926793759,2.27114182831841,2.27186882026065,2.27196919796469,2.27220345413528,2.27225269077902,2.27280900754514,2.27354289577814,2.27449282039614,2.27578115619229,2.27657313369065,2.27883109083305,2.28020330209178,2.30161323482031,2.33612994004953,2.33617556637725,2.33676569631122,2.33669056694748,2.33648100030188,2.33723956156097,2.33446417342377,2.3331453122106,2.33243130938494,2.33245830856659,2.33246204027027,2.33180418137879,2.33291175843467,2.33111752817074,2.33111496132944,2.33067928769314,2.33093344854341,2.33088428222491,2.33091735191861,2.33122493834341,2.3313112517396,2.33187056111584,2.33311921743053,2.33420674975398,2.33450142183535,2.33648518851539,2.33775757553126,2.33940284582692,2.34008332434256,2.33962596529098,2.33972454704165,2.34023919072949,2.33823026783058,2.33814446153705,2.33489403562466,2.33821611443823,2.33903401747668,2.28591580695926,2.28490315966436,2.28455256828795,2.28477260041844,2.28369879800904,2.28289326800381,2.28219823667962,2.2818394530395,2.28141175219534,2.28164048774511,2.28146844411642,2.28110973433513,2.28116635490532,2.28104281812311,2.28084462227915,2.28094315594549,2.28110217401585,2.28144918270859,2.28091301095709,2.2812456091226,2.28162002409204,2.28183594933299,2.28143577337756,2.28120338747189,2.28140390658458,2.28176342624578,2.28200142796549,2.28212198059605,2.28229544124234,2.28184079009127,2.28134387702672,2.28183873385908,2.28210931574719,2.28201278393601,2.28191423173073,2.28255040323421,2.28284692843537,2.28305442693027,2.2838289494609,2.28377267474761,2.28419301142577,2.28461112297022,2.28441392373051,2.28425218695938,2.28419948245401,2.28556545585001,2.28539999741501,2.28608879656373,2.28686372683963,2.28744312000525,2.35962794599332,2.35596051548467,2.35546817650117,2.35579415457587,2.35619593910872,2.3561735872004,2.3553006296764,2.35627021786659,2.3560609105088,2.35697073650591,2.3600236438321,2.35757099803917,2.35757046051871,2.35713321397306,2.35771867418766,2.35831934758449,2.36027382652333,2.36006973096586,2.35992422391513,2.35987819668294,2.36029435330761,2.36011536393624,2.36045726516741,2.3609166145828,2.36107182756787,2.3607962246724,2.36381043917123,2.36195564001878,2.3623947501401,2.3612357877292,2.36122577010302,2.36159150504904,2.36013862721558,2.3593421728541,2.36138698364836,2.29834033631704,2.29750110558656,2.29675229441715,2.29530093058202,2.29481974253032,2.29445551549815,2.29417137231668,2.29407171622085,2.29405806755404,2.29484685070611,2.29447731002043,2.29476679453463,2.29414227508198
