0.927481801006347,0.929958461114031,0.92888084527093,0.929504924707244,0.927749682485332,0.927101056710795,0.926546719511925,0.927009890126828,0.925244149032219,0.920475835457054,0.919968799598765,0.919608460321629,0.925817812607128,0.927285260218442,0.929094617613424,0.930596216511241,0.929421226539492,0.929043590986709,0.928143722873326,0.927894738395663,0.928611353574211,0.929408607384215,0.929919719417227,0.930444585649683,0.933595143106578,0.937199893319707,0.938448913131578,0.938876719061663,0.928156717475024,0.92722322832472,0.923372131434372,0.921788759456383,0.921406802975253,0.922837308436132,0.926464062605526,0.928589767904934,0.918144013139764,0.919009621180064,0.918849453200715,0.918131758844707,0.919783653813405,0.921619078375235,0.926324074834887,0.927255528193309,0.929864116360076,0.931523394398546,0.924760816270126,0.910110283413197,0.907112188034989,0.902987281673404,0.90097530014626,0.898022176179776,0.897222037772254,0.897296262371676,0.897236901087184,0.897047855057421,0.895891376079529,0.894060679329687,0.896146007614831,0.904469127907072,0.902919964932118,0.902797948837345,0.900024027592118,0.896690839515903,0.896051355782617,0.895370257255467,0.897063989029793,0.901403979307183,0.90203023047021,0.902254309113292,0.90686195842729,0.913696817129802,0.914133790339254,0.914320169929028,0.906715989951809,0.89338886684366,0.892338462042819,0.886086470659546,0.888858704376805,0.890275787832677,0.890865051167673,0.892764390694039,0.89272486079406,0.893812220053894,0.894883629669873,0.894525015224268,0.877171695944535,0.869589550100417,0.867674039706236,0.867878150151174,0.866274206564173,0.86485038051521,0.866176219036708,0.855173999755298,0.853287646537711,0.85292777507446,0.85322831003507,0.851905580983187,0.850900353627512,0.852002507921778,0.850071641017209,0.849621294631548,0.850476098857493,0.850441814150259,0.850279345983257,0.850973792722681,0.855363096641058,1.22515639326908,0.853935839573404,0.849395139155444,0.849101743976369,0.849767486447258,0.849471621984062,0.852959344874892,0.844225008950118,0.843262680097092,0.842907089402558,0.83993250934637,0.839511020799279,0.837037279140585,0.839594294764402,0.840673227198804,0.839351559200611,0.820909192766676,0.832196948749869,0.830681128226562,0.832046936315557,0.83381944774737,0.833823332009544,0.833482305754061,0.829720421514258,0.818750839252777,0.818554416361205,0.818648197834448,0.818740070041266,0.81747501341565,0.817076182334879,0.816090835564694,0.816658170879586,0.816720573259139,0.813506660139291,0.82265323042459,0.817997117156209,0.772512965332743,0.825785903824232,0.828203918694411,0.828505853753442,0.816900674398899,0.817789922874855,0.818780364314742,0.819505317960698,0.821019220985261,0.822330490647793,0.824208343657936,0.825086673163478,0.826051771148554,0.828409603486637,1.17064664184823,0.83927510954911,0.838806168999609,0.841670215169215,0.849984956369122,0.851910784196507,0.853297861419721,0.85600289672685,0.859377787355846,0.859580499184874,0.862299741036716
0.928293732324184,0.930194116829928,0.929162284611382,0.928647450865002,0.927805949571723,0.926810602766217,0.926245331812699,0.926439263223436,0.923719521984185,0.920505143701353,0.920974202404023,0.927748843549782,0.927671691856376,0.928055807784448,0.928642968919585,0.928867550465687,0.9281151913259,0.92771255007787,0.925665649682534,0.923508457101457,0.926332122030723,0.927401917933795,0.928591362267627,0.929991627856377,0.930339281178965,0.938555235650728,0.939491715563413,1.06836289776333,0.926526219189767,0.924268816475612,0.922460735624444,0.920813870867586,0.920162357428612,0.930764615960449,0.929102112582087,0.929575507027824,0.916531196872862,0.91731686484088,0.917825051018029,0.918086172706111,0.918748546137796,0.928428726219555,0.927619530574584,0.92884710726837,0.930017876189336,0.929427901727151,0.924172802787631,0.915154874138715,0.905977269978642,0.90141035196195,0.899637084660623,0.896910730806714,0.898003999625554,0.898111069267485,0.898764511759602,0.898090694575218,0.898802268206979,0.898767701334141,0.899474982242699,0.903111342023977,0.902636010246867,0.901312924457346,0.900167230349051,0.898770981205072,0.900412120623257,0.90442273558229,0.904898800035033,0.903519632877083,0.909099465308255,0.917763630929739,0.917503781635435,0.917860888684979,0.919404470163476,0.920046275830568,0.904946990194461,0.891165070259284,0.89246643911731,0.885930140696096,0.890002625698568,0.891231228626166,0.891495638616564,0.891481921839084,0.892206849025652,0.891471102665543,0.887180157507487,0.88098301614838,0.873537303947384,0.871718038623262,0.863581149937374,0.863163703076118,0.864540510651619,0.864055602433267,0.865443863745323,1.21501437474209,0.846343279616926,0.842910401368259,0.845067505685619,0.848389910482323,0.850603466412308,0.849662637097228,0.851290442538067,0.850488147427562,0.851841659743768,0.852634310023992,0.856227708429881,0.861492882514937,0.862386215172174,0.861371250979275,0.861046893842088,0.858193884648261,0.858334723291078,0.857495230331301,0.848673564802615,0.849075755559042,0.845875053157279,0.844405533253115,0.844166393637582,0.834091602273873,0.842294684698186,0.853246730827268,0.842068847429775,0.84385460193712,0.842089107346849,0.843978945222642,0.84406376559426,0.844330596633433,0.832547865637495,0.834667090554304,0.832636379923549,0.8302279717585,0.82489930257821,0.818975467147513,0.819275492232588,0.818613630780506,0.818638371253383,0.818407545210914,0.820559974745159,0.82339260308313,0.818506197707833,0.820969796251469,0.804767113837407,0.766592304665021,0.815544570074197,0.828003623491748,0.827444871842223,0.82883185157287,0.828798248644231,0.828213529754367,0.818846239281829,0.819268787365224,0.821148588371672,0.822062739222311,0.823313724651259,0.825282885587193,0.825716432323705,0.827647644763499,0.8324953700305,0.839599025249172,0.840398901995165,0.840595089533829,0.845099082665859,0.853224463392458,0.853941192621523,0.857754511823954,0.858329006840035,0.857756098877487,0.860407177368142,0.861367506594977
0.929172329340428,0.929537842401709,0.928669925431451,0.9285899140521,0.926988346161528,0.926933472755498,0.924315103880463,0.92214288758584,0.922395334154407,0.921287446774484,0.921908957670163,0.92917564533084,0.928161469068172,0.928146542506444,0.927994630769012,0.928131795119437,0.926293017967021,0.924638494103138,0.923785699132671,0.922501255319418,0.925257996977649,0.92663425210715,0.928172682200989,0.927411239582352,0.927564265508661,0.93967576767318,0.930676464106331,0.923746064838004,0.921446859826385,0.919318748647221,0.920309651173509,0.920741060448922,0.919988581278039,0.933471636520161,0.928875689493567,0.92772543386617,0.916131644088678,0.917061474783813,0.917791478082981,0.918923719394296,0.918442814451071,0.927667008479656,0.926107009213693,0.923563961492179,0.922152539901752,0.921157721426506,0.921448809479015,0.917528681772389,0.905530975942484,0.900627873193678,0.898830073386436,0.897415047091112,0.898113822626122,0.900377333188098,0.899811696171052,0.901579346659985,0.901087156367081,0.903549864404112,0.901111614409187,0.901787895852728,0.901184113737173,0.900511101414383,0.900846329241473,0.899964470213391,0.901359034773066,0.904093490050961,0.904779628496851,0.904593636696145,0.913687715990721,0.918535269870027,0.917877933670205,0.918836836256896,0.919271679358558,1.03798481767207,0.903226225236014,0.890353045661537,0.892582735252495,0.893580597834624,0.891699903212722,0.89309715763456,0.890039707799042,0.891158149579971,0.891142492259342,0.889872891058132,0.887485585363927,0.871732060015269,0.871115678879636,0.87157217958371,0.861801738235996,0.861449049397487,0.859304297434798,0.857835783642562,0.84854038445817,0.840810827218634,0.838864736209716,0.83860130136812,0.844372248668701,0.84344488780613,0.851707961782437,0.851474045982051,0.851577353514137,0.854045605120678,0.854285371542641,0.85893341203279,0.859838944769543,0.862340040023018,0.862191650896852,0.862666686752563,0.86431796513893,0.86617699177142,0.865463203262819,0.865982721231794,0.849084469175341,0.848039077806172,0.847287625722067,0.845688601563991,0.846878400511428,0.848147976722505,0.844129382845426,0.853880110302917,0.834398992196368,0.824413045263154,0.834298058347701,0.844923355773243,0.845170133193713,0.846779900841637,0.832784939474912,0.835036851384431,0.825312321563566,0.818938490656027,0.818919979586466,0.82049351431936,0.820674306526604,0.819591413080764,0.819604057451358,0.821935452270625,0.82187742374742,0.823160569197442,0.815169415110259,0.786602027326129,0.787862566114247,0.761479635437769,0.8036254545186,0.805597700129808,0.822733819666461,0.830208485666641,0.828912758125031,0.828845535371781,0.820067469711379,0.821703634775071,0.822158737825753,0.822948222268168,0.823194682746361,0.825731874332854,0.831517721587286,0.836550606415242,0.837492401363709,0.843986760765617,0.846967515428694,0.84869893925671,0.85052896168659,0.854630740819799,0.855061183373354,0.85850505097255,0.857457545120941,0.859846866437795,0.859286952330864,0.859958819965055
0.930302346402056,0.928975231641,0.928394162556828,0.92756728173188,0.92603154204074,0.923911328443243,0.923330707188089,0.921206968550369,0.923539452822431,0.926167125298323,0.924952384737571,0.927542794187436,0.926722661944274,0.927642458436296,0.926775088075013,0.927207759427187,0.923362670136542,0.921088600946452,0.921799647476152,0.922739069282947,0.924278121884922,0.924749346729984,0.933570414688688,0.93923525472551,0.925830060573012,0.928299084339825,0.925912961414197,0.921250972412239,0.920576839035035,0.918841802012356,0.920471192663775,0.920021121874842,0.921483030721886,0.923484734837583,0.921668480658729,0.917583443192548,0.916698478756579,0.916854244295528,0.918265928182247,0.919656797319541,0.919691702730219,0.926685979240934,0.925235693705007,0.923389560822281,0.922230390185407,0.921123549229841,0.911984629101994,0.90423827136289,0.904226311177312,0.899683987257121,0.89908266318183,0.89723838505326,0.899267323403211,0.899380376044574,0.901820328144763,0.903234568400999,0.902558719014411,0.90038921968145,0.901118830229972,0.900364201760344,0.901636758750806,0.900793445236848,0.902708068643698,0.90692739343892,0.906058024874316,0.905553608464113,0.913429682659716,0.921198490581701,0.922420982010237,0.927938129246237,0.929194699791413,0.927977615838911,0.916841618208085,0.902947476511021,0.901778015236635,0.895598969248939,0.894524292348028,0.893052586788806,0.893079420663468,0.891046504840393,0.886575811863101,0.884978607008385,0.884048436412894,0.884720046632095,0.886275837126593,0.870673212841013,0.870131943944266,0.865258951706042,0.861736987483128,0.852254773442427,0.850681388786558,0.846153769500801,0.848053976014754,0.838555160448205,0.837727959944255,0.836929908644299,0.844461560564601,0.842357869283974,0.852988755727507,0.85038367785538,0.853477575285173,0.853887105048076,0.855854586711674,0.860573696156762,0.861891532586404,0.861317172517925,0.862699680250803,0.863150705333955,0.865237200557845,0.865448985200896,0.864658387020763,0.848626039365177,0.850331246098257,0.851177685677232,0.850108666470438,0.850111503738382,0.847574985263309,0.83522380440574,0.837565764860758,0.82269736929836,0.818180183059298,0.793040779771506,0.830332001325907,0.843511035436994,0.845472406757326,0.850210376835562,0.832747906452823,0.834692759774849,0.821347604762229,0.814360411868181,0.818007513907686,0.821099905543362,0.824127447060998,0.830782381997057,0.826476002221149,0.835140446757234,0.821375475894192,0.82171535477145,0.812213539410552,0.800443850297441,0.788871186131257,0.749906184308421,0.804165307009645,0.810771157588906,0.823943605602066,0.829987409734742,0.828667466826392,0.82849986240616,0.821356839066626,0.823095247375619,0.823663672401049,0.823946782635287,0.828875583943265,0.83540647082703,0.837394955737999,0.837787190562916,0.838092701025973,0.841494649645363,0.849042839279873,0.850038783663153,0.851565329463401,0.854175114843798,0.856728954894178,0.856216625807164,0.858814198195569,0.857197245612176,0.860132565563492,0.86011620241378
0.931187044177849,0.930046349224512,0.927528890088676,0.927173401025104,0.924163440886452,0.922769776420686,0.922290582551758,0.921820886779294,0.923591450332668,0.924825513666923,0.925070665270425,0.924524427041491,0.925713376058229,0.925636049250996,0.924927980635779,0.919792023755272,0.920278999790358,0.919690614434385,0.9217709257849,0.921008368637495,0.930739712587319,0.936209868045795,0.937612153119628,0.939571134378734,0.924197973635371,0.924313670720967,0.923401771501358,0.921553853344534,0.92051718789987,0.920093506512858,0.921800194691095,0.923577428035585,0.922503117802859,0.92255938829956,0.920294571018221,0.917669168059885,0.917172616410227,0.916717994359735,0.918573015679485,0.91999781523555,0.921390310686538,0.923866159777471,0.923860836401758,0.922654775142642,0.915999282575456,0.902800039416077,0.902880571533669,0.903654717613654,0.902229019338338,0.900625860314098,0.899456306096375,0.900352765206838,0.899268612883216,0.900175786426599,0.901213746136151,0.904566407143337,0.901520996484612,0.901166936914618,0.900410621455253,0.901630913939938,0.903277457444031,0.905531179020212,0.904826057367929,0.905838208923089,0.912067981682062,0.921968113165236,0.923207891680567,0.923152723750213,0.925494679349102,0.928124660144867,0.929479082687426,0.928133503105624,0.914923174128869,0.902289038514138,0.900396708083361,0.897148805498596,0.894594798977004,0.894417248702498,0.892335694278856,0.893316778552037,0.883809201751561,0.88433794554055,0.883112694828214,0.883010711889639,0.885734708256734,0.868621939334473,0.868396285438003,0.867630293687793,0.856066730401136,0.853052794023993,0.849345539283057,0.847676833982224,0.8482226621608,0.836314977146917,0.836441531053899,0.837339138379041,0.844884797787488,0.845248664684441,0.853590163954415,0.853026597704342,0.853944150210378,0.856358940134787,0.85757645192802,0.862843421461267,0.86184430242142,0.862969687462359,0.863184686271697,0.865388367341728,0.865762981090634,0.858969649261296,0.861924208041065,0.885195952231317,0.851355174911426,0.852061055482995,0.851558329377337,0.852190286414256,0.852856072461438,0.857223861809044,0.838554056812424,0.822018703465892,0.815507025688644,0.79446424012609,0.826527165903072,0.843169077003305,0.846778849029075,0.850510396476322,0.830877813557734,0.812506402869574,0.809983222067277,0.809895194639187,0.810137135158981,0.813799642410561,0.827447456263764,0.8414038895373,0.820633702660888,0.789040605126705,0.803106905113565,0.815913149347602,0.808009832645045,0.789856359061355,0.792858861007191,0.850618686490842,0.804229732087637,0.801636472245532,0.823525163965474,0.822236040478958,0.819536201908418,0.798965893391304,0.819592700002415,0.823174078431445,0.823954191217726,0.825051772575873,0.832212692255969,0.844509474864707,0.837135293449623,0.8398803001244,0.837900533342507,0.857046426269024,0.853129295340609,0.85221910910029,0.852549075846629,0.855526380813086,0.855909556869029,0.857900466812378,0.8583039423962,0.860673337726968,0.86142668425312,0.863566622617581
0.932639246353308,0.932226576787159,0.925078585103874,0.922734166959524,0.922240004372104,0.920457361007539,0.922599808318866,0.9241670462266,0.92445332551238,0.925752228994673,0.924542820108079,0.924674967696936,0.923915789366474,0.925074627386221,0.922290879972816,0.91989711525211,0.919944536758259,0.919479211028516,0.923500325596664,0.92547280086193,0.934116215731636,0.94226542711679,0.938312631870672,0.938645160657933,0.923684357946001,0.923862015018373,0.922407497767146,0.920407842321205,0.920012725801717,0.919148843057341,0.923914254599248,0.925106841622669,0.922857714961977,0.922332431931699,0.919050582673902,0.917292548502783,0.917288515011741,0.917673510383134,0.919118428829749,0.919591123929313,0.921682778743772,0.92231408594596,0.922834901302278,0.921190016190343,0.909988945786886,0.901496632932246,0.901958517940665,0.901262647411478,0.901612844178846,0.900349074875497,0.900731405435355,0.899363242417194,0.900438988353128,0.900314943432882,0.901681215279219,0.901366616805201,0.901982271744356,0.899057056031518,0.900857893114588,0.90759969032293,0.905378234506989,0.904940668838732,0.905025278902176,0.904903458836687,0.917570293020842,0.922432578110163,0.924427700693717,0.92913457664237,0.927168198145358,0.928404660923909,0.919822946372808,0.915018937433886,0.912361995587807,0.900893012119987,0.899489057821946,0.896031997157461,0.894485362422579,0.893943439315099,0.889703977842446,0.882451954857888,0.883203005252884,0.881379061502323,0.882890526114272,0.882513989390491,0.885567273789773,0.867815099454933,0.865536372298507,0.854283847109506,0.85308901079576,0.849128502239889,0.847936058888824,0.848074349203073,0.847629433699969,0.835573167217853,0.836314582113443,0.836931838829679,0.845190273652128,0.845158253528319,0.854556965416416,0.856987528315937,0.856264991332381,0.855839645040611,0.860585416732633,0.86206178523618,0.86152140656877,0.876963739329845,0.877782000383464,0.877644963566825,0.877860360453108,0.887478108555459,0.862049564357267,0.849992228967793,0.851253007032802,0.853526880442179,0.852117554352039,0.853259704202359,0.853563995657702,0.854865088382345,0.838985731985209,0.839255931774531,0.812704683384517,0.794249886054551,0.820841609626424,0.84877040437453,0.848265067081962,0.849586037985982,0.829762036146885,0.822651579518618,0.807441893225608,0.805978028456567,0.805306343058648,0.784985881651049,0.832000129908673,0.847846646670039,0.813911993463525,0.77627886639184,0.796449802306575,0.782105387102639,0.804043928988695,0.799634530390203,0.796845637787763,0.850024500420499,0.796489319106988,0.788428029838856,0.822732986170319,0.821456947052213,0.816854522898702,0.801052291393917,0.814144650056136,0.822658868468104,0.823173446931628,0.842526691801464,0.837114589457994,0.842610511751708,0.834575987089718,0.832695864182969,0.836719251085114,0.855709880632684,0.853260396555799,0.851557932971499,0.853564437934856,0.854230859216242,0.856841399853057,0.857424576124249,0.860385066370692,0.861147902357873,0.863136379045169,0.863457567031908
0.932820196568367,0.934340721948547,0.923861919984545,0.922388068516398,0.921250343648748,0.921028437940825,0.921985498154819,0.924346959015178,0.92450173748071,0.925359568008319,0.924361042515574,0.92279739638116,0.921886696097844,0.919004012180069,0.919799915974874,0.918384439111483,0.920900442833434,0.921360515702572,0.926872419122451,0.94133352087942,0.942671723268869,0.941748563451239,0.931150425637496,0.924483721930281,0.923299647416907,0.922444139034186,0.921676137708135,0.920333397759538,0.920394332333628,0.92661080312065,0.926503916263334,0.926610286143293,0.917985734330172,0.912884028598556,0.913598677223893,0.914542689677105,0.91745914747936,0.918690183410703,0.920010548691953,0.919380546201377,0.916190327053139,0.910990782953203,0.916997044086574,1.02862000207856,0.905955669313349,0.901075107871639,0.90102890351941,0.901533765011177,0.900954962681565,0.902067978033567,0.900639768885133,0.901816121879517,0.901554680827947,0.903361039191893,0.902328279295449,0.903337577115973,0.901609454963852,0.902861082946502,0.902422915442937,0.905913194118311,0.904993101214736,0.905111248843336,0.91329439436006,0.92682504634222,0.928100649361031,0.930144404903907,0.927052125361572,0.928639199541964,0.923337528644247,0.920676384321195,0.916693657830809,0.913973678818664,0.909595403741421,0.898748141721438,0.898720580942586,0.897629569099464,0.892172514401422,0.892539906808602,0.886703570650425,0.884691572227281,0.88288096551025,0.88372881354403,0.882071971919146,0.881370368190233,0.88479183103599,0.872164911147672,0.865424953944678,0.852646163982153,0.851976647372501,0.847992346388398,0.848331688063197,0.846701925025252,0.847103031769868,0.842841330391127,0.839860752696038,0.839213253459472,0.84791706442678,0.85118938559431,0.855680436042731,0.857005825586496,0.857756302497422,0.860816187461198,0.861941370449213,0.862387177926697,0.861481365548584,0.876485925921808,0.876826052996873,0.876296008906931,0.875977945449296,0.872817033458135,0.862185213969574,0.863649431470387,0.850376831892072,0.852013653969647,0.851535502575321,0.851867340406928,0.82972564354776,0.807502054699666,0.808109569284306,0.804670984463401,0.805306796577275,0.794377838666102,0.816573529473418,0.848041641667686,0.847798954510085,0.847819735146221,0.826818018651495,0.823522445361793,0.805676914565728,0.805361348564031,0.804893998425173,0.785161572304612,0.836039828641584,0.8488935977404,0.804952909639345,0.77478842682885,0.803660348629669,0.841515482692354,0.825633713372103,0.841396628825606,0.797133218983516,0.790121086933433,0.792334803920392,0.788121854345923,0.821125178451196,0.819579887710086,0.814682353630397,0.803659702085352,0.808101783287695,0.8191598537784,0.821246471161822,0.847136980179842,0.830798128490212,0.824738088520074,0.829672200999179,0.832763878842046,0.836817298130866,0.850319066585109,0.851092239381495,0.852156102140897,0.852619644796894,0.855151355157329,0.85830096458423,0.860807596289559,0.861821318927307,0.863903467102675,0.862794316089986,0.864346245496368
0.931661024721742,0.92416542827901,0.923705690549808,0.921915801204884,0.921842688973994,0.919699696592,0.92200847094607,0.92274992374331,0.922682621392519,0.922815968832602,0.921865456923039,0.922254261530294,0.920219796485368,0.919230513251137,0.918777822755626,0.919377889014968,0.923893554787969,0.926646293338496,0.931099277279257,0.94150567741499,0.942719620061191,0.941695883153224,0.926345069940726,0.92300257620344,0.921429630544497,0.920349476662806,0.920436218914935,0.919583503406094,0.919875032365393,0.927663996679701,0.927151386876815,0.926195153665576,0.914262265721125,0.911871296020431,0.912921895887363,0.916124759124379,0.917919360835361,0.918563756004681,0.913888277960242,0.908607201252005,0.909731091886127,0.909558423796425,0.905944089673719,0.902956125612517,0.900830042387034,0.900484629984203,0.900888565661892,0.900553825702361,0.901429844294064,0.901272205749221,0.901540417503206,0.900132702076457,0.901941666916215,0.901923365013034,0.902663528908524,0.901011711102005,0.903062563028277,0.902900683672651,0.903746644948474,0.903600516784081,0.904959221857769,0.905849608891503,0.919115573133414,0.928111949870203,0.929215410605521,0.928580119084679,0.925468094389151,0.92370154091397,0.919621116861025,0.915113466867181,0.914843856935496,0.909690102698545,0.907615776885584,0.898841437431707,0.898931494550987,0.898621102860661,0.890215452920174,0.885187971936,0.884725252052862,0.882312489671133,0.883455840558638,0.883674939908725,0.880714462836618,0.879873748511028,0.882976087564908,0.981421715291164,0.864431796756836,0.852117149055762,0.850699986850653,0.849794473971717,0.848107031713634,0.848714274050805,0.847469525696495,0.847942640544926,0.847290606892447,0.845833041369441,0.852638203068586,0.861400502376724,0.861667725124302,0.86063138340841,0.862176849771795,0.867608686815916,0.864001725352605,0.865668293971144,0.862412693592372,0.880504410928852,0.867627953593844,0.858694664584248,0.858953917032588,0.858535846297183,0.861322747062159,0.863718122842439,0.848663069740377,0.850558737304971,0.836973783471797,0.80862315841972,0.810937768942575,0.810629384218275,0.808698747542634,0.808328358111501,0.807155034502721,0.817865154671047,0.814145197185989,0.810729186540725,0.811915851740084,0.802607363200057,0.797675432494241,0.787050082926897,0.78973464792039,0.785363565546063,0.811360410036314,0.85067788377007,0.837764619096521,0.783820490844166,0.796387520454306,0.785314917255515,0.813303976880038,0.841976651668461,0.812693486059916,0.792139672704058,0.795786947046924,0.794511749908022,0.794658097922518,0.796556423559093,0.819220629656536,0.818552985613454,0.812153691958593,0.798546160944864,0.799641219217672,0.799134779939366,0.812257866819274,0.814427536237559,0.825011228000836,0.812433796494465,0.827100279785162,0.834716854364485,0.838400995596833,0.849513093803513,0.850501445860536,0.850291412901749,0.851899273684134,0.858495184832757,0.859225363406025,0.862336608571431,0.862455829456401,0.861889037483374,0.862682452338051,0.863165393762546
0.929780051847624,0.925285527801627,0.92312804795311,0.923968720841696,0.921178617563608,0.92194367616213,0.921307075595321,0.92321398207365,0.921647287228916,0.921205773882442,0.920748530852506,0.919652215697813,0.919889730343115,0.91866012645367,0.91912765335756,0.919892354493928,0.92631265674976,0.941225335766233,0.936666540019433,0.941523432222884,0.932777144597534,0.924416089745701,0.921993596137753,0.921014809142083,0.920385173511636,0.919463216641987,0.920691324861928,0.920723742497349,0.920284368212992,0.927389448855504,0.918550772001616,0.910871436675048,0.910773696674717,0.910635381737531,0.911975224801573,0.913497019617087,0.909276399894772,0.906336127078806,0.904449176585477,0.904985907595106,0.905823627249223,0.907273712457498,0.905057875822802,0.901538622817889,0.900353017894461,0.90017200273977,0.900088165288436,0.900654082687337,0.900629212384209,0.902355943460652,0.90080416660341,0.90228191802512,0.900726786611766,0.901943970144217,0.90161267517206,0.904134773095779,0.902507644181176,0.904238504377495,0.902995048159069,0.903075870470994,0.909420567267763,0.93000336683425,0.930511986582194,0.930052838266953,0.929947745656923,0.928876362605595,0.924011581167287,0.921685359642228,0.916600617572414,0.912906697504017,0.912368333520502,0.911334484600022,0.90684374618437,0.900000960331259,0.898864702386937,0.899020510970153,0.888563532811556,0.885057079241442,0.883449184391904,0.883205848591158,0.882432659899806,0.883658324562882,0.880067485537082,0.869527686086887,0.86514961484099,0.85924964975393,0.862037178368608,0.851848726093513,0.851226510716272,0.848067036290922,0.849559962577704,0.848272407649634,0.848746637089746,0.849773109023447,0.85166380774987,0.851526631345129,0.856023307846145,0.861629240256712,0.862074379984443,0.861947476982132,0.868359746838069,0.894727776029453,0.851209590261975,0.830819547655559,0.831598886762874,0.832343862780863,0.838172139871458,0.846052138507444,0.850107413654248,0.854121744806784,0.853365129976509,0.855096962159066,0.846572017822537,0.846423288669444,0.825081399867076,0.798598285564318,0.802695516790767,0.79826411724202,0.809466879838633,0.810739400966785,0.810202266769997,0.81077763213283,0.809252109391343,0.808932375784008,0.810021671832451,0.789096233406609,0.793484961782008,0.802962778873392,0.792652584158976,0.798918200868211,0.821201783473374,0.852386733448567,0.839370489740497,0.825102656853859,0.82402896832698,0.840627070567259,0.824846102861912,0.841767258756386,0.80307660369861,0.799131286660388,0.797996973136653,0.79988666286511,0.795419009544427,0.803961333053381,0.816743083159512,0.812419927928562,0.80873367672077,0.797618377691047,0.799753533272948,0.801452602333755,0.809202760236251,0.814260181229326,0.833322691302317,0.868306071302502,0.823866543357531,0.801785026274526,0.840131057354885,0.848933999689105,0.849723930929184,0.850883418412758,0.851834304647741,0.858069536455646,0.858600669187288,0.863865121581098,0.862598724920802,0.86229942000897,0.850578514043955,0.842173423851883
0.92781943849758,0.925955016081461,0.923136937821406,0.920418942711856,0.921164053921349,0.91900044417238,0.919732789488748,0.918013996479492,0.919108967172494,0.91832324924277,0.918976135978141,0.919128832896683,0.919040566522137,0.919992276587807,0.918388498594396,0.928083310144389,0.928245369885335,0.930152793726634,0.933608610635395,0.943297809066123,0.927060252991247,0.924243044773999,0.920985687181335,0.919960575867486,0.919489197972971,0.920086596463924,0.920903475280684,0.919927285059315,0.917723618321852,0.916847226709931,0.914508331375287,0.912569112818947,0.910646750790069,0.910943105170458,0.909627693092586,0.907995848110823,0.90662869462881,0.905661847941279,0.904174446911507,0.904595212274534,0.90070403392669,0.898667926298646,0.899309804767932,0.900119038035032,0.900005569168647,0.898516970732647,0.900364925096698,0.900131966202843,0.900415952160579,0.898974484367132,0.899987507597314,0.899022551075643,0.900402804889457,0.899989250493205,0.90186058700763,0.902055448826159,0.902612108165869,0.901460071791754,0.902663377720233,0.902296929567853,0.913003524251416,0.92908268203928,0.930432035604087,0.930498666829185,0.922348057704686,0.917799398940938,0.914598820340169,0.911842596483653,0.910644711842468,0.910862990924372,0.911140601179867,0.910414574077324,0.905267287971004,0.902304682025394,0.894413309869883,0.89228574493038,0.886506875845293,0.884000905735959,0.882514389105743,0.880220195964479,0.880427369386177,0.879561793003177,0.87853169089559,0.864340557522243,0.864477608078498,0.860046999260254,0.860655853778776,0.853949571158891,0.851954780795839,0.850999349195478,0.85185557836463,0.855068038125544,0.855742068575543,0.855173307744198,0.860295591826668,0.868208365554538,0.868255386593191,0.869032573102117,0.872974375505372,0.872822986931926,0.873673083112941,0.894258585475591,0.843359718437392,0.841859804823775,0.827088767088051,0.814976324520676,0.821667749097913,0.822594399584679,0.845952737878797,0.852483277550504,0.852577113884343,0.854156315200543,0.839548546201642,0.802090595404401,0.808366176003342,0.800181470715864,0.810128339411816,0.816598561258702,0.818587878708497,0.817986024100606,0.810913625952461,0.809627843652108,0.806409277257725,0.803539797484062,0.807132734308633,0.822005899706778,0.78870317888309,0.785810081292209,0.789979176030926,0.858289356354503,0.832016567821655,0.841556413207628,0.842278227317219,0.842257114927827,0.822255038872312,0.796507832254986,0.794683078251987,0.785627804006985,0.784908315931464,0.785803186339379,0.778062340154429,0.77423171569573,0.793456967142061,0.831015993050729,0.831510262316863,0.832466397775122,0.806256865765524,0.799043489707632,0.799888571008288,0.801427387461059,0.806604057970538,0.802384231769637,0.846269039308165,0.867513586587431,0.819249635967931,0.793884964818445,0.841279479989043,0.849890569426316,0.850435619848129,0.850740022008044,0.851590819478902,0.857977213738785,0.85906315396083,0.861656913746466,0.862314765897155,1.00676236896173,0.841532762937984,0.837880530358171
0.92649924831273,0.926229209673712,0.922021338778897,0.921426852674519,0.919674263556706,0.919917595305525,0.918636510883151,0.918499110790794,0.918178392786488,0.918198108271643,0.918323781604195,0.917663150963212,0.918929065287594,0.918967936812791,0.918743288786983,0.92985377937272,0.928711621177519,0.930418826578063,0.929635061681688,0.928023304809125,0.923924064631871,0.921540187603876,0.91963454403287,0.917893408191065,0.917049894530363,0.914624802532096,0.91192412040893,0.910970726023068,0.90722591401372,0.904195628128948,0.909326695870796,0.910577210149315,0.909962471531515,0.909386455434432,0.908155476478659,0.905706895435914,0.905417357399805,0.904030163152927,0.901492920661149,0.899558115318012,0.897759535684793,0.897364656529254,0.898096871910187,0.900524128670132,0.898987691287991,0.90040210700285,0.900906379745389,0.901469697524345,0.899893674765724,0.899059116555152,0.898707620495284,0.898840553777051,0.898981608582325,0.900574475153622,0.900623923686876,0.901959367777533,0.901715873447138,0.902500307097139,0.902096606410828,0.922024768488378,0.920744393854012,0.927899739623254,0.925095281420975,0.917182549274413,0.915965251395252,0.912996844058988,0.910493907081552,0.909520646258718,0.909652189762694,0.909355134795187,0.909966478844607,0.909146021105465,0.89770289974566,0.890012979984348,0.88815248121935,0.885557074624021,0.885198029892369,0.883945174294383,0.881988286948438,0.87955040851351,0.879137030424622,0.878129741762178,0.876712993342034,0.862695957755041,0.863279550509966,0.858762509614052,0.858831444936373,0.856178433375588,0.854606641560764,0.853354981955693,0.853860474880013,0.854538685504731,0.861622734505653,0.868831171105751,0.862605205497358,0.864864999728689,0.866646935585237,0.876699304340784,0.875835502520259,0.876842760723349,0.874628540146949,0.815921549942751,0.820211966867412,0.810156729649919,0.816601154889389,0.81295755118554,0.821950384441553,0.831132506832691,0.842030825973875,0.841672889412361,0.837687746258198,0.830543086913897,0.830550684654991,0.814000074929813,0.818122562278826,0.818578874412097,0.819725692845591,0.825526183692863,0.819372427805348,0.818753171385981,0.803975159842225,0.798018758236618,0.795358743990899,0.792885266565484,0.783898766283251,0.766594642179776,0.771565742937369,0.777189748602013,0.789166183729964,0.786258176299619,0.820898851637539,0.842519225364535,0.842922624718375,0.844495410799563,0.820561838847466,0.818836953971059,0.793352917409814,0.788003756638541,0.783338749288149,0.773108430913149,0.773729688562797,0.773450453158566,0.793586114779329,0.834538139691379,0.832855047899981,0.833637169734169,0.804002092279476,0.795065478448425,0.791858837528559,0.786632550248782,0.827252565257681,0.864992985945778,0.865414957900137,0.865880758455115,0.815250385855491,0.793997492720453,0.842091732359124,0.838003269070308,0.850082408976025,0.85125458983916,0.851306441663469,0.858142056093864,0.85823446806941,0.858654126703455,0.845888416432864,0.835434651482425,0.836364447702886,0.835037856881286
0.924130061065989,0.923508868503628,0.922098081345605,0.918616793175377,0.92071339347057,0.918924788921156,0.919598493881568,0.91771409772551,0.918332085712772,0.917499193246106,0.918041280837121,0.918146837363854,0.91901247194492,0.9203251099961,0.91958378052492,0.928033335654169,0.927866812939717,0.928020225711651,0.923281771302631,0.920999157137812,0.918523206465824,0.918786615004584,0.917726510916284,0.917682966313158,0.916927076231615,0.909020239118049,0.906366588986538,0.90647845896872,0.905068836053853,0.901842262264761,0.908858986733499,0.909580131981572,0.908559502960899,0.908015746134801,0.907242628084968,0.906587266919093,0.905566904728292,0.902732753850568,0.899468275491835,0.8970226702597,0.896573940266996,0.896016450164326,0.896996514654565,0.896556549819332,0.897331183204913,0.903210650158343,0.902620386111949,0.899804189168257,0.900183781695016,0.899148386692893,0.8987134316698,0.898057175451324,0.898343008143566,0.898277076255554,0.90055860316436,0.900677455670737,0.901752237118492,0.901601561422483,0.901768988343252,0.921038421918817,0.91771284486878,0.914690147398718,0.914631998582443,0.914041483345206,0.911274495523676,0.90898800921629,0.908902660849873,0.908546128473749,0.909206533780013,0.90923314817869,0.899416910324494,0.890559887278199,0.889391398763365,0.88855482878924,0.887559137221118,0.887225215150516,0.884383280179967,0.882013980052715,0.881291840764088,0.88047518592605,0.878753259629985,0.877879902015145,0.874834228342771,0.863300792794578,0.862631915513773,0.860160487947599,0.858757932053453,0.855499434300195,0.854485266024862,0.853611597237432,0.860638467270439,0.868003463813701,0.870198049805226,0.869963111583937,0.861740815383321,0.86303479055842,0.861947830300521,0.855934479282446,0.866103241200442,0.891267864542417,0.884261660078955,0.887817306764114,0.821482938619452,0.821194330645736,0.82056487637457,0.823935756306628,0.823320842893546,0.845977976150783,0.841076578422076,0.83984184977481,0.835556829373704,0.831963134737661,0.830155472831982,0.830247399533909,0.819958588837565,0.823510378370815,0.821918503310116,0.821253547319018,0.820210672944675,0.820373674103466,0.799952328932404,0.782285045249374,0.783009883628908,0.78138882869665,0.773461875862134,0.768770046736195,0.769997875038557,0.792676455797364,0.790142153556789,0.787970644145691,0.805120919449347,0.778206487373994,0.823515531479454,0.814518153147784,0.813042639688794,0.790645352775818,0.792771982934118,0.788939156913535,0.78294194547581,0.77515371890494,0.775177853848869,0.786150731916057,0.794315941098006,0.849987716342701,0.832952698254513,0.833870031636004,0.801217615007006,0.75914084480359,0.779237606542372,0.875124281472905,0.840353436132661,0.875032902717182,0.869511734566594,0.7758500601999,0.812414194158025,0.810700542838842,0.845304791558232,0.847039520827987,0.848452057905888,0.851256278146243,0.851760006076416,0.855628865750729,0.84848702157269,0.835701630113717,0.834049922099544,0.833275314019299,0.832836756003492,0.830923150442313
0.92253124714077,0.92338311153365,0.921864993915799,0.922417978514645,0.920914489756594,0.922233162786257,0.919627669265286,0.919188755149283,0.918020489621888,0.917668313290462,0.918157652321775,0.918100760207251,0.919867705773264,0.920181042123374,0.921656835446351,0.924142203048568,0.923802644257208,0.92236573462696,0.920113204825528,0.918890056572301,0.91873770931579,0.917330652018071,0.91710541088649,0.916764824476002,0.915631032314624,0.906833206662061,0.905259593804981,0.904022906072739,0.903495717730022,0.902007546608492,0.907608582368762,0.908070932416976,0.908087336662736,0.907288395809353,0.9075214402333,0.906928795331898,0.90695800590279,0.895462979909207,0.896122297069502,0.895443297732575,0.895679094151566,0.895797837213406,0.895548732566591,0.896489629012083,0.894778792301788,0.906753070729076,0.904633036601254,0.90381341306256,0.900227215298763,0.899370550566001,0.898065406394947,0.897736287536559,0.897039417907095,0.896443041884866,0.901048927823652,0.901551293099395,0.904068349606283,0.920055596099442,0.903356992270891,0.908309804881107,0.908847538775635,0.909628972708781,0.908331126636326,0.906575193538132,0.907317108099867,0.907573257987461,0.907985399633771,0.909040257419635,0.909250129909509,1.05966973902591,0.893237680565534,0.888952129780916,0.888603463195328,0.888366092254174,0.88769770374219,0.887910756850076,0.882616162086189,0.880974966766281,0.881247406759677,0.881974394290476,0.876696788076789,0.871703996114286,0.872120649037168,0.864218271613187,0.863312195769197,0.86199064361819,0.864824639103066,1.22862264351761,0.870868833135591,0.863666058782603,0.872880669211474,0.884190059069063,0.882508021267369,0.883693558730921,0.860311419424049,0.858523659365246,0.860221626577566,0.848954624600542,0.861657776462472,0.892500219788696,0.861510961391341,0.820601890151575,0.822063442577847,0.827842284786331,0.819924555952703,0.81247157514162,0.812377380585763,0.80641149524718,0.830684149233741,0.855652628952351,0.82439045438422,0.816235508698807,0.809547517871162,0.806257854972907,0.807083161588711,0.809947845436054,0.815094585151384,0.822793956423951,0.82090701686446,0.821398284799835,0.795266617132087,0.780667793566852,0.780638051607477,0.772451569618447,0.768071049682165,0.764979312764601,0.767545384679219,0.761708976098971,0.811342306742085,0.840852589628301,0.838961621770299,0.838096363486362,0.828531629901973,0.815095004163865,0.812669306689947,0.80697655043464,0.794185554308419,0.779498898769632,0.782144317306975,0.782460335893769,0.777675935905408,0.79580915390348,0.794894313877721,0.83317549430946,0.83286451936787,0.832971123523279,0.798096120998123,0.75662468470495,0.766003382415489,0.763740891117727,0.808564470838547,0.873960959857857,0.872061321070588,0.874150964642795,0.82176903026794,0.808991052619945,0.845589165692916,0.845586150167356,0.847343571655397,0.847083303305412,0.850827574943562,0.853126783375402,0.843182649081658,0.837025949783527,0.830991232595426,0.82755784870214,0.825256267558229,0.826050168268316
0.922655924389725,0.921862475480699,0.923101282707532,0.922240850857966,0.92264612976208,0.920838105052746,0.921115709163359,0.91894527262424,0.919161542972895,0.917755939235555,0.919102319720149,0.919613685892426,0.920846630737021,0.922613932052076,0.92258746299229,0.924785082159242,0.922842970741835,0.921559804863438,0.918585741295699,0.918274027743505,0.918640950683951,0.919453070823787,0.914216910552243,0.914015185092426,0.913593094468374,0.906258231395583,0.905021570567246,0.904603468614239,0.9034828259257,0.902507913872469,0.906148439445904,0.908508945151604,0.907770188580974,0.908293199732236,0.907200022709528,0.90688948646137,0.906352825699983,0.905135986499585,0.89519291725758,0.89594499011743,0.895119693559641,0.893709181356424,0.894378854649331,0.894443768739921,0.893647500576962,0.907447827582693,0.905858707063041,0.903987558334325,0.89936741506722,0.897982068693958,0.897371815419541,0.89582297022044,0.896538386804289,0.896787918895977,0.90511974538404,0.914542336101691,0.90836789530228,0.919866273909153,0.902806790733105,0.905006469083489,0.903694677705307,0.90249870712639,0.900234840164134,0.898689197902551,0.903194461572922,0.906953881275024,0.907533685778537,0.908576828732835,0.897086321550428,0.889988297050042,0.88824818343964,0.887420643113144,0.887619665387531,0.887568767343803,0.886158122539444,0.882307647293276,0.881719515794539,0.881936431700334,0.88069047214705,0.882555039889896,0.874858145669264,0.868538686583423,0.868779231630253,0.864776936692119,0.864283336601277,0.864596501710245,0.866679554389296,1.2282452363318,0.890879026966018,0.889169031154423,0.886493403054771,0.883885158114566,0.8824842011443,0.883095942331887,0.85982489170623,0.859897871568287,0.860054398871698,0.855688035718004,0.859605823761494,0.859557778362938,0.853481002169403,0.820945776429334,0.82066186283337,0.819599046057997,0.819422513972492,0.8113131239456,0.812500616462323,0.845236914577092,0.823479876499674,0.815224871573926,0.813046781136807,0.810003758784141,0.807949364460639,0.805222132635556,0.805603162065779,0.81332113617817,0.810545309776263,0.810451543359668,0.804586330225883,0.798221529330421,0.791424088495314,0.778447869716802,0.777715589236084,0.763606940846715,0.766156618859867,0.838647329375722,0.812340892340075,0.84156174282748,0.840512158148421,0.840872359575006,0.839363874328626,0.83869513501113,0.83909412535784,0.837434914156515,0.811456429186542,0.808359704299715,0.795475770673395,0.797581164836506,0.776189105067506,0.771593179501994,0.770337965446107,0.769366072171254,0.788513528743453,0.805522227827395,0.817865440732372,0.832289410826056,0.79574271053165,0.755928365460164,0.766624280330421,0.76407396105747,0.77065590469742,0.766484546340109,0.827934515324224,0.838128802229248,0.840144130078537,0.842241698871492,0.843178841813421,0.843730850818395,0.840153198087004,0.836749654764879,0.839075878270497,0.840403233552666,0.837423730028905,0.835623943153278,0.827868876978759,0.826338549829332,0.825205429032846,0.824011866278155
0.92237433407867,0.923309877316764,0.922558961499318,0.923711769928334,0.922294023775364,0.923644217005587,0.921434361987469,0.922293404000644,0.919525204480117,0.918604896079085,0.920041236877376,0.921868880800534,0.921916304177033,0.922855607553327,0.922843352408617,0.922979025419152,0.919144165323667,0.915521070427845,0.916642120646371,0.916644673031328,0.919630836915507,0.920152917070673,0.911630616714152,0.912110514507628,0.910189618265094,0.907505757831647,0.905664191473268,0.903842059863511,0.90363514964723,0.902386712053083,0.905353631850665,0.906905607990793,0.907029488296069,0.906519941975803,0.907003000002462,0.906630408962,0.905811075539993,0.906594243475763,0.895711062269362,0.895750719796465,0.894943863789357,0.893978165703138,0.893238319412743,0.893240442107538,0.892810648310298,0.90605156899172,0.905527023121386,0.902616000239649,0.897691710672626,0.895961577611878,0.895611554036316,0.893854567533984,0.89658303239298,0.911227610973296,0.911320350123561,0.917571484902372,0.90583961566825,0.898412448934792,0.900954256841808,0.900594211565744,0.900802694504847,0.900624641795118,0.900034207129041,0.898850381933581,0.898971980381705,0.899192415355793,0.892082298144521,0.887236628580425,0.888382916498646,0.888894447358303,0.88838255115046,0.887860540504229,0.887204739351869,0.885793251479388,0.88479995556895,0.882684515435356,0.882376468739877,0.882222125424964,0.877627369780578,0.874580970021622,0.873252957650056,0.868824069306339,0.867783582856947,0.866182438429874,0.865316278438128,0.86635192359662,0.875500274661543,0.885195521360895,0.889658822253677,0.873719235415604,0.888376882285324,0.884706455948362,0.864925132483541,0.851150238812854,0.856798816366185,0.864059263963198,0.861800537556909,0.884643898323854,0.859836054656707,0.860331599487059,0.845584746448186,0.817796047293296,0.820194920649858,0.819506177466798,0.818525436865982,0.814196336882773,0.814124756682001,0.817037193068905,0.812039408067971,0.799584245565294,0.809914315854577,0.810753881171827,0.807240148906138,0.805699338634428,0.806061420813735,0.808799016928294,0.80959822220845,0.810929335365455,0.800342664838748,0.784643084971772,0.7827353659228,0.783477310628904,0.774808513018033,0.762797365296516,0.765865355553233,0.756017124838075,0.79883572077463,0.841076339990522,0.840391959418069,0.840585387361318,0.840822604611153,0.842767313554101,0.841173447091341,0.801356268189777,0.800857808485586,0.800738258993613,0.781710586100022,0.759157680817699,0.760952592823722,0.761633146422656,0.76185268954873,0.761923201101625,0.780853628205401,0.805392989941675,0.803868881816243,0.803189137801011,0.794606028547993,0.767464786765763,0.76861533362568,0.759328395477684,0.773406469921052,0.778246446677501,0.816545569404913,0.851736807150228,0.840617472694883,0.84110285967315,0.840217481507985,0.836928232740422,0.835376722854343,0.836059564790478,0.838525149540094,0.840339516132255,0.835618304822983,0.832130597289787,0.826285326183443,0.825333938792538,0.824212546930645,0.822512367094084
0.923437162856488,0.923251716928807,0.923609159950661,0.921753689984372,0.923095045117381,0.922611361587758,0.921747741882128,0.91955714855009,0.920057495657968,0.918459023439716,0.922890678407133,0.924259659373983,0.923226349351057,0.923916819055756,0.918286891984206,0.914021032690197,0.913377793600289,0.91309885950708,0.917528843598556,0.923589109149189,0.921842331111289,0.921258662101496,0.910591061280207,0.911518985840626,0.907134818566934,0.906171028359448,0.90521720599036,0.903813675469331,0.903858671057511,0.904019333874453,0.905004743063427,0.90604143167887,0.906507880374626,0.90580837773361,0.907089612350312,0.906533803303584,0.903028762582855,0.899439535233787,0.897328153320926,0.896956710362381,0.895610728730548,0.894379661946595,0.892300392320989,0.891014100721136,0.890205452632548,0.892462763490367,0.894322008157786,0.895639211264847,0.896364072673297,0.895371686655474,0.897024621383092,0.9003832020677,0.897713788314318,0.910958134126812,0.910092525766378,0.910336493191888,0.901253944664629,0.893244566671152,0.89354708456502,0.894976653630062,0.895462218510895,0.896934509700965,0.898586744412764,0.898093923940709,0.892170887510286,0.88502956488573,0.885775943445503,0.88660234037324,0.887811467425909,0.889375460048549,0.888997312257234,0.88956370503126,0.88795281247805,0.885982555655285,0.884377648014054,0.883848150837413,0.882175292249789,0.882158268683866,0.87494862764385,0.873485897497146,0.870704216241977,0.868415642197285,0.867904546261273,0.867253231499711,0.873563621962254,0.87812654745249,0.880227171177627,0.891338076164708,0.891449611190239,0.892230690642997,0.891751962999603,0.816788182968434,0.852678617195886,0.820427379479618,0.852119379931167,0.847844533907283,0.855752081241934,0.856234600149483,0.852102639548916,0.845634904627968,0.835941088861582,0.830002512780016,0.821547534755747,0.821879620806877,0.819405493247337,0.830284109278801,0.822793478172618,0.842347365154089,0.810262727951302,0.809378120194913,0.807363789769343,0.803795393809235,0.782783262154468,0.753924927169617,0.764358693070169,0.778234108835717,0.792504757470083,0.809233567855554,0.796363107246729,0.784454888563916,0.781798506936383,0.782884299269317,0.773384588917145,0.769561076594937,0.767637774166987,0.766390211504651,0.786246945541452,0.840916203864781,0.840116755270432,0.851926704836489,0.8410971292284,0.8424613882182,0.841927300986929,0.842975473639675,0.798386598031121,0.794899104448956,0.769612425136962,0.755511291142733,0.748258433630658,0.741669359564049,0.75684326480904,0.756650162458028,0.771067109618144,0.770191448859032,0.783478970238159,0.792194235568457,0.793708597454274,0.803106194349846,0.79262368492664,0.785386073171566,0.787272916025452,0.791537529090738,0.807378359826682,0.824041940982873,0.823068920467649,0.822529658515565,0.824788359949359,0.827345213760758,0.826967785728012,0.82760253917192,0.828304927151891,0.830358254436865,0.830217176009944,0.83087999851845,0.826317285065075,0.821026665716941,0.819053746379315,0.817039103514024
0.924090193509788,0.925925200222288,0.923679196911237,0.92461822128745,0.922971663070061,0.923938113575195,0.921566429988702,0.920526048947854,0.922670752934603,0.926127579707378,0.924794285082345,0.924727380609426,0.921423184725827,0.913645100051418,0.913440160816926,0.912793425605033,0.914518377934172,0.911986670834558,0.918937735013188,0.921527523233759,0.922016973914255,0.920017896246145,0.909483214044932,0.904347418934433,0.905302165405405,0.904881233784926,0.905597171386127,0.904909214174759,0.905468265804557,0.906392081657693,0.906419954322555,0.907243850037602,0.908000452302941,0.91018593449752,0.908428970267205,0.909940479678307,0.899813154026248,0.899659264132641,0.898552406422919,0.897105363717831,0.896357272153294,0.894451264425766,0.890402949279869,0.888958627803526,0.887993144543595,0.887961780958979,0.895483717707663,0.895108666428716,0.896520947808887,0.89656734055029,0.898153696410417,0.900368607096551,0.898394880927,0.908004843451203,0.907813640432933,0.907383507798648,0.897226188293907,0.890338336594938,0.889411127713929,0.89081239933797,0.890768789939362,0.892570313643049,0.89227097096801,0.89204874264392,0.888915068965875,0.886149964404504,0.88516627289546,0.885674564809788,0.887190399452588,0.888091973481479,0.888940416620611,0.88913867658596,0.889339926823738,0.896808483379548,0.883858080682163,0.882605814039877,0.880154733302252,0.874330942121252,0.873009961885008,0.871910703516935,0.868966611051749,0.86712527707553,0.867942772126234,0.867583252811748,0.878324693167698,0.884572197295802,0.886013087696493,0.887030448652363,0.888547965967377,0.824424325075962,0.89360183233027,0.895268041435972,0.894614279074278,0.895551476257052,0.879798932193072,0.896796969071052,0.855498260097383,0.858004656882198,0.848304496912512,0.842384526074152,0.828940972407536,0.813816681307115,0.812604399933088,0.812711471768875,0.811043501227418,0.803021076572023,0.804980325777459,0.803064747553196,0.805546293234262,0.801956982342828,0.801740936680856,0.762429769591408,0.766325474861073,0.746561626007794,0.748774946086121,0.744527326052294,0.757182327448823,0.756386799767403,0.794217062162588,0.793871258030515,0.778941281457548,0.770035103377735,0.771130383576774,0.76940424764365,0.768072043808589,0.759309933476791,0.769593200629072,0.767957356560061,0.803224385120312,0.842798443468375,0.842732731732216,0.847698454470447,0.800835399610401,0.772846545668594,0.763258611333013,0.736629609687915,0.74541040587504,0.735794190294046,0.74497755719518,0.739818653359661,0.756561839180098,0.758255825412899,0.77082054293646,0.770065054458402,0.778889936866064,0.78528672293206,0.791034240313365,0.804272103675319,0.796748208035475,0.813448986013362,0.789666820328661,0.790960074918558,0.801607738410259,0.813755332669833,0.811918141438104,0.809273384069458,0.809800084712991,0.810263999875346,0.819185087601962,0.826656141030348,0.827565754417533,0.829050801487808,0.826433744974862,0.823126114306125,0.818940823887434,0.813856116655727,0.813427203354164,0.814637021945569
0.924089405106339,0.922667919453735,0.923494185445831,0.922784834876001,0.923064874205951,0.924171849230862,0.927021927307164,0.929490308081412,0.927788009823452,0.926824393978695,0.925494152112391,0.925150834040954,0.919618488085784,0.913538627250706,0.913281741034099,0.914137775711224,0.918249902479225,0.920559280039021,0.918015235772125,0.918035215632913,0.914879938335314,0.907949063041612,0.906044295970991,0.904406699669269,0.904080003375722,0.90429951625827,0.907190201317651,0.908054406628741,0.907527064062666,0.908444863411672,0.906985740550937,0.907326635348617,0.908498409219883,0.912119341255094,0.907592437454424,0.907684526440262,0.897955203976448,0.899480389992777,0.898789844927035,0.897979804011507,0.897165170396021,0.895618368714514,0.887334691462546,0.88618328812772,0.886813958517563,0.887061061812941,0.896778262809907,0.900828870309192,0.898370862792293,0.897939932559268,0.898693506113621,0.899515787152792,0.898464852035998,0.897594068925606,0.890929375608517,0.887588041768699,0.887732828599103,0.888096079463054,0.888176521385862,0.888753826324918,0.887627238163405,0.88846619078642,0.884683269867946,0.883165001855623,0.881533366096978,0.883217864105312,0.883952629243323,0.885932311307903,0.886101662570312,0.887124081343488,0.888779080256957,0.892059169684851,0.891990492682843,0.894614480367525,0.884752173733552,0.8860932658949,0.878418537602059,0.875594016497013,0.870625309655458,0.866292278839256,0.866559909990622,0.865455252797024,0.870890194725752,0.874375743982817,0.884287241059228,0.897553491812845,0.89745326680321,0.900642836708962,0.893467224107729,0.89531525342968,0.894843408038562,0.895500663278508,0.894636099644229,0.895427947700932,0.865491157213533,0.83494920845584,0.851428444385176,0.873764191380648,0.844312399371068,0.826063042030289,0.820550049680051,0.81290979155243,0.811600003731751,0.810659984121525,0.809931723526547,0.810674257470795,0.807476835748398,0.799174046617678,0.809136330443411,0.830971173919141,0.795179206752569,0.772973262022277,0.768901543783035,0.771099385030785,0.750866683781245,0.753700530487169,0.756157863731371,0.812991089286781,0.794025552497256,0.793739580985856,0.77812142685371,0.769267135622227,0.770712198368148,0.779180470950873,0.767303740502061,0.771266004307163,0.770244117623271,0.768760587216976,0.769215840136675,0.739235736886634,0.753115502790593,0.751969632411279,0.758186754669852,0.766674660379338,0.759101194118059,0.752679161578346,0.754457895806332,0.792294886566926,0.757119354996393,0.751998015979872,0.764594825282034,0.771372448258076,0.771280398089394,0.770062304497675,0.769045366777245,0.767057448219322,0.769210351489173,0.769913500501813,0.777825254985295,0.786213053994461,0.778894793204538,0.756085319706601,0.757064879500125,0.756656058613832,0.769781741005862,0.781167134551785,0.785390350376541,0.793396861050736,0.80558346309785,0.819115452666978,0.818846147306109,0.818821726963566,0.816959729665735,0.815264445630887,0.812482670784633,0.81125965693946,0.809963127591417,0.810833309240061
0.924623215576438,0.924416200938359,0.926607099545074,0.931045482455921,0.930115922972956,0.929458689180117,0.928013716256995,0.928494678538375,0.92740270556484,0.926116017891254,0.925447128382996,0.925109324279253,0.917977686088292,0.907380092211689,0.914378566633164,0.913744954808938,0.921243587988292,0.922097103952891,0.914744134241397,0.914870907325874,0.913436479186444,0.906344909982855,0.905141345519286,0.903704518907708,0.904173119649252,0.902970150831125,0.910640326092528,0.914788563939182,0.915683383512797,0.915224130431143,0.918002519393618,0.919028029204101,0.920687700374867,0.92012685236749,0.907983503159534,0.907493906338343,0.896380767845928,0.891224068013874,0.888702001206197,0.888409265399041,0.886677695612155,0.886606282437659,0.885904148387528,0.884388458132678,0.887642214105961,0.887010297535979,0.897218672319344,0.897415062941931,0.898181167920266,0.898948391189022,0.898071241423869,0.896243303188705,0.896397248011106,0.896188797485222,0.88924216228468,0.886460034421204,0.886592733420989,0.887342109712219,0.886521471559151,0.88550718965896,0.886730000744344,0.887646458947178,0.882401864804197,0.880826292831944,0.881621912545876,0.881686741152078,0.88347215367875,0.884044990354416,0.885531694966851,0.885708611253931,0.888641854395869,0.891646873418802,0.892741395118261,0.894433076971982,0.880044509894628,0.875164412211057,0.872231473896454,0.862107241917241,0.861552889693555,0.863816028895221,0.864986556061598,0.864650190287403,0.878028344992849,0.897031601715341,0.896768394319093,0.896709964367855,0.897887932794585,0.870672489637233,0.869975092455752,0.827917000956035,0.829494015676188,0.832016730492264,0.861147397068827,0.897516981818376,0.852802249418408,0.844745738891924,0.849253645605103,0.881063740395618,0.840361034065836,0.822106244686076,0.817592719296684,0.808111153176371,0.808711072210013,0.808654624694101,0.808227832733036,0.841346553005115,0.824301222446604,0.838499462303934,0.814104017420799,0.803747394513354,0.789606319941979,0.753980540949473,0.758169574565886,0.759003092543966,0.750637716149974,0.752088173358145,0.750631064816704,0.748975956436554,0.765054441891226,0.772975131176231,0.777510584931082,0.804893451135152,0.770761818012671,0.759990971662554,0.762991981381974,0.799693833977549,0.769955857487228,0.768911149451688,0.769066096276712,0.755596886186564,0.754019864948013,0.753164705354512,0.752234304496076,0.751162662782948,0.752027680310883,0.752928289076352,0.754695842589067,0.745227423502309,0.761113014667387,0.767587477813578,0.767445952897857,0.778955703988464,0.774683858955755,0.768337596810055,0.769524497724789,0.771243482497884,0.770393411366239,0.768344841329714,0.776448996295604,0.776677520216035,0.776501887142896,0.753525893066183,0.758246407365209,0.758633705372673,0.764757164003256,0.749774374548565,0.770444589380275,0.771823576156912,0.793516600064188,0.822263937659692,0.818049870332995,0.805911735696855,0.812176526019252,0.81780044507205,0.78259196288864,0.739387274616786,0.743581715618523,0.738434696968635
0.936500542048668,0.933993569705758,0.936066483456369,0.935880679479371,0.937319300764253,0.936684619196872,0.937722072872982,0.936484442407802,0.927143893527915,0.927592613587555,0.925316586202417,0.915201969397935,0.916674462107289,0.908157140874857,0.914381964354621,0.926796344447327,0.924223578069331,0.923936747383556,0.91300371296592,0.913099384099996,0.910733408934855,0.903492418288938,0.903807408038584,0.904193718584988,0.90599540393758,0.912938374650383,0.913221690803166,0.914723267921641,0.91567194587445,0.915400652453729,0.918025304917432,0.919505566403907,0.920527700374014,0.919284935397407,0.903528413324848,0.902047920752658,0.895339463576946,0.889862040709235,0.887970886981401,0.888195502114587,0.88590272193265,0.885556268414751,0.884863525846878,0.884762187374275,0.891368100957125,0.89717876302286,0.896570605787512,0.895284908913527,0.892748086039336,0.89001999356747,0.889261981323814,0.890435306302636,0.888277884481652,0.888083314137018,0.885312099091473,0.884591901041517,0.885677291321669,0.886728459749817,0.886112358509442,0.886351796983776,0.884464514766621,0.880743708439142,0.880472407598468,0.881488423096236,0.880770312394823,0.882191935167797,0.881868934983639,0.883126919643201,0.8843777979003,0.886458704305777,0.887192949407994,0.893601399487869,0.89340372689111,0.894330806724997,0.8770273071951,0.870735498186701,0.870391821404494,0.862212812863428,0.862118295970469,0.862797825793441,0.866099735522274,0.866851301825579,0.884349916132986,0.89858246733079,0.897310954191497,0.897495308430987,0.897245866498183,0.893437102683301,0.869767977655887,0.827554182722737,0.828095345340032,0.826173071019858,0.834759759880701,0.833552843840824,0.83776353191177,0.846774263609768,0.848798605208375,0.882523357255882,0.837745139192426,0.811021311536346,0.810060139831771,0.807699539343254,0.807991895481003,0.807940584844795,0.807367091809521,0.816910848276671,0.817387438139885,0.818889211212016,0.814831933161232,0.824577812727837,0.78764755866722,0.775656166415702,0.75789829276173,0.760940198874418,0.74844716913647,0.735331275010783,0.745934427009843,0.744564533135147,0.762081400039173,0.766547875792286,0.77619383288419,0.808271688424579,0.770609585469758,0.759302303611837,0.760201307901243,0.799529615156702,0.768902972272218,0.768620981746743,0.768827832923075,0.741168485212108,0.753604271921619,0.751431401643074,0.754012469541695,0.755060423037251,0.754016774065149,0.754591262282852,0.75728997188032,0.755857347095744,0.764389673369817,0.768686424266429,0.767737280953906,0.766429267531067,0.777970918380608,0.785421867740277,0.777091791888724,0.769610822536874,0.770128851079348,0.762303986881259,0.775362056076185,0.772988283608307,0.775833284926531,0.758700229269955,0.769562738718648,0.782613559048784,0.772871040023958,0.770626919892201,0.769145769250223,0.779263668063158,0.783154125005686,0.788600017625468,0.786293740488166,0.784072903913615,0.768046489801213,0.745600446011455,0.748755555263837,0.752034074255536,0.747839860239364,0.737950652297913
0.936901541434282,0.935461844091072,0.937514127109027,0.937599419195203,0.939565308748236,0.93982591942123,0.938216325490611,0.935630650871212,0.927965426747388,0.929795550261755,0.925481604787173,0.915392163606438,0.915822947908557,0.9145398292434,0.914726377748493,0.926176315906667,0.922465774197979,0.922090828736924,0.911497899651712,0.905674351347177,0.906405350337685,0.905217935237688,0.90433344499948,0.904987300169386,0.910326098597359,0.912680112286033,0.913561161835012,0.914523138087876,0.9172951761892,0.919735804113061,0.919230839075473,0.9190763511713,0.911023413928557,0.901714818950192,0.899748450791492,0.897259538550114,0.893692818001754,0.886643414574328,0.886152175422446,0.885193799206026,0.885482719915718,0.885354022929409,0.884904557870163,0.8856262299151,0.894560638669203,0.897300834710052,0.895889412423681,0.894712834950362,0.891521785721763,0.889360964016302,0.888916053882399,0.890104453032676,0.887957330783684,0.882004578585011,0.882634055956559,0.882875579593082,0.884331025308858,0.886241495488105,0.883959529780882,0.881500358061542,0.881861142509059,0.879655779645603,0.880598833433081,0.879982393673314,0.880288602343968,0.878416341249901,0.8806455883723,0.88068801089041,0.883977218320811,0.888143140415507,0.88767238245117,0.892907774600688,0.882444262743167,0.873827624695256,0.871308066996755,0.868990109773672,0.868288905782697,0.862373937796163,0.862269868448727,0.863610725460468,0.875147732096926,0.892421033346565,0.891638077397547,0.899796956808371,0.897205680287096,0.896711963389934,0.885844387066199,0.881135853547057,0.871548170007373,0.827074283460454,0.827808166934153,0.827155263709696,0.835448578524713,0.834795437395574,0.836857044289968,0.825369720666883,0.834036671192705,0.832673880272929,0.832871104279866,0.80891586814076,0.809239583379673,0.8093974111189,0.808079264631798,0.807813517399344,0.803467037933563,0.796444589905235,0.796391864771207,0.796451566345445,0.788732546555804,0.784513868792901,0.784557892007035,0.782803034069596,0.755719202930924,0.733973185175293,0.745186323099939,0.744601846268458,0.746140952374845,0.72611053917756,0.758073203417116,0.746885320006896,0.774318732593173,0.770195453795989,0.77052978418428,0.7513652855816,0.758442659402711,0.75331043883904,0.767186729548196,0.766594072654509,0.768115588180409,0.740724641092567,0.766183220033512,0.781841790736227,0.764586713451781,0.750499095662516,0.751308373508941,0.750284225358183,0.767795993617069,0.779721376323401,0.775374901179918,0.769595025034907,0.77305189560908,0.778513721357011,0.780496953473464,0.78887815259879,0.790227592321524,0.789772080325661,0.79042944469662,0.789726472604263,0.778189172004306,0.764174258906715,0.777894805282925,0.78066381966617,0.777950155168011,0.774136468552597,0.773977190700039,0.761844691710741,0.767398555386481,0.75565490903137,0.75597400464846,0.753623123333814,0.756027896111932,0.755555532316514,0.747670592436815,0.745615199349876,0.747071062000279,0.754182017105477,0.751959356148607,0.754641764536814
0.937914707670599,0.937505099694767,0.938504615949075,0.939256438718887,0.93939930214383,0.939450359459638,0.938417413601612,0.93764231371312,0.928308923603059,0.92475685042821,0.925315448748395,0.917182292923955,0.917001124961217,0.917002070636673,0.916222871528887,0.926421269397965,0.919384268330739,0.91849181139513,0.911050279210173,0.904703273466805,0.905587786192365,0.904487373816955,0.90537829060117,0.911987408097439,0.912684640894463,0.914083973671093,0.914760592481829,0.919971176627551,0.919431981092334,0.919904230140353,0.91919059020478,0.918177653765195,0.905648288969007,0.901134029322002,0.89858545231131,0.89626084720403,0.890839258957593,0.886073469772348,0.885213840991848,0.884902525479547,0.884961618819016,0.886810426686512,0.884397568631297,0.901343838785825,0.897174456591404,0.899510777668003,0.889497123126309,0.886583835059257,0.886832388760026,0.887536029805189,0.886219672308185,0.885151660978323,0.884223152671285,0.881803528331059,0.882526834450531,0.882441791744781,0.882628893214057,0.881682721057089,0.882081405560992,0.881773183010239,0.881088983339915,0.881191333793431,0.879637340998152,0.880273237238275,0.878830613692348,0.879339199886257,0.880959387558225,0.883556265660684,0.884338930185497,0.885132071108337,0.878279805057145,0.874310543092316,0.872239367710968,0.869672815387652,0.869108437984874,0.86540000102503,0.866825416354682,0.862476694771117,0.867718506309027,0.884093243697203,0.882115039613361,0.88960219132843,0.890456114044328,0.897054809397281,0.887577185251645,0.880735457910523,0.878538857379628,0.878551761583092,0.873984038316167,0.874541219083848,0.863130833519546,0.864214771892269,0.843102609482872,0.836090899703523,0.837019652356929,0.819416259734524,0.835078963390084,0.834804471064157,0.833886375087153,0.817423903679249,0.808974872209122,0.809224898360251,0.807580588208086,0.807567213456349,0.786497736977993,0.763392693087903,0.769735518530784,0.771341898124242,0.771779802962766,0.773689908173873,0.775088872316884,0.779247054900826,0.755715625263501,0.726972714308347,0.746723986132389,0.748192132983248,0.746989210052899,0.745059893731199,0.761652507145429,0.765489818024967,0.776590068194408,0.779160126174166,0.780097308792619,0.791834794395957,0.774919631480384,0.77254073384171,0.775783427255531,0.77634105732244,0.77839842775267,0.779814332931846,0.779154414659422,0.778856719251191,0.770336659989641,0.749560686372273,0.766479315974926,0.78104302197378,0.780404183652346,0.779647607409041,0.789104794317268,0.802965264017323,0.803366569230656,0.819802332234776,0.812397029135241,0.812460277022187,0.802063772191196,0.795206197143571,0.79176061813432,0.780512046026619,0.782027181055248,0.78323735785722,0.791853170940814,0.803154462508736,0.79895086347044,0.792910752652562,0.78290838146604,0.777736550935984,0.775013110623915,0.752230295829082,0.755723195587405,0.742577215345431,0.749390055775045,0.751024181155125,0.74483538984693,0.739037701230948,0.747678270277532,0.746198439345978,0.748002715686115,0.755978725652737
0.940080097867947,0.939852243102047,0.940078792285689,0.940175692097624,0.939821707428678,0.939889169876169,0.93896576206508,0.937458190014573,0.928393847851184,0.924194056857524,0.925311931733445,0.918387662034355,0.917466593145669,0.918140307327876,0.917844977008995,0.92406904455124,0.918989083315259,0.910740636254114,0.911936726299539,0.905761148917926,0.904463674611235,0.905171862545292,0.906506994910955,0.911597927525581,0.913171298423915,0.915303610066584,0.915941622119881,0.919586729566798,0.919698155779964,0.919034255192342,0.914800899391547,0.902705636360248,0.902699171566203,0.898248090622505,0.898174002405263,0.886658275785334,0.886219386338696,0.884922269736278,0.88560473779632,0.884236854277424,0.884917270282141,0.886263016367771,0.883801749292759,0.902941079072415,0.889352277455427,0.884370303000628,0.884328843233054,0.885221249199281,0.885850479844751,0.88635631208462,0.885006480843132,0.882585592287473,0.883548310743675,0.882946217464353,0.883402286471666,0.883928749637042,0.882878459978932,0.881418186530388,0.882175525505796,0.881803266018681,0.881166749508934,0.880840443217992,0.879669991664852,0.877004018833207,0.878987424582767,0.879989966019282,0.882095142298641,0.882518799088926,0.883229291762324,0.881688517319095,0.876581063949668,0.871887219035558,0.870122046921182,0.869567046695802,0.86733347046015,0.866377004863598,0.86731696596736,0.869035470219107,0.87044177635253,0.883140379123738,0.881577846547985,0.888777257125204,0.890422288386371,0.894142643462723,0.880636591986668,0.869808549490324,0.870229165515045,0.868992364797727,0.867083678781174,0.865961193612906,0.862940251980197,0.863389456764448,0.8532925001737,0.819407781247961,0.838165910752367,0.842488760768863,0.843436929476436,0.842625949352621,0.847849337450562,0.889935241157529,0.810484372003943,0.815124027591576,0.795393423844127,0.772814273376341,0.769224433644157,0.765394406664133,0.768057263010721,0.784803025059325,0.771272014320244,0.772284748290733,0.773761958429999,0.7748875878926,0.757215205085028,0.751562686760895,0.749384807708867,0.749067547133146,0.757264421920574,0.767502847985456,0.770779929419778,0.772593781910339,0.779689748314252,0.780409737626014,0.781671286505934,0.782292032216962,0.776376865671529,0.764386668506693,0.784417228122604,0.793015518408294,0.801758099140597,0.81168511287136,0.802123525925205,0.792789083523049,0.794065476130895,0.795462898446827,0.789519598993507,0.785154011636911,0.786434727942664,0.787615157398575,0.792892259210185,0.801380318896685,0.803803787417211,0.804728057540958,0.813348662388536,0.812602342033108,0.815289790777688,0.817722074611049,0.813508702038734,0.808937896978712,0.813854541049166,0.821579883110772,0.81264551949108,0.803097198546175,0.81308197334624,0.822221499495775,0.798669622108806,0.778691832445551,0.776060293711019,0.728514158613225,0.756512394116827,0.759852973006578,0.747280491988775,0.733903934202894,0.739114981519744,0.732095997686538,0.748435174280661,0.747454893471201,0.746774553037615,0.730230083868423
0.941783617830458,0.94103248505004,0.941154827838241,0.940737366820457,0.939969689869798,0.939227911219978,0.93928818457597,0.937776957865469,0.927945345817178,0.924378356407452,0.92569171376259,0.917696782921668,0.91754176376166,0.919248911013883,0.917625869548548,0.91751471854872,0.917913580211123,0.912001708745243,0.912066790595219,0.903040963889613,0.903330512633483,0.90262381098445,0.909580116121996,0.910496420108956,0.912554268610761,0.916268967477111,0.915693498917076,0.917239366605855,0.918380106830298,0.919184237638154,0.911046961997659,0.902228143744505,0.902684662823314,0.897664891788906,0.898178951282952,0.886145586630443,0.885511348197439,0.884984763496848,0.887634781190272,0.890703695326506,0.890010609901713,0.902296079980546,0.883483876827502,0.884188429018224,0.884377570671237,0.884497341668404,0.884349659600267,0.885336461936639,0.884540323416244,0.884593972475656,0.88373646571971,0.883105936553367,0.884756863894527,0.88649919514682,0.884894899759011,0.883743036965969,0.882889534588063,0.882159787277917,0.882640818236415,0.883640288742025,0.879881826522534,0.879003378976647,0.877803737911559,0.878009482950181,0.876240248751729,0.875579502203545,0.875142494517256,0.875127903939108,0.873155336071372,0.87106618118366,0.869005319984454,0.869002270499883,0.868840796951412,0.867697458013767,0.867804006034821,0.866011781314894,0.870568300413101,0.878174335032499,0.878021015082723,0.880695908185572,0.879401627917137,0.888807501321692,0.890379852367318,0.845041175463426,0.858338962799819,0.868858733149306,0.866048597304098,0.863933719859816,0.863219819636593,0.862124302524261,0.861387077597772,0.862819970728193,0.861499648333872,0.862929505237921,0.857273287673754,0.857773073106816,0.857522890170597,0.858043722505735,0.85886046631965,0.889739866385624,0.807542062435297,0.797810848127069,0.786550925709736,0.762493685282457,0.759191174299661,0.745123070578039,0.761427568909547,0.77564652667385,0.770011934208595,0.768599763143978,0.765015801148591,0.745066900430124,0.759188206861207,0.760344398524504,0.761718894132518,0.762483140398203,0.763467972198935,0.763119823060903,0.777375780608213,0.792560231705831,0.783895974563379,0.77707497833652,0.783215361769509,0.781878181793403,0.778674473905279,0.762995683301283,0.795825686670339,0.81414652704283,0.821873998915831,0.828356883244839,0.812077623656049,0.802776655069733,0.796036937895495,0.785019969020253,0.792991900810689,0.802204576546152,0.804725883985207,0.807163874125895,0.8209027441355,0.83580779623701,0.836559708735277,0.838131061644377,0.843873356917068,0.849468072570124,0.837597273820793,0.829552146382706,0.832245455498208,0.834705213555964,0.82373296817968,0.8081451711224,0.812880180528671,0.818859214792664,0.828920469116498,0.843090783553233,0.81377702752093,0.795473706596207,0.785335417798327,0.755806310650661,0.756563564919258,0.735958092562091,0.746067150980103,0.745381009135965,0.751562620179402,0.762634604472146,0.762952734940307,0.762061658122552,0.746570269135021,0.746691802146033
0.942693975249908,0.941532537969012,0.942748364255599,0.94296205819716,0.939491059648161,0.938635099570972,0.940094278972232,0.928251736170431,0.927391826334868,0.926702934439692,0.926511362681965,0.915322421713256,0.916217560656189,0.916325181719644,0.916464331375755,0.915762557595058,0.916026498008688,0.914433217044748,0.911785934964239,0.902740904935796,0.9028351552004,0.902769545783194,0.910373133090523,0.910672404686085,0.9120988203004,0.915980735254645,0.915247963118978,0.913473886938608,0.911720188558669,0.90862048160367,0.911112026252867,0.902709435043496,0.903216651345581,0.896108545034199,0.897833708357975,0.886206022969953,0.886294303044593,0.885211182085698,0.894776128422698,0.896853581993147,0.89196770337476,0.904392167765668,0.884889192899409,0.884921059614409,0.884730967268966,0.884790012134738,0.884066970148996,0.883646426061535,0.883173600155102,0.881883325912883,0.883696101569483,0.882679514747013,0.885806851069077,0.887037399020083,0.885748854759051,0.883582558235535,0.883456858781134,0.882330500844235,0.881898625493418,0.881500957552585,0.879916756985609,0.87733171268065,0.877879203969432,0.876766665526735,0.874653673759752,0.87083892809178,0.871113945980634,0.871252287047344,0.869052979415073,0.869037367420858,0.867560445094531,0.868060030667909,0.867565148770515,0.868529858729928,0.868326692944939,0.868416223312509,0.873847743207511,0.878539039373575,0.878223639370991,0.878175055242024,0.878671133223955,0.894830919418014,0.893022978331088,0.895971232487219,0.853508721087833,0.847174359058612,0.854584612964623,0.860291045470521,0.856949409560993,0.855415400681706,0.858215194097912,0.857009954319072,0.859234237429249,0.859324671493571,0.857953050387497,0.858351890253123,0.857544026511373,0.858547977945596,0.857572510501538,0.856220771635737,0.804744620461717,0.798151861166239,0.77458268301201,0.768242667832235,0.755812864257307,0.724055934779892,0.739007680096082,0.740817560578264,0.757084738039241,0.780112152449747,0.764368697560084,0.755697403118429,0.759800254855458,0.761012591048827,0.761413077127489,0.741938356515162,0.769654534833556,0.781643248568827,0.787845487058264,0.801655596098306,0.790481514861743,0.768450769159747,0.793065994459642,0.804650706585947,0.81087929843195,0.815383596938067,0.81879440661586,0.823557783427969,0.825404477547656,0.826639079097361,0.83285960825253,0.840753366359834,0.831919301533578,0.825689975217403,0.818021764514172,0.812278609218083,0.812521964683566,0.813303442093399,0.828130204512967,0.839541255543232,0.844774287889127,0.851382099012478,0.850293279207361,0.848681955749087,0.839488947044889,0.835127852684828,0.83278282031413,0.831319461052829,0.8307557177053,0.829976812945095,0.834724738261534,0.837797639668048,0.839048148782402,0.841139198899813,0.825980521266663,0.805620075903027,0.797624871256016,0.791233444846043,0.76812923090066,0.758219544386734,0.751795420633766,0.745826891507388,0.756223117646049,0.763521942444254,0.764190623140874,0.745700567330113,0.746315795479244,0.737860838748209
0.94387882168432,0.946647931418696,0.945458374530378,0.946468500467945,0.938856358902488,0.938432163133659,0.940406235833528,0.928163946016128,0.927086453655909,0.92639787351322,0.926817975059673,0.915154753546844,0.915337203250801,0.916157564504798,0.915260720536138,0.915920242621101,0.914495070031316,0.913424410394981,0.911248207107417,0.9037950604272,0.903191900389498,0.903518583756135,0.90894454969798,0.91407009442154,0.912257648904525,0.912798668373264,0.91237610795199,0.911576786235947,0.910492870277637,0.908943249647081,0.911376839962322,0.902266634014955,0.902946306657257,0.894660095857626,0.897268872931187,0.886314002375693,0.886662550856525,0.886106682904157,0.897602975388001,0.907659463483207,0.89087487864943,0.891258019438635,0.887423508093793,0.88606698415103,0.885496435807573,0.885331069712556,0.884063089790977,0.882297824127336,0.88153993358582,0.882154496261685,0.88476055163843,0.890079129249669,0.887521770603239,0.887382837462099,0.88647703489391,0.886160942649795,0.883927447218458,0.886361690262365,0.880251842747022,0.880775602092282,0.879278456263765,0.877592042665791,0.875321499962223,0.871933359692566,0.869833451261281,0.868746803244042,0.867496222616872,0.867166932110882,0.866642127933707,0.866633782596277,0.867113887673902,0.866950396158318,0.866930272743617,0.866702179331597,0.871956671568276,0.878094817860611,0.877619231370288,0.87816925631671,0.877702281140263,0.874655666199858,0.865273827621216,0.857867927787865,0.848538693186141,0.828428491390807,0.827562599503461,0.826680235974557,0.846695958224565,0.852003139244291,0.855811398485111,0.878921327476115,0.868322164239036,0.876448558735391,0.859117005795463,0.858378293007208,0.857725663898231,0.85768947057127,0.855882804083821,0.853330468189254,0.854425241827603,0.854121753899999,0.802591718850546,0.766450098182515,0.767901893656809,0.759899784720405,0.752088899462686,0.734158968650554,0.736918018258933,0.722436065411418,0.744188556382434,0.717300118963265,0.762014878428175,0.759972968673945,0.760323896798513,0.759593767541189,0.760003201799889,0.757103061195128,0.77411966334173,0.779277334331193,0.794973905703574,0.807965401424343,0.795102192825396,0.789014611846281,0.800625820320221,0.811816514191493,0.813792641007794,0.814743839234219,0.827280566831829,0.836096415091023,0.836787759353645,0.838886121556634,0.844461562803382,0.854578261019938,0.864083587986407,0.877921650007068,0.854777651385515,0.835306747061985,0.839719275858548,0.844997899851957,0.846809477316904,0.854044892768189,0.859468716439231,0.866170240290303,0.872622079749144,0.87830083960621,0.878470064087533,0.877703321573648,0.858732557777022,0.844597430489227,0.845034867597826,0.844566807864443,0.858397904282649,0.872694827151238,0.86296118734027,0.856163779537264,0.845379933288668,0.8386548746834,0.804561903228006,0.785886109481462,0.778782514484724,0.762512265512135,0.763237647291572,0.76359717180756,0.766645045316538,0.769786337702127,0.770332114424734,0.769225934138027,0.768911757250655,0.771029138119956
0.944853156082969,0.948677387956433,0.944032270879763,0.940217845918395,0.938835845050488,0.93955152732201,0.940142636258091,0.929604368910504,0.927301420261664,0.927514825415235,0.927553422375971,0.91521152519938,0.915212344234381,0.914421152075874,0.914735919338758,0.913781500789705,0.913410677634813,0.911511583834233,0.9107454746842,0.905811124003448,0.903810697333075,0.904991517318983,0.906903575723258,0.912342078529423,0.912165268842356,0.910557915028359,0.911605728234834,0.910466300730729,0.910789249869644,0.909643676966309,0.911708392130866,0.901501989203946,0.902652328682191,0.894684968436177,0.897248499832822,0.8976443966779,0.904392083434789,0.914024188911178,0.903537924137066,0.910198812837938,0.890152200530924,0.886835316594232,0.887725836784339,0.887428150763028,0.88643410512126,0.886574017111971,0.884507424757524,0.880897361627313,0.880611898055969,0.880743343127098,0.886709701127788,0.887784993674792,0.888220385330233,0.887653231501479,0.889143141923616,0.889056510037667,0.881828413741064,0.879734499040636,0.879438495673912,0.878407232516361,0.879169211764196,0.877169441249315,0.871310884042602,0.867118536402868,0.865713969889126,0.865510733321768,0.861797426602074,0.861359106566959,0.865903660746464,0.867147590062805,0.866815865697212,0.867598171000786,0.867076429704146,0.873501874472193,0.876911603724561,0.876560226711584,0.878529995051865,0.878415656803597,0.869203819710165,0.867568490414942,0.863254725402232,0.858094238399604,0.84210539664018,0.828068385953848,0.82775235127013,0.837736501068109,0.841661289783419,0.848904091489555,0.848160877436431,0.848307487114575,0.85905914821502,0.864572697291787,0.844535256664241,0.823462328283913,0.833997640046722,0.830332698542576,0.849182971040046,0.852054346272112,0.853460989710694,0.8536138621785,0.801484985356098,0.766811194097541,0.767678206341174,0.73865123254857,0.744872663798156,0.74244976777562,0.744697979497501,0.746421250695724,0.753048561586197,0.762557362265957,0.774859460060201,0.791850787611304,0.781198809689396,0.781664339212996,0.779038824228769,0.777923947450891,0.790882946085174,0.805229032336914,0.817546587845336,0.831289775954208,0.825883976102527,0.820047771710466,0.826543597463086,0.830935196439589,0.827656680382491,0.824655325708764,0.837707791829492,0.854103616792182,0.858137179138331,0.86647575013685,0.893900070232972,0.927562186114695,0.92043475365114,0.908079092191394,0.877775925371229,0.848912859894139,0.846622761109978,0.8453092396392,0.849005348202512,0.852701506006929,0.861436666074319,0.871141179531757,0.875901297121644,0.888347166004436,0.886303599198019,0.885592508698005,0.871535539657536,0.851133379015288,0.85437055097226,0.858066695249024,0.87229736650454,0.940882616637675,0.87978332875177,0.864731351998086,0.852675030041035,0.83101353272567,0.813508913056481,0.808303012376504,0.791965057954152,0.773314736607426,0.775135315784141,0.777317129609003,0.776069020930369,0.775807754705918,0.773094828213867,0.766923678394894,0.76807609892072,0.746025136012491
0.94662938452406,0.9471450818335,0.942931988037945,0.941108885947501,0.939757292888345,0.938182929532444,0.939079733219945,0.933436324617608,0.93684794417306,0.938578351324534,0.928354570989175,0.915169284178239,0.914277966401159,0.91420097332586,0.91319229167687,0.913831167490494,0.912246769580301,0.911967067695914,0.910472024608794,0.906774501525681,0.908388578877641,0.916463819981985,0.905835922713154,0.906610345710038,0.908414572693529,0.909692909368533,0.910879750589854,0.909746311800184,0.910677998063307,0.910677216082048,0.91092779911764,0.910040982454761,0.910062205435265,0.90979224958663,0.912356994736276,0.915395871911507,0.909385388667926,0.914819923947112,0.898872781778063,0.889653738152519,0.889675624357528,0.889508609071966,0.888351903015964,0.888040975788828,0.88697666179004,0.886056043559965,0.884965611010006,0.881342789802925,0.887272062718251,0.892470094593819,0.891621582103184,0.888916351781263,0.888780954328057,0.890237285522474,0.890513939463944,0.891666878280958,0.880985935668361,0.879896699494104,0.879143512686722,0.877913508594302,0.871849319035157,0.864642738846964,0.863559444760698,0.864269901098042,0.861670738934524,0.860962485364299,0.860880929241393,0.860047809992917,0.865416783033909,0.865961829576656,0.866359121675854,0.867087890514501,0.86677857721504,0.869199037215371,0.879838131515441,0.878818316915413,0.882374194639166,0.885792446341537,0.86479485963143,0.860913276829777,0.851596440987371,0.8356421369892,0.831460524793428,0.817547029147046,0.828475653694623,0.829025870411437,0.83057986349307,0.818799926726898,0.821800358910792,0.818486012649781,0.822735969055392,0.806405919727699,0.831556268963301,0.841714042572788,0.836790340620858,0.843362821872963,0.848677417075646,0.847970179954087,0.84100888727542,0.808826133775784,0.799956861183569,0.765773000802363,0.766998276226661,0.729088865556327,0.747257906738805,0.750459286723547,0.759867533762597,0.786128909426089,0.785733866346823,0.796283120520596,0.783547936104667,0.77671179702721,0.782970259229063,0.783367119676178,0.784229438875656,0.785404543473896,0.803765244750295,0.827416233026506,0.833494930548317,0.84166248245995,0.837447119476684,0.832109639079728,0.82924680200073,0.825239460980889,0.830948756295593,0.839694911872277,0.842599227832954,0.852614529672589,0.882056009377563,0.904587967238171,0.919398894126431,0.940855259489891,0.922594285498083,0.907338629058024,0.896647151540983,0.882246861346234,0.872414972508177,0.862672139147926,0.868257151469265,0.874148521129942,0.887471687541332,0.905431737866588,0.904450692426142,0.904224863403396,0.903505121105589,0.903856269720608,0.888926766646957,0.868434927224623,0.865998801677118,0.863307286979288,0.883132971525684,0.893483701307014,0.895780901060689,0.898059204482642,0.861804182347289,0.828811805657768,0.822315379127429,0.806769465179679,0.802141755891496,0.798013820330084,0.788065150250967,0.779870396579225,0.780755600939599,0.779439712677687,0.778322402490541,0.775707450215353,0.773172125186096,0.748266957710394
0.944264077148915,0.943805796338223,0.94206625133136,0.941704599742404,0.940079874335655,0.938980473077883,0.939328697684233,0.939903854877778,0.93861063065065,0.938723296764933,0.929398498603051,0.914356367751386,0.913543032301111,0.911932273877441,0.912424499438599,0.911179703136368,0.912027364821036,0.910826143108003,0.912274577751639,0.91336108995649,0.911705311767273,0.912472491986938,0.906421108060713,0.905783098024895,0.905712775572778,0.904760537316811,0.902684866927749,0.901554615754727,0.911851817115775,0.911478927078192,0.911381640939438,0.909295802027285,0.911118545532781,0.913207605353695,0.913319921526973,0.915661952066441,0.90238928993533,0.901514209319919,0.894339420404192,0.889028872051703,0.889751014815152,0.889696334314575,0.888579313364919,0.887893115345425,0.887341841979545,0.887938457541936,0.888433537486601,0.890401692659292,0.891636246821695,0.892539755040709,0.892437000072354,0.893495240561447,0.896228543677861,0.898210114450818,0.891968032482322,0.88720447885441,0.881284582863407,0.879616485804933,0.879271567555921,0.878123332637742,0.866643197192295,0.862006429451474,0.862395083889258,0.863925749466479,0.860761861474041,0.859263509545858,0.861733908630511,0.860869641159372,0.863846085794225,0.865261472277558,0.864990635157883,0.865982710743955,0.865703665107579,0.865834427218303,0.883777746082179,0.88803632471341,0.88683797054934,0.887666660478008,0.859779943518928,0.847937548777684,0.845714399257154,0.834027497755078,0.829895209915237,0.826127194533425,0.827615282384589,0.828166572663088,0.829171583050008,0.827317237920589,0.824838703716148,0.8610221789814,0.824141485117564,0.824738475292156,0.82973975648641,0.831288728952488,0.834368686596434,0.844853194547943,0.847920925168439,0.856070404900139,0.833571145717724,0.805768267284799,0.793644173158945,0.775609192931318,0.766690809893316,0.742560031664038,0.754059983953905,0.761698977209388,0.766136056953386,0.787874182225278,0.787606391948003,0.79101467055165,0.787209818736312,0.778032174257526,0.785043879445695,0.790688889918499,0.791048576433719,0.789153181828886,0.81580602374265,0.82641184995029,0.835743434145064,0.848354860863235,0.853400230307815,0.855356203098735,0.844380140187506,0.838342969534833,0.848620970311424,0.862855070685877,0.867429200895072,0.875889198978308,0.904303563656403,0.932236696763655,0.944215742285732,0.959944508217232,0.950905693251642,0.944166452451962,0.94113221906629,0.934698045791743,0.904332849609273,0.879344353877716,0.884209052012353,0.888977064594623,0.892771004135825,0.904193745983432,0.92122923533092,0.93853504563121,0.922571203654397,0.915416313167058,0.901669685041738,0.890898568082321,0.884458748573716,0.879322581752762,0.88825139579288,0.905736274956674,0.898926350897225,0.889572834339241,0.873056471892424,0.838571116559131,0.82864415619702,0.809473225099048,0.812956665395562,0.815552119863003,0.809054804605316,0.80443688284485,0.802113275952609,0.796732024850049,0.78561834949033,0.779543486072196,0.774896752928157,0.756235192122492
0.941379876013159,0.941569325536591,0.941455118005623,0.940570122701396,0.940891514667068,0.941012805945107,0.940224518746402,0.939453465554478,0.938941476438278,0.939226582415512,0.930168181404454,0.925317052057522,0.912547201946929,0.911447812724904,0.911377761723205,0.911560176361274,0.911789002165567,0.912057464666952,0.913013883615086,0.915514703560215,0.910800647982422,0.910073584680801,0.907691409618322,0.906213300649953,0.904967406089668,0.894489322642393,0.894567440426883,0.896900273590101,0.911112557216352,0.91110647947953,0.911349724901891,0.912271350328441,0.913670096922366,0.922006966683665,0.922368436882605,0.919281381245224,0.898203426953573,0.889505871549838,0.888963962905485,0.889840792166268,0.889662899309156,0.890686020016488,0.888186232846871,0.886566374321457,0.886998870973575,0.887625789531048,0.889204030419724,0.890520035491106,0.891793535151346,0.893130906835518,0.897983495637848,0.900895267854139,0.896045056979848,0.894865432830627,0.893088835669923,0.89106562201837,0.88224727232091,0.882262260072976,0.871257096984919,0.863111293640961,0.861347440672457,0.860542805821894,0.858560808755434,0.857643341374246,0.858553404899733,0.858288984120422,0.865260885958163,0.864914371957447,0.864093024144473,0.863775140589403,0.863716549702025,0.863182994211551,0.86350699762143,0.886037612782331,0.884191496676013,0.886952998043525,0.886363462727189,0.886437053343427,0.85420435388665,0.848492322706838,0.842540391880477,0.837857609445202,0.82872356080805,0.805628887820067,0.813485365416881,0.804801848138466,0.818303129328497,0.811273496772054,0.822131914386719,0.819598629474098,0.816657178653959,0.813023596750925,0.816580815774259,0.821431646780413,0.829110447127283,0.832207109392563,0.841017179278569,0.856146203619894,0.829721052064315,0.824642614989356,0.786907805572149,0.767251240854157,0.766478192768628,0.745811662210598,0.759976215733456,0.772553913713345,0.773875581871936,0.773536189410481,0.797162278853017,0.80726517432336,0.796257344489752,0.790605739591901,0.796478191813493,0.805518383372622,0.807624374712803,0.8097081868242,0.833400525047154,0.85203021467382,0.859648694362161,0.872918883462183,0.870382670474181,0.869398903771715,0.87541584727865,0.883997504056494,0.876939332135891,0.871472486335438,0.889925109929063,0.902044901516535,0.925230498314826,0.984814191320229,0.985599819974224,1.01509191320093,0.986695413475832,0.979884111084541,0.954674836384126,0.940209923595235,0.923367468218422,0.905541243517212,0.90636530715555,0.907005662279538,0.929850604078129,0.958593324188744,0.965463546906109,0.971648311387799,0.971868379151924,0.971290369079837,0.957704092298561,0.945046303644669,0.932981939147074,0.917212742845951,0.923847797150851,0.930563881921915,0.914842988659516,0.902297258532767,0.885310578072649,0.869136123520734,0.852758074336939,0.827608204712022,0.82505833067253,0.823560387246824,0.824221522111774,0.824980177205721,0.823441402099814,0.822060692635488,0.809638124004621,0.801243053709197,0.786820933518006,0.765269934448603
0.939541519748404,0.940687665914396,0.940612935471846,0.941134275381259,0.940249102268241,0.941577678087425,0.940019669779954,0.940065091672132,0.937377336972195,0.932965744820444,0.930752733756375,0.930313233765655,0.913228466235023,0.910489034036958,0.911382329570869,0.911614884354209,0.912957018883123,0.913675092160732,0.914475535103006,0.916500341819648,0.910433411621072,0.908761357068316,0.909164158832627,0.90674367861636,0.902353609221524,0.894262230011083,0.893573797110551,0.892749967860313,0.9097990034201,0.908689936604069,0.913508493907646,0.914041193982651,0.916691138170053,0.923578895587147,0.923775238284329,1.03399325692729,0.895927308255022,0.890834412325407,0.888785673223203,0.887465523053712,0.885857180493345,0.884632773888002,0.887620863853347,0.886249556689226,0.887003925118495,0.887380573956622,0.892773238960289,0.901425453557627,0.901960066118825,0.902024251976207,0.901217371461261,0.900180764754803,0.896442023788956,0.894253306776242,0.893265988317622,0.891608429018261,0.875831968582156,0.865107444796568,0.864221945598023,0.861486529548905,0.860023007468998,0.859094241169907,0.857454304528569,0.856738024322136,0.857963915996972,0.859073062036618,0.866544517784541,0.866783487113208,0.863872844287964,0.863309065041917,0.862742531768748,0.862801694137893,0.861732117532436,0.872999140883394,0.872387004315421,0.872572558283074,0.866066398244552,0.861830513070387,0.85013337140779,0.826598707534558,0.824923128323931,0.795016567911646,0.827716526614755,0.826375301259428,0.821117224545956,0.803003514505308,0.821341537665191,0.824290346095587,0.823112934502701,0.804373841583879,0.807380026817111,0.804771847768564,0.805569021664484,0.797200720722352,0.815616518278142,0.841617766190543,0.818684417904504,0.798054549693274,0.798264661897236,0.799159258269946,0.785631084220549,0.762849677110248,0.764645530236141,0.765138459616326,0.763268977620125,0.770528124891386,0.78151823602368,0.799059515075653,0.80336804514992,0.806487480436586,0.799917654112964,0.790871322442914,0.799237839101398,0.806401893124543,0.820408622558538,0.832802083982032,0.852331693162578,0.874471936881942,0.895648614975188,0.950305234172824,0.925804981118412,0.908626335160419,0.90510136586901,0.902140320302269,0.902111785552111,0.90238908847277,0.91443245453713,0.92184210657123,0.944049529224526,0.99179649158345,0.987059673502908,0.985262964640157,0.988106542272982,0.993793886649543,0.970243621584947,0.947162111445793,0.935004997113654,0.918136167232751,0.910754843430026,0.906213676971913,0.950040696306882,0.993941999189199,1.00544697933406,1.01724072312886,0.988314829142828,0.960270550156459,0.959803146398474,0.961212499121471,0.951259106515603,0.940989301978136,0.953820055512209,0.960551018706149,0.934069155744066,0.927684873541161,0.899642540606454,0.876120428242616,0.875225292160668,0.874818981780202,0.860997939900331,0.847890354530993,0.844003692522877,0.839012970092324,0.842622609277251,0.846688961315244,0.824579635799802,0.800043420045877,0.802743603779362,0.805614729273962
