0.793401200696458,0,0.761877152720862,0.756715131346167,0.748514931598512,0.750743569485201,0.74252066417914,0.757258318166512,0.749021440209123,0.748726267949836,0.753348595667018,0,0.751015162895374,0.741284084536682,0.742135542976934,0.724806835459072,0.723684656899356,0.722921400820607,0.746489770446775,0.745414749585288,0.751102491966169,0,0.718275494254311,0.71828859361493,0.739700808483168,0.721168706369751,0.714401576673842,0.751858761719254,0.736872219880116,0.752501503680306,0.793634369315481,0,0.791324515392952,0.808380756209933,0.798329180161423,0.800218981253428,0.804568842269729,0.824922628799931,0.849856825093333,0.93211557003802,0.926412981715103,0,0.948830354188192,0.951371630148328,0.953615987267761,0.961021492471181,0.961405740382679,0.97460989588689,0.953554856918204,0.959737755130493,0.959353507218995,0,0.988416621979587,0.962279031090629,0.952760162373969,0.959170116170326,1.00667713068283,1.12517394684463,1.12321777565882,1.15009766364954,1.14953002468937,0,1.01905166001449,1.03394999949212,1.03464863205849,1.03872689966461,0.994992501010454,0.937896754524652,0.992512355399875,1.00984717595269,1.0108252615456,0,1.03500668124874,1.02383729309406,1.02423900681972,1.02117375643481,0.988992993846834,0.989123987453027,0.972915711913466,0.967457644988776,0.968173743369295,0,0.950489606533298,0.956655038931428,0.95733620568363,0.954611538674824,1.02636110324004,0.987456002200842,0.996311169979459,0.981500159572619,0.923260402259402,0,0.907645964401247,0.919819636870077,0.919444121865658,0.910816009671108,0.914012253662206,0.932176700387576,0.934307529714976,0.956917026143813,0.955842878573034,0,0.987377406037126,0.97003385257723,0.978513505351429,0.91817785033913,0.837298904713005,0.839049852582446,0.828841957497212,0.811581366654571,0.781703471663462,0,0.801478266454292,0.768653888614558,0.756709891601919,0.742233351536224,0.731570471992149,0.701091752993969,0.682084580735427,0.695017142829466,0.674747192207227,0,0.66281105481096,0.664361145817572,0.646633344446177,0.65624478197788,0.647846345239521,0.664423149457837,0.642622320224561,0.650598084260273,0.63900515011223,0,0.656626410017255,0.712977239529175,0.713798132794649,0.714845208353481,0.71877850970209,0.720969596088338,0.722356381732563,0.723529211153341,0.723361539337414,0,0.72178699619098,0.720976582414002,0.719360121313585,0.889909430122773,0.743943254742391,0.744921340335296,0.745936104137934,0.766583316346007,0.768788375383582,0,0.769026783746852,0.768094982561469,0.769197075434903,0.753580890995333,0.742966042440194,0.734060223800515,0.735367539990317,0.73811054610399,0.738665085703538,0,0.735231306639877,0.734022672300074,0.742348625909673,0.744507400539727,0.744193015884865,0.743549400633105,0.741068381731818,0.741183656105267,0.743372122619391,0,0.743144193744616,0.743249861920278,0.741867442729593,0.742563455423829,0.743620137180449,0.745999854359614,0.749650209518847,0.744584250122027,0.744465482585745,0,0.742723267623384,0.743329331374702
0.808274214743563,0,0.759103581432411,0.746205950966691,0.758210205038178,0.748861628009568,0.736297594594285,0.749232776560447,0.747477462237467,0.749755004403801,0.755863672905915,0,0.736527270050476,0.717528830699013,0.814829134797439,0.725825092424543,0.725258326755083,0.731964326101434,0.744923960207419,0.750843997916616,0.748553356389662,0,0.71783273586538,0.716705317561416,0.717127990264064,0.723709982329886,0.715845999504792,0.72767122898115,0.762278866446519,0.774865605420209,0.795463913348637,0,0.808585106235593,0.808434900233826,0.79919111809017,0.793797674677868,0.820334359420359,0.821080149684949,0.899690286051819,0.97479328693556,0.981386631780586,0,0.984635273214161,0.950934984794353,1.09070516260183,0.957711720688048,0.956497846603997,0.954995786586322,0.986905829054833,1.0143620889128,1.01532270869154,0,1.12983731922509,1.02559260741704,0.950934984794353,1.03987091049203,1.00968125071818,1.12564552382692,1.06363315065536,1.1694148541094,1.09496682125662,0,1.01940097629767,1.10493980114142,1.03551318985936,1.03480582438592,0.989447105014969,0.992416293422,0.992355163072444,0.987953777904373,0.994774178333466,0,0.995254488222839,1.1621316096051,1.08812022210629,1.08839967513284,1.04049094689467,0.998092683023678,0.98060940305051,0.964392394603869,0.938027748130845,0,0.949240800820929,0.953877974480146,0.960366524440218,0.976146887532883,1.00429304705013,0.993394379014905,1.07401657717289,1.00574270962532,0.942446599113074,0,0.904021807963253,0.921924267476238,0.905707259029597,0.931216080608831,0.931198614794672,1.03676199557173,0.929233710701783,0.958977992214576,0.958401620347329,0,0.960593580024285,0.951930536201416,0.99471304798391,0.916536063808183,0.8658022401298,0.85975208210512,0.838214113374937,0.816695357040329,0.810960456961219,0,0.827011540173348,0.81357159617799,0.819513466154886,0.792909538027882,0.732875168309827,0.706414459858927,0.685079967863697,0.665771510310912,0.668288334131225,0,0.667531191087432,0.666900675196292,0.662343844282206,0.661846068578675,0.640407654989198,0.631548994047749,0.628138793833202,0.638916074460019,0.637095263333942,0,0.693955221328598,0.706206616670435,0.708724313781456,0.717612666606976,0.718969760367131,0.718690307340587,0.722463796489641,0.723430529303342,0.723984195612183,0,0.724240069789612,0.732400971455409,0.734192963988124,0.735473208165979,0.74321493029196,0.746122115058727,0.820015608311957,0.763340787947387,0.769542898555251,0,0.76882767346544,0.767639124811919,0.765757183336286,0.793179384856639,0.733314433535926,0.73267343815629,0.733618338702293,0.736642544423925,0.737400560758426,0,0.735357060501822,0.735531718643412,0.735334354943415,0.741898881195079,0.740332197665016,0.741207234954382,0.742362598561001,0.742086638697288,0.742607119959227,0,0.742776538356569,0.746226036652974,0.746509856133057,0.736819822437639,0.741725969634905,1.00093087782452,0.742810596694179,0.74269532232073,0.742142529302597,0,0.741653486506145,0.742740733437543
0.805480557768829,0,0.805078844043172,0.758336832190831,0.757483627169163,0.772791539988827,0.745054080522904,0.748096625349404,0.74861361344851,0.749821374497606,0.735808551797832,0,0.71969895810827,0.719008185158281,0.814936549554517,0.721606225014434,0.721843760086996,0.763890087802688,0.759539353495679,0.744649746925123,0.727286107778944,0,0.723862808203778,0.70600837967973,0.706949787062901,0.715314165463651,0.717342819778219,0.743167772593731,0.744444523608755,0.796144206810131,0.794234320031843,0,0.826832515578218,0.830964053917532,0.835986348778955,0.825980183847259,0.826310287734864,0.837118133536459,0.886835446830788,1.00880796001023,1.0089913510589,0,0.940551558276821,0.941293855378579,1.11324479577403,1.1108694450484,0.957423534754425,1.00420571797933,1.02296400238611,1.10371719415029,1.00180416853247,0,1.13154023610559,1.13162756517639,1.03716370929738,1.03994077374867,1.03732963453189,1.02034413026226,1.0762696671994,1.07607754324366,1.03416832216911,0,1.03539092916024,1.02791556070019,1.08785823489391,1.02379362855866,0.976286614046155,1.00386513460323,1.00465982914747,1.00430177995721,1.0226670835454,0,1.00252026691299,1.12148866005708,1.00109680305903,1.00100947398823,1.01235352028451,0.997935490696247,0.965772193922431,0.947441821962551,0.93652568811317,0,0.943520746683853,0.979605118736367,0.980295018395648,1.04626339847423,1.01046721235534,0.99242502632908,0.991874853183071,0.949354328612962,0.949494055126234,0,0.90795161614903,0.907715827657884,0.907349045560544,0.930849298511492,0.929085251281432,0.943756535175,0.949328129891724,0.949476589312075,0.959213780705723,0,0.954131228785451,0.955965139272147,0.971876495971005,0.888966276158187,0.890372274197987,0.870852480293878,0.848918910872994,0.829211359466675,0.837533819913444,0,0.863337813751964,0.835630046170112,0.812516661002786,0.796659448327822,0.74692641580075,0.70774273502572,0.68260331541595,0.684399674402204,0.668364310422817,0,0.667729428078137,0.675251080945715,0.649594673236838,0.639777139098058,0.639701162806467,0.639454021536117,0.636382658116255,0.628170232298689,0.633483332965859,0,0.619455664324051,0.639181554835236,0.647000999834225,0.716579563699471,0.717782958295027,0.719671012805616,0.721101462985238,0.721897030820181,0.725969185391354,0,0.725952592867903,0.732733695215139,0.734647948446966,0.735522985736333,0.736377937339416,0.871614863081919,1.04276150273534,0.761123502839901,0.760363739923984,0,0.761484171902284,0.765214869806649,0.721589632490983,0.732173915871343,0.730036973508988,0.732023709869575,0.734144932999187,0.73499988460227,0.735267984849611,0,0.735420810723502,0.735346581013327,0.735235673093417,0.732913593100976,0.738188268976997,0.738840617135836,0.7405391675628,0.741099820197304,0.741334735397743,0,0.750603842971929,0.747320269910035,0.74735258166623,0.734633102504931,0.735180655778816,0.732922326008056,0.738501780341152,0.738889521415482,0.740518208585809,0,0.741473588620307,0.743204450803465
0.791982976586747,0,0.764396596413299,0.775692611720639,0.769945485571616,0.76003712919921,0.769561237660118,0.748152515954712,0.763449075995173,0.761963608500949,0.72939685142006,0,0.740453585073421,0.726487920071877,0.72654206409577,0.721099716403822,0.721983486600268,0.760310469190799,0.769404918623395,0.73370479448238,0.73701980600976,0,0.730529509468272,0.724833034180311,0.727050319287797,0.718189038474224,0.715147366938432,0.736434701235433,0.775558998242322,0.786872479363821,0.803831784912219,0,0.860978182259082,0.853768294174243,0.868032624597906,0.869187988204524,0.857371491635247,0.908431926038403,0.930211796294688,0.961807454108336,0.961964646435767,0,0.989796421298149,0.939468677798963,0.940324502692754,0.950856388630637,0.963099924356103,1.01174221678894,1.01370712088183,1.08391969380105,1.11672922569875,0,1.11538435800851,0.991403276200778,0.994983768103375,1.04124197690351,1.04146903248758,1.02857926163823,1.07460168194722,1.10287883507066,1.05231530308032,0,1.0520271171467,1.08011214631439,1.08031300317722,1.16504840056965,0.959746488037573,0.975177534847058,1.00424938251473,0.974321709953266,1.00274732249705,0,0.992721945169783,1.00494801508109,1.00064269189089,0.99753377697059,1.03572277962926,0.997813229997134,0.992879137497214,0.953650918896079,0.943599342847569,0,0.984382018908856,0.943354821449342,1.03801953419117,1.02554894288164,1.06485575764649,1.01233605447035,0.998494396749335,0.971902694692243,0.970715019329431,0,0.938848641396318,0.938944703374193,0.944009789480305,0.922308515387736,0.925522225192994,0.957117883006642,1.01749720255434,1.02070217945252,0.955467363568616,0,0.955668220431444,0.95609613287834,0.97160577585154,0.916911578812602,0.877150652879617,0.860172134935644,0.869378365578858,0.870019360958493,0.880425493034431,0,0.860805270698908,0.892118855613888,0.848651683916361,0.793019572657084,0.742515424434892,0.726956003891338,0.699691867989125,0.701427096625822,0.683323780250009,0,0.683471366379652,0.680486458739878,0.648777273134196,0.65724207996636,0.610994350654719,0.611744507372848,0.615362550775887,0.616909148619667,0.639866214750269,0,0.619690579524489,0.663253813199891,0.65244422081688,0.706804820805381,0.712380781975645,0.718166332915817,0.720271836812685,0.724798102551993,0.731748623296571,0,0.733113576673097,0.733539742538577,0.736247817023931,0.737209310093385,0.737142939999581,0.73824241300089,1.04629833010254,1.03444777519566,0.759917488372221,0,0.723723081690506,0.721121548671521,0.720390604348967,0.724553581153767,0.729836116646159,0.73302275443947,0.732476074456293,0.733227977755839,0.734368495420422,0,0.735584989376597,0.735364920118194,0.732096192998335,0.730587146654996,0.737425012898249,0.739079898789815,0.754723155241332,0.75609160178069,0.752779210125434,0,0.751603760832533,0.746453092237041,0.739475499480516,0.734317844559361,0.731742510261615,0.732378265897003,0.7368704732987,0.738948031892914,0.741776620495966,0,0.742001056207909,0.747597103064456
0.787008712714261,0,0.764273462423478,0.775216668284806,0.773119024004308,0.76054451110053,0.759597863973111,0.746993659185262,0.786765937897451,0.778751749070589,0.769953345187988,0,0.751519924924569,0.751564462750675,0.754103118838687,0.754866374917436,0.767402463030065,0.7568286591382,0.740884990683149,0.730265775674471,0.726700129713909,0,0.74195389850968,0.736603246342067,0.727224977429387,0.75069291862414,0.743329331374702,0.747221588060037,0.77566204654586,0.792482498871694,0.823472092934025,0,0.868513807777987,0.863661804604614,0.883656668653848,0.887368154162637,0.907628498587088,0.898415281618211,0.9934817080857,0.961720125037541,0.91994189756919,0,0.922849955626665,0.93247361922828,1.04589661637689,1.04413256914683,0.966802676957813,0.967955420692307,1.08360530914619,1.08432140752671,1.11302647309704,0,1.03918974373983,0.992049511324661,0.991665263413163,1.06541466369958,1.08113389644269,1.02225663691267,0.994931370660898,1.03825532268232,1.03812432907613,0,1.04176595132828,1.06281225738989,1.06389513786775,1.03283218738595,1.0072884341784,0.959781419665891,0.95890812895794,1.02300766692151,0.995464077992747,0,0.992556019935272,0.999385153271445,0.99859045872721,0.995656201948496,1.0266318233595,1.02487650903652,1.0248852419436,0.972566395630286,0.958488949418124,0,0.935792123918491,1.03298937971338,0.978225319417805,1.02247495958966,1.02097289957198,1.00096580945284,0.997472646621034,1.02802035558514,0.955476096475695,0,0.941704302011316,0.950288749670469,0.925137977281495,0.922439508993929,0.923592252728423,0.929399635936294,0.99558633869186,0.940350701413993,0.951537555382838,0,0.959720289316334,0.95979015257297,0.959929879086242,0.892494370618307,0.893393860047496,0.882460260383956,0.879377544184891,0.886241609149381,0.881045529437076,0,0.883141427136157,0.890354808383828,0.808142347846662,0.808979833635587,0.753233321293568,0.748015409313564,0.695682590348924,0.695203153750259,0.684445085519017,0,0.683833782023452,0.692803350884811,0.6480637946258,0.667187987839208,0.610659880313574,0.611927898421518,0.632420538174283,0.626790432980127,0.649411282188168,0,0.63809780106667,0.63734764434854,0.720062247042777,0.706270366892116,0.710551237942489,0.711917937900431,0.723914332355547,0.724382416175008,0.732538078096558,0,0.732847223007172,0.732744174703634,0.736596260016404,0.7356731917381,0.737059977382325,0.735522112445625,0.736050453323935,0.732570389852752,0.732484807363373,0,0.722774687981672,0.723107411741401,0.718698166956959,0.720122504101626,0.727293967395315,0.732648986016468,0.732545937712929,0.732560783654965,0.733485598514684,0,0.732280457337712,0.732447255862931,0.730992353543485,0.73704076498675,0.737521074876123,0.74244818105038,0.75446815435461,0.75726355791076,0.756047937245293,0,0.756464496912985,0.740318225013689,0.739466766573437,0.738410084816817,0.731435985223124,0.736834668379674,0.738610941679645,0.74481741874105,0.750954032545817,0,0.754610500740006,0.756781501439971
0.789294114496967,0,0.774823687466228,0.824990745475151,0.757657412020045,0.758695754671799,0.76705925978184,0.787289039031513,0.786930116550545,0.762881437035005,0.764111903642507,0,0.766061961793361,0.751084152861302,0.763112859072612,0.766525679159282,0.768170085562353,0.74294246359108,0.733508304073091,0.73098624050853,0.739766305286264,0,0.735412077816423,0.734744883715549,0.72378508533077,0.749114009024166,0.740162779267673,0.75509867024575,0.770210965946833,0.796931041737994,0.795842921515888,0,0.883778929352961,0.89807469824211,0.88962124418915,0.896266986476653,0.911994952126841,0.94956391838287,0.924430611808056,0.923356464237277,1.01008296444384,0,0.922229919224021,0.929434567564612,0.932770538068982,0.957213944984517,1.07835683199141,0.967300452661344,0.967588638594968,1.10769939977854,1.10493980114142,0,1.03414212344787,1.01797751244371,0.993403111921984,0.977544152665604,0.961833652829575,0.984879794612388,1.04057827596547,1.01101738550135,1.08780583745143,0,1.04133803888139,1.05007094596089,1.04341647076631,1.01694702940833,1.01710422173576,1.0044327735634,0.965029896820673,0.968392066046283,1.00220588225813,0,1.00016238200152,1.00062522607673,1.00160331166964,1.05885625048287,0.983037151218612,1.02947001816034,1.03044810375324,0.969946523506434,1.00751548976246,0,1.04300602413357,1.03568784800095,0.977090041497469,1.04633326173086,0.981080980032803,0.977771208249671,0.980679266307146,0.96209564004196,0.954995786586322,0,1.00484322019614,1.00564664764745,0.916169281710844,0.916649591600217,0.924334549830181,0.995988052417518,0.951904337480178,0.946734456489111,0.947642678825379,0,0.948140454528911,0.994809109961785,0.908851105578219,0.910728680600313,0.89913137999873,0.876871199853073,0.897795245215566,0.864475711544424,0.896729830551867,0,0.920666728856789,0.892354644105035,0.866334074170942,0.807931011495338,0.80525874192901,0.748387431155151,0.739869353589802,0.706507901964678,0.708410802417302,0,0.705503617650535,0.68528344459865,0.682708983591612,0.670772846195344,0.662131634640175,0.628150146612406,0.639584141851601,0.64563953962053,0.652292268233697,0,0.661097658441961,0.662124648314511,0.687593298521179,0.690162519783969,0.694024211294526,0.700049043888676,0.723334467325468,0.73126744011649,0.730745212273135,0,0.732341587687269,0.732756400773545,0.738709623529644,0.738005751219036,0.738374279897791,0.736218125139861,0.733889058821757,0.733306573919554,0.73211103894037,0,0.723535324188296,0.72393878449537,0.724601612142704,0.719783667306941,0.726536824351522,0.728401300012996,0.730670109272252,0.730404628897035,0.731435111932416,0,0.732449875735055,0.732855955914252,0.732652479179299,0.738195255302661,0.740009080103074,0.74174954848402,0.755413054900613,0.756259273596617,0.759863344348328,0,0.760127951432837,0.739434454817243,0.738205734791156,0.739313940699546,0.741995816463662,0.760440589506283,0.742415869294186,0.750651873960867,0.756542219785993,0,0.757635579752347,0.757758713742168
0.772733902802102,0,0.772554004916265,0.761313880214234,0.756495935378471,0.759815313359391,0.760026649710715,0.794215107636268,0.792231864438513,0.769265192110123,0.76313905779385,0,0.772000338607424,0.770619665998154,0.763180102457124,0.762851745150935,0.768586645230045,0.763573083275702,0.736854754065957,0.736540369411095,0.733062925812036,0,0.751342646910855,0.731819359843915,0.754905672999293,0.738756781227873,0.747626794948526,0.770521857438864,0.790955986714197,0.811291434139532,0.913400950166641,0,0.913348552724164,0.899035318020856,0.972278209696662,0.955292705427026,0.959161383263246,0.948673161860761,0.955249040891628,1.00768141499697,1.01056327433321,0,0.923382662958515,0.939966453502495,0.937713363475982,1.06853231152696,1.08042653096925,0.968199942090534,0.967614837316207,1.10996995561921,1.06795593965972,0,1.03746936104517,1.01079906282436,0.995891990439643,0.989464570829127,0.977159904754105,1.05046392677947,1.02563627195244,1.02536555183297,1.0135935930898,0,1.06586004196064,1.02541794927545,1.02529568857634,1.01307835157211,1.03480582438592,0.96156293271011,0.962357627254345,0.994878973218421,1.00500041252357,0,1.05133721748742,1.00006632002365,1.0008522816608,0.984722602284956,0.978976349426642,0.979264535360266,0.991455673643255,1.00383893588199,1.00453756844835,0,1.02191605353657,0.998337204421904,1.00988210758101,0.967675967665763,1.02277187843036,0.981412830501824,0.94833257848466,0.994852774497182,0.947092505679371,0,0.951048512586386,1.01557596299685,0.919382991516102,0.913959856219729,0.924046363896557,0.927469663471723,0.950437209090821,0.951109642935943,0.951397828869566,0,0.970164846183422,0.931347074215023,0.922256117945259,0.94674318939619,0.904117869941128,0.874041737959313,0.863958723445317,0.864296686949294,0.914536228086977,0,0.913654204471947,0.916230412060401,0.881840223981311,0.823363804886239,0.778998017050231,0.781107887400639,0.747830271683479,0.712306552265469,0.708049260064211,0,0.708716454165085,0.708196846193854,0.684089656200881,0.674180426537767,0.661703722193279,0.647058637020949,0.642195281068373,0.642554203549341,0.648019256799695,0,0.662794462287509,0.674287841294845,0.678284892865134,0.676933912139935,0.671977987372316,0.673881761115648,0.733126676033717,0.733066418974868,0.735434783374829,0,0.734316971268653,0.73394320284565,0.736894052147815,0.741326002490663,0.739551475772108,0.744372913770703,0.738447636317259,0.732005370764708,0.724653136294473,0,0.724376303140053,0.723760633190948,0.727230217173635,0.729202107592187,0.72823799465061,0.729148836859002,0.737026792335423,0.73676393183233,0.73465056831909,0,0.734545773434136,0.735164063255365,0.741739942286232,0.73927813578052,0.741435163829157,0.741315523002168,0.747532479552067,0.758518476658084,0.759762042626206,0,0.755710847032024,0.741739942286232,0.748068680046749,0.748514931598512,0.760306102737259,0.761113896642113,0.761582853752283,0.754888207185134,0.756701158694839,0,0.757243472224477,0.758233783887293
0.781059856411702,0,0.783416868032461,0.728989024659447,0.729575002724482,0.743593938459211,0.742629825517634,0.79386928451592,0.77213395208574,0.762799347708458,0.762180184596521,0,0.771775029604773,0.785765146746139,0.760879854732383,0.754602641123635,0.74897166263877,0.723228799149806,0.724114315927668,0.740842199438459,0.740676274203948,0,0.751733881148017,0.753676079682499,0.746440866167129,0.747698404786578,0.782282463402833,0.78663843745409,0.793841339213265,0.835551450006396,0.912082281197636,0,0.975806304156782,0.97407718855504,0.937687164754744,0.955659487524365,0.971675639108176,0.940176043272403,0.955816679851796,1.00922713955005,0.926692434741647,0,0.926884558697396,0.940682551883014,0.959467035011029,1.08552654870368,1.0784004965268,1.07816470803566,0.974033524019642,0.974461436466538,1.05876892141208,0,1.03988837630619,1.02841333640372,1.02971453955856,0.969588474316175,0.976330278581552,0.977107507311628,1.05229783726616,1.03375787553638,1.02900717408512,0,1.02864039198779,1.00672079521823,1.00665966486867,1.05398328833251,1.00383020297491,1.0295311485099,1.01714788627116,1.0117596826031,0.998188745001553,0,1.01863248047467,1.00716617347928,1.00396992948818,1.03179297144349,1.0328933177355,1.01855388431096,1.0187896728021,0.977893468948784,1.01677237126674,0,0.997900559067929,0.999070768616583,0.957755385223446,0.963161054705659,0.956157263227896,0.995333084386555,0.947686343360777,0.944717154953745,0.945878631595319,0,0.932779270976062,0.929984740710621,0.917225963467464,0.916448734737388,0.991027761196359,0.928814531161967,0.986573978585812,0.966942403471085,0.972051154112595,0,0.974531299723175,0.93775702801138,0.938796243953841,0.941686836197157,0.941896425967065,0.895105509835079,0.891952930379377,0.892843686901487,0.979884571762911,0,0.917933328940904,0.919155935932035,0.877989011959249,0.84765089276505,0.792078165273913,0.769442470123837,0.754657658438235,0.730175826731552,0.732382632350543,0,0.720668310794095,0.719292004638365,0.69747370959093,0.681735264452247,0.672355248958151,0.669715291148017,0.651546477969107,0.651629440586362,0.6483493606873,0,0.659357190061016,0.687048365119417,0.677501551100103,0.670247998479866,0.66957731121616,0.66884025385865,0.73549853359651,0.735415570979255,0.736275762326586,0,0.736866980135868,0.737335937246038,0.737211056674801,0.74028765983891,0.745364098724227,0.746120368477312,0.74593348426581,0.728244980976273,0.725425998571009,0,0.724494197385626,0.7257325236095,0.726735934632935,0.735412077816423,0.734344916571307,0.736384050374372,0.737903576206206,0.738097446743371,0.735343087850495,0,0.733732739785034,0.735867935565973,0.738685171389821,0.739720020878743,0.741456122806148,0.74139149929376,0.746578846098986,0.757260938038636,0.757144790374478,0,0.757086279897046,0.755949255395294,0.749793429194951,0.750007385418399,0.761408195610693,0.760507832890796,0.758424161261626,0.755234903596191,0.755426154261232,0,0.75697362539572,0.757779672719158
0.781537546428951,0,0.771695560150349,0.725411152628974,0.728255460464769,0.733221864720883,0.741873555764548,0.73987459333405,0.745102984802549,0.769853790047282,0.748963803022398,0,0.769261698947291,0.768421593286243,0.762466623948729,0.757947344535085,0.755185999316546,0.726939411367887,0.732826264030181,0.750623055367504,0.746143074035718,0,0.753608836297987,0.741898007904371,0.751974909383412,0.76378267304561,0.804937370948484,0.802389981953392,0.806042956984749,0.841750067451428,0.97442650483822,0,0.974828218563878,0.94956391838287,0.943992323666146,0.935652397405219,0.96455831983838,0.979884571762911,0.945433253334265,1.00508774159436,0.963484172267601,0,0.953493726568647,0.959108985820769,0.934211467737101,0.933233382144196,1.15237695239729,1.08579726882314,0.975614180201033,1.05133721748742,1.01993368362952,0,1.02368010076663,1.0111221803863,1.01404770425793,0.975325994267409,0.976225483696598,0.986259593930949,1.04380071867781,1.04302348994773,1.02540048346129,0,1.03102447562049,1.01898179675785,1.00846737663413,1.05292660657589,1.01268537075353,0.993874688904278,0.985962675090246,1.05830607733686,0.999795599904182,0,1.00127146120062,1.00934940024916,1.02767977220904,1.04775672558482,1.02577599846571,1.01466774066058,0.980696732121305,0.982818828541625,0.999594743041353,0,1.03615069207616,1.00794340220936,0.961632795966746,1.01277269982433,0.958462750696886,0.947057574051053,0.975002876705468,1.00846737663413,1.00773381243945,0,0.955406233219059,1.01284256308096,1.01134050306329,0.920596865600153,0.990372793165396,0.963920817621576,0.952227455042119,0.986303258466347,0.960008475249958,0,0.970741218050669,0.946280345320976,0.935032361002574,0.941704302011316,0.943477082148455,0.894564069596149,1.00431051286429,0.9694924123383,0.910964469091459,0,0.911645635843661,0.897140277184603,0.880530287919385,0.86411504248204,0.80487536730822,0.784739903455005,0.771384668658319,0.756932580732446,0.747005885255173,0,0.750878929544934,0.749410054574161,0.71310299339112,0.677642150904083,0.667637732553802,0.673343814039551,0.678497975797874,0.677436927587715,0.657570437272549,0,0.664361145817572,0.669844538172793,0.673372632632913,0.679432396855381,0.67088113424313,0.673781332684234,0.735445262863325,0.736315933699152,0.737592684714175,0,0.738313149548234,0.738066008277884,0.737745510588067,0.746899343788803,0.747102820523756,0.74825993071179,0.737697479599129,0.729581115759438,0.730017761113413,0,0.729621287132003,0.732964243962038,0.735712489819958,0.736447800596052,0.734329197338564,0.735071494440322,0.735960504381016,0.735706376785002,0.735556170783235,0,0.733267275837696,0.735963997543848,0.735695897296507,0.739467639864145,0.741759154681807,0.742207152814986,0.850766794011017,0.755965847918745,0.757130817723151,0,0.757761333614291,0.753927587406389,0.751176721676345,0.754108358582935,0.756241807782458,0.755931789581135,0.75640685972626,0.756211242607679,0.756156225293078,0,0.757959570604996,0.758192739224019
0.775781687372849,0,0.775232387517549,0.727810955494422,0.71782836941184,0.72040195712817,0.741810678833576,0.742532016958343,0.749258975281686,0.758680908729763,0.75930443829524,0,0.763554744170835,0.761074598560255,0.759888669778859,0.741514633283581,0.717592580920693,0.717767239062283,0.717865047621574,0.742708421681349,0.741510266830041,0,0.758193612514727,0.773353939204747,0.775754615360903,0.799626016862729,0.811344704872717,0.83497857130198,0.847533871810184,0.942027419573258,0.932010775153066,0,0.984818664262831,0.933146053073401,0.996014251138756,0.998511862563494,0.966278702533042,0.973937462041768,0.958427819068568,0.9744352377453,0.9744352377453,0,0.947057574051053,0.953554856918204,0.952908621794321,0.952760162373969,0.95910025291369,0.977421891966491,0.979212137917789,1.05185245900511,1.0555639445139,0,1.01224872539956,1.01356739436856,0.973684207736462,0.983264206802679,1.08031300317722,0.982783896913306,1.05371256821304,1.0424820497088,1.03906748304071,0,1.02515596206306,1.01351499692608,1.01370712088183,1.05296153820421,1.01587288183755,1.00402232693066,0.983141946103566,1.01659771312515,1.05852440001385,0,1.02041399351889,1.02912943478424,1.03165324493022,1.03219468516914,1.03706764731951,0.997306721386523,0.997062199988297,0.989158919081345,0.9860674699752,0,1.01027508839959,0.961624063059666,0.961073889913657,0.962191702019834,0.996634287541401,0.97425184669663,0.964086742856087,0.975963496484213,0.954480545068632,0,0.955703152059762,0.999393886178525,0.999882928974977,0.953153143192547,1.00394373076695,1.00283465156785,0.996153977652028,0.995804661368848,0.961117554449055,0,0.977124973125787,0.948908950351907,0.904659310180057,0.93476164088311,0.920195151874496,0.920055425361224,0.895926403100552,0.906239966361447,0.916474933458627,0,0.894756193551899,0.926596372763773,0.890407205826305,0.845698214742073,0.8294777131326,0.806465629687397,0.783731252687323,0.774653395778178,0.774412367542783,0,0.763951218152244,0.757562223332879,0.715590998618071,0.715130774414981,0.690714439511394,0.681181598143406,0.666808106381249,0.675955826547031,0.67071520900862,0,0.689605360312296,0.68471231247565,0.667156549373722,0.672401533365672,0.671247043049762,0.705824115340353,0.735273224593859,0.737385714816391,0.738107052941158,0,0.737796161449128,0.742961675986655,0.744618308459637,0.746832100404291,0.747782240694541,0.743324964921162,0.741160077256153,0.730527762886856,0.730257042767391,0,0.732692650551865,0.734282039640335,0.737145559871704,0.736701928192066,0.736800610042064,0.733195665999645,0.735563157108898,0.734592057841657,0.739540996283613,0,0.739544489446445,0.741616808296411,0.736383177083664,0.738796952600439,0.740742644297752,0.741655233087561,0.744648873634415,0.762172324980149,0.754757213578942,0,0.755749271823174,0.753514520901528,0.75220982458385,0.752217684200222,0.753724983962144,0.754739747764783,0.755628757705476,0.757175355549257,0.757439089343058,0,0.75658588432139,0.755739665625386
0.774649029324638,0,0.736295848012869,0.723012223054234,0.711706601549107,0.712898643365459,0.75440003767939,0.759347229539929,0.757678370997036,0.748385684573735,0.754480380424521,0,0.750802079962634,0.766342288110613,0.741034323394208,0.741250026199072,0.718450152395901,0.717948883529537,0.745282882688387,0.730093737405004,0.765948434001327,0,0.792461539894703,0.777437446555124,0.778018184875911,0.82550686028355,0.824523534946397,0.838844629266077,0.863081939574535,0.950052961179323,0.982687834935432,0,0.956524045325236,0.960541182581808,0.962759340980002,0.966531956838348,0.959257445241121,0.959737755130493,0.981299302709791,0.981063514218644,1.02005594432863,0,0.962829204236638,0.957816515573002,0.960934163400386,0.961510535267633,0.970749950957749,0.971448583524109,0.977622748829319,1.02739158627542,1.00161204457672,0,1.00576017543948,1.00679939138194,0.992145573302535,0.973352357267441,0.963379377382647,0.973963660763007,1.09733343907517,1.007244769643,1.02774963546568,0,1.03462243333725,1.01484239880217,1.02268454935956,1.21018879726361,1.02562753904536,1.05611411765991,0.991429474922016,1.03804573291241,1.05137214911574,0,1.01117457782878,0.998110148837837,1.01438828763403,1.01208280016504,1.01246704807654,1.01038861619162,0.991726393762719,0.988731006634449,0.981744680970845,0,0.97531726136033,1.00993450502349,0.957720453595128,1.01190814202345,1.00008378583781,0.987814051391101,0.977395693245252,0.978164189068249,0.947144903121847,0,0.947817336966969,1.02072837817375,1.00410965600146,0.92540869740096,1.05648089975725,1.05578226719089,0.960401456068536,1.00163824329796,1.00190023051034,0,0.977369494524013,0.945433253334265,0.94481321693162,0.937818158360936,0.913916191684332,0.902441151781863,0.915147531582542,0.923007147954096,0.924928387511587,0,0.890660460131611,0.891839402587344,0.877875484167216,0.845824841894725,0.835691176519668,0.82161198372609,0.789076665110688,0.787499502092129,0.773530343927753,0,0.773022962026434,0.769111492945524,0.748105358256483,0.714107277705263,0.703928201213392,0.703136999831989,0.69129954428572,0.687697220115425,0.689472620124688,0,0.677953042396113,0.669747602904211,0.670204333944469,0.654467635387201,0.672426858796203,0.733150254882831,0.735044422428376,0.735660092377481,0.738695650878317,0,0.740948740904829,0.741583623249509,0.745625212645904,0.74737790709676,0.745577181656966,0.745981515254747,0.740050124766348,0.73531950900138,0.736782270937197,0,0.735292436989434,0.736666996563748,0.738461608968586,0.737693986436297,0.735598962027924,0.735056648498287,0.735645246435446,0.736329906350479,0.739003049207515,0,0.741914600427822,0.742771298612321,0.744858463404323,0.739453667212818,0.739790757426087,0.739741853146441,0.808487297676303,0.763383579192077,0.764510997496041,0,0.756843505080236,0.754303102410807,0.752012460883853,0.752307633143141,0.754812230893543,0.755254989282474,0.756849618115191,0.757347393818723,0.754694336647969,0,0.754062947466121,0.756378914423606
0.770549802741518,0,0.749517469331239,0.718523508815369,0.724112569346252,0.734096902010249,0.750583757285646,0.750351461957332,0.745240091443698,0.73922661162875,0.757924638976678,0,0.74794903921976,0.748252944386127,0.738774247042032,0.732839363390801,0.752078830977658,0.735951771473936,0.742031621382687,0.765076889874792,0.768539487531816,0,0.781740149873196,0.819914306589835,0.814001255206302,0.833901803859078,0.872002604156249,0.912073548290556,0.955476096475695,0.939573472683917,0.941424848984772,0,0.943433417613058,0.95873347081635,0.979771043970877,0.962235366555232,0.961720125037541,0.962244099462311,1.08424281136299,1.08335205484088,0.997332920107761,0,0.996459629399811,0.964104208670246,0.976697060678891,0.973588145758588,0.983150679010646,0.985953942183167,1.01846655524016,1.01846655524016,1.00146358515637,0,1.00876429547483,0.988320560001713,0.988661143377813,0.994678116355592,0.99489643903258,0.971693104922335,0.973614344479827,1.00558551729789,1.0189206664083,0,1.01714788627116,1.01873727535963,1.01923505106316,1.02829980861169,1.02230903435514,1.02375869693034,1.03162704620898,1.03077995422226,1.00108807015195,0,0.999891661882056,0.999856730253738,1.00206615574485,1.04656905022201,1.03733836743897,1.0090350155943,1.00991703920933,0.987386138944205,0.992564752842352,0,0.99470431507683,1.03585377323546,0.958130900227865,1.01812597186406,1.01671997382426,0.97796333220542,0.974129585997517,0.973623077386906,0.950000563736845,0,0.951563754104077,1.0647247640403,0.927251340794736,0.924762462277077,1.05802662431032,1.10407524334055,0.980687999214225,0.989543166992843,0.982853760169942,0,0.982967287961976,0.955973872179227,0.915042736697588,0.904048006684492,0.904353658432274,0.891874334215662,0.891525017932482,0.898310486733257,0.90336683993229,0,0.905715991936677,0.90513962006943,0.85925343311088,0.844431943215544,0.834118379954649,0.833607504890498,0.813672897900113,0.808314386116129,0.801354259173763,0,0.802378629174189,0.799398961278662,0.784903208817392,0.727624944573628,0.729885020925804,0.695325414449372,0.693902823886121,0.720778345423297,0.685983823746426,0,0.650955260159824,0.671105569955074,0.667016822860449,0.678707565567783,0.69175976848881,0.71737251166229,0.732374772734171,0.731826346169578,0.740541787434924,0,0.740600297912357,0.741896261322955,0.74603565927864,0.747444277190565,0.744436663992383,0.74407599493,0.743245495466739,0.738465975422126,0.737729791355323,0,0.73828957069912,0.740643962447754,0.738716609855307,0.737962959974346,0.735842610135442,0.735279337628814,0.736764805123038,0.736673109598703,0.739422228747331,0,0.742660390692412,0.742863867427364,0.742193180163658,0.741810678833576,0.742562582133121,0.759657247741252,0.762124293991212,0.764382623761972,0.768253048179608,0,0.767867053686694,0.755307386724951,0.75585319341742,0.754503959273636,0.756688932624928,0.756888916197049,0.757632086589515,0.75485589542894,0.752638610321454,0,0.753683939298871,0.753983478011698
0.772178489911846,0,0.745254937385733,0.760788159208048,0.748369965340992,0.748292242467984,0.745571941912719,0.746127354802975,0.743966833591506,0.750760162008652,0.749238889595403,0,0.748794384625056,0.762656128032354,0.73651679056198,0.739012655405303,0.743542414307442,0.738552431202213,0.745311701281749,0.757218146793946,0.78602888053994,0,0.786944089201872,0.782278096949293,0.814575007201425,0.842297620725313,0.874303725171698,0.930133200130972,0.915584176936517,0.950542003975775,0.944856881467017,0,0.952576771325299,0.981177042010677,0.98308081575401,0.969902858971037,1.00455503426251,1.01081652863852,1.01173348388186,1.04777419139898,0.999184296408616,0,1.0008959461962,0.976758191028448,0.967850625807353,0.967981619413546,0.975151336125819,0.999315290014809,1.01003929990844,1.03208989028419,1.04942471083701,0,1.07196434400921,1.00505280996604,0.993865955997198,0.964104208670246,0.97990203757707,0.979998099554944,1.019217585249,1.02657069300994,0.999341488736047,0,0.999131898966139,0.995830860090086,1.01346259948361,1.01712168754992,1.03525993555405,1.03569658090803,1.01734001022691,1.02818628081965,1.00602216265187,0,1.02319979087725,0.998494396749335,1.00395246367403,1.00530606427135,1.00569031218285,1.00438037612092,1.02652702847455,0.986119867417677,0.984434416351333,0,1.04660398185033,0.955537226825252,0.955659487524365,1.01598640962958,1.01607373870038,0.973160233311692,0.964715512165811,0.965178356241025,0.94093580618832,0,0.941669370382998,1.06465490078366,0.926177193223957,0.925347567051404,0.948131721621832,1.10999615434045,0.96508229426315,0.991604133063606,0.985683222063702,0,0.986058737068121,0.933495369356582,0.956174729042055,0.925120511467337,0.928648605927456,0.890389740012146,0.889752237795342,0.898057232427951,0.911182791768447,0,0.889813368144899,0.890415938733385,0.881255119206984,0.913828862613537,0.850837530558361,0.838053427884674,0.834709597763932,0.864104562993545,0.881062995251235,0,0.820480198968587,0.799886257493699,0.7985134445008,0.763264811655795,0.720219439370208,0.70883347511995,0.705999646772651,0.709364435870384,0.702636604256334,0,0.668641143577237,0.665660602391002,0.688616795230897,0.677263142736833,0.706362935707158,0.721456892303374,0.751742614055097,0.733770291285476,0.739816956147325,0,0.741577510214553,0.74364982906452,0.745267163455644,0.742531143667635,0.74262720564551,0.74343674613178,0.742846401613205,0.741434290538449,0.739809969821661,0,0.739204779361052,0.73927813578052,0.740329577792892,0.741040436429164,0.738078234347796,0.738348081176552,0.738310529676111,0.737637222540281,0.738552431202213,0,0.742508438109229,0.744048049627345,0.744043683173805,0.895681881702326,0.759103581432411,0.759590877647448,0.761212578492112,0.766625234299989,0.767091571538034,0,0.767331726482721,0.75468123728735,0.754568582786025,0.754793018497968,0.754694336647969,0.755726566264767,0.75193735788297,0.749102656244963,0.748471267063114,0,0.748391797608691,0.750162831164414
0.774427213484818,0,0.773397603740145,0.760758467323977,0.71525478169551,0.723170288672373,0.729170669126701,0.729650105725366,0.739815209565909,0.757439962633766,0.756944806802358,0,0.778611149266609,0.769844183849494,0.733756318634149,0.736982254509318,0.759879936871779,0.756493315506347,0.75094442634803,0.735888021252256,0.772725169895023,0,0.785103192389513,0.809692438853274,0.812835412111188,0.850107459526514,0.907401443003022,0.9349362990247,0.920963647697492,0.950847655723558,0.945249862285595,0,0.950594401418252,0.993254652501633,0.995359283107793,0.988626211749495,0.973483350873634,1.0125281784261,1.06179050726159,1.04658651603617,1.01645798661188,0,0.993499173899859,0.968540525466634,0.968863643028576,0.971553378409063,1.03479709147884,0.999865463160818,1.00917474210757,1.01052834270489,1.03788854058498,0,1.00161204457672,1.0033236943643,1.02009960886403,0.976810588470925,0.969370151639187,0.969029568263086,1.00126272829354,0.995516475435224,1.03124279829748,0,0.999507413970558,0.998861178846675,0.995333084386555,1.06165951365539,1.04940724502285,1.00976857978898,1.04042981654512,1.21329771218391,1.01593401218711,0,1.01569822369596,0.993385646107825,1.00385640169615,1.00383893588199,1.0234792439038,1.02233523307638,1.01942717501891,1.01799497825787,0.988521416864541,0,0.982958555054897,1.05490024357586,0.996136511837869,1.02852686419575,0.967117061612675,0.969466213617062,0.965204554962263,0.965283151125979,0.946900381723621,0,0.941739233639634,1.0640435972881,0.925653218799186,0.925688150427504,0.944184447621895,0.944673490418348,0.956908293236734,0.956820964165939,0.979771043970877,0,0.948961347794384,0.949659980360745,0.948044392551036,0.912108479918874,0.919321861166545,0.919295662445307,0.898537542317324,0.894974516228886,0.946961512073178,0,0.929190046166386,0.882006149215822,0.853286237703454,0.880408027220272,0.856433577414908,0.860639345464397,0.86041665633387,0.878058875215885,0.87276062049075,0,0.860575595242717,0.878373259870748,0.835561929494891,0.782627413232473,0.738535838678762,0.709462244429674,0.713051469239351,0.691283825052977,0.693966574107801,0,0.652034647474851,0.652579580876612,0.682979703711076,0.688183643039753,0.70946399101109,0.689049074131332,0.714812896597287,0.717437135174678,0.733027994183718,0,0.739058066522116,0.739286868687599,0.741192389012347,0.741998436335785,0.742815836438427,0.741575763633137,0.741483194818095,0.74198795684729,0.741593229447296,0,0.739336646257952,0.741642133726941,0.740093789301745,0.744155464384423,0.740703346215895,0.738109672813282,0.738635393819468,0.741985336975166,0.743890857299914,0,0.74459123644769,0.747242547037028,0.752101536536064,0.762782755185007,0.762757429754476,0.763628973881011,0.765317044819479,0.76632656887787,0.767647857718999,0,0.768460891368101,0.759455517587715,0.758498390971802,0.757945597953669,0.752389722469688,0.753218475351533,0.745115210872461,0.745497712202543,0.745837422287936,0,0.747406725690123,0.747321143200743
0.779032948678549,0,0.758861679906309,0.76875519033668,0.715330757987102,0.715394508208782,0.72402786014758,0.729342707396167,0.729832623483327,0.772550511753433,0.762643028671735,0,0.790611036884557,0.770907851931778,0.750829151974581,0.735370159862441,0.735544818004031,0.735751787901816,0.735675811610224,0.736308947373488,0.779307161960845,0,0.787734417292568,0.800366567383071,0.81958420270223,0.864154340563898,0.907645964401247,0.900712036180121,0.947799871152811,0.953528658196965,0.954637737396063,0,0.94850723662625,1.00251153400591,1.00066889061213,1.00067762351921,1.06466363369074,1.01615233486409,1.01673743963842,1.01594274509419,1.01623093102781,0,1.06952786293403,1.03166197783729,0.971736769457733,0.970846012935623,0.994730513798069,0.995708599390973,1.06069016096957,1.01340146913405,1.04716288790342,0,1.01303468703671,1.09420705834071,1.08901971153548,1.17068112563593,0.986119867417677,0.970103715833865,0.995394214736111,1.00406599146606,0.996616821727242,0,1.01210899888628,1.00211855318733,1.00066889061213,1.03393253367797,1.03440411066026,1.0188333373375,1.01885953605874,1.03477962566468,1.04675244127068,0,0.992521088306954,1.03210735609835,1.00461616461207,1.00459869879791,1.0382640555894,1.03907621594779,1.02203831423568,1.01967169641713,1.02089430340827,0,1.05626257708026,1.05705727162449,1.04903173001843,1.01865867919591,1.02934775746123,1.02903337280636,0.989132720360106,0.950917518980193,0.986451717886698,0,0.949520253847473,0.943319889821024,0.98342139913011,0.97549191950192,0.939145560237021,0.964994965192355,0.967422713360458,0.959257445241121,0.967518775338332,0,0.968985903727689,0.983220542267282,0.910213439082622,0.910335699781735,0.930989025024764,0.95027128385631,0.907907951613632,0.968654053258668,0.900336521175702,0,0.899803813843852,0.900921625950029,0.885796230888327,0.862694198500205,0.877779422189341,0.878757507782246,0.860114497748919,0.872055874889434,0.873299440857555,0,0.861675068244027,0.86146897163695,0.823658977145526,0.800089734228651,0.766738762092022,0.721071771101168,0.723421796396263,0.714502878395965,0.706707012246091,0,0.670074213628984,0.693423387287456,0.688573130695499,0.67864032218327,0.692332647193226,0.6793904789014,0.685084334317237,0.691882029187924,0.72889820242582,0,0.737677393912846,0.741609821970747,0.741799326054373,0.742125063488438,0.741373160188893,0.744077741511415,0.744502160795479,0.741988830137998,0.741360060828274,0,0.741347834758362,0.739968908730508,0.747029464104288,0.743690873727793,0.744795586473351,0.740143566872098,0.741657852959685,0.74416507058221,0.744337982142385,0,0.745171974768477,0.74756129814543,0.762932087896066,0.763185342201372,0.763609761485436,0.771695560150349,0.765869837837612,0.764119763258879,0.766013930804423,0,0.767926437454835,0.765307438621691,0.759495688960281,0.75948346289037,0.753745942939135,0.749957607848046,0.745793757752538,0.746310745851645,0.744685551844149,0,0.746033912697224,0.746903710242343
0.774241202564025,0,0.768555206764559,0.700104061203277,0.71638831303443,0.715337744312765,0.714081078984025,0.728930514182014,0.768754317045972,0.769087914096409,0.799207710613621,0,0.774140774132611,0.772678012196794,0.761107783607158,0.761203845585032,0.751862254882086,0.753408852725866,0.754316201771427,0.782025715934695,0.784318977333773,0,0.793256234438939,0.804127830462214,0.859380933554241,0.868333036601441,0.898904324414663,0.953354000055375,0.953773179595192,0.955362568683661,0.946533599626282,0,0.977675146271796,0.978461107908952,1.00446770519172,0.961676460502143,0.95855881267476,1.0110348513155,1.01067680212524,1.01784651883752,1.02208197877108,0,1.02781076581523,1.00470349368286,0.984713869377877,0.988748472448608,0.994241471001617,1.00249406819175,1.04420243240346,1.01589908055879,1.04694456522643,0,1.03679692720004,1.03164451202314,1.21034598959104,1.01655404858975,1.01074666538188,1.00185656597494,0.972985575170102,1.06884669618183,1.02461452182413,0,1.0124845138907,1.04483993462027,1.0883734764116,1.09246047692481,1.0580353572174,1.04471767392115,1.04629833010254,1.040307555846,1.05919683385897,0,1.01972409385961,1.03571404672218,1.00421445088641,1.00463363042623,1.02939142199662,1.08357037751787,1.08258355901789,0.994756712519307,0.977972065112499,0,1.01647545242604,0.966697882072859,0.967571172780809,0.978871554541688,0.982775164006227,0.992818007147657,0.995918189160882,0.956401784626123,1.06954532874819,0,0.981054781311564,0.943494547962614,0.943459616334296,0.942769716675016,0.94005378257329,0.946996443701496,0.944001056573226,0.982259922488536,0.968819978493178,0,0.970409367581648,0.96190351608621,0.962156770391516,0.91588109577722,0.913173894582574,0.903786019472106,0.905052290998635,0.910501625016246,0.900222993383668,0,0.889184598835174,0.90443225459599,0.862315190332954,0.860989535038285,0.887062502414855,0.887123632764411,0.896939420321775,0.882582521083069,0.875308009485841,0,0.87463557564072,0.856521779776411,0.810156156219196,0.793026558982748,0.78237328563646,0.744313530002562,0.736569188004457,0.731252594174455,0.723579862014402,0,0.712371175777857,0.693970940561341,0.67297353877938,0.683035594316385,0.671518636459934,0.678112854595668,0.692955303467994,0.737739397553111,0.731250847593039,0,0.731828966041702,0.740388961561033,0.741686671553047,0.741877922218088,0.741288450990222,0.744110926558318,0.744018357743275,0.741309409967212,0.740549647051295,0,0.74353892114461,0.747506280830829,0.747618062041447,0.745977148801208,0.743310992269835,0.743120614895502,0.74312148818621,0.742935477265416,0.742765185577366,0,0.745997234487491,0.748067806756041,0.762844758825271,0.765211376643817,0.772622994882193,0.773073612887495,0.772644827149891,0.761378503726622,0.765211376643817,0,0.76565762819558,0.765160725782756,0.759286099190373,0.759419712668689,0.749091303465759,0.742676109925155,0.745109971128213,0.74647492450474,0.744960638417153,0,0.744865449729987,0.747054789534819
0.753763408753294,0,0.756365815062987,0.700003632771863,0.727145507974964,0.749797795648491,0.74906947119806,0.762492822669967,0.769207554923398,0.758135975328002,0.803697298143194,0,0.768918495699067,0.75743821605235,0.769063461956586,0.758061745617826,0.760090399932395,0.761401209285029,0.763456935611544,0.78176809517585,0.793427399417697,0,0.815043091020887,0.820038313870364,0.868430845160731,0.886014553565314,0.92277135946295,0.95891686186502,0.952437044812027,0.953126944471308,0.955545959732331,0,0.987290076966331,0.95696942358629,0.962139304577357,0.959493233732267,0.959397171754393,1.01332287297033,0.996503293935208,1.00075621968293,0.995673667762655,0,1.03179297144349,1.01083399445268,0.977221035103662,1.09471356695132,0.97407718855504,1.01125317399249,1.04313701773976,1.01571568951012,1.05007094596089,0,1.04530277869548,1.0276972380232,1.02044892514721,1.02613404765597,1.01022269095711,0.981255638174393,0.981177042010677,0.977640214643478,0.977168637661185,0,0.987141617545979,1.07146656830568,1.02244002796134,1.04948584118656,1.03553065567352,1.0498526232839,1.04432469310258,1.05808775465988,1.05764237639882,0,1.05829734442978,1.05227163854493,1.0519397880759,1.00929700280668,1.08050512713296,1.08005974887191,0.996188909280346,1.10356000182286,0.972583861444445,0,0.964898903214481,0.964296332625995,1.01347133239069,1.0170867559216,0.9846614719354,1.01600387544374,1.01599514253666,0.958977992214576,0.962348894347265,0,1.03887535908497,0.942481530741392,0.943843864245795,0.948978813608544,0.941223992121943,0.950480873626218,1.0100567657226,0.996206375094505,1.02302513273566,0,0.970959540727657,0.97337855598868,0.99594438788212,0.938377064414025,0.95186940585186,0.94869062767492,0.939817994082143,0.944044721108623,0.894389411454559,0,0.882774645038818,0.895734279144803,0.901463066188958,0.901829848286297,0.955676953338524,0.889752237795342,0.89031114384843,0.874356122614175,0.870085731052297,0,0.902380021432306,0.818717025029235,0.810991895426705,0.810704582783789,0.793228289136284,0.742227238501268,0.741548691621191,0.72778213690106,0.726248638417898,0,0.711877766527865,0.700466476847077,0.672274032922311,0.659733578356143,0.671751805078957,0.664736660821991,0.738188268976997,0.738024963614611,0.732383505641251,0,0.732246399000102,0.739810843112369,0.739693822157504,0.740525194911473,0.742015902149944,0.743267327734437,0.744034076976018,0.741954771800388,0.743484777120717,0,0.746122988349435,0.746980559824643,0.750107813849814,0.750218721769723,0.742521537469848,0.743328458083994,0.744330995816721,0.742221998757021,0.74430567038619,0,0.747485321853838,0.763584436054905,0.766116979107962,0.774476991055171,0.774495330160038,0.772750495325553,0.75996464607045,0.759854611441249,0.760271171108941,0,0.761333965900517,0.756540473204577,0.753082242001093,0.752144327780754,0.750712131019715,0.744198255629113,0.744492554597692,0.744455876387958,0.745124817070248,0,0.744288204572031,0.744401732364065
0.753339862759938,0,0.770007489211881,0.701952817632008,0.726301909151084,0.739298221466802,0.74897166263877,0.780259922123219,0.782188148006374,0.783434333846619,0.780952441654624,0,0.764002742304014,0.769203188469859,0.760495606820884,0.753966885488247,0.76921104808623,0.76765135088183,0.806588763677218,0.81413836184745,0.805214204102904,0,0.834902595010389,0.83417339726925,0.863600674255057,0.91995063047627,0.942315605506881,0.953502459475727,0.953694583431476,0.986346923001744,0.93581832263973,0,0.954008968086338,0.953930371922623,1.00292198063864,1.00364681192624,1.00373414099704,1.00426684832889,1.01285129598804,0.992783075519339,0.993210987966235,0,1.00737576324919,1.00682559010318,1.00732336580671,0.957222677891596,0.95856754558184,1.02775836837276,1.04874354408481,1.05518842950948,1.06844498245617,0,1.02961847758069,1.05376496565552,1.05510110043869,1.02849193256743,1.05061238619982,1.05039406352283,1.05565127358469,1.05557267742098,0.978050661276215,0,0.979072411404517,0.988390423258348,1.03145238806739,1.07054088015525,1.04980022584143,1.05214937784581,1.05145074527945,1.05219304238121,1.05986926770409,0,1.04364352635038,1.00355074994837,1.00555931857665,1.00852850698369,1.00425811542181,0.997856894532532,0.994023148324629,1.10349013856622,0.980853924448736,0,0.965178356241025,0.964427326232187,0.976618464515176,0.992800541333498,0.984504279607969,0.990049675603454,0.995883257532563,1.02548781253208,0.989150186174265,0,0.976050825555008,0.960139468856151,0.949703644896142,0.971972557948879,0.952873690166003,1.00561171601913,0.947651411732459,0.95327540389166,0.967955420692307,0,0.976216750789519,0.987700523599068,0.959248712334041,0.959536898267665,0.951170773285499,0.94110173142283,0.942315605506881,0.907846821264076,0.897882574286361,0,0.905218216233145,0.911505909330389,0.898895591507584,0.908571652551675,0.908894770113617,0.874670507269037,0.867541835220038,0.877482503348638,0.898651070109358,0,0.84084184511516,0.819688124296476,0.807975549321444,0.790357782579251,0.790077456261999,0.746923795928626,0.7393418860022,0.73553695838766,0.72393441804183,0,0.72124555595205,0.705553395220888,0.687443092519411,0.66644132428391,0.670195601037389,0.667480540226371,0.714491525616761,0.717480799710076,0.718752310980852,0,0.738277344629208,0.739673736471221,0.740582832098198,0.742541623156131,0.743140700581785,0.74330051278134,0.743273440769393,0.745158875407858,0.747419825050742,0,0.745829562671564,0.748318441189223,0.75066322674007,0.750924340661747,0.742948576626036,0.742706675099933,0.741841244008354,0.743536301272486,0.745793757752538,0,0.748765566031694,0.762912002209783,0.774870845164457,0.775643707440993,0.771828300337958,0.770942783560096,0.763134691340311,0.762123420700504,0.760187335200978,0,0.759404866726654,0.750097334361318,0.752583593006853,0.752092803628985,0.751512938598906,0.742305834664984,0.742407136387106,0.743745891042394,0.744601715936186,0,0.735705503494294,0.735949151601812
0.778630361662184,0,0.747904501393654,0.75115750928077,0.728575084863879,0.756592870647054,0.763996629269058,0.780596139045781,0.780531515533392,0.793394214370795,0.753995704081609,0,0.751982768999783,0.742828935799046,0.766992016397328,0.744712623856095,0.766374599866807,0.78042584735773,0.814193379162051,0.820153588243813,0.82476107001896,0,0.825685011587971,0.88185768979547,0.913313621095846,0.920858852812538,0.935713527754776,0.952201256320881,0.951878138758939,0.980129093161137,0.979701180714241,0,0.951144574564261,0.995926922067961,1.03994077374867,1.00775127825361,0.972592594351524,1.03967878653628,1.03581010870006,1.00010125165196,1.00103567270947,0,1.04345140239463,0.980015565369103,0.992433759236159,0.969396350360426,0.95837542162609,0.959030389657053,1.02247495958966,1.06684686046062,1.03688425627084,0,1.04511938764681,1.04321561390348,1.03440411066026,1.0357489783505,1.05286547622633,1.05524955985904,1.01084272735976,1.0106942679394,1.0107815970102,0,1.01124444108541,1.02477171415157,1.02494637229316,1.07421743403572,1.07625220138525,1.05339818355818,1.03973991688584,1.04083153027077,1.04283136599198,0,1.02002101270031,1.00192642923158,1.00452883554127,1.0055418527625,0.999070768616583,0.999437550713922,0.991665263413163,0.991315947129983,0.997935490696247,0,0.997909291975009,0.974155784718756,0.97531726136033,1.0562014467307,1.00437164321384,1.00453756844835,1.00912234466509,0.97143985061703,0.984958390776103,0,0.991831188647673,0.999420084899763,0.950253818042151,0.950882587351876,0.951520089568679,0.950489606533298,0.949432924776678,0.96807768139142,0.959851282922527,0,0.958829532794225,0.970706286422351,0.963981947971133,0.975229932289535,0.957397336033186,0.971780433993131,0.920334878387768,0.904633111458818,0.902519747945578,0,0.944044721108623,0.902589611202214,0.890939913158155,0.889236996277651,0.907226784861431,0.867525242696587,0.868275399414716,0.869768726525312,0.86654366394085,0,0.868891942654529,0.826285835595041,0.82028720172213,0.832172688257336,0.832425942562641,0.74681550788084,0.76872549845261,0.754521425087795,0.719464042907831,0,0.720773978969757,0.695217999692294,0.674817928754571,0.663212768536617,0.662382269073356,0.675369848481996,0.674145494909449,0.714005102692433,0.725343909244462,0,0.72554476610729,0.739018768440258,0.742603626796395,0.74205170706897,0.742572188330909,0.742646418041085,0.747315030165788,0.747351708375522,0.748673870507359,0,0.749668548623714,0.750395126492729,0.750972371650684,0.751049221232984,0.741554804656146,0.742122443616314,0.741533845679156,0.741727716216321,0.742838541996834,0,0.746579719389694,0.878338328242429,0.77400890723571,0.775117113144099,0.771844892861409,0.771003913909652,0.768749077301724,0.764807916336744,0.761806416173518,0,0.752261348735619,0.75023706087459,0.750718244054671,0.753783494439577,0.751670130926337,0.743524948493283,0.743716199158324,0.742959929405239,0.742957309533115,0,0.738380392932746,0.738396985456198
0.778834711687844,0,0.757315082062529,0.746153553524214,0.742049087196846,0.741676192064552,0.762574911996514,0.78508310670323,0.772618628428653,0.797941439087093,0.751296362503334,0,0.757818970801016,0.768749077301724,0.764396596413299,0.743111008697714,0.794471855104406,0.806890922262169,0.819058481696043,0.831989297208666,0.852908102826912,0,0.893009612135997,0.904519583666785,0.916134350082526,0.995446612178588,0.996337368700698,0.953406397497852,1.10024149713265,0.962881601679115,0.983945373554881,0,0.959205047798643,0.96807768139142,0.995350550200714,1.00563791474037,1.04748600546536,1.05002728142549,1.00271239086874,1.00390006623155,0.981587488643414,0,0.98149142666554,0.985429967758396,0.980399813280602,0.972732320864796,0.958008639528751,0.990669712006099,1.00674699393947,1.03226454842578,1.03439537775318,0,1.04626339847423,1.04672624254944,1.02393335507193,1.04648172115121,1.04918018943878,1.01044974654118,1.01036241747038,1.01208280016504,0.995577605784781,0,1.07606881033658,1.00479082275366,0.997123330337853,1.06479462729694,1.05122368969539,1.05147694400069,1.06062903062001,1.03739949778853,1.07726521860647,0,1.0354520595098,1.05244629668652,1.05406188449622,1.0138468473951,1.0202393353773,0.991813722833514,0.992486156678636,1.10901806874755,0.996328635793618,0,1.00385640169615,0.971396186081632,1.00148105097053,1.0104410136341,1.00985590885977,1.02983680025768,1.01335780459865,0.995568872877701,0.984975856590262,0,0.98290615761242,0.994800377054705,0.99453838984232,0.949887035944812,1.12068523260577,0.940970737816638,0.965326815661377,0.953004683772195,0.959606761524301,0,0.959807618387129,0.964601984373777,1.0612752657439,0.957213944984517,1.00074748677585,0.940787346767968,0.922439508993929,0.913724067728583,0.920780256648823,0,0.965466542174648,0.896101061242142,0.928386618715071,0.888005656379441,0.881447243162733,0.900947824671267,0.871518801104044,0.927687986148711,0.853772660627783,0,0.84289145840672,0.834628381728092,0.830384188887453,0.805296293429452,0.80963480166655,0.765735351068587,0.770241531121612,0.748210153141437,0.730577540457209,0,0.703870564026668,0.705719320455399,0.66873807884582,0.655898958857532,0.675817846615174,0.678008933001422,0.678749483521764,0.718348850673779,0.716156017706115,0,0.716777800690176,0.740637849412798,0.741155710802613,0.74131464971146,0.743361643130896,0.748768185903817,0.748186574292322,0.748398783934354,0.751964429894916,0,0.753036830884279,0.751803744404653,0.753761662171878,0.754562469751069,0.739460653538481,0.741960011544636,0.740585451970321,0.743751130786642,0.746563126866242,0,0.766712563370784,0.770502645043289,0.774864732129501,0.769969937711439,0.770046787293739,0.768493203124295,0.768464384530932,0.767917704547756,0.753634161728517,0,0.75080382654405,0.751113844745372,0.755813895335562,0.755722199811227,0.749532315273274,0.747148231640569,0.745747473345017,0.747304550677292,0.738297430315491,0,0.737622376598245,0.736818949146931
0.768254794761024,0,0.757649552403674,0.769328942331803,0.737042511568166,0.735505519922174,0.767602446602185,0.770275589459222,0.780328912089148,0.780335025124103,0.764150328433657,0,0.763437723215969,0.763503220019066,0.757625100263851,0.746633863413586,0.781163778005948,0.805020333565739,0.830052338418432,0.828854183567124,0.934953764838859,0,0.935329279843278,0.957013088121688,0.991752592483958,0.991813722833514,0.993289584129951,0.993018864010486,0.955589624267729,0.955982605086306,0.982530642608001,0,0.959921146179163,0.991412009107857,0.979299466988584,0.99770843511218,0.997979155231645,1.03447397391689,0.997952956510406,1.00813552616511,0.999804332811261,0,0.983010952497373,1.03387140332841,0.971867763063926,0.968592922909111,1.00979477851021,0.985054452753978,0.968994636634768,1.01549736683313,1.07162376063311,0,1.03116420213376,1.14617658837084,1.03190649923552,1.0583759405935,1.04938104630161,1.01528777706322,1.00503534415188,1.00445897228464,1.01907785873573,0,1.0530052027396,1.02340938064716,0.997664770576782,1.02505990008519,1.03308544169125,1.0760164128941,1.0530052027396,1.04097125678405,1.03364434774434,0,1.0523677005228,1.02841333640372,1.03224708261162,1.01928744850564,1.02138334620472,1.02128728422684,1.01247578098362,1.00654613707664,1.01049341107658,0,1.00452883554127,1.01008296444384,1.00859837024032,1.00771634662529,1.00804819709431,1.01118331073586,0.98343013203719,0.980469676537238,0.986835965798197,0,0.965562604152523,0.964933834842799,0.955336369962423,0.953755713781033,0.946830518466985,0.948253982320945,0.963781091108304,1.02809021884178,0.959807618387129,0,0.978338847209839,0.97072375223651,0.961510535267633,0.969029568263086,1.00751548976246,0.993079994360042,0.916125617175447,0.917383155794895,0.920850119905459,0,0.963545302617157,0.933180984701719,0.941258923750261,0.953118211564229,0.925836609847856,0.882800843760057,0.925653218799186,0.878757507782246,0.851724793917639,0,0.844119305142098,0.835518264959494,0.816098026196091,0.805630763770597,0.806978251332964,0.783616851604581,0.759594370810279,0.76652655244999,0.747932446696309,0,0.706921841760247,0.698829056769669,0.681540520624374,0.675703445532433,0.681024405815975,0.682886261605326,0.717431895430431,0.723591214793605,0.71648612159372,0,0.733151128173539,0.735555297492527,0.741277971501726,0.743097036046387,0.748696576065765,0.749443239621063,0.751265797328556,0.751098998803337,0.75229104061969,0,0.754128444269217,0.760239732643455,0.761634377904052,0.831674912553804,0.757333421167396,0.799556153606093,0.744701271076892,0.802044158833044,0.763874368569945,0,0.765491702961069,0.765942320966371,0.768482723635799,0.769244233133132,0.770177780899931,0.768799728162786,0.768762176662344,0.765792988255312,0.765279493319037,0,0.749619644344069,0.750772388078564,0.755199098677165,0.756500301832011,0.748914025452045,0.748600514087891,0.748095752058696,0.74759535648304,0.737991778567709,0,0.738142857860184,0.739609986249541
0.75394417992984,0,0.75278532316039,0.741555677946854,0.732919706135932,0.751836929451555,0.754399164388682,0.747724603507817,0.775288278122857,0.78892645910892,0.769310603226936,0,0.765683826916818,0.764983447769042,0.764004488885429,0.750393379911313,0.772152291190607,0.810315968418751,0.841660991799218,0.84405468162971,0.928648605927456,0,0.95132796561293,0.957764118130525,0.953712049245635,0.962156770391516,0.994643184727274,0.963457973546362,0.953677117617317,0.976662129050574,0.966986068006482,0,0.966750279515336,0.996634287541401,1.00213601900149,0.986189730674313,0.99453838984232,0.994093011581265,1.00990830630225,1.00946292804119,0.997804497090055,0,0.997490112435192,0.987333741501728,0.972653724701081,0.946708257767872,0.946952779166098,0.999568544320115,0.999786866997102,1.02531315439049,1.06672459976151,0,1.06401739856686,1.04773925977066,1.07027889294286,1.0487872086202,1.10051221725211,1.01941844211183,1.0305528986382,1.02783696453647,0.993071261452963,0,0.991813722833514,1.02476298124449,1.03165324493022,1.0320025612134,1.0315309842311,1.033277565647,1.04381818449197,1.05314492925288,1.00999563537304,0,0.997551242784749,1.00839751337749,1.02091176922242,1.02078950852331,0.993420577736143,0.992433759236159,0.992512355399875,1.01374205251015,1.10176102296448,0,1.00848484244829,1.00552438694834,1.00601342974479,1.00703517987309,1.00874682966067,1.01014409479339,1.00418825216517,0.991813722833514,0.991525536899891,0,0.946385140205931,0.9504459419979,0.943957392037828,0.944935477630733,0.947476753590869,0.999254159665252,0.974557498444413,1.03284092029303,1.00380400425367,0,0.982478245165524,0.982993486683215,0.942830847024572,0.94358187703341,0.98042601200184,0.976932849170038,0.930185597573449,0.932543482484916,0.926194659038116,0,0.92646537915758,0.931390738750421,0.89562075135277,0.966034181134816,0.964593251466698,0.906047842405698,0.919129737210796,0.919269463724068,0.845901691477025,0,0.839515316529783,0.838749440578911,0.847793239150446,0.805630763770597,0.80666037351527,0.789297607659799,0.78966351646643,0.759094848525332,0.742008042533573,0,0.741691911297295,0.712935321575194,0.69060091171936,0.680002655687673,0.681935248024368,0.680980741280578,0.712944054482273,0.714025188378716,0.739582040946886,0,0.733085631370443,0.733140648685044,0.741633400819862,0.747887908870203,0.749556767413097,0.751717288624566,0.754167742351075,0.755899477824941,0.760506959600088,0,0.761292921237243,0.760894700674418,0.770008362502589,0.772493747857416,0.771638796254333,0.877124454158378,0.869803658153629,0.764942403105768,0.765830539755754,0,0.764864680232761,0.765220982841604,0.766582443055299,0.768175325306601,0.769710570371178,0.769053855758799,0.769103633329152,0.766654926184059,0.768193664411468,0,0.761070232106716,0.758093184083312,0.758122002676675,0.758211078328886,0.747145611768445,0.746656568971993,0.74756129814543,0.747370047480389,0.738899127613269,0,0.738458989096462,0.739606493086709
0.753394880074539,0,0.772440477124231,0.733910891089456,0.726649478852848,0.753771268369666,0.741012491126509,0.769024163874729,0.786313573310732,0.784078822389087,0.766443589832735,0,0.766164136806191,0.761585473624407,0.771976759758309,0.79686030519065,0.803070275414886,0.818041098021281,0.849523228042896,0.923190539002766,0.930936627582287,0,0.956497846603997,1.013506264019,0.998852445939595,0.984853595891149,0.974374107395743,1.03178423853641,0.993569037156495,0.983875510298244,1.01517424927119,0,1.01251071261194,1.01301722122255,0.989027925475152,0.989307378501696,0.994154141930822,1.00817045779343,1.0475122041866,1.02477171415157,1.04070926957166,0,1.02024806828438,1.01890320059414,1.01054580851905,0.978399977559395,0.976007161019611,0.948035659643957,1.00354201704129,1.02589825916482,1.09008512619918,0,1.09047810701776,1.05323225832367,1.05310126471748,1.05852440001385,1.05222797400953,1.10096632842024,1.03113800341252,1.03134759318243,1.01487733043049,0,1.01304341994379,1.05207951458918,1.05246376250067,1.09639901801766,1.09661734069465,1.06813933070839,1.07454055159766,1.01659771312515,1.01123570817833,0,1.06213109063769,0.981578755736335,0.980757862470861,0.982740232377909,0.982740232377909,1.02000354688616,1.01923505106316,1.02242256214718,0.996311169979459,0,1.01055454142613,0.992128107488377,1.00978604560314,1.0089476865235,0.992433759236159,1.01623093102781,1.01765439488177,0.997446447899795,0.975937297762975,0,0.946428804741328,0.946289078228056,0.942507729462631,0.966802676957813,1.21320165020604,1.04063067340795,1.01677237126674,1.01675490545258,0.999070768616583,0,0.986207196488472,0.997027268359979,0.99541168055027,0.964706779258732,0.95097864932975,0.950052961179323,0.931355807122103,0.92912018290975,0.934342461343293,0,0.918134185803733,0.918151651617892,0.914510029365738,0.964977499378196,0.965187089148104,0.893044543764316,0.877203050322094,0.884416431569765,0.865514927486885,0,0.881097926879553,0.881726696189277,0.820237424151776,0.799444372395475,0.799987559215821,0.799658328618923,0.791199634821715,0.769507093636225,0.746073210779082,0,0.724686321341375,0.720849081970641,0.688849090559211,0.685151577701749,0.662054785057875,0.684285273319462,0.710773927073016,0.712605217687588,0.727600492433806,0,0.75316433132764,0.73546010880536,0.735612934679251,0.750665846612194,0.750971498359976,0.752436880167917,0.755054132419645,0.759594370810279,0.761060625908928,0,0.763132944758895,0.766090780386723,0.773626405905628,0.774157366656062,0.769658172928701,0.769436357088881,0.769925399885334,0.770825762605231,0.762272753411564,0,0.76310936590978,0.762333010470412,0.766333555203533,0.768742964266769,0.772409038658745,0.767452240600418,0.768522021717657,0.767525597019886,0.767335219645553,0,0.763629847171719,0.76402981431596,0.763460428774376,0.762463130785897,0.762201143573512,0.76075759403327,0.747202375664462,0.747756915264011,0.744536219133089,0,0.744572024052115,0.858975726665752
0.757197187816955,0,0.756981485012092,0.735109045940764,0.75038202713211,0.749204831257793,0.741683178390215,0.772323456169366,0.771592511846811,0.774017640142789,0.763212414213318,0,0.77157591932336,0.773781851651643,0.772916420560064,0.777547481184325,0.794011630901316,0.794055295436713,0.856375940228183,0.9261160628744,0.960279195369423,0,0.960279195369423,0.967815694179035,0.969702002108208,0.98254810842216,0.978539704072667,0.979072411404517,0.986111134510598,0.984242292395584,0.984085100068153,0,1.00345468797049,1.00543705787754,1.00351581832005,1.01199547109425,0.994782911240546,1.03140872353199,1.02404688286397,1.02567993648783,1.019217585249,0,1.01586414893047,0.997245591036966,0.997725900926339,0.989263713966299,0.98447808088673,1.05713586778821,1.04456048159372,0.992136840395456,1.04719781953173,0,1.08439127078334,1.05921429967313,1.08182379610197,1.05572113684133,1.06658487324823,1.04759953325739,1.08834727769036,1.06629668731461,1.02713833197011,0,1.03167071074437,1.02814261628425,1.07502959439412,1.06770268535441,1.07617360522153,1.07706436174364,1.07261057913309,1.07322188262866,1.00972491525358,0,1.06308297750935,1.01792511500123,0.982425847723047,0.982259922488536,0.982556841329239,0.984932192054864,0.988835801519403,0.995647469041417,1.07517805381447,0,1.01734874313399,1.01153262701904,1.01139290050576,1.01590781346587,1.01535764031986,1.01556723008977,1.01354119564732,0.989979812346818,0.979980633740785,0,0.966427161953394,0.946987710794416,1.03018611654086,1.0311467363196,1.03718990801862,0.98360479017878,0.992477423771557,0.99400568251047,1.03981851304955,0,0.986923294868992,0.98766559197075,0.988049839882248,0.992320231444126,0.94463855879003,0.948620764418284,0.929652890241599,0.93281420260438,0.934814038325587,0,0.921199436188639,0.915758835078107,0.915916027405538,0.965510206710046,0.89243324026875,0.88996182756525,0.889167133021016,0.944490099369678,0.866489519916957,0,0.870177426576632,0.845518316856235,0.817376523792531,0.837879643033792,0.820047046777443,0.806549465595361,0.797257652462768,0.768703666184911,0.744703017658308,0,0.741597595900836,0.711597440210613,0.691282078471561,0.688088454352587,0.687770576534893,0.690167759528217,0.706775128921311,0.706282592962027,0.755577233553707,0,0.735936052241193,0.729782845912974,0.901856047007536,0.74876294615957,0.752781829997558,0.758620651670915,0.759267760085506,0.760866755371763,0.76149901784432,0,0.768602364462789,0.768893170268536,0.773487552683064,0.775125846051179,0.770072986014977,0.77047644632205,0.77028082920347,0.771031859212307,0.760629220299201,0,0.760404784587257,0.761066738943884,0.762744330393857,0.772141811702112,0.773296302018022,0.770162934957896,0.768955173908801,0.772878869059622,0.772150544609191,0,0.76590476946593,0.765407867053106,0.766074187863272,0.766692477684501,0.760076427281068,0.762863097930138,0.750134012571052,0.752313746178096,0.75164305891439,0,0.750161957873706,0.982862493077022
0.774030739503409,0,0.768877451035793,0.742299721630028,0.742762565705242,0.747728096670648,0.74879700449718,0.753892655778071,0.774569559870214,0.781851931083813,0.771270267575577,0,0.776291689146293,0.774823687466228,0.757478387424916,0.802486043931267,0.802801301876837,0.821050457800878,0.828669919227746,0.946507400905044,0.961405740382679,0,0.957633124524333,0.966453360674633,0.981866941669958,0.988748472448608,0.99171766085564,0.972409203302855,0.992442492143239,0.98712415173182,1.01024888967835,0,1.016361924634,1.01162868899691,1.00162951039088,1.00703517987309,1.0270597358064,1.00503534415188,1.00714870766512,1.05875145559792,1.0104410136341,0,1.04667384510696,0.99964714048383,0.996800212775912,1.00088721328912,1.01105231712966,1.01327920843494,1.01040608200578,0.97955272129389,1.04176595132828,0,1.09468736823008,1.14762625094604,1.08052259294712,1.06029718015099,1.06204376156689,1.05501377136789,1.05486531194754,1.04934611467329,1.01654531568267,0,1.04598394544768,1.04531151160256,1.06200882993857,1.07931745177015,1.07857515466839,1.06813059780131,1.05073464689893,1.09027725015493,1.00396119658111,0,0.999620941762592,1.01262424040397,1.01349753111192,1.02056245293924,1.02310372889938,0.998826247218357,1.00762028464742,1.01942717501891,1.00462489751915,0,1.07953577444714,1.01403897135085,0.998441999306858,0.992582218656511,0.985744352413259,0.991997113882184,0.977745009528432,0.989709092227354,1.0974906314026,0,0.986687506377845,0.988058572789327,0.97213848318339,1.15685693372907,0.996049182767074,0.998180012094473,0.994625718913115,1.05006221305381,1.00101820689531,0,1.00161204457672,0.983019685404453,0.987630660342432,0.992346430165364,0.954410681811995,0.953572322732363,0.974662293329367,0.93598424787424,0.934534585299043,0,0.922168788874464,0.925705616241663,0.932543482484916,0.920151487339098,0.93952107524144,0.957432267661504,0.893970231914743,0.871781661607137,0.87229166338058,0,0.859998350084762,0.862217381773664,0.849420179739358,0.820702888099114,0.841909006360275,0.840971092139937,0.810518571862995,0.793057124157526,0.784966085748365,0,0.742318934025603,0.71785806129591,0.717734054015381,0.703417326149241,0.702981554085974,0.703593730872247,0.70865445052482,0.703447018033312,0.705349918485936,0,0.70319201714659,0.728871130413874,0.728812619936441,0.833280020875017,0.759852864859833,0.759229335294356,0.758564761065606,0.761332219319101,0.771103469050359,0,0.769687864812771,0.76911760598048,0.777239209564419,0.778270565890508,0.771446672298583,0.769455569484456,0.770358552076477,0.76141780180848,0.760917406232824,0,0.760956704314682,0.761380250308038,0.763669145253576,0.767916831257048,0.768949934164553,0.769285277796406,0.771414360542389,0.772724296604315,0.771901656757426,0,0.765338877087178,0.768581405485798,0.771527888334423,0.771311312238851,0.769260825656583,0.758308886888176,0.75581913507981,0.756412099470508,0.755390349342206,0,0.75345426384268,1.0079259363952
0.766810371930074,0,0.752500630389598,0.746537801435712,0.74269532232073,0.733646284004947,0.732157323347892,0.751909412580315,0.762833406046068,0.761508624042107,0.776642752010889,0,0.780858126258166,0.751820336928104,0.751276276817051,0.793731304584063,0.806492701699344,0.808790329551962,0.866690376779786,0.914020986569286,0.979343131523982,0,0.955895276015511,0.993595235877733,0.994477259492763,0.979430460594777,0.978740560935496,0.983927907740721,1.01037988328454,1.0099694366518,0.960226797926946,0,0.96226156527647,0.990922966311405,0.995900723346723,1.0157680869526,0.989141453267186,1.00251153400591,1.00134132445725,1.01049341107658,1.06150232132796,0,1.05101409992548,0.998992172452867,1.00093087782452,0.99946374943516,1.00431924577136,1.00572524381117,0.955493562289854,0.980792794099179,1.03742569650977,0,1.01638812335524,1.05006221305381,1.09056543608855,1.08946508979654,1.06797340547388,1.06779001442521,1.05025433700956,1.08291540948691,1.05904837443862,0,1.05885625048287,1.06143245807133,1.07926505432767,1.07781539175248,1.05496137392541,1.05597439114664,1.06720490965088,1.03633408312483,1.05260348901395,0,0.993403111921984,0.993324515758269,1.07654038731887,1.01802117697911,1.01904292710741,1.01000436828012,1.07702943011532,1.07260184622601,1.07650545569055,0,1.01596021090834,1.06432305031464,0.996538225563526,1.01374205251015,1.02642223358959,1.00183910016079,0.965484007988807,0.973736605178939,0.993848490183039,0,1.28707331119157,1.0198550874658,1.00420571797933,1.00425811542181,1.02884124885061,1.01972409385961,1.00968125071818,1.02830854151876,1.0068605217315,0,1.00953279129783,1.01258930877566,0.98942090629373,0.981849475855799,0.954454346347393,0.982914890519499,0.949459123497916,0.95944956919687,0.937835624175095,0,0.938569188369774,0.944219379250213,0.920806455370061,0.92029994675945,0.930133200130972,0.919828369777157,0.962855402957876,0.916012089383413,0.856665872743222,0,0.863285416309487,0.844346360726165,0.845264189260221,0.861381642566155,0.839200931874921,0.857092038608702,0.812827552494817,0.832446901539632,0.772771454302544,0,0.750757542136529,0.747708884275074,0.740270194024751,0.729071113985994,0.699287534391343,0.700593103999729,0.702521329882884,0.703599843907203,0.706174304914241,0,0.703998937760736,0.705435500975315,0.739142775720787,0.756062783187328,0.758677415566931,0.75924068807356,0.759833652464258,0.760831823743445,0.771148880167172,0,0.769441596833129,0.769996136432678,0.775451583485244,0.776303041925496,0.77415387349323,0.764872539849132,0.760090399932395,0.759602230426651,0.760392558517346,0,0.763259571911548,0.765695179696022,0.765952800454867,0.767791077395103,0.767363164948207,0.76913419850393,0.770622285870278,0.768737724522521,0.768522021717657,0,0.763869128825697,0.76913419850393,0.771368076134868,0.77168682724327,0.757450442122261,0.756890662778465,0.757756967160752,0.757707189590399,0.759072142966925,0,1.01147149666948,0.820655730400885
0.739200412907512,0,0.727974260856809,0.747446897062688,0.756602476844841,0.735895007577919,0.756286345608563,0.773210719528643,0.775758108523735,0.760959324186806,0.755510863459903,0,0.753351215539142,0.75189020018474,0.788047055366014,0.791793472503121,0.790118500925272,0.809578037770533,0.851539656287553,0.884826878202501,0.98025135386025,0,0.963562768431316,0.998049018488281,0.995848325904245,0.965553871245444,0.988931863497278,0.997254323944046,0.974915547634673,1.00093087782452,0.961519268174712,0,0.961475603639315,0.961423206196838,1.00382147006783,1.02849193256743,1.0298280673506,1.01074666538188,1.0499836168901,1.05784323326165,1.03230821296118,0,1.11888625374739,1.02975820409396,1.00066889061213,0.995175892059124,0.992197970745013,0.990329128629999,0.954078831342974,0.978399977559395,1.02780203290815,0,1.01586414893047,1.04973909549187,1.04975656130603,1.08220804401347,1.03943426513805,1.044700208107,1.04297109250525,1.02691127638604,1.02646589812499,0,1.09400620147788,1.06620062533674,1.05419287810242,1.05375623274844,1.06103947725275,1.06228828296512,1.06375541135447,1.02553147706748,0.994852774497182,0,0.993516639714018,0.99383102436888,1.02527822276218,1.02830854151876,1.05007967886797,1.0499836168901,1.05090057213344,1.07371092542511,1.08921183549123,0,1.06300438134564,1.02077204270915,1.0050702757802,1.00572524381117,0.9772472338249,1.01068553503232,1.05206204877502,0.97884535582045,0.987351207315887,0,0.989123987453027,0.981805811320402,1.00424064960765,1.0075416884837,1.00241547202803,1.00700024824477,1.01485113170925,1.01437955472695,1.00745435941291,0,1.01910405745697,1.01445815089067,1.00376033971828,1.00296564517404,0.982390916094729,0.959851282922527,0.951624884453633,0.981325501431029,0.980766595377941,0,0.95239338027663,0.943843864245795,0.920055425361224,0.922998415047017,0.926709900555806,0.946455003462567,0.894354479826241,0.895105509835079,0.856245819912698,0,0.854011068991053,0.84613398680534,0.844313175679263,0.869738161350533,0.88079227513177,0.842357877784162,0.84172823518373,0.830172852536129,0.828387846329078,0,0.760628347008493,0.744576390505655,0.745302095083962,0.724306439883417,0.71461553289729,0.712099582367685,0.699626371186028,0.698174088738707,0.70576123840938,0,0.703877550352331,0.727085250916115,0.738926199625216,0.75811152318818,0.758439880494369,0.760842303231941,0.760916532942116,0.766201688306633,0.771509549229556,0,0.772257959366269,0.773641251847663,0.774725005616229,0.774769543442335,0.763717176242514,0.760772439975305,0.762358335900943,0.761083331467335,0.762401127145632,0,0.762835152627484,0.762843012243855,0.766041876107078,0.769549884880915,0.767646984428291,0.76797970818802,0.757582309019162,0.764842847965062,0.765420093123017,0,0.76744700085617,0.76980750563976,0.770278209331346,0.762443918390322,0.762661367776602,0.756705525148379,0.759344609667806,0.763511079635437,0.937416444635279,0,1.00394373076695,0.898502610689006
0.733228851046547,0,0.739309574246006,0.754105738710811,0.753180050560383,0.78657032077887,0.782647498918756,0.780348124484723,0.777626077348041,0.774787009256494,0.752425527388714,0,0.751808110858193,0.765862851511948,0.78786104444522,0.793984558889369,0.793726938130524,0.837697998566538,0.866452841707223,0.881141591414951,0.966304901254281,0,0.968042749763102,0.938621585812251,0.95274269655981,0.952009132365132,0.952271119577517,1.00019731362984,0.969605940130334,0.949825905595255,0.997848161625452,0,0.961152486077373,0.961624063059666,1.00229321132892,1.04295362669109,1.07626093429233,1.02283300877992,1.0374955597664,1.01782905302336,1.03667466650093,0,1.02349670971796,1.03431678158946,1.03448270682397,1.02977566990812,0.998476930935177,0.995341817293634,1.00719237220052,0.985264042523886,0.985491098107953,0,1.0329806468063,1.05785196616873,1.06622682405797,1.10827577164579,1.07747480837638,1.06772015116857,1.04004556863362,1.02490270775776,1.10473894427859,0,1.05510110043869,1.05700487418202,1.05648963266433,1.05980813735454,1.06110934050938,1.06117920376602,1.05655076301388,1.02184619027993,0.99611904602371,0,1.03521627101865,1.04439455635921,1.04409763751851,1.07121331400037,1.07540510939853,1.07954450735422,1.07659278476135,1.07330921169945,1.11369890694216,0,1.04166115644333,1.05845453675722,1.01420489658536,0.974574964258572,0.975081472869183,0.974880616006355,0.983028418311533,0.982574307143398,0.983238008081441,0,0.993717496576846,1.15323277729108,1.01009169735092,1.00948039385535,1.00020604653692,1.00186529888202,1.00209235446609,1.00608329300143,1.00508774159436,0,1.00710504312973,0.983159411917725,1.00399612820942,1.00484322019614,0.959187581984485,0.958716005002191,0.96209564004196,0.99100156247512,0.957179013356198,0,0.928727202091172,0.923539855285946,0.923810575405411,0.926744832184124,0.927382334400928,0.931539198170772,0.933285779586673,0.938184940458276,0.876993460552186,0,0.877106988344219,0.856122685922877,0.850186928980938,0.874024272145154,0.886721919038754,0.890232547684715,0.889883231401535,0.887446750326353,0.830247082246305,0,0.771456278496371,0.76290064943058,0.748941097463992,0.734842692274839,0.730147881428897,0.709652621804008,0.714742160049943,0.696127968609979,0.703099448331547,0,0.711257730125221,0.72473959207456,0.731213296092597,0.759128906862942,0.759590877647448,0.760585555763803,0.764304900888964,0.767109910642901,0.770186513807011,0,0.772809879093694,0.77447349789234,0.773971355735268,0.771341004122921,0.762822053266864,0.762663987648725,0.761661449915998,0.76135841804034,0.764518857112412,0,0.764734559917276,0.76911760598048,0.775778194210018,0.771079016910536,0.767160561503962,0.757398044679784,0.757502839564738,0.762505048739878,0.764687402219047,0,0.767089824956618,0.768838152953935,0.769863396245069,0.765466377530538,0.765066410386297,0.764760758638515,0.76219765041068,0.762606350462001,1.01117457782878,0,0.883499476326417,0.954227290763326
0.769677385324276,0,0.750600349809098,0.781832718688238,0.762361829063774,0.762590631229258,0.767260116644669,0.785702269815167,0.78219862749487,0.770974222025582,0.771841399698577,0,0.790275693252704,0.786409635288607,0.799281067033089,0.803197775858247,0.817334605838549,0.843954253198295,0.843969099140331,0.888983741972346,0.903096119812825,0,0.925094312746098,0.925382498679722,0.93175752084776,0.938770045232603,0.962191702019834,0.999856730253738,0.999489948156399,0.94974730943154,0.951397828869566,0,0.971710570736494,1.013506264019,1.00865950058988,1.02387222472238,1.03378407425761,1.05180006156263,1.01904292710741,1.02398575251441,1.03770514953631,0,1.036901722085,1.03555685439475,1.03405479437708,1.03243047366029,1.03732090162481,0.986853431612356,1.03607209591244,1.03689298917792,1.00675572684655,0,1.00631908149257,1.02288540622239,1.0636156848412,1.05093550376176,1.06128399865097,1.06091721655364,1.08095050539402,1.07886334060202,1.12329637182254,0,1.07329174588529,1.203970967423,1.2033334652062,1.05979940444746,1.06085608620408,1.05405315158914,1.05659442754928,1.05511856625284,1.06895149106678,0,1.0217326624879,1.03966132072212,1.10038122364592,1.09974372142911,1.09802333873445,1.09519387684069,1.07896813548697,1.07634826336312,1.07285510053132,0,1.07728268442063,1.07730888314187,1.09437298357522,1.0065199383554,0.977124973125787,0.979622584550526,0.980714197935464,0.983403933315951,1.02185492318701,0,1.04696203104059,1.01391671065174,1.00201375830238,1.00296564517404,1.00698278243061,1.00490435054569,1.00437164321384,1.00190896341742,1.00086101456788,0,0.999717003740466,0.980452210723079,0.980792794099179,0.996171443466187,0.947869734409446,0.965745995201193,0.949520253847473,0.947040108236893,0.927976172082335,0,0.928561276856661,0.980268819674409,0.962741875165843,0.963580234245476,0.924666400299202,0.954052632621736,0.931460602007057,0.934447256228248,0.876146368565474,0,0.880154772914966,0.887839731144931,0.879953916052138,0.879814189538866,0.876609212640688,0.869651705570446,0.860711828593157,0.88080100803885,0.808418307710375,0,0.803193409404707,0.772498987601664,0.758397962540387,0.745773672066255,0.731466550397903,0.700932814085122,0.709171438623927,0.700076989191331,0.706702645792551,0,0.693128215028169,0.721373929686119,0.733433201072207,0.759704405439481,0.759911375337265,0.762303318586342,0.764627145160198,0.764807043046036,0.768737724522521,0,0.772310356808746,0.77157155286982,0.770866807268504,0.765419219832309,0.76438786350622,0.761911211058472,0.760914786360701,0.767313387377854,0.766408658204417,0,0.772071948445476,0.778101147493166,0.780157747110389,0.780927989514802,0.775656806801613,0.76258102503147,0.76248321647218,0.762760922917308,0.765846258988497,0,0.766587682799547,0.769393565844192,0.769389199390652,0.76818842466722,0.766229633609287,0.766355387471232,1.08621644836296,0.826918971358305,0.830154513431262,0,1.05126735423078,0.823685175866765
0.767030441188478,0,0.777895924176798,0.777801608780339,0.765812200650887,0.781865030444432,0.780351617647554,0.789777917549172,0.789645177361563,0.757234739317397,0.762036091629709,0,0.773555669358284,0.805308519499363,0.788385892160699,0.80842442074533,0.827861252032184,0.841850495882843,0.864939428910345,0.870376536858045,0.889219530463493,0,0.904266329361479,0.902187897476557,0.904170267383605,0.932726873533585,0.947695076267856,0.946603462882918,0.946070755551068,0.982984753776135,0.982478245165524,0,0.984853595891149,1.00851104116953,1.02338318192592,1.02323472250557,1.03263133052312,1.03795840384162,1.01196053946593,1.01911279036405,1.01784651883752,0,1.01739240766938,1.0411633807398,1.04096252387697,1.00930573571376,1.00920094082881,1.00658106870496,1.00263379470502,1.03494555089919,1.03633408312483,0,1.02278934424452,1.02303386564274,1.00242420493511,1.05919683385897,1.05976447281914,1.06531860172171,1.0852208969559,1.10053841597335,1.05922303258021,0,1.0654495953279,1.065021682881,1.05712713488113,1.04941597792993,1.06109187469523,1.06060283189877,1.06235814622175,1.12158472203496,1.06505661450932,0,1.06750182849158,1.07328301297821,1.09949920003089,1.09300191716374,1.10684357488475,1.08587586498686,1.08985807061511,1.08598065987181,1.0961719624336,0,1.07943097956219,1.07792891954451,1.05686514766875,1.04914525781046,0.973291226917885,0.98271403365667,0.98590154474069,1.02205578004984,1.0203266644481,0,1.06215728935893,1.01271156947477,1.01194307365177,1.01895559803662,0.996782746961753,0.991866120275991,0.992459957957398,1.00249406819175,1.00181290143955,0,0.992721945169783,0.993106193081281,0.966095311484373,0.946201749157261,0.943564411219251,0.953065814121752,0.940438030484788,0.923173073188607,0.924090028431955,0,0.926194659038116,0.92753079382128,0.928185761852243,0.923670848892139,0.926281988108911,0.961309678404804,0.933687493312331,0.935399143099914,0.902414953060624,0,0.874399787149573,0.913697869007344,0.87991898442382,0.880713678968055,0.894834789715614,0.871453304300948,0.853761307848579,0.862498581381624,0.85192041103622,0,0.793341816928318,0.788395498358486,0.757883594313404,0.750897268649801,0.747231194257825,0.694659093639206,0.697706004919245,0.708239637438544,0.697651860895352,0,0.687169752527823,0.727523642851506,0.727584773201063,0.756651381124486,0.759341116504974,0.76088946093017,0.763982656617731,0.764641991102233,0.768456524914561,0,0.773436028531295,0.774635929964018,0.765536240787175,0.767209465783608,0.765983365629645,0.765531874333635,0.766909053780073,0.773567022137487,0.773742553569785,0,0.774661255394549,0.776269856878594,0.779556923103319,0.778790173861739,0.769551631462331,0.983229275174361,0.76576416966195,0.767091571538034,0.897061681020888,0,0.931277210958387,0.782161075994428,0.778256593239181,0.77238109335609,0.772220407865827,0.914326638317069,0.820045300196027,0.821088882592028,0.829155468861367,0,0.820366671176553,0.896266986476653
0.787176384530187,0,0.78392424993378,0.777398148473266,0.802057258193663,0.802228423172422,0.780571686905958,0.784029044818734,0.783443066753699,0.754648925531156,0.742544243028254,0,0.76752821689201,0.786253316251884,0.783435207137327,0.814444013595233,0.81609016657972,0.85061222155571,0.881639367118482,0.887551545211307,0.886407534383892,0,0.906108972755255,0.917164833117908,0.923461259122231,0.923234203538164,0.958637408838476,0.944263043785611,0.960541182581808,1.02073711108083,0.988521416864541,0,1.01385558030218,1.01207406725797,1.01995114944368,1.05486531194754,1.00652867126248,1.06556312311993,1.05521462823072,1.05002728142549,1.01780285430212,0,1.02307753017814,1.02459705600998,1.04351253274418,1.00676445975363,1.01290369343052,0.980539539793874,0.985342638687601,0.988294361280474,0.987115418824741,0,0.98871354082029,1.00121033085106,1.00348088669173,1.07044481817738,1.062166022266,1.06332749890758,1.04823703547419,1.04842915942994,1.06248913982795,0,1.06244547529255,1.06061156480585,1.04869987954941,1.04615860358927,1.04695329813351,1.05030673445204,1.05643723522185,1.10709682919006,1.09193650250004,0,1.05617524800946,1.09455637462389,1.09584011196458,1.10094886260609,1.09477469730088,1.09551699440263,1.09056543608855,1.06159838330584,1.07583302184543,0,1.0717984187747,0.996677952076798,0.999437550713922,0.991822455740594,1.04498839404062,1.04683103743439,1.022073245864,1.01701689266496,1.00961138746154,0,1.01490352915172,1.01682476870922,1.01294735796592,1.01691209778001,1.01589034765171,0.991997113882184,0.992206703652092,0.953720782152715,0.953170609006706,0,0.952498175161584,0.958296825462375,0.963230917962295,0.959353507218995,0.965283151125979,0.925103045653178,0.916335206945355,0.91730455963118,0.920492070715199,0,0.929879945825667,0.929024120931875,0.928150830223925,0.975064007055024,0.93316351888756,0.934953764838859,0.944070919829862,0.937355314285723,0.916431268923229,0,0.953895440294305,0.884748282038786,0.884302903777731,0.894703796109422,0.883857525516677,0.893367661326257,0.855553300381294,0.859787013733438,0.811403215350149,0,0.79658347203623,0.770289562110549,0.759741083649215,0.750837011590952,0.73341922842088,0.717729687561842,0.699559127801516,0.682493280786748,0.679949384954488,0,0.686568055230045,0.721536361757798,0.730166220533764,0.729714729237754,0.908501789295039,0.753587004030288,0.755578980135123,0.768394521274297,0.771346243867169,0,0.772508593799451,0.771888557396806,0.769452949612332,0.767855700907491,0.768769162988007,0.771506929357432,0.771296466296816,0.77500183877065,0.774800981907821,0,0.774594012010037,0.776755406512214,0.777444432880787,0.777939588712195,0.872831357038094,0.77454161456756,0.932910264582255,0.967833159993194,0.785355573404111,0,0.7858926471895,0.791622307524363,0.791618814361531,0.784621135918724,0.867572400394816,0.869210693762931,0.890878782808598,0.893524853653688,0.83021913694365,0,0.820196379488503,0.822167396616347
0.780131548389151,0,0.784867403898366,0.802728818748077,0.78497219878332,0.784890109456773,0.792625718547798,0.790430265708011,0.754746734090446,0.744565037726452,0.746724685647213,0,0.768280120191555,0.794388019196442,0.809830418785131,0.835757546613472,0.862936973317015,0.877517434976956,0.877264180671651,0.909453676166705,0.981369165966427,0,0.913130230047176,0.952009132365132,1.00845864372705,1.00850230826245,0.959336041404836,0.945529315312139,0.959074054192451,1.00060776026258,1.00071255514753,0,1.01045847944826,1.02788062907187,1.01866741210299,1.03998443828406,1.06109187469523,1.0763133317348,1.07754467163301,1.04957317025736,1.0519397880759,0,1.02546161381085,1.02627377416924,1.02967960793025,1.0410323871336,1.08423407845591,1.08457466183201,0.985665756249543,1.01996861525784,1.01141036631992,0,0.988495218143303,1.04663018057157,1.05358157460685,1.05676908569087,1.06320523820847,1.06344975960669,1.07478507299589,1.07381572031006,1.05910950478818,0,1.06029718015099,1.06355455449165,1.04721528534589,1.05417541228826,1.04792265081933,1.04773925977066,1.05694374383246,1.05572986974841,1.10617987394671,0,1.10630213464582,1.13368853124715,1.13822091002141,1.10389185229188,1.09704525314155,1.11991673678277,1.1013680421459,1.08950875433193,1.07650545569055,0,1.08050512713296,1.03283218738595,1.00672952812531,0.994800377054705,1.03036950758953,1.03677946138588,1.01523537962075,1.0322121509833,1.03807193163365,0,1.02235269889054,1.01976775839501,1.0406481392221,1.06761535628362,0.99946374943516,0.95433208564828,0.951764610966905,0.959004190935815,0.967999085227705,0,0.951144574564261,0.95521410926331,0.956462914975679,1.08793683105762,0.990468855143271,0.947022642422734,0.941337519913977,1.00693911789522,0.955624555896047,0,0.943442150520137,0.94392246040951,0.952253653763358,0.978181654882407,0.931154950259274,0.932429954692882,0.934543318206122,0.944009789480305,0.935049826816733,0,0.887796066609533,0.882399130034399,0.883586805397212,0.894712529016501,0.892415774454591,0.892319712476717,0.866010956609001,0.863065347051084,0.811369157012539,0,0.8117053739351,0.769255585912336,0.766381586192471,0.733722260296539,0.73521296753501,0.717354172557423,0.699816748560361,0.693773576861344,0.688504140729571,0,0.689394023960972,0.713164997031384,0.747640767599853,0.73254157125939,0.734631355923515,0.754054214559042,0.757542137646596,0.764329353028787,0.771136654097261,0,0.771582032358316,0.77266665941759,0.769651186603037,0.771948814455655,0.772856163501215,0.772499860892372,0.775642834150285,0.774887437687908,0.774056064933939,0,0.902912728764156,0.790510608453142,0.792577687558861,0.792694708513726,0.79330251884646,0.784145192482891,0.783251816088658,0.783586286429803,0.784823739362969,0,0.789361357881479,0.793360156033185,0.79351996823274,0.795150401984483,0.823681682703933,0.8919005329369,0.892345911197955,0.898162027312905,0.830510816040106,0,0.82959298750605,0.829712628333039
