0.783268712749848,0.782494684904116,0.781773060030985,0.781892235207404,0.778406709903478,0.777276792269515,0.776135936587165,0.775920970008651,0.77587496810816,0.775866882250825,0.776371226411038,0.774928201935893,0.772341555544838,0.771362964086108,0.769372638153099,0.770074551864918,0.771615942721648,0.773406280639121,0.775233966446801,0.776344287505177,0.775981738283187,0.775542972293582,0.779516816466668,0.782831180569782,0.783391808681258,0.784432863636395,0.780293027083722,0.780616104517936,0.780374919704078,0.782419261574694,0.791682514031032,0.791967251846459,0.791853337080973,0.791639541753355,0.791095586653046,0.790741959108239,0.783744269272237,0.780544051256013,0.772724879030819,0.768916682578972,0.768771862780862,0.769045015939707,0.76991176075928,0.769925228517123,0.769461059973905,0.768949399093927,0.767494689608399,0.767689958283036,0.767554650549274,0.767065666327701,0.766368463668939,0.766268176883853,0.765322838855928,0.764262744115673,0.757714009285895,0.757959476671435,0.758991138811093,0.774537211354488,0.906179971470519,0.800787980579082,0.788894301998796,0.791215095369609,0.790661626631678,0.791285755534896,0.786610937987832,0.785783727945164,0.784641908850622,0.804808570572964,0.843682704252673,0.837020235157288,0.905619822117873,0.902381910509661,0.827960398776186,0.821188783031202,0.821860807748416,0.82401320213883,0.825231281132351,0.825801055158914,0.826089498058696,0.826891934701201,0.827132667641411,0.826930409861622,0.826061174601802,0.82554220979324,0.825033277379736,0.820225235596936,0.81819748914731,0.817267824521133,0.817096160599,0.816982624841301,0.819838803903045,0.820449196406945,0.826044785927679,0.827983348026339,0.827477849886951,0.818341428822944,0.818028732170625,0.817588274901452,0.816786392942716,0.816571922720152,0.812843020446048,0.80970294889927,0.809886499021306,0.809262002689018,0.807898121530644,0.807368815674933,0.807206050744225,0.806633829814829,0.80608489491594,0.805881668000716,0.806311206721077,0.807114479915445,0.805700360009496,0.804992201404075,0.80346596493552,0.802330309651461,0.801871440962639,0.80090196706673,0.800014648989551,0.797711784902813,0.797503423413648,0.802568672024872,0.80249600828818,0.802832624624619,0.804463970177293,0.805003520079935,0.807078462220528,0.807542393625513,0.808245081889315,0.809387707959905,0.812988410251755,0.81817566641412,0.817459534576451,0.818355642784247,0.81505987567202,0.809643193896138,0.808438437092669,0.807606274425908,0.807540061078767,0.809550260927896,0.810116178324732,0.808648504403579,0.808474951432126,0.807687818581086,0.809042538811053,0.807991245475908,0.808187162432284,0.807178213440063,0.805972556346801,0.807371018380013,0.808175650310762,0.812001744642144,0.812456887729393,0.819568185609427,0.819967207004369,0.822172039672929,0.826483190340588,0.82844966447894,0.829295022334666,0.828838260445384,0.826382109733952,0.826061299854686,0.824347483068359,0.820738188063158,0.812612213424219,0.810911977086444,0.815693347104307
0.783590107995014,0.783040393382718,0.782263066274827,0.781715517618946,0.780043490656499,0.778219557446068,0.776821085901177,0.776457836473661,0.775881031926215,0.776002211290157,0.776688179707874,0.771483591535431,0.771295107944312,0.770648152660773,0.769373532013672,0.776279408717566,0.779952664714407,0.780134758778555,0.780114989532599,0.778644546278896,0.778390397669292,0.782876488328816,0.783227881929019,0.783601773484702,0.785285796505678,0.784932716328262,0.782011942084793,0.78189003674394,0.781797380547814,0.785959114125691,0.793189562431848,0.79280100616196,0.792023048330508,0.792013701427849,0.791322913229986,0.78272233459322,0.779562935858509,0.779972763261927,0.771609130374097,0.766667293431615,0.768767040598021,0.769641072905045,0.770646651796686,0.77113297883182,0.769905018774419,0.76862345062047,0.768508303369294,0.768255520494064,0.768104041283,0.766581342915253,0.766966347366689,0.76690081555427,0.765792988988456,0.763437591557025,0.758980382984584,0.759164023259604,0.760373666125785,0.777119366987813,0.905352692759431,0.785630940630288,0.787124344919598,0.789479170124077,0.787204844813193,0.783529317773302,0.783993477894607,0.78501330323192,0.784807520615467,0.816943235481952,0.830467995987551,0.831220025421553,0.831022572949847,0.825232153065302,0.82571785051842,0.824354763322488,0.823481809464155,0.823387315187737,0.826244580596746,0.82650829791564,0.827194966423927,0.827223429835745,0.826028163835449,0.823753930175228,0.822234988157674,0.821006139284571,0.817479185127056,0.815892276654784,0.814585639413691,0.815040273669371,0.814653298546388,0.815352421129644,0.815712009403732,0.820846255508949,0.824493246476528,0.826722184402762,0.825761013380695,0.819686688413953,0.81896532845318,0.81758255549827,0.816135915707825,0.815363876688858,0.81055991246313,0.809832408017762,0.810051997017602,0.809643208466661,0.809220816689108,0.807320271894947,0.806775533055194,0.806754937671991,0.806397158176538,0.806881204880876,0.808234053236434,0.806867055326135,0.805138152620796,0.803645433263386,0.802869698903564,0.80228522481937,0.801343001747116,0.800204179560513,0.798329299482978,0.797161298232477,0.797268557161279,0.801387294463788,0.801871870785377,0.802153221600327,0.803428908258976,0.804242141016508,0.80822129055625,0.808119876420846,0.808777207511835,0.809615388807315,0.81108597926271,0.815796410851827,0.815133372197782,0.814158208823888,0.810605938335028,0.80966256522839,0.806100243775873,0.806855235876445,0.806454638332423,0.810426155969828,0.810598316784072,0.809809933414717,0.809611570601267,0.809485418611892,0.810624719930927,0.808676279654383,0.806923581946424,0.806532758474158,0.805580277073353,0.806129076134889,0.807442942341831,0.810317959318056,0.813994855553051,0.820340181171005,0.824850743334408,0.825338717476812,0.830103649254318,0.829569677885379,0.830366276359322,0.825722548809456,0.825358251129608,0.825454812382464,0.823222833144492,0.819808120830229,0.816447441874963,0.816037666586411,0.82121688805547
0.784446359075468,0.783165549078126,0.782562720562253,0.782321259595804,0.78076839707101,0.779500250132929,0.777756444495193,0.777175964855633,0.7766339594146,0.775986559916499,0.776335882824004,0.770053162820256,0.770394230429945,0.769796379966641,0.769699563709674,0.783746385634223,0.783171811769095,0.78356062440851,0.784292602047051,0.791701551277724,0.935157633519792,0.788877216390773,0.789527614720363,0.787890958182794,0.786677548243626,0.784885656835735,0.785330975665296,0.78559809893671,0.785697750720339,0.79482133540741,0.794934604650965,0.791375837188514,0.79115335169865,0.791127089998215,0.786446842054841,0.780089098435634,0.777368842312162,0.77866427622558,0.769548279271218,0.765319789816619,0.770421190764811,0.771831929547997,0.771946930265955,0.772469960805404,0.770208563023966,0.768574727880349,0.76863550760581,0.768729320229455,0.769018552492513,0.767439891654109,0.768684937886851,0.76783515332341,0.767256298270022,0.766529077403233,0.765843197087191,0.760688439467418,0.760577332587536,0.780082729551368,0.782910006265098,0.78471067932677,0.785302646929929,0.78346197117434,0.784434315528093,0.782824255260425,0.78396493685367,0.785161642783508,0.967659825264993,0.830508753920028,0.832865500880616,0.833009590702563,0.828900484108836,0.825323498670828,0.825241428055572,0.824510532724279,0.823580818976966,0.830076536724896,0.828044057734449,0.827187280341473,0.827198441832064,0.825217945622715,0.827864619027724,0.822656773557121,0.818757557793958,0.814905125971257,0.813824121892383,0.814436201516414,0.814349692353611,0.814061624183281,0.813790127829551,0.813792586787885,0.814577268852469,0.815580150885362,0.823894715665516,0.824280758041147,0.82304339250785,0.820561553186092,0.819606756831578,0.817865582806576,0.816182419739327,0.814616909018188,0.812296413230572,0.810316425198641,0.810800010184272,0.810952669961946,0.810243743055703,0.809416016549918,0.807315488549304,0.807357777925485,0.80720728990354,0.808521776126731,0.810037606084246,0.804926672057901,0.80446188017836,0.803746335012774,0.802814888899958,0.802320427243719,0.801427756225091,0.800244247447658,0.798773408394072,0.797598745158749,0.797663416174839,0.800613377871623,0.801398676243693,0.802050160880516,0.804147434635451,0.805683023778186,0.807711407567008,0.807973793399215,0.808951359273979,0.809119965509014,0.809717835160031,0.811108078056069,0.812988203744735,0.812925852966494,0.805989074322468,0.804380590399803,0.805253308148667,0.806988861449246,0.807763067567779,0.809989694867738,0.809600556675079,0.810138071821478,0.810767796125055,0.811827969515267,0.812314015327419,0.81068634101695,0.80642550824072,0.806584277728545,0.805765995366857,0.805800573247231,0.807026887954743,0.815336671258413,0.815861270067193,0.822150242235823,0.824553795643365,0.825936497078178,0.830166799246159,0.829481449630924,0.830685933515053,0.824709277278399,0.823392603027472,0.821292949219752,0.821028884938538,0.819113399860514,0.818016642542193,0.822374887679801,0.821651312435757
0.783962573074921,0.783116996694877,0.782583998124555,0.782406342835712,0.781055749856891,0.780209538561691,0.778532714805553,0.77787655147009,0.777007306489091,0.776934847617014,0.77697789011134,0.768958694018505,0.770235614966391,0.770970143489695,0.771183749329828,0.788607372847489,0.789625858798502,0.789458738326385,0.789215193749487,0.791700199547865,0.792289014903587,0.790178718774952,0.791104068060085,0.791655173987582,0.786161235692349,0.785927247047134,0.786286349598181,0.787433622469886,0.791121986466424,0.794375805907013,0.792526147879167,0.790635187934075,0.789667577652464,0.789407530066393,0.780386292115608,0.779111421605578,0.77672511089316,0.778102807620888,0.766612804380662,0.765877192968795,0.772371857931863,0.773585989887037,0.772856492555747,0.773403106338619,0.769902364965101,0.769387169409892,0.769220620340271,0.76894468035439,0.769332516164632,0.771338969050608,0.771962698986573,0.769285623254599,0.768441607617706,0.768828577169105,0.768644202848077,0.889266118534782,0.857361472649635,0.808251036849161,0.808480509228099,0.785354259292719,0.785089516761049,0.78345516875296,0.783601567273045,0.782404743213651,0.78229712682037,0.842920791025475,0.820545868340902,0.828173932015674,0.827483445747116,0.827957517157728,0.827830147165775,0.826430623786347,0.825625290905884,0.824230611950092,0.823901802336299,0.829072365460335,0.829395979653784,0.827086312004668,0.825681967725187,0.823676352199132,0.821744763759513,0.816971489025635,0.814589625378875,0.813712057950627,0.813462386231619,0.814197775139667,0.814664364151331,0.813426758948391,0.811633835195281,0.81207733524548,0.813821916629384,0.817140161185123,0.823357594545017,0.822933127164925,0.822794099831955,0.821375824179676,0.819687624630444,0.818117181707751,0.816430167996788,0.814830617071641,0.813393839765957,0.812213752257768,0.811983082775799,0.81205870648811,0.810923619577986,0.809462647240911,0.80864958202581,0.808140856439857,0.808052666025606,0.807998629755195,0.806283894156119,0.805245030347046,0.804158592612397,0.80324566439037,0.803038897341046,0.802528137324801,0.801588268778693,0.800647693537001,0.799909605306512,0.798538797577501,0.79892175524263,0.800308761618508,0.801309323970295,0.802114838513019,0.80629314026882,0.806700895623873,0.80662241332944,0.807282691344082,0.807978414661799,0.808356560597019,0.808818361593859,0.810913954270343,0.812613144487831,0.812314504485775,0.811259606006198,0.888734149027089,0.808827577454751,0.808348450490039,0.808097030946688,0.808335809048468,0.808628320622789,0.809747807197356,0.811600232388677,0.813436861129096,0.813784856752051,0.81228741749172,0.808149379193787,0.807649320058095,0.807180557018408,0.807163891411118,0.811019785647107,0.814547961112649,0.818435315645774,0.821477762011191,0.824990708459412,0.825928177370465,0.828747411204797,0.82778112933056,0.826554608591997,0.825642731736527,0.8212336906405,0.822009545889537,0.820847887136287,0.818933570900151,0.819010550479827,0.826816609460521,0.827456757398654
0.784473542495487,0.782944982346736,0.7822415726136,0.782014931104666,0.780903028465389,0.780336654784732,0.778501352814747,0.778781101631988,0.77793734404713,0.778293338370646,0.777548141847263,0.769272549392218,0.770465951793536,0.771509616676508,0.89829168354028,0.794482085019543,0.795600714923325,0.797008763480045,0.796625285948333,0.793885170632593,0.794300509219458,0.794372121743899,0.792542102108513,0.791566771228051,0.78603116581858,0.786499355905935,0.788294627975125,0.789440897577302,0.790690878400252,0.79385983452729,0.792822489323393,0.790773396579291,0.787489393479298,0.785800896262549,0.778908906495648,0.777621175664873,0.77749702240817,0.777528066819167,0.770815610772345,0.772699967657925,0.774017679707535,0.774208538576893,0.772885675697141,0.771487813122958,0.771050687788297,0.769874469539812,0.769316426366117,0.768660529662005,0.768974459190722,0.771416431478108,0.773242651667512,0.778385953999917,0.781920206157711,0.980249801941011,0.775891930265586,0.860663028120345,1.02464344032472,0.805412198103533,0.7999961680576,0.798028875698391,0.79714162353136,0.795477879119974,0.811286622449501,0.960271842868297,0.836924612180656,0.827857002752454,0.826879142266655,0.827306151185623,0.82051003296031,0.828773443877367,0.826131470167776,0.825470106229549,0.826229498329693,0.826247435330313,0.827409368323644,0.826916715208976,0.826378845038935,0.82614386833646,0.82594054905184,0.822962123600114,0.814209480295391,0.813022664339018,0.812281916084762,0.812758664724219,0.811235368536241,0.809765943602405,0.803806152104447,0.809958044801988,0.810642930803904,0.811346887683716,0.811984223147255,0.821759865558651,0.822736955293095,0.82344705943478,0.824260595055438,0.822382854103973,0.820083285571492,0.818696849516644,0.8167638241308,0.815756387685682,0.814215727528046,0.813896060159103,0.812854330652633,0.812084235275457,0.810485089562534,0.810086540697623,0.810106517718603,0.808572955883401,0.807896746707252,0.807111132985634,0.805674226833916,0.804331360077362,0.803781316075012,0.803573110885645,0.803251818130816,0.802995680205887,0.801519364755508,0.800866438080696,0.800022473405991,0.799324627293756,0.799985645698066,0.800764138998808,0.801591070023448,0.80205361452691,0.807683684915592,0.807168462944813,0.806136779438966,0.806603300671433,0.80638403773262,0.807716291008125,0.808859355264279,0.809819147891429,0.814211933640706,0.815218198814019,0.818324191969055,0.816438359130548,0.812045610690788,0.80965109252293,0.808296068816537,0.808181243014024,0.809300585613401,0.811202248216958,0.812484258080797,0.814114218073293,0.814492674124419,0.810293468152671,0.809357348242398,0.808935867859484,0.809316115030356,0.808571757344088,0.81185119204026,0.815023869161509,0.820899170666747,0.821688891333092,0.826736094495495,0.826697681155302,0.826282153664031,0.826654331820802,0.826113174554202,0.817823420578307,0.820344096327707,0.822105810332596,0.821546657940112,0.820217987846124,0.971711299482537,0.830485323801094,0.833599416889822
0.785036598793561,0.781470795309014,0.781452980415247,0.780673935941505,0.780714740191262,0.780851898661615,0.781285162027555,0.780593138370969,0.779613014452907,0.77927407270873,0.778674528876067,0.77956674105254,0.78338556521698,0.891618667181973,0.796129920502417,0.795689176563886,0.796328594133086,0.79812625699132,0.799705958012927,0.799677381887901,0.798314141128015,0.799038804198144,0.792769934972051,0.788937461970274,0.786295226739698,0.78659331974963,0.790630408164306,0.790832967066644,0.792703179681506,0.793314821381303,0.792912514353528,0.79288761591249,0.784570599033872,0.784259740896551,0.778327028082322,0.777547909367463,0.776903621196646,0.776696799917001,0.775009389392989,0.774606628518637,0.774563366177438,0.774645665585455,0.773340562849253,0.769482037896952,0.770599513601229,0.768185624072909,0.767746867472695,0.767453512787025,0.766305298287494,0.771961881538776,0.772808907212139,0.782505119738117,0.783107244087424,0.783204684358489,0.777969096481022,0.778550495852507,0.789822839738866,0.793813259516325,0.799369916974927,0.795133125119535,0.796419772032762,0.827865555954726,0.827814649658855,0.827086910548475,0.826254792250066,0.811280613628067,0.83746032480058,0.827620110346561,0.828826437300408,0.829585236355238,0.829316536085376,0.831012138849535,0.83048489953338,0.830973866674709,0.826271221637537,0.825715898028032,0.825271644552923,0.824638924152593,0.822226952546062,0.813779234939143,0.812925096715757,0.812525689087972,0.810639228979523,0.808957402271648,0.808891192356,0.808327209565027,0.806821780114024,0.808542393689673,0.809118679382706,0.810587305687095,0.82260267732349,0.822579973930975,0.822957755109662,0.823383412460154,0.82479569350046,0.823332450311229,0.821091063722938,0.819969551230207,0.818967382511921,0.816992602880534,0.814957143666939,0.813833286617671,0.813420368077902,0.812023239103155,0.811344997168845,0.811440760344267,0.811437170873616,0.807762209570123,0.806067080724633,0.805498278058519,0.804413327764209,0.80364833712135,0.803194613638124,0.803056751199612,0.802896890307329,0.803097550445656,0.802507870615434,0.801364516612548,0.800955252800698,0.799390211043703,0.800362249384866,0.801240158326178,0.802144086588443,0.803699120594074,0.805899985270221,0.807116370046574,0.806702054670909,0.806686813026068,0.806411952415673,0.807211581769474,0.808913965641752,0.951264704800816,0.824297793982632,0.821961163834146,0.821128125365621,0.81869226495429,0.816843541236852,0.818389756560368,0.817882616716946,0.809304044148869,0.811152659857283,0.81294586453192,0.813102634145311,0.814188851146546,0.814425150196579,0.810327103566846,0.810408837867263,0.80940067413214,0.809124848697729,0.810012539132084,0.81360722956269,0.814914366469862,0.822926824822941,0.823743604958553,0.828795295272944,0.828135558948965,0.825951927028921,0.82638156610169,0.825618393945262,0.816175299611974,0.816672492808442,0.822619715568756,0.822824776425198,0.823034048744618,0.828746738536778,0.832669491585779,0.83423236871021
0.783066194290475,0.781095810237738,0.781152797685841,0.780938136313829,0.781100708762109,0.782286062945857,0.782971141484558,0.782598431531985,0.78295837165701,0.782093194562643,0.782041710518535,0.891035189150643,0.786093158167776,0.785149396691689,0.796233021517521,0.796072575485975,0.797229055783702,0.798945659587031,0.800191957613737,0.799484334779287,0.799516311604558,0.799575634055707,0.793189798013006,0.78868393309015,0.787399807221397,0.787991619461034,0.790211575018031,0.790460980037584,0.791111808306499,0.791348147840096,0.791503097509369,0.79115933117837,0.782915758916838,0.783648160454617,0.777341934838295,0.776913109134791,0.775113836313978,0.776891393973471,0.776133628133956,0.775712436581583,0.774681868823419,0.774217261244181,0.77386419349999,0.767976894074621,0.767439243338078,0.766986631226355,0.766767043934718,0.767218783210994,0.767343354920342,0.770570073615414,0.774417739057068,0.782203744623205,0.783494116396172,0.783494808563367,0.783259272606034,0.780733356829474,0.788225719880551,0.791721120029483,0.791680294416288,0.793033826917294,0.795353789350138,0.827950222936926,0.82808765640962,0.828307244931504,0.92345001751142,0.918801532367976,0.827308354425373,0.827615823650465,0.828444386433842,0.830022532846221,0.831984907163511,0.831572539228332,0.831122890956136,0.830975656006794,0.82674546620849,0.82644912208098,0.821331215311889,0.817811147553488,0.81271545829541,0.81312216451397,0.813899715463172,0.807494821272289,0.807871910421132,0.807309555981903,0.806465051477926,0.805216446354461,0.805900827987643,0.807689673080299,0.808872411048457,0.809882731650105,0.821542019360584,0.823165811722003,0.823238620452265,0.82339494716148,0.82378099709496,0.823486378411894,0.822786714100904,0.821171636484725,0.820054900234848,0.818715524290032,0.815110683447109,0.814680839863154,0.814752861519788,0.814812470019347,0.815267845637225,0.812780375871039,0.808794861909544,0.80779022593574,0.805184805581673,0.804997846224943,0.804692041257442,0.802835016351377,0.802323292662102,0.802193951633818,0.801514744903339,0.803542506680181,0.802479743442495,0.801140148795193,0.800482391986402,0.799538245847374,0.800360730708249,0.801585014713859,0.802122994793009,0.80334014739697,0.805392445042042,0.807750736126461,0.807775749540565,0.80711858956858,0.807274100049484,0.807954377586695,0.810574027550859,0.966230857118798,0.823465157475712,0.821754769414961,0.822181036325013,0.820240530882314,0.819353909989577,0.820474930651318,0.821274548007486,0.813713889971021,0.812610988039254,0.812934947682453,0.812938614138381,0.813378374670378,0.813199282791775,0.810947368782223,0.809270943325415,0.809223171415678,0.809316515115545,0.810177463665834,0.812371037998259,0.81520935625773,0.823915393987697,0.824106787684864,0.828886331663874,0.829725131290197,0.82942162271589,0.827109401540414,0.825144736900342,0.818534902190825,0.818835631196463,0.823327319125951,0.824464792111079,0.826584915955229,0.831304158531953,0.836716536002259,0.835885299525316
0.781415183991049,0.780576790556196,0.781116832684154,0.780985570470803,0.782404467545433,0.783631303554331,0.784315824512771,0.784145072828343,0.783946560546965,0.783582018587794,0.78341620170979,0.783981269935689,0.785360373872384,0.784724264636859,0.791970949464469,0.795441399119425,0.797037909458939,0.799955734732606,0.801381573703126,0.805587012871408,0.800103011077705,0.794946238096692,0.79409995327702,0.79285320925446,0.79162517426877,0.790202928203816,0.789850174690853,0.789794570989702,0.78957755317308,0.789888266032338,0.79065234932598,0.782375999719745,0.780792176132607,0.779912566118589,0.777157689847028,0.775068443979596,0.774378945639616,0.779480601455002,0.781704795345586,0.781068439143584,0.778924234522823,0.773694063814236,0.774195002326552,0.76713679745015,0.767029351933579,0.766615081269112,0.766781033490545,0.767197453326485,0.767377186640743,0.770829600755168,0.776265388468573,0.783169218405747,0.784169342361311,0.784454918383573,0.786915937400662,0.788185691135557,0.789437727109516,0.790645919232298,0.790428935286231,0.792309356430217,0.81154015228702,0.813463769446193,0.819306400769099,0.815561613707976,0.823973605952756,0.827125497922808,0.826854815901419,0.827985375301839,0.828056696500638,0.830292719614849,0.83249316865691,0.832996033002167,0.831800384569023,0.831110001282356,0.82736652139304,0.822726083263789,0.81552208034288,0.812765981940382,0.811734941351195,0.809391408054508,0.808434221973386,0.807259961909163,0.806900229024009,0.806539044712454,0.805868135672169,0.804976338679813,0.805745786749701,0.807741888984616,0.80900695984382,0.8151959066125,0.815694052235301,0.823289400778911,0.823522735164039,0.823844153168027,0.824138269998171,0.823599491893961,0.823162978622083,0.822039186025892,0.822153387306294,0.817219162438812,0.816552967012055,0.816448914530619,0.815954068441033,0.816516700142314,0.81656715413896,0.810781561835197,0.808857038166776,0.8082186377654,0.806821289839438,0.805081023785538,0.804236658346226,0.802497364220026,0.801107458149931,0.800111780159924,0.800172451697976,0.800349289724567,0.800667129046046,0.800285955964169,0.799854331383911,0.799220169724286,0.800717633810827,0.801361121728371,0.801602505596665,0.801968610042776,0.80362634577515,0.807819939221156,0.806999317729697,0.806674385254376,0.806488054487213,0.807651916140212,0.812590105068604,0.819493449717513,0.821741934454485,0.822210402422689,0.82428190568726,0.824353751650808,0.822993296418242,0.821713866504792,0.821091559465674,0.814408784490712,0.813330162608741,0.81252913049952,0.81239834601793,0.811830143190166,0.810785723215809,0.809497063873271,0.808587221701932,0.808883338047532,0.809567521788065,0.809840125864868,0.813462788292308,0.823936503923213,0.824466744653519,0.825006365648257,0.827781531532966,0.830515600410825,0.830052220942719,0.828176280493566,0.824652273652654,0.819240752470364,0.819732694749411,0.824157921248969,0.825358704707296,0.825774406194917,0.831800087771902,0.83757678148952,0.840138164829097
0.781075224819314,0.781489100156917,0.781577005018572,0.781435634357359,0.785716893579418,0.78634339208888,0.786101322312066,0.785696188747052,0.784260813422428,0.784261952184689,0.784396855946094,0.785551475553367,0.785655261803916,0.785260944713307,0.786818109231503,0.792927851790315,0.799706176558397,0.80083387104063,0.801371601371729,0.806025472950371,0.806357219745056,0.797182892254019,0.795640231881999,0.793784328570822,0.793797732955738,0.791608233910676,0.790003132488099,0.789312037476217,0.78817633358319,0.788362660969497,0.787723583663268,0.779341168331449,0.779914590112339,0.779854684277392,0.779274495295236,0.779454833638967,0.781922140187509,0.782360682853025,0.782868340709209,0.782854019911075,0.783310941451529,0.778706286578691,0.776575047574397,0.775525826859074,0.767351274393451,0.767774355883989,0.767943339199656,0.767589644888196,0.767647105812465,0.767976981241898,0.777033755227288,0.784890147264249,0.784861617111699,0.785555128004538,0.78715740051632,0.78912483965291,0.790147241280304,0.790458261826169,0.79015243705088,0.91096384022071,0.81248977697235,0.812735654726213,0.822187056285791,0.823327274323261,0.824707477104945,0.826767931094257,0.831062819534005,0.829831262690656,0.829623081843497,0.831514443931855,0.832392910608424,0.832467825780756,0.831825504745393,0.831669446374687,0.827305203122864,0.82844179003141,0.811444730325806,0.81126024699382,0.811100594885166,0.810623086459477,0.806622284873807,0.806147783467491,0.805955305807105,0.805598751961087,0.804883022856737,0.805274865253962,0.80627381658908,0.808675942539613,0.810557368197009,0.815622230474484,0.816941415943017,0.82265833405003,0.823830493367541,0.824507833004928,0.824829969520297,0.824345221573878,0.823723374428268,0.822122268407313,0.81924848766899,0.817522824773995,0.817082258267894,0.820006854484177,0.81904996726882,0.820067414715187,0.820504039050379,0.810818971616425,0.809321561899443,0.80964832817001,0.809469596655296,0.805198995422494,0.802322813367354,0.800644612237592,0.799589185966966,0.798842759233661,0.798717764277311,0.799260556762545,0.800084451162677,0.799310445569703,0.798221098073359,0.798575964080931,0.800588656449103,0.800473605737227,0.801080976980027,0.801569896427698,0.803534442086893,0.804927381701497,0.805791859009376,0.806226825266629,0.806395121307812,0.807089384111188,0.811393345393571,0.814174122624504,0.8209771402531,0.819674478643043,0.825628479323078,0.825532437099439,0.823039509032005,0.82209782666644,0.822142485391868,0.815017490773611,0.812069655327145,0.812672890583168,0.812520322517856,0.811887490207582,0.811023812460365,0.809539542669472,0.808388337463325,0.808346397906345,0.808542329618321,0.809119047690856,0.811915742614072,0.822989764429893,0.824533239557944,0.826240835706261,0.828231547345842,0.829749610207935,0.830024654889442,0.828792190897522,0.828608361951196,0.826624799802226,0.826984895410913,0.827791510929359,0.82817425222911,0.829621072818695,0.837276220134322,0.840903356006073,0.841784100992558
0.780952122136851,0.781974333273121,0.782312931338669,0.783204257088453,0.78870140536223,0.790205057764283,0.790458524696009,0.788789984020551,0.788482126583377,0.786054293920663,0.785648990332988,0.786141901560651,0.786040080266511,0.785065086715067,0.787602766790358,0.793624210436164,0.800710095787348,0.802010737015588,0.802781387475559,0.807626474009399,0.808168314006873,0.802396138197846,0.797279861381823,0.798116863373275,0.795562683247276,0.793582646305619,0.791213357335524,0.789282255870778,0.787803692416781,0.786987937594522,0.785844607032603,0.779052277491247,0.779842407832031,0.779960348632695,0.77993229896207,0.780362401010676,0.782639022401525,0.782942407133807,0.783697913336462,0.783910051531537,0.784378384136659,0.784247409781575,0.776704327880683,0.776241550210468,0.773616935992709,0.767505401778338,0.767424188372191,0.767855433489447,0.768016339836966,0.777291784689787,0.778186211083869,0.783928284419879,0.784545185649431,0.785319534429204,0.78647199502269,0.791979313978491,0.794655005414591,0.798138730517981,0.846817467049827,0.813191642282224,0.814709005263559,0.819599807979859,0.823378318532137,1.10082430441524,0.826342740850017,0.827641297372406,0.831522015957383,0.831682024771695,0.833712809346569,0.831797801576189,0.832727759129741,0.832285774387869,0.831430199813543,0.830757437931397,0.830432782755883,0.813155560479731,0.81161191236995,0.810263398107847,0.810875947975606,0.806231825610389,0.805832016106105,0.805391518259889,0.805432322884135,0.805394782644177,0.805493923517127,0.805623664781438,0.810891227265587,0.810379622850133,0.811074506183097,0.817159815975585,0.818081549276368,0.820754517702834,0.824628855860116,0.828058984727961,0.829334780371302,0.829138263194787,0.823237040636191,0.822086623626616,0.819719296415467,0.820417296939945,0.822798619036776,0.824076327597009,0.825312378616875,0.825795874561524,0.820806800273142,0.815344638724915,0.814878454617663,0.812492324875268,0.811627361243995,0.811503792845621,0.801846882454126,0.798167675504489,0.797859615659408,0.798204952721877,0.798266558764318,0.797848997260254,0.798595103762341,0.798341195084137,0.79793110253516,0.798323930842414,0.79967902967166,0.800376377490076,0.800798006097556,0.801584424307043,0.802711759845988,0.803975307294311,0.804877575701173,0.806021690034293,0.806373420413093,0.807844494271093,0.808448196225862,0.808957939691819,0.820313779154618,0.819651880640547,0.822442997112099,0.827619702069019,0.822370121156297,0.82145284837434,0.820966739175382,0.817094243367138,0.811220003163165,0.813316387229479,0.81313336086958,0.812842255095915,0.811853609846329,0.809938894856533,0.808521613821797,0.807774648602685,0.806928870964129,0.806939863104908,0.932519655378146,0.823834643567025,0.824378782104873,0.825702721302853,0.827854083333883,0.83011933181822,0.830264895891748,0.828831969012398,0.828268770796873,0.827688534916674,0.827411003312912,0.828556386788489,0.829927481113958,0.831329520567338,0.836172094499569,0.84145231817882,0.842775177348566
0.781906631713348,0.786303211190586,0.78548881205955,0.791187528014086,0.790535139749754,0.792006561017938,0.791396554075959,0.789969425233928,0.790779071577986,0.785797958403279,0.785943298501718,0.787482096228331,0.78715362427867,0.786553191791151,0.791941265752982,0.796902546469471,0.802534336076439,0.803075735502601,0.882702136703198,0.810695759834908,0.80973604137587,0.802669116520478,0.798202081916876,0.798789627787166,0.795127491495881,0.794814998413056,0.790597826128424,0.788870369120781,0.78749398808398,0.785852818409368,0.784721460700946,0.779041558924423,0.780700297456878,0.781172533831815,0.781766866040586,0.782084538525091,0.784001276125079,0.783380958233293,0.78357679703653,0.784547641603172,0.784820463027732,0.784797728659014,0.777562046265143,0.777096407046821,0.775496995310444,0.771224802822086,0.768150015962562,0.769041514397425,0.771360634788868,0.777539380019585,0.778355489744409,0.782580523858901,0.783792755706755,0.783726258927533,0.785306259223744,0.786133504414379,0.804152294780018,0.807737809748931,0.814511068986398,0.814206988734248,0.81502327514088,0.823525060462731,0.824656626966744,0.825102959195973,0.826712437878936,0.827159111881074,0.832497735582391,0.832410440744443,0.833422260305101,0.830975059514241,0.830436745278877,0.830170238587347,0.830918477677069,0.831253639727442,0.996135196793975,0.8084347342368,0.808041181768881,0.807760211838531,0.806423346622514,0.805676552292811,0.804408117692355,0.804225124724086,0.805004124102881,0.805061528671545,0.806180423426904,0.805872039434789,0.810933394495011,0.811022805474268,0.811253723561071,0.815087608999598,0.825428377003643,0.825525188681595,0.825216590232553,0.826318102822755,0.830324268970638,0.830296014920779,0.83045707355715,0.827140772896177,0.824350767068336,0.824592072748931,0.82421488392019,0.826058892419127,0.828721445799823,0.829839281468888,0.970478599416347,0.817053733731332,0.816869443768223,0.812771918191746,0.813092231772727,0.811467426684702,0.804217717858089,0.797121965657495,0.796146288656947,0.792870392085208,0.792559117827354,0.792758863288709,0.797523691961263,0.797333366633274,0.796219802424049,0.793842876681014,0.798417600286332,0.799897349463278,0.800104765106178,0.800388229365104,0.802174561591489,0.804251670694907,0.80599632260109,0.80678799107566,0.807883117817937,0.807324085260759,0.806913499824652,0.809955248930287,0.819179214262663,0.818321468723939,0.821062396283402,0.821607823532093,0.820638097611454,0.820528115027684,0.820369393781222,0.816822053281229,0.812989337509318,0.813581496023094,0.814064853045875,0.814834074201173,0.815852585750923,0.814893339680502,0.8082861107014,0.807730215522239,0.807420196236915,0.807861104881607,0.80845010163865,0.823367988855646,0.82356761635613,0.82496753771333,0.825669075388108,0.829424877857301,0.829023583170054,0.828215747750492,0.828203543408638,0.826783523493551,0.827425327722653,0.833357982863867,0.832938558151022,0.834123024568958,0.840708714391146,0.842573493700498,0.843593439102202
0.782098021677248,0.786704533514286,0.78561088015436,0.797190762577872,0.797374114472583,0.792426389566122,0.792985789441528,0.789099542649223,0.785371487599873,0.785310846167265,0.786517904220667,0.787944775001522,0.788151695021566,0.788320853842977,0.794014689894875,0.796858743464211,0.803103737254259,0.803571614124898,0.803691750845188,0.807855361500779,0.806121275268362,0.79801497934284,0.797249937865056,0.796381101252458,0.794948053650323,0.792287243106549,0.788752286656975,0.78802063574913,0.786741148888301,0.785374277703956,0.78474474814567,0.78510925575169,0.78289151119442,0.78232599063271,0.782528201496485,0.782871603884052,0.783287998830195,0.78307184370047,0.783056165034576,0.783947117139717,0.784041377228439,0.782119917470338,0.779399733557787,0.777638932355803,0.775970209921873,0.774942000616241,0.775196920021553,0.776640385926712,0.776822145102356,0.778659426712822,0.78074670251113,0.782691407525276,0.78399329286306,0.78368117381285,0.784369083672091,0.874867808500032,0.807731215829882,0.810300000688113,0.812275672361465,0.81447023674757,0.815812240645655,0.825073812573899,0.825907014365546,0.825793691929556,0.828761046065409,0.832281681391583,0.832707717872845,0.832599880150264,0.833448625379377,0.831908254898908,0.828467569608307,0.829581584130753,0.822164121200019,0.816922379221435,0.814063215383625,0.807030781637907,0.806765114908581,0.80639063585889,0.805483935162205,0.80430583481503,0.804105663601657,0.804644605722587,0.805376122885058,0.80601247418642,0.806488722746511,0.805931999129038,0.811224933781855,0.811628377064716,0.811943397756882,0.81291810054619,0.82572774626237,0.825470598073218,0.824780447714276,0.826182020297079,0.829566473385196,0.8312055772002,0.83389831928436,0.828566636036909,0.827381280993132,0.828058054809198,0.830296131660013,0.830679114673266,0.830354530640308,0.831546344310906,0.829490751866662,0.818007795367365,0.818113569443663,0.812423365455415,0.808427842462896,0.807071318002873,0.802083502003536,0.796160329311566,0.795926059448139,0.791922281101691,0.792006465766782,0.793034572118282,0.783680878803137,0.784412874878487,0.784690961542703,0.793370963699264,0.795184079054531,0.799892611647729,0.799260463274186,0.799125650324183,0.803169263758216,0.805555266131715,0.807728892413545,0.807400196460217,0.807901840254678,0.806169004323253,0.805522873785896,0.810546292405071,0.818642536136489,0.82043229602352,0.820655179063385,0.820122146942332,0.819797762991154,0.819674668872293,0.819415710941949,0.818173196132387,0.814011529344904,0.814730329385052,0.814915576531987,0.815692038271804,0.818248127819643,0.818463125409494,0.808398754052027,0.807746798599013,0.807587611020583,0.807782884643093,0.808567561735485,0.819427088825219,0.821915382943856,0.823247613828989,0.824880875387057,0.827221724673808,0.827567374119882,0.827103035728235,0.826476030761492,0.826691287683074,0.827302540409578,0.834089608893296,0.834009101685465,0.834706648187886,0.842125605210043,0.842664298096563,0.844966119185961
0.782990696340978,0.787317285389305,0.785400559748144,0.797227834447364,0.797426092682631,0.791027147413679,0.789758072379479,0.788772141265752,0.786787203564671,0.786674510292581,0.789138967539995,0.791955941088067,0.792855025887095,0.793248310720523,0.793892153992203,0.797065123134255,0.801674051307044,0.803282156533883,0.80540361620418,0.804530139264258,0.804694757549545,0.797063963391835,0.796034872194037,0.795556582476212,0.788995797296099,0.787876309261893,0.787386248921376,0.787463849804287,0.786625056756271,0.786048097774751,0.785858739733649,0.784613083813305,0.784016495464791,0.782270693125169,0.78189999774661,0.782202937663856,0.78249943650921,0.782589996161392,0.782275995060213,0.782833482952972,0.782721456128868,0.782131382669795,0.780744174083943,0.779587028116301,0.77783938197538,0.778762011203404,0.779941355392564,0.781065085073145,0.885775668868234,0.786146795370079,0.787971439303416,0.7862559615961,0.785291198998521,0.783902798615579,0.784256643281492,0.88969151955438,0.814077290559064,0.814459709697886,0.81488658376536,0.914571542414425,0.824736787573562,0.826224756878658,0.827199646795239,0.827184864899361,0.830443671293918,0.831307251588089,0.832719739420327,0.832124840943745,0.833109937162778,0.828572857311688,0.827494826888626,0.816430666488765,0.81491099857205,0.813569163290855,0.811539348738567,0.807400486051893,0.805721019676355,0.805296987022648,0.804003319983723,0.803706424466657,0.804411548195199,0.805355738192646,0.80589498781,0.806172365715334,0.806425372758232,0.805948167133386,0.811589117481958,0.812359330469555,0.812824194861249,0.813243826611605,0.816592584947703,0.820591544406933,0.821962262539516,0.821855590617533,0.82838576561538,0.833493373561787,0.832972354482802,0.83108473132122,0.831265290622744,0.830666452872293,0.830653357780498,0.830581351241056,0.830060676906142,0.83357900677602,0.829631783592291,0.81690702267969,0.816836747839256,0.811731209333824,0.807710212236081,0.807717380625992,0.800314368525613,0.79707932410648,0.795952946189017,0.794621518065456,0.791441598702147,0.783222622163405,0.784199803663313,0.786034678610851,0.787512537636269,0.791661413597264,0.795047208700241,0.79620818859486,0.79861912731159,0.798110888010644,0.803894823339281,0.80764720467146,0.808226334831976,0.807135784832686,0.806106977025113,0.805672987095911,0.80578060702159,0.815758394553144,0.817264644501164,0.819406723869719,0.819199080072024,0.819417358231697,0.819762524143471,0.819113568487826,0.819099821515815,0.816340502858593,0.814973677155811,0.815373758079694,0.81532187065485,0.815924727886634,0.816439409186976,0.818889377121575,0.819652220164895,0.807892179300892,0.805383081962563,0.805821672493928,0.815274264788032,0.81705276446794,0.822064221832025,0.820046844954292,0.824848909319847,0.825524923489035,0.826093102158302,0.826343022615479,0.826017848034565,0.827215245183985,0.827742140914307,0.833494373357415,0.834936890283282,0.835795207481268,0.841059449556804,0.842666978244892,0.844182021108315
0.783600602965854,0.78680472683571,0.784811207231481,0.796086953793579,0.795638029171791,0.791122221719703,0.790292988039576,0.789573614100577,0.788787654606818,0.788184028690544,0.793557990675999,0.794829018572048,0.794688761445518,0.794992794509,0.796224890012566,0.796529189424604,0.796316507182792,0.796730330892429,0.798313955272546,0.800290370741284,0.799174210197461,0.794963117732442,0.794438240649571,0.794467724240045,0.785445876808765,0.788074416455164,0.788338903093865,0.787826802684109,0.787637801532136,0.787548465140706,0.788442411166833,0.789032684214049,0.786575807218019,0.781717100641595,0.782051700490369,0.782646946655008,0.782120651234948,0.782484505079454,0.782135026566132,0.781675595603706,0.781820708287191,0.782032065081279,0.78209342441513,0.780803265000258,0.785803104474597,0.786435759802811,0.788398761576958,0.789363165573011,0.788787504517621,0.789141009852858,0.788946385054572,0.78910501817146,0.786533366900726,0.784032264554992,0.865852320681548,0.935659152852916,0.814660427798168,0.814841057689906,0.814929293420577,0.820400779895255,0.827367041008064,0.82815709197936,0.828835598760773,0.830167536274918,0.830642870171601,0.830539985651546,0.831117244323229,0.8302454649756,0.828662058708046,0.828579398232424,0.885149046902409,0.813135756149857,0.811000023160301,0.81037081091463,0.806922650357073,0.805798415137901,0.805020919318062,0.805016690507768,0.804304035126976,0.804513199503643,0.806284824775579,0.806733183413686,0.806718377361754,0.80701776653591,0.80852049864837,0.810241374427532,0.812254879963074,0.813440164010708,0.814877651465802,0.814713160229465,0.815734711738119,0.818851942558066,0.820801480067204,0.82256357958647,0.826322821478247,0.834276261637684,0.833430493248004,0.831728889863128,0.832265252643261,0.831519199507844,0.825851020875821,0.824584418127738,0.82698409431781,0.834590285483012,0.824618942020502,0.81671303411304,0.812462866964678,0.811311346712446,0.809133870149153,0.800685723422105,0.800127953204801,0.798010236273468,0.79644722813801,0.795729558066675,0.791421468840676,0.791560060989006,0.789078775681205,0.788672476643289,0.789688766620345,0.790819852950861,0.795101069489158,0.797002067003685,0.800573356214689,0.802583956778773,0.8056230290736,0.808032943589666,0.80752559993404,0.807054565136559,0.806108942238187,0.806004202338227,0.810687401206342,0.814855093400036,0.815835770425397,0.815614761472146,0.816684691220442,0.818329407904878,0.819486617711657,0.818319784105305,0.817547987201902,0.816195714232199,0.815921269967896,0.815909418032266,0.815367324191282,0.816394713070161,0.814898954501466,0.815341308904654,0.809882460544264,0.809097915018269,0.809944035743409,0.81111334987287,0.815740454958859,0.816999901209661,0.823783752793788,0.824925515207818,0.825093741129145,0.824971683845595,0.82573103532216,0.826273459002909,0.826518701889687,0.830735448975963,0.83079463103377,0.834216374750298,0.83702906536084,0.842137313400736,0.84274700600982,0.843940275278672,0.843208583354575
0.783758697484279,0.784585511235349,0.783768805902446,0.794290478716134,0.793708473400505,0.791405123038872,0.79051177506188,0.79045508767978,0.790791557114179,0.793994070250035,0.79470093696468,0.795972297940471,0.796569129325101,0.796563586495751,0.796334280492041,0.795394275775193,0.794562099622106,0.795637919526451,0.797054542666233,0.796972025494992,0.794985989562108,0.793596385204857,0.792221959111279,0.790430700690273,0.785481263876115,0.787915226280013,0.788425415130466,0.787980154826342,0.788031865123201,0.788482340708852,0.788892929050708,0.788517108974381,0.787850032700586,0.786895595889716,0.785895074275571,0.78480138215828,0.783317916286142,0.783287540844486,0.782247410931233,0.782642478489534,0.782432007769122,0.783982295195461,0.784505043632229,0.786406859552185,0.788168452602957,0.862009073855686,0.87197032021005,0.800778880212733,0.794637582942185,0.794997638390522,0.794257869934184,0.932774413391826,0.861324729879057,0.93377700944566,0.868926482467182,0.929027538231133,0.837075260741266,0.823486046201614,0.822356642693075,0.826665717934796,0.828271037711215,0.829863939011406,0.829816825952672,0.830299067541426,0.830252641557569,0.8306404289313,0.830875449683872,0.829229617109542,0.827917190736506,0.822301632559739,0.820844803559011,0.808149001876166,0.807249923568814,0.806391915834351,0.805976530774456,0.804714300227258,0.805126197674456,0.805473681112478,0.805388648845314,0.806257389003711,0.807475233401389,0.807690088047299,0.807468714470624,0.807083267263644,0.809170394191859,0.814244314980606,0.814624255815956,0.81436973362749,0.814470925034377,0.814516611328517,0.818505113281475,0.818934903788635,0.819807781035535,0.82081589634622,0.825239661799219,0.894182249616755,0.829691852552008,0.830306454126372,0.829547182243222,0.930925363292541,0.822463135102757,0.823115813803279,0.821935798568768,0.823218165694677,0.822987400503415,0.816496911508978,0.81219818623303,0.811023554777904,0.809529298382456,0.802022037010781,0.801636469288878,0.797662277020531,0.796483710941997,0.795050158734011,0.792734528017072,0.792114568321286,0.791146993290777,0.790417710580696,0.791160557758116,0.791580976569115,0.796785640071162,0.801282593690252,0.801992703071796,0.804415559573265,0.805793815025798,0.807397899174256,0.807898690831402,0.807494737061083,0.806761584662088,0.807817280211393,0.812678995715445,0.813881203166735,0.815064788491598,0.815734072593856,0.816327873861174,0.817243369995206,0.81751552649986,0.817346565586084,0.817161977736202,0.816199187057467,0.816277488357437,0.816554165193782,0.812819496184372,0.808905534052858,0.807567256357753,0.807626978665862,0.808992255701596,0.809434829504067,0.810447809127078,0.812148152808962,0.905416689922856,0.822837467925334,0.824848119159166,0.826171540092596,0.826651622815741,0.826019430573896,0.826451047774998,0.828350630045958,0.979818506616962,1.00718490303487,0.837691710273351,0.839201878605398,0.839610266808912,0.841952823477061,0.843069436106668,0.843786689008053,0.844096706239569
0.782054283248931,0.782978800703285,0.782887717076404,0.791134797541193,0.791608565735127,0.790231018562337,0.790513510893813,0.790985990592507,0.791705490607665,0.79502864081972,0.796709996249981,0.798911281934699,0.798562918800762,0.799295876580414,0.794911814658899,0.794138193984311,0.793356377589367,0.794160068191578,0.793089812350907,0.794100243452345,0.794930501134495,0.795078549261391,0.790086773665916,0.788979462137978,0.787751757146938,0.78790355461887,0.787394612387021,0.78773583775874,0.787847542533591,0.788757682094944,0.789085072168897,0.78939654557855,0.789721855516901,0.790527030159695,0.789939853750396,0.78563678297189,0.785200704610116,0.784836970972427,0.785696712777445,0.786749270578465,0.789194124303884,0.785251886423002,0.785540804154128,0.786664788005225,0.788310679977198,0.796411783280885,0.800967226348828,0.802117250181568,0.801296319089429,0.801604855268298,0.802925148078699,0.802794956528922,0.805363048313055,0.804509760117486,0.812976652126135,0.816489408933337,0.817904580413452,0.824179474503069,0.824097764363927,0.827840112864623,0.829330539121675,0.830755381994145,0.830455570466444,0.830836110389763,0.830851179717646,0.829364643052795,0.827624916678792,0.826722143429496,0.824119251865742,0.822642824049445,0.817085115971982,0.808284191882709,0.807367197569759,0.805916036059623,0.805207173264319,0.805321369446656,0.805794007041749,0.806401444967574,0.806826040403706,0.807321566555391,0.80815304110082,0.808368059515363,0.808531569578539,0.808792914628032,0.80938990046481,0.8155906148209,0.815361509500577,0.81498394378293,0.814634088757908,0.815302210033432,0.817230721014004,0.817894284586328,0.818958104577695,0.820207854768144,0.821579577575789,0.822925296718685,0.830624340229337,0.829174286131988,0.825588356914458,0.820053333532523,0.819248063612294,0.819222617667064,0.819268452389444,0.819216618999565,0.832587668063322,0.814434888905735,0.813250274263352,0.81124165349861,0.809265551272903,0.806886767990383,0.802142345813334,0.798463377381908,0.796879727488507,0.795325355076725,0.794373115243594,0.793546473087994,0.790403062120273,0.790903033588314,0.791016982803944,0.791418158057267,0.801624794731491,0.802582523129691,0.802762508855371,0.80463429719576,0.802066306346065,0.802749133124934,0.806925976010269,0.808252959738997,0.80982719268509,0.81133466958387,0.812599635261798,0.814002988842044,0.814896094825598,0.816060042873185,0.816381323734487,0.816106939237396,0.816105318680097,0.816720113889946,0.817009005639457,0.816867230791957,0.815329871594817,0.804536924225022,0.80476051917214,0.805544616892997,0.805953820383468,0.806174007946207,0.809559374269223,0.809972295635199,0.811604738264149,0.819305552683388,0.821951753126349,0.822876235409593,0.826606373577477,0.828394687406639,0.828495842046838,0.826968879411671,0.834839809372107,0.836829616343046,0.84330839033573,0.842949872693512,0.841820195017639,0.83997977969871,0.840638882624436,0.841588465235483,0.84367082222915,0.845224749667839,1.03222028321616
0.781111627830486,0.78118796962279,0.779283500874777,0.778118819363869,0.788547995227285,0.789237172784828,0.79015517756194,0.790994138880148,0.791744959933409,0.796409340660022,0.797354927666904,0.799458550384512,0.799761422264768,0.800982627983828,0.795754280336836,0.794692842159874,0.793776136171572,0.79444916903915,0.793289896859328,0.793995050894487,0.791907517046197,0.788883595316418,0.788802474255428,0.788083951292153,0.786409205346794,0.786462261828478,0.786943125811712,0.787714326333576,0.788483713826341,0.787938320559954,0.78892575961175,0.790059109777028,0.790987567558395,0.79205999231467,0.794004210033879,0.786217871462953,0.785617596110045,0.785618330304511,0.78575613906205,0.786978499888408,0.790756565267563,0.785757999367804,0.785162855018891,0.786811420916532,0.786600223701411,0.800507418787218,0.801485721821543,0.803523160539537,0.804702215500078,0.806660255853911,0.804650723542442,0.804429229012104,0.808831889612787,0.893599959635048,0.819221496114236,0.821053241623815,0.823366469837892,0.824850420493899,0.826564527189335,0.827924992161146,0.831300391634416,0.831372855472169,0.83074214261837,0.831275545533739,0.83170906662922,0.820054987994451,0.820596049365108,0.820726810606791,0.8213742535095,0.817387028134103,0.814071649240371,0.809236748106798,0.807733976232096,0.806030235213441,0.805805825496704,0.806020499544514,0.807092581342879,0.807595373723804,0.80813527883645,0.807518567414746,0.808806757302216,0.809208660775951,0.809775850018231,0.810572814773128,0.811059623027689,0.816539674920053,0.816095661321811,0.815637486570236,0.815119624497407,0.815798492990632,0.815413772229691,0.816738778763758,0.817852558627239,0.820033185010121,0.820761586736208,0.824775919541571,0.818394004415053,0.818912387345401,0.820488518978126,0.819455748458988,0.818992209169348,0.819102438976149,0.818614562660414,0.818640659835006,0.815833786182786,0.814804414853518,0.812309281019213,0.811554505954909,0.809665720926299,0.807032519590459,0.801260399366299,0.799438919221641,0.7974345959057,0.796272434314359,0.79568593016755,0.792834053424519,0.789991048403917,0.791424690585831,0.792116529205182,0.792742901782287,0.80249646915148,0.802581251637599,0.801925948478271,0.80081323209285,0.801707624296829,0.802620127646838,0.808454671862303,0.809422375803643,0.81100055517701,0.812009521303641,0.813328674319731,0.814438692263334,0.814618732931476,0.815249375840856,0.814305691529986,0.813355946093368,0.815540659736149,0.816380715722794,0.816763142686908,0.817005771214454,0.803003176419359,0.803241631148819,0.804344585153769,0.805038624500356,0.805288516694283,0.805076716533563,0.8179547292739,0.819623213023462,0.820101683625645,0.820495305286381,0.824337080701936,0.828461949108146,0.828571233103682,0.829358824495726,0.824378563741142,0.825031648886334,0.885650703885621,0.844038643934083,0.843007391755853,0.842982642894753,0.842500175548103,0.841155522801721,0.841139185636185,0.841202882794213,0.845112051051146,0.919631534754676,0.919549336966974
0.780442692689187,0.779484446997588,0.779174492976515,0.778815360352826,0.782791849350585,0.786818494858495,0.788572544163527,0.791364719503439,0.792283746585269,0.796377360704367,0.797868501169861,0.800371773724093,0.799902199697693,0.800211600726631,0.797008474660291,0.796273417983092,0.795423682406833,0.796139752926359,0.796997617158543,0.794518408588492,0.78939095120437,0.787702910356804,0.787267157248837,0.78635568586275,0.785821609732017,0.786496549872469,0.78787346975932,0.787746864240359,0.788204104691801,0.78767247319621,0.788490797595325,0.790477049818925,0.792026900526214,0.793122252904795,0.797959131608392,0.796515319882847,0.785619926389205,0.785915909057488,0.785170912019262,0.793556431518202,0.793410680695682,0.779964452997094,0.782400592000337,0.782073310605504,0.786079916508113,0.800026409258232,0.802086458696987,0.804974077053747,0.806254238182997,0.807693341026209,0.808184824961438,0.808190518763583,0.813965877609572,0.957395542713854,0.821029045366717,0.82332463666829,0.825095456227183,0.825677169552098,0.827124509292016,0.829480060692634,0.831530968891864,0.831359134618536,0.830428913710597,0.8296443063704,0.874101565141572,0.815047714924743,0.815235208191973,0.819944509523704,0.822521605743944,0.815948311308036,0.81428846399408,0.811203707739323,0.807891372137583,0.806538375153792,0.80670257635483,0.807141004029468,0.808057649021979,0.808789445207285,0.809823954034979,0.808939916781103,0.808923833924323,0.810489002175531,0.810856224122093,0.812139320276749,0.819379252647155,0.821293421189205,0.816945306713879,0.816328661858567,0.816336580922887,0.815768610320127,0.815792234545617,0.815878023411667,0.815866705643979,0.814704023482432,0.819281056984973,0.818946610380672,0.818280692139096,0.8185646492548,0.819686801656719,0.819525958011576,0.818614948465886,0.81918297321597,0.818089322380711,0.818363462134433,0.812119112627114,0.813012651082508,0.813122324065194,0.813089283699987,0.813895733287968,0.809839243716987,0.801585146449405,0.798353673824875,0.797238999764132,0.795920507814639,0.79447663430308,0.792510752016037,0.792255230087366,0.792542089891063,0.793977958016931,0.798689595525817,0.801923334925006,0.802070435879512,0.801634967012351,0.801155375922338,0.801708819251517,0.802917252742325,0.808997043857859,0.810036854444184,0.811776530125333,0.812281686935963,0.813696042828806,0.814893507371278,0.814053369338813,0.813847792828313,0.81414495245917,0.814431472340972,0.815539008124892,0.81611176210798,0.808632867210685,0.808541299464745,0.802277344830444,0.801996849150534,0.804385021213025,0.803897367618872,0.809484977983261,0.80996640271955,0.819276736517362,0.820408162681267,0.821205476194232,0.824615462752008,0.825757286488936,0.829374335569773,0.830449134796041,0.832082625867256,0.832281749033358,0.832551915386205,0.840125957631319,0.842662721000721,0.844205747083968,0.844572880317235,0.844608746979446,0.839962315739542,0.841340289597243,0.842620881125942,0.8458877577386,0.866297657038787,0.866742614668438
0.782029089238037,0.781149635419607,0.779809706213778,0.778157248029061,0.784739165474905,0.78654789921953,0.790690945048679,0.7924443580166,0.79394712916531,0.796651396336784,0.797774195974873,0.800019891244733,0.799480969512135,0.799269281183605,0.798321318281803,0.797630697856354,0.79732565103377,0.797712038506098,0.798461833853173,0.792973973457478,0.788250234215545,0.785724196635274,0.786085689075092,0.785647208866142,0.78563605549721,0.786848609322354,0.787281020140377,0.787248306928874,0.787423413162907,0.787393570220413,0.788010727554594,0.792358435886513,0.793092965137895,0.796209016028157,0.798139420886573,0.792014456355269,0.788853959056901,0.789059269366833,0.789849703055792,0.794186602855002,0.795200754607394,0.779864690995422,0.782079449480322,0.782473349592488,0.784508267545461,0.789046074581453,0.808449489666798,0.808309158227988,0.808069638295566,0.809840234420022,0.811644633153683,0.923356584886136,0.818936220854713,0.821521016293778,0.821973006188139,0.82294883154632,0.825123905518172,0.825843476190113,0.828454799599476,0.830362229206824,0.83114799135003,0.848074690128689,0.836939456786714,0.89697611594334,0.818664928160909,0.811467597076479,0.809816363725963,0.810070701267457,0.811507774704962,0.812950523047459,0.813046216343532,0.811336441334541,0.808168948465999,0.806963832324727,0.808117107405286,0.808037171387816,0.808205998945903,0.809749843264567,0.811931363260598,0.810618080356587,0.809624079895008,0.81042793706496,0.8110304140068,0.811686194157512,0.823111246839228,0.824856192049265,0.817665119575075,0.816548489333887,0.816034876802246,0.816186854272811,0.815723472939202,0.814828171072576,0.81492613299184,0.814467688667893,0.818846765198191,0.818597994223979,0.817409287523418,0.818136063186455,0.819341571407175,0.819627062831145,0.81920733867775,0.818636230229637,0.816612970296215,0.814427569825882,0.814146064279679,0.813376862007327,0.81393331972822,0.813868410046384,0.814153081749204,0.80529753831399,0.800965413767762,0.798029313728349,0.797184124396801,0.79575687609009,0.795223370436784,0.794313502755446,0.794685160107781,0.79773579192912,0.931155467304897,0.801150965877027,0.801633460618119,0.801861688150857,0.802023955679504,0.801601517129923,0.808734336343389,0.8085634321523,0.809137186590667,0.809847209314489,0.810438742053945,0.810693897164931,0.81354473083244,0.813802908390627,0.813138874029558,0.812978971622136,0.81489676959365,0.815330559761842,0.816156932303457,0.816011263731986,0.814840326686788,0.8015886013741,0.801057403470091,0.801513986795208,0.806452600018335,0.807744142263765,0.810573938941227,0.965473837147617,0.821536519306787,0.821879063224547,0.822802307569367,0.828636694638568,0.828672106672106,0.833141389665328,0.832434281137019,0.832220130701153,0.832401504748495,0.837463743747592,0.838688026057821,0.841026385112193,0.842037088021311,0.845805701462784,0.846431035387313,0.891766015329633,0.846001758029862,0.843371584373513,0.854985851843718,0.865603766327734,0.86606681497778
0.784290153028253,0.782248575601983,0.781203734880881,0.780332708112702,0.776289816872031,0.789935858501424,0.79294634490777,0.794013436819784,0.795082623196566,0.800604996956869,0.801794950036888,0.80000413769866,0.798664520792283,0.798537544619296,0.798393596777565,0.79774419778906,0.797698775460851,0.798126949527363,0.798452370743037,0.785046475120371,0.784443189148293,0.784648828820741,0.785760339279084,0.786093492468281,0.78643942465397,0.786679605902382,0.786186617807457,0.786735351997964,0.788302379862484,0.78716362303371,0.788109960087109,0.792509663259897,0.793503593023597,0.795601108588368,0.796343173944053,0.791844659785884,0.791303409270255,0.792535702245595,0.794415318720748,0.796410453731714,0.797125140987235,0.782667514166706,0.783217838276849,0.783932710778345,0.785356856520588,0.80049740124438,0.801376418770017,0.80956035176689,0.808758158969783,0.811803918825951,0.816917874283903,0.820707856755423,0.820699420869967,0.821864685342873,0.821714266285111,0.821561635515399,0.824207478314274,0.825449556188467,0.827082606413183,0.827031635002192,0.82661032309738,0.817813220091866,0.816626080630927,0.816470405939989,0.815057390004446,0.810620782548018,0.805939993729983,0.805640679490704,0.805876698257317,0.8071394111828,0.808936382800053,0.808032324626426,0.807047673520245,0.807033369616694,0.808769462694548,0.808066811823557,0.8096536052032,0.8099231912992,0.812930103445916,0.811711491405029,0.810032402586136,0.810635640555718,0.81105178816767,0.811410792138773,0.823250566575306,0.823356681214291,0.818391639077355,0.816197600977576,0.816849131093377,0.814731392270297,0.814332192324038,0.814211117058493,0.814609847786137,0.814849995297071,0.816648034401232,0.818459689605986,0.816370969469157,0.817549137836336,0.818851552087449,0.819492783286276,0.814276823645965,0.814256294433755,0.81506190454134,0.814419597293328,0.814372189716034,0.815958513161024,0.815580964461858,0.814376230544976,0.81384954552591,0.80398448635166,0.801605221954735,0.799352045089582,0.797344693954714,0.795746027719186,0.795308617564362,0.795345838366446,0.803713151021752,0.80488656098147,0.805579795888445,0.801705759251888,0.802096070454452,0.803052678289296,0.803492410480248,0.805601438240078,0.808145546416319,0.808671036671145,0.809127605995594,0.809718104414633,0.809837952450629,0.810416346850058,0.806938566080568,0.810840607496116,0.812104991604003,0.813102521640767,0.815142201791929,0.814494584250751,0.815283089946813,0.816142074261096,0.815115981512822,0.802591815701025,0.802445450471161,0.803148388736481,0.831327727376962,0.979315272717493,0.993084750150209,0.822639127424782,0.825800558318968,0.827603690010092,0.827864495237283,0.903280009808127,0.834407014338724,0.835263123829301,0.833829544793873,0.83241341131627,0.837577492159974,0.838012563604863,0.838471562230682,0.840368062341357,0.840672169659919,0.85133297482669,0.85157353129067,0.855546913113261,0.855279279597751,0.853432577590954,0.852836227612515,0.867522524499791,0.871955322535956
0.785215592245432,0.783494011142414,0.782861416470177,0.782189221174234,0.780406221361402,0.791557799052573,0.794508989793132,0.795619049075908,0.796152767822831,0.801156644392577,0.801517869720244,0.799778092930529,0.797027955360013,0.795551295796256,0.794582099568865,0.792019423216405,0.789991019604462,0.788429102564858,0.787765597594444,0.784017102045337,0.78446892867596,0.785135862892838,0.786344451011284,0.787391987648219,0.787260552983263,0.786627321998706,0.784824141009843,0.785181942222536,0.784274390740356,0.784633846256105,0.787789723042122,0.791950027323823,0.792292576144787,0.793936071014281,0.792501412347393,0.791344756301383,0.792882942358985,0.793296588073934,0.794435044362907,0.800829871001528,0.800431747197425,0.784125478887761,0.784533500457707,0.785696744902388,0.786819210962786,0.852745139863149,0.810363999512851,0.811173186677975,0.812225125520324,0.812329096022208,0.817070327598206,0.820454011229004,0.821039874814046,0.822102062270704,0.821438242045462,0.821407707850225,0.820495560876845,0.820198746682576,0.819966861564553,0.82021599974804,0.819568198065522,0.815919349078304,0.814492732895589,0.813203122720017,0.812121584302804,0.807719800488735,0.806360257451976,0.80543881236361,0.805130648480678,0.805138133458275,0.803767637099986,0.803166378576993,0.804931744462284,0.806889601709961,0.807934103450233,0.806892358717866,0.807596265489556,0.80877871033347,0.810359451648342,0.811044153086947,0.809583826213216,0.809601309692461,0.810741935975804,0.810442801422046,0.823269224690542,0.823363888501104,0.819847286349666,0.813395359961905,0.812511416201436,0.813763460055265,0.814119954727469,0.814269442369815,0.81457680264368,0.814621518818109,0.814784994755146,0.815119188211351,0.817061463730934,0.817052452095482,0.817313130722306,0.814726718779866,0.814549624612002,0.814470891845776,0.81483065856372,0.814529301106877,0.815002583137042,0.815619503442787,0.81439686134622,0.813857338383573,0.812968478327748,0.800026271437697,0.796936010027711,0.797011563432954,0.797094661386235,0.796837648275239,0.797609616421667,0.80037666663684,0.804673698881925,0.805128276443301,0.805300425972524,0.811075119328434,0.811907774953214,0.813510563608596,0.812221473322909,0.809673805548455,0.80956284645423,0.809569514607406,0.809686249798851,0.810242337401617,0.805888209110772,0.80440619049786,0.805807420458226,0.810717480551453,0.811278067756605,0.813056895140709,0.81467809236458,0.807629016439334,0.807668401310238,0.818329439477531,0.819939364136566,0.822861182365279,0.953334081644017,0.967455429912698,0.836428755205211,0.818137777089441,0.820407285925367,0.826982311211745,0.828779053106175,0.831525648593752,0.832829197870945,0.846724854312733,0.839367374511144,0.837027175926063,0.836780472564999,0.836975248289554,0.838836875415602,0.839104979516087,0.839320842350158,0.841363916381864,0.84210678072625,0.851727265765627,0.855631192597205,0.855618800597191,0.856071415807254,0.855526368347563,0.853153236799802,0.868024675352512,0.872682183418112
0.785617688336344,0.785389541035394,0.784765240273871,0.78536061721006,0.787027337933073,0.790819853069559,0.797791526653299,0.79792207060378,0.799602099552023,0.800910768576198,0.800049168057561,0.793590025191195,0.794465448693695,0.79249565045679,0.791381736759872,0.790773354259871,0.789381294445159,0.788155780664729,0.78554248989476,0.784925381545868,0.785876898623125,0.786705979030103,0.787204113275627,0.787625111552708,0.787218453499352,0.787518297353527,0.785694872470484,0.785222288706653,0.78405057308882,0.783892300999066,0.783892398019871,0.788769345172366,0.789983150264278,0.789766556674064,0.791267455630664,0.790378162144545,0.794097258254523,0.793989580444616,0.799798288820495,0.800148778970052,0.800234917912715,0.785852790517642,0.785431508186638,0.785997634873359,0.78713368111128,0.85027258854834,0.810852707600426,0.811552687254118,0.812167522714009,0.81307966043995,0.81751493032413,0.819760889300134,0.820643671601555,0.820954815626226,0.821398693967028,0.821722867813118,0.819535501214627,0.819763925914396,0.8205128081432,0.820104403296426,0.818659723368207,0.812014350568433,0.812936902506707,0.813273829928988,0.809869086742395,0.807147875764403,0.804847680119821,0.804910770847792,0.804348634512243,0.802842665825645,0.802005826712849,0.801606104002499,0.80199871491214,0.802322019240625,0.808184859688893,0.806498645293867,0.80645997091566,0.805410853380205,0.804547211240978,0.80283479547257,0.809036787210086,0.80969771349679,0.811238380750119,0.954075470535583,0.822772744748206,0.811383020926627,0.811338170999451,0.811773030818253,0.811665154212432,0.816115935465843,0.815321279845381,0.815169620098568,0.814979149882498,0.814714293613107,0.814819183130296,0.815516840520096,0.816665186011057,0.816449613451893,0.816304943239996,0.81432099728893,0.814430355146231,0.814786664143817,0.815313789726454,0.81552205059664,0.815746365678414,0.817102488482987,0.821396516789734,0.809105126972751,0.802892328575278,0.798037764065949,0.796400270244491,0.796113174265869,0.797211468968176,0.797912895210635,0.800232584810226,0.802161107682036,0.803388801644521,0.804474267061751,0.803971877738289,0.806728864952519,0.813178742133296,0.813030673229366,0.813333379791117,0.813395138331865,0.811691869599029,0.812567168982076,0.813169837872595,0.812751152835989,0.803823834846226,0.804179523437722,0.805298624578897,0.809257668265927,0.809296419134921,0.808898515580207,0.808822937605257,0.803063531230122,0.805134602329345,0.823668666704185,0.833061210143368,0.830969389531612,0.942359253478625,0.966124139190229,0.849754481540031,0.847570620823734,0.828355077864185,0.832004130013616,0.91408938158702,0.875439590010366,0.923912946258972,0.844907134563835,0.843494704246506,0.839883618821436,0.838353633648704,0.838325346309711,0.838325103701025,0.838160053408747,0.838509765845635,0.84381313742515,0.848624290602998,0.853947372151794,0.856448056443512,0.856739124829942,0.856755527035,0.854285068211653,0.853499421194244,0.867950148087775,0.87335201914828
0.786219977633264,0.786626383607863,0.78646083253499,0.788370790346859,0.790546809496161,0.792094396331926,0.792836030688307,0.799504267302487,0.800964291847849,0.801033987861464,0.799488701794008,0.793908845795941,0.794379093379959,0.792727490983143,0.790849665195515,0.790226704718117,0.789002327124415,0.788176306216816,0.786755669661973,0.786154636275312,0.787115190378535,0.788704701047768,0.788497024811229,0.7887329974907,0.787900799449024,0.787978176821139,0.786028194181152,0.785711763167428,0.784915412566876,0.783957956567781,0.783449062305915,0.783647572305003,0.788931920194489,0.789696698448669,0.790706135855972,0.79024549469554,0.794342349616576,0.795010167148263,0.797661628852259,0.799495119846418,0.794789297454966,0.79457596384248,0.79219361706447,0.789658905340976,0.792693102622295,0.849993126063317,0.810864978246229,0.811647717396586,0.812225721701425,0.814615721035691,0.817963731878089,0.820517438035199,0.820459221726015,0.82065369744046,0.819569017381622,0.820139246994112,0.81943065444045,0.818632828684425,0.818666169589145,0.815351211552239,0.814845978489577,0.811601787813916,0.811494895788516,0.810781124868287,0.808580879612677,0.807013845165078,0.805589769089053,0.805153654175892,0.805229057090849,0.801041634289233,0.800176001967561,0.799840398431815,0.800133477402926,0.800264271566975,0.800525658254411,0.805992250694368,0.805190768454967,0.803637004452201,0.80139490279323,0.801215906720441,0.80400986428941,0.811762722176593,0.812327680580017,0.81279686930837,0.812542461545393,0.811376474707372,0.811223569792279,0.811473319258508,0.811274990430918,0.815630272755019,0.816026625966667,0.81614543902499,0.815557853578091,0.815726252337485,0.816236877465476,0.817170225105843,0.816383296073292,0.816127757614174,0.815669189358767,0.813555909661397,0.814212465063459,0.81555895337622,0.816219692570376,0.816623389467869,0.814507593056822,0.812533817020871,0.812334932294601,0.805327332259507,0.798443837367028,0.79790506393567,0.795924175670888,0.795349852383666,0.797536353654827,0.798581239038204,0.802426797797673,0.802745627709116,0.803554087884012,0.804844373704817,0.805083570066453,0.806957987525061,0.812096954435018,0.81317279826178,0.814281807160522,0.814877720226528,0.814573686443711,0.81550202981518,0.816075780709748,0.814286502624087,0.812604048108256,0.804273529665461,0.80549488091559,0.806560439421047,0.807679779160378,0.807738254540262,0.807975418600396,0.801391470676853,0.801288520101088,0.827708098177111,0.831188285933939,0.829382122587939,0.829414505563355,0.917202056902359,0.849212231797938,0.846023057862248,0.829885944169274,0.834960405998632,0.837181398331057,0.864681304771455,0.873301351798401,0.8487447659294,0.849893307179787,0.840794235158316,0.839411794166404,0.839771256222087,0.839509221504558,0.839697339387,0.839307510449283,0.846004364520323,0.847831740113847,0.856214428122675,0.856892972895045,0.858123833086965,0.858910080339713,0.859715553928974,0.854185234033431,0.854219292749582,0.913984701008081
0.788837304042171,0.788093295627786,0.793015340294224,0.799206558592223,0.798593459650541,0.797818004341698,0.798168593360371,0.799829579952446,0.800780996126494,0.80064973924716,0.799375875195277,0.79763009666997,0.795882120018751,0.795708021886146,0.792292466829551,0.791231119983505,0.790693426752038,0.789949412951027,0.791445568650521,0.791462446694248,0.79095728708764,0.790395994507042,0.789284865531753,0.789328530275863,0.78885645666462,0.788906910762498,0.789459339432425,0.788727460332215,0.789328600318819,0.783764298253369,0.785283345647241,0.785826454137152,0.787382883184183,0.788317538204562,0.789770245502979,0.790045021408008,0.793736897936301,0.79433012843713,0.79659626533115,0.796557102874087,0.794891121719829,0.796537196505183,0.798463306061244,0.798884216411472,0.799925555800439,0.873960666613844,0.846938886494069,0.825039913954739,0.822158274549395,0.816631541918399,0.81736853635881,0.819498963581103,0.819573983915558,0.819498504103169,0.819550188776279,0.819742281848693,0.818469525709835,0.817454773131534,0.816811537939493,0.814384439382486,0.813225299398835,0.811302946737354,0.810567557917897,0.809625131675619,0.808117909700857,0.807365530429463,0.805100848827225,0.804897658736026,0.805068917193391,0.799216236199541,0.798828010439407,0.797897262228636,0.798589521069344,0.799408049881196,0.799270552055733,0.805509062103591,0.803153943800307,0.802187962604116,0.801124359201629,0.801207719670458,0.802415906281227,0.813294750225399,0.812802820084965,0.812122948703187,0.811525059389624,0.811527347774311,0.811674134209179,0.811841652620362,0.812305852899763,0.81473406319166,0.81405373015927,0.815878556250723,0.815537595208962,0.816442713116968,0.816837396207005,0.816379359656416,0.81682889998187,0.816190116999636,0.816306620887431,0.814256720290553,0.814877733034923,0.816812198520852,0.817478565038063,0.819060661673339,0.81964199390991,0.985862696242394,0.799323827323949,0.801228348612567,0.798284491469364,0.798927776744426,0.798143038871486,0.799265813040333,0.799069767537351,0.798959649086379,0.802226663574287,0.803894589442474,0.80519685761829,0.806004017140876,0.806729841320738,0.808014968199566,0.811283713085429,0.814725460597394,0.815729791940526,0.816512998434406,0.81694910720904,0.816759299052239,0.815838117932209,0.814906784973872,0.813595186895147,0.804129639701414,0.805759889105813,0.805965425744117,0.806791610281987,0.806120584412512,0.806298464259083,0.801682215586012,0.801672688083015,0.831420841454956,0.840806514530271,0.831527551353788,0.831415329565782,0.831167225898972,0.837772007494755,0.834933090362457,0.834663832150381,0.856588459197728,0.847012704969824,0.849159366056594,0.848679554486627,0.855011599421609,0.854562044966196,0.853906887641373,0.84654000634596,0.839968666695704,0.840081251397794,0.840462198297547,0.878299220874619,0.850818501963202,0.848085278003558,0.849029616354172,0.852395728717716,0.859889876960852,0.860012108129106,0.860054922908772,0.854808710682261,0.85454201232319,0.921662157264716
0.789703616597823,0.79894386839551,0.799184577139008,0.799265984632749,0.798956535058013,0.799085130358865,0.799496251019541,0.800316442888532,0.801545377293941,0.801154667743781,0.798985290600037,0.797847281058349,0.79733172463101,0.79826736642631,0.796947872003896,0.796647853784016,0.795392810157199,0.794684303270684,0.794619831425817,0.801237780677715,0.798927956545539,0.793924016124037,0.793010151366752,0.792356662183139,0.818963740483716,0.797594714875954,0.799315267175347,0.798930422372538,0.798667301939032,0.793623569074915,0.785747961793512,0.785917670673073,0.786846169410236,0.787011468406657,0.789374483824238,0.790909107291021,0.791904350890364,0.792234062042113,0.792690813760575,0.792216464463286,0.794087988297317,0.797325263104579,0.799603609081484,0.799980251347949,0.801088000009489,0.86530529746877,0.825208154069565,0.825711101609703,0.82546430484931,0.825466035539321,0.860966152144997,0.86234677330329,0.818262123859297,0.813291624507785,0.815572304181122,0.8155383179918,0.813757915334477,0.813167177478055,0.812717388390208,0.812275655955912,0.811002650070166,0.809884982537762,0.809862044606143,0.809196312502245,0.809130262478532,0.809341154622537,0.805927897128955,0.804327159210911,0.803088180029746,0.798176372952309,0.796834423881188,0.796497526285866,0.797238589726072,0.798081697165025,0.798706900100285,0.798773841829184,0.800265240396814,0.801074823830849,0.800823093971403,0.802540676385837,0.814987866906271,0.814559865751245,0.813078833724235,0.811782669352468,0.811632952900397,0.811787929368928,0.811704514259531,0.811918917726889,0.812809019779938,0.813604002648176,0.813679558787748,0.814086438055297,0.814408886573747,0.814970383326603,0.815061297190975,0.81486714473763,0.816590374619677,0.815707979723764,0.816071467499203,0.814189929889664,0.816097966788033,0.817119533903803,0.818026338199477,0.818835710180563,0.820132840623884,0.82115967270189,0.803480252797972,0.802776062106823,0.802904407960559,0.801207764020066,0.802042659959299,0.801037161249468,0.799979670476461,0.798431359767493,0.798393935007652,0.805484072922056,0.807305085224717,0.807326414436542,0.808075081395422,0.80923279714641,0.81126916663714,0.815552431673946,0.81736956967835,0.818914368946366,0.818422916493313,0.817421046056134,0.817461770455378,0.817698960191264,0.817778809418158,0.817804472151052,0.805508034302107,0.805377848336039,0.807067476728865,0.806006676561272,0.812185336489022,0.904916146242669,0.960835643273095,0.927665827572287,0.925135373390242,0.832437501285417,0.832988942092828,0.847290721832684,0.839600800197096,0.837304717803375,0.839155900247385,0.848052166441457,0.847498476210047,0.850658383159989,0.853109671757212,0.854631660112515,0.857475144139216,0.855329646032899,0.850336576539016,0.845023844150091,0.844619854872164,0.846627036687381,1.05555133998432,0.853917143265689,0.853418265564592,0.851375395719137,0.852037761402718,0.858535625124857,0.859959014643854,0.859985063965961,0.854067757061799,0.854056137239598,0.999092590648674
0.797702354936062,0.798331709391013,0.799085889913666,0.799090237287665,0.800455803850614,0.800235428422068,0.799646179896943,0.800164878135192,0.800967178969699,0.801203152919329,0.802841581178941,0.804590733750831,0.803133722898472,0.80153276419669,0.801159184154108,0.799882415144887,0.79938316451118,0.801049092695176,0.801519504630044,0.801958160789571,0.802945719549234,0.802892463067437,0.802251185403229,0.801454715101681,0.799929035309548,0.805867789998465,0.806025915187811,0.804314572858793,0.802366641813012,0.791215926335114,0.785820345208496,0.785697386486623,0.787168930809985,0.786934176827095,0.7910152663286,0.791152993185788,0.789367376653103,0.790334285229881,0.789864572739689,0.792182646566114,0.793836615493142,0.800714663162033,0.801730559911497,0.80192751465557,0.807810773399847,0.823787055268701,0.825940496761813,0.826082716969017,0.825824525296674,0.825898111780644,0.898494771391188,0.900817726182586,0.817065521176937,0.812914806345401,0.812912607273556,0.813772772790841,0.813346346784813,0.811918455748889,0.811002306372751,0.8111706117242,0.810482479552286,0.809819095285631,0.809758988728478,0.809777647701099,0.810148690803318,0.810892990167588,0.805523880204454,0.803326383725827,0.801859910470894,0.798057168326918,0.797103811911539,0.796492032722416,0.79607339555789,0.794918746447818,0.79474248246541,0.79475592100512,0.800516010007941,0.801181894412776,0.80226301957263,0.813795876975325,0.814060244064951,0.813051798786994,0.812913879011315,0.812516518003413,0.812230407898255,0.812995647188869,0.811645907575587,0.811487074729502,0.810834932897226,0.81568306091122,0.815054770088579,0.814197604068526,0.813137224792985,0.813736961878626,0.812878191638148,0.81394143990444,0.814685431378698,0.814394285127957,0.814365787558505,0.813332950210504,0.817667438249018,0.818216529041105,0.818705336543793,0.819627778432443,0.821126274639691,0.822926839814007,0.810316622469459,0.80801987224162,0.80489733125278,0.805547371501277,0.804010802201273,0.801737430954599,0.801410663114196,0.801341012198461,0.802575675367427,0.806123944259862,0.807817817692746,0.807950396099834,0.808408301707337,0.809657628397806,0.813671585180786,0.820014837930118,0.819578739495778,0.820292449950852,0.819335689510935,0.817873708902512,0.834075124763036,0.833528209049244,0.880957620780929,0.827348310504707,0.84671126862465,0.80438762625011,0.809763923602172,0.811409487980714,0.82233637663318,0.825331696462087,0.936017290037623,0.927264696813662,0.924000042375071,0.83381058793726,0.836634593662732,0.841101530692561,0.84221662151633,0.843980519510392,0.845167981364508,0.848254650701883,0.852357599792747,0.851842724573784,0.853109626222219,0.865765348083126,0.86574611158462,0.859920872731979,0.853902828663645,0.849600915797706,0.849013808422952,0.847750784778117,0.858955064521908,0.854376208633569,0.852904128468515,0.851958209460593,0.852537560853726,0.852793662020689,0.86058105175857,0.862283900729041,0.853196156328737,0.853237768970145,0.971421184407836
0.797479546576915,0.798671276692957,0.799131123490549,0.799692680568854,0.799692384553664,0.798968865121318,0.79923240073657,0.799933673785261,0.800424318654399,0.80113011685484,0.807004920940776,0.805978454101168,0.80407239420825,0.802489486580027,0.804137411284914,0.803779161204667,0.802493372683365,0.803341627990885,0.803295729575854,0.802570897387774,0.803454568085391,0.80845697656751,0.808808040597791,0.808343834801378,0.825801997355344,0.806012004340956,0.812287476699524,0.812568278349463,0.813821604930072,0.837334447063084,0.783900260920425,0.783918686788826,0.788973526235515,0.790168537425975,0.790951694917917,0.788498151182099,0.78846799676893,0.789763777946404,0.789234745393554,0.793557419202244,0.796338946300941,0.798070184838379,0.804318853094207,0.805470884829063,0.939608660295677,0.825796223363803,0.826354647918109,0.825934343458036,0.826277795907294,0.851462672219778,0.853333309389332,0.802671145214392,0.802508467083942,0.802576343050462,0.811499029085298,0.81185744986404,0.809419582801369,0.80972206868739,0.809201361714845,0.809285183010142,0.809694688990006,0.809882560194743,0.809642875602873,0.810494281562699,0.808997782992224,0.803568061259927,0.80182362830557,0.801606439904303,0.799634650151101,0.7984953654918,0.798043174786083,0.797313419656829,0.795488892887983,0.794455490421224,0.794809090856379,0.795233289925415,0.802188486969556,0.80141667023866,0.813552544088955,0.813784891552985,0.813539637013572,0.812468750654215,0.812948572023372,0.813264896964192,0.812945801419632,0.812064038812353,0.812227903423509,0.811610078740512,0.811338682946524,0.811112841169683,0.81051122266858,0.808519763879102,0.810609393564133,0.810291830790557,0.811001597685543,0.809714635734797,0.809787402535923,0.809785199855501,0.809308505226802,0.814641040927498,0.819554013160819,0.819604337282575,0.819092193475551,0.819664170555108,0.820474019174806,0.818445500669914,0.81180958612737,0.810102345549774,0.8087325566017,0.80689156105735,0.806087001267644,0.802399963057806,0.802755933096268,0.803102752906841,0.804612700456265,0.805710541154028,0.806794546924569,0.808260703931199,0.80853333324291,0.811945455769665,0.818616240323235,0.820090004049485,0.820449527871225,0.820699232053529,0.820289741241339,0.982427572057946,0.83200174200302,0.832693374252685,0.831832480988844,0.833771225685999,0.831857374612889,0.826981739118356,0.82943738369453,1.00846219745587,0.830941404463451,0.825545846311718,0.826338044933481,0.86820592083001,0.893884002988931,0.837609088202582,0.839998799415138,0.842851681571268,0.844370784468515,0.845381919370326,0.849512480205928,0.850426595005611,0.853772046765753,0.855773877271026,0.860491021059256,0.866563582244145,0.865798918509975,0.86088348318609,0.860010058263478,0.857500167801169,0.858116462846588,0.953434466501165,0.859339621180468,0.855758107482694,0.85117181162025,0.850531511641392,0.851849362876157,0.852677039522595,0.86039607834045,0.869557914948718,0.871558810223289,0.851248715238616,0.850732945081543
0.797761062687773,0.799510358468252,0.798697147965652,0.7995859776138,0.797936576262866,0.798236908564666,0.799418317271208,0.800203243633823,0.800700847429217,0.806114435561644,0.808888987906616,0.809877265530919,0.810744879248677,0.811467288820254,0.812170372861307,0.808390908255345,0.807176082405517,0.8057000019947,0.804544470724297,0.803568665449419,0.803614356306521,0.808415401933821,0.80882552432169,0.808942634103799,0.816360795273952,0.812735590713103,0.812151385495906,0.811171507351806,0.810108683487934,0.839629918531924,0.786919022995874,0.786448845147875,0.789945447931998,0.791808937989243,0.791534835450811,0.791101878327709,0.789413527355518,0.790922914877943,0.793336567803866,0.794312085710092,0.80310388166698,0.803744175477464,0.805429388989353,0.809283771110763,0.93137301912638,0.822358929265636,0.825204724723483,0.824299219325095,0.822307073354741,0.820776532223608,0.977143397774213,0.802208998063481,0.802003987343512,0.801890305749093,0.809138604245666,0.810231330075462,0.808131636858034,0.808386455608924,0.808031273188029,0.808893672815348,0.809351827613472,0.809109505401278,0.808578527683378,0.809218350019467,0.804016479437232,0.804069853185096,0.80341385841104,0.801960163291496,0.800321283615452,0.799158363486675,0.79781181191621,0.795148690457177,0.793989284050322,0.792683489279383,0.794033235122605,0.79786425463581,0.803408246629146,0.801831449774851,0.813979961769656,0.81379769512542,0.812548045336645,0.812958163019354,0.813188545345379,0.813607122365228,0.811620853059885,0.811914505108982,0.811613758517968,0.811494910657578,0.811350563231397,0.81114355816113,0.810947921534998,0.809771741210382,0.810260632584263,0.809785581233268,0.809975137161668,0.80888813145894,0.809206798737815,0.809375094743389,0.809385630330771,0.809170121412184,0.821382455474908,0.820199214686534,0.818460830028688,0.817891147164802,0.817224135669481,0.814981701789077,0.813694075925212,0.811523233073688,0.810154777385437,0.808170283838414,0.804261257972235,0.803604515822265,0.80400572715451,0.804456212705177,0.805483727695572,0.806434254058589,0.808150703999195,0.809954082085857,0.811071539905393,0.812955294077057,0.818493195368561,0.819823014265297,0.820967282449058,0.821407421852106,0.821983632474549,0.839794020353805,0.833431521297307,0.838504197421341,0.842549491319142,0.838574043443467,0.832451489824957,0.831516993662931,0.831119467501901,0.822564617539501,0.829934557540456,0.923423511468992,0.839396031495004,0.843568112867543,0.840784100940872,0.860300903381326,0.847727416701953,0.846740643503526,0.84693474387633,0.847473606931537,0.849341075987976,0.854761163346224,0.856325814797139,0.857582970939788,1.00289861115714,0.870608748909155,0.868969598192089,0.86042444751112,0.86054088151436,0.86038396420751,0.861819873372059,0.861608207114501,0.860919237280618,0.856810888152187,0.851721329014397,0.8519887816099,0.851927844327907,0.85328340964694,0.861507453478956,0.878537209928521,0.879025301491895,0.892242439047578,0.846074080255305
0.797221283137917,0.797947042160198,0.796704960143207,0.795501438191564,0.797005412345627,0.798329425478541,0.799285285931692,0.801073483354415,0.802378661618935,0.808331452581184,0.810001551577779,0.809673452324132,0.810376108271876,0.813242177512965,0.81700992003434,0.817235680544422,0.810847766722714,0.805772438440963,0.805621869285343,0.803586172484734,0.80232837406566,0.807882396753604,0.808894828989543,0.814059587912793,0.814851914953108,0.813244142637166,0.81130662015143,0.80903960124656,0.806002156782618,0.805141254786235,0.79102773011376,0.791944195651093,0.795037433733675,0.79692170673715,0.797298070293847,0.797460519771262,0.834534366565626,0.813176483882831,0.794074692758178,0.801371366272596,0.803343256467488,0.803921332073301,0.807651546063862,0.810327947057756,0.820375471767688,0.822462064423877,0.822925439556562,0.823044675028448,0.822051616093172,0.820715010220097,0.80626406286088,0.802580181609477,0.801094502728337,0.800959353447179,0.808082333542741,0.808156226829799,0.807659979777379,0.807642415878136,0.807552253360913,0.808243315785929,0.809244732164553,0.808490880737172,0.806548979410934,0.804431838550795,0.80440196583564,0.80454904621325,0.803110423014162,0.802449545675705,0.802203234642849,0.797311381061536,0.792775176769793,0.79304903271246,0.79276925279912,0.790190925203569,0.794832927776043,0.797070580694604,0.80335223216248,0.80211789319139,0.809026964332341,0.81275049590915,0.813803785537413,0.814021845460123,0.813419048919715,0.814265853031982,0.810925335604134,0.811630204764442,0.81171139903481,0.811477104626321,0.811526446333344,0.810748736043861,0.811220164056227,0.811254361528337,0.810997938499118,0.810762075440969,0.809855938007596,0.806948130429966,0.808281230664212,0.809283156058907,0.80940429649112,0.818401408843334,0.821988632889509,0.816937542062652,0.816827781559513,0.816353457590733,0.816005453501028,0.814784190534874,0.813948737783533,0.812437545424206,0.811966881457274,0.808307271970336,0.805451632397618,0.805141128189012,0.805123594151691,0.805317272223771,0.806308700551875,0.807143256048705,0.811000327870687,0.811933432754249,0.812864791449073,0.813492789262567,0.819570503708871,0.820952733381993,0.821767957749838,0.823106533896272,0.829330956553252,0.846669837126825,0.846400779159356,0.845108263306788,0.846392161260624,0.837803811491267,0.833250228332065,0.831999192359672,0.832104961491928,0.831187850402305,0.834788124514482,0.950346288091188,0.930841719646324,0.84597878074649,0.846117681644288,0.847450652820199,0.848192916665087,0.848302102349968,0.848778002731253,0.848868037597804,0.855666603656802,0.861745891000362,0.863057971125766,0.865079165754866,0.870604105562098,0.871329042252889,0.872611980055711,0.864987118316347,0.866135182543086,0.865698781881127,0.866075962680779,0.860522250713296,0.860447840546468,0.85694810523585,0.855613307271088,0.853170545878532,0.85285642378717,0.948884573516771,0.864586085031034,0.868347352957344,0.873203484974421,0.871592916956305,0.844325206661951
0.796793491431578,0.792149230391776,0.794390092563778,0.794489419740545,0.795116872694855,0.797497766168173,0.798671470937613,0.802996409420225,0.804563563931537,0.808527819086381,0.809098116311417,0.808721215734461,0.809237190465255,0.809047265664058,0.816881627773251,0.816757519333202,0.808503101085298,0.806670497747813,0.805493383275394,0.803894362667087,0.803405499451354,0.807129575265372,0.809455281117415,0.813799783213539,0.81476205110131,0.813571061009,0.80679952528825,0.807121814530723,0.806213362050314,0.977965197818339,0.789705676875131,0.790067752717881,0.796605955326636,0.797590980167242,0.80069552791655,0.800337549880418,0.890408823062575,0.83210855244304,0.803773190075942,0.803880896413455,0.807523588832947,0.808314202095154,0.809151756804153,0.809775130654654,0.823304758546741,0.823410932828045,0.822484563278357,0.822382847848447,0.820927033589668,0.909764012156285,0.805636781997522,0.799573103078385,0.798885467955589,0.797326019269488,0.797271500346117,0.807745543481262,0.807224782378953,0.806895371891885,0.806724871859799,0.806709848329907,0.805565909193998,0.804407336615072,0.804790562031268,0.804131038203492,0.804846639234148,0.804736350354124,0.803389318594918,0.802414944969912,0.801439092609942,0.795028646459346,0.793960285696951,0.793429280599107,0.793921629136223,0.79460051557296,0.794615851537213,0.796683609964621,0.801099393226867,0.801588916789042,0.808737467796816,0.812886072998385,0.814969238951837,0.814613109726879,0.812452023224629,0.810116271677102,0.810930828261961,0.81158531781449,0.811240480523076,0.811262925930286,0.811370393810136,0.812116627394954,0.815015033899465,0.812768171124449,0.811809215845869,0.81259565708212,0.808586849056561,0.808531796814854,0.808672102688625,0.810284315257593,0.810542258404288,0.820556263696397,0.820341796466646,0.815109627570066,0.815239289358501,0.814872559699247,0.814450999081604,0.814328304929412,0.81393028079159,0.812126983565414,0.81198439755361,0.810723417391049,0.806599682849935,0.805826342350858,0.805946025700542,0.806029847546361,0.807091719418276,0.808802552442244,0.814893266322518,0.814234449762043,0.814059100656726,0.814588960546202,0.819920076461882,0.82543931073985,0.827591179756643,0.829044813570396,0.84724499465368,0.846814859508854,0.846776458254745,0.843373774296653,0.84180293899391,0.833682836492435,0.832503242683302,0.83305137733499,0.833138466333814,0.833822516665432,1.16690524596345,0.843677578585107,0.846601535692868,0.847174417200881,0.846646285422111,0.848172937267917,0.849256353563239,0.849338166561912,0.850595132396013,0.852400448172207,0.853886274574761,0.862096094543966,0.865291730410687,0.866402236101816,0.868670939632786,0.872477208724826,0.872831704278824,0.866817576885797,0.866599939651759,0.865986860487285,0.863162012308889,0.862001614127329,0.856474006365746,0.857606346893627,0.856310058298702,0.851573269018655,0.855168168993013,0.859720604721074,0.861939539560541,0.868557587940958,0.872031981680684,0.870777739982025,0.916575322714348
0.787892994473172,0.788078755074862,0.794369354207134,0.794351092012778,0.795286064485273,0.796446426962178,0.799387273812718,0.80370573300936,0.806794622234318,0.808105026289317,0.808179792705305,0.806654048501726,0.807409164882287,0.892432249225658,0.816187251807905,0.81473847702222,0.807818587258263,0.806893998751855,0.805381893232246,0.805155477054656,0.805552332874359,0.809401316213432,0.810210526238706,0.812221435003541,0.813468586469054,0.807186116842998,0.80632226220145,0.805768538471276,0.804046216609206,0.793527843780883,0.792728707284939,0.797332571143142,0.798167475823109,0.799215044860737,0.814122273284054,0.814333198004815,0.892605772352165,0.849445000513812,0.862763145143603,0.81282934846039,0.812426235945159,0.811228407106037,0.810699040562169,0.811326401312572,0.824768569815936,0.825136641699411,0.912535386169895,0.871830355840357,0.943301671957085,0.802566028379937,0.799044360141091,0.798002880750785,0.797242613032039,0.796357475371084,0.796424705487583,0.806274630836262,0.806162626031206,0.805993103459855,0.805861263211152,0.806210172968455,0.805585438734385,0.804483463153469,0.804271998900465,0.80372565003273,0.803986572385004,0.803354236420102,0.802417190117675,0.802214793377277,0.801210396255729,0.7951318139723,0.795525737208964,0.795883814935974,0.795222002901751,0.794441532475937,0.793983483668626,0.793548914316526,0.796032938469748,0.801426079601633,0.81063239957353,0.812163190253572,0.816540398516174,0.816503949814396,0.811741474402174,0.811029610947063,0.810489134454857,0.810821173888733,0.810632808229622,0.811062982723017,0.811704027979127,0.813281953539013,0.815647874051308,0.81111429151583,0.811079773562818,0.810559590801452,0.809107406736316,0.808976787436732,0.813748804799465,0.812411314088643,0.813186683816105,0.807976480125187,0.812436794218989,0.814121583972418,0.814169564023447,0.814098039924355,0.813720941179473,0.814295998292075,0.809127700009994,0.810338945173123,0.810492580299707,0.811669556184841,0.806557244723662,0.80607271484055,0.806729112175138,0.806900431027796,0.808356896879665,0.811444271610082,0.816757268984647,0.817312469993022,0.817861591317517,0.818866781887931,0.820336430979126,0.987859670349622,0.847723183468124,0.847124623021437,0.847097321437016,0.847242700330425,0.847140402968147,0.837834313578316,0.833447642196507,0.833856645672224,0.833405236237741,0.834161339222266,0.844455788799512,1.14069804255626,0.852371965123032,0.850598441587274,0.849297990659831,0.848828694590853,0.848424607386812,0.849047074410205,0.850750488281734,0.851555379213146,0.852126970955639,0.852951230016502,0.853506134355425,0.860354987028247,0.867100755323399,0.867750933433723,0.868158948779077,0.872730075903123,0.873129613014395,0.867451609728911,0.866694987124131,0.867576290045099,0.862037442630304,0.861297473959862,0.860855304584669,0.859717318104265,0.859822509843764,0.858217678481223,0.855648014338399,0.860409895576597,0.861301583952519,0.861569595632749,0.868623871051289,0.869248505432188,0.918284659338806
0.787922319209899,0.788096731822605,0.794269216782221,0.794368274782089,0.795808837728473,0.797378968834757,0.803187808405852,0.804762878117028,0.807186534118255,0.807283308804283,0.807154152532774,0.804819558569908,0.805653564805271,0.80558072596969,0.813551547239099,0.813149273857151,0.809208503949589,0.807743073045998,0.806406884000876,0.805863075832349,0.806150675989095,0.809718692935971,0.810144012734775,0.810599292128047,0.80944407920634,0.803140935370476,0.798454785629509,0.797779674239599,0.797035882480212,0.795707069468826,0.7959796927997,0.804079899958061,0.806184695383793,0.805868567021501,0.817527676540634,0.827965196405838,0.826296477800989,0.840098609060094,0.861146436694417,0.818462753890084,0.818492705022628,0.87627784761841,0.822746770709062,0.818107363438356,0.826399728109337,0.826718175812494,0.913828345786214,0.848147939053878,0.805058766885869,0.798487473815667,0.797567991997858,0.796077460480737,0.795776963158511,0.795206395343307,0.796327372413646,0.796565633938306,0.804661246754106,0.805029845254782,0.804678556693257,0.805324890476811,0.805655900913566,0.804975592073114,0.804117190917559,0.803689943205612,0.802566332746395,0.800676070880615,0.80119552952957,0.802535674850413,0.802855774756603,0.794739189228333,0.797493728447562,0.79772233696099,0.796749370922025,0.795416753727448,0.794477031603202,0.792947962544059,0.792995073471375,0.800589484966484,0.813174726087966,0.810810484767468,0.812701725726657,0.80790877134176,0.8062274425045,0.805795780196203,0.804604489469271,0.80597931477881,0.810433872232286,0.810881659982543,0.812358312670749,0.813578764036574,0.812410266376704,0.811361686003146,0.811469818544361,0.812292852746351,0.8138157552403,0.819450574107256,0.819506671802936,0.812497956911516,0.813077659936565,0.811435674082098,0.812515299317997,0.813354408807794,0.813162302285339,0.812716415145606,0.812244260472451,0.80783474693824,0.80892795228062,0.809755216345663,0.809900782628057,0.80962287080788,0.807392467544752,0.807104398213791,0.807764890747778,0.809210180590477,0.809712530973953,0.819186917980189,0.819873267262388,0.819750222343069,0.820157752243413,0.828812876393404,0.842543467396137,0.847093125287322,0.847020404921965,0.846601331071226,0.847623761651361,0.968070725287057,0.83385350379825,0.833611428952646,0.833808879126713,0.834102496813198,0.834310801411306,0.837940001216352,0.845808345860757,0.928279921497184,0.850854400585825,0.851154088650989,0.850737338816433,0.850223142396938,0.849900090017231,0.850938603155988,0.851752723289847,0.853090869623979,0.853289611182615,0.853730055707611,0.853828035989226,0.859727171269185,0.86763433573355,0.86887065928927,0.869342406349702,0.872092283872611,0.873225388097019,0.866121296616751,0.864663649565115,0.861611196616659,0.86054495924404,0.860482108361099,0.860267239973355,0.860489612108218,0.860904334129317,0.858671228054108,0.853469962907217,0.853922365943086,0.854295037827555,0.854756341018849,0.909852227553477,0.831649811771312,0.831251397754852
