0.872147549874724,0.877722529317954,0.877021933607196,0.897508537893755,0.899965442591157,0.910146426343687,0.89854464457004,0.899217202860501,0.898446267878443,0.900207059714273,0.8971466424028,0.89732987250022,0.885675207457501,0.887366874186791,0.887975407136823,0.889508525453415,0.887469212673288,0.894530496938695,0.894633982110568,0.896847507184988,0.891902601777516,0.891840685161861,0.893151769075268,0.891158848021809,0.889527662307902,0.878785182695497,0.89425211167966,0.87567636567754,0.87627400829179,0.882820808545913,0.875084000223685,0.852359578827582,0.882047490858347,0.882245720822258,0.882591779594656,0.8758436632544,0.876949160047414,0.87759870937401,0.879125081024215,0.878722989268866,0.881010715456496,0.875125651112269,0.877195813783396,0.877175675660006,0.878162804999917,0.877641982807125,0.877109559602907,0.876204014258404,0.876989139335486,0.875696161505344,0.877356786907128,0.873750240312166,0.875205786753659,0.87222923904082,0.871768273690082,0.869237639374739,0.871437408720788,0.870731605171837,0.87197727150262,0.873443467123668,0.87276268965899,0.872493416137858,0.872543337282574,0.874206221159374,0.992639790471716,0.875506827263568,0.8878492987118,0.887372908529733,0.887725490418335,0.887641587507631,0.89153738416404,0.890520967128381,0.890850557624991,0.889921119241247,0.890573752047015,0.878376182517457,0.876688246567794,0.878338625527498,0.878619844209981,0.879870846442778,0.881847490360039,0.881810656860231,0.882840197960865,0.884205772830164,0.884190467513183,0.873090730985052,0.866325282561239,0.866305841270356,0.864675732838051,0.863183549715041,0.861772848273932,0.866746245924557,0.863981564568717,0.864628223788857,0.863615859116003,0.855289224707456,0.854951959457453,0.854205256526099,0.855152034506022,0.85500163486221,0.853984437505151,0.854188703180598,0.862638730550787,0.8631369463277,0.872590364218422,0.872779810922216,0.872496678755518,0.869276230250663,0.878994179154245,0.878739672410043,0.883123683705197,0.884323895945162,0.886687848861311,0.891105404135522,0.92261292283459,0.923102745375983,1.0293940241207,0.905598350103424,0.926163320427372,0.933866306697606,0.923417231140474,0.925107747443259,0.92760307051121,0.92604108751005,0.926294316260713,0.926145185149513,0.921264394169461,0.921326850487464,0.918426296986288,0.91625723640396,0.90611604452935,0.905894608559441,0.905466992525171,0.904529610442302,0.899728372555275,0.899825558898196,0.899999795737753,0.897719013293677,0.89820550779725,0.897625117474879,0.901919799996055,0.90357395941945,0.915642537112534,0.916528746055181,0.917677832096502,0.917471017934661,0.918937075776362,0.918186384951022,0.918036151595582,0.91849297643045,0.913521981082568,0.914016180955597,0.907977432898866,0.908366204783176,0.907396565431541,0.907878426939205,0.906380715625837,0.906001080171872,0.904034842196818,0.903023283859259,0.89740109573934,0.897857921575515,0.896824439405256,0.896250572889293,0.894892257798107,0.895052138502483,0.894989608280746,0.896067637049715
0.881999487734336,0.882035279135354,0.885178346103125,0.896583534324002,0.90043049161578,0.899833175945201,0.898952600611361,0.898281797397925,0.897787121801197,0.898169847720116,0.897697585102254,0.898270981191449,0.886529384728458,0.887893944780883,0.888926685353349,0.891289375599493,0.893173070202283,0.894050564445522,0.893611746862446,0.893255373533631,0.892526868458267,0.890056531715877,0.887656746416352,0.885844935017853,0.886725864175746,0.878120600097335,0.878296936206315,0.87772503365424,0.878409247935517,0.880558125279549,0.880447210551878,0.880016783749918,0.881851579406419,0.882029664935059,0.882290805472784,0.876395209026437,0.877246737298102,0.878402759973044,0.878812576544389,0.879361040714256,0.878069967610198,0.877454326844844,0.87645228327363,0.877000158206765,0.87667414646961,0.877408217939195,0.876288102271427,0.876517761904084,0.876124858234145,0.876271628151253,0.874688788444913,0.874177515293571,0.872510313834715,0.87192559191911,0.870686774572949,0.870939581656131,0.87109422305191,0.872364211978203,0.872490170594778,0.873277050896325,0.87374395151195,0.873299311952393,0.874052930937598,0.874419374478269,0.874600762788186,0.875000120319719,0.88535416346363,0.887665450228518,0.888802493254973,0.889081192497228,0.890393267464183,0.890369544028915,0.890801483331862,0.890582921087644,0.889231991737764,0.88113350400943,0.88051839320619,0.879376357920105,0.879832429892846,0.880042112731874,0.880913678713908,0.880970084397118,0.8811290339391,0.879479171529859,0.873921688289244,0.871907034988893,0.865092984796013,0.864300808535563,0.86363105499739,0.863292907653451,0.863626272530557,0.863968384305706,0.864635854171709,0.865221893425546,0.864570715497857,0.854627853454869,0.854484576929364,0.854368453709717,0.854784767826018,0.854802232894924,0.854733145015449,0.855108818296569,0.862049756380574,0.864013085919151,0.874065306330018,0.874557681446564,0.875708587135925,0.876603954882021,0.879805364494793,0.880287876217964,0.88219684473901,0.883492294704947,0.894115331692764,0.896761681479935,0.910405427818291,0.913560030883224,0.922155248165451,0.923108249519345,0.924293987709096,0.923882512404175,0.924110612814134,0.925191404848255,0.926857770949301,0.926665734589679,0.926824611893176,0.927150027847829,0.922814949311118,0.919065566673291,0.915931549783461,0.914570326793096,0.904913213289589,0.90368011916399,0.903108646191017,0.902004728333042,0.900195189460025,0.899554558603732,0.899034785933567,0.898110574243319,0.897891041167587,0.897443166883132,0.90111029052539,0.906680258320551,0.914271899004062,0.916602643934136,0.917928546594288,0.918658458289153,0.918632225943281,0.918640502232388,0.918216540495517,0.917196809997596,0.916130427880583,0.910656387483165,0.910041060145123,0.909133019771241,0.90886985102596,0.908348008056391,0.907776340139651,0.904549016740818,0.903380710530571,0.902298059480015,0.898406641762497,0.897668628070831,0.896784278723412,0.8955689478919,0.894699953626276,0.893824829094366,0.893921374107418,0.894075304320985
0.881465153342264,0.881405478738855,0.891249967175465,0.895735966474703,0.902170669820896,0.900006784691999,0.898624603175274,0.897187180903138,0.897181376645397,0.896864291444691,0.897230671359516,0.895617651492669,0.888184989177674,0.88910374160207,0.888051846362923,0.893680951507023,0.895879985770728,0.895222605682517,0.892977883044392,0.884496787952919,0.884114584822045,0.883885800673059,0.883954944045731,0.884618108885522,0.885159489788512,0.880745897223048,0.87606032417406,0.879200600392687,0.878914998941459,0.880053548330384,0.879644460881429,0.878896841102634,0.884032305379556,0.882881505881506,0.882399980940657,0.876404778309456,0.87618836585043,0.880115976619693,0.878619452269447,0.879435224860856,0.878085948737679,0.875999840761516,0.876868879714123,0.875855506597883,0.876858358002515,0.875271505907205,0.877170670968252,0.875500897889131,0.876044892673906,0.875467360970385,0.875066742039655,0.871623137657522,0.871830181259318,0.870795775231782,0.870583931357695,0.870185478917788,0.871785936228818,0.874324934065524,0.872622577146306,0.874038486028034,0.873917097195609,0.874987936052494,0.872863169392141,0.874870815345631,0.87359097161881,0.874836073859957,0.882776615607565,0.887896610475274,0.889088824775743,0.888726834388445,0.89349027041768,0.898666036223266,0.891497969954715,0.89104341134098,0.88648791538461,0.883564381784621,0.880737493404292,0.881506717230728,0.880387110708868,0.881230075063073,0.878921541246437,0.882164433990076,0.880957306900733,0.878629265913812,0.87277381940965,0.869813075968696,0.865429472748186,0.862992558118749,0.862362121096188,0.862611329898851,0.871734081778448,0.871216892414484,0.868671611237023,0.866280741856213,0.863755421999314,0.854870844564292,0.854415165390682,0.85481601099614,0.854889441466368,0.855017280003482,0.855517027644548,0.855917769150153,0.863899138936777,0.866198710564448,0.873615485017594,0.874137645641221,0.877072994215289,0.877811980012905,0.879842528087903,0.880613868768166,0.880811521606379,0.88291288506863,0.904556072932629,0.90513133065691,0.906814475029044,0.908551732944125,0.918589200293466,0.922379281794107,0.923327897629321,0.922376134293529,0.922359953288807,0.9263714167672,0.927159373737699,0.927469588285105,0.927040283109119,0.926890404083228,0.922766041262021,0.917174493372118,0.914438621833872,0.911131197887963,0.905694051679724,0.901771052831293,0.901452401506597,0.900707915778203,0.899610459461283,0.899682010711205,0.898448837508577,0.897558831956398,0.897979470712925,0.897404266434603,0.90238346632078,0.909396953535211,0.910494581875481,0.916055357253734,0.918809523527305,0.918904614396183,0.919600223487371,0.918728109096822,0.918919723440883,0.918019525423147,0.918501744010467,0.910895412368689,0.910342140874236,0.909458237001978,0.910114764395632,0.910208124399749,0.910401169725501,0.903661509459952,0.902502870106258,0.901398470867463,0.898972452886029,0.896898091675766,0.896541607036041,0.894907950176711,0.894208410444074,0.892175480688285,0.892300412201188,0.892745042548323
1.11095682997694,0.890504277299799,0.89232494733018,0.894146320734725,0.892475735497611,0.901476484991883,0.895036418111101,0.895946962474216,0.89594841929,0.896513805723806,0.894697529559505,0.896853366614629,0.894133337823796,0.892517810762735,0.892538797474568,0.894433677301009,0.893850976424736,0.892558117464964,0.891791999442206,0.905482517840956,0.890424805601397,0.884207333857969,0.882438373842846,0.883710669918864,0.883506796608076,0.877788918131522,0.880483581099272,0.877323706223049,0.879750794346903,0.880790834213785,0.88717662405567,0.88528313505692,0.88435154485501,0.88309907045216,0.882147869794575,0.881293648127643,0.878824450049942,1.04134236444487,0.876142905016824,0.875905846980911,0.874997835567087,0.877387038338579,0.874433446456064,0.875426618980987,0.874069138190827,0.87589007472239,0.873997101003192,0.876357362599061,0.874718842393942,0.875499795020682,0.871849405963905,0.872722630752783,0.870056796693086,0.871035058702768,0.870536595765186,0.871157787554979,0.875826398673502,0.881394396368932,0.882204073485767,0.879973999458441,0.879415599000476,0.873576126410164,0.875247250506865,0.87521675939903,0.87674877471222,0.874986081005991,0.876375143970586,0.882138224639317,0.889711119584993,0.891158674426826,0.892481493351574,0.898358717082649,0.898024816453453,0.893298981760935,0.892846571030832,0.884641516310874,0.884615094732001,0.881942078471541,0.881444509795371,0.878646901112557,0.880026564114689,0.875603333563132,0.877177750043783,0.877736781121014,0.868279602532687,0.868494160810136,0.869832790159139,0.868706156509065,0.871896101913059,0.871807857243236,0.873566377530166,0.873374370941755,0.874239251051811,0.87373908891128,0.870343908039145,0.865677605730638,0.859116198436208,0.855965880949986,0.855680226745004,0.856198036848737,0.856446810155029,0.856369603057905,0.866661058825548,0.86878292278912,0.874245787762159,0.876085753330271,0.87667444009144,0.878825386509482,0.880223729578452,0.881363060030541,0.881143086484364,0.991932625064772,0.904731965762125,0.90491212035045,0.906357585648623,0.910281047988655,0.919111843520042,0.922979996336776,0.924528744125834,0.925983956432333,0.927864069602278,0.925908051714968,0.928793001232684,0.927477826905361,0.928567945377736,0.928394283623995,0.923271732228111,0.910426397538841,0.905679486157168,0.904505338624916,0.904865384486413,0.899805789882886,0.900349756060761,0.899126509199559,0.898544394014184,0.897637205101234,0.897758228462882,0.89763457709524,0.899842674443583,0.902269579688926,0.903223971129114,0.908956300371283,0.911856474726691,0.915225426116234,0.914044151751626,0.920466653011923,0.921171997040263,0.920801399031978,0.919800574093798,0.91840974085636,0.911861153256178,0.912662862540799,0.91163964848004,0.912865540585828,0.915335949866686,0.915925981294185,0.915053358887491,0.903153517009102,0.90209920577113,0.90287430907263,0.903197311380366,0.901326210289426,0.894311551867826,0.893516487903575,0.893172068359165,0.890640897016793,0.890975506635545,0.891230338038156
0.890875922837373,0.890484512539916,0.884048392146463,0.883746857515396,0.884391836841941,0.895827855053002,0.896618891669191,0.895537021901184,0.895879922803869,0.893866854457154,0.895280372226908,0.893175366095444,0.894932830983573,0.893382713519091,0.893868035218684,0.894880493656264,0.895534796945805,0.913319933968513,0.890989740625963,0.889676365474608,0.887534955351557,0.912403322977108,0.887121746599128,0.885660173244693,0.884486988896847,0.881890197546319,0.879160891568688,0.880892305594732,0.879772540794462,0.880908891011833,0.886315024905497,0.885863715882088,0.884118784026329,0.882353622602822,0.882229107849299,0.879110941955143,0.873982660318004,0.873922992813604,0.874221123468519,0.872987298417553,0.876375864628363,0.873935968495219,0.875249918631602,0.873769912175544,0.874259807058551,0.873209583963356,0.875548869634837,0.873159305361614,0.873809011515324,0.872351417388833,0.872776112475608,0.869628299493327,0.870776891913119,0.870885140208738,0.871827026429679,0.878361828184514,0.87938443186061,0.880301350848257,0.882001800752269,0.882058365048069,0.879164075260729,0.875693686288407,0.87448010286624,0.876938452839459,0.876843749298111,0.877011618705147,0.877714590712829,0.88490235212695,0.890288801809516,0.89127097858982,0.89408275479483,0.902680566628743,0.902120543295099,0.894124182317599,0.895076659750308,0.890133006117996,0.889082251238022,0.884057785163615,0.88183781310219,0.882434983800435,0.877718203976167,0.879063340424909,0.875051725902588,0.877232639484156,0.867057077274178,0.868817269433201,0.868299643450483,0.869691401856559,0.87172200812784,0.873882373367024,0.872846517661026,0.874825083503502,0.874307549168821,0.874335504982151,0.87422932012215,0.866085684537211,0.864822524674363,0.858776688333552,0.856055249811141,0.856044052253175,0.856174587623505,0.865026452266817,0.867955450209555,0.869698804576801,0.874747052691474,0.874062002987722,0.877043202799946,0.876953838995105,0.886693345657703,0.915145525177121,0.936567591883172,0.908038359006926,0.909596643826287,0.911951281879437,0.913153516581794,0.919590704845799,0.921010749171122,0.922938974640914,0.925057244711547,0.928093517554356,0.927549747643052,0.928696245404276,0.925769963570091,0.926946380297393,0.926655491599752,0.927173564275945,0.999950227787734,0.908410892459055,0.904189340286735,0.900443175083453,0.89954895227586,0.89895642221071,0.897688980367876,0.898094627882962,0.896931607650294,0.897715606679939,0.897201816798122,0.897670608511848,0.900610111365719,0.903706061990067,0.903577937952997,0.912060246141717,0.913778177400586,0.91457961347018,0.920456164056,0.920663819575,0.926404592195466,0.926680462227131,0.922746834018284,0.918847451935646,0.91318059739643,0.919857092068578,0.91853420756045,0.919074760759333,0.919779455610616,0.921472271610363,0.922505161925278,0.911417190360556,0.9121162442341,0.909286876480982,0.905506012689905,0.905452900409424,0.897689280151469,0.89296534770593,0.888312677201933,0.889743137310518,0.882399466187155,0.888891704502049
0.90828170680959,0.884198119407705,0.88326585104802,0.883304034214789,0.878242461965869,0.876932648872843,1.08659176704072,0.895585402601051,0.895598102411193,0.896187137210369,0.894750151138294,0.895957311836862,0.893768479560998,0.894396238377302,0.893475838308616,0.897862317578445,0.897554274660243,0.888696363760987,0.891621654898714,0.905363196271251,0.882679224954174,0.910550587741428,0.869673716905254,0.885855749795245,0.887372992598295,0.881098436991366,0.882614224445309,0.879574240472126,0.880728229298702,0.880398555889157,0.880389271490735,0.880099387118379,0.879811313028277,0.881086083607368,0.880899725631001,0.87107838091637,0.873123356787283,0.873300274083588,0.87411985657125,0.874805988704271,0.873948304648583,0.875448363835757,0.872816466090606,0.873660451439655,0.872095662792723,0.874673603397624,0.873190094624467,0.872952551955712,0.872300485176148,0.87231165998663,0.870946929335697,0.87140524254326,0.871055841747858,0.871860275953846,0.871724841902496,0.882221232890028,0.886109347549272,0.884266832465698,0.882721056433832,0.883134541786509,0.876443975031819,0.874517899631723,0.877353282274663,0.877602740588199,0.87855420154077,0.877818120222877,0.886252409185564,0.887816145492683,0.888851070730012,0.892141260011266,0.900979510089928,0.901710833335253,0.901043960458534,0.894889116303607,0.894347052089713,0.888255941507077,0.888832669532078,0.882853841653278,0.88173302960515,0.88094095582892,0.877484508289259,0.874727860922831,0.875728124133212,0.875750691614668,0.874634304523829,0.873018413604808,0.87342944985861,0.873984755877794,0.873092945326391,0.872951517239772,0.873169151940293,0.873784752418856,0.874741544634014,0.873501290793417,0.872662028146129,0.866263576424744,0.865502201719149,0.863963270242214,0.863446961530839,0.861462762286661,0.865464577124895,0.866183111235674,0.86988102850598,0.870793064557448,0.872173457560792,0.874004163171903,0.874198168360992,0.876302864667277,0.892468377261889,0.898248357930235,0.905447849893263,0.908307211481118,0.909018919229016,0.91350584094155,0.918134087543303,0.920335394010924,0.923791072134862,0.924696244029325,0.926426227697434,0.927650906188794,0.929739865295986,0.927305162672646,0.924712088816056,0.925867665789249,0.926170903573746,0.911387012389984,0.907037800585832,0.899026266908806,0.897474618236293,0.898787125527456,0.898184685067434,0.896723418062518,0.8968028220108,0.897241213986268,0.897338173884797,0.898271057870946,0.899139129030755,0.898907915429582,0.900912805446064,0.904446832752622,0.904788975859693,0.905847184081472,0.919573811414674,0.916442165631474,0.921317713529035,0.922270357490038,0.92496291224346,0.926107307604852,0.926818683626316,0.926952829081946,0.921612975550474,0.923671659754174,0.925988713159238,0.927880901651719,0.927070757372585,0.928297198851003,0.923380459494732,0.913032926459672,0.912623093160934,0.912576174805423,0.90147326549033,0.898783830514267,0.892944813643731,0.892442641747882,0.888555357183375,0.88203770224572,0.882574073784529,0.883406765286433
0.894917293730369,0.886976108598287,0.882133532927973,0.882465981030802,0.877627764158667,0.877581527875261,0.882478369216523,0.895321455703678,0.895487103553668,0.895522483033262,0.895591064887928,0.894662318994632,0.894472752333534,0.894508527155411,0.895219850802491,0.896066315828085,0.896765661824676,0.895138914008227,0.893508427584252,0.886554153296636,0.88527910943324,0.886290054876688,0.886033819209464,0.886073715648919,0.88520476798538,0.883910645649868,0.881794931236472,0.881844791487844,0.881333842888799,0.881393313126724,0.881565775126909,0.881426467020802,0.880681456570399,0.881096779174961,0.879759831049758,0.872457539776281,0.873492549203679,0.874264718477273,0.874767344635941,0.874829902021161,0.875122953344056,0.874223144743014,0.873984274140568,0.873350106724665,0.873420503785923,0.872871515931658,0.873235902353864,0.871915395450032,0.872068519892985,0.871690887017035,0.87168735013604,0.871481550556549,0.872052893180618,0.872764453973271,0.874800976991696,0.883731947171033,0.884337674014471,0.883103565091977,0.882086205893404,0.882383130790752,0.876427342671771,0.876978738322478,0.877731513692138,0.879009235741122,0.88183435075208,0.884118776526876,0.886795954532156,0.88766334183121,0.88881554978319,0.889443184249645,0.897063690664191,0.89719134335816,0.897353398008304,0.897031718398968,0.896034217054653,0.888076086423985,0.884448416295224,0.882668530529715,0.880537036381181,0.879348271842931,0.877214390554699,0.876645277547908,0.875891016535866,0.875842224516593,0.874573585250504,0.873402413264874,0.873002400175662,0.873035286288304,0.87272014341343,0.872651484186772,0.872696844190305,0.873126532033598,0.873235936841944,0.872654397969577,0.87172430442891,0.868923325065951,0.868381227073582,0.870064347151101,0.870737250864127,0.870349529128105,0.870230081542238,0.870849510826207,0.87081934059143,0.870962888732227,0.873044498809078,0.873453166136555,0.874169979728173,0.890332394819186,0.895172673000012,0.903838622156113,0.907964800668464,0.908394333848946,0.912228937345259,0.916156550067576,0.920688029741481,0.922147072304436,0.923776892626445,0.925641708331475,0.926728637645194,0.928125943181017,0.928156460820017,0.926693410244942,0.925388580543607,0.917832655306707,0.913831273294628,0.910819006266469,0.90633230976153,0.897799248036116,0.897244701309974,0.897579723389715,0.89698059376566,0.896996214212544,0.896943069384058,0.897545357558748,0.897754018113693,0.898462875300558,0.898895698520453,0.899519652011657,0.902524731259716,0.903994452710739,0.904960828809903,0.905561547249698,0.912932701088946,0.91605882179835,0.917572960989189,0.918677739984343,0.926151493253898,0.927220161150497,0.927223801183699,0.927200465946525,0.92668489194086,0.925501143434329,0.92695330682861,0.928157092259233,0.927373896823596,0.926890113301261,0.924693234723396,0.912239081387009,0.911697678425578,0.911064890200511,0.901756479341689,0.900616219652654,0.891930993537909,0.89110656831758,0.890158467072213,0.883334024535745,0.88227790695804,0.882491510260249
0.890111455198735,0.889537965252734,0.882003162722258,0.881840545639011,0.875150520378715,0.871087887981344,0.872803072295082,0.895788585409253,0.895457075842905,0.895939822175102,0.894741921218797,0.894472530410229,0.893372609006392,0.894912356519912,0.894787036876069,0.896425659326314,0.897195715910829,0.899399552791293,0.894267225372507,0.881166217760846,0.874205582083371,0.872401489979034,0.885441153352802,0.885691070859769,0.885598076128632,0.881931059676652,0.883521202755,0.880973034273597,0.882298724242713,0.882687991918295,0.882685134717831,0.884754037731113,0.880399633464085,0.882732508890974,0.876067495317593,0.873932012497026,0.874731414155645,0.874665363920652,0.875204600466676,0.876128994835944,0.874692860142327,0.875183400314828,0.873215224058679,0.873776517495144,0.872365807709038,0.874225506330997,0.870975797647398,0.872152643309781,0.871332783842409,0.871712345717247,0.871714085843219,0.872167272903543,0.872873353170587,0.872755425031308,0.877479792812628,0.889016996540823,0.889642915339524,0.889919147847424,0.881129000969398,0.880181157137285,0.877740211641636,0.877258563133243,0.878915336266051,0.879236574332852,0.882416643754892,0.884768966209758,0.884350634250902,0.889079049905681,0.88866390375767,0.89043541684527,0.895827229261932,0.896945567928475,0.897220131734693,0.897249981860985,0.895163436481437,0.887618107365259,0.879708162289905,0.877910537003089,0.878630747316255,0.877445007767725,0.877706465446569,0.876239736960716,0.877122018217541,0.876503718532861,0.875607786914912,0.871638015039323,0.871905825144702,0.872054254508185,0.872256783331807,0.872535276446936,0.87151290770291,0.873114958709519,0.872049169693698,0.872474063175427,0.871663762283164,0.869487806469035,0.868296747848926,0.869212487846685,0.870822922814514,0.870528661066521,0.985320169227777,0.876100945713563,0.878626094531407,0.877623523602009,0.875442429060929,0.873991911930099,0.87438858239759,0.964481240832997,0.909702098098774,0.907414125106681,0.908972517028635,0.910075985768919,0.918656932906276,0.919651492400714,0.920859461756783,0.922033169824984,0.926018876093252,0.92582105078804,0.92721016552901,0.92902684848137,0.92888812153277,0.923864923304053,0.92308098273041,0.914511850173507,0.910850328474731,0.907973856144118,0.904498411872969,0.897556715866104,0.897401882184878,0.896991352875476,0.896600876589085,0.895487366224626,0.897513920239611,0.897902662086825,0.897718367413814,0.899050766810873,0.89880720732753,0.898268478169622,0.905079545255959,0.904727410554691,0.906671525324724,0.906408037414385,0.910004553440079,0.915128625411932,0.915734427342442,0.916796489864623,0.924918323993489,0.928853438427791,0.928460643922488,0.928757346889723,0.927273792355347,0.926227006876993,0.926888287400006,0.92789186107655,0.926206396380025,0.927844052652987,0.925903012558003,0.91069595464874,0.910728855068744,0.910349512559125,0.900855161736986,0.900129383956512,0.891195555820263,0.890461543261541,0.890398945624955,0.886718924056641,0.881731130131959,0.871966018800953
0.895262481520945,0.89477696563923,0.914260511041065,0.895021958112486,0.874742890629134,0.87080294029481,0.869026969807339,0.89124799718046,0.892500238856055,0.892681922710584,0.894160689188206,0.892808072298902,0.893555109605381,0.895471289862023,0.897086072333018,0.893437721844297,0.892244170378862,0.897807198457431,0.89501302073762,0.895278975980414,0.901851429527414,0.878804764737724,0.885755649468049,0.886496214675858,0.884086885246365,0.886193228374089,0.881675234119764,0.883534128854812,0.882767651607557,0.882238473732311,0.884792278300724,0.885715848312943,0.886465042776876,0.884602512453601,0.875827787549988,0.875705651646496,0.874674373251342,0.874697519797121,0.875260036885577,0.875777069351997,0.87586117168302,0.87396506396683,0.875181322880764,0.873449509031614,0.875160183456183,0.870417254078786,0.873202253103836,0.86920484324085,0.871207200778025,0.870752359982064,0.871482250547632,0.872038176845985,0.873063616995199,0.872360365878342,0.879146328497855,0.88798604530031,0.888419773474578,0.881875124518764,0.881359958439003,0.881018769662936,0.879665875109558,0.878792752658591,0.885571585601994,0.887899868658392,0.887461542022967,0.88614348337236,0.887906390304051,0.887077502258247,0.887378803087649,0.887784449170316,0.888359123460647,0.8930677254386,0.892483237912659,0.887652799086107,0.884417861139633,0.883019516672436,0.875420613215098,0.87735190061773,0.877828677691703,0.878991256030805,0.877104747031013,0.878528103341625,0.878813268170168,0.878984103299084,0.880343081476514,0.870790647586464,0.872326783656861,0.871171742839463,0.872836237928983,0.871456551272527,0.872111049903548,0.871193959019938,0.872244658230594,0.872569112409794,0.872077051183423,0.872028735506031,0.876408708857953,0.876908320811614,0.87801699596154,0.878802732667816,0.926781344817425,0.881644302571631,0.880841443228658,0.883031173735372,0.881627856428706,0.873425598562313,0.960384734368801,0.952506717557558,0.914120379406738,0.911143723527686,0.910484903922848,0.919482236438508,0.924292984251435,0.92601945968724,0.924849123002216,0.926649430740628,0.924963473062483,0.926336670129884,0.926046236636153,0.925966148197287,0.922962471120402,0.923014546921599,0.915662116147783,0.912865684371531,0.905768139864374,0.902726614571193,0.898325056630008,0.897625194765038,0.89727147347141,0.897796666726437,0.896501757834328,0.898111777881488,0.898711735428767,0.899206544436777,0.899233816343677,0.898653427907488,0.902300070275585,0.903455210181404,0.905004915142771,0.906926359864792,0.907901674896069,0.908228541584861,0.909062001740879,0.912850375185565,0.913289087728792,0.919112549237887,0.920065208437636,0.929159825235963,0.928495549190405,0.928988578957486,0.928327297610812,0.926436414932172,0.917290549179674,0.916267233995792,0.918097424885055,0.920049253994514,0.918608594233006,0.909884340121966,0.909967960497231,0.904174229590852,0.901855919102863,0.892227516706103,0.891930922108077,0.890199027002282,0.888729598783366,0.88776744124772,0.883323967830709,0.883113696747953
0.894719967453847,0.894901906492544,0.91642905793721,0.911341195984527,0.916529027304593,0.868334885167603,0.868661051137886,0.870913495277603,0.872191301053323,0.871756183431228,0.905360931699555,0.892256895507473,0.913531142220022,0.896480970224189,0.896502832386706,0.892361506268916,0.890754140637001,0.898495931969443,0.893293667953754,0.884259709498958,0.883551345235151,0.882914582501436,0.8878567612962,0.886803438480401,0.88676633031735,0.883046485283621,0.885832488977217,0.882231110546962,0.883329679326129,0.883436063725811,0.884098009104691,0.885986897892827,0.885232622529299,0.884573339534168,0.875677567443543,0.875496901797397,0.875557465743222,0.875330597358395,0.875179152979738,0.875631343857963,0.873096612282245,0.875358055461134,0.872171231342872,0.873367140355328,0.873036936599483,0.873856443408216,0.869885331748769,0.871795749386773,0.871065300075423,0.870502692416386,0.87162257327904,0.871708043709643,0.872779293028873,0.872325331881208,0.873203298430801,0.884054243296859,0.883494777194808,0.881396843067578,0.880965921959731,0.881165573519845,0.881207746513742,0.882352937703617,0.887982168047974,0.888625584719841,0.892345366309429,0.892493493533323,0.887214779104013,0.886576064219721,0.885882431267146,0.883983033934753,0.884446161987162,0.885192004164493,0.88554144099358,0.885330763278888,0.88598965229714,0.881727768112188,0.877973731034018,0.877768309545076,0.878152762178762,0.877976442477511,0.878212613266402,0.87860259068115,0.879851458327216,0.879803234001003,0.880424966436904,0.881537580829961,0.876447678070164,0.87578162009178,0.874261488680784,0.87467389630902,0.872104871846741,0.873364842690595,0.872189505678561,0.873013092373283,0.874997472969742,0.875754707222045,0.879626537911451,0.8862952595927,0.888801879966883,0.891193411892668,0.890586545216907,0.890715271337134,0.892286161411139,0.891592138257665,0.893282978055194,0.894687118204771,0.945672014048125,0.910569565083615,0.914104778911864,1.02124784589815,0.917604460443919,0.921149578657241,0.925328059705538,0.926320652224438,0.926912056013817,0.925472039445866,0.926640173708126,0.925433327417476,0.925818061001636,0.925659522635434,0.919571814398371,0.917227737808966,0.910707862971621,0.909173707972657,0.899919583714998,0.897926207639399,0.89767477083497,0.897038688104859,0.898029032485167,0.897437061982465,0.899557384970407,0.89948389462343,0.900775724599579,0.900526711875874,0.900869095042444,0.900119300935017,0.901496120854111,0.909371060268956,0.909789564929575,0.908968958751187,0.90873537042553,0.908934191400467,0.910516304896038,0.911424004653171,0.914039326044316,0.914577104722214,0.916057766317389,0.925585162828534,0.926551017542245,0.925818950724149,0.921041753074238,0.919505697432399,0.913362654334305,0.91373514485889,0.914049839336964,0.916976440373366,0.919361055931065,0.908303321352023,0.907779651525578,0.905944285256878,0.902010966695683,0.898920792012932,0.892127745047462,0.890582363482744,0.889146859274722,0.887985027629331,0.885194613934207,0.88413545517869
0.895407554258131,0.894830091029204,0.89460391066872,0.903638682852214,0.904307806091169,0.904419955720034,0.870382654371212,0.870773182524878,0.872652133987064,0.87174635264673,0.871056086641538,0.910898385193118,1.00593817386095,0.895052854656032,0.894393336043313,0.893862938228841,0.888936008544105,0.890865639164578,0.892126309658867,0.890879545861963,0.889493461256097,0.888163749817395,0.88781135119881,0.887761043716688,0.886622531166625,0.885472671995696,0.883477781257795,0.888392598330987,0.888498707911193,0.889472375286444,0.887433951817572,0.887022018430195,0.888442271296515,0.890239687818999,0.891113632074969,0.875463288001035,0.875914914239538,0.875129031883083,0.874606364472409,0.873776580721705,0.873164950782523,0.869939003251695,0.871193192382242,0.871420236280252,0.872323826462632,0.870770408198437,0.873788230948224,0.871927416039672,0.872807415611081,0.873568308534627,0.872191596645301,0.87150220901082,0.871153725349921,0.87145376949576,0.871469728632574,0.869121139224213,0.879744170266367,0.880245730885617,0.880418573880175,0.880962721650838,0.881522057037085,0.888149334515029,0.888454273879309,0.889630190903302,0.891568178101116,0.892659780647363,0.887811496967441,0.88570187177085,0.886095669926444,0.884785425799066,0.884709164609656,0.885213974593165,0.884105967693126,0.881640980218448,0.880572626057181,0.880445086091469,0.877775470705145,0.877396751998305,0.877396540944149,0.87775167947241,0.878249262296822,0.878896522276285,0.879252219883767,0.879948374463522,0.881156624439275,0.882546576335849,0.883981417632028,0.875636538533718,0.875277887436374,0.875662507587204,0.877175725244663,0.877499734897682,0.879754000584832,0.878487201189182,0.876885026752437,0.878049042746547,0.878458374061321,0.89229039332774,0.8927034616872,0.893338144795094,0.895543743039706,0.900031150714058,0.897959872342477,0.897166691186051,0.896758768069167,0.89564314154122,1.02583064514624,0.916512349358253,0.91732462044716,0.918242222421469,0.920635604602222,0.921971508876716,0.927003510759644,0.927170275254717,0.926897230792785,0.927640298752825,0.926214723572133,0.914930783957533,0.916091868081446,0.915162935591183,0.919368428399879,0.912430155585828,0.908067902197846,0.909035999073953,0.899232893004602,0.898528693347132,0.898100157937436,0.89838929906091,0.898702832788585,0.899953998804549,0.900286669897022,0.901046958659035,0.901447482916302,0.901818629239806,0.90255171849409,0.904307649221885,0.904066351563647,0.909372018705811,0.9094242219436,0.909496832293661,0.9088575672932,0.909449951050117,0.908896354829347,0.909747645093053,0.909036633432202,0.914710895462411,0.914764240985047,0.919434564363308,0.916164113294087,0.915653693003922,0.915674135098554,0.915360689014523,0.91377289369408,0.91364080252144,0.91484981754711,0.913277468567129,0.912575696771656,0.909093716450125,0.907286199938781,0.905074290861627,0.904129611652651,0.899655953019001,0.893338926617182,0.890983776985681,0.890394630494155,0.88757642321845,0.886797347816579,0.884417984277653
0.907514317781282,0.908598716682102,0.907085713163231,0.904847030884973,0.904749850312626,0.904934380847626,0.877335013616713,0.876411136924598,0.874344285167047,0.8718874476603,0.871050881835889,0.891109953921698,0.892345455095439,0.893244759854059,0.894569130427755,0.893522425723563,0.893254155282941,0.892784076705579,0.892840758901348,0.891763235595517,0.890238426476858,0.889039956360731,0.888561428502211,0.888039561281671,0.887876152176747,0.886510653889316,0.886961886324624,0.887674017516847,0.888288468335577,0.889117146294526,0.888421067636131,0.887475025511014,0.888309220081557,0.890133724011125,0.889678199027166,0.878244837376573,0.876279915307377,0.875052980910728,0.873961947323165,0.87309875926677,0.871415800660852,0.870842616797089,0.870019974666126,0.871187746425909,0.871500783172083,0.87295807107726,0.873078903987151,0.873776680906252,0.873174638900073,0.87309915854936,0.871781719611718,0.87146976824891,0.870736575938564,0.870720888710369,0.869739160560502,0.868269006088365,0.875440488358451,0.878979770180963,0.879246339959894,0.879725305382072,0.880189536183471,0.889479616178644,0.889609039259558,0.890421496076339,0.891347741341365,0.891438164780428,0.888563001060163,0.887583072381501,0.886867036525161,0.886354807791885,0.886122649854787,0.884966909911333,0.88264498687319,0.880854565011356,0.879372412067544,0.878264175183883,0.877419604611778,0.87697791772005,0.877455975816909,0.877914576904028,0.878284149611296,0.87856569484749,0.878931312811232,0.879718404338013,0.880605192129133,0.882316201059451,0.881547765747426,0.879146762066707,0.87788105495375,0.876481239057551,0.876253825722632,0.876549656484963,0.87724841139437,0.87834649812329,0.878800585824044,0.879500287342521,0.878639773305433,0.892407273251298,0.893008041425165,0.893647946112905,0.897576010660165,0.899602821759343,0.899406278090507,0.900869576769249,0.900452409656706,0.907015160256172,0.917417555281117,0.918137170788913,0.919008871795693,0.920054178599573,0.921774735756321,0.923802292856722,0.926342321726224,0.927133716835227,0.927023634030593,0.926261212544566,0.926545321713556,0.914947907481017,0.915646786933204,0.91560170074326,0.915785546045388,0.911990029603791,0.90782659238336,0.908945321688472,0.900830600280512,0.89922505310837,0.899197031211556,0.89913458208466,0.899640987550451,0.90023559657769,0.901589771990147,0.901340856163074,0.901909110808236,0.902268368520449,0.903115738979224,0.903854534236752,0.905985202635617,0.907561633240427,0.909532510920158,0.910066709771594,0.909635300444998,0.909568709655547,0.909292860945179,0.909522448348024,0.910168638507511,0.913178948387409,0.913297917859909,0.912279512073886,0.913120935335245,0.913918817055884,0.914213397289471,0.914178924782836,0.913366139111777,0.913377715438596,0.913679223937592,0.913231925079742,0.912028538642014,0.908978692422943,0.907386629699487,0.906483132695586,0.906206198928257,0.901306225943755,0.892317477568521,0.890744854303437,0.889415898480371,0.887702493749381,0.885997122060032,0.884425597880233
1.04580684023043,1.04606818969212,0.90571821435453,0.90429576106441,0.905120589629895,0.913308347724139,0.879660814198664,0.87533148931557,0.875328106983082,0.869319858311307,0.87041206151441,0.889460135942167,0.888553787388931,0.891403647919168,0.897815461596305,0.899771004697826,0.898917922559234,0.893714735755198,0.893612125582618,0.892553003062848,0.890540288067087,0.893722777808211,0.888048551937953,0.88845835993432,0.889236593493419,0.887616264231972,0.887615273826991,0.890162394708752,0.888660822272296,0.889923149145422,0.890556438827283,0.885845801687798,0.887819787809188,0.889993758520504,0.888433228527268,0.880885437401503,0.87750231003615,0.875213137264751,0.873742760245749,0.87141055329587,0.871066421069095,0.868747143847358,0.868261001955228,0.871161847116477,0.870485493913527,0.872954618719149,0.875410978267343,0.874285003831075,0.874179235073257,0.872594464116058,0.872399170386711,0.870109420309389,0.871049205564198,0.870308522186332,0.869313149453626,0.868038321399019,0.872429224770956,0.876934478884373,0.878485418558333,0.878602460062868,0.881863784291016,0.887163002944728,0.890979267458348,0.89075944859032,0.893112568064189,0.892346258042527,0.888563226869363,0.887750443354186,0.887907085611045,0.886916650998699,0.888951423973546,0.885565067083631,0.880906278458458,0.878901733851336,0.878573800404428,0.876899209972964,0.875675308795502,0.876620624983374,0.877264721399276,0.87797107170662,0.878954994790383,0.877402923142875,0.878778284263437,0.879216936913219,0.880075187450775,0.883430771857378,0.890080213045903,0.887939436235728,0.877957505367003,0.875627778816681,0.875529369276036,0.884938120193096,0.884971685707719,0.879896063341707,0.869454817185605,0.870910070165312,0.876080578938747,0.891941754039589,0.893226527780489,0.893345479763797,0.897936366476112,0.901162826247716,0.902488104772696,0.901463629639751,0.900613556272353,1.06768198016334,0.915787665006291,0.917695359326103,0.918880110583158,0.919272969684914,0.923713086564191,0.924817240775815,0.92699023067816,0.92733360112716,0.926701797685811,0.924861751297752,0.973756886409573,0.908548780466541,0.908147286699024,0.908568263800405,0.916480811870375,0.911257057932019,0.907534035308013,0.907347282927814,0.904881165803266,0.899418768760209,0.899343783791753,0.900192816380796,0.900001971658779,0.901055124679129,0.901901464984961,0.902722058091943,0.901216363629948,0.902593844726051,0.903007720930633,0.906354647050125,0.912959638303192,0.914259364508741,0.911686731254132,0.911054032720886,0.910289584883525,0.909222533570165,0.909426229563603,0.908921353602876,0.909414881738735,0.907514193506801,0.912989784253623,0.912487947609922,0.912431738638286,0.912510265375754,0.913845485612715,0.91363541065346,0.91266013795506,0.912623791807552,0.91356662548489,0.912484648863498,0.905201418800979,0.906429161112751,0.907005113548672,0.906770487498968,0.906849463188287,0.903266815158969,0.892918432011655,0.890896615806913,0.890075830248595,0.887517931076591,0.885321646987926,0.883544263960523
0.987579462013128,1.04414637913411,1.17394965571367,0.912329255732635,0.91790445524044,0.883679156446921,0.880705190885512,0.880623337587153,0.874203210255293,0.87483113331145,0.871831808900291,0.872565666576542,0.876701531715691,0.88238579257865,0.882951908475028,0.898387583500078,0.897699159611363,0.896711498169782,0.895517830459926,0.894548870340772,0.89457649800247,0.892560300187957,0.890226556028657,0.888818052627791,0.88682871038617,0.887698383610675,0.886933547836098,0.885298128426575,0.887565425118978,0.888854797025581,0.878313671674704,0.878443905304607,0.878281984912036,0.878217443137399,0.879514275081502,0.880032696394066,0.877687356660203,0.873727350134281,0.872856002697421,0.87246810763768,0.869639483226681,0.871003808479454,0.869546821989777,0.872271199414841,0.874768321583182,0.876016301700869,0.874582946217109,0.876209546647503,0.874127221326372,0.873998739244811,0.871272871279228,0.872110997079176,0.870974468148869,0.871508463788864,0.87181716422647,0.865651598418256,0.874969502183029,0.876839205260731,0.879815591243329,0.879795348057829,0.887306746466352,0.887954236572976,0.888900025369395,0.891063650577804,0.891075869736577,0.891398489050936,0.889405923447317,0.88984399215243,0.888858791590342,0.889127026281948,0.889321196026565,0.876510719479702,0.876379790685518,0.876335102580707,0.874067998526619,0.875073373389678,0.875722608604345,0.87645913428796,0.876710079104076,0.878594451298588,0.876036946092379,0.877515326805534,0.877770665226351,0.879483623738427,0.881521117136263,0.889015475240127,0.89025767638514,0.88864064230414,0.878754356525775,0.879296092521248,0.879864463173056,0.885053232738073,0.885584712005685,0.882185362607728,0.86845274594358,0.86918700607283,0.875249283121983,0.919707637918143,0.899468197061407,0.89823464858867,0.899506526424887,0.904718636416681,0.908223532287002,0.909529238139512,0.915596652525263,0.915350889654039,0.915108766507627,0.915826234011049,0.917366071047876,0.919575358586448,0.92449806552925,0.925509503454183,0.926198530346835,0.923720599889499,0.916178303222102,0.999270615935905,0.912894625528485,0.904301982651479,0.901610342449221,0.90036248809819,0.898437041728697,0.904486637799096,0.905466761596236,0.905487172074503,0.901760937884121,0.900018551712062,0.90098846321925,0.900280808846818,0.900169652083707,0.900296674432468,0.906806108492875,0.90367405309644,0.902577743421469,0.902526452256247,0.90357207882716,0.905263448994724,0.917619937411071,0.91924096236851,0.912050376191599,0.913314121951274,0.908232747715501,0.909622596984118,0.907577210958882,0.90819851985371,0.907339741698386,0.907199285631989,0.911610755077573,0.912287696923599,0.911538341429964,0.911593366963867,0.913376291354874,0.913756959164535,0.912735609537004,0.9107236022639,0.908295558431662,0.906982201213877,0.905060516438273,0.905730664430632,0.907622228017721,0.908284945257703,0.908417515555711,0.898893126936355,0.891973856385696,0.890273286907182,0.889752085597876,0.887122670005572,0.886069929194137,0.885225927584924
0.877367775745908,0.876765036396108,0.876307924889339,0.883127913473031,0.886525934644776,0.884718823613252,0.88360469969787,0.879530223701171,0.875055840332671,0.87460984354023,0.873261224463957,0.871048107238247,0.875907916279073,0.880087149275174,0.8821252154013,0.898111884649625,0.898715615288484,0.897799461060823,0.897145823800228,0.896484853759026,0.895442940648621,0.895387666414872,0.890170796160407,0.890636485562195,0.890922836738383,0.890269937244406,0.884901603873942,0.883866229100216,0.886866681672645,0.879771690451324,0.88060750898445,0.87789983822658,0.878640033237464,0.878281453174184,0.879297928007234,0.8771637767605,0.876187710586816,0.87344751663018,0.874304639905715,0.872788527746429,0.873923760673287,0.870335182062794,0.871767392485103,0.873505508729772,0.875828045441575,0.875786038969056,0.87717413751869,0.874946023501899,0.873999923709207,0.873206071804022,0.87394985048504,0.87524029502386,0.875852735873327,0.873397593523695,0.871611966327949,0.870968140201744,0.869931816076798,0.878486068656278,0.881193052564785,0.884611154619983,0.887596344352369,0.892438685120526,0.893625459643178,0.891943393887917,0.891941921159993,0.889990836096926,0.889499532963681,0.888706153887336,0.889664595687774,0.888684703190384,0.879617370582018,0.874880551868525,0.874688136097487,0.875425490468536,0.875015620814508,0.876563329011642,0.877237897720275,0.876842868879801,0.876110490425147,0.873413550292672,0.87586907563848,0.873686297014683,0.879460289835974,0.87869221893968,0.880917678119823,0.88736300161911,0.886622489492748,0.881593875340331,0.881158084395585,0.882477580267679,0.886494696120058,0.892383200395323,0.892635025127448,0.884372360299001,0.873040867736129,0.874272726995915,0.877647365237768,0.887866182287119,0.899956532414087,0.900006916832393,0.900867200333484,0.905622383615798,0.905710835766971,0.911006818126173,0.913919831305507,0.916841761538408,0.915538263801077,0.914865855614825,0.915535216161309,0.914914795537453,0.91485491867745,0.921386148621408,0.916071202023587,0.916066255898168,0.913281343218587,0.907098046328142,0.908753414865145,0.900548896634733,0.900067883228256,0.89884948325324,0.897642850488189,0.897829451106536,0.897924225185138,0.897468709672737,0.897821860747717,0.900185469395811,0.900154796216083,0.900476629594988,0.899805213607776,0.900238837540834,0.907680478316287,0.902853837292749,0.901573016155935,0.902321722507711,0.902145141303671,0.906250737317461,0.917677244539341,0.917843217807219,0.912266297256937,0.91278340327962,0.907423018917092,0.906727142767592,0.907651022563695,0.907826107061855,0.908204283711808,0.907386787565374,0.909947774612673,0.910000547497919,0.91072917274564,0.91051674242155,0.912189054466589,0.91371170217216,0.908106109353513,0.908528307867919,0.908652338663165,0.90702951564161,0.908088940103203,0.909931778652034,0.909221872817106,0.909781892702145,0.905923693155789,0.895209871890429,0.894552862516255,0.888468184261424,0.888431155907904,0.887365106566325,0.886936906963968,0.889478650742773
0.876156004093738,0.876502387588726,0.876272068388667,0.881713679730042,0.881590182451788,0.883795553014887,0.882408350326689,0.877988960799369,0.87745458457235,0.868632111466976,0.86851421682679,0.870162307686605,0.867927634320703,0.878319948670645,0.91105812470664,0.881749389792193,0.8991823343572,0.898773779989027,0.898653263777227,0.898714325053785,0.897648053998871,0.896447839122424,0.896205812209632,0.892537957857282,0.890997831748615,0.89001099960936,0.889798846359219,0.888443761226835,0.88767837518279,0.881180327185495,0.880790657747548,0.881167636672759,0.879170691306308,0.880173109058978,0.879194189318787,0.88053106518371,0.879366306306001,0.874493301535189,0.875108548893364,0.875310248437956,0.872595733621641,0.87562583247495,0.87584126561189,0.876069358707129,0.876899065765626,0.878188921651551,0.87751565216077,0.879841312281544,0.880638893477541,0.880168174672805,0.877861197001859,0.877584844867033,0.87526608789321,0.875532999209119,0.875617534039165,0.874257287093715,0.870916987691472,0.884159709007514,0.883178773269833,0.889442891788786,0.892412331343869,0.893408558667167,0.892405977139379,0.892295763152791,0.893507569871277,0.883160782789336,0.882033429045963,0.881730469300404,0.879755066569791,0.880173109030202,0.875717893743638,0.874970427504319,0.875571785581777,0.875948194780504,0.876389901701135,0.877413261706926,0.87773452639226,0.876697209543208,0.876001600589887,0.875326907642298,0.873860286839685,0.87513503513293,0.874638602710843,0.877515728607894,0.879321832466514,0.880721956189306,0.882125512348264,0.882861465100045,0.882318568230267,0.88372782737792,0.892483863447977,0.893606545824786,0.893531619468231,0.885812031254932,0.876526706563313,0.87618529666545,0.877490779303546,0.947820522617893,0.912179109753442,0.904611148556102,0.905933801427148,0.906069873707404,0.911958295570662,0.912456741559126,0.913536150053029,0.916256532665626,0.915948173544708,0.915094914505028,0.914426140234782,0.913828707099496,0.914754463339711,0.914902202476585,0.913325389583915,0.910252998761292,0.905627409739292,0.906111710363783,0.903579837862441,0.899779368623638,0.899356783572106,0.896634690098192,0.897102488119253,0.895921861046353,0.894182580957625,0.892942881317705,0.893819961013706,0.89447939844524,0.90153052897805,0.899212766380264,0.899205422116557,0.899217938780787,0.89750074557068,0.896666224694147,0.901617106282199,0.902418281932032,0.901956036329353,0.905714557677511,0.917679309633642,0.904921124713995,0.904101861769473,0.904828247436449,0.905597840183477,0.906934771890642,0.907940259879062,0.908361846542139,0.908422988413613,0.908505974219295,0.908064090595868,0.909108661375739,0.910025577414228,0.910734514058676,0.910211891022422,0.908079090586099,0.907731210864145,0.908340019751214,0.908494890222992,0.909209919713353,0.909024737302543,0.909919523432688,0.90988714621468,0.917576539084651,1.10343516147156,0.891002903251987,0.887468601717379,0.888114842948094,0.887927451014109,0.889411687844403,0.891975097701697,0.89400079690986
0.886093316849595,0.876908306378212,0.8773523196472,0.87940343005918,0.880868957942034,0.881931385797105,0.881720408051714,0.87921172776535,0.87884007273211,0.874047404215092,0.869155604157493,0.870042871781682,0.870167322202084,0.876355505462241,0.876107049358014,0.8837291889584,0.893526038979417,0.899785499752561,0.899542624387938,0.898673237896213,0.89765865816314,0.896678430517706,0.895930812913443,0.894028360811897,0.892651286876339,0.891079792561568,0.890118429018127,0.887939058197482,0.886242716460027,0.88326208238167,0.882373516655319,0.881627222232026,0.881757374054373,0.881568248531874,0.881664396803247,0.880510899535136,0.879958203573106,0.877916692901508,0.876721919071257,0.87555518187682,0.875302679621826,0.875771210519496,0.87679181027613,0.87689008664249,0.87752325312406,0.877949430306954,0.879203974796585,0.880497412402522,0.880796817699542,0.880307894207805,0.879394286368442,0.877536169158347,0.876842085893637,0.87640660095418,0.877377788967109,0.878871971895033,0.878811966914367,0.884569989781957,0.884202062991917,0.885422493209588,0.892998986613786,0.892674928646097,0.891835642781354,0.890415745906608,0.887117040480907,0.881881976002271,0.881596629258361,0.881031163872537,0.880084881257074,0.879471443735288,0.877816795157842,0.876658966910437,0.876646733304596,0.876937895217871,0.877630349983106,0.878156825236764,0.87782058721743,0.877396419196087,0.876668182433764,0.875643780015118,0.87512693959971,0.874554333274279,0.874924636259925,0.876464171327449,0.879474337441325,0.88063979986676,0.881360618246521,0.881916486438956,0.882328232781397,0.882579096041287,0.891427571561948,0.889892323321114,0.888375152114224,0.886222800669974,0.88666477460722,0.886640017164824,0.887019129173194,0.930647982928604,0.92047713339194,0.905541435849443,0.906183528760964,0.906081952679424,0.913065614396105,0.912978429435026,0.914130064593761,0.914945842797613,0.914854949081708,0.914258521166538,0.913931071896998,0.913639616803007,0.913356867606686,0.910642908497955,0.908947611418778,0.908138565851592,0.905534107349409,0.904139688458002,0.902078871277356,0.900371688881179,0.898852857410157,0.897734927745871,0.896609753773023,0.89476239397097,0.89320643247432,0.892931756217984,0.892985456685171,0.89339097561731,0.894549441866926,0.897549671178177,0.898556292338168,0.898033565476489,0.897267381728405,0.89751056235472,0.899446601520663,0.904314501748313,0.9039446954201,0.905214444373124,0.905213298064808,0.904539132397611,0.90386625877266,0.904278597334703,0.905469913203461,0.907429500496894,0.908462316893863,0.908539012489819,0.908900073103561,0.909030869512953,0.909413799556461,0.909976063213071,0.910030311998515,0.909939806555914,0.909302187807124,0.90800753710929,0.907846198842668,0.908666758678852,0.909203069329876,0.909388117499409,0.909073842763484,0.909020479752986,0.910681303821724,0.91386993231745,0.905918905623697,0.889145876882586,0.888085106349793,0.888202751818097,0.888407874237183,0.891042684907123,0.893076433597689,0.894526310289329
0.89472911647014,0.875678243844096,0.87603509907755,0.876772992941079,0.875029961178098,0.882111898005038,0.88228019559971,0.877869549249201,0.877388512498067,0.877383938986355,0.870606990900485,0.870161000609008,0.871421983527961,0.874786301408551,0.873801004955722,0.882561524474652,0.888188733655481,0.900267417870542,0.900470988191181,0.897981445145908,0.896903553591885,0.89726800715912,0.896267336314819,0.895080640111169,0.893075996973291,0.892969276368047,0.89130315474269,0.887157403069244,0.886476065221998,0.884006790667929,0.88307437801968,0.882639450930461,0.883407971444828,0.883560220381003,0.88325351296772,0.883179006154386,0.881108718722027,0.883444485286929,0.87728371233526,0.875739198095624,0.87498888221226,0.876404109345321,0.877398509739861,0.87757713281894,0.877687863461423,0.87818157917699,0.878677029586418,0.883382305288176,0.881829061932645,0.882364838285534,0.879530551426508,0.879135700020877,0.876101568819354,0.877043300743302,0.877402679936088,0.878056652850256,0.881670269818051,0.883362869313816,0.883416082277004,0.883711794691609,0.892421073808228,0.893852672537896,0.890798556652205,0.891260633466582,0.884324396965957,0.883128588451098,0.881868892844311,0.881158080785152,0.880340925092012,0.879070007951276,0.878645730088956,0.877156104979742,0.877502863921996,0.877787775695551,0.87948022661082,0.879706977931013,0.878333671683448,0.878418505429004,0.877106446477621,0.876267529603074,0.875446060950706,0.874465533534812,0.873247152602897,0.874239706063428,0.873108486937571,0.880736457126486,0.88152186644165,0.88097631650972,0.882411419006447,0.883667156381234,0.889308001573974,0.891929623174666,0.885952197382973,0.886544754199974,0.886190528831572,0.884535371343033,0.885086999369422,0.961626422848923,0.925802058554298,0.904202754426845,0.905230141731527,0.906926572621816,0.912131041781935,0.913069801597702,0.914963456995384,0.915153715978064,0.913798586252382,0.914502374264171,0.913722090065636,0.91426977571487,0.913583516211565,0.908337011056727,0.908557266994352,0.906448381239367,0.905001909448081,0.903205838121634,0.901534093169226,0.89979394825439,0.899067989617064,0.89764036125642,0.897278760467747,0.893010593120485,0.892014536269685,0.891564680014146,0.892055277636755,0.891954051771431,0.892747777145825,0.898740301694197,0.899184336522402,0.898698020854517,0.892604170457032,0.892866260613318,0.897604205513798,0.904312257472575,0.905213977105298,0.905677445959106,0.905816881494291,0.904255401196417,0.904029947445853,0.904185426885746,0.905023374581309,0.909103926609827,0.910243182503823,0.908716237166141,0.909352428230794,0.909534195245263,0.910280830874913,0.911383652652133,0.910256174172157,0.909674613628856,0.909282575115706,0.906762739614978,0.907560335534743,0.908978601918139,0.909637195419273,0.910517076105633,0.907896034270406,0.906148191308585,0.90985630049047,0.999830836185648,0.890230739961242,0.889599267703165,0.886700641834738,0.88805684572565,0.886520810251447,0.892530088108109,0.894694866658031,0.894690361183805
0.895786745678107,1.11598964358005,0.881859651947738,0.882277611850492,0.880874503234232,0.880985993587903,0.889861080698813,0.883934664744077,0.88310280836716,1.0689677354634,0.853019927429743,0.853192393987823,0.865460599168187,0.873835343172099,0.883226833816924,0.883893026519966,0.889734871092803,0.904760125531795,0.90202540612427,0.903773972268155,0.897202719553202,0.896699109147246,0.897251898994578,0.895230322786682,0.89497714370163,0.891235013659157,0.891392249720801,0.887817285868941,0.888261558911803,0.888471199035252,0.889236034650776,0.888130638029758,0.885452241640414,0.885154487393033,0.884563878929439,0.879482245979135,0.881105819318201,0.880450079606847,0.880284660245262,0.879880333699631,0.876658239045993,0.875638704964713,0.878744047918502,0.877853308172253,0.876227039177923,0.875589130862813,0.879698207802527,0.88364058553832,0.882718148597394,0.882862543787902,0.880186548560001,0.87871713066827,0.879143811688663,0.877632517552561,0.877922477630171,0.890555940246888,0.890142496610754,0.88935341599898,0.890770251878266,0.889514031654448,0.893476118007566,0.892203033626617,0.892172365809301,0.890310922775991,0.889883782523952,0.887936330613428,0.886825015993886,0.886347967278462,0.8835236776178,0.882856773617999,0.883796901814707,0.883785313532655,0.884159177824389,0.88384652838068,0.881215478606821,0.881159172453328,0.879402768148564,0.880512717755551,0.88168782401271,0.881241309290624,0.996457268445003,0.880694985930516,0.87458363828658,0.874850601522796,0.87505754717249,0.877888076418926,0.879135252295276,0.881300415955742,0.882046807358901,0.883309454134883,0.886110167768698,0.886348590203734,0.885483904437763,0.886389674165078,0.887009228119742,0.890954969750554,0.891284504369108,0.98016649790559,0.93334284258624,0.949330260832358,0.917919013894054,0.919279852131248,0.910793925896976,0.912404911641364,0.913569492542056,0.913093633594965,0.912826283670674,0.911253705152488,0.913078172588894,0.910353942209036,0.909378252536717,0.907842008084311,0.904459950141391,0.904535056729975,0.903269314521009,0.902713952995366,0.900482816458025,0.900561111506166,0.898835384004764,0.898825135923928,0.894761095449299,0.891024513728241,0.889195020593727,0.889668991654682,0.888060533067555,0.890510442294987,0.890238658146748,0.890417098385946,0.889897940916663,0.891306394157318,0.891959013878617,0.892494735223443,0.908897398010845,0.907553665447833,0.905802233296101,0.90508636891886,0.904125046479695,0.905049111049327,0.9045551204466,0.905121126279217,0.906548347476983,0.908357342787552,0.905812773149697,0.907518575322379,0.907609763774316,0.910539535985717,0.910966812437716,0.910958097729666,0.909397828320108,0.909925184482911,0.909400411879163,0.907264712659303,0.907124348283104,0.910011223685272,0.910756869014959,0.912059142262938,0.912983215215056,1.0991462491492,0.908566473089687,0.889372564029692,0.890315204482424,0.890889711060591,0.890998126016309,0.889644572003169,0.891705347820717,0.891069767532035,0.894896058793512,0.896718610431503
0.896630746140061,0.897766744588096,0.886776919314801,0.881258624761354,0.881033555498976,0.87941336911903,0.889023703400407,0.889936956243723,0.873603994763783,0.865230309428671,0.854735691298983,0.854882338105011,0.874639782270347,0.873656754870819,0.874391492409613,0.885310361806096,0.902950367517154,0.902936830581072,0.901901802088459,0.897142912713062,0.896419109474717,0.89663500981262,0.896034642316938,0.895618867204323,0.894484462287893,0.89054688211728,0.889185375873877,0.889230764857513,0.889636210802377,0.890397142633813,0.889032125409596,0.888591639919914,0.88952252511637,0.888594768295058,0.888821632382697,0.886221471823952,0.880627896517421,0.882891596915966,0.881130499027644,0.881454533708227,0.880307985493583,0.881135516129305,0.880505324450397,0.879969459748589,0.874565510668986,0.874519317570469,0.879139057383833,0.884389487140831,0.882069671912709,0.881828413408602,0.880577418249605,0.880923189138598,0.880646739583034,0.884771304790435,0.890136700287064,0.890701998645156,0.891059284507402,0.892203722216431,0.890913875979385,0.891609278080384,0.891521952205553,0.893559865788629,0.892716197623724,0.890275178249423,0.88930811259524,0.891450805370925,0.892030302722056,0.890142828044635,0.890072335318454,0.890077058948891,0.89187229174282,0.89350647387989,0.894490177364969,0.892778572772245,0.89285545291089,0.891019883986228,0.891525105758204,0.890044485488747,0.890720844666627,0.891603434105061,0.998134872979373,0.881009495388914,0.875690120179235,0.875003844867105,0.875780265098966,0.876356297433727,0.879913792119542,0.881537088783953,0.881459409168103,0.881300446235212,0.880080651672608,0.882104564067517,0.885671867101677,0.886329101830381,0.885786084625249,0.893895775572583,0.900576647164836,0.915950877519926,0.923351253374887,0.92251449220143,0.920094686455759,0.919773379712439,0.965131971087237,0.941945357800001,1.00445037129945,0.904801799708162,0.90527204905617,0.906274632704552,0.904837288202864,0.905778031433698,0.905463426141408,0.90343253731364,0.903729542859705,0.903401312328432,0.9036953058153,0.902255210881363,0.902816592758741,0.903161163870035,0.897248901116257,0.897631646297486,0.893566681851804,0.890440703366912,0.888904533631696,0.888936584852211,0.889108545331716,0.888506526413757,0.886499401278601,0.89049974229835,0.889762669418201,0.891402845852212,0.891814255496446,1.13342999582878,0.908594391940564,0.907057180837099,0.906089068342571,0.904596943816142,0.905187919944359,0.905104443676076,0.905042956980247,0.904828295051522,0.904819683145102,0.906120476978126,0.908009883851058,0.906755185108734,0.907083753707385,0.906223972089042,0.906084839238663,0.90601701575661,0.90733238368465,0.908237367560573,0.907997537671831,0.906606556501134,0.912895195570353,0.912020513067412,0.912376997355062,0.913387507791302,0.914024901060037,0.919751988865466,0.907313827275102,0.895154169880507,0.895627393155587,0.895154435249477,0.895168842102283,0.895678224202218,0.894225124842821,0.891201483543766,0.892219488181739,0.897229925658573
0.898788878356841,1.05760716899069,0.882587027948095,0.882177095245641,0.881682327849973,0.877394702130158,0.876085501964317,0.861246218488485,0.863217435390357,0.864027876520782,0.863278389474106,0.855482421291174,0.908552424399038,0.894031201527682,0.894541331474175,0.893987965270774,0.903224549780166,0.903081730491753,0.902538865325709,0.902852662463688,0.902785063859971,0.895527168511236,0.895881011786837,0.894941801573031,0.893605338755249,0.890432697580477,0.892483289318012,0.893354443557826,0.892207837675905,0.891118659750004,0.891556739767076,0.889409268417474,0.890164269591045,0.88955230671168,0.890146631391157,0.88717949079833,0.882793544711731,0.881700362193823,0.882298105040854,0.88142729715338,0.88408518414088,0.881837514212995,0.8828807858291,0.87991679548135,0.878632975574364,0.939271078023858,0.891311497154542,0.892391244521343,0.887020229077713,0.880921273766102,0.881938262963707,0.884943676190271,0.889859414083023,0.890378728571503,0.890558716319442,0.891224044816581,0.891535735116051,0.89063104681205,0.89083667901077,0.890437491882166,0.89232456742386,0.892682488008871,0.900408368529342,0.900838212025287,0.900061800149737,0.893983342609242,0.895863930239348,0.896413226831113,0.895381721728714,0.894335733343165,0.895620063659223,0.894743727831338,0.895743619467627,0.897810407343722,0.899431836221875,0.900069186843999,0.896408004699797,0.896942870978452,0.900891748038379,0.904535778553278,0.907344516892063,0.931294450291508,0.875021958440213,0.874066834852161,0.873238146136171,0.882100256073297,0.881302019469778,0.881911542967822,0.880804347589571,0.878922625412046,0.878543978782728,0.882825012665544,0.887325439132987,0.887178558726157,0.8891234282237,0.898804319728166,0.969955396153037,0.914326961335254,0.922619695480515,0.921941705550131,0.920983200776569,0.920144944272914,0.951622260321677,0.934577761641278,0.894942228774289,0.894484303353968,0.905979506199564,0.905532478910947,0.903197188905341,0.902335823161121,0.901779058026711,0.90247161544777,0.902393332013004,0.902891249187416,0.902977940610866,0.903233989914562,0.901599000610966,0.896262174707704,0.896483363212584,0.896464662864141,0.891190642437423,0.890728402842089,0.889624371023586,0.88930437872533,0.890329492039817,0.885475839827733,0.886197084105875,0.88612103895405,0.888526966021136,0.897159930180218,0.906995816094779,0.907013086789496,0.907426363592868,0.906931956245757,0.905767847347979,0.905913876195664,0.905765915349068,0.904807999856854,0.905029882397193,0.905728608402403,0.902838254115839,0.90497892979028,0.905401773706685,0.905173801188567,0.901057910851249,0.902546917488224,0.904444831303418,0.905401876073802,0.904707745879148,0.902983231343934,0.901772807870887,0.90657116465595,0.912202142436703,0.913205324385788,0.913888307772965,0.91385479755904,0.915508373294566,0.912634229799163,0.90591482179449,0.905544304342461,0.90163431950434,0.900064302854564,0.900708456372693,0.895665462395443,0.894939458669098,0.896308124882609,0.896619581463598,0.897880736672717
0.901375559642665,0.899108007283975,0.886977954855971,0.88405521477125,0.883355157326126,0.876442270182154,0.874753634223883,0.862588011798305,0.863630006653037,0.864509617482061,0.86415231992246,0.864240617186795,0.892422213232462,0.893844602024155,0.895003768777668,0.895720168190696,0.902366221889045,0.902242795635839,0.902893715130321,0.903819648900311,0.904631710156202,0.897059056363697,0.896102476069287,0.895266741842443,0.893938240992069,0.893376880203525,0.893337401490706,0.893960938390556,0.893636045624687,0.893121821646793,0.892037266499247,0.891715814268008,0.890997368573974,0.890069088863542,0.889454287907185,0.887922624017768,0.883703146577863,0.883212864137247,0.883001233260772,0.883242764910402,0.883611324831763,0.884646824032962,0.885551417060761,0.888533842283463,0.889593180579637,0.88943316469083,0.890395859358793,0.891199496918044,0.890293290282287,0.888998585116795,0.887841182461676,0.887756982909269,0.888829822591106,0.890040682214156,0.890709852136705,0.89119074842135,0.890468240446309,0.89043919836004,0.890470720278359,0.891139483274743,0.890980056333602,0.894740606635737,0.901860738524028,0.901210089873435,0.899290732500284,0.898677328841961,0.898412241338121,0.896916695485987,0.896531690347032,0.896739083329211,0.896625968373762,0.896077009903984,0.896711469657976,0.89814847244495,0.899719350866212,0.900917324053211,0.902784830958213,0.903508771903109,0.903381801708933,0.905510033886758,0.907193908105378,0.92161243044968,0.88286203482156,0.883294585521755,0.882657993317461,0.882867141093674,0.882694027830959,0.882108246803556,0.881303242076476,0.880691504624639,0.882952899325131,0.883405420922356,0.888610331558815,0.89011623768972,0.892207055010578,0.901111668648866,0.914616886629173,0.916336121592902,0.92000739914904,0.920848809088495,0.919923592620561,0.920585098311066,0.933606810757267,0.922060692194139,0.893961101673575,0.893259527636884,0.902910357333086,0.902615946625134,0.902625515195249,0.901896574177571,0.901529517921017,0.901991276017918,0.902208605024771,0.90228114625995,0.90241956347762,0.901994505825645,0.899469286190745,0.897152835803267,0.896391613621188,0.896758695640418,0.891454889096591,0.891270266127788,0.89020430569534,0.889068617265665,0.888291889367143,0.885730894502875,0.885622844639737,0.88634239668769,0.888109843954653,0.898593458066787,0.906748912146255,0.906937297118766,0.906949977209482,0.907054081021161,0.906577548865175,0.906311985313718,0.905405298830594,0.905184001772309,0.905111004493903,0.905078654481626,0.904409618816439,0.904635656456796,0.904597145302747,0.904065545877707,0.902795426617516,0.903121012185185,0.903337333414487,0.903920483033558,0.903203739992481,0.902452756338209,0.902193186184334,0.903534289021198,0.913471120212139,0.91428607609214,0.91424368495451,0.912258073906651,0.910209849395853,0.909913608627465,0.907532466886202,0.907338749941412,0.901655687632888,0.900968062405957,0.898798754732579,0.897399240371921,0.896692538884587,0.896884816180948,0.897831447940896,0.898549024985022
0.901224145340968,0.897622703086073,0.891332694360156,0.8934454618692,1.12664304463773,0.871614160425029,0.872659567814126,0.861420065959177,0.863538631944237,0.866337448171597,0.864596670457874,0.864643412760218,0.890850020884201,0.894539183398708,0.897071767830354,0.897937776749939,0.900533325838439,0.90149600978556,0.903295498829398,0.90489538796103,0.905074491981577,0.899917118120848,0.896691301938898,0.895624302144611,0.894308875320836,0.894100726034512,0.895204522290169,0.894377687299578,0.895105575011896,0.896207941754258,0.897224619680587,0.891701290497366,0.892520469578001,0.890746342884416,0.889186606324667,0.888642808595952,0.883474787452575,0.884556052505394,0.883712075350074,0.882953746594386,0.884127323718364,0.88412384823881,0.885971303874073,0.888546690890235,0.889945302130848,0.890442340362141,0.900474523388598,0.900988713331766,0.89933910406769,0.976540297321622,0.885335819685254,0.888956608741559,0.888788931779133,0.889736837755344,0.891202809459708,0.891491915203102,0.889953914441077,0.888795162988256,0.890248772376306,0.890711711249292,0.891636425740755,0.896087410198653,0.901558717426373,0.901808926785239,0.903235284915652,0.90334465293361,0.904515265046131,0.902775699900142,0.902479756942599,0.902250963517639,0.895997402827048,0.896816235877624,0.896243638426754,0.898721366813841,0.900912754794415,0.901831717188193,0.909105850590883,0.906738221418332,0.905100992475011,0.905755927279444,0.906631331454249,0.936173722246348,0.882088269750584,0.882453689260659,0.879888007781852,0.884378967393356,0.883135941791404,0.882681912319985,0.881464476572486,0.880107109842708,0.88438687070392,0.885163483161579,0.89480044110085,0.895375762124206,0.895171209910442,0.901608564177171,0.912855229556766,0.917316937934791,0.918981885696661,0.922138696885279,0.916655124622951,0.915170563734303,1.09095415109451,0.910205196427122,0.89440136195452,0.893991221061704,0.901706427703077,0.901622628886977,0.90166558477491,0.900321301181261,0.901046313512937,0.901319316611177,0.902471042954755,0.901567715173053,0.902039268323657,0.902174950583946,0.897394602838004,0.896815250918666,0.896476216858634,0.896604356678998,0.891052351396109,0.891789075310577,0.89021837398012,0.888665009232451,0.888744197739218,0.883448060723789,0.884469320967941,0.888181002572462,0.887331279815654,0.897113557898082,0.907913871324339,0.907038759601891,0.906610153687976,0.907199382470506,0.907284991614109,0.906840570244317,0.904753584278328,0.905008718613494,0.905248728209137,0.905090534087154,0.905119042791751,0.904371658803888,0.904599662156929,0.903916855895357,0.903962891311124,0.902224453359601,0.903920941161125,0.902534854167463,0.902609906601879,0.902072142666268,0.902833605201882,0.902950304131389,0.916199458830589,0.91486577030854,0.915772477413072,0.910342059029893,0.910189981629202,0.908521287869703,0.908135066341485,0.908125554435826,0.903385392403226,0.902327165362816,0.89713239160591,0.897345073859753,0.897074279838908,0.897254700527119,0.898262718107866,0.899446344595416
0.903820481072525,0.895823636658937,0.895190490817169,0.895873707457436,0.904430681569223,0.871465547594427,0.865918263505276,0.863034997757863,0.863080425574798,0.863802710276977,0.864245150835426,0.871833108233659,0.941648714781154,0.911816041474281,1.01185264824125,0.899709781077712,0.902454437724958,0.902880454235186,0.904142080265053,0.905894202693514,0.905013645479501,0.89972019203569,0.897522555731872,0.896613816842868,0.895123809145294,0.895405442686383,0.893912200044731,0.896411851443518,0.896013230924264,0.896819656338633,0.896665651418985,0.891929410649388,0.891487495699998,0.889728189072011,0.889664941700864,0.886050845820286,0.886743260418514,0.88356520613077,0.884735160814559,0.884553341084952,0.883040088048079,0.889942174786656,0.889620921490695,0.888932245166402,0.890149579274707,0.896555973058126,0.900850802149492,0.900527419863772,0.898102680538091,0.892611111874966,0.889666612328086,0.888070179691303,0.887398012934094,0.888623705106905,0.886923521323829,0.886756903281104,0.886139382581595,0.889470046976317,0.889905408465872,0.890763940607294,0.89696249839569,0.901628404936039,0.90180721765104,0.90164959442777,0.901786475772006,0.90152054467812,0.910782885781419,0.910622614060447,0.901784808942436,0.902450466167601,0.89864861830883,0.895650048975528,0.895377786234875,0.900066631952364,0.90052071691763,0.907253716752433,0.908286588836179,0.907895667241688,0.904612839229613,0.904155208634799,0.897421070606495,0.897122410022645,0.883555095738932,0.883089840025501,0.884139945132514,0.884824079421116,0.892201130406121,0.892701371859238,0.890133182944821,0.888730920975267,0.925742455233897,0.895650509208149,0.897871018288894,0.900869384407388,0.901627766610959,0.902677994804515,0.912597085008961,0.917503681794739,0.918306965101533,0.918499614310329,0.917739286044438,1.04927731143956,0.898442748543258,0.898615961302186,0.896832921187686,0.891230588123713,0.891582777431964,0.901139056113321,0.900883845397404,0.901007449117153,0.89967090225391,0.901910264763733,0.90154733425101,0.900233236576069,0.901503303138871,0.895845128844378,0.896679701897676,0.897091163750987,0.896311268578497,0.896236424101322,0.898323787773148,0.886669474248742,0.885691365834109,0.885807584485059,0.883627991695783,0.880605244145631,0.886054913450214,0.888259805616097,0.887554160493453,0.897305988115032,0.901530062781313,0.906279767449811,0.907078073930347,0.908680129547686,0.908711045562559,0.908862437606913,0.903358584881496,0.905378051006341,0.904867732739877,0.905724741127934,0.904374495893667,0.90445680079547,0.903958502319808,0.904890829979173,0.903982439813533,0.90594130781211,0.900818070932731,0.901992598670565,0.901355535186466,0.901438100580516,0.902143941296686,0.912953964121163,0.914166040901653,0.913137247892931,0.911591775670673,0.910060221983488,0.908381712593244,0.908110523928022,0.907484434420275,0.908392480630383,0.905042190040496,0.904492563890748,0.898140504054407,0.897889018748258,0.897678103337922,0.900125099584747,0.899851845724941,0.899613979777652
0.901649102773255,0.900824924546259,0.902599747584452,0.8983596627192,0.892900707997627,0.875073628082267,0.874550843337101,0.862497074841602,0.862625883307608,0.863487604519282,0.869574725179796,0.873134354115385,0.873810824411913,0.880554765824419,0.878935465425437,0.94211731301465,0.902465980373178,0.903444639296772,0.904196977307385,0.90234863075717,0.903318188124799,0.902788043360894,0.902387895886794,0.90164250344949,0.901044032895534,0.895534317972985,0.895126878730627,0.895906217864271,0.896363493794645,0.896647893410493,0.896155145698983,0.891105117399861,0.889495124095108,0.889654085285197,0.887332017555031,0.889254389844729,0.885412465338073,0.885763663053049,0.886054021698788,0.88510764546221,0.888323195297356,0.887147663064054,0.887103009777226,0.887288199703621,0.895156439516115,1.03485848414598,0.976393372390951,0.894914634480605,0.896181424507807,0.894261517215645,0.888540638720584,0.887749718438389,0.878442994762152,0.877603290837472,0.878891859286331,0.884578555865243,0.887153453337221,0.886450138850293,0.891397693992597,0.890317581174745,0.894750400150534,0.900951768222283,0.901388981816968,0.900735171264218,0.901043085822145,0.993888809927808,0.909926608264161,0.908309660666393,0.900846270738923,0.901665432997499,0.896984108691889,0.897686981166419,0.896252876368865,0.899359898188173,0.900357517711478,0.905986868317517,0.907001596243043,0.907249988787848,0.90167017970931,0.897648999190784,0.897095014870557,0.884467283160133,0.883639471070858,0.883197254711334,0.883150496993489,0.890412202596766,0.962323393518787,0.906016956698074,0.908895743584468,0.993878661491759,0.900056470128056,0.964260884024991,0.904185574589729,0.904718335547716,0.904448689665177,0.904366282667087,0.918475192909584,0.919086312990706,0.917889889332745,0.945294419133949,1.05320804907118,0.899867963454713,0.898887014884138,0.892911573774324,0.88898199024249,0.887499705425225,0.887314450407883,0.899582449946819,0.900215422417792,0.898298746190105,0.899563485890289,0.898812220431187,0.897420487213944,0.898185551413039,0.896829312037161,0.895635545662515,0.896827813836617,0.89708257190799,0.89541721335666,0.894605433303509,0.892396662179491,0.886123641786508,0.886308648399438,0.886653408192287,0.885125928268842,0.886102937305254,0.884220669161116,0.88643104384691,0.887571667926593,1.02316729488182,0.90360655952608,0.903735242887651,0.909951454839194,0.909964255671405,0.909974005626318,0.90317285443984,0.903678766522754,0.903557161699591,0.904062870850739,0.905082223939873,0.905291733638263,0.905652355953603,0.90873815795167,0.905678388788233,0.905792422289485,0.902872886817312,0.902797244294649,0.901375392728337,0.901412171369081,0.90067443567339,0.906075496273022,0.905901010229409,0.910381315288645,0.908814012489941,0.907707524060081,0.907978965771201,0.907082630493018,0.906836270148851,0.905517274861072,0.903786340887687,0.904555278953619,0.903829734711499,0.899104977754657,0.898604386340895,0.898458807031906,0.899355148965316,0.901304648354555,0.903297229233428
0.903436258878941,0.904421233856852,0.903716284904691,0.900619391316717,0.891672076212441,0.899020764047708,0.898662097334253,0.89957643767232,0.898739734123027,1.11372120387208,0.891123510416114,1.0148741731964,0.878783754258657,0.880541684118002,0.880545487340902,0.880734481623659,0.88101773050458,0.898106539892412,0.89752386633994,0.898149532936069,0.895334410413334,0.903355242050138,0.90306234068994,0.902503842767757,0.902047343853941,0.895587418561051,0.893516826814002,0.895720939386503,0.896111738403961,0.896586718416984,0.894398136942632,0.891752990682288,0.890930897120069,0.889557321865097,0.889198188114929,0.886846662419058,0.88910199062521,0.888422457524079,0.888155727347936,0.8893409050212,0.891593981795338,0.885253373306223,0.883882949606525,0.888716349541022,0.887851915549841,0.886577571267488,0.887655629504155,0.88758364956148,0.886148288278143,0.886202878579138,0.884500497312301,0.878324803235516,0.878276362371334,0.877818807744514,0.878143560165018,0.883525798561738,0.887541324280473,0.888354192694415,0.892982473734592,0.894721241979652,0.899853796899595,0.900030548330554,0.900059800367226,0.898671033105079,0.896399385451271,0.897114479761221,0.906542076463842,0.9061973188191,0.902772143428879,0.902625731238699,0.898264557585613,0.896996521727505,0.898600990464502,0.899995899082206,0.901960682007928,0.903999859750271,0.902778426922911,0.894361454485069,0.893757822526601,0.891036991154947,0.889364501864681,0.884604448043407,0.8851129056344,0.887861428468471,0.895124252557404,0.897901789432642,0.912921547293622,0.913947856430699,0.916727452657815,0.967071913180625,0.959282889132011,0.91272063693022,0.911254872573113,0.914925556519951,0.9769505060237,0.977526033938719,0.921449913178734,0.921179642032068,0.916074155802108,0.903646484420742,0.898917872268184,0.89039248485868,0.88902443978973,0.887159944178426,0.887428613458857,0.886697853829462,0.887457478076501,0.887991687812878,0.89333317794253,0.89773337225027,0.896577522061847,0.898129363675465,0.897678580167242,0.897874457002224,0.897241909152723,0.896802285284147,0.896603523536417,0.891780507080785,0.89339032680225,0.892955080679443,0.893439130566429,0.88526115979216,0.888519238347337,0.888428941210081,0.890160344707926,0.886508062485358,0.886756543394729,0.883188055658861,0.887959484080553,0.888080454117082,0.905962635907591,0.903727168987872,0.904665840057227,0.902630365027194,0.901015629605608,0.899543721620471,0.897634223325227,0.898214497705378,0.902349671650153,0.903657223228883,0.905488566115696,0.907209229207015,0.906195536854976,0.905347374702893,0.903773382252205,0.906136219340829,0.906292450307864,0.912961959008279,0.912439400721887,0.913683175236804,0.906680678495025,0.898977582265865,0.906014072672282,0.907171543393742,0.906781972513746,0.90579866428023,0.906093601719601,0.900855975600185,0.902970950090904,0.902573988726966,0.902012261182001,0.902575054190392,0.899660281097238,0.899799565425286,0.899400662854847,0.901176428544392,0.90242889736541,0.914574956099786
0.904211718080978,0.904296920526623,0.904027468295289,0.903493154362334,0.903001256838591,0.899791856824155,0.898538229407833,0.897862584231558,0.897202489513016,0.896284504247784,0.892000586435418,0.891197161978572,0.883925988606923,0.883097721512333,0.882080093077917,0.881591269599575,0.881860911063604,0.890620836803927,0.890995379204466,0.891889387832491,0.893363388969541,0.903944212369128,0.903613113405084,0.903376763773961,0.903677027238805,0.895091619949265,0.894865143515215,0.89571979360194,0.896210795852488,0.895950207139709,0.894740840204698,0.892961673831717,0.891438450504828,0.890377711670059,0.88899336557298,0.8890836640925,0.888391628832879,0.88905444195922,0.88916286762674,0.890052740276964,0.891454391208016,0.892327295209834,0.891881894519911,0.890607504712024,0.889727483317364,0.888643934036094,0.888393214686345,0.887520671916368,0.886582305134947,0.885943138799471,0.885019139027494,0.877970371971147,0.878485904945601,0.878728122604428,0.878482002037054,0.882138618048609,0.889549249364752,0.891040970323595,0.89278481873327,0.895578143844379,0.898255172305661,0.899163177278168,0.89876246419445,0.89780946155435,0.89657975161218,0.896893673790497,0.897670827343597,0.900182061267983,0.901581316479982,0.901374363732298,0.899039023625327,0.898763076291004,0.899504769076909,0.901190874994068,0.902738720901704,0.903502070456881,0.903754028759026,0.893586150626646,0.894399703702849,0.889740778173039,0.890016024737137,0.891545952658752,0.893132941154231,0.89448207610006,0.896146423724666,0.906321341108399,0.914934468701284,0.917336766411967,0.917647866488142,0.924455096937516,0.924318329141025,0.923688803482829,0.923257949105319,0.923304220044231,0.921976997698793,0.921259366354096,0.921630101651626,0.92157507613125,0.913612922921932,0.905454068012279,0.898786701356895,0.891143077373098,0.889658851075906,0.887926053034677,0.886799030956461,0.886282037726894,0.88689317612782,0.887424691837626,0.891481338567692,0.894028896406204,0.896998803760352,0.89723501084398,0.897688984924242,0.8975039374938,0.897070475474389,0.895438841847367,0.894437627754644,0.893271723096485,0.893732710697083,0.893883927515931,0.893543650345843,0.891031262969295,0.89022337500433,0.889616332473709,0.889410120776548,0.889074480760255,0.887789484473072,0.888295610856934,0.888476669427016,0.889010612722464,0.895421835128159,0.902977508757416,0.902314694352843,0.900333781554984,0.900663458735963,0.898849174071836,0.897363098197325,0.898547332750926,0.90068760859379,0.902472516960607,0.903727049620877,0.904854850250439,0.905092653207276,0.904580761921647,0.905192575978673,0.905862400942772,0.907950193597946,0.91020815822985,0.909454929661478,0.906578101257107,0.90573246455265,0.905806852130982,0.90563646015843,0.906146903330411,0.906041986935775,0.905538650424251,0.903650019138054,0.902707491635277,0.902956406613046,0.902207013959087,0.902286629987558,0.901849576197451,0.90153484518314,0.901973236246258,0.903537489282669,0.905334818597741,0.90806544058823,0.915796438514789
0.904726084937562,0.904560686320114,0.904110161749716,0.904670886146005,0.90378146654928,0.89735613895538,0.897361675809838,0.895936720798526,0.895816267720078,0.894950726020029,0.893445572833024,0.888794876526247,0.883973495904427,0.882535949043968,0.883579065329422,0.881147877974621,0.880576612938868,0.886659846622754,0.890511539920461,0.894012678481488,0.894138622800234,0.903374514870447,0.903683136190779,0.903821057960642,0.903635920792348,0.897177312628123,0.8944963318932,0.896663736866003,0.896637943225542,0.896839385679651,0.894985278910923,0.894413700944511,0.891488878557707,0.890661802532194,0.890110641563864,0.888213443791875,0.889806696955859,0.888844751410884,0.889367626863845,0.891257870372532,0.892412700276091,0.89470070823525,0.892570734174308,0.892327584750289,0.891160893465241,0.890898186766517,0.88887830117242,0.888509181929154,0.887244193331282,0.886583824443548,0.883341162582323,0.878526808980056,0.879243967683603,0.879949357126623,0.879235785740774,0.883157206521863,0.890768490417433,0.897408001366357,0.898222329697415,0.897528404016646,0.89873964007858,0.899183413983928,0.898198680050988,0.897139041664584,0.896129155797132,0.895982354790025,0.897383091743186,0.902578960133064,0.902416272369153,0.901364367466079,0.89934066285202,0.898669618029048,0.899780377869652,0.902543154134272,0.903901671857229,0.903386538726812,0.902694865942205,0.895502730493665,0.895751015125249,0.89008326292952,0.889688798717774,0.889307153492279,0.894104706479635,0.894608272961621,0.895730059076449,1.22107258746104,1.00188806594921,0.922611071536976,0.923481002918923,0.922538414512835,0.922343018871307,0.923163560717592,0.920664521175046,0.921603453060265,0.91952845437743,0.917955310865158,0.922674931909311,0.922285037739447,0.910579264232063,0.90671792619215,0.898234552582521,0.891464671738666,0.889304851312895,0.889713367467892,0.886058046411869,0.884123707583172,0.886460105181854,0.885747336703589,0.886243655021029,0.88590480829713,0.897168974360491,0.897461547934886,0.897484157976251,0.897340614176535,0.898023146172304,0.893170921685048,0.893076306117541,0.892898613751645,0.894773039189481,0.893841490352577,0.897782991154235,0.89118204651242,0.891432298240834,0.889942015259588,0.8908145330873,0.890148743143399,0.889243105530969,0.887749457699777,0.889019223953056,0.889729315396983,0.890592876329607,0.902164304754753,0.902808255053068,0.89847823964744,0.895831040081754,0.895068851237502,0.895490599629644,0.898067097269879,0.900517484322031,0.902010601237637,0.901160970189956,0.904206451395317,0.904873452615038,0.904124116494445,0.906218162507325,0.917258215187578,0.917421838818918,0.914746842968199,0.907190810694697,0.905695150313006,0.905473803847826,0.905728468643145,0.906403275165824,0.905984013330988,0.905157047002747,0.906759562041571,0.901797360367293,0.903371411976003,0.903056736787857,0.902663447270791,0.902184050252759,0.90254083411978,0.902705913763299,0.902648952119098,0.903336955967549,1.04418021007145,0.913972288358978,0.913945591706386
0.905328767595929,0.905768272075673,0.905002045957163,0.90635920828752,0.8961802890815,0.896175570494206,0.895911254956641,0.894850182835719,0.895247741446701,0.893976971018223,0.893671202600726,0.890885473481063,0.891298784817205,0.89131232131389,0.888637893299571,0.886353166042911,0.885308587100908,0.884175763270094,0.885584786577024,0.884749109259372,0.887158364117475,0.903467298874247,0.904370911342295,0.904737496234308,0.903875714987854,0.903189361127639,0.89606745242781,0.897716191447691,0.897708221532654,0.896752242561394,0.896163854974358,0.895620914060778,0.891101918181415,0.891560036983544,0.890042837295917,0.89054115912266,0.890923409638386,0.89645580101207,0.896717448453191,0.896818947485127,0.896848582326827,0.89652360799859,0.895193567833488,0.89401570583117,0.893864475944814,0.888916724527634,0.889854463515368,0.888239258361608,0.888043544325953,0.887894717993575,0.883788349899391,0.879273658167772,0.879282256431661,0.882351826902955,0.884790355669749,0.892361266942585,0.89184751766903,0.902158090436707,0.900253050525631,0.898823795196289,0.89830903408213,0.897525094550456,0.899252460991054,0.896838796539129,0.894621049426892,0.896161752733041,0.895901708324683,0.89753327178546,0.903358678580434,0.90429808346729,0.903898234670564,0.90358949764104,0.903806069328075,0.904340940441314,0.906339296335386,0.901750126874891,0.90136786145795,0.896331581941431,0.89629512053186,0.88967236526274,0.890089478021211,0.891218852588235,0.892670763953994,0.925926797307607,1.04718336709374,0.925656906646405,0.925107795888911,0.926466921916997,0.928067695329618,0.925890116721413,0.924076851394226,0.921342429156287,0.921469339880806,0.921408565957864,0.919407587619815,0.919662402350768,0.920507878984773,0.90671464733966,0.907285651270277,0.90717460659018,0.907945338793207,0.892642633189411,0.893193547091808,0.892082980182065,0.886681190580726,0.885969098595411,0.88622229242266,0.887933031070406,0.887223034664493,0.886395812471575,0.893903059395475,0.895990442561037,0.896700717418139,0.896212362988726,0.895647351271806,0.895336077882147,0.89275016502645,0.894612643347194,0.896312759537445,0.898702028262482,0.897727427258792,0.890956541991,0.886306491604115,0.888742884864815,0.8903920424998,0.892235124384843,0.893556174696956,0.892466108627362,0.89072480740657,0.890387556707239,0.891843389858689,0.893093956332813,0.892693972204707,0.892680982581244,0.89445724445471,0.895400691832029,0.895737941628203,0.904327252131466,0.901455947611283,0.900878810134044,0.901289116659551,0.901841407325085,0.912446003984291,0.914002595849089,0.916428314629939,0.916933900235643,0.918523383981429,0.908383547050366,0.906234233969354,0.905475985830655,0.906139875342901,0.906392970639792,0.905439264561225,0.905921609125427,0.906106906653818,0.906748854288778,0.907905505674413,0.904973097664086,0.904778304275528,0.903721193194096,0.90666325059462,0.907007430126558,0.908929597504438,0.912169211139723,0.914165488914159,0.91371786599426,0.914519695277877,0.916713862436481
0.910125508215157,0.909343833743918,0.909034961425339,0.907975918910849,0.896574546651326,0.895882907434936,0.896503253215214,0.895209106377605,0.895488608148304,0.895745840489407,0.895936635799822,0.890949242190714,0.89024459305223,0.891488308169368,0.890310311289669,0.890219499559458,0.889113260393647,0.889424955147715,0.888776822758612,0.889910241201641,0.888889516005469,1.00248500248674,0.905618700015875,0.906053465126062,0.904962395827022,0.900601715056227,0.897723512960324,0.899420643558073,0.898711846788131,0.898901766052332,0.896301220087821,0.894643531185122,0.892748589109818,0.892209346052506,0.892858605472806,0.893328566369082,0.89477611649167,0.89396189859117,0.895741160179338,0.896515038210981,0.89868523028245,0.898457669174799,0.900809969899215,0.894087126436098,0.896100846340978,0.889640117725305,0.888046202767643,0.888929611047429,0.888156222271675,0.888415274983846,0.884906513119594,0.879026424182406,0.881058231097362,0.886026613773876,0.89046080224283,0.893337043435206,0.901334575899717,0.902571300693314,0.900685029282649,0.899989204363711,0.895275331448302,0.895455245755487,0.894449493222416,0.895556812574366,0.894390714734767,0.89508482785474,0.897515086965783,0.89752270759919,0.903884956653101,0.903441942416094,0.906150451106711,0.905785379554132,0.907123623443469,0.905881783358582,0.905868501101206,0.905746196204397,0.900079243041526,0.899209552747628,0.898503882571712,0.897627238770257,0.895503734055693,0.894851631141136,1.03360946471163,0.938308144659993,0.940363514162135,0.924542333031919,0.933482131520582,0.928432041917468,0.928347260869606,0.92804177340158,0.92283392341386,0.924115559569796,0.924685211364201,0.923721930298116,0.923987901727415,0.924028359836345,0.939185634184817,0.905460503797432,0.907728576159953,0.907675722863465,0.909096241141399,0.896313602622743,0.89542721172108,0.893421819259912,0.893995792210865,0.885719131350607,0.888126799171516,0.887775818472104,0.888431697851424,0.88832680566814,0.887836359002454,0.891434257822678,0.891675713585984,0.89378904012432,0.897379922346745,0.895496059621438,0.898072229079309,0.899214986308457,0.898108441342054,0.898190391835492,0.898605800515221,0.896743399259103,0.887184487302962,0.886323410386096,0.884971032209924,0.892451000261976,0.893799596003394,0.891661367710742,0.891014041911191,0.890106498444316,0.89193810755823,0.893382466767144,0.892158951891715,0.893137969012404,0.894036860694148,0.895876676526884,0.896802080355362,0.897159926290137,0.899887203043113,0.898349326666933,0.902995147676051,0.907699356703989,0.917362915647559,0.913424648146378,0.914709566711247,0.908074115295248,0.902589453156099,0.90327779335021,0.904642198086037,0.904192323436098,0.906420256233339,0.904898734983777,0.906248627452818,0.906328695548032,0.905873160580499,0.907553233332143,0.906527825494027,0.906342039700732,0.905174829350416,0.905602946813512,0.906028671919913,0.911622338263228,0.913188041605496,0.914462906308961,0.914747582325373,0.9151248219074,0.916744370795953,1.06375124253171
0.910022900769177,0.910800451040091,0.91290407788445,0.917135917056239,1.0065534996117,0.899942086414637,0.897912706268905,0.895720705497424,0.89636663105216,0.896306156957518,0.896566645946286,0.895332395964261,0.894866879354781,0.892510386955419,0.890916088546651,0.890829379884433,0.889676652129356,0.890470488281337,0.890036199310386,0.890562982366457,0.891153129495523,0.892486980721642,0.897026268810755,0.896053495709928,0.898036206861619,0.897410691117703,0.89843215228873,0.899857091252915,0.899515474622525,0.898501615311104,0.897798391439598,0.892649556213893,0.892187985326432,0.892506348459779,0.892693071399091,0.893961636421825,0.893196856475968,0.894099014597801,0.894648518078111,0.895041880262353,0.894891292942443,0.895541956665499,0.894283448978805,0.89427368244909,0.889389383075277,0.889252648463674,0.886223909537561,0.886833240625469,0.88783453674902,0.887002988501467,0.887521305771153,0.883233372703816,0.884762549781398,0.88848507763467,0.891940565062781,0.898391583646605,0.901232524055497,0.901415792738298,0.901335086861535,0.900903472369795,0.894617215982672,0.894186479895866,0.894411208305149,0.896644716263556,0.898743919141409,0.899926417437765,0.900377009404382,0.902732728419072,0.90361407135301,0.904649134428751,0.908333294012541,0.910484547033214,0.906794655510063,0.906911322120744,0.906584941792272,0.906234466471573,0.906694067163269,0.90242692248248,0.902911023326448,0.90243774123577,0.902779205345019,1.18872665769798,0.94078536331633,0.936515089226128,0.92894549491037,0.935844608623525,0.966424843420182,0.928760634305744,0.929089003294921,0.928443244227831,0.924749632189274,0.92402294397691,0.925320031878706,0.923688065215218,0.922657493270298,0.921975020669994,0.915541343492577,0.9098756843708,0.908755618978002,0.907711440382119,0.909193171061533,0.906508457097545,0.893465888256626,0.893092591089212,0.893234344034375,0.892247153805029,0.889151259522715,0.890084401726402,0.889133523278286,0.889645840604268,0.888514595135546,0.889907389822028,0.891030123209321,0.892538170210815,0.890616970130902,0.898671148647215,0.89894796325684,0.89939467203363,0.898575839862295,0.898851876474905,0.897527123879906,0.894466565207895,0.894225910493238,0.893554072803559,0.891502489611315,0.891863321567601,0.891709405657413,0.894864569741684,0.890987698191751,0.886883742609419,0.885511249125869,0.891308891670977,0.892713638134013,0.893757082038584,0.895280438855008,0.896295673579711,0.894737023039073,0.896780498193361,0.901959264437674,0.902812701681665,0.910270027526474,0.913209067728691,0.918785151669329,0.909808058589867,0.908684803628159,0.904932314332931,0.904114853684132,0.902981170258516,0.904111939504416,0.903975693547987,0.90425576040236,0.905263581376719,0.906306977615198,0.907029854395908,0.907561363323078,0.908859840698725,0.907474356813453,0.905940632033639,0.905960745144905,0.905192145943983,0.907293728738501,0.911878576753621,0.914222231321182,0.915771762878039,0.916334635065726,0.920597147266539,1.08594888939068,0.973866628488005
