0.990847, 0.993924, 0.992862, 0.991666, 0.993166, 0.99331, 1.00416, 0.997973, 1.04659, 0.964809, 0.96474, 0.971326, 0.985302, 0.964102, 0.957115, 0.959454, 0.98963, 0.991171, 0.989148, 0.988107, 0.976225, 0.980253, 0.980907, 0.977366, 0.976763, 0.977691, 0.977384, 0.976598, 0.970266, 0.96971, 0.9605, 0.955633, 0.953061, 0.94587, 0.939698, 0.93838, 0.932867, 0.930505, 0.927992, 0.924401, 0.923573, 0.921945, 0.913725, 0.911159, 1.00116, 0.931752, 0.930395, 0.9068, 0.905852, 0.903321, 0.898983, 0.892965, 0.897366, 0.896145, 0.884666, 0.888609, 0.88112, 0.876813, 0.855842, 0.811479, 0.838895, 0.824733, 0.819526, 0.8207, 0.841476, 0.86136, 0.873277, 0.935401, 0.917105, 0.920512, 1.01529, 1.06662, 1.07513, 1.08865, 1.09294, 1.07345, 1.09983, 1.13192, 1.16806, 1.0584, 1.08089, 1.06992, 1.10519, 1.10913, 1.08713, 1.03616, 1.01937, 1.01937, 1.37259, 1.09417, 1.09716, 0.968183, 0.972713, 0.951367, 0.943392, 0.897047, 0.894712, 0.864814, 0.860216, 0.895572, 0.885313, 0.908448, 0.950889, 0.950095, 0.959711, 0.963208, 0.967926, 0.969593, 0.969532, 0.974784, 0.975307, 0.965276, 0.962796, 0.962195, 0.962018, 0.967493, 0.966188, 0.967677, 0.966467, 0.95313, 0.944638, 0.942907, 0.940765, 0.942682, 0.938684, 0.944636, 0.940322, 0.939864, 0.939383, 0.93037, 0.933083, 0.946746, 0.965829, 0.971706, 0.987381, 0.988086, 0.995502, 0.99979, 1.00892, 1.02596, 1.00925, 1.01018, 1.05116, 1.13873, 1.23068, 1.23908, 1.11333, 1.11139, 1.28261, 1.12617
0.990854, 0.994175, 0.991193, 0.990312, 0.99424, 0.98939, 0.997199, 0.998349, 1.08191, 0.965257, 0.965393, 0.967443, 0.973916, 0.980462, 0.958676, 0.982446, 0.98909, 0.989722, 0.988464, 0.981281, 0.978418, 0.980722, 0.982744, 0.973238, 0.975586, 0.979865, 0.980155, 0.974321, 0.97091, 0.967524, 0.961322, 0.953821, 0.952568, 0.942753, 0.942216, 0.93564, 0.932314, 0.93223, 0.92556, 0.925026, 0.922119, 0.920242, 0.912804, 0.907722, 0.909951, 0.931516, 1.05965, 0.907593, 0.905871, 0.904174, 0.90128, 0.894899, 0.894625, 0.894881, 0.882354, 0.880588, 0.881347, 0.879896, 0.880369, 0.845323, 0.884128, 0.846562, 0.846261, 0.828156, 0.83297, 0.843518, 0.849456, 0.880515, 0.901313, 0.920146, 0.956611, 1.06223, 1.05297, 1.04231, 1.02833, 1.07825, 1.0779, 1.08695, 1.15442, 1.06021, 1.06055, 1.08531, 1.1095, 1.07511, 1.08481, 1.07943, 1.02338, 1.01469, 1.0452, 1.06449, 1.01849, 0.979756, 0.971188, 0.938365, 0.945438, 0.885484, 0.887834, 0.885074, 0.867446, 0.890186, 0.908649, 0.908654, 0.94888, 0.954057, 0.959481, 0.962249, 0.967594, 0.96743, 0.969337, 0.973269, 0.968874, 0.966266, 0.963596, 0.962552, 0.964376, 0.967797, 0.968346, 0.969836, 0.962156, 0.9483, 0.946118, 0.945942, 0.944699, 0.944167, 0.939354, 0.943307, 0.940124, 0.941065, 0.942472, 0.92945, 0.937121, 1.25979, 0.967255, 0.972963, 0.986731, 0.986794, 0.991215, 1.01215, 1.02412, 1.02499, 1.02627, 1.01573, 1.08507, 1.13062, 1.07502, 1.36573, 1.12573, 1.27869, 1.14798, 1.28213
0.991485, 0.990054, 0.989457, 0.99042, 0.996533, 0.989455, 0.993922, 0.997356, 0.969562, 0.967614, 0.968012, 0.978916, 0.984241, 0.984711, 0.98488, 0.989698, 0.98952, 0.990793, 0.984479, 0.977923, 0.983132, 0.981452, 0.972201, 0.971154, 0.97484, 0.97816, 0.981218, 0.975571, 0.969128, 0.963998, 0.960024, 0.953408, 0.952078, 0.942712, 0.941956, 0.935485, 0.933888, 0.928928, 0.926134, 0.925507, 0.920805, 0.918046, 0.909707, 0.909472, 0.907583, 0.913149, 0.906316, 0.906702, 0.908337, 0.903247, 0.904629, 0.901115, 0.898607, 0.886668, 0.882577, 0.880242, 0.900927, 0.97834, 0.88095, 0.870071, 0.864006, 0.889174, 0.863969, 0.844416, 0.842325, 0.839199, 0.867669, 0.879913, 0.878163, 0.894234, 0.963706, 1.05749, 0.978911, 0.970003, 1.04728, 1.02679, 1.07375, 1.08597, 1.0786, 1.0358, 1.05296, 1.02678, 1.09021, 1.11256, 1.08136, 1.00836, 1.01872, 1.03742, 1.0623, 1.01723, 1.01642, 0.953654, 0.950959, 0.952324, 0.903495, 0.868165, 0.876149, 0.884678, 0.879732, 0.911731, 0.930207, 0.942518, 0.943187, 0.950981, 0.960572, 0.963671, 0.965394, 0.966529, 0.969089, 0.971572, 0.969815, 0.969833, 0.959835, 0.962829, 0.966537, 0.967248, 0.968832, 0.964262, 0.949866, 0.949317, 0.951299, 0.953178, 0.94693, 0.942784, 0.938983, 0.937832, 0.939361, 0.942787, 0.940782, 0.932293, 0.935637, 0.953637, 0.963823, 0.976666, 0.97808, 0.986582, 0.988252, 1.02636, 1.02623, 1.02471, 1.02443, 1.02163, 1.06894, 1.14952, 1.24567, 1.22915, 1.28518, 1.13575, 1.1466, 1.14363
0.98828, 0.987781, 0.989644, 0.990639, 0.996299, 0.990137, 0.997594, 0.99814, 0.976835, 0.970651, 0.986697, 0.983898, 0.986345, 0.988877, 0.990407, 0.989378, 0.984484, 0.984994, 0.97943, 0.977912, 0.982086, 0.972288, 0.971709, 0.971138, 0.973966, 0.974433, 0.977354, 0.975224, 0.967074, 0.963834, 0.956543, 0.955031, 0.947009, 0.943989, 0.937877, 0.934176, 0.935468, 0.927479, 0.926281, 0.924788, 0.918073, 0.916335, 0.90999, 0.908421, 0.90571, 0.906027, 0.906272, 0.906444, 0.904475, 0.902978, 0.902988, 0.901867, 0.900827, 0.90071, 0.882322, 0.902146, 0.9008, 0.899328, 0.895175, 0.885753, 0.86658, 0.861559, 0.861692, 0.857777, 0.860546, 0.83888, 0.833798, 0.84969, 0.887224, 0.88153, 0.926546, 0.952271, 0.952204, 0.942439, 0.960952, 0.972252, 1.05484, 1.06006, 1.05871, 1.01878, 1.01542, 1.05483, 1.07414, 1.04782, 1.0671, 0.999464, 0.98082, 0.991235, 1.02539, 1.00218, 0.93146, 0.923467, 0.937948, 0.918316, 0.880116, 0.867835, 0.876505, 0.897838, 0.888977, 0.931375, 0.917821, 0.942066, 0.943064, 0.95567, 0.96227, 0.964368, 0.96325, 0.96721, 0.973141, 0.973258, 0.969162, 0.961009, 0.960841, 0.962435, 0.964287, 0.968172, 0.972026, 1.39863, 0.950928, 0.95284, 0.955264, 0.955842, 0.953594, 0.945273, 0.942642, 0.940394, 0.946379, 0.953341, 0.946946, 0.946656, 0.951249, 0.958217, 0.969671, 0.976949, 0.977338, 0.978838, 0.98567, 1.02711, 1.02688, 1.02415, 1.02568, 1.16811, 1.05686, 1.26113, 1.18497, 1.19194, 1.13258, 1.13725, 1.14289, 1.15131
0.989504, 0.988088, 0.988826, 0.989214, 0.992971, 1.00019, 0.99831, 0.998309, 0.975834, 0.974121, 0.986586, 0.981974, 0.983928, 0.993754, 0.991031, 0.985774, 0.983829, 0.980355, 0.978682, 0.977866, 0.970848, 0.972147, 0.971242, 0.969664, 0.970003, 0.982364, 0.97726, 0.974348, 0.966201, 0.960296, 0.955289, 0.948307, 0.945975, 0.942223, 0.936251, 0.935538, 0.934883, 0.928228, 0.92771, 0.925337, 0.915658, 0.915392, 0.917235, 0.908875, 0.904334, 0.904851, 0.904262, 0.90504, 0.902649, 0.90283, 0.903395, 0.904055, 0.903755, 0.895934, 0.901197, 0.904907, 0.903576, 0.907876, 0.90291, 0.900801, 0.879934, 0.898367, 0.890859, 0.857328, 0.856586, 0.839194, 0.832874, 0.861238, 0.851115, 0.911182, 0.906353, 0.922083, 0.919101, 0.933898, 0.936927, 0.949213, 0.957124, 0.995472, 0.999755, 0.985447, 1.12525, 0.99771, 1.02234, 1.0985, 0.995701, 0.988889, 0.977039, 0.966972, 0.974473, 0.977591, 0.912577, 0.884736, 0.91584, 0.908542, 0.891335, 0.889086, 0.883114, 0.873114, 0.915218, 0.936738, 0.937635, 0.940148, 0.949567, 0.953443, 0.960135, 0.962207, 0.963498, 0.968483, 0.970354, 0.965102, 0.960369, 0.959962, 0.960094, 0.95981, 0.965886, 0.970168, 0.971862, 0.950585, 0.953236, 0.954412, 0.951203, 0.955702, 0.953057, 0.944279, 0.943193, 0.944437, 0.946685, 0.95645, 0.957536, 0.960526, 0.946093, 0.957976, 0.973948, 0.978296, 0.979581, 0.975662, 1.01097, 1.02805, 1.02834, 1.02323, 1.02706, 1.05467, 1.0667, 1.15376, 1.10098, 1.29017, 1.12593, 1.14095, 1.15043, 1.15532
0.985753, 0.987796, 0.989888, 0.993658, 0.992114, 1.00013, 0.999323, 0.999286, 0.97458, 0.983261, 0.978998, 0.977398, 0.98878, 0.999827, 0.991174, 0.984724, 0.978969, 0.979804, 0.980888, 0.978322, 0.970833, 0.971603, 0.970245, 0.9683, 0.967653, 0.97738, 0.973941, 0.972499, 0.966852, 0.959307, 0.96, 0.944743, 0.942712, 0.940785, 0.935393, 0.93546, 0.929259, 0.92846, 0.929119, 0.925464, 0.915556, 0.916498, 0.919719, 0.912073, 0.907689, 0.907909, 0.903866, 0.905379, 0.903812, 0.901065, 0.90202, 0.906112, 0.911175, 0.905665, 0.904535, 0.907905, 0.911891, 0.91163, 0.906243, 0.901986, 0.905314, 0.901503, 0.923002, 0.87009, 0.859584, 0.853677, 0.855897, 0.854263, 0.866596, 0.876346, 0.906295, 0.906623, 0.908107, 0.88705, 0.886831, 0.916053, 0.922551, 0.980125, 1.01228, 0.954936, 0.930127, 0.983922, 1.00825, 1.06621, 0.981006, 0.959161, 0.979487, 0.970442, 0.968562, 0.90567, 0.904717, 0.89483, 0.915416, 0.905119, 0.884372, 0.868838, 0.89782, 0.898054, 0.930918, 0.956221, 0.961215, 0.949816, 0.953051, 0.952677, 0.962268, 0.962937, 0.965216, 0.968672, 0.970231, 0.962485, 0.959564, 0.962277, 0.961421, 0.959956, 0.96457, 0.969426, 0.965036, 0.951626, 0.956316, 0.948266, 0.950505, 0.952935, 0.953463, 0.945817, 0.947015, 0.952136, 0.946861, 0.953731, 0.958771, 0.959866, 0.953743, 0.977392, 0.981101, 0.980554, 0.977963, 0.976069, 1.10122, 1.03141, 1.02236, 1.02473, 1.08981, 1.05725, 1.0609, 1.16298, 1.20374, 1.12457, 1.12618, 1.22865, 1.22501, 1.15742
0.984511, 0.984841, 0.989795, 0.991496, 0.99097, 0.998165, 0.999947, 1.00727, 0.975018, 0.953166, 0.976567, 0.974924, 0.975599, 0.992827, 0.991525, 0.976675, 0.975462, 0.979281, 0.981662, 0.972006, 0.972161, 0.971001, 0.97343, 0.98661, 0.975181, 0.973272, 0.973009, 0.9729, 0.970015, 0.959049, 0.949993, 0.943661, 0.942455, 0.936303, 0.934416, 0.929758, 0.92823, 0.929029, 0.927663, 0.924988, 0.915426, 0.91666, 0.920026, 0.917473, 0.909057, 0.905301, 0.90455, 0.902456, 0.903735, 0.901922, 0.902846, 0.919557, 0.920742, 0.906298, 0.906066, 0.909531, 0.914469, 0.913885, 0.905609, 0.915031, 0.918744, 0.908486, 0.94837, 0.867719, 0.860277, 0.85947, 0.88721, 0.870739, 0.866845, 0.871504, 0.889352, 0.876898, 0.877281, 0.899603, 0.900212, 0.884267, 0.897378, 0.93212, 0.939263, 0.911341, 0.936752, 0.941833, 0.986864, 0.979393, 0.965025, 0.953832, 0.996568, 0.956556, 0.941549, 0.899, 0.902204, 0.883324, 0.886255, 0.890488, 0.912845, 0.897409, 0.894552, 0.896051, 0.932708, 0.960373, 0.962063, 0.956295, 0.956106, 0.957017, 0.964419, 0.965701, 0.964738, 0.970127, 0.962628, 0.960389, 0.959813, 0.958652, 0.959438, 0.961069, 0.965279, 0.966417, 0.950029, 0.953474, 0.956486, 0.948229, 0.949203, 0.949384, 0.949025, 0.94726, 0.949643, 0.953156, 0.947938, 0.951353, 0.958397, 0.95943, 0.967513, 0.978175, 0.981173, 0.983738, 0.981234, 0.980364, 1.02604, 1.03094, 1.0252, 1.02741, 1.1718, 1.06706, 1.16114, 1.18106, 1.20697, 1.12535, 1.12564, 1.15779, 1.15835, 1.16693
0.984722, 0.984746, 0.9884, 0.989181, 0.988314, 0.996659, 0.997255, 0.988463, 0.982008, 0.958153, 0.961418, 0.977587, 1.00189, 0.992092, 0.993824, 0.97551, 0.998323, 0.980647, 0.972297, 0.973295, 0.972229, 0.972941, 0.989606, 0.986954, 0.97749, 0.972705, 0.973015, 0.972581, 0.966822, 0.960769, 0.952244, 0.945537, 0.93992, 0.934787, 0.933947, 0.928678, 0.928238, 0.92695, 0.927269, 0.923291, 0.914847, 0.915146, 0.919318, 0.920182, 0.909746, 0.908371, 0.906326, 0.901582, 0.903014, 0.903459, 0.902478, 0.922205, 0.921532, 0.906404, 0.908322, 0.911591, 0.914685, 0.913857, 0.911661, 0.918188, 0.918631, 0.909386, 0.908699, 0.867288, 0.86875, 0.887358, 0.89107, 0.893657, 0.8777, 0.861046, 0.892883, 0.891092, 0.880682, 0.870484, 0.870956, 0.877318, 0.900201, 0.907563, 0.924909, 0.92662, 0.915737, 0.943003, 0.943364, 0.960223, 0.964363, 0.941187, 0.929135, 0.92157, 0.919714, 0.897927, 0.90205, 0.901976, 0.894024, 0.904212, 0.905229, 0.891464, 0.892931, 0.948398, 0.948878, 0.963541, 0.964076, 0.962822, 0.957135, 0.958191, 0.965026, 0.967905, 0.969137, 0.962061, 0.960847, 0.962071, 0.960261, 0.957766, 0.956826, 0.963399, 0.962891, 0.961851, 0.959878, 0.958282, 0.955932, 0.949739, 0.94879, 0.946727, 0.951048, 0.948885, 0.950517, 0.959819, 0.955275, 0.955291, 0.959638, 0.965682, 0.979708, 0.978426, 0.984965, 0.986259, 0.986836, 0.983565, 1.02922, 1.02944, 1.02981, 1.03928, 1.14697, 1.07152, 1.16416, 1.21233, 1.17383, 1.17677, 1.19888, 1.15973, 1.15563, 1.16769
0.984218, 0.984514, 0.987998, 0.990453, 0.989279, 0.992767, 0.995251, 1.00488, 0.979706, 0.964317, 0.965812, 0.974809, 1.00796, 0.998511, 0.98076, 0.974274, 0.977026, 0.972315, 0.972558, 0.972057, 0.973362, 0.977016, 0.987995, 0.985722, 0.988592, 0.980012, 0.973508, 0.971195, 0.96687, 0.958454, 0.951827, 0.946753, 0.936951, 0.935265, 0.932927, 0.925223, 0.928827, 0.923307, 0.924659, 0.922739, 0.917709, 0.910253, 0.909805, 0.921141, 0.912225, 0.910209, 0.907804, 0.906466, 0.901736, 0.902288, 0.904312, 0.922245, 0.905962, 0.906142, 0.908074, 0.918294, 0.916891, 0.918577, 0.916082, 0.923337, 0.921268, 0.912288, 0.911494, 0.881898, 0.889162, 0.890663, 0.903095, 0.879117, 0.880731, 0.896685, 0.888656, 0.898353, 0.867749, 0.865311, 0.860349, 0.873777, 0.889422, 0.90821, 0.896605, 0.899057, 0.908399, 0.917097, 0.926838, 0.943868, 0.921577, 0.926151, 0.927802, 0.928215, 0.922939, 0.912298, 0.905779, 0.895414, 0.936559, 0.918971, 0.92205, 0.938994, 0.932897, 0.956071, 0.966602, 0.96432, 0.967854, 0.9684, 0.963829, 0.961026, 0.962499, 0.970023, 0.966984, 0.960606, 0.961274, 0.960098, 0.955736, 0.959011, 0.960639, 0.963335, 0.962808, 0.962496, 0.954953, 0.957619, 0.954077, 0.950155, 0.949586, 0.949703, 0.947706, 0.95005, 0.953195, 0.967056, 0.964298, 0.962773, 0.959904, 0.979815, 0.977638, 0.983433, 0.989135, 0.99139, 1.033, 1.12901, 1.06026, 1.04118, 1.04393, 1.03819, 1.14349, 1.16761, 1.14905, 1.30498, 1.17236, 1.24195, 1.16325, 1.16221, 1.16362, 1.16371
0.989942, 0.988485, 0.989406, 0.994235, 0.989475, 0.995464, 0.993167, 0.981087, 0.978044, 0.991176, 1.0013, 1.00092, 1.00967, 1.005, 0.997598, 1.00496, 0.972311, 0.970888, 0.970498, 0.972315, 0.973139, 0.972654, 0.989735, 0.984791, 0.978091, 0.974286, 0.972308, 0.969743, 0.969512, 0.960002, 0.955523, 0.942052, 0.935638, 0.933422, 0.922852, 0.91989, 0.925411, 0.923266, 0.924703, 0.924764, 0.925634, 0.911294, 0.911409, 0.916348, 0.911215, 0.911681, 0.908254, 0.908588, 0.905348, 0.902379, 0.919883, 0.921557, 0.905578, 0.904484, 0.907637, 0.918502, 0.921168, 0.920751, 0.923662, 0.924209, 0.922994, 0.918074, 0.913754, 0.913945, 0.936697, 0.907625, 0.902337, 0.877205, 0.897435, 0.897052, 0.874393, 0.872756, 0.896131, 0.876105, 0.862652, 0.877327, 0.886583, 0.894001, 0.89197, 0.896388, 0.908737, 0.902036, 0.913013, 0.973856, 0.926882, 0.929031, 0.922317, 0.926206, 0.919975, 0.91787, 0.915896, 0.898288, 0.923491, 0.942459, 0.948796, 0.961437, 0.96143, 0.965049, 0.96613, 0.967151, 0.972985, 0.970922, 0.969992, 0.961059, 0.962466, 0.966572, 0.966523, 0.963883, 0.957233, 0.954708, 0.956293, 0.959812, 0.963881, 0.96309, 0.969077, 0.967929, 0.95995, 0.956083, 0.954977, 0.953767, 0.949434, 0.95325, 0.95323, 0.949159, 0.960941, 0.96705, 0.96488, 0.964343, 0.960514, 0.983235, 0.983761, 0.990257, 0.991893, 0.994731, 1.00141, 1.12978, 1.03639, 1.04498, 1.05244, 1.03984, 1.05657, 1.09383, 1.10082, 1.11627, 1.14045, 1.15477, 1.14276, 1.15971, 1.1567, 1.16116
0.992177, 0.994201, 0.990926, 0.994484, 0.990425, 1.00062, 0.98814, 0.979024, 0.984175, 1.00473, 1.00129, 1.00275, 0.998342, 0.988217, 0.983843, 1.00573, 0.963057, 0.963012, 0.974049, 0.97323, 0.973312, 0.970664, 0.97868, 0.987029, 0.974939, 0.973884, 0.970414, 0.969023, 0.966514, 0.960864, 0.954827, 0.942669, 0.937031, 0.931926, 0.923695, 0.920345, 0.920802, 0.922596, 0.923225, 0.926953, 0.925715, 0.921488, 0.915461, 0.91454, 0.912965, 0.911629, 0.912933, 0.908846, 0.908183, 0.906167, 0.91958, 0.905623, 0.904373, 0.904031, 0.921202, 0.924758, 0.923435, 0.922983, 0.925137, 0.92873, 0.919197, 0.917872, 0.916607, 0.915574, 0.9184, 0.920537, 0.915269, 0.914457, 0.897605, 0.896885, 0.896482, 0.908118, 0.914452, 0.897741, 0.880528, 0.879237, 0.898945, 0.900258, 0.899458, 0.887296, 0.909243, 0.901211, 0.927437, 0.933233, 0.915424, 0.928641, 0.930889, 0.926859, 0.932221, 0.929381, 0.925563, 0.909459, 0.925471, 0.95105, 0.956077, 0.963085, 0.966503, 0.967072, 0.967542, 0.973789, 0.976636, 0.977601, 0.975455, 0.958944, 0.960145, 0.96625, 0.96666, 0.956566, 0.95597, 0.956002, 0.957463, 0.961769, 0.964135, 0.964056, 0.969637, 0.969745, 0.960459, 0.959074, 0.956472, 0.953878, 0.952581, 0.952498, 0.951467, 0.954229, 0.959946, 0.963273, 0.963641, 0.970123, 0.980173, 0.985913, 0.985733, 0.989122, 0.990661, 0.991376, 1.11948, 1.03342, 1.04038, 1.04561, 1.04883, 1.04617, 1.17822, 1.15364, 1.12979, 1.19186, 1.14307, 1.15401, 1.15335, 1.1591, 1.15637, 1.16066
0.979875, 0.988888, 0.989609, 0.99462, 0.990136, 0.995339, 0.990944, 0.983464, 0.997135, 1.00137, 0.997857, 0.998753, 0.99188, 0.987832, 1.00774, 1.00631, 0.990173, 0.962422, 0.973914, 0.974043, 0.977348, 0.987383, 0.991316, 0.992611, 0.975163, 0.984336, 0.970247, 0.9703, 0.965648, 0.963034, 0.957455, 0.944698, 0.937095, 0.923623, 0.92289, 0.920106, 0.92094, 0.922067, 0.922142, 0.929229, 0.928293, 0.923412, 0.919732, 0.914744, 0.915574, 0.913141, 0.91335, 0.912717, 0.909067, 0.920572, 0.921263, 0.89979, 0.903598, 0.904137, 0.919154, 0.926912, 0.925207, 0.926808, 0.928771, 0.929404, 0.919511, 0.914482, 0.918891, 0.919806, 0.921348, 0.921242, 0.92155, 0.925284, 1.02477, 0.896271, 0.94784, 0.898473, 0.913966, 0.901034, 0.894389, 0.877331, 0.893954, 0.888632, 0.905435, 0.904523, 0.918975, 0.912192, 0.916522, 0.913102, 0.915713, 0.914635, 0.924304, 0.933611, 0.941213, 0.905367, 0.906905, 0.910934, 0.947437, 0.950416, 0.960103, 0.966067, 0.967194, 0.968543, 0.972228, 0.976542, 0.981877, 0.98084, 0.982088, 0.963298, 0.959659, 0.963165, 0.962708, 0.956964, 0.956895, 0.958249, 0.961586, 0.961953, 0.964711, 0.965977, 0.969007, 0.970849, 0.963032, 0.963638, 0.963612, 0.957326, 0.957172, 0.95263, 0.952043, 0.955097, 0.955517, 0.959368, 0.962852, 0.980231, 0.979919, 0.987373, 0.987884, 0.999491, 1.12499, 1.13989, 1.03721, 1.0396, 1.04086, 1.04887, 1.04952, 1.0446, 1.17847, 1.21224, 1.18774, 1.26893, 1.16101, 1.14856, 1.15639, 1.1454, 1.14618, 1.15775
0.982598, 0.985608, 0.981844, 0.986944, 0.990217, 0.992278, 0.988581, 0.984346, 0.99766, 0.984436, 1.00424, 0.998137, 0.9918, 0.988283, 1.01805, 1.01121, 0.988373, 0.966713, 0.97674, 0.977158, 0.977156, 0.97479, 0.988561, 0.987427, 0.973379, 0.972907, 0.97035, 0.969453, 0.967224, 0.964073, 0.956442, 0.949439, 0.932981, 0.922952, 0.92273, 0.922609, 0.920594, 0.921385, 0.922439, 0.927782, 0.928319, 0.924872, 0.921504, 0.918923, 0.915775, 0.915334, 0.914548, 0.912733, 0.909843, 0.915727, 0.921562, 0.901161, 0.902711, 0.914532, 0.92152, 0.922174, 0.924724, 0.928101, 0.931865, 0.932205, 0.925414, 0.913081, 0.919013, 0.923288, 0.924974, 0.92212, 0.926294, 0.928365, 1.02023, 0.998977, 0.897351, 0.948707, 0.928765, 0.927255, 0.888678, 0.884256, 0.88829, 0.889169, 0.902249, 0.908927, 0.912259, 0.918723, 0.897245, 0.915669, 0.910247, 0.91936, 0.929009, 0.942764, 0.937151, 0.917042, 0.925454, 0.925578, 0.959603, 0.962953, 0.967495, 0.968466, 0.971464, 0.973759, 0.975677, 0.982201, 0.983233, 0.984488, 0.985671, 0.964855, 0.963164, 0.963499, 0.962992, 0.957466, 0.957266, 0.960523, 0.961855, 0.966066, 0.966991, 0.973069, 0.978543, 0.963276, 0.964706, 0.970118, 0.967824, 0.961148, 0.961054, 0.952856, 0.950533, 0.95686, 0.955985, 0.959332, 0.974252, 0.978663, 0.978293, 0.97742, 1.13012, 1.00826, 1.11057, 1.20906, 1.04059, 1.04005, 1.04327, 1.1001, 1.04699, 1.04969, 1.13473, 1.19527, 1.21208, 1.15479, 1.20897, 1.18177, 1.15469, 1.14053, 1.14028, 1.13108
0.988834, 0.981088, 0.977573, 0.97839, 1.00058, 0.972768, 0.972233, 0.982977, 0.980744, 0.986168, 0.998848, 1.00373, 0.997543, 0.998423, 1.00979, 1.02481, 0.990329, 0.96755, 0.977985, 0.97679, 0.976551, 0.98789, 0.984422, 0.973404, 0.971811, 0.970501, 0.969718, 0.968738, 0.966477, 0.963678, 0.95332, 0.945401, 0.93547, 0.924937, 0.924753, 0.920749, 0.920112, 0.920465, 0.921765, 0.927882, 0.928203, 0.9252, 0.92533, 0.921986, 0.920248, 0.918296, 0.914029, 0.912357, 0.912526, 0.915536, 0.905096, 0.901446, 0.903974, 0.914665, 0.921644, 0.921248, 0.927504, 0.928604, 0.93237, 0.930742, 0.918078, 0.911557, 0.911108, 0.926069, 0.927581, 0.926803, 0.930902, 0.931849, 0.932873, 0.9332, 1.17564, 0.933774, 1.20184, 1.19656, 0.886358, 0.886948, 0.921589, 0.964145, 0.917761, 0.930902, 0.932176, 0.97774, 0.898919, 0.930543, 0.90806, 0.913799, 0.944757, 0.946185, 0.939374, 0.929346, 0.955768, 0.957654, 0.966526, 0.964501, 0.968235, 0.971304, 0.974555, 0.977022, 0.980314, 0.983349, 0.985275, 0.987056, 0.986824, 0.973283, 0.964594, 0.961097, 0.9602, 0.95989, 0.95985, 0.959719, 0.959963, 0.965735, 0.966516, 0.977877, 0.980093, 0.96371, 0.963922, 0.974147, 0.974651, 0.962827, 0.961372, 0.955928, 0.952867, 0.953863, 0.954332, 0.967536, 0.980364, 0.980403, 0.980148, 1.00197, 1.12409, 1.01562, 1.01831, 1.02116, 1.07657, 1.06743, 1.06789, 1.077, 1.05796, 1.17848, 1.17831, 1.25747, 1.15752, 1.15943, 1.18657, 1.18146, 1.18056, 1.16024, 1.14228, 1.13341
0.970386, 0.985252, 0.967039, 0.976877, 0.976072, 0.974488, 0.981778, 0.982603, 0.982558, 0.986682, 0.992126, 0.983621, 0.985831, 0.986243, 1.04014, 1.02733, 1.00878, 0.977003, 0.979791, 0.978939, 0.975623, 0.971768, 0.972313, 0.969575, 0.969812, 0.969185, 0.96972, 0.968997, 0.967704, 0.965097, 0.959911, 0.944658, 0.933502, 0.928313, 0.921465, 0.921351, 0.920294, 0.920487, 0.922176, 0.92235, 0.926256, 0.92602, 0.926707, 0.926424, 0.922543, 0.91782, 0.91623, 0.913655, 0.92996, 0.915113, 0.902898, 0.903851, 0.904658, 0.918684, 0.919102, 0.921131, 0.928179, 0.92866, 0.931115, 0.927753, 0.919402, 0.911601, 0.911031, 0.92598, 0.929423, 0.929794, 0.931184, 0.93628, 0.937791, 0.938339, 1.1622, 0.933916, 1.2036, 0.994846, 0.983719, 0.980233, 0.978779, 0.931922, 0.934375, 0.961428, 0.97627, 0.977, 0.915368, 1.00463, 0.90926, 0.914357, 0.957337, 0.964057, 0.966729, 0.966354, 0.961731, 0.961038, 0.966387, 0.966497, 0.970734, 0.974978, 0.977508, 0.979356, 0.980964, 0.982736, 0.988015, 0.98914, 0.981188, 0.975053, 0.96262, 0.956518, 0.959233, 0.960087, 0.958705, 0.958132, 0.964722, 0.968301, 0.96471, 0.971065, 0.974278, 0.974554, 0.978306, 0.976996, 0.97415, 0.964594, 0.961955, 0.956593, 0.959191, 0.954238, 0.960128, 0.971145, 0.979973, 0.980826, 0.994181, 1.12559, 1.02115, 1.02054, 1.01766, 1.01869, 1.08447, 1.07004, 1.07696, 1.07597, 1.07001, 1.06961, 1.17852, 1.1797, 1.28956, 1.2711, 1.1848, 1.18628, 1.18234, 1.20016, 1.19769, 1.13208
0.971721, 0.964123, 0.959953, 0.959868, 0.976519, 0.975255, 0.985626, 0.985131, 0.98629, 0.990856, 0.996318, 0.984342, 0.988175, 1.03189, 1.00121, 1.02968, 0.981681, 0.984658, 0.981808, 0.979739, 0.976909, 0.979058, 0.979157, 0.969826, 0.964553, 0.966785, 0.967498, 0.969641, 0.968444, 0.965669, 0.953663, 0.943478, 0.93587, 0.92433, 0.919976, 0.921778, 0.920016, 0.923562, 0.922683, 0.924277, 0.925159, 0.925104, 0.92714, 0.92752, 0.926347, 0.918581, 0.915934, 0.933265, 0.932144, 0.905497, 0.904536, 0.904335, 0.912734, 0.917557, 0.916637, 0.916581, 0.927601, 0.928877, 0.926041, 0.925904, 0.922736, 0.9142, 0.912526, 0.927768, 0.929906, 0.93106, 0.93628, 0.936487, 0.941165, 0.942976, 0.945937, 0.94561, 0.950441, 0.962191, 0.990259, 0.987424, 0.967418, 1.32241, 0.999211, 1.29209, 0.979565, 0.985417, 0.982194, 1.01571, 0.97625, 0.974978, 0.969402, 0.970206, 0.968141, 0.969375, 0.963533, 0.965201, 0.967139, 0.971488, 0.973252, 0.979831, 0.981167, 0.980742, 0.981403, 0.986059, 0.990291, 0.981616, 0.981376, 0.974796, 0.958931, 0.956346, 0.958061, 0.959549, 0.957139, 0.961668, 0.964808, 0.972883, 0.972986, 0.971535, 0.97701, 0.977371, 0.978366, 0.975368, 0.975209, 0.968665, 0.96357, 0.961426, 0.963143, 0.959517, 0.964086, 0.965056, 0.980016, 0.982531, 0.990532, 1.11921, 1.02074, 1.02058, 1.02155, 1.01919, 1.24385, 1.07242, 1.07661, 1.07077, 1.07449, 1.0708, 1.20202, 1.28925, 1.20833, 1.17352, 1.18882, 1.18799, 1.18965, 1.20321, 1.20195, 1.13472
0.968286, 0.963568, 0.964349, 0.956832, 0.956024, 0.967298, 0.978337, 0.98036, 0.98969, 0.989031, 1.00643, 0.988603, 0.992024, 0.9908, 1.00109, 0.983613, 0.982925, 0.988216, 0.987609, 0.982075, 0.967942, 0.968187, 0.965652, 0.955158, 0.963305, 0.96791, 0.966579, 0.96977, 0.968094, 0.968938, 0.95207, 0.949552, 0.934757, 0.926696, 0.923792, 0.922388, 0.919547, 0.922977, 0.92358, 0.925795, 0.925086, 0.924819, 0.924697, 0.928353, 0.92404, 0.922065, 0.935769, 0.934378, 0.934826, 0.90788, 0.904187, 0.912407, 0.908332, 0.912958, 0.916601, 0.912856, 0.915244, 0.92311, 0.923183, 0.923472, 0.921346, 0.915609, 0.912736, 0.919932, 0.932106, 0.93211, 0.943192, 0.942501, 0.943525, 0.943997, 0.950495, 0.953036, 0.953799, 1.2393, 0.972223, 1.21124, 0.977379, 1.33511, 1.07792, 1.003, 1.01485, 0.986745, 0.98584, 0.986703, 0.983674, 0.979292, 0.973725, 0.974433, 0.973942, 0.969915, 0.970034, 0.968454, 0.96814, 0.971123, 0.977652, 0.983265, 0.982725, 0.981609, 0.982159, 0.990105, 0.990684, 0.981378, 0.980648, 0.979793, 0.960691, 0.956432, 0.955093, 0.950052, 0.957871, 0.961029, 0.969854, 0.973555, 0.972827, 0.974361, 0.983626, 0.978773, 0.978148, 0.973961, 0.971957, 0.970138, 0.966813, 0.960272, 0.959064, 0.959868, 0.964946, 0.966243, 0.980329, 0.990109, 1.11807, 1.01263, 1.0285, 1.02038, 1.15292, 1.1527, 1.11893, 1.07571, 1.07535, 1.07453, 1.08929, 1.07023, 1.1665, 1.26816, 1.16791, 1.16837, 1.28961, 1.18544, 1.21277, 1.17665, 1.17174, 1.16403
0.967392, 0.967035, 0.957007, 0.96159, 0.957435, 0.962423, 0.977517, 0.981165, 0.992057, 0.990592, 0.993675, 0.990321, 0.980797, 1.00224, 0.983982, 0.989142, 0.984981, 0.988421, 0.994579, 0.994469, 1.00411, 0.963827, 0.941733, 0.96199, 0.970772, 0.980528, 0.963056, 0.96985, 0.970619, 0.973561, 0.971459, 0.944148, 0.933126, 0.928851, 0.92615, 0.921297, 0.921633, 0.922321, 0.926172, 0.928793, 0.925549, 0.924903, 0.924541, 0.927432, 0.926057, 0.925463, 0.936311, 0.93519, 0.913436, 0.909487, 0.907395, 0.91415, 0.914352, 0.913085, 0.911943, 0.914115, 0.913344, 0.922407, 0.924707, 0.92568, 0.923139, 0.918446, 0.916097, 0.929576, 0.933671, 0.935802, 0.945421, 0.946172, 0.945517, 0.946042, 0.952999, 0.954689, 0.955053, 1.18013, 0.981235, 0.983827, 1.33051, 1.02292, 1.27471, 1.29204, 0.996811, 0.995048, 0.986998, 0.988023, 0.990235, 0.983191, 0.977777, 0.977195, 0.975812, 0.974079, 0.972517, 0.970169, 0.972284, 0.977972, 0.983976, 0.987605, 0.985568, 0.982087, 0.983362, 0.988158, 0.987836, 0.981623, 0.981541, 0.973942, 0.959974, 0.956134, 0.954874, 0.947496, 0.956697, 0.963644, 0.975132, 0.976517, 0.972269, 0.97592, 0.985391, 0.981992, 0.97873, 0.975644, 0.975039, 0.975019, 0.981439, 0.962138, 0.958942, 1.05356, 0.982806, 0.983008, 0.984893, 0.994764, 1.02705, 1.02929, 1.03008, 1.03109, 1.14812, 1.06404, 1.07894, 1.0775, 1.07714, 1.07546, 1.08876, 1.07364, 1.07382, 1.27794, 1.16385, 1.16451, 1.17061, 1.17722, 1.17748, 1.17765, 1.1659, 1.17232
0.970741, 0.946655, 0.940685, 0.955823, 0.955521, 0.961561, 0.969662, 0.982837, 0.991087, 0.991354, 0.989565, 0.991266, 0.986163, 0.982183, 0.998745, 1.00008, 0.995812, 0.997375, 0.997462, 0.994575, 0.99376, 0.939392, 0.943637, 0.955115, 0.974167, 0.970615, 0.96352, 0.971977, 0.972566, 0.972921, 0.971371, 0.946437, 0.937099, 0.930212, 0.925324, 0.925281, 0.924858, 0.92303, 0.932823, 0.931807, 0.924886, 0.92141, 0.92434, 0.924401, 0.926298, 0.940669, 0.939584, 0.913786, 0.91472, 0.910326, 0.909257, 0.915504, 0.91409, 0.914344, 0.915649, 0.923758, 0.923302, 0.926334, 0.927553, 0.9257, 0.925002, 0.918057, 0.918428, 0.926741, 0.937027, 1.16051, 0.95016, 0.9498, 0.948296, 0.948996, 1.19826, 0.959452, 1.10562, 1.20334, 1.20648, 0.989166, 1.2938, 0.996842, 0.997981, 0.997926, 1.00154, 1.00175, 0.994932, 0.98921, 0.988761, 0.985185, 0.983347, 0.980376, 0.976656, 0.973816, 0.97489, 0.973916, 0.975586, 0.982901, 0.984781, 0.989489, 0.987719, 0.982854, 0.983733, 0.986564, 0.98772, 0.982508, 0.978398, 0.977606, 0.958342, 0.955157, 0.954465, 0.945589, 0.96558, 0.968214, 0.976846, 0.975292, 0.975229, 0.979057, 0.984097, 0.983669, 0.977667, 0.977944, 0.977305, 0.983163, 0.983892, 0.970096, 1.05437, 0.984439, 0.985241, 0.984126, 0.990408, 0.997211, 1.01864, 1.02699, 1.03121, 1.0661, 1.0626, 1.06294, 1.07878, 1.07859, 1.07831, 1.07939, 1.1044, 1.07195, 1.07407, 1.16114, 1.16134, 1.16507, 1.17095, 1.18059, 1.17856, 1.17571, 1.16452, 1.16718
0.954445, 0.95329, 0.953326, 0.959685, 0.960123, 0.958426, 0.979696, 0.976566, 0.979538, 0.990764, 0.99061, 0.992289, 0.986284, 0.983946, 1.00845, 1.01865, 1.00823, 1.00535, 1.01252, 1.01149, 0.952653, 0.934925, 0.952956, 0.969761, 0.970955, 0.982701, 0.964251, 0.973033, 0.968021, 0.970395, 0.968144, 0.943912, 0.936965, 0.933938, 0.928372, 0.928721, 0.927075, 0.92841, 0.933026, 0.93158, 0.92148, 0.922712, 0.924497, 0.924865, 0.932164, 0.938523, 0.924499, 0.921427, 0.914587, 0.914542, 0.916444, 0.918678, 0.916132, 0.916154, 0.928078, 0.926623, 0.924331, 0.925267, 0.925203, 0.925404, 0.924634, 0.920475, 0.922535, 0.924053, 0.939595, 0.959252, 0.955276, 0.95686, 0.958229, 0.968748, 0.970043, 1.10939, 1.18877, 1.16089, 1.01498, 1.08535, 1.03048, 1.00242, 1.00293, 1.00723, 1.0086, 1.00768, 1.00151, 0.992445, 0.992358, 0.989708, 0.98336, 0.98174, 0.975502, 0.974023, 0.975466, 0.975196, 0.976515, 0.982912, 0.990911, 0.990791, 0.984969, 0.983893, 0.983765, 0.987815, 0.989729, 0.990465, 0.978806, 0.977381, 0.992061, 1.04674, 0.940477, 0.940658, 0.966592, 0.974293, 0.976581, 0.975849, 1.12222, 0.98397, 0.987744, 0.974664, 0.97651, 0.973985, 0.974299, 0.9856, 0.983951, 0.968745, 0.979153, 0.984411, 0.985576, 0.984126, 0.989537, 0.997002, 1.03239, 1.02732, 1.03594, 1.04768, 1.06623, 1.07053, 1.08247, 1.0927, 1.08548, 1.10185, 1.10186, 1.11716, 1.07261, 1.15773, 1.15719, 1.16287, 1.16462, 1.18083, 1.18346, 1.16752, 1.15875, 1.16356
0.975741, 0.935299, 0.946948, 0.969857, 0.957751, 0.961365, 0.967139, 0.977347, 0.989575, 0.992399, 0.997073, 0.990843, 0.987436, 0.98587, 1.01464, 1.01459, 1.00385, 1.00567, 1.01496, 0.954208, 0.933487, 0.93139, 0.963695, 0.976642, 0.985585, 0.980594, 0.964306, 0.968576, 0.966963, 0.96627, 0.961769, 0.945781, 0.942874, 0.935748, 0.931714, 0.930775, 0.928787, 0.93109, 0.932004, 0.919916, 0.922721, 0.92305, 0.923992, 0.929584, 0.948156, 0.945769, 0.92417, 0.922536, 0.922041, 0.924611, 0.923169, 0.928253, 0.927805, 0.928745, 0.929257, 0.928473, 0.923062, 0.925573, 0.91838, 0.918497, 0.918493, 0.92119, 0.923351, 0.93671, 0.944513, 0.961305, 0.959165, 0.96024, 0.964476, 0.976067, 0.976503, 1.19151, 0.990439, 0.98957, 0.998888, 1.01407, 1.00975, 1.01014, 1.01256, 1.01323, 1.01236, 1.01107, 1.00097, 0.997875, 0.994097, 0.99102, 0.985565, 0.979782, 0.97692, 0.976455, 0.973236, 0.980526, 0.979946, 0.98352, 0.988307, 0.987677, 0.987045, 0.984404, 0.983594, 0.992055, 0.997349, 0.995847, 0.990104, 0.980208, 0.9774, 1.16568, 0.941918, 0.939611, 0.969551, 0.96973, 0.973479, 0.981696, 0.990512, 0.987764, 0.988124, 0.966985, 0.966199, 0.973651, 0.974314, 0.984282, 0.973344, 0.973889, 0.98029, 0.985907, 0.985433, 0.987247, 0.986883, 0.996187, 0.998318, 1.0468, 1.0628, 1.05051, 1.06702, 1.07583, 1.07855, 1.09413, 1.08758, 1.12219, 1.10649, 1.10676, 1.0803, 1.15112, 1.15719, 1.16017, 1.18193, 1.18111, 1.17543, 1.1743, 1.25642, 1.22439
0.977379, 0.972743, 0.949831, 0.95689, 0.960483, 0.960403, 0.967307, 0.976811, 0.976774, 0.997797, 0.996735, 0.991012, 0.989664, 0.984556, 1.01625, 0.992416, 0.97062, 1.01114, 0.96623, 0.950315, 0.944331, 0.954656, 0.954876, 0.953765, 0.988, 0.970971, 0.963567, 0.967403, 0.966626, 0.966584, 0.961943, 0.949247, 0.939305, 0.93524, 0.933631, 0.931873, 0.930383, 0.931549, 0.931413, 0.924969, 0.923368, 0.922828, 0.925464, 1.06345, 0.950787, 0.930108, 0.922484, 0.923886, 0.929289, 0.927507, 0.931069, 0.930299, 0.93044, 0.932628, 0.932026, 0.928645, 0.928066, 0.925552, 0.924935, 0.91761, 0.915203, 0.919651, 1.10853, 0.939149, 1.14077, 0.957383, 0.956811, 0.959804, 0.978204, 0.976651, 0.976112, 0.987086, 0.993995, 1.0012, 1.01385, 1.01451, 1.01523, 1.0134, 1.01576, 1.0151, 1.0139, 1.01123, 1.00447, 0.999883, 0.990687, 0.990876, 0.984532, 0.979999, 0.976688, 0.973882, 0.973455, 0.981102, 0.980686, 0.985026, 0.987227, 0.985145, 0.987083, 0.984574, 0.985514, 0.999135, 1.00125, 0.994267, 0.993658, 0.980654, 0.98137, 1.00598, 0.944569, 1.08217, 0.969054, 0.969986, 0.974012, 0.981925, 0.990415, 0.989373, 0.994805, 0.971174, 0.971942, 0.976517, 0.983633, 0.982415, 0.973048, 0.979623, 0.976468, 0.981974, 0.986912, 0.989592, 1.00038, 0.998086, 0.999356, 1.14703, 1.04841, 1.05365, 1.07091, 1.07316, 1.08859, 1.08959, 1.08974, 1.13005, 1.10622, 1.10627, 1.07837, 1.15017, 1.15973, 1.22655, 1.18406, 1.1785, 1.1737, 1.17787, 1.26101, 1.26793
0.946182, 0.946689, 0.944293, 0.947232, 0.960135, 0.960775, 0.973772, 0.976766, 0.976248, 0.995908, 0.992662, 0.990606, 0.991555, 0.983975, 0.990308, 0.985272, 0.966801, 0.991693, 0.951304, 0.951268, 0.95902, 0.958715, 0.964507, 0.980178, 0.950273, 0.964111, 0.964222, 0.966234, 0.966942, 0.966038, 0.962803, 0.956377, 0.942623, 0.933833, 0.934633, 0.932659, 0.93171, 0.931572, 0.928481, 0.925513, 0.923652, 0.92282, 0.923696, 0.952231, 0.952395, 0.931402, 0.928391, 0.931609, 0.93173, 0.934896, 0.935473, 0.935448, 0.941862, 0.934058, 0.932616, 0.933091, 0.928509, 0.928099, 0.92776, 0.915239, 0.915373, 0.915353, 0.964745, 0.943491, 0.954786, 0.956086, 0.956536, 0.959527, 0.980205, 0.978373, 0.977142, 0.989518, 0.995439, 1.00743, 1.01472, 1.01485, 1.01472, 1.02095, 1.01567, 1.01493, 1.01487, 1.00751, 1.00337, 0.999093, 0.990469, 0.990467, 0.984342, 0.979807, 0.978819, 0.972096, 0.981033, 0.98193, 0.980659, 0.984462, 0.983621, 0.986703, 0.986537, 0.982939, 0.985344, 1.00757, 1.00705, 0.99215, 0.981774, 0.980465, 0.980234, 0.9769, 1.20897, 1.17611, 0.974487, 0.976825, 0.978529, 0.982082, 0.990272, 0.993022, 1.00377, 1.12771, 0.983242, 0.979712, 0.983791, 0.974032, 0.973895, 0.977961, 0.98271, 0.981672, 0.988928, 0.999057, 1.00093, 1.00504, 1.00212, 1.00762, 1.04609, 1.05177, 1.06941, 1.07125, 1.08771, 1.09448, 1.16059, 1.13461, 1.35094, 1.09907, 1.07777, 1.15133, 1.22643, 1.17386, 1.18289, 1.18352, 1.18083, 1.20562, 1.26538, 1.36763
0.944082, 0.973331, 0.940033, 0.960963, 0.953659, 0.969715, 0.968, 0.973824, 0.970804, 0.988002, 0.987506, 0.990678, 0.9913, 0.994536, 0.993522, 0.970915, 0.959991, 0.95315, 0.949296, 0.951249, 0.987369, 0.958501, 0.959094, 0.953637, 0.969696, 0.963942, 0.968772, 0.959221, 0.966226, 0.965346, 0.963464, 0.957797, 0.942757, 0.931906, 0.92451, 0.933118, 0.931667, 0.931622, 0.928083, 0.925621, 0.924203, 0.924701, 0.923648, 0.953193, 0.952752, 0.931628, 0.931672, 0.931974, 0.936755, 0.937294, 0.937744, 0.949908, 0.953032, 0.937234, 0.934472, 0.9323, 0.931463, 0.926816, 0.926858, 0.92176, 0.91604, 0.919371, 0.942485, 0.949457, 0.952582, 0.95781, 0.958448, 0.959314, 0.973455, 0.977337, 0.979242, 0.990662, 1.00873, 1.01023, 1.01216, 1.01612, 1.02115, 1.02178, 1.01574, 1.01425, 1.00894, 1.00476, 1.00352, 0.998973, 0.996313, 0.985924, 0.98757, 0.974018, 0.972093, 0.97348, 0.981005, 0.981197, 0.980201, 0.982017, 0.983801, 0.983552, 0.983325, 0.982917, 0.990148, 1.00539, 1.006, 0.98874, 0.98119, 0.979078, 0.9758, 0.974879, 0.957976, 0.960627, 0.975219, 0.977328, 0.980847, 0.982729, 0.991519, 1.00414, 1.00451, 0.980812, 0.983367, 0.978886, 0.976966, 0.976708, 0.973939, 0.981179, 0.984555, 0.988384, 0.991964, 0.995437, 1.00198, 1.00913, 1.01854, 1.14962, 1.04366, 1.05183, 1.06726, 1.06565, 1.09298, 1.09442, 1.13649, 1.14102, 1.14005, 1.34758, 1.07531, 1.15338, 1.24068, 1.18379, 1.18059, 1.18133, 1.18058, 1.22343, 1.22669, 1.24278
0.979417, 0.983555, 0.95075, 0.935713, 0.968381, 0.970906, 0.97396, 0.973909, 0.980698, 0.982417, 0.985878, 0.990222, 0.99279, 0.99624, 0.992488, 0.995541, 0.962022, 0.955509, 0.982644, 0.973298, 0.971008, 0.960834, 0.970211, 0.963158, 0.973989, 0.969761, 0.971187, 0.959344, 0.965605, 0.965478, 0.962943, 0.956641, 0.949124, 0.931639, 0.924884, 0.933973, 0.932291, 0.931372, 0.928342, 0.926543, 0.923232, 0.923372, 0.919197, 0.91885, 0.939284, 0.932053, 0.932929, 0.940419, 0.936161, 0.93634, 0.939078, 0.950552, 0.9507, 0.945035, 0.936261, 0.932752, 0.931981, 0.924943, 0.924071, 0.917955, 0.91729, 0.919514, 0.965901, 0.943107, 0.94856, 0.947656, 0.949507, 0.964348, 0.971529, 0.97485, 0.981972, 1.00607, 1.01015, 1.00837, 1.00946, 1.01634, 1.01955, 1.01412, 1.01341, 1.01131, 1.00355, 1.0023, 1.00133, 0.997483, 0.993772, 0.990146, 0.986559, 0.976717, 0.97515, 0.975595, 0.984791, 0.983874, 0.981047, 0.978145, 0.983761, 0.983905, 0.981453, 0.983787, 0.992455, 1.00285, 1.00506, 0.987768, 0.986527, 0.98086, 0.976125, 0.97593, 1.16027, 0.960363, 0.975966, 0.977019, 0.979444, 0.981006, 0.993436, 1.00261, 1.00414, 0.984137, 0.983509, 0.979523, 0.973859, 0.975488, 0.975591, 0.98708, 0.993009, 1.00197, 0.991137, 0.997777, 1.01269, 1.0168, 1.01925, 1.02923, 1.04987, 1.0578, 1.0665, 1.0661, 1.08894, 1.08502, 1.18173, 1.21315, 1.29501, 1.15877, 1.07346, 1.24404, 1.31739, 1.1825, 1.17819, 1.18123, 1.23077, 1.22364, 1.22618, 1.24159
0.971996, 0.973995, 0.96193, 0.969888, 0.968639, 0.97802, 0.978123, 0.976957, 0.985625, 0.978134, 0.984343, 0.989198, 0.997303, 0.996789, 1.00177, 0.997944, 0.982891, 0.989425, 0.993944, 0.955668, 0.959201, 0.962919, 0.970053, 0.960551, 0.977255, 0.970222, 0.962838, 0.961429, 0.966358, 0.964572, 0.961688, 0.951611, 0.948018, 0.941546, 0.936, 0.935121, 0.932881, 0.931755, 0.931458, 0.925759, 0.924842, 0.922355, 0.91914, 0.918989, 0.930738, 0.936149, 0.941829, 0.941065, 0.939809, 0.940267, 0.947658, 0.949703, 0.949148, 0.945776, 0.942272, 0.932037, 0.926765, 0.921746, 0.92191, 0.919188, 0.920826, 0.922644, 1.09119, 0.942522, 0.945024, 0.941435, 0.946017, 0.963556, 0.970012, 0.977282, 0.98563, 1.01043, 1.01079, 1.0077, 1.01426, 1.01499, 1.01773, 1.01158, 1.01309, 1.01188, 1.00143, 1.00179, 1.00116, 0.992317, 0.991939, 0.990029, 0.978741, 0.975144, 0.976211, 0.97816, 0.984467, 0.985191, 0.977077, 0.978802, 0.979874, 0.979358, 0.981253, 0.98711, 0.995922, 0.999142, 0.991645, 0.98714, 0.98712, 0.979119, 0.977956, 0.978775, 0.974714, 0.96472, 0.971194, 0.975401, 0.978696, 0.990948, 1.00158, 1.00709, 0.998296, 0.985475, 0.983813, 0.981639, 0.976081, 0.977454, 0.977957, 0.991803, 1.00073, 1.00329, 1.00476, 1.00457, 1.01603, 1.01806, 1.0263, 1.03267, 1.04769, 1.14906, 1.06807, 1.07398, 1.09329, 1.09423, 1.15485, 1.15448, 1.29666, 1.16542, 1.16381, 1.10592, 1.18677, 1.18616, 1.17482, 1.1765, 1.40915, 1.22941, 1.22914, 1.05031
1.11412, 0.988336, 0.982052, 0.972171, 0.964646, 0.991301, 0.977072, 0.987683, 0.978093, 0.977933, 0.981913, 0.9847, 0.99002, 0.989177, 0.985572, 0.985344, 0.981831, 0.97776, 0.989076, 0.977692, 0.958555, 0.954838, 0.953875, 0.94456, 0.960997, 0.95349, 0.960735, 0.962043, 0.964631, 0.965418, 0.963161, 0.950153, 0.948816, 0.936153, 0.933558, 0.935262, 0.935369, 0.93227, 0.931782, 0.929802, 0.927023, 0.918443, 0.917846, 0.926473, 0.927644, 0.940553, 0.940716, 0.944191, 0.942244, 0.950108, 0.946931, 0.94829, 0.947646, 0.941958, 0.93695, 0.929098, 0.924762, 0.922555, 0.92041, 0.918594, 0.920432, 0.92221, 1.09264, 0.945177, 0.942879, 0.943229, 0.941383, 0.967811, 0.970211, 0.970606, 1.00143, 1.01104, 1.00882, 1.00777, 1.01477, 1.01598, 1.00828, 1.00892, 1.01109, 1.01106, 1.00081, 0.999849, 0.996263, 0.994624, 0.990895, 0.981345, 0.979798, 0.976812, 0.976958, 0.979404, 0.981175, 0.978486, 0.974838, 0.978847, 0.980507, 0.979346, 0.980627, 0.984488, 0.998721, 0.99906, 0.989061, 0.988952, 0.987975, 0.982658, 0.984029, 0.982109, 0.983621, 0.98412, 0.972262, 0.975088, 0.980456, 0.991586, 1.01428, 1.01445, 0.997266, 0.997704, 0.982358, 0.979944, 0.979068, 0.980968, 0.993694, 0.992972, 0.99177, 1.00404, 1.00488, 1.00511, 1.00794, 1.09081, 1.03877, 1.04912, 1.05024, 1.06411, 1.06613, 1.07568, 1.09094, 1.30182, 1.16139, 1.27406, 1.1765, 1.17655, 1.10068, 1.1017, 1.18381, 1.19112, 1.17861, 1.17597, 1.48696, 1.31916, 1.36208, 1.02625
0.986697, 0.986349, 0.982052, 0.980003, 0.992476, 0.988207, 0.98104, 0.985601, 0.977414, 0.964254, 0.98664, 0.986961, 0.989305, 0.988035, 0.991176, 0.983612, 0.979658, 0.977494, 0.973994, 0.953147, 0.948656, 0.932383, 0.970739, 0.962642, 0.953073, 0.964986, 0.952887, 0.961088, 0.963674, 0.963694, 0.96051, 0.953814, 0.950214, 0.945421, 0.942718, 0.937452, 0.938485, 0.939002, 0.932348, 0.931455, 0.928424, 0.919236, 0.917641, 0.92704, 0.929146, 0.941135, 0.942178, 0.944287, 0.943833, 0.957601, 0.953975, 0.948581, 0.943034, 0.941993, 0.936855, 0.935436, 0.92569, 0.926833, 0.928488, 0.920603, 0.922795, 0.991431, 0.951054, 0.943309, 0.944268, 0.949484, 0.944715, 0.963871, 0.963875, 1.07435, 0.999311, 1.00395, 1.00432, 1.01155, 1.01454, 1.00872, 1.00678, 1.00614, 1.01045, 1.01094, 1.00288, 0.994928, 0.994133, 0.990511, 0.989346, 0.982915, 0.979424, 0.976837, 0.976782, 0.976697, 0.977515, 0.976426, 0.9732, 0.975518, 0.97704, 0.979148, 0.980521, 0.981562, 0.995257, 0.999358, 0.990839, 0.988507, 0.983637, 0.983998, 0.984232, 0.983235, 0.984459, 0.984903, 0.975878, 0.977786, 0.990072, 0.99216, 1.01512, 1.01374, 0.998578, 0.98695, 0.980878, 0.980108, 0.982827, 0.993018, 1.00449, 0.996805, 0.995187, 1.00288, 1.01104, 1.01052, 1.0101, 1.01319, 1.03927, 1.04919, 1.04931, 1.05896, 1.06056, 1.0806, 1.08191, 1.23128, 1.16435, 1.17582, 1.17459, 1.17593, 1.25126, 1.07167, 1.13218, 1.1914, 1.18783, 1.18302, 1.18367, 1.08721, 1.06194, 1.03338
0.989107, 0.987549, 0.985691, 0.979454, 0.988188, 0.985016, 0.983455, 0.990335, 0.988042, 0.976824, 0.98784, 0.987302, 0.988847, 0.988449, 0.986726, 0.984461, 0.982127, 0.979354, 0.971898, 0.957911, 0.949628, 0.943762, 0.937775, 0.933754, 0.974895, 0.954318, 0.957069, 0.961692, 0.96368, 0.963273, 0.962572, 0.955551, 0.952749, 0.947327, 0.943126, 0.942212, 0.940747, 0.940804, 0.936124, 0.934695, 0.930485, 0.9235, 0.935542, 0.930045, 0.930899, 0.943132, 0.943785, 0.943051, 0.946742, 0.95959, 0.954811, 0.949429, 0.942427, 0.935697, 0.935811, 0.93467, 0.928969, 0.930906, 0.92948, 0.917498, 0.919356, 0.996782, 0.955507, 0.956404, 0.949257, 0.944649, 0.945552, 0.963981, 0.965572, 0.995724, 0.998348, 1.00365, 1.00449, 1.01134, 1.01187, 1.00643, 1.00774, 1.00238, 1.00755, 1.00528, 0.99757, 0.993932, 0.990798, 0.990165, 0.981895, 0.981512, 0.977676, 0.977655, 0.97896, 0.975266, 0.976192, 0.973329, 0.97241, 0.97449, 0.976998, 0.97985, 0.980069, 0.981705, 0.990651, 0.994076, 0.992748, 0.97995, 0.982874, 0.982676, 0.980019, 0.978622, 0.980677, 0.984494, 0.976581, 0.979119, 0.985719, 0.994666, 1.01494, 1.01598, 1.05704, 0.984433, 0.970154, 0.97881, 0.980442, 1.00243, 1.00527, 1.00599, 1.00277, 1.00306, 1.01344, 1.01435, 1.01373, 1.01305, 1.03838, 1.04636, 1.04682, 1.04887, 1.07017, 1.0736, 1.07646, 1.16928, 1.18043, 1.17367, 1.17354, 1.17771, 1.25079, 1.06214, 1.10514, 1.12436, 1.18796, 1.1852, 1.0964, 1.05561, 1.01838, 1.10181
0.990226, 0.990482, 0.978235, 0.985566, 0.987153, 0.98105, 0.966307, 0.990734, 0.987131, 0.977041, 0.985163, 0.988868, 0.987143, 0.987534, 0.985611, 0.985936, 0.983683, 0.980318, 0.971192, 0.943229, 0.946991, 0.954407, 0.938418, 0.952716, 0.951486, 0.952187, 0.95803, 0.960435, 0.963547, 0.962981, 0.960443, 0.956214, 0.952894, 0.947677, 0.943463, 0.941567, 0.940833, 0.941483, 0.939346, 0.934861, 0.930543, 0.927242, 0.937715, 0.937932, 0.936073, 0.948066, 0.944542, 0.944171, 0.957262, 0.959639, 0.95589, 0.948926, 0.936857, 0.934975, 0.935223, 0.932672, 0.931098, 0.931488, 0.930824, 0.917841, 0.919685, 1.00616, 0.9547, 0.958935, 0.959158, 0.941109, 0.939785, 0.963606, 1.00073, 0.994997, 1.00027, 1.00102, 1.00395, 1.01473, 1.00295, 1.00502, 0.995271, 0.997114, 1.00331, 1.00421, 0.99338, 0.993907, 0.989183, 0.983363, 0.98142, 0.980881, 0.979274, 0.977645, 0.977339, 0.976602, 0.973664, 0.972959, 0.97058, 0.973236, 0.976733, 0.977179, 0.977509, 0.981437, 0.9928, 0.994346, 0.993533, 0.979387, 0.983515, 0.984124, 0.977353, 0.979223, 0.981986, 0.981541, 0.980686, 0.987047, 0.988358, 1.00587, 1.00692, 1.00522, 1.0049, 0.982088, 0.974598, 1.07787, 1.01518, 1.00709, 1.00698, 1.00573, 1.00531, 1.00496, 1.02174, 1.19935, 1.0216, 1.0145, 1.01801, 1.03786, 1.03828, 1.05897, 1.05997, 1.0745, 1.08557, 1.1712, 1.18039, 1.1754, 1.17491, 1.44158, 1.24149, 1.06052, 1.06548, 1.13398, 1.1283, 1.13312, 1.0496, 1.03408, 1.30613, 1.10345
0.989771, 0.99451, 0.986978, 0.984632, 0.980748, 1.00744, 1.01956, 0.986965, 0.986717, 0.986831, 0.981656, 0.990118, 0.988823, 0.985025, 0.983565, 0.982676, 0.982668, 0.97806, 0.975368, 0.962735, 0.948686, 0.955208, 0.934067, 0.938986, 0.955206, 0.953343, 0.959359, 0.960051, 0.961382, 0.962675, 0.956961, 0.955862, 0.952788, 0.949036, 0.946561, 0.942729, 0.939326, 0.942744, 0.94133, 0.938088, 0.933387, 0.939213, 0.940565, 0.939712, 0.949277, 0.952098, 0.945448, 0.947521, 0.960286, 0.961134, 0.959685, 0.941906, 0.932379, 0.933186, 0.934653, 0.933092, 0.931725, 0.929486, 0.929556, 0.920718, 0.920163, 0.923915, 0.957303, 0.962963, 0.959098, 0.953863, 1.02241, 1.09769, 1.00565, 0.995686, 1.0005, 1.00093, 1.00487, 1.00325, 1.0025, 0.995619, 0.992391, 0.992802, 0.996712, 1.00529, 0.99302, 0.991534, 0.991264, 0.982406, 0.98065, 0.980405, 0.980275, 0.977569, 0.977407, 0.976467, 0.973376, 0.9728, 0.967737, 0.973501, 0.975261, 0.976776, 0.980229, 0.983237, 0.993951, 0.994091, 0.984266, 0.980455, 0.983517, 0.983198, 0.979387, 0.980837, 0.980126, 0.981452, 0.98324, 0.994266, 0.996182, 1.00524, 1.00747, 1.00325, 0.991582, 0.983234, 0.990687, 0.993835, 1.0398, 1.01368, 1.00939, 1.01604, 1.0509, 1.02423, 1.0315, 1.031, 1.03673, 1.02908, 1.01611, 1.04956, 1.03988, 1.05561, 1.05825, 1.08652, 1.08833, 1.18041, 1.17964, 1.17656, 1.26652, 1.26812, 1.07063, 1.05861, 1.0607, 1.05953, 1.10496, 1.06494, 1.04497, 1.08393, 0.994532, 0.971433
0.988562, 0.993113, 0.984394, 0.983767, 0.979069, 0.964128, 0.963518, 0.981318, 0.991303, 0.98813, 0.980981, 0.983855, 0.98326, 0.980994, 0.976984, 0.981277, 0.978458, 0.975481, 0.974623, 1.00412, 0.954765, 0.953606, 0.937371, 0.935145, 0.952998, 0.958384, 0.958842, 0.9592, 0.961649, 0.961023, 0.957506, 0.955365, 0.951673, 0.950406, 0.948339, 0.944226, 0.941289, 0.94213, 0.942387, 0.933238, 0.935127, 0.943755, 0.944125, 0.948716, 0.951295, 0.951322, 0.94813, 0.967621, 0.962702, 0.961474, 0.953484, 0.938172, 0.931163, 0.933526, 0.934464, 0.933456, 0.931029, 0.929811, 0.931786, 0.921067, 0.920275, 1.09848, 0.953336, 0.963173, 0.950573, 0.952401, 1.00738, 1.01132, 1.00204, 0.99861, 1.00271, 1.00399, 1.00412, 1.00031, 0.995421, 0.990952, 0.989062, 0.99144, 0.995434, 1.00394, 0.993228, 0.991585, 0.983638, 0.982973, 0.982529, 0.978311, 0.978561, 0.979846, 0.98002, 0.974901, 0.973132, 0.971887, 0.966475, 0.972351, 0.974225, 0.975576, 0.981382, 0.983643, 0.992376, 0.99144, 0.981616, 0.97797, 0.983799, 0.983367, 0.982598, 0.980772, 0.976814, 0.978417, 0.982304, 0.995828, 1.00251, 1.0078, 1.00159, 1.00169, 0.989804, 0.990683, 0.997559, 1.00055, 1.10809, 1.02102, 1.0173, 1.02652, 1.12867, 1.02596, 1.0288, 1.03304, 1.03698, 1.09205, 1.01817, 1.02551, 1.02893, 1.21223, 1.0878, 1.08471, 1.08492, 1.18118, 1.17932, 1.18075, 1.26609, 1.25236, 1.2507, 1.08532, 1.05493, 1.24359, 1.1939, 1.04041, 1.06073, 1.00899, 0.987843, 0.981373
0.992722, 0.993921, 0.989127, 0.985492, 0.986575, 0.965753, 0.964299, 0.97891, 0.989063, 0.988745, 0.979641, 0.98007, 0.978555, 0.976698, 0.97529, 0.975619, 0.977353, 0.973661, 0.975478, 0.964248, 0.955524, 0.942974, 0.936713, 0.929886, 0.944385, 0.957749, 0.958005, 0.958519, 0.962909, 0.961242, 0.960081, 0.955045, 0.952008, 0.950683, 0.949143, 0.94475, 0.942628, 0.941834, 0.93379, 0.933745, 0.944584, 0.948808, 0.955333, 0.955675, 0.955123, 0.951823, 0.952617, 0.965933, 0.960929, 0.960159, 0.944935, 0.939331, 0.93131, 0.937396, 0.936157, 0.932012, 0.934056, 0.931971, 0.932009, 0.928886, 0.923742, 0.950026, 0.95271, 0.950817, 0.951431, 0.95341, 1.00255, 1.00808, 1.00092, 0.99933, 1.00819, 1.00441, 1.00066, 0.995747, 0.988252, 0.988002, 0.988326, 0.987688, 0.989074, 0.999026, 0.995299, 0.992423, 0.987148, 0.982053, 0.983469, 0.98246, 0.979075, 0.982187, 0.976037, 0.973954, 0.973352, 0.9724, 0.967372, 0.972238, 0.973485, 0.977865, 0.98226, 0.982329, 0.983821, 0.985431, 0.976795, 0.977304, 0.982603, 0.983473, 0.986769, 0.985943, 0.977083, 0.977066, 0.98078, 1.00023, 1.00245, 1.00808, 1.00086, 0.996638, 0.992981, 0.996523, 0.998053, 1.00154, 1.31211, 1.02525, 1.02806, 1.03446, 1.03449, 1.03707, 1.0332, 1.0332, 1.03837, 1.04324, 1.02126, 1.02505, 1.02733, 1.03085, 1.08955, 1.08419, 1.17646, 1.17812, 1.17853, 1.27307, 1.26423, 1.24942, 1.07095, 1.0431, 1.37175, 1.20239, 1.196, 1.064, 1.13197, 1.02987, 0.986928, 0.984186
0.994695, 0.993948, 0.989131, 0.98789, 0.978, 0.993268, 0.973768, 0.97687, 0.990268, 0.988981, 0.978667, 0.974144, 0.971222, 0.976097, 0.975722, 0.976587, 0.976677, 0.976378, 0.984911, 0.966688, 0.939331, 0.944439, 0.934093, 0.923225, 0.961712, 0.959276, 0.9592, 0.959939, 0.961405, 0.960939, 0.959782, 0.954056, 0.952449, 0.950349, 0.949245, 0.94669, 0.943426, 0.942604, 0.931892, 0.936154, 0.956818, 0.956744, 0.961037, 0.960489, 0.959659, 0.953739, 0.954781, 0.964714, 0.959469, 0.952812, 0.944394, 0.929898, 0.928933, 0.939423, 0.938681, 0.934032, 0.932868, 0.936215, 0.934658, 0.93286, 1.04998, 0.983614, 0.953552, 0.949807, 0.949087, 0.994437, 1.00312, 1.00549, 1.00305, 0.999139, 1.00716, 1.00192, 0.998802, 0.990591, 0.987048, 0.988112, 0.984013, 0.985044, 0.997898, 0.99844, 0.996846, 0.990431, 0.988681, 0.98648, 0.985853, 0.980917, 0.981012, 0.981255, 0.977263, 0.974548, 0.973481, 0.972423, 0.968783, 0.971402, 0.978637, 0.979349, 0.98014, 0.980689, 0.983397, 0.98503, 0.981428, 0.980243, 0.980247, 0.981045, 0.988609, 0.987097, 0.980177, 0.981006, 0.987805, 0.998095, 1.00201, 1.0043, 0.998453, 0.998185, 0.993335, 1.00183, 1.00453, 1.03909, 1.02775, 1.02961, 1.03061, 1.03876, 1.03935, 1.04238, 1.03081, 1.03436, 1.04106, 1.04587, 1.02459, 1.02527, 1.02951, 1.02915, 1.03118, 1.08287, 1.17694, 1.17668, 1.28036, 1.46062, 1.22438, 1.06705, 1.06693, 1.04644, 1.20567, 1.02312, 1.02378, 1.05395, 1.2058, 0.987815, 0.983955, 0.983296
0.992047, 0.987361, 0.991365, 0.997487, 0.980547, 0.979979, 0.967654, 0.967637, 0.988551, 0.994104, 0.974334, 0.970447, 0.971422, 0.96972, 0.97669, 0.976851, 0.973221, 0.97451, 0.972228, 0.981399, 0.959167, 0.929104, 0.918579, 0.955062, 0.953753, 0.958875, 0.959235, 0.954319, 0.959897, 0.960313, 0.957356, 0.954844, 0.953302, 0.951209, 0.948157, 0.947712, 0.943774, 0.946037, 0.93441, 1.10232, 0.964433, 0.967145, 0.965373, 0.965303, 0.953551, 0.953988, 0.95782, 0.963496, 0.96078, 0.952834, 0.943141, 0.934698, 0.93951, 0.940518, 0.935777, 0.935394, 0.933875, 0.937793, 0.941762, 0.941131, 0.940105, 0.969842, 0.969089, 0.965638, 1.16551, 1.00503, 1.00754, 1.00664, 1.00115, 1.00524, 1.00275, 1.00328, 0.989953, 0.987288, 0.983976, 0.982187, 0.983885, 0.985479, 1.00054, 1.00117, 0.996652, 0.989798, 0.988406, 0.988938, 0.983658, 0.984184, 0.981959, 0.979421, 0.97646, 0.97563, 0.976709, 0.97059, 0.970466, 0.97166, 0.976527, 0.98011, 0.978023, 0.980665, 0.984286, 0.993762, 0.994583, 0.986401, 0.981707, 0.984818, 0.988978, 0.983044, 0.982729, 0.982477, 0.98802, 0.99802, 1.00297, 1.00438, 0.992175, 0.998913, 0.998262, 1.00829, 1.01137, 1.01576, 1.03146, 1.03113, 1.04069, 1.04154, 1.04276, 1.04167, 1.03879, 1.03697, 1.04289, 1.04605, 1.0434, 1.02882, 1.03177, 1.02956, 1.0332, 1.18564, 1.17744, 1.1795, 1.19577, 0.00421779, 0.00419698, 1.12295, 1.13899, 1.18194, 1.1791, 1.01706, 1.01666, 1.05759, 0.988805, 0.984844, 0.98373, 0.978079
0.992322, 0.990142, 0.994279, 0.99595, 0.996204, 0.978514, 0.959468, 0.96449, 0.987081, 0.992861, 0.977145, 0.9727, 0.971362, 0.966092, 0.970192, 0.973503, 0.970129, 0.973287, 0.966665, 0.978779, 0.946025, 0.948464, 0.944023, 0.953313, 0.95318, 0.956885, 0.958131, 0.955032, 0.958322, 0.956911, 0.954734, 0.954581, 0.954305, 0.947165, 0.946708, 0.948692, 0.94931, 0.946758, 0.945172, 0.967304, 0.966507, 0.97076, 0.970446, 0.969412, 0.954258, 0.9555, 0.963277, 0.963689, 0.963009, 0.945877, 0.945666, 0.939199, 0.940836, 0.942253, 0.933198, 0.931515, 0.929334, 0.937848, 0.950045, 0.945724, 0.945035, 0.96725, 0.966549, 1.00562, 1.00211, 0.98541, 1.00703, 1.00753, 1.00968, 1.00232, 1.00238, 1.00403, 0.986197, 0.986761, 0.981986, 0.981023, 0.981021, 0.985032, 0.999074, 1.00106, 1.00072, 0.995322, 0.990489, 0.988045, 0.985569, 0.98553, 0.977852, 0.977086, 0.975561, 0.975128, 0.975742, 0.973194, 0.969288, 0.973197, 0.977728, 0.980044, 0.980798, 0.980177, 1.1638, 0.997374, 0.996346, 0.990772, 0.984551, 0.987082, 0.9901, 0.987838, 0.982928, 0.983971, 0.989116, 1.00123, 1.00772, 1.00288, 0.991147, 0.994693, 1.00178, 1.01399, 1.01498, 1.02409, 1.03013, 1.03062, 1.04024, 1.0456, 1.04412, 1.04407, 1.0403, 1.03943, 1.04415, 1.0481, 1.04681, 1.02758, 1.03216, 1.03328, 1.03407, 1.03535, 1.04994, 1.1848, 1.19436, 1.21189, 1.25122, 0.00402095, 1.14378, 1.17953, 1.18152, 1.18179, 0.998848, 0.998035, 0.988818, 0.988788, 0.982336, 0.981001
0.997209, 0.994689, 1.00082, 0.995067, 0.987249, 0.987122, 1.00205, 0.960151, 1.2037, 0.983491, 0.980276, 0.978522, 0.975562, 0.96538, 0.966952, 0.976097, 0.96136, 0.971883, 0.973869, 0.973196, 0.965335, 0.956936, 0.961076, 0.961495, 0.953895, 0.954713, 0.956121, 0.954188, 0.955431, 0.955505, 0.954832, 0.954472, 0.950767, 0.947846, 0.947544, 0.950154, 0.950332, 0.949969, 0.952491, 0.952946, 0.966634, 0.970341, 0.970389, 0.970717, 0.957111, 0.957515, 0.958189, 0.960337, 0.951754, 0.943319, 0.939799, 0.940277, 0.943613, 0.936686, 0.931492, 0.929842, 0.930787, 0.937883, 0.950485, 0.951112, 0.955625, 0.960473, 0.962687, 1.00743, 0.988612, 1.09161, 1.00481, 1.00858, 1.01062, 1.0051, 0.998372, 0.987091, 0.986522, 0.980124, 0.978733, 0.977047, 0.97987, 0.991753, 0.999043, 0.998963, 0.999271, 0.996995, 0.993956, 0.988917, 0.990984, 0.983178, 0.97808, 0.977008, 0.973545, 0.971, 0.974029, 0.971525, 0.970035, 0.973235, 0.974957, 0.982116, 0.978575, 0.981584, 0.994318, 0.998126, 0.997909, 0.996279, 0.988064, 0.986892, 0.987904, 0.981441, 0.981786, 0.982932, 0.998894, 1.00099, 1.00833, 1.00473, 0.994077, 0.997409, 1.00837, 1.01639, 1.0169, 1.03274, 1.0296, 1.03083, 1.04128, 1.04376, 1.04329, 1.04391, 1.04338, 1.04182, 1.04131, 1.18409, 1.18616, 1.02774, 1.02902, 1.04212, 1.03945, 1.03789, 1.03662, 0.00460346, 0.00441844, 1.10506, 1.06824, 1.14092, 0.986456, 1.12781, 0.979046, 0.984602, 0.987441, 0.985805, 0.984953, 0.984072, 0.979375, 0.977002
0.99762, 0.997936, 0.99803, 0.995908, 0.998255, 0.986797, 1.20634, 0.964168, 0.970613, 0.980586, 0.975735, 0.976581, 0.975661, 0.967491, 0.973952, 0.979408, 0.963309, 0.962562, 0.963863, 0.956476, 0.956558, 0.958649, 0.958404, 0.962031, 0.95605, 0.958479, 0.954491, 0.953232, 0.953109, 0.95291, 0.954118, 0.952189, 0.947851, 0.946493, 0.947886, 0.950894, 0.951721, 0.952059, 0.952189, 0.953608, 0.962303, 0.972222, 0.978245, 0.966341, 0.959901, 0.958569, 0.956767, 0.958259, 0.948995, 0.945712, 0.93927, 0.949648, 0.949701, 0.939964, 0.930217, 0.93183, 0.931074, 0.931359, 0.946738, 0.954725, 0.956316, 0.95819, 0.982083, 0.987712, 0.998512, 1.00234, 1.00512, 1.0088, 1.00948, 1.00255, 0.992052, 0.985037, 0.983542, 0.979603, 0.977581, 0.97657, 0.981475, 0.990256, 0.998818, 1.00035, 0.999934, 0.999042, 0.990846, 0.993227, 0.994966, 0.982641, 0.980126, 0.976664, 0.973139, 0.969242, 0.9716, 0.971389, 0.969825, 0.972195, 0.972967, 0.976865, 0.978005, 0.982037, 0.987639, 1.00165, 1.00254, 0.997801, 0.987876, 0.985301, 0.985014, 0.983512, 0.981017, 0.98377, 1.00131, 1.00405, 1.00729, 1.00757, 0.998723, 1.00236, 1.00689, 1.01797, 1.02063, 1.02924, 1.02505, 1.04002, 1.04385, 1.04646, 1.0454, 1.04091, 1.15885, 1.31268, 1.04094, 1.03867, 1.1235, 1.24617, 1.0298, 1.03845, 1.03916, 1.08427, 1.02373, 1.02469, 1.08783, 1.07686, 1.07235, 0.981052, 0.982352, 0.98228, 0.975678, 0.982766, 0.984871, 0.986216, 0.983764, 0.981762, 0.979691, 0.978008
0.998809, 1.00519, 1.01187, 1.0124, 0.992072, 0.983775, 0.983913, 0.969748, 0.971917, 0.975801, 0.974961, 0.974516, 0.975569, 0.971617, 0.973665, 0.974218, 0.966882, 0.963595, 0.966759, 0.956707, 0.956036, 0.965569, 0.963088, 0.961286, 0.956537, 0.954457, 0.953933, 0.953682, 0.952453, 0.951813, 0.95329, 0.951918, 0.947088, 0.947635, 0.95246, 0.957613, 0.957105, 0.951181, 0.953719, 0.953223, 0.969719, 0.970735, 0.978166, 0.970868, 0.96717, 0.959941, 0.955255, 0.954415, 0.945128, 0.945814, 0.945676, 0.950884, 0.951598, 0.951612, 0.940581, 0.931574, 0.931958, 0.943465, 0.950406, 0.954583, 0.95834, 0.957335, 0.985346, 0.987702, 1.00092, 1.00585, 1.00918, 1.00958, 1.01129, 1.0086, 0.986014, 0.983994, 0.980062, 0.976955, 0.976153, 0.977119, 0.983663, 0.992692, 0.994687, 1.00508, 1.00272, 0.993657, 0.992854, 0.997725, 0.995544, 0.985672, 0.984387, 0.976517, 0.971138, 0.968656, 0.969837, 0.96799, 0.968299, 0.971827, 0.972412, 0.975621, 0.976602, 0.981436, 0.984264, 0.994765, 1.00307, 0.999707, 0.986458, 0.986378, 0.98662, 0.982055, 0.980074, 0.975174, 0.994389, 1.00402, 1.00669, 1.0072, 1.00434, 1.00459, 1.00888, 1.02124, 1.02269, 1.03015, 1.03609, 1.03871, 1.04659, 1.05317, 1.09252, 1.05388, 1.06535, 1.06632, 1.03623, 1.0374, 1.12175, 1.25735, 1.02858, 1.03648, 1.03545, 1.01937, 1.02216, 1.02488, 1.02585, 1.09681, 1.06357, 0.98274, 0.983753, 0.983745, 0.976853, 0.981214, 0.983791, 0.98394, 0.97583, 0.973642, 0.977537, 0.976747
1.00117, 1.00314, 1.01321, 1.01305, 0.986122, 0.98349, 0.985394, 0.969921, 0.963485, 0.974882, 0.974829, 0.972991, 0.973564, 0.972953, 0.975031, 0.994369, 0.966118, 0.993972, 0.960705, 0.959661, 0.957231, 0.963588, 0.964531, 0.960968, 0.955804, 0.950565, 0.952301, 0.951582, 0.950266, 0.95252, 0.950872, 0.949419, 0.946669, 0.950767, 0.956762, 0.962837, 0.959213, 0.952524, 0.95591, 0.953677, 0.966335, 0.973166, 0.98319, 0.974107, 0.968655, 0.963691, 0.959331, 0.952124, 0.943945, 0.946114, 0.950698, 0.951123, 0.952125, 0.952416, 0.941812, 0.935242, 0.932169, 0.943313, 0.949306, 0.953457, 0.955273, 1.0014, 0.988521, 0.995145, 1.00287, 1.00385, 1.01226, 1.00852, 1.00781, 1.00604, 0.981668, 0.980222, 0.977907, 0.975638, 0.976772, 0.983766, 0.98392, 0.994162, 1.00172, 1.0089, 1.00801, 1.00106, 1.00016, 1.00076, 1.00438, 0.989752, 0.988651, 0.984948, 0.970731, 0.961545, 0.967008, 0.967562, 0.967038, 0.970471, 0.972201, 0.976596, 0.978912, 0.981234, 0.983712, 0.992573, 0.997635, 0.996184, 0.987289, 0.987757, 0.987913, 0.98189, 0.981405, 0.979491, 0.998938, 1.00156, 1.00801, 1.00595, 1.0033, 1.01202, 1.01437, 1.02291, 1.02551, 1.03396, 1.03844, 1.03601, 1.0516, 1.05544, 1.26527, 1.05503, 1.05415, 1.07632, 1.07602, 1.03747, 1.05278, 1.04983, 1.01613, 1.08114, 1.02965, 1.0198, 1.01876, 1.02623, 1.07423, 1.00143, 1.00051, 0.9958, 0.987306, 0.984618, 0.980059, 0.981215, 0.984818, 0.9837, 0.971587, 0.970936, 0.97602, 0.976457
1.00258, 1.00158, 1.00828, 1.00751, 0.985924, 0.982103, 1.00137, 0.961582, 0.963295, 0.9559, 0.975856, 0.975899, 0.977327, 0.973735, 0.978822, 0.968292, 0.963192, 0.94757, 0.947012, 0.960028, 0.958911, 0.958722, 0.957778, 0.959308, 0.9508, 0.950047, 0.952959, 0.951852, 0.949703, 0.952512, 0.949188, 0.948878, 0.949044, 0.94952, 0.966301, 0.962394, 0.95278, 0.953839, 0.956665, 0.956816, 0.971042, 0.980609, 0.979924, 0.972828, 0.966098, 0.961208, 0.954615, 0.952413, 0.952136, 0.950544, 0.951628, 0.949828, 0.952635, 0.951997, 0.941973, 0.940247, 0.941838, 0.94577, 0.94985, 0.951193, 0.978389, 0.985423, 0.989807, 1.0023, 1.00435, 1.01042, 1.0126, 1.01006, 1.00761, 0.989604, 0.979871, 0.977772, 0.97614, 0.976178, 0.979381, 0.981429, 0.985447, 0.987281, 1.00469, 1.00651, 1.00813, 1.00386, 1.00747, 1.00886, 1.01201, 0.993695, 0.994017, 0.977777, 0.967245, 0.960232, 0.962988, 0.951572, 0.963143, 0.970259, 0.973195, 0.978289, 0.982135, 0.97893, 0.981173, 0.997105, 0.995922, 0.995021, 0.993321, 0.98855, 0.99184, 0.993764, 0.981361, 0.981225, 0.996071, 1.00052, 1.00458, 1.00486, 1.0041, 1.01447, 1.01329, 1.0227, 1.02696, 1.03514, 1.041, 1.03742, 1.05141, 1.08688, 1.07831, 1.08078, 1.05258, 1.05237, 1.07755, 1.02885, 1.05128, 1.05248, 1.12028, 1.0111, 1.02564, 1.02653, 1.02377, 1.02715, 1.11929, 1.00264, 0.997993, 0.998964, 0.997767, 0.974219, 0.978754, 0.982811, 0.98645, 0.97819, 0.967905, 0.97151, 0.976467, 0.980783
1.00517, 1.0055, 1.0079, 1.00561, 0.987132, 0.987309, 0.977304, 0.968954, 0.952587, 0.950196, 0.977177, 0.976316, 0.974967, 0.974369, 0.976573, 0.980326, 0.96049, 0.947912, 0.963047, 0.962249, 0.960384, 0.961429, 0.957447, 0.953052, 0.951678, 0.952761, 0.95371, 0.952507, 0.950416, 0.949988, 0.948785, 0.949157, 0.950122, 0.957385, 0.968233, 0.960527, 0.954037, 0.95452, 0.96296, 0.962949, 0.968041, 0.976191, 0.976735, 0.968085, 0.964925, 0.955923, 0.954272, 0.953621, 0.951387, 0.947914, 0.95005, 0.949169, 0.951255, 0.949211, 0.944329, 0.944942, 0.946518, 0.953981, 0.950882, 0.951502, 0.983954, 0.989041, 0.999413, 1.00248, 1.00822, 1.0096, 1.01202, 1.00517, 0.99115, 0.984467, 0.977955, 0.975533, 0.97578, 0.977333, 0.978691, 0.977729, 0.986344, 0.988122, 0.996562, 1.00516, 1.01229, 1.00958, 1.0083, 1.00943, 1.0102, 0.990776, 0.980695, 0.971226, 0.969974, 0.960359, 0.949516, 0.957101, 0.963106, 0.965614, 0.972009, 0.981318, 0.983475, 0.977523, 0.98026, 0.994549, 0.994835, 0.995452, 0.990984, 0.988409, 0.990474, 0.995268, 0.980112, 0.97743, 0.991154, 1.00136, 1.00214, 1.00367, 1.00444, 1.01024, 1.01589, 1.0228, 1.02569, 1.03222, 1.03947, 1.03617, 1.03733, 1.17833, 1.08118, 1.08324, 1.08187, 1.07333, 1.10795, 1.03008, 1.05081, 1.05199, 1.13349, 1.1407, 1.13314, 1.02647, 1.02619, 1.02565, 1.00778, 1.00584, 0.99478, 0.995345, 0.995905, 0.972574, 0.9706, 0.982781, 0.984312, 0.969937, 0.96973, 0.971356, 0.977998, 0.981027
1.00532, 1.00633, 1.00961, 1.00154, 0.990844, 0.97674, 0.974499, 0.974996, 0.995223, 0.947823, 0.971062, 0.973916, 0.973646, 0.974974, 0.973245, 0.980503, 0.947156, 0.959431, 0.963978, 0.963505, 0.958582, 0.962968, 0.965576, 0.954202, 0.953524, 0.950825, 0.953667, 0.952702, 0.952427, 0.949418, 0.947649, 0.947939, 0.950177, 0.956488, 0.96819, 0.959817, 0.958331, 0.956834, 0.964786, 0.966644, 0.967253, 0.969056, 0.971505, 0.964353, 0.963174, 0.957358, 0.956866, 0.956491, 0.95789, 0.949388, 0.949074, 0.948612, 0.948347, 0.948882, 0.950111, 0.953969, 0.956655, 0.956983, 0.958695, 1.04987, 1.03688, 0.989546, 1.00473, 1.00553, 1.00867, 1.00788, 1.00556, 1.00614, 0.987326, 0.980823, 0.977234, 0.976082, 0.977527, 0.979112, 0.982076, 0.983313, 0.989536, 0.989209, 0.993305, 1.00083, 1.01302, 1.01125, 1.00928, 0.99917, 1.00102, 0.98986, 0.98288, 0.971622, 0.967568, 0.966492, 0.959458, 0.959022, 0.963983, 0.967379, 0.976959, 0.981018, 0.978636, 0.977506, 0.988985, 0.989626, 0.994883, 0.996771, 0.990424, 0.990489, 0.989426, 0.989201, 0.983671, 0.9843, 0.991609, 1.00139, 1.0015, 1.00178, 1.00815, 1.01258, 1.02299, 1.02468, 1.02263, 1.044, 1.04717, 1.0362, 1.03807, 1.09392, 1.08454, 1.0824, 1.08409, 1.12822, 1.11564, 1.04043, 1.09569, 1.14974, 0.995518, 0.995858, 1.00913, 1.02704, 1.02743, 1.00916, 1.00735, 1.00873, 0.994388, 0.988531, 0.990034, 0.968922, 0.970071, 0.979416, 0.973396, 0.971326, 0.971641, 0.975639, 0.979397, 0.981115
1.00427, 1.00454, 1.00587, 1.00187, 0.993664, 0.975308, 0.974634, 1.00487, 1.00845, 0.945169, 0.945901, 0.972412, 0.972318, 0.977733, 0.972743, 0.980154, 0.962692, 0.957903, 0.964436, 0.961887, 0.959649, 0.962838, 0.964464, 0.954512, 0.952554, 0.953861, 0.950003, 0.952697, 0.949632, 0.949, 0.947704, 0.948808, 0.951514, 0.952349, 0.964122, 0.959389, 0.95942, 0.963377, 0.966963, 0.966887, 0.964379, 0.966749, 0.965432, 0.963418, 0.952291, 0.956991, 0.956508, 0.957607, 0.957972, 0.954622, 0.950764, 0.949244, 0.949621, 0.95169, 0.955733, 0.966412, 1.01057, 0.967014, 1.13193, 1.05429, 0.987832, 0.997544, 1.00514, 1.00801, 1.00776, 1.00834, 1.00308, 0.998175, 0.980052, 0.980468, 0.97585, 0.977437, 0.979882, 0.979973, 0.979854, 0.989508, 0.988303, 0.988571, 0.994135, 0.996449, 1.00763, 1.006, 0.995713, 0.999066, 0.999586, 0.989022, 0.983814, 0.972789, 0.967894, 0.96147, 0.961887, 0.959689, 0.960325, 0.973513, 0.976905, 0.98045, 0.974764, 0.982821, 0.987258, 0.990402, 0.991895, 0.992454, 0.990613, 0.99228, 0.980792, 0.98031, 0.983585, 0.988678, 0.99727, 1.00649, 1.00325, 1.22691, 1.01861, 1.0182, 1.02238, 1.02305, 1.12198, 1.04684, 1.04652, 1.12216, 1.04025, 1.0381, 1.0835, 1.08701, 0.00481566, 1.12395, 1.00665, 1.00547, 1.03776, 1.11534, 0.993694, 0.995214, 0.999237, 1.25439, 1.01731, 1.00977, 1.00485, 1.00012, 0.990333, 0.990719, 0.989899, 0.97404, 0.970157, 0.971783, 0.972839, 0.975118, 0.973468, 0.975814, 0.978477, 0.982279
1.00476, 0.995959, 1.00306, 1.00242, 1.00224, 0.98601, 0.976156, 0.975114, 1.17235, 0.945431, 0.948433, 0.948338, 1.17225, 0.977812, 0.970846, 0.966813, 0.965875, 0.966846, 0.964087, 0.961106, 0.962469, 0.963513, 0.965835, 0.965117, 0.953271, 0.954336, 0.95182, 0.947561, 0.949127, 0.94898, 0.949954, 0.949736, 0.949522, 0.94898, 0.959978, 0.959135, 0.960611, 0.967183, 0.970491, 0.971335, 0.962827, 0.961466, 0.964024, 0.958434, 0.956835, 0.954218, 0.955868, 0.956862, 0.958483, 0.959675, 0.953055, 0.953889, 0.956693, 0.953375, 0.95715, 0.971107, 0.973281, 0.974908, 0.973889, 0.978965, 0.991227, 1.00421, 1.00549, 1.00975, 1.00861, 1.00254, 1.00267, 0.997299, 0.979139, 0.978234, 0.977595, 0.979162, 0.980179, 0.980974, 0.981532, 0.990151, 0.988441, 0.98982, 0.993873, 0.997301, 1.00036, 0.997631, 0.994294, 0.994032, 0.994672, 0.989192, 0.982861, 0.978932, 0.9691, 0.966031, 0.961306, 0.959455, 0.96007, 0.974482, 0.972427, 0.973714, 0.982207, 0.985506, 0.989249, 0.990787, 0.99029, 0.990704, 0.992349, 0.976149, 0.977232, 0.976336, 0.986097, 0.994466, 0.997931, 1.00635, 1.00243, 1.02412, 1.02234, 1.02052, 1.0222, 1.0719, 1.25218, 1.05858, 1.05791, 1.06911, 1.06911, 1.03703, 1.08254, 1.08412, 1.00833, 0.995202, 0.999372, 1.00188, 1.0091, 1.00161, 0.99578, 0.995843, 0.997255, 1.00136, 1.01627, 1.0093, 1.00551, 1.00475, 0.99005, 0.983967, 0.98094, 0.971246, 0.971604, 0.971965, 0.973058, 0.973608, 0.973395, 0.975673, 0.977707, 0.984217
0.993512, 0.991328, 1.00416, 1.00347, 1.00138, 0.984648, 0.980578, 0.9766, 0.987186, 1.0084, 0.958422, 0.946582, 0.952629, 0.973829, 0.976092, 0.969914, 0.969244, 0.966622, 0.96641, 0.963814, 0.969706, 0.969156, 0.967264, 0.969317, 0.95688, 0.951748, 0.951798, 0.946708, 0.947652, 0.950167, 0.952546, 0.949203, 0.947437, 0.949699, 0.946183, 0.956311, 0.96043, 0.966491, 0.97192, 0.966859, 0.966607, 0.96324, 0.963614, 0.95612, 0.953136, 0.953504, 0.956486, 0.956577, 0.959678, 0.963708, 0.954328, 0.952563, 0.962384, 0.953776, 0.951931, 0.973278, 0.977905, 0.979347, 0.976966, 0.991837, 0.996398, 1.00392, 1.00912, 1.00999, 1.00563, 0.995253, 0.994271, 0.99388, 0.978238, 0.977212, 0.978575, 0.982428, 0.979987, 0.983742, 0.988851, 0.991612, 0.991516, 0.989704, 0.990018, 0.995918, 0.99437, 0.995529, 0.993819, 0.993975, 0.994225, 0.987091, 0.983895, 0.981391, 0.969683, 0.96471, 0.959579, 0.962385, 0.973416, 0.972569, 0.971725, 0.975462, 0.984836, 0.986632, 0.988748, 0.988065, 0.987325, 0.990547, 0.975473, 0.974624, 0.977049, 0.980238, 0.995331, 0.999225, 1.00742, 1.00957, 1.00152, 1.02501, 1.02578, 1.0223, 1.0221, 1.11578, 1.0569, 1.0598, 1.06071, 1.07543, 1.07712, 1.10639, 1.03047, 1.10848, 1.00032, 0.991644, 0.996754, 1.0019, 1.00961, 1.011, 0.995214, 0.999097, 1.00276, 1.00307, 1.00587, 1.00896, 1.00552, 1.00604, 0.984538, 0.983169, 0.979908, 0.971975, 0.973997, 0.976962, 0.970268, 0.969658, 0.971221, 0.972508, 0.982302, 0.988255
0.993809, 0.992673, 1.00337, 1.00404, 0.997622, 0.984782, 1.13868, 1.13986, 0.987251, 0.957947, 0.954846, 0.951436, 0.950732, 0.977326, 0.978063, 0.975452, 0.971614, 0.971521, 0.965091, 0.966462, 0.969715, 0.969998, 0.966568, 0.967424, 0.958543, 0.949453, 0.947333, 0.944817, 0.949952, 0.95278, 0.952218, 0.947571, 0.947177, 0.948172, 0.949517, 0.955844, 0.961148, 0.966284, 0.972043, 0.96912, 0.967508, 0.968449, 0.966645, 0.956146, 0.952518, 0.953964, 0.955272, 0.955382, 0.960193, 0.969917, 0.960793, 0.95569, 0.963008, 0.945819, 0.950435, 0.972144, 0.976752, 0.981723, 0.98867, 0.99747, 0.998323, 1.00575, 1.00777, 1.00856, 0.99761, 0.988347, 0.983422, 0.987213, 0.985079, 0.979293, 0.979993, 0.981692, 0.981168, 0.98356, 0.988916, 0.998093, 0.989429, 0.989902, 0.987738, 0.989292, 0.993635, 0.993312, 0.994379, 0.993745, 0.988646, 0.985936, 0.986154, 0.974188, 0.970127, 0.96387, 0.962553, 0.966097, 0.972436, 0.971804, 0.972195, 0.980702, 0.983496, 0.987298, 0.987627, 0.986481, 0.989809, 0.991582, 0.972349, 0.973596, 0.978611, 1.01214, 0.996942, 1.00263, 1.00707, 1.0104, 1.01239, 1.02487, 1.02532, 1.02906, 1.02312, 1.05066, 1.05381, 1.05849, 1.0735, 1.07314, 1.09019, 1.09036, 1.02602, 1.10216, 0.994048, 0.991871, 0.996438, 1.00488, 1.0109, 1.01179, 1.00165, 1.00081, 1.00269, 1.00093, 1.00892, 1.00987, 1.0065, 1.0018, 0.996111, 0.979919, 0.973894, 0.975735, 0.973505, 0.978033, 0.976111, 0.968284, 0.969585, 0.980052, 0.985474, 0.990589
0.991853, 0.993036, 1.00306, 1.00459, 0.992981, 0.984317, 1.08496, 0.956925, 0.973522, 0.960522, 0.958679, 0.952368, 0.95061, 0.95843, 0.977974, 0.977254, 0.974785, 0.970867, 0.965957, 0.962534, 0.963149, 0.956122, 0.95595, 0.958335, 0.956195, 0.951249, 0.949089, 0.948472, 0.954172, 0.954329, 0.951692, 0.949645, 0.949612, 0.949181, 0.941374, 0.957008, 0.96649, 0.967152, 0.972522, 0.969098, 0.968767, 0.969032, 0.952808, 0.951726, 0.952538, 0.955251, 0.954454, 0.955473, 0.966473, 0.96722, 0.960574, 0.957384, 0.964071, 0.945022, 0.952151, 1.00151, 0.97937, 0.986079, 0.997692, 0.996821, 0.996065, 1.0059, 1.00193, 0.997707, 0.988792, 0.982147, 0.978158, 0.985444, 0.979357, 0.979953, 0.980955, 0.987448, 0.983697, 0.983861, 0.997134, 1.00098, 0.990735, 0.987879, 0.987296, 0.987999, 0.993799, 0.994583, 0.994847, 0.987357, 0.987597, 0.990069, 0.989475, 0.977446, 0.968798, 0.964277, 0.964355, 0.975185, 0.97372, 0.97337, 0.97975, 0.98092, 0.982493, 0.982966, 0.983488, 0.990018, 0.989788, 0.989471, 0.9721, 0.973204, 1.2093, 0.997571, 1.00352, 1.01084, 1.01207, 1.00913, 1.01827, 1.01732, 1.03326, 1.03974, 1.03331, 1.05141, 1.06123, 1.07171, 1.07635, 1.08199, 1.0712, 1.09177, 1.04499, 1.0012, 0.99102, 0.992889, 1.00864, 1.00962, 1.01124, 1.0099, 1.00325, 1.00027, 1.00436, 1.0017, 1.01087, 1.00571, 1.00772, 1.00778, 1.00394, 0.978653, 0.976091, 0.976888, 0.975007, 0.974679, 0.970808, 0.969631, 0.972733, 0.982689, 0.984735, 0.988329
0.993662, 0.995996, 0.995735, 0.997017, 0.994481, 0.984796, 1.08396, 0.954733, 0.954492, 0.964234, 0.957085, 0.951322, 0.950828, 0.954135, 0.979999, 0.980023, 0.97558, 0.974971, 0.970117, 0.969924, 0.961033, 0.959708, 0.955819, 0.955915, 0.954321, 0.951197, 0.952278, 0.94939, 0.953234, 0.954696, 0.95353, 0.954407, 0.953636, 0.949718, 0.944687, 0.962937, 0.965817, 0.97311, 0.970549, 0.969957, 0.967825, 0.956457, 0.95164, 0.952411, 0.956148, 0.9547, 0.951726, 0.952207, 0.958911, 0.964679, 0.96044, 0.965, 0.971791, 0.94982, 0.954589, 1.03417, 0.9876, 0.98604, 0.996263, 0.999082, 0.996343, 0.996337, 1.00061, 0.993736, 0.985799, 0.980339, 0.9778, 0.977642, 0.977378, 0.98027, 0.979969, 0.985518, 0.981623, 0.982149, 0.999091, 0.998939, 0.986516, 0.987134, 0.987744, 0.988553, 0.990921, 0.991558, 0.988589, 0.988568, 0.987894, 0.991281, 0.986224, 0.975287, 0.966413, 0.966397, 0.970706, 0.976674, 0.983845, 0.988533, 0.982262, 0.98183, 0.982516, 0.976398, 0.983586, 0.988146, 0.984478, 0.988551, 0.974638, 0.979079, 0.995261, 1.00638, 1.00938, 1.0234, 1.01626, 1.0148, 1.01871, 1.01902, 1.03355, 1.03877, 1.03464, 1.05347, 1.0613, 1.06344, 1.08772, 1.08881, 1.08765, 1.05776, 1.07506, 0.995816, 0.993766, 0.994929, 1.00816, 1.00973, 1.011, 1.00454, 1.00212, 0.999507, 1.00157, 1.00202, 1.00111, 1.00432, 1.00824, 1.00886, 1.00513, 0.97855, 0.983897, 0.983393, 0.971584, 0.970357, 0.972646, 0.970615, 0.972545, 0.983865, 0.984505, 0.984867
0.996482, 0.99537, 0.996078, 0.99451, 0.991814, 0.984208, 0.980072, 0.953124, 0.954698, 0.963371, 0.955631, 0.945846, 0.946306, 0.954693, 0.959547, 0.978973, 0.978411, 0.976082, 0.970125, 0.968257, 0.966856, 0.959501, 0.958176, 0.957726, 0.957124, 0.952698, 0.950295, 0.953134, 0.955262, 0.955975, 0.957763, 0.957321, 0.953911, 0.952915, 0.948161, 0.963342, 0.970143, 0.972933, 0.962956, 0.960603, 0.959933, 0.95339, 0.951988, 0.953641, 0.95583, 0.953563, 0.952105, 0.951634, 0.957281, 0.960814, 0.962781, 0.971427, 0.972479, 0.953983, 0.954433, 0.98409, 0.985945, 0.986809, 0.99315, 0.998672, 0.996163, 0.995501, 0.99555, 0.985416, 0.983926, 0.980491, 0.975917, 0.974347, 0.973439, 0.981335, 0.978808, 0.978948, 0.97548, 0.981605, 0.999079, 0.985157, 0.985832, 0.989069, 0.98853, 0.988302, 0.989368, 0.991278, 0.987524, 0.989218, 0.989622, 0.990796, 0.975081, 0.966791, 0.966218, 0.970096, 0.973587, 0.975051, 0.979473, 0.987351, 0.98406, 0.984512, 0.974833, 0.976141, 0.982512, 0.987696, 0.975, 1.16483, 1.00512, 1.17324, 1.00478, 1.00941, 1.12043, 1.02434, 1.01977, 1.01797, 1.01786, 1.01831, 1.03852, 1.0404, 1.0357, 1.05415, 1.06031, 1.23612, 1.09424, 1.09614, 1.08667, 1.09211, 0.997707, 0.993933, 0.995649, 0.997612, 1.00657, 1.00144, 1.01001, 1.00204, 1.00017, 0.998483, 0.999128, 0.999124, 1.00028, 1.00518, 1.00654, 1.00624, 0.993213, 0.983676, 0.985488, 0.984788, 0.969403, 0.971021, 0.970821, 0.971429, 0.971094, 0.984365, 0.983672, 0.986656
0.997348, 0.997241, 0.992058, 0.992785, 0.988918, 0.985844, 0.976943, 0.953721, 0.952906, 0.961126, 0.955239, 0.955516, 0.945715, 0.949801, 0.960091, 0.980614, 0.977193, 0.976739, 0.973432, 0.971311, 0.966637, 0.961664, 0.960173, 0.962638, 0.960714, 0.961264, 0.952606, 0.953257, 0.956168, 0.956229, 0.961214, 0.958577, 0.95357, 0.954786, 0.958112, 0.961301, 0.971905, 0.971747, 0.963503, 0.960819, 0.958212, 0.956772, 0.954134, 0.957419, 0.956055, 0.955047, 0.953154, 0.951262, 0.950262, 0.959612, 0.959523, 0.967596, 0.967333, 0.964654, 0.962225, 1.03051, 0.984645, 0.992241, 0.996914, 0.997331, 0.995305, 0.994514, 0.989691, 0.984748, 0.981247, 0.980028, 0.976799, 0.972224, 0.970716, 0.97129, 0.979245, 0.973035, 0.972154, 0.984275, 0.986992, 0.984496, 0.983668, 0.990701, 0.990453, 0.990427, 0.992776, 0.990191, 0.986205, 0.990807, 0.991351, 0.985185, 0.96911, 0.968256, 0.96361, 0.973958, 0.973287, 0.975781, 0.983038, 0.986588, 0.988536, 0.989694, 0.986279, 0.976659, 0.978637, 0.980236, 0.972634, 1.00249, 1.00489, 1.11318, 1.00848, 1.01443, 1.02569, 1.03102, 1.02972, 1.02074, 1.01928, 1.02726, 1.03948, 1.04109, 1.04383, 1.03677, 1.10844, 1.3383, 1.11264, 1.09954, 1.1017, 1.07826, 0.993781, 0.991674, 0.992031, 0.998163, 0.994779, 0.993989, 1.01147, 1.01025, 1.00019, 0.996197, 0.999069, 0.99548, 0.999311, 1.00502, 1.00473, 1.0016, 0.986074, 0.98531, 0.979356, 0.979912, 0.968265, 0.969871, 0.969803, 0.966172, 0.96955, 0.97796, 0.984277, 0.98578
0.996682, 0.991437, 0.993942, 0.98989, 0.988779, 0.984918, 0.975626, 1.21532, 0.959719, 0.960244, 0.963522, 0.955713, 0.940391, 0.95727, 0.9629, 0.986059, 0.976708, 0.977165, 0.974686, 0.970549, 0.966508, 0.96781, 0.966898, 0.963109, 0.95602, 0.956819, 0.952892, 0.951473, 0.954119, 0.958955, 0.961459, 0.958345, 0.95804, 0.955979, 0.969094, 0.967309, 0.969933, 0.970127, 0.967773, 0.965578, 0.95962, 0.960015, 0.960024, 0.959433, 0.957436, 0.95718, 0.958267, 0.950782, 0.953576, 0.958482, 0.959053, 0.964834, 0.963646, 0.966512, 0.970285, 1.06065, 0.997552, 0.990843, 0.994422, 0.994408, 0.994644, 0.990996, 0.98746, 0.983804, 0.980236, 0.980053, 0.977028, 0.969223, 0.967205, 0.969626, 0.977216, 0.971095, 0.97174, 0.986825, 0.983875, 0.984614, 0.984959, 0.988184, 0.991076, 0.991798, 0.990662, 0.991242, 0.986989, 0.991584, 0.994219, 1.19506, 0.968429, 0.969435, 0.969492, 0.972937, 0.976416, 0.977593, 0.983437, 0.98613, 0.99114, 0.991644, 0.988366, 0.977244, 0.977482, 0.977495, 0.974618, 0.994631, 1.00932, 1.00829, 1.01246, 1.02818, 1.02907, 1.03887, 1.03527, 1.0205, 1.02067, 1.0283, 1.03093, 1.0453, 1.04329, 1.03726, 1.11879, 1.11244, 1.11165, 1.09819, 1.11634, 0.97319, 0.969424, 0.990574, 0.991959, 0.987682, 0.99277, 1.00044, 1.00958, 1.01153, 0.999233, 0.997437, 0.997648, 0.995105, 0.995177, 1.00429, 1.00285, 1.00051, 0.982572, 0.977146, 0.977054, 0.97734, 0.970484, 0.969628, 0.969328, 0.963657, 0.974387, 0.977658, 0.983978, 0.98322
0.98923, 0.990206, 0.982828, 0.987482, 0.987433, 0.985207, 0.975912, 0.970046, 0.958522, 0.959606, 0.969536, 0.930085, 0.929959, 0.95138, 0.965789, 0.983953, 0.978538, 0.976825, 0.975418, 0.969001, 0.967725, 0.968103, 0.966008, 0.964804, 0.95967, 0.959997, 0.958388, 0.957463, 0.95326, 0.955657, 0.962077, 0.958873, 0.958782, 0.969299, 0.969422, 0.969583, 0.971584, 0.972201, 0.968033, 0.967589, 0.966616, 0.964476, 0.971226, 0.969346, 0.961181, 0.967395, 0.969664, 0.952702, 0.953199, 0.955927, 0.960238, 0.960857, 0.960231, 0.968181, 0.971584, 1.04953, 1.00118, 1.00133, 1.05363, 0.988519, 0.990038, 0.986308, 0.983881, 0.982117, 0.982102, 0.98419, 0.974375, 0.966877, 0.967217, 0.968375, 0.970221, 0.971282, 0.988527, 0.988795, 0.984151, 0.984902, 0.985684, 0.986748, 0.98729, 0.986666, 0.987509, 0.989645, 0.987451, 0.991459, 0.995036, 0.976973, 0.973519, 0.972567, 0.973762, 0.967886, 0.97699, 0.980654, 0.981548, 0.989783, 0.994272, 0.993142, 0.993459, 0.993043, 0.976844, 0.978349, 0.988775, 1.06523, 1.02635, 1.02926, 1.01764, 1.02841, 1.03629, 1.04091, 1.03912, 1.02545, 1.02755, 1.03613, 1.0336, 1.0344, 1.04396, 1.0367, 1.1119, 1.11525, 1.20904, 0.00488439, 1.17058, 0.971378, 0.962987, 0.991017, 0.986724, 0.985722, 0.987657, 1.00316, 1.00625, 1.00825, 0.998776, 0.999641, 0.991284, 0.991117, 0.992632, 0.999686, 1.00426, 1.00177, 0.980819, 0.980019, 0.979292, 0.971067, 0.967734, 0.962396, 0.962915, 0.963376, 0.977336, 0.979673, 0.982169, 0.984174
0.987869, 0.986966, 0.981079, 0.982613, 0.9846, 0.985564, 0.978663, 0.97857, 0.956348, 0.956056, 1.0012, 0.942145, 0.931593, 0.963196, 0.9661, 0.983674, 0.982047, 0.975234, 0.974558, 0.969339, 0.969603, 0.968925, 0.96773, 0.968534, 0.960608, 0.959689, 0.959537, 0.959355, 0.953695, 0.969585, 0.959463, 0.960283, 0.959627, 0.969024, 0.971831, 0.972785, 0.97089, 0.976523, 0.974686, 0.972925, 0.970635, 0.972245, 0.973231, 0.974613, 0.971336, 0.977787, 0.978048, 0.953303, 0.952985, 0.957037, 0.958869, 0.956885, 0.962538, 0.970749, 0.978324, 1.00274, 1.00362, 1.00385, 1.09419, 0.987007, 0.987509, 0.982598, 0.983772, 0.983246, 0.983636, 0.977035, 0.970913, 0.968195, 0.967317, 0.964108, 0.96443, 0.973338, 0.987495, 0.985795, 0.986209, 0.98821, 0.98168, 0.989723, 0.983356, 0.985032, 0.987252, 0.984764, 0.985794, 0.992826, 0.997738, 0.999616, 0.980262, 0.97786, 0.973474, 0.973427, 0.977627, 0.981392, 0.987124, 0.995294, 0.997295, 0.995011, 1.00086, 1.03353, 0.984364, 0.998374, 1.00237, 1.17573, 1.01578, 1.02163, 1.02647, 1.03569, 1.03609, 1.05079, 1.04783, 1.03189, 1.04147, 1.04214, 1.03305, 1.03412, 1.06781, 1.03461, 1.11839, 1.1184, 1.13109, 0.974776, 0.979901, 0.964488, 0.961053, 0.961359, 0.985771, 0.987795, 0.988107, 1.00113, 1.00346, 1.00661, 1.00414, 0.993849, 0.987266, 0.987569, 0.98367, 0.992688, 0.987896, 0.983749, 0.983176, 0.982274, 0.980746, 0.983074, 0.9681, 0.960333, 0.961595, 0.96392, 0.97424, 0.981352, 0.983523, 0.985525
0.989776, 0.988022, 0.985203, 0.987891, 0.992489, 0.985994, 0.980031, 0.977965, 0.960073, 0.951205, 0.935756, 0.941374, 0.942155, 0.974441, 0.978465, 0.982593, 0.98357, 0.981136, 0.973706, 0.974064, 0.973968, 0.973318, 0.969009, 0.968896, 0.963985, 0.959799, 0.96039, 0.962309, 0.965268, 0.977184, 0.976972, 0.96165, 0.967498, 0.970557, 0.971748, 0.969998, 0.970752, 0.980572, 0.982304, 0.979897, 0.976562, 0.977029, 0.975643, 0.980794, 0.981291, 0.986335, 0.987618, 1.21034, 0.951249, 0.960319, 0.95697, 0.957542, 0.965895, 0.974549, 0.979288, 1.00475, 1.0019, 0.995786, 0.973265, 0.973488, 0.982516, 0.981912, 0.981993, 0.982409, 0.980342, 0.976489, 0.971586, 0.969467, 0.967552, 0.966116, 0.966374, 0.987016, 0.987269, 0.985726, 0.986796, 0.985006, 0.984613, 0.984139, 0.981432, 0.982787, 0.982185, 0.981302, 0.997597, 0.995621, 0.993907, 0.99179, 0.984691, 0.980439, 0.973699, 0.975324, 0.977533, 0.978956, 0.991712, 0.995613, 0.996554, 0.999766, 1.0084, 1.03904, 1.01465, 0.99552, 1.00304, 1.0191, 1.0197, 1.02641, 1.0299, 1.03373, 1.03775, 1.05241, 1.04495, 1.04393, 1.04605, 1.0429, 1.03259, 1.03476, 1.06822, 1.03245, 1.12244, 1.12038, 1.13176, 0.975786, 0.976792, 0.970004, 0.961158, 0.9646, 0.983589, 0.98604, 0.98784, 0.992102, 1.00119, 1.00573, 1.00523, 0.988061, 0.98535, 0.990267, 0.99088, 0.991044, 0.985044, 0.985906, 0.985021, 0.983205, 0.978652, 0.979976, 0.968025, 0.959699, 0.960838, 0.962998, 0.971014, 0.978639, 0.981358, 0.987367
0.988067, 0.985064, 0.985284, 0.988409, 0.990543, 0.987503, 0.985989, 0.976112, 0.972489, 0.950461, 0.943003, 0.942581, 0.941996, 0.971165, 0.980677, 0.982138, 0.986015, 0.978852, 0.974599, 0.975412, 0.975133, 0.976927, 0.971502, 0.96911, 0.964076, 0.962667, 0.962071, 0.964653, 0.968708, 0.980209, 0.981426, 0.970617, 0.966879, 0.970358, 0.968389, 0.968575, 0.971309, 0.981276, 0.982724, 0.985568, 0.991519, 0.978368, 0.975889, 0.974633, 0.989926, 0.987126, 0.98699, 0.959641, 0.960159, 0.961459, 0.961626, 0.963837, 0.967353, 0.975093, 0.995074, 0.997971, 0.998131, 0.996001, 0.974045, 0.971377, 0.980095, 0.980151, 0.981731, 0.982824, 0.977027, 0.976407, 0.97364, 0.966976, 0.960555, 0.960976, 0.973285, 0.987887, 0.987117, 0.987641, 0.986479, 0.985717, 0.985536, 0.983737, 0.984505, 0.983675, 0.978408, 0.983327, 0.997324, 0.997131, 0.990501, 0.989024, 0.987186, 0.977702, 0.976639, 0.977238, 0.979588, 0.983973, 0.988944, 0.996, 0.997607, 1.21412, 1.02352, 1.01648, 1.00944, 1.0075, 1.01147, 1.01991, 1.02883, 1.02872, 1.02901, 1.05246, 1.04655, 1.05717, 1.04911, 1.05228, 1.04489, 1.04492, 1.03602, 1.03363, 1.06728, 1.0702, 1.0284, 0.00477993, 1.07197, 0.97741, 0.969986, 0.971207, 0.965063, 0.982878, 0.98285, 0.981789, 0.987324, 0.993867, 1.00072, 1.01016, 1.00728, 0.985407, 0.984127, 0.988028, 0.991772, 0.993104, 0.985505, 0.987487, 0.987639, 0.983949, 0.982104, 0.978814, 0.97047, 0.961621, 0.963272, 0.964157, 0.96942, 0.972341, 0.980937, 0.995282
0.987038, 0.981527, 0.983122, 0.98603, 0.98695, 0.990901, 0.986684, 0.976996, 0.975847, 0.950114, 0.940215, 0.940923, 0.94819, 1.10219, 0.980457, 0.982823, 0.987152, 0.98432, 0.975456, 0.973497, 0.976774, 0.977345, 0.97055, 0.966992, 0.964724, 0.962303, 0.962861, 0.969117, 0.970656, 0.978782, 0.980321, 0.96749, 0.966399, 0.964365, 0.964305, 0.967349, 0.976432, 0.981378, 0.982077, 0.992552, 0.991633, 0.976683, 0.975031, 0.979141, 0.987952, 0.987686, 0.977603, 0.963775, 0.963391, 0.971284, 0.971463, 0.970472, 0.979528, 0.981442, 0.983939, 0.99884, 0.997066, 0.981598, 0.97711, 0.968631, 0.98037, 0.979895, 0.980123, 0.979656, 0.976294, 0.976732, 0.976427, 0.963483, 0.962872, 0.962875, 0.96817, 0.98094, 0.990584, 0.988884, 0.982397, 0.985846, 0.984302, 0.984913, 0.986459, 0.980736, 0.980001, 0.981847, 0.993924, 0.989531, 0.988431, 0.988816, 0.986134, 0.983849, 0.975571, 0.97807, 0.981399, 0.987382, 0.988187, 0.995779, 1.07463, 1.02751, 1.02816, 1.01039, 1.00976, 1.02247, 1.02904, 1.02731, 1.03193, 1.03037, 1.03578, 1.04553, 1.05521, 1.05832, 1.05009, 1.0521, 1.0463, 1.03893, 1.03257, 1.04111, 1.05856, 1.0571, 1.11209, 0.00438282, 1.07523, 0.975483, 0.971552, 0.985902, 0.986435, 0.983501, 0.985364, 0.985691, 0.989345, 0.996529, 1.00759, 1.01342, 1.21543, 0.990913, 0.985776, 0.993594, 0.99218, 0.989211, 0.988102, 0.990657, 0.985546, 0.98667, 0.986692, 0.98268, 0.970401, 0.970522, 0.970357, 0.970129, 0.970284, 0.970676, 0.98217, 0.987235
0.99419, 0.980879, 0.982501, 0.983666, 0.983775, 0.986734, 0.987271, 0.980679, 0.981726, 0.953229, 1.12676, 0.940804, 0.951771, 0.956812, 0.959708, 0.983537, 0.983389, 0.983358, 0.980574, 0.975211, 0.976436, 0.975703, 0.968396, 0.967032, 0.966273, 0.963771, 0.966889, 0.966608, 0.965074, 0.972605, 0.973272, 0.967188, 0.9568, 0.956799, 0.963609, 0.966498, 0.971539, 0.981281, 0.978318, 0.990521, 0.987911, 0.977892, 0.976538, 0.982374, 0.986695, 0.977725, 0.976663, 0.961773, 0.96144, 1.04732, 0.986552, 1.04758, 0.985027, 0.984215, 1.05839, 1.00095, 1.19774, 0.980285, 0.967811, 0.966042, 0.978024, 0.978064, 0.97836, 0.975692, 0.974365, 0.974606, 0.971853, 0.964421, 0.965183, 0.962987, 0.96435, 0.983136, 0.990045, 0.99051, 0.983301, 0.983224, 0.984455, 0.989925, 0.985549, 0.982484, 0.981167, 0.987017, 0.979475, 0.988466, 0.987867, 0.987461, 0.983877, 0.983252, 0.977728, 0.978486, 0.984491, 0.990828, 0.993635, 1.19957, 1.02779, 1.02838, 1.01105, 1.01095, 1.01194, 1.4448, 1.03146, 1.03012, 1.03105, 1.0326, 1.03557, 1.0444, 1.05286, 1.05874, 1.05386, 1.05311, 1.04622, 1.0465, 1.03879, 1.04362, 1.04587, 1.05422, 1.0048, 1.00474, 1.00984, 1.08626, 0.979695, 0.987329, 0.987206, 0.986385, 0.986033, 0.986719, 0.986977, 0.998387, 1.00585, 1.02222, 1.02303, 0.995764, 0.992648, 0.994501, 0.989642, 0.990495, 0.988878, 0.990428, 0.988905, 0.988383, 0.986863, 0.985603, 0.970624, 0.970502, 0.972379, 0.978691, 0.974146, 0.975253, 0.978577, 0.988281
0.99491, 1.08598, 0.981021, 0.983294, 0.981294, 0.987046, 0.984655, 0.984624, 0.984688, 0.978535, 0.978691, 1.14157, 1.10612, 0.958117, 0.958857, 0.978287, 0.982964, 0.983509, 0.982658, 0.972382, 0.974824, 0.97395, 0.970163, 0.966719, 0.966912, 0.967194, 0.968506, 0.962806, 0.966472, 0.966388, 0.966529, 0.963039, 0.956397, 0.955624, 0.964738, 0.967701, 0.979193, 0.980288, 0.9754, 0.98692, 0.986858, 0.978701, 0.977316, 0.982309, 0.983472, 0.974357, 0.968153, 0.963899, 0.975078, 0.992586, 0.994795, 0.996989, 0.992915, 1.06395, 1.00311, 1.00392, 0.979825, 0.968394, 0.965442, 0.966329, 0.966948, 0.976201, 0.977126, 0.977988, 0.976585, 0.970212, 0.971979, 0.964004, 0.968235, 0.964067, 0.960705, 0.987863, 0.985119, 0.980753, 0.976578, 0.983452, 0.986505, 0.988361, 0.983535, 0.986842, 0.9945, 0.987416, 0.980076, 0.986711, 0.985326, 0.98373, 0.981685, 0.98162, 0.978467, 0.982428, 0.995285, 0.994583, 1.38599, 1.0274, 1.02846, 1.03199, 1.01151, 1.01146, 1.01392, 1.03291, 1.03321, 1.03195, 1.03321, 1.03538, 1.03614, 1.04625, 1.05315, 1.0593, 1.05631, 1.04329, 1.04473, 1.0448, 1.04211, 1.0367, 1.03844, 1.11518, 1.00583, 1.00537, 0.991306, 0.990958, 0.985816, 0.98682, 0.98893, 0.987804, 0.987059, 0.985016, 0.984982, 1.00557, 1.00531, 1.02234, 1.02486, 0.997405, 0.993897, 0.991656, 0.991245, 0.99252, 0.990411, 0.989709, 0.990811, 0.988102, 0.983596, 0.973874, 0.972024, 0.973886, 0.989474, 0.986832, 0.983269, 0.976951, 0.979139, 0.988001
0.995748, 0.99137, 0.989849, 0.978644, 0.983406, 0.985694, 0.984922, 0.985481, 0.983469, 0.977457, 0.9779, 0.973939, 0.964474, 0.96325, 0.95905, 0.968219, 0.97355, 0.983856, 0.983246, 0.973433, 0.976418, 0.97627, 0.97247, 0.968814, 0.967507, 0.968097, 0.971542, 0.974416, 0.969791, 0.968277, 0.964711, 0.962547, 0.956759, 0.95747, 0.970044, 0.975966, 0.978301, 0.977808, 0.975467, 0.977504, 0.98222, 0.978877, 0.979073, 0.984012, 0.982314, 0.972116, 0.968419, 0.967212, 0.974527, 1.09042, 1.00436, 1.00296, 1.00185, 0.999615, 1.00419, 1.00445, 0.977945, 0.968123, 0.964175, 0.963948, 0.963456, 0.976999, 0.977793, 0.978227, 0.970828, 0.971804, 0.975161, 0.970572, 0.969918, 0.970004, 0.963197, 0.968996, 0.984255, 0.975246, 0.974486, 0.977389, 0.982003, 0.985122, 0.986984, 0.998356, 0.994706, 0.985026, 0.987336, 0.985573, 0.987454, 0.981649, 0.982088, 0.982615, 0.982492, 0.995158, 0.994242, 0.997504, 1.1931, 1.02668, 1.02749, 1.00973, 1.01157, 1.01599, 1.01915, 1.03271, 1.03268, 1.0329, 1.03508, 1.03591, 1.03314, 1.03359, 1.05408, 1.06008, 1.06065, 1.18218, 1.03675, 1.03726, 1.03478, 1.03397, 1.03731, 1.00839, 1.00821, 0.99581, 0.991123, 0.990549, 0.987447, 0.987316, 0.990832, 0.989295, 0.987969, 0.985656, 0.980316, 0.990212, 1.0074, 1.01607, 1.01191, 0.99448, 0.99319, 0.993577, 0.994199, 0.997268, 0.994568, 0.988794, 0.990281, 0.991415, 0.982041, 0.979239, 0.97528, 0.977789, 0.988779, 0.988107, 0.985025, 0.984926, 0.983011, 0.984573
0.996052, 0.993044, 0.992415, 0.986237, 0.985971, 0.984344, 0.985848, 0.986861, 0.975829, 0.976981, 0.973824, 0.973302, 0.971107, 0.96639, 0.963841, 0.963109, 0.961811, 0.984722, 0.984806, 0.974397, 0.97823, 0.975699, 0.97438, 0.969699, 0.970696, 0.975577, 0.97625, 0.974994, 0.971658, 0.968768, 0.966844, 0.966025, 0.957092, 0.957652, 0.971124, 0.978482, 0.978615, 0.978336, 0.974243, 0.974817, 0.983947, 0.984408, 0.983302, 0.986328, 0.981128, 0.976538, 0.968598, 0.970912, 0.97778, 1.00782, 1.00578, 1.00469, 1.00369, 0.999991, 1.00078, 0.987047, 0.98792, 0.971312, 0.965858, 0.96325, 0.964551, 0.964218, 0.975527, 0.974617, 0.97245, 0.975124, 0.978225, 0.970285, 0.969484, 0.971537, 0.968931, 0.969497, 0.972602, 0.973151, 0.974292, 0.984044, 0.980344, 0.980967, 0.997741, 0.998729, 0.98627, 0.986092, 0.987515, 0.986389, 0.988435, 0.984339, 0.983996, 0.985865, 0.991152, 0.994077, 0.997169, 1.00584, 1.02342, 1.02509, 1.01646, 1.00791, 1.01349, 1.01632, 1.02423, 1.03628, 1.03715, 1.03449, 1.03727, 1.03842, 1.02932, 1.11732, 1.08319, 1.04656, 1.04001, 1.02259, 1.02134, 1.0368, 1.03254, 1.02966, 1.02923, 1.00822, 1.0105, 0.988287, 0.989103, 0.990731, 0.990954, 0.988035, 0.989811, 0.988968, 0.99074, 0.97956, 0.981251, 0.988908, 1.00115, 1.21836, 0.995093, 0.994813, 0.995153, 1.00172, 1.0054, 1.00817, 0.998403, 0.987147, 0.989406, 0.992718, 0.98239, 0.975747, 0.977559, 0.990675, 0.98948, 0.986759, 0.988041, 0.989375, 0.985828, 0.987793
0.997669, 0.997697, 0.995064, 0.994165, 0.992708, 0.992656, 0.989395, 0.989716, 0.977365, 0.975121, 0.97367, 0.974097, 0.97063, 0.969026, 0.967478, 0.963474, 0.964434, 0.985161, 0.984309, 0.97566, 0.980635, 0.976331, 0.972165, 0.970204, 0.973876, 0.974809, 0.978318, 0.978477, 0.976159, 0.96706, 0.967633, 0.965785, 0.957986, 0.96782, 0.971878, 0.981937, 0.977246, 0.975494, 0.972509, 0.976427, 0.978038, 0.984314, 0.986104, 0.98555, 0.980041, 0.978875, 0.973601, 0.972931, 1.00777, 1.00622, 1.01081, 1.00522, 1.00499, 1.00356, 1.00415, 0.985844, 0.988696, 0.976149, 0.966128, 0.963787, 0.965715, 0.965206, 0.971935, 0.974577, 0.97441, 0.978623, 0.977055, 0.965408, 0.970043, 0.973836, 0.972375, 0.971337, 0.972094, 0.972281, 0.976961, 0.976822, 0.98217, 0.986309, 0.994799, 0.98812, 0.982554, 0.987484, 0.984479, 0.985511, 0.987328, 0.985763, 0.985931, 0.991804, 0.994952, 0.997778, 1.1591, 1.01999, 1.02274, 1.02359, 1.00845, 1.00787, 1.01579, 1.02334, 1.02535, 1.03693, 1.04227, 1.03614, 1.03675, 1.04, 1.03717, 1.01483, 1.04701, 1.04313, 1.03936, 1.02032, 1.02065, 1.03177, 1.02514, 1.02836, 1.01471, 1.0086, 0.986828, 0.986958, 0.991717, 0.991373, 0.989179, 0.991068, 0.990908, 0.989303, 0.990672, 0.981332, 0.982461, 0.995866, 0.997723, 0.998473, 0.997502, 0.997645, 0.998337, 0.999869, 1.01108, 1.01035, 1.004, 0.985094, 0.992, 0.993004, 0.9815, 0.979174, 0.979579, 0.987463, 0.980588, 0.982893, 0.989372, 0.991638, 0.989061, 0.990403
0.997938, 0.998426, 0.995511, 0.994378, 0.993006, 0.991747, 0.990524, 0.990468, 0.982239, 0.978999, 0.9738, 0.975031, 0.974671, 0.967538, 0.969545, 0.969309, 0.969937, 0.974078, 0.980942, 0.977412, 0.979216, 0.9742, 0.973358, 0.97255, 0.973736, 0.973566, 0.973966, 0.976675, 0.973244, 0.967539, 0.966661, 0.966556, 0.96095, 0.972015, 0.981139, 0.981985, 0.974463, 0.971761, 0.975788, 0.978194, 0.980934, 0.987409, 0.987274, 0.985377, 0.983003, 0.980211, 0.979213, 1.10721, 1.00967, 0.992323, 1.00989, 1.0073, 1.0069, 1.00647, 0.998559, 0.986283, 0.98968, 0.974588, 0.972849, 0.965546, 0.967285, 0.968258, 0.969104, 0.969366, 0.97846, 0.978755, 0.97848, 0.973566, 0.969684, 0.97306, 0.970197, 0.971217, 0.971023, 0.974959, 0.976979, 0.977437, 1.14985, 0.99837, 0.995722, 0.982179, 0.983016, 0.984256, 0.984972, 0.986852, 0.988225, 0.986186, 0.985561, 0.993798, 0.995685, 1.00454, 1.03354, 1.0212, 1.01975, 1.01251, 1.00836, 1.00808, 1.01975, 1.02411, 1.02415, 1.04397, 1.0463, 1.04613, 1.04618, 1.04064, 1.2438, 1.0096, 1.03664, 1.0355, 1.03113, 1.01978, 1.01862, 1.02813, 1.02272, 1.02089, 1.01911, 1.0018, 0.996347, 0.983057, 0.989485, 0.987936, 0.987714, 0.994408, 0.992604, 0.99066, 0.99324, 0.985904, 0.98309, 0.998199, 0.997985, 0.998653, 0.997817, 0.99942, 0.997826, 1.00108, 1.00866, 1.01095, 1.00574, 0.990373, 0.995147, 0.994369, 0.98506, 0.984529, 0.993662, 0.984477, 0.980389, 0.97791, 0.985533, 0.991622, 0.994, 0.994915
0.998719, 1.00064, 0.997402, 0.994351, 0.994157, 0.994279, 0.9961, 0.997293, 0.997077, 0.981655, 0.976632, 0.976292, 0.97748, 0.972194, 0.97028, 0.969412, 0.970858, 0.971834, 0.974441, 0.97751, 0.983495, 0.976128, 0.971139, 0.971507, 0.973591, 0.97345, 0.975388, 0.974413, 0.970783, 0.967252, 0.964394, 0.966896, 0.968824, 0.97507, 0.98322, 0.981733, 0.975405, 0.974369, 0.981809, 0.983654, 0.986063, 0.990538, 0.987449, 0.987345, 0.985865, 0.986042, 1.29324, 1.02604, 1.01217, 1.01505, 1.01329, 1.00614, 1.0079, 1.00751, 0.99703, 0.990656, 0.989543, 0.98222, 0.971938, 0.969844, 0.967966, 0.967615, 0.969988, 0.979586, 0.97973, 0.980697, 0.976354, 0.973959, 0.976104, 0.971799, 0.973307, 0.962815, 0.970903, 0.976476, 0.97214, 0.980201, 0.991424, 0.997686, 0.988499, 0.987105, 0.984855, 0.970651, 0.986282, 0.991596, 0.991744, 0.987858, 0.987401, 0.99256, 0.998149, 1.03933, 1.02756, 1.02085, 1.01823, 1.01574, 1.00995, 1.01238, 1.0213, 1.0252, 1.03635, 1.04763, 1.0524, 1.05282, 1.04786, 1.02656, 1.00532, 1.00517, 1.01594, 1.03787, 1.02251, 1.01514, 1.02257, 1.01712, 1.01863, 1.01502, 1.018, 1.00109, 0.995213, 0.991533, 0.989188, 0.989749, 0.992896, 0.99337, 0.992562, 0.991552, 0.993081, 0.988377, 0.983433, 0.999649, 0.998672, 0.999977, 1.00004, 0.994198, 0.996901, 1.00202, 1.00674, 1.00484, 1.00423, 0.992094, 0.995423, 0.997822, 1.00122, 0.993919, 0.994755, 0.985257, 0.979993, 0.981822, 0.984946, 0.991188, 0.998561, 0.992975
0.999174, 0.998477, 0.995906, 0.993841, 0.995648, 0.997784, 0.998812, 0.998994, 0.998841, 0.981293, 0.980171, 0.977431, 0.982414, 0.97425, 0.972845, 0.969309, 0.976762, 0.972376, 0.972039, 0.970022, 0.983035, 0.978487, 0.976776, 0.971491, 0.975633, 0.97427, 0.979505, 0.975316, 0.97405, 0.968881, 0.969207, 0.973005, 0.973272, 0.976031, 0.983683, 0.983138, 0.97768, 0.973961, 0.98245, 0.985114, 0.988764, 0.989671, 0.990244, 0.990753, 0.990535, 1.00156, 1.01586, 1.01131, 1.01792, 1.01842, 1.01493, 1.00577, 1.00072, 0.998302, 0.994283, 0.992085, 0.987385, 0.976375, 0.973033, 0.967417, 0.969269, 0.970667, 0.970204, 0.979093, 0.981399, 0.980022, 0.97609, 0.976488, 0.975393, 0.967658, 0.969849, 0.969774, 0.972316, 0.971415, 0.972079, 0.99138, 0.993424, 0.986658, 0.986032, 0.986227, 0.977879, 0.970962, 0.989239, 0.990859, 0.988315, 0.986371, 0.984879, 0.990912, 1.00052, 1.0606, 1.02977, 1.0172, 1.01831, 1.01655, 1.016, 1.01907, 1.0231, 1.02896, 1.04369, 1.05366, 1.05459, 1.05334, 1.14569, 1.00692, 1.00481, 1.00486, 1.0065, 1.0154, 1.00274, 1.00522, 1.01587, 1.0157, 1.01459, 1.01393, 1.00987, 0.998188, 0.997661, 0.990992, 0.989102, 0.993716, 0.993608, 0.991799, 0.991594, 0.991028, 0.991929, 1.21173, 1.00532, 1.00463, 0.999365, 0.998784, 0.999067, 0.991894, 0.997658, 1.0023, 1.00505, 1.00348, 1.00631, 0.996046, 0.996724, 1.00094, 1.00136, 0.994483, 0.994136, 0.982095, 0.98462, 0.981949, 0.984649, 0.983962, 0.997631, 0.99463
