0.655440629801647,0.663528428293723,0.66876176049555,0.669477497406101,0.68286555383194,0.682460645016477,0.681802524975002,0.680994778997794,0.656791073676614,0.655913833864149,0.662208239694277,0.662917479866434,0.663191666725623,0.676736479864084,0.674994175321033,0.717903233531784,0.718842669246709,0.737327273929642,0.740029454092101,0.739820923859819,0.73145138162795,0.725853976274547,0.749204648297393,0.757403433263948,0.840255943368322,0.861934843371672,0.85542986954974,0.849186459902547,0.891828248773821,0.868163038107388,0.874237336890798,0.877455626052916,0.874943847639777,0.874043388304521,0.902965099625256,0.928819332863104,0.930030925572302,0.92979074165128,0.92324288057229,0.872653439292329,0.872709220529754,0.920261948678894,0.920397418019001,1.02846801230885,0.980443897057159,1.05137736869021,0.998489789079684,0.971916106568436,0.933007628605439,0.946814920672567,0.946850409925872,0.946860723516747,0.904488012570253,0.906906857635532,0.907124822414715,0.905022462487899,0.912651712211587,0.911827181734498,0.919155099557069,0.970084844596331,0.996504873025075,0.942207449267958,0.912435359973064,0.900479285584732,0.900604664552052,0.883971529239395,0.868655912807864,0.853617765165207,0.867440198360655,0.886475042336726,0.891911189267509,0.892645730634957,0.92655517025764,0.907617201231684,0.903991288087136,0.899205290453131,0.879299643698013,0.86253973340862,0.844904844699609,0.845589961872221,0.8230603193889,0.817393462696283,0.852134560112417,0.836934042365047,0.854728970345931,0.875972213287217,0.876488421503473,0.875966761501249,0.903774427246059,0.870845943552457,0.906392745533836,0.831680933803424,0.785181099536383,0.765326013802618,0.751656257166342,0.74697155230125,0.745426478986048,0.743303013886581,0.756901100213697,0.745310636213694,0.732786209896322,0.676383865327564,0.660822927094668,0.644294561830007,0.627334863020962,0.618927676854485,0.620272609250659,0.615057510968484,0.610157430907069,0.612058260162486,0.599677627834923,0.605899488999926,0.587567392450047,0.57267378757608,0.591787943310162,0.585191966160056,0.591141512120387,0.594308264463414,0.621909575612134,0.647390390544041,0.653525111353698,0.655303429398182,0.657496784218085,0.659588996677778,0.661124650957437,0.661853932717541,0.661857058310012,0.662839417641008,0.662270618050773,0.661486163733454,0.672418732371442,0.674000473008953,0.68244103473573,0.6828406679237,0.749230846904398,0.702754752848566,0.703141046069179,0.702960835960328,0.702512255975638,0.702152688618165,0.701416493232657,0.727737461536735,0.671579563095704,0.672397969696153,0.672244271611031,0.674525095576344,0.674559638252551,0.674810694974913,0.673131305696742,0.672408419909085,0.672317611247141,0.679278258776035,0.678435605544422,0.677520838070089,0.678194918594733,0.678931975398236,0.679499107756868,0.679989435880574,0.68087541151016,0.680685053706655,0.679165115115986,0.676324809810469,0.680677947525983,0.681765934128886,0.681768187122676,0.680750506900298,0.679587596602081
0.663690578170761,0.66449832690947,0.666288711945294,0.670218083791694,0.683266675479308,0.681571848882373,0.680566621286136,0.678525559630555,0.658003034026679,0.658024261758387,0.660065080526407,0.663368012714489,0.668133552964728,0.674929343285777,0.67492415896245,0.718701361071688,0.720207752996292,0.731785370791759,0.742937728790992,0.746681423804263,0.75026475302025,0.751374372062016,0.758695571444811,0.762542036527489,0.839529113517856,0.866536642674798,0.867569918959243,0.869586846196491,0.875795163534559,0.871189395941388,0.876425818052305,0.876669786906692,0.87578809699949,0.898735003154776,0.912142384487576,0.929684754918927,0.93084288781308,0.931143825585086,0.927576860143361,0.911633943708777,0.904439521453533,0.92799093851882,0.932925837688004,0.963105238238189,0.981995617548072,0.98219063823448,0.979563216271696,0.96657360732608,0.955134362783851,0.944489664538802,0.940478515915515,0.938119064150616,0.903501614093062,0.905352155728774,0.906086589573099,0.905004235593098,0.911581276281626,0.914949435708114,0.91849209387322,0.952632249299831,0.941194277888408,0.927920580765187,0.920422871324791,0.907139657295718,0.88851175924179,0.868105765055111,0.86314320188201,0.860714130949451,0.868289003200561,0.891618298979585,0.892652389404331,0.898378784528163,0.912838332137996,0.907032484088969,0.904359820197375,0.878721345796617,0.875922335495952,0.865499175000013,0.847305232644142,0.848393401606413,0.851013338162889,0.851773230567041,0.852066027890017,0.857640981089469,0.860517955686895,0.8768512230227,0.877620086109456,0.878108458552596,0.884410650060998,0.887496856991877,0.889052073255884,0.823654047062459,0.786639674074298,0.776742735866339,0.772622859547423,0.767373535679047,0.762114732611774,0.757958321750097,0.757442328805389,0.750253370468979,0.739620909356853,0.679938913469685,0.671652766881735,0.645846095129129,0.628438448194608,0.619854927504746,0.620320295574188,0.61326056175212,0.614750665181125,0.612460736346169,0.600954943341464,0.596689201298402,0.587769045231252,0.586397724971271,0.586239286553233,0.587170260721312,0.589944909680493,0.590983770272044,0.605991227604006,0.620402536796924,0.6553545405669,0.656243389164594,0.657690215098486,0.659048514681655,0.660441543153937,0.6614118948183,0.66236519320644,0.662482111389225,0.661884287875239,0.668473562612981,0.672732143260627,0.673254445298764,0.677491047656453,0.708473627102735,0.721223794951659,0.703956900785233,0.703596974209685,0.702923322312939,0.701281638926098,0.701197517041838,0.701431065980446,0.684076314801087,0.672188901723032,0.671927043721005,0.672495218097879,0.673062817630003,0.673405241934226,0.673518917385915,0.673023564323497,0.672677671560369,0.672495590555603,0.673854314276076,0.676289278011297,0.677051249174513,0.677670034906775,0.678298542186483,0.679077827029367,0.679663427252035,0.680811545345726,0.681615710809071,0.681926015255249,0.678099803001987,0.679570619974748,0.67835739057853,0.677778621908342,0.678583157989573,0.67880795674045
0.662779037822412,0.745427952331211,0.664040364484443,0.696475449152286,0.694283768650953,0.678424078776232,0.679374813211821,0.677536732339833,0.657809074339535,0.646342657699252,0.646825102018923,0.662860979321206,0.674150323814615,0.673859456489273,0.674929537368681,0.726259774488316,0.724076782597136,0.725574820066339,0.757999183636598,0.759138206199417,0.765313614459078,0.755957283343531,0.78927315561168,0.769536852512367,0.838586239564446,0.922535735675392,0.89721239419943,0.922930930073095,1.07708135331996,0.864353891818578,1.00317400166109,1.01612759607824,0.875556402889819,0.918937613740911,0.936025729396049,0.928517501887951,0.930262312094009,0.91576923536508,1.03539480554035,1.03548544875754,0.870199612958602,0.950174591013598,0.948205340129923,0.933411725654267,0.983717720458389,0.983408235906495,0.978436040558373,0.947398988408918,1.06603621070756,0.939287765354419,0.935786412386772,0.936193512929221,0.875782322133802,0.918809290672873,0.919106764488758,0.894782166441479,0.910974868765671,0.935723066519328,0.917012849084821,1.0712188699493,0.915032122261517,0.924782984581419,0.925695484266986,0.911829105519952,0.883021438830519,0.857019540270247,0.860420394856963,0.856585844658298,0.870626988618557,0.895297512478747,0.914591461167557,0.956107894322008,0.92328342157027,0.907469577073755,0.906736565311518,0.868441956114142,0.872923259140821,0.868672479627851,0.830915721557588,0.829709313501406,0.851347282245522,0.851405134683896,0.851285283108113,0.863687807741689,0.86754017637022,0.878046565034697,0.879144227174149,0.879455168777677,0.881336474523008,0.891547142835352,0.889760273099579,0.813552381600794,0.788608821001312,0.785113110473383,0.776653410514159,0.769432858154644,0.763450286438057,0.757537408612968,0.790048185384756,0.764660952926771,0.743616745030379,0.682297460315018,0.682174496626889,0.647278593121703,0.626713108047105,0.621350265809909,0.621171871404818,0.610866319174093,0.616958035248918,0.617392209449308,0.601963772221417,0.585046556578282,0.558287782355465,0.585127474931196,0.584532471483584,0.572638268396396,0.573159384791311,0.574099124354281,0.56644093263193,0.592105134046582,0.655731687736067,0.656175316457286,0.657202243792681,0.658660108564578,0.659947006738736,0.66169731863593,0.662856126602089,0.663872622139985,0.663383455898189,0.671648097724024,0.672236485503638,0.673368084249835,0.673583232467622,0.798485428735972,0.953993196328763,0.696364483004249,0.696209540106625,0.695776959961288,0.699111971709884,0.70001700943439,0.70179725817845,0.66723023797398,0.668945694100458,0.670442346955543,0.672080800567801,0.671989552957293,0.672551008347231,0.672855222277602,0.673206278187893,0.672287083504824,0.672175131883583,0.670919996319386,0.675959213565837,0.676597188220143,0.677706741498768,0.677958301517179,0.679065361211448,0.67799724748,0.68322590230256,0.683212125099604,0.683349269706452,0.672123565206856,0.672274421282177,0.671981734914119,0.67624086550565,0.677134652030672,0.678522092604439
0.66034446893269,0.659899155484123,0.693383707450376,0.70466549980545,0.704006133293493,0.670449399983949,0.66779333661272,0.654409612733221,0.669227625926222,0.662937272927045,0.663891503104881,0.661101252307375,0.66092014997848,0.672820464655396,0.711346693772945,0.718456814365998,0.723845679849623,0.756116754450215,0.787895237139325,0.789971600973039,0.788207473846528,0.779629798254579,0.804661888895068,0.830105249773625,0.850784967520015,0.879923336691667,0.885047849106622,0.911338279479873,0.848506194635879,0.858238408403237,0.860213797087413,0.870025013592311,0.886005771132783,0.886367394656305,0.990460659300508,0.991177166145697,1.003747824968,1.02114260428107,0.906582529939046,0.907600585274184,0.909528065675685,0.952793758373232,0.970211756223944,0.943486369168401,1.00317376091502,1.00881559932593,0.968193091843681,0.961392937516291,0.961308705886011,0.987987424842597,0.973564013279347,1.06658007001071,0.877572665108931,0.891676424966756,0.877932447855928,0.934108107331894,0.910514010656876,0.908517096155198,0.90837749451892,0.920847473255212,0.914445032627968,0.912269497742614,0.945748529577508,0.909356247918665,0.880992366458556,0.867303285769315,0.863411603218667,0.858580432315856,0.900144006424496,0.863893709849046,0.949582306879312,0.932536397935462,0.92651549496909,0.926171064286726,0.911610762707704,0.884853630228634,0.878383359872241,0.886347388470202,0.86026925054931,0.862593632305701,0.86575691609869,0.842816528279976,0.874460739598201,0.871581203902679,0.933003926557642,0.933286538150331,0.87770171150672,0.863819682237854,0.874800390833055,0.874537432045055,0.837917929580244,0.838637872773145,0.802265280061934,0.787201917977383,0.795478689620549,0.795502519502094,0.802553814024425,0.80751960094227,0.788531679467785,0.779032174222484,0.77598958731461,0.752259484740882,0.679998787401891,0.648830524118953,0.641003591065451,0.641337888914512,0.626639197994808,0.625785611912623,0.624374477842561,0.622917711543299,0.593112709663039,0.601194036189382,0.558765873131497,0.579923292698119,0.563746346660466,0.563931931254476,0.570837379700988,0.567941815762205,0.566505392909728,0.586111317467364,0.59644830523647,0.651637782695752,0.65222094060028,0.65794789367501,0.658838314334916,0.662670243555835,0.666392901252998,0.670452327043664,0.671032246661806,0.67188381284305,0.673376733016709,0.673515496572872,0.674290301024376,0.675088251275156,0.679750515850549,0.684776995051416,0.688492666076886,0.807631060335328,0.66245202734715,0.659767562442418,0.658878640516016,0.663914023428493,0.668886496770041,0.670145735614153,0.670482562208186,0.671178589980188,0.67170394756515,0.671884704430672,0.672501426923935,0.671741718534521,0.66993922144402,0.669054523465095,0.675338382544585,0.676660507547179,0.69124176525628,0.691584209582214,0.690607740001503,0.689087043856607,0.687650709105514,0.683129961797282,0.676670659519624,0.670629293502317,0.669675063352567,0.674538890710196,0.675012879978157,0.676757527289695,0.680628561336983
0.689560329324184,0.679493975570434,0.685075109130906,0.685660660228986,0.67677345863779,0.667915467422588,0.66848806465777,0.665581859101335,0.67440471145042,0.67501313632541,0.661886408323176,0.680074271593953,0.671401266661867,0.704583412709275,0.709798495303643,0.72366614048678,0.723551076537964,0.723222850031669,0.812863789817218,0.807667293970787,0.81051087296777,0.811234729964441,0.831030565980306,0.867583816324394,0.908636812574839,0.842984828049522,0.873963577503528,0.918101549098947,0.843822730563462,0.852283729197459,0.957347452284225,0.951923503013951,0.884927566067656,0.942332215452361,1.04122409193167,1.0333432085243,1.00573758996406,1.00907636905331,0.945643856991371,0.939053290436333,0.908375967419338,0.974687993348095,0.880321340421553,0.909142488386005,0.977535670411837,0.950599291275087,0.953890177774446,0.95442501846819,0.954192481308094,0.956124992182308,0.95167544292402,0.944321965364791,0.87790724771254,0.91933620832505,0.88693170350368,0.886667647335458,0.903164455781294,0.902143258477418,0.923997886205396,0.914365739026665,0.914645245139086,0.902389480947766,0.920218825033564,0.942150138792093,0.938225896631428,0.914155442683027,0.895927341273216,0.877845694719784,0.87830958964501,0.894407827375793,0.894679664888691,0.920233981898131,0.934841932994478,0.92811722311041,0.909600994466622,0.941297709933183,0.877548466501155,0.868085436451273,0.864303688217058,0.869092868965028,0.850777851041263,0.859641974576788,0.850626067434987,0.850187349587124,0.860427310347496,0.860568910641386,0.875209639286889,0.871269120650643,0.867997102352287,0.866883295160091,0.885949091100012,0.82795028372466,0.801054858871972,0.801445116333064,0.809736295144881,0.806734914277769,0.811817171175202,0.817551902442976,0.817566260162825,0.812907537928734,0.739599164768393,0.762654449559853,0.710640013902752,0.671988841331913,0.664356307264931,0.629697516771842,0.627831114811765,0.626626642952033,0.639971758375482,0.636101841565508,0.625001874204393,0.585735382330849,0.558575872356075,0.599760596652256,0.582580366555381,0.590936806449711,0.590498809694169,0.596705001920221,0.585829088442219,0.623258236519686,0.634751974037081,0.646729299523464,0.650270484749667,0.658927595992756,0.663547770390428,0.669144201433239,0.669990384050535,0.670208385145208,0.671000946726711,0.671543105769598,0.674668611519989,0.673967456071843,0.673348447056963,0.673880988868061,0.672334618448172,0.670948075925635,0.670456075108418,0.670556572251153,0.661886226896067,0.661297492425312,0.65881514363068,0.658820968290881,0.666673373331517,0.667833952517301,0.669845907590577,0.671186533361846,0.67154959019876,0.670808888806947,0.671406862185854,0.670621821425719,0.67238955337033,0.674898690961963,0.674966996264612,0.685875123284451,0.69097429151526,0.692627972240842,0.692893395531496,0.69299953455486,0.691968909856033,0.677106554869631,0.676780981243783,0.676400862653506,0.677302298697346,0.675568254655841,0.68575695666029,0.687737587727294,0.689100638885828
0.703870503878406,0.702412728084992,0.702902195655642,0.682140203852982,0.674782017974524,0.675704368072062,0.677664312548083,0.687889184356918,0.676496651250363,0.683549307647839,0.683208509863004,0.693535280642343,0.677540893348136,0.709055607627508,0.707544821117219,0.73402588805863,0.756747429511515,0.83694226007042,0.823294844719069,0.850886225669565,0.820711082651252,0.869436125585461,0.853068333232943,0.868366000300066,0.84574975098651,0.844869711209362,0.851605382172298,0.83616249651425,0.843201765345269,0.859813347724963,0.979104482799853,0.978987186887203,0.912309863662394,0.885367489444437,0.885058270177331,0.992518399418567,0.985638442529726,0.964852596400687,0.950393322480939,0.924725955321394,0.93099402972098,1.06722790241592,0.880183652843522,0.885155849092054,0.938257354980277,0.926241102154149,0.946935424548339,0.996606273623632,0.974339144264719,0.972853358079901,0.964449561218698,0.928575503801888,0.930864997269904,0.880416772994034,0.881044651136946,0.908541085946298,0.904405304662118,0.903386420783162,0.915139941465221,0.915226890599276,0.916004862675009,0.942988205553636,0.895960838307439,0.8959768579856,0.95101700357212,0.93222328116822,0.925361312103064,0.935635173339832,0.934958123202774,0.911905196342872,0.923659752877097,0.883587364287481,0.897282435010755,0.898146429787703,0.898108583687776,0.911065065992273,0.875694148667112,0.871502968478776,0.853493553245868,0.920665830410839,0.83965625058005,0.845027036121603,0.845277135261664,0.870005958234813,0.870832360022003,0.869621497487062,0.876903911434755,0.88481985183722,0.866307509608554,0.850653038509587,0.844695592350733,0.833711945278619,0.828225492077974,0.800429578573907,0.790692694206913,0.791031071490944,0.817150110530639,0.848068360041606,0.837098819750253,0.84561283291836,0.806804437508571,0.753176535901684,0.727485198289768,0.70878894599108,0.683704097469007,0.646421274015659,0.645495458921288,0.644994157889307,0.64462858304576,0.643873279360306,0.626542660764151,0.615794896609736,0.595777687184805,0.59856117862863,0.598505593492179,0.589877910500797,0.59204151077661,0.594213291511559,0.606827507168909,0.621539201663425,0.620916576468194,0.620434066720682,0.622811302509296,0.617280935237392,0.670828201182289,0.670875932562602,0.671026561856856,0.671581184845941,0.672121632375859,0.67220184625481,0.676978892091628,0.678544922547934,0.678993919397389,0.674805992860823,0.670615051241904,0.670428321828363,0.669853804066087,0.664229064658029,0.663274361907704,0.663339593727589,0.666071637657686,0.667387232267871,0.666123928709961,0.667656225001497,0.674881084003592,0.673647004076995,0.672309941327976,0.671313291237703,0.670601552619212,0.671073807272629,0.677758501410428,0.676999115228794,0.678620970612564,0.67861954887526,0.687106566158746,0.694974976449099,0.694786253102109,0.694919066046759,0.694538367846857,0.678517915431247,0.676526979082529,0.678343444123611,0.696191119840624,0.696451515358584,0.696788261286275,0.688737080998026,0.690948340966876
0.69891385438599,0.695007030022832,0.692567336913191,0.679056218713253,0.674948938944528,0.676958179196613,0.677694917593167,0.681449175774608,0.685032801696601,0.685106848107112,0.684532882371548,0.688437858132559,0.702739969161263,0.714189842054194,0.716871390715907,0.737850309196042,0.775339622993653,0.836645645272058,0.840075278674599,0.854608392760893,0.856197911386601,0.867120177294426,0.86654068917137,0.868585744089212,0.858857440607269,0.85518684800742,0.852827828096943,0.848956642811982,0.849267694204224,0.858866471049404,0.908421425841883,0.962248461392058,0.947154111678445,0.935619515606614,0.92583047946953,0.962753863182077,0.961703834864864,0.962470806649188,0.950617466391763,0.939503880289439,0.935035781603136,0.913599004529599,0.896622419197257,0.896770988426035,0.937774665909496,0.937739670674097,0.938787543046432,0.937728050100198,0.934793305635233,0.933666194469789,0.932600416533397,0.932117614315341,0.925496535770843,0.908560003709026,0.89509758789412,0.912063240206568,0.914745945541735,0.914336519403795,0.914965704968091,0.915722617244209,0.917171273740359,0.937680504000118,0.936072725517177,0.933843708428985,0.931880488758787,0.926088263762727,0.922909723069305,0.920727245145427,0.917950638467941,0.903238661474771,0.894286559709408,0.889386169925484,0.893290502677157,0.896340783918489,0.886533111813512,0.874578359931026,0.87059772075047,0.869870541929848,0.853334876584649,0.852506255622722,0.841049008603677,0.843969607785989,0.861714504435861,0.871780983905106,0.87356482072172,0.876874292650913,0.876849657056485,0.880175770056314,0.871780595436053,0.855041264910459,0.850723359745511,0.843941738489013,0.835785801754641,0.8180585405642,0.817704756467367,0.817990515474832,0.819664482553296,0.845273526087755,0.838269472330785,0.837102578940828,0.798008833253115,0.767957821369584,0.72611002223563,0.706580653123171,0.687433023768692,0.663926086152373,0.660160082293296,0.656513989795476,0.653063862574932,0.649049015479133,0.631942323044574,0.619590137300434,0.598955859586821,0.595842278910235,0.595642424391216,0.594911632587641,0.593831016881432,0.59410952967056,0.605302793522265,0.62142370339502,0.62136669831631,0.621664227929886,0.62195626682477,0.620451527636934,0.671989041606192,0.672131705624154,0.672366802428601,0.672742985729325,0.67314822298731,0.673875884751136,0.675797379979603,0.67741847625733,0.677354718348018,0.676159859358306,0.668865185032484,0.668253074036784,0.667198634934644,0.664467120738292,0.663839449409518,0.664477189937137,0.666119291716137,0.667843990548426,0.671366427695818,0.672729844901804,0.673631702160377,0.673609891367503,0.67276116169755,0.672148595968034,0.672070226728961,0.672434082983844,0.676698083598516,0.677062419908672,0.677870653901109,0.67849752699402,0.685780983638856,0.694369709539713,0.694838409151594,0.694669056068821,0.694045782760662,0.688676371910471,0.688679940154797,0.69136681490062,0.695726649760533,0.695861397739518,0.696077988114198,0.691718906444339,0.692054153648168
0.696461363224519,0.689525582201004,0.684552352340849,0.661999975474911,0.674627549011896,0.677701449019916,0.678626042018126,0.679577517611288,0.686947768659785,0.688324727203717,0.685512810593396,0.678465479433904,0.715515887235259,0.719422937450744,0.724365113248606,0.742040090330123,0.794774402538574,0.836295794383796,0.892349801637321,0.890313057876775,0.858195831498657,0.875090838355659,0.904491270276251,0.87539494147895,0.922939211707849,0.923239299696405,0.876727169120735,0.847867648354019,0.848277365098131,0.85981634325159,0.858864588277026,0.993463328149912,0.98592811214801,0.98577153153948,0.891995945179458,0.966730157706528,0.962725274554519,0.983131748418171,0.950838715867967,0.942015187661333,0.941860709290392,0.88578112008681,0.894154503503156,0.894932901481467,0.958438065238723,0.945035653195796,0.941274841059411,0.940847075145427,0.929118606605598,0.920795274770171,0.921123172216587,0.963670181227321,0.917682123333393,0.941950148987405,0.880488605926795,0.925676983656662,0.917740401915471,0.914506349186039,0.961171818753153,0.923530348472052,0.917451298470022,0.94419336711249,0.945025440288127,0.932239667821291,0.928349776581473,0.894200486905006,0.910346072574875,0.912397425367436,0.913832840939763,0.876048711129317,0.876470324189889,0.881256646969402,0.883199891425247,0.911376131664444,0.86635324502706,0.865400126871909,0.868166037166744,0.866016828121977,0.85286986400686,0.85140390527619,0.839742795370813,0.838338491433376,0.906318279828655,0.904591027044472,0.898518349706667,0.884175679607312,0.885716335723453,0.905298403183062,0.87630654829962,0.858712130097252,0.859268029370868,0.861131618193101,0.861352922032749,0.818505281110636,0.816866749091698,0.817752852055206,0.822066801174257,0.873930413985495,0.840978885306375,0.833045185050102,0.788209841695399,0.779229666834271,0.72504038807806,0.704399119970251,0.691041320596399,0.668474657153618,0.677479694910596,0.687157151016806,0.659393080269119,0.658518207089827,0.637539191904203,0.623065179814892,0.603532375692914,0.594121287687297,0.592654642271236,0.594087093159983,0.593632364266739,0.593311999446537,0.604042389217025,0.621680821883058,0.621257713007043,0.621435693158347,0.613088001951214,0.611965765422255,0.672975191791549,0.673032073917402,0.673369155413651,0.673809532510994,0.674217746187539,0.674703293148718,0.674844527234017,0.677858534354934,0.682906375978361,0.682994914914273,0.668433048224552,0.667105690588058,0.66756484267062,0.662616365369933,0.663648709638973,0.664407050280894,0.665984101980845,0.672563862277431,0.672938565097118,0.672897487581629,0.674867946225841,0.673706715601133,0.67328268080817,0.672615122899146,0.672029842320599,0.673791753645096,0.675789441203533,0.677651832497489,0.678234365365391,0.678815766572619,0.684155213821241,0.693170221595476,0.694127737965564,0.693529762247293,0.693169893583302,0.686875238568332,0.687248461889977,0.692082819224959,0.697124183324262,0.696150711057771,0.695848950973098,0.691494218212115,0.691971845347797
0.696765857134051,0.692647548807466,0.69109343576805,0.662863534362942,0.670904068401132,0.688900305980009,0.678849093071148,0.68068711033172,0.678987519670478,0.678921033591404,0.688404793524388,0.715574262469156,0.734527662262565,0.733245851330209,0.770981226219491,0.770125887104482,0.816378304087672,0.891790703326298,0.868703915951919,0.868837403082604,0.863796919245404,0.855960883205579,0.895830638289627,0.896067705483674,0.865121266298039,0.918858244510663,0.880067612919255,0.878430037755998,0.873323820373656,0.855385454405402,0.85390198396173,0.853436730333375,1.05434323568994,0.961499300126621,0.893380651617315,0.961514644957517,0.96144529926169,0.932845407509813,0.935438901659095,0.927470791385521,0.92739383014195,0.892984015311089,0.892726410010341,0.902923628686489,0.945724517182351,0.955309633760614,0.939921536229755,0.94029385700282,0.941932450677384,0.930806284518071,0.922206772326199,0.963088980419933,0.927166147576064,0.909328226820288,0.988756509246268,0.973183051837644,0.919074567887041,0.914490935120115,0.923670371864603,0.923445565580134,0.939582607607655,0.956745442956454,0.937574550088812,0.918378510888715,0.898205328567734,0.899373430301829,0.909835839301613,0.913827002519853,0.947819400275118,0.879136399710087,0.878683872515903,0.927568757337891,0.87672133780664,0.894296622606353,0.892429818044954,0.922442316347939,0.873875041349741,0.873345539233449,0.873817601600849,0.926152401141008,0.84148954101125,0.842750572681919,1.01980816994024,0.871163316234566,0.905654660849998,0.888883944365502,0.886222192942389,0.917013256771451,0.887807850925984,0.865555641105456,0.856431073763765,0.861462838511607,0.8680653990473,0.818385662265987,0.918785469153815,0.886715465545404,0.832417233432865,0.832467251038411,0.825877918458232,0.819163648276768,0.805298602663052,0.790709195834627,0.756448112114244,0.716091275708049,0.714899284777011,0.707954036699341,0.695800425527276,0.684060906689315,0.685261319570688,0.685578533387062,0.652191036471686,0.620473354772848,0.609849302779793,0.608078139148225,0.607776754762939,0.620213397869696,0.618467724320514,0.616944295835956,0.60805464569557,0.612088450923671,0.616101920742017,0.615069247525914,0.61455331627229,0.61616645643069,0.673498721300859,0.673814231230691,0.674124207447148,0.674970088220416,0.675308549557148,0.674815712988898,0.674486100365914,0.684195077781025,0.683892974270059,0.683977685975581,0.675039920228299,0.667896325910555,0.667790734872001,0.668464755028424,0.667694916741562,0.673445507528012,0.67323965171257,0.674442781706996,0.671642041518651,0.673550871072485,0.672148131360432,0.674020585655639,0.673435964679232,0.672021015772899,0.671872849993436,0.673445780579041,0.67278456226661,0.677630467276077,0.67844422562852,0.679080371784016,0.77880400937907,0.692027067834084,0.693422538222339,0.693297255888595,0.693145726034895,0.688912805056163,0.68851941366197,0.690898023965901,0.690738660896981,0.691817636271396,0.692523353778127,0.69270931967654,0.692232256761021
0.693963472868142,0.678012983900344,0.665455919011587,0.656876660588313,0.657007104157224,0.679844020932562,0.679609805603969,0.679594605064804,0.694892640466722,0.707050987234749,0.733260499023933,0.748963034337731,0.756727763757047,0.764815610008012,0.776050678397621,0.862801785403841,0.864253454766473,0.90014683516229,0.900278700416261,0.872183804028125,0.921760784819726,0.886754460640679,0.878758013021819,0.892365853276958,0.899266511510261,0.891693494202801,0.890821331755568,0.891539181887822,0.883888185738402,0.87608742230999,0.876789277186161,0.876532292184099,0.889194501753829,0.89383525494145,0.8955233768389,0.963331139831397,0.963100334098443,0.965842983332945,0.925727533474347,0.926678408663798,0.890379037675929,0.890882558642879,0.880025977290441,0.893612569121327,0.963131529290533,0.95381928177498,0.938987636400424,0.939883248956539,0.947352241959084,0.929761920063571,0.937109560946125,0.929839773473427,0.91818506945753,0.917593037995214,0.914597798054929,0.929583625272238,0.928792104164405,0.969468205817405,0.933812760982411,0.941785988714007,0.945397546914653,0.947966063408347,0.948151858478206,0.912297710482104,0.910623076808827,0.904433041564791,0.907159054452926,0.891537626184973,0.890865425886241,0.925002315501041,0.924298485580294,0.880001761126363,0.886676220455128,0.893991362771505,0.89330180064691,0.893694964108181,0.873143221101069,0.871908902704048,0.87004450117331,0.863444671455914,0.919482919601829,0.872030539335591,0.85670846946683,0.892950896465084,0.911012773506495,0.882312729881023,0.884298433357065,0.878445285659874,0.880934474248483,0.858617951130584,0.828243086304049,0.83533839612067,0.842259062455386,0.842351131171892,0.820248287561449,0.830061410570545,0.831059029816891,0.847926442142969,0.817092958366464,0.852309970648667,0.803172197784209,0.774144581512297,0.746128429496531,0.735160036620539,0.721197405235551,0.708935387600031,0.700427038050454,0.690100001962071,0.706503855706197,0.687918174012619,0.650534683738641,0.644967080428651,0.64172629735912,0.614579684223589,0.620048005608468,0.61873527707591,0.623563744001267,0.628276300412459,0.621155379875493,0.615939996332033,0.615251142304176,0.614335588357008,0.619392559278288,0.672145069184408,0.673172602527031,0.674444961306243,0.674552363515709,0.675321541774666,0.675526556883199,0.68111131868286,0.682388149517282,0.683458640568869,0.682980396126801,0.682160183182133,0.674681650723559,0.668199805136953,0.667930926169161,0.669300305779835,0.670713051764994,0.67500054073156,0.675776253811635,0.673486316671545,0.67509127919449,0.671420640832613,0.673840891661002,0.674178790274036,0.675586008469267,0.677118262397297,0.678165162326875,0.678842187155532,0.678731259797219,0.67760920769212,0.677370092173578,0.680362230144183,0.784992227976619,0.697608931488916,0.694602285950574,0.691873049412507,0.690987311748136,0.689825688102307,0.689463030720029,0.688979468998008,0.691474647263914,0.691291379022741,0.69229401666983,0.692178593676472,0.691961607501972
0.671925326749046,0.677963401132626,0.679064043304072,0.678729669998879,0.679504356183681,0.700182721705567,0.691096508246978,0.666086135469542,0.705361343751469,0.743803187171662,0.733923498091845,0.76649653230123,0.795404131549984,0.834431251556858,0.843681821221517,0.868571864005286,0.8654953443677,0.863097965997509,0.876714096964513,0.876882560887534,0.896213692093857,0.878775224460427,0.878896616451179,0.906935595907062,0.991451158996738,0.990960626536512,0.941626959511537,0.936152050909927,0.882480948728867,0.881760362815958,0.880146882344394,0.890061726211911,0.897762233323104,0.903585499727078,0.931149537184547,0.916633547393645,0.918453308247206,0.91720836305909,0.920733129724001,0.90399608862622,0.904662692941817,0.901324693948081,0.894480837891093,0.888345802081308,0.963378083801979,0.919818743053425,0.929856284067206,0.933140527630815,0.952993941902514,0.931949582738887,0.956026870766259,0.939102899027355,0.945450604844931,0.92027302131859,0.941374789867038,0.927847897782089,0.927396197484096,0.926282465529051,0.925295888774891,0.914413734647739,0.916727548756678,0.956914120820858,0.948562950643232,0.950158313570456,0.920698026538945,0.903687501692819,0.905135526799144,0.910194904374883,0.911002835698012,0.87611179577179,0.876815617696131,0.931165226088658,0.899750284952879,0.903062406235921,0.895232473065447,0.894509547929539,0.871251912647821,0.870358474915594,0.869386317012485,0.977795038772285,0.892259014307473,0.846477090049558,0.967493703736244,0.896624415224643,0.898367721643367,0.89859865937219,0.898539583270677,0.898242931258379,0.899234119090317,0.867894599099393,0.867267492316632,0.827187419521467,0.837206570945091,0.815009512339951,0.815541363240201,0.826362003149655,0.828314416258374,0.832862572827873,0.828414171857852,0.828120615593807,0.804419109700363,0.77250978003474,0.756436268282232,0.738712408969018,0.721678308652351,0.720734196390928,0.720891877966897,0.720838762865649,0.73365912463263,0.73180474926976,0.718901656331239,0.665673778343714,0.649754593173231,0.634918838541678,0.653294904761854,0.626934058139721,0.627451251734127,0.628138351768412,0.596295863904449,0.61216647499325,0.612812608265017,0.620803387230619,0.639145461439881,0.671568589122784,0.671921595603386,0.673702489864147,0.674769245518139,0.676959074293232,0.678192474181873,0.679137608780761,0.682870723893486,0.68192567868441,0.681637523054793,0.680712311840191,0.676067410372182,0.674501937882371,0.6758211288746,0.675087768315537,0.675592877523229,0.676259405921218,0.674721160860324,0.67551107661401,0.672998263802793,0.673943478788195,0.67338983225708,0.674981225563922,0.676348173376251,0.678361659162888,0.679302134270482,0.679385539837427,0.678844618833582,0.678584496758062,0.677102898851872,0.803368163150382,0.698490767992049,0.700517502427062,0.70347146817672,0.703812215545202,0.691640895580453,0.691631783874372,0.690566148089037,0.690825434656753,0.69159504532347,0.692586262460126,0.691990940854591,0.692548144245138,0.690327216178404
0.674691843891582,0.676131505332904,0.677687040146535,0.676958817505757,0.684652769833098,0.69074179072259,0.695345292367433,0.705583600631714,0.71108146226253,0.740356380435775,0.741514256908622,0.76442659921423,0.80465243948805,0.836236425759884,0.840712572441205,0.867429225529812,0.866144454801517,0.864818654633489,0.88084914333328,0.884021752077211,0.889512730272877,0.888845915383715,0.90257369536901,0.908610721594878,0.958201688535245,0.957833071893135,0.945258762729429,0.926725185642634,0.887772089554068,0.887850778323977,0.887603840734965,0.888433796705575,0.896812589344058,0.908297725478386,0.920690358885788,0.920734155268351,0.919976164969354,0.919367107233492,0.919802881802105,0.908411680152428,0.903086842060046,0.899667999987198,0.898585563130367,0.904475674513593,0.910758215766183,0.923823978049445,0.927284280110268,0.929936947043904,0.930611797872969,0.933597383725055,0.936194218566496,0.938813584975262,0.942042731971718,0.926796313974818,0.929009640266753,0.927823552466872,0.927015607117723,0.923786163288241,0.921019212106584,0.914957551478199,0.916859737241675,0.921968168170431,0.925820149217952,0.932357282136595,0.927554320723815,0.903480183942002,0.905140038042346,0.908377801899824,0.908586035646307,0.885067807199134,0.895534493176633,0.910852978439358,0.903426937879838,0.899405130590454,0.897083424777502,0.895996419702831,0.870113335602973,0.866013636993011,0.864609295992499,0.855136983552105,0.85041787299101,0.847692825650819,0.881553569168403,0.898000120653476,0.899565423318947,0.899945846440104,0.899677722805573,0.899587561925113,0.899651373024428,0.867670321772877,0.868585393839884,0.834491186151858,0.825214936080694,0.814305163179554,0.814311768858327,0.825758497973001,0.826947795287333,0.831009496242374,0.82874027113716,0.827697947467734,0.805331630911582,0.787293358232486,0.766092137219145,0.758696367156036,0.755464547871049,0.751042293135974,0.746545210427799,0.7418178036568,0.736965121691937,0.731518488991363,0.727741099337356,0.672562174002466,0.652419526287982,0.648023082792475,0.647887268056621,0.635633282433751,0.633842870072711,0.631244491196449,0.610433990734499,0.611085390659094,0.616529046892998,0.621644754060107,0.646750249808545,0.667764276946751,0.671792471971134,0.672995233754925,0.674605091548113,0.676588257776945,0.678361785514956,0.680174490610615,0.680883622387759,0.680969530859069,0.680404444087244,0.679958267541777,0.677681804700781,0.675675584739245,0.67583577463601,0.675824391729726,0.676153242458359,0.676192914104576,0.676339323997622,0.675732466871844,0.675441753352903,0.674787889553512,0.675184509628177,0.675478177771526,0.677052904181103,0.678436918653182,0.67929067252631,0.679446795649493,0.679237751750155,0.683642343530692,0.688337810432501,0.697156007679703,0.698669212454863,0.701255262620086,0.703175015273081,0.703628506145114,0.69237043271449,0.691090054086383,0.691010419613896,0.690982697634903,0.691492871293868,0.691244122083122,0.690799651943756,0.690240275488921,0.689237334337082
0.674112367788331,0.6750147251924,0.679746740981337,0.673913970584504,0.690502861116016,0.672665529914695,0.701600623773321,0.716813200876172,0.720151345816529,0.735777265307969,0.743972876375064,0.762502306797694,0.81271985368716,0.837351499248069,0.838030828462394,0.873048989099076,0.86669751886994,0.864943882170225,0.888649305457474,0.936284641147571,0.888642448072921,0.887682050831027,0.919489784793272,0.924681085239652,0.959094984223206,0.958416013152864,0.947327721317992,0.915236637423164,0.886940042837213,0.905192503789968,0.88640778483017,0.886976129068872,0.896884197484624,0.922853854531174,0.923318984550556,0.970808300708299,0.932384440293195,0.919872880675879,0.980560826752079,0.914414852919875,0.902793700144926,0.880671070647916,0.89643269512335,0.932151086968018,0.897400226540539,0.939056219434791,0.92222617630567,0.91439650512449,0.914303193423493,0.952373538294447,0.927756326664267,0.930958585546299,0.946808938812181,0.921034284151205,0.930327768157144,0.940727464080117,0.935749751700641,0.92123527351708,0.913683592012499,0.91370168755975,0.918467628536968,0.919826541819066,0.919768744305919,0.940897675936785,0.93916672510567,0.901897675496341,0.902605490105974,0.9004448524367,0.908777712415948,0.874186309179862,0.911689166817489,0.92965886725624,0.930069477134693,0.889863016159109,0.883337377443381,0.902250427691079,0.870351805419585,0.861805509182056,0.862342696916303,0.847398836164925,0.847333702648995,0.846715515834119,0.867843357285982,1.00708346183283,0.900363929373944,0.90033653910702,0.899999772753568,0.899922942073941,0.899082046496245,0.854106780508373,0.874996300746849,0.846448208969125,0.817202295424311,0.814038672837813,0.814265146840601,0.822950150093803,0.824428745890616,0.833894154982771,0.814434487404076,0.826276756038263,0.806121063958592,0.806489019472107,0.777013412011655,0.761639379084057,0.761538806895492,0.790410319047526,0.767321954806492,0.749433865577032,0.744434695610725,0.731860217140844,0.729917424824594,0.687691401984159,0.659111319632461,0.646803779727746,0.647456680087358,0.638466508299407,0.639791428258262,0.642566454150435,0.610092338180259,0.610133860331428,0.623399136622449,0.620755711962708,0.654159097594714,0.660785765743269,0.688545350357422,0.682869130121028,0.675304972568525,0.676818145933692,0.678696244745587,0.680860978702165,0.680980542799235,0.679286416956172,0.680518791167401,0.679425067266858,0.680040350150848,0.674666028890018,0.676215232074472,0.676189668086032,0.676542638633308,0.676752839688758,0.677378879552049,0.677386825150749,0.676487995319376,0.676046630190219,0.67598226164254,0.675501528320451,0.677800737334597,0.678992042222639,0.679832676748457,0.680439571798272,0.680671916784965,0.820427749821092,0.694224068352295,0.695868168826612,0.697124508422905,0.70212211352421,0.702707295915587,0.703013855484724,0.694979682650391,0.690609854415883,0.690050989078283,0.691264459104197,0.691198480622599,0.690532305993336,0.688344899599649,0.686209169447075,0.684889084184263
0.672331986735147,0.673929085479842,0.694789804638196,0.690751801558376,0.688332216873152,0.702752149407878,0.706045981515037,0.708087356045272,0.719003945835194,0.74235011486965,0.743476154337482,0.776968487664077,0.829796105167715,0.853930443293603,0.842734101700897,0.869996731616946,0.86960871766256,0.867429160952054,0.869842768547825,0.910610509060651,0.911023076556948,0.890566421799088,0.955035221294675,0.927414148269272,0.971653305595982,0.957697127252465,0.949132970809585,1.00704737151859,0.909941883362394,0.888645724801745,0.887550821113007,0.888564882420853,0.946881848605087,0.915925514869238,0.922961156325835,0.94990896072045,0.939765565193848,0.961669370547587,0.91800350110546,0.925639066715653,0.934322468099654,0.893947481775214,0.886493008416506,0.886837466123698,0.916037448208802,0.912088426049272,0.91642681970842,0.915994023632109,0.9147779313914,0.914016117617502,0.911550881319644,0.971984231670635,0.961926730949005,0.933135430040235,0.951416828161555,0.951020630728832,0.941666341681412,0.929340713379452,0.937226766718196,0.908287993122133,0.918425994909158,0.919029792891804,0.936255760106502,0.936111023337713,0.932626496444739,0.931925465164579,0.915636081430104,0.914929957204572,0.966576805010548,0.966621876124648,0.911172010320969,0.88491082251236,0.885897911137565,0.888531903094508,0.884199026850537,0.944157373084757,0.872509780139906,0.864309857710499,0.862419240659433,0.972644371254265,0.887440362234635,0.84755155413166,0.862437443854418,0.903485861170975,0.875823135510544,0.875873401600672,0.89631298136038,0.896263512960188,0.868065922598797,0.86804607524861,0.867810672170703,0.83412968128702,0.842288528981617,0.822776587173808,0.822511089756055,0.820554406919515,0.822019508129462,0.821098367890769,0.809896140224447,0.809318966942037,0.78046411745148,0.779543293928594,0.785148476258404,0.788016317862649,0.793160677155281,0.802160429513743,0.801592338590168,0.800432676910356,0.8029314590641,0.803633583918488,0.751417896779399,0.674427049333754,0.683637519497978,0.655372937728188,0.652132858827958,0.649042246154327,0.644259597835309,0.632864161041663,0.596548273477643,0.596925759322802,0.628372567678358,0.629825175176363,0.621372817350511,0.63760125556551,0.655169961641534,0.634601871955459,0.670116863773445,0.670703936863471,0.676765465342363,0.677336873516488,0.678394080406878,0.680111813160777,0.678505179133462,0.680091568611364,0.678640835659407,0.679939019256749,0.678407263120557,0.678534832077193,0.677391710270583,0.677581741873973,0.67778406756691,0.679661431348018,0.677420663741731,0.676541721655522,0.67861814725084,0.68003233949498,0.679745375699734,0.680529181667662,0.681464412964344,0.686912154922429,0.690451541950059,0.698770417308743,0.699051580528822,0.699682396234279,0.700193251003768,0.702551160247562,0.702178940097382,0.703204048539083,0.703434420180303,0.694595323341941,0.6951951332907,0.693622288679201,0.689335179527357,0.68502128397573,0.682686678374554,0.682122852019102,0.68331498788364
0.683326010232815,0.690859890576582,0.672309723087121,0.68007156797954,0.672454981515236,0.700936857169487,0.711630133593006,0.719143228297085,0.71879192083873,0.743062661354076,0.767422684328421,0.791192918599388,0.833210861708915,0.871153483157821,0.868771760022872,0.87516052904823,0.873671904192494,0.860679731110369,0.893859897072179,0.917045345953535,0.915937203071513,0.915946034583005,0.924670149214256,0.930206599240361,0.9296617299228,0.930335271737351,0.942922878980635,0.978764450937371,0.977804737978724,0.950647855131565,0.888359544569951,0.888416500507238,0.909824493897644,0.916800156591287,0.927856147286068,0.927607177146054,0.933005320739506,0.926295067624791,0.927399029375897,1.00158295993568,0.995648373355448,0.98254979722265,0.903018396791825,0.888723026892054,0.889216587459475,0.919264705216179,0.91867410873213,0.936437356065794,0.978361973185967,0.913832978786861,0.91350524020021,0.964290700392798,0.963452190902028,0.932783451847988,0.956078260931118,0.957703835043708,0.947559773420669,0.908320236916645,0.908490852943954,0.948343009105571,0.919253346323858,0.949636303515549,0.949741434606656,0.950270815416898,0.935871601913977,0.911933429850707,0.914332956588556,0.913984709317884,0.945996701806286,0.960502197185521,0.975501157943349,0.899916349584506,0.898275889994808,0.925360692281221,0.887922963491374,0.869675458309362,0.876034551264606,0.977507128684589,0.869246407851037,0.863118670072373,0.892017456525048,0.891801925051188,0.859868422050782,0.882016685500646,0.879750893689844,0.876679402793309,0.892409265880304,0.889288739493119,0.897665630857381,0.878593858512937,0.833599390043157,0.834255178490223,0.851595506591539,0.850518483204561,0.82904824233462,0.830978083775873,0.822415564675486,0.823403815269334,0.802116865207038,0.823845352580471,0.788114744114044,0.788801273124066,0.812798557671317,0.803646241863992,0.803788432970784,0.799295363905588,0.806442027566004,0.825403088266172,0.787474996558395,0.787334442813576,0.731675457490465,0.732128364769457,0.701403953834228,0.669321188365693,0.6610320159695,0.654897616372979,0.657192731104329,0.658980552753621,0.66658931290428,0.631861458458353,0.62632824414145,0.621950443197614,0.621413161727627,0.622237787946704,0.626379402492119,0.673838769932845,0.671647288238232,0.670714046858971,0.676933505522505,0.677676595253569,0.67935380169447,0.67772691491907,0.67985089262503,0.679382202645908,0.680845224416688,0.678759783139389,0.679530554746601,0.678371836108602,0.683153716937463,0.683602558903408,0.683467142588782,0.681449167071627,0.679896414403994,0.679441295660059,0.679641680172046,0.680099438869186,0.680500918224668,0.681421500325961,0.682627103940026,0.693314978975009,0.699107523238863,0.698990465278382,0.699281401760053,0.706902190301378,0.697067578633966,0.697361956254453,0.699736165334111,0.701531295502797,0.701375131828301,0.701214663852551,0.694786109264653,0.694847219802371,0.68803427436494,0.681304918621819,0.682272855604176,0.68238509896368,0.682526930351567
0.696233907980211,0.696514687094676,0.680209151176534,0.698097375232674,0.696353189823042,0.725184811732783,0.725948742027915,0.726689872445781,0.745568502190607,0.749297720688233,0.79469540995973,0.804140596386205,0.871098392198187,0.870916556677135,0.871418825407131,0.873833107768335,0.87600015945813,0.876642656753999,0.903889370160464,0.918470485700221,0.879012741627826,0.877525185381438,0.956769443391868,0.928813502997417,0.913410048419653,0.915629016254305,0.938461939728544,0.980434539470109,0.933154202598463,0.918944715730216,0.893823769601284,0.891290389574693,0.900713518699977,0.954582899348528,0.923605023527535,0.928613886048136,0.938257138989678,0.958067110422369,0.948857408954481,0.940007095999861,0.933359766108858,0.940348609297461,0.924783020472114,0.898289139358816,0.978474150900238,0.976538662535333,0.919759665546004,0.919522626306252,0.902932660145212,0.944957102483779,0.99656848231426,0.966350031431268,0.947042925703551,0.955323394556779,0.95581202534761,0.934017281184042,0.952009980103511,0.968042624250084,0.968210613472866,0.962308188687944,0.919567662187065,0.919656109195935,0.988385939566359,0.911719972415784,0.911975855131019,0.909343032604821,0.91395094410064,0.88914842089317,0.914536005920231,0.885230279186201,0.975426548834037,0.899059956194077,0.899335765283782,0.919243373166215,0.877445062967594,0.876145877551327,0.878971900100979,0.880227711248334,0.949143875726017,0.862249917527491,0.862766743671243,0.90386734962858,0.86060406513043,0.868067007926492,0.890969470488075,0.889851402206347,0.891833307794487,0.964020244434325,0.888998353487727,0.878792559919555,0.85872542060975,0.838773093968631,0.868314242246598,0.867984230005273,0.860863970382085,0.863608932640672,0.82330829461077,0.817888142701473,0.807731254493409,0.816340487875926,0.786952104405061,0.787158071674121,0.839125607859935,0.815676923282499,0.816149643960531,0.817281601017798,0.817752623188466,0.817005850071139,0.79984862308326,0.750214108761087,0.740557813942146,0.740574383007106,0.724223292538853,0.676904038194582,0.673054748536508,0.660596615546842,0.658697392153401,0.654916364441617,0.660964590912949,0.64407777199025,0.624931810863321,0.604505323247051,0.612966580895921,0.610530659535226,0.675768513058343,0.675285664067275,0.672013064474287,0.67043154542748,0.670635988440337,0.678250857806398,0.677742752042881,0.679153266915369,0.678909562232312,0.680724986380035,0.67904269365471,0.679813283450774,0.680644277547519,0.681781690097362,0.683129544122242,0.684188712055202,0.684955810165298,0.687057949009812,0.679718745802984,0.680670314840978,0.679536820967296,0.679589376848103,0.680579570784576,0.681527011253889,0.683341833897798,0.698536925300751,0.698486665765287,0.708428947015108,0.708248501827731,0.706643154794251,0.696629812193415,0.696734429176924,0.697485025446186,0.696692917045905,0.699477279240043,0.695089631897505,0.690224703601453,0.689447498853311,0.686777191606922,0.681071864127878,0.68199638649997,0.681864527590877,0.682035990946007
0.696550005104719,0.697049893404215,0.695589590257686,0.69718746851191,0.716572508126962,0.727405465763776,0.729818177739375,0.732847230062417,0.75001618182762,0.753262395454847,0.793097889919982,0.808717270457274,0.866998920757767,0.873265721863582,0.873359817165233,0.875426127981057,0.878032359643204,0.879510911846805,0.88108018677873,0.888481693345329,0.897998611413566,0.90560438161716,0.921443170469371,0.923374750107661,0.917888235358981,0.917346183598671,0.919718061163049,0.920558769987219,0.920712829650254,0.920314934245301,0.898467388344279,0.894769521518372,0.902537197911726,0.940281321793913,0.939467075192142,0.939477797697104,0.941826862504305,0.943472409867797,0.945476151841009,0.948289249078834,0.951614387606207,0.95505437895617,0.957405162786295,0.95924729225645,0.961804695932235,0.963038262745729,0.920160249596883,0.920284072154387,0.922072530346652,0.92709044561798,0.942772724843184,0.961387521175636,0.961480583258058,0.962940256046899,0.964524833234853,0.966175167057922,0.967590862448549,0.969146684532758,0.960039640426333,0.940334776715998,0.920324487545089,0.920625150515694,0.948038623945297,0.912082886564641,0.913722440602839,0.913972151464799,0.915705730449726,0.891226207233617,0.889353938240463,0.887658305236064,0.934618518337454,0.904231612815618,0.903162562436899,0.906543936624171,0.900863257064049,0.900893756762908,0.900665201427562,0.899950871144445,0.897379855223226,0.875623704586558,0.873389551168543,0.891960918613978,0.89339122604893,0.894156044537743,0.893270978797105,0.890030471381683,0.88885998008385,0.89009885970678,0.892085357670716,0.882669807885206,0.864496977820414,0.858963440725144,0.86757797749707,0.864987209166554,0.862315226284406,0.842622406163524,0.824279914686346,0.823258670911278,0.824184312537743,0.824403866922128,0.824228238630372,0.827292677758179,0.82850640497076,0.817789994860396,0.818261629819758,0.819257034342746,0.818973256392487,0.81870454334791,0.787368665791435,0.742207572621206,0.739312231647052,0.732349901923282,0.724280371539838,0.68020854787171,0.677611760398355,0.661972414013183,0.66052304163795,0.658881463820207,0.654271153053821,0.639558425386687,0.623165589927256,0.613109923882338,0.612841427672528,0.611587970713186,0.662575316042601,0.665270052139359,0.665647244429385,0.666960060367041,0.672658984219848,0.678183538361167,0.678554055180915,0.678899361802021,0.67983154207851,0.679939075107719,0.680368725227611,0.681034027151511,0.682106916935369,0.68287945739082,0.683340951486021,0.684344260179491,0.684731929194516,0.683433717969718,0.680761572740059,0.680072614032028,0.679776323650885,0.680167130746934,0.68119238493996,0.68258956820599,0.683945945455369,0.697894984112383,0.702677484772324,0.709315672543636,0.708276711828021,0.707151789670196,0.69649931402244,0.696672801859497,0.696675025089265,0.695565830502513,0.693550591944391,0.691761225952166,0.689953494520206,0.689160373693954,0.688835806992337,0.679615366031691,0.680644985350056,0.68133264982874,0.681896408316514
0.695394095617945,0.688590684912122,0.694360236574292,0.696292963447503,0.745526968845377,0.7464785456368,0.741036119079341,0.736533409363327,0.763375966897126,0.762795977835886,0.791267619309733,0.816380193532592,0.861212004392876,0.872981673343869,0.872484071910746,0.856269458332712,0.860646935665007,0.856178158218494,0.87230014602922,0.880020332596505,0.917464134056532,0.918122277521163,0.918830848147424,0.92570266578734,0.942827624278812,0.907685453876695,0.911828119944965,0.908729196327777,0.921027883350513,0.92091209744255,0.902261617038511,0.875816142700588,0.90552220712812,0.940254542606654,0.958496958729303,0.96626279241057,0.943642208639974,0.940933263900946,0.942767589964506,0.963974185066561,0.964966935572485,0.962901055991954,0.961770499189036,0.961819874263567,0.92958702773713,0.966033639721845,0.920493624781967,0.894653031955741,0.924461294100218,0.903719208517529,0.93632027853966,0.960906803684209,0.960559975749647,0.96189843964742,0.962030934381994,0.969171908273733,0.968312839887596,0.969049158084642,0.955266855778503,0.918047759255625,0.920556872028205,0.92197306121524,0.989154933603128,0.909282239201711,1.03836957892938,1.00961259911991,0.915059228490763,0.898361643142656,0.882380957652866,0.88207130108512,0.980405466462224,0.907441868569276,0.900962758413132,0.906234431008197,0.93187241835359,0.937519738236429,0.906968516263042,0.905349760795974,0.893696776020506,0.878554185357117,0.869371843061927,0.889629510023865,0.921847241269032,0.920327627494942,0.867387227161493,0.885322252648379,0.886219448912552,0.885717559089289,0.902342064343255,0.903022092682102,0.876836972548673,0.850158606303373,0.870195126497077,0.83164622537218,0.862202699692985,0.832619824077287,0.825200265412717,0.821584648233602,0.83432197632479,0.834000486427679,0.823323426566253,0.831024470019512,0.83108006459145,0.801558005942008,0.803912300977552,0.798279476305021,0.804712568391933,0.820362014957461,0.769539104986666,0.738493471687465,0.738577165644016,0.723688794385,0.723511815292279,0.683572081029129,0.682745174690844,0.664671289647008,0.662868571429791,0.662293689605442,0.644607255788406,0.635435105734482,0.622186632298366,0.611657767710188,0.612548671032606,0.610973037950177,0.654948558740461,0.66302791304122,0.660977531403297,0.659100926700131,0.675628612306411,0.677316505464187,0.678112873391907,0.679659161844266,0.679705102067284,0.68055427557464,0.680201910108275,0.682594587541282,0.683541545602101,0.684260076313089,0.683250967874364,0.685575863223068,0.686623589226746,0.67815119554771,0.679736025491849,0.679604174976754,0.679447264874752,0.680767675845937,0.681880320775351,0.683476827941453,0.685093949219674,0.698394555011425,0.709391597155583,0.709718389617211,0.706642291362694,0.706224441241103,0.697409920340945,0.697861925623118,0.697097429487163,0.696124093726393,0.69184786149469,0.687339504302325,0.688658558695091,0.688659336524218,0.687782637793146,0.679914019484167,0.680038964854907,0.681212782657443,0.681554872776863
0.702788741220485,0.680350644048445,0.701413049619289,0.7139223396261,0.745282969338742,0.752104377703334,0.752907928153491,0.754356627956844,0.78199803570846,0.806511353059075,0.835185042714972,0.85613200974723,0.872965723353591,0.87151870016177,0.871442102225558,0.89630081168158,0.897518776290376,0.897668260785472,0.871306483872859,0.884694847121295,0.908030754015146,0.921943037536998,0.962197549997372,0.949109678341703,0.913966848000078,0.914940540974993,0.917278722722128,0.918886006268777,0.955016702147328,0.896329099156896,0.909110338849015,0.876598986867133,0.876622700108009,0.922235829902591,0.935789499420372,0.946980683466074,0.946201899555188,0.946836108815758,0.955908803312541,0.955092204270358,0.947931410398905,0.948502404790339,0.962463730228155,0.925140650777313,0.924936232977693,0.939642621868626,0.920638515030064,0.924062802613769,0.938470573517513,0.937771480355607,0.937968580931955,0.983789775878737,0.961318653537288,0.95965449794011,0.95023131676045,0.945199865913605,0.951115421134751,0.953165061667563,0.954994808242806,0.917093551518784,0.919408783941973,0.913978927699643,0.913886079620887,0.908109678231921,0.907136791063635,0.907813934323349,0.911709405173131,0.912772072112005,0.881626814549684,0.915184655065464,0.892439317262247,0.930602425658202,0.919628133990625,0.925778030219394,0.895507191004194,0.889144090993013,0.904961614505215,0.902290454204032,0.907407772246899,0.914530580330044,0.869680547382738,0.870363165941325,0.870370760401226,0.869223451885641,0.868594219310443,0.98125015147373,0.884214209655038,0.876532053174835,0.877455747258813,0.881603473325388,0.892099187139192,0.855168325999819,0.876324661292877,0.889187485135736,0.844440992185896,0.826767438386898,0.826603058384151,0.826169500840648,0.863999354530306,0.825873726648644,0.814927535751713,0.813892561670128,0.830644029661893,0.794334327651456,0.795001022515855,0.795514738322706,0.794694980292838,0.793692617380103,0.79522073104148,0.756434660740126,0.750806667510817,0.761087039720818,0.761718764487585,0.683852434866338,0.702604028434273,0.682796759883366,0.6732044589306,0.659292744645249,0.645372551545104,0.635493089979722,0.616604952697463,0.605429498447337,0.605623326791655,0.635329698033656,0.657725045517501,0.66260570338641,0.661075460989467,0.66217974663803,0.675481291843142,0.676434165517434,0.678942999647727,0.679232729902908,0.679549533477256,0.681011056539345,0.684302636922571,0.68429629195169,0.685194445521595,0.686522618699289,0.687526358055868,0.686609557142621,0.686964708933694,0.678352458422287,0.679106814926976,0.679079143002246,0.679364316918714,0.679126308357214,0.682282468675406,0.682074120160938,0.832488629661426,0.708281918920064,0.709102310991732,0.707577607062601,0.707358294799562,0.70455829644949,0.704281797043173,0.699030788748217,0.697934321855761,0.696683930705229,0.68709249155605,0.687359999797292,0.689117438465743,0.690164618656205,0.689829562106429,0.681513108292837,0.680444440996317,0.680586148727269,0.680763954623151
0.693356970886142,0.685866784220186,0.728111740201035,0.739448961276947,0.749246280390969,0.768691463769431,0.790753691737954,0.823493863182891,0.834342191463879,0.86717999582339,0.907997709355719,0.908095913776519,0.912539694410426,0.912099353773265,1.00852308939998,0.900002184404289,0.898810820184943,0.89968349466266,0.878049729109457,0.892705695147637,0.919894933708181,0.920109116864872,0.957295596955635,0.948207880479529,0.911611191981838,0.923014245730368,0.915993508908679,0.914487663150715,0.897238426953108,0.944804203889182,0.884951691489083,0.900396008059659,0.900888877921585,0.906071921447188,0.922078670599671,0.946027834985394,0.946651493184367,0.946113364976522,0.961082374594651,0.961779760994596,0.937001752475007,0.954595928503897,0.959907884346952,0.925445385827235,0.919335239120336,0.918858674213699,0.918192691778539,0.916690480715645,0.917544973840909,0.91116567233399,0.912787177291566,0.974301478475116,0.976396009404318,0.963065813806535,0.948942550114768,0.947811928577011,0.949166016867459,0.939352732283672,0.956016722397767,0.955788267478605,0.964062763368635,0.9301034300739,0.933073429125301,0.908063985951512,0.90785908755283,0.907824988664208,0.910440226946418,0.912021192362382,0.891182456801939,0.889095936796643,0.916050481686032,0.916277189956984,0.922432794874362,0.931321896596391,0.900442676559638,0.902121985519435,0.903907710957493,0.901858482415609,0.883840836298762,0.882820803983106,0.873929489056861,0.872641764457617,0.859603178129453,0.864450570328573,0.884812043475341,0.877468470431845,0.879599875289911,0.877986521398536,0.892024715646315,0.968805366826037,0.876354421209457,0.879817723840161,0.861736591281867,0.862296814567935,0.838340661896708,0.840743484456905,0.840323408358015,0.841855924077251,0.882630179194057,0.857034968096001,0.849923365632499,0.829383620709014,0.806200537730813,0.8242838329828,0.848566727533466,0.85386209763081,0.792876200985737,0.790889696689881,0.771097761172225,0.764311795053575,0.759523479325344,0.737295526345817,0.740275160274742,0.699523479259576,0.685240248085847,0.684281464386073,0.679327914813758,0.672837790530108,0.643013564772387,0.633856869798868,0.624071772370649,0.624021350324471,0.618229145027711,0.619821424971181,0.658678112687097,0.657738373609191,0.658683134122172,0.656409153401954,0.671585893854536,0.675347419924211,0.679342339365888,0.678959925624859,0.684349678195479,0.685355226841973,0.685025844428034,0.685710791830778,0.686436776894221,0.688043365337141,0.689142910365194,0.69038886250012,0.690502903167142,0.690989285695054,0.919442134717198,0.682087921749041,0.681023409881332,0.680573394068014,0.689991095984133,0.698977399510511,0.700651708186312,0.703551666920403,0.704423249414237,0.704529319212211,0.703672278035929,0.704957011886096,0.70368864606745,0.699569667527599,0.699133765133257,0.698750312479141,0.686829935097196,0.68684116284102,0.691844673260176,0.691608053541859,0.683868792388807,0.684275293026676,0.684498086732392,0.683394915606008,0.683495509290239
0.710906065851185,0.702957755870433,0.729509802627408,0.736177108292617,0.756588719123404,0.785492254271452,0.811412014892903,0.849543983298047,0.856876542100153,0.875933499622232,0.867249211014944,0.868147227677145,0.889800512200814,0.881137172982439,0.872561045485588,0.884367396392737,0.890279430460939,0.88350309429307,0.878059512493322,0.896488054316689,0.900241631003803,0.917857330131483,0.909807100421076,0.911069760747521,0.925030613736166,0.924013877383459,0.919168098388416,0.913203375570045,0.90310679132405,0.902169609566591,0.887913390406481,0.867120864609814,0.866998576667884,0.914100942378581,0.914292115464015,0.947548239458594,0.960884526063607,0.973144288130829,0.973419315863993,1.04923255782657,0.964242922085644,0.974886102781388,1.00562837265041,0.932704602116609,0.950918310270902,0.931300346394187,0.926224881579886,0.906756624178012,0.906893617047186,0.935693101510501,0.933528800268427,1.00492683242489,0.944691034595091,0.976985036153008,0.953247026015223,0.967169107518773,0.964214238245116,0.961787407180166,0.969756031395431,0.934974315633451,0.933930770207211,0.915680009043571,0.908891891973599,0.926267459705618,0.926762401210473,0.908398002277675,0.909675332989118,0.909285466372671,0.922612677744831,0.920931522090461,0.921240029593098,0.922754669809213,0.924521345588387,0.908879601794364,0.950565549148632,0.908058136397396,0.906473312251803,0.906980245196394,0.86784456355506,0.868737454468112,0.910334667451195,0.865489119240019,0.866419850953305,0.913731834304452,0.889819963647254,0.939706572195759,0.919227967520811,0.919105659531651,0.898065188648065,1.00562784515615,0.886412736663883,0.895048317920232,0.90718568932037,0.885428170404527,0.839214001649043,0.839982505863362,0.840647549921714,0.843059021169773,0.852872117897956,0.865560063155827,0.819801765356,0.861903759708623,0.88200964593385,0.832647451916948,0.840917077698896,0.779136709691987,0.785657934003526,0.77343761714399,0.772156992716401,0.768136793653348,0.740146114401583,0.737008989501282,0.715976571681944,0.716476989271166,0.694050314850071,0.694043710090685,0.684520525157298,0.678780951558879,0.65659934648335,0.632577221775812,0.629489422782262,0.632432293195137,0.623621708217963,0.61735534665653,0.652293516076274,0.659424899041142,0.659359586084385,0.657425094043459,0.67164424529356,0.673403916997034,0.679544404518642,0.685592245553098,0.686748639921993,0.687317218505349,0.689704296676341,0.688805767708449,0.687429859779498,0.688895491670132,0.696626934093715,0.696645403240319,0.697844074011599,0.706347903314152,0.705515117946402,0.803390358165047,0.790087800452875,0.699598183192573,0.699141152116934,0.699710322401168,0.700553078087072,0.701018388942638,0.701615815175564,0.703459061640578,0.705033062775496,0.703330214497182,0.704081180975365,0.701153900299395,0.700905108471541,0.700800024474353,0.695751405452464,0.693479922489936,0.693154439412778,0.684306754291323,0.684339710716502,0.684227596679856,0.684240859563341,0.683652712040047,0.684016298555173
0.709978097156759,0.711230384596578,0.731938061320072,0.741684706066672,0.765704468565924,0.809909794412673,0.830215581338889,0.858192148057127,0.86245148003753,0.876481088468378,0.878743612686048,0.881182114124853,0.891854199156397,0.891758408597448,0.891701414950353,0.893469259642852,0.896145891444607,0.898084417783423,0.899638469219556,0.901190257788173,0.90218990111196,0.906332793906629,0.90781766554935,0.913937451554594,0.925001709436013,0.925017848273058,0.923677960157479,0.91386171051231,0.911241962136663,0.907895899012923,0.892796953255357,0.883510984789965,0.872233526506398,0.895120564405888,0.915268843105694,0.962040725512399,0.968205961720244,0.971047289641729,0.967837330862109,0.965548619328909,0.964732627705881,0.964593282750526,0.963012309894899,0.959786766450408,0.947647251801413,0.940133312092984,0.936748515168255,0.925598182223524,0.924685277445065,0.940144424675595,0.941611379102045,0.946173489294951,0.945595505824409,0.967217826604893,0.96891685175302,0.968004619195259,0.965576687792097,0.963695003857313,0.965823015254154,0.92583392476038,0.924660300971151,0.922338089183558,0.92331189910693,0.925518055649995,0.926982956024364,0.921197769483415,0.92061221313943,0.918317103257043,0.922570901909003,0.922045148809712,0.922800571445273,0.923995344350801,0.925749518958061,0.925167115081993,0.924927203663218,0.90886868008355,0.90741329972992,0.897915042167209,0.867736696781565,0.868208938564205,0.86987146629712,0.875914282500839,0.882017244328566,0.892215609182906,0.908378522422177,0.924385068421639,0.919624861979415,0.917570704416811,0.916460708209424,0.914602836846249,0.891093030243948,0.886207689567982,0.88035553167796,0.877581455541789,0.851555451338226,0.850128357412263,0.84725543971376,0.843816081746534,0.840681410407788,0.83862443804073,0.837634156149833,0.873176892790065,0.878860927316059,0.821024909567935,0.816309641723161,0.806768523040912,0.78700491826278,0.785989315318886,0.779671147445636,0.775138013000295,0.744269934829667,0.734178659443295,0.724983969811904,0.72165060778202,0.710044024915399,0.697289847832333,0.690806409759864,0.680937041068827,0.660483939409816,0.645147904025196,0.630997833369816,0.627469449391323,0.623940853720858,0.62574207875119,0.65221919573817,0.661382503399719,0.661357482678089,0.666404860291105,0.671587351846007,0.67302810672502,0.679496907925106,0.68740057078029,0.687708803922803,0.688831337371374,0.690181163845618,0.693397074869781,0.69612222842956,0.697366068308201,0.698208194329175,0.700846415299563,0.701975438897879,0.706813325572059,0.70589041514238,0.706197664986881,0.70683333908328,0.699035633313484,0.698913447529958,0.699221908761535,0.699617205074806,0.700450758342576,0.701614799806624,0.704255433882378,0.704826623139266,0.703824259470159,0.703024446556122,0.702242058375469,0.701628168634354,0.700707173887583,0.697625437148494,0.695685057009931,0.693932160787186,0.691223335011063,0.687432431200454,0.683699937035051,0.683879468198445,0.683818620842813,0.68358030382546
0.7077089338191,0.715357604657572,0.733945299205961,0.74838796222079,0.776483534425632,0.844503072684759,0.851405883360146,0.874431948937925,0.874463766627659,0.926906880985527,0.914069337392377,0.90024250079566,0.911847746281913,0.944138050831392,0.908521157310462,0.901457647388999,0.904962592234966,0.907797419569311,0.926046317215242,0.917713215386971,0.904952866943673,0.905740760442493,0.908530882777448,0.958035180348753,0.957992535685765,0.937553972461011,0.937462247937826,0.951322213745778,0.933043809267565,0.926741602473607,0.895049304706894,0.89395885043604,0.866891033229839,0.867562777526452,0.916713671197625,1.00929888870005,0.979252783613963,0.997002273698016,0.964203784134032,0.964430534831083,0.964239297728661,0.967236309587032,0.96148274643811,1.00699126155099,0.944214097814693,0.963809476456209,0.94489863695304,0.927461108928928,0.925771170373721,0.96276358124995,0.963254104251027,0.945410568514754,0.94541187547171,0.977319242541478,0.982134079513677,0.930736552013559,0.943853815656926,0.925392892182067,0.972167456051942,0.897487376642819,0.897675465277779,0.898626273056206,0.925033856070846,0.932733906325303,0.93197960653617,0.936437909382167,0.921523319133319,0.911678370886549,0.921000479798856,0.907552895110595,0.923057301555785,0.922894810011046,0.90731085286251,0.922729520800966,0.923194480435972,0.910445472032444,0.906511066648645,0.892886117132399,0.866324937700449,0.861832995639771,0.862173256981051,0.884917744231219,1.11020878322624,0.884205906821247,0.930143204333061,0.93021261534914,0.9209228475433,0.914879997218817,0.916903686065055,0.912200779707312,0.911301305290561,0.882806076882738,0.870100731994652,0.869556917348051,0.851677360976439,0.850948711892904,0.853560640436729,0.854511771552326,0.839565637960463,0.83906574420224,0.837327152816204,0.883081387940901,0.883166684572197,0.817770609968213,0.802310871118289,0.819757290966197,0.793654034863068,0.792350400766523,0.806900107109102,0.807306026434286,0.750270323961914,0.731938895647849,0.73176146291626,0.731385105040544,0.724246115453163,0.704430374214111,0.69543929251568,0.682415567033756,0.663966142328403,0.659514870854899,0.63055026195353,0.621988994623984,0.614162051647237,0.625611262484139,0.651987905821855,0.663324399053994,0.662414891575034,0.688863563293825,0.688941973293179,0.673484669359925,0.681442090778243,0.687133017099125,0.686986474535259,0.69031093922455,0.695455823893425,0.695943789594566,0.697179411301277,0.697273707895404,0.698243709449072,0.702675945391224,0.70760278421994,0.70721281120206,0.705020102293975,0.704709146469377,0.705131522212167,0.69832307913179,0.69833894853586,0.698071168662637,0.698611940645296,0.69865304414029,0.700638915291846,0.705254519205953,0.707566120163558,0.702553774978165,0.703411475937983,0.702481869412358,0.702734625507111,0.701458270810985,0.699558017537735,0.699941586793757,0.698631902137882,0.698061387027074,0.697264128055447,0.684024940694339,0.684041161822486,0.683972577830834,0.683146489945964
0.712394760426728,0.701663631799851,0.726492289874552,0.726440563303201,0.847861256565335,0.847643593727491,0.855339759773971,0.878685414594805,0.87853815940613,0.885334806512684,0.898155219683633,0.898412716934775,0.895499462088343,0.902154169892066,0.902450483303407,0.901221408111789,0.904564156625503,0.885299632566287,0.918691759260036,0.918658795045654,0.925580837898145,0.910029836996965,0.909887447720412,0.94340501810273,0.936523533528537,0.938416572531296,0.938777955776697,0.939423591429853,0.930703107530905,0.912616066532922,0.933862679318952,0.905816350096791,0.899905829329195,0.967645664423888,0.906654208392792,0.942522220743269,0.948151907943542,0.954978325345541,0.971509418766269,0.990100490504233,0.990672253686448,0.966812288908057,0.975740698671766,0.959435096399637,0.994712494151561,0.9758115746309,0.951167708598497,0.938007962690028,0.943441615709895,0.941616201407774,0.974776118666337,0.956453549184804,0.985704975113022,0.985471193394968,0.9918994413379,0.978761220982829,0.949103221038391,0.919772985131749,1.00890657132448,0.945304622699351,0.898871571176542,0.89884763316129,0.934528667740561,0.901688723380854,0.910986270925219,0.983572840714138,0.953328810049282,0.930622741809873,0.930624342068808,0.925975112438211,0.925110138395814,0.916507913815071,0.90659745480146,0.907129827216748,0.880045695232828,0.905693921035403,0.904373074704302,0.885492663383352,0.884794441301292,0.908109415519414,0.943252477875319,0.948070052290735,0.949742342085846,0.90067130768426,0.909031614786409,0.951411418835138,0.920935370492079,0.904670806664904,0.905227957134886,0.903978930235025,0.90474359098243,0.864184031959235,0.864507632685394,0.897777818448695,0.851424539193624,0.89124928752126,0.860411217714149,0.855522399595065,0.863334746464976,0.838178286767325,0.838108517425156,0.856813982920312,0.850578774493854,0.815884880575579,0.815080707517167,0.865023987294429,0.7947170091787,0.790884118428483,0.796208925039794,0.773533142011755,0.798065819447346,0.749871546913686,0.750594611865969,0.731215238223484,0.738933538068276,0.704941079569959,0.699270908131013,0.689747977269467,0.687858247388294,0.651660215698105,0.63349194119392,0.635434973096524,0.635494068825858,0.640673713912309,0.646982961352002,0.646512838328648,0.649421389618714,0.65356898432098,0.673291986709857,0.670521220239863,0.756426705443609,0.690776711724975,0.693831691721323,0.694978494924833,0.695737269246558,0.69665516660006,0.697805109243164,0.702293679097221,0.703758782191961,0.703781161609327,0.712433718714287,0.712755773910271,0.705969838584508,0.705018277570651,0.705164219356731,0.696320819422921,0.697249804539189,0.697027650000386,0.696556886160716,0.697606219129701,0.698715057480988,0.705849696847783,0.704774445570409,0.704771873420706,0.704709758267883,0.706914839378941,0.705313771655742,0.706414684393318,0.700490038569394,0.700859599557332,0.703631754464526,0.703625578317587,0.703817456259213,0.696451112745122,0.690271589289286,0.689253280085778,0.689319148705559
0.69349015639137,0.734204453667218,0.740274356223627,0.73911614284501,0.757578885001004,0.878158499493344,0.861642602105592,0.877958348036838,0.875931579814047,0.9084176815332,0.901696990892348,0.903852516513649,0.903825608688301,0.888912511919844,0.903236136231319,0.904011035461393,0.904704436691157,0.925213406696175,0.919189065100532,0.909218948985948,0.916363587073207,0.922866107975655,0.905816972963251,0.919064824476069,0.967682262303066,0.925089084004535,0.940805675713728,0.958502448190315,0.959229689153746,0.913428854943786,0.91203986195091,0.906413837905686,0.915119471008276,0.874184075249654,0.874248431088588,0.896577864748808,0.944291356662062,0.949203860894496,1.00225224406972,0.980928584076378,0.989385091468152,0.972759991959203,0.976000475888535,0.962349219520787,0.969440831104134,0.975776944937337,0.955562752532655,0.968579915286748,0.956278245422191,0.956102725188892,0.987385431411181,0.987571303467822,0.987201903091765,0.963829896435882,0.962058436683242,0.972696151280899,0.95557835573784,0.962120328341796,0.912860081780428,0.932958614149952,0.98407341696874,0.926052910014994,0.91378746571736,0.923114913777515,0.91476736869485,0.982872434256443,0.983871723641525,0.984492691870012,0.929337998024929,0.913492614148812,0.912623399288436,0.910214333182088,0.901551954591904,0.917077550301718,0.881272101370926,0.8959450975799,0.902131813363412,1.03202900839914,0.90339808385183,0.933566783312038,0.919380748702758,1.06237315834226,0.911347529492901,0.912936614535178,0.959636922226116,0.935999291868702,0.920204702194655,0.918409592011997,0.926121289313703,0.926879592477527,0.906091009620859,0.889382364121365,0.872309353298571,0.873987051508601,0.887057164536452,0.864238455063009,0.861090284089516,0.84331072848443,0.843082110461185,0.86149137155561,0.852460801311989,0.851306823051299,0.851204839012745,0.81709715664193,0.817306045543646,0.79792090703396,0.797465047923938,0.798031484614716,0.790808333999576,0.762772399250571,0.769935498381385,0.769869751233478,0.768406602120084,0.769765893831612,0.762449219082943,0.726322785396227,0.71580798664442,0.707786934712382,0.677270527280583,0.673081469899139,0.657607521344482,0.644523583970298,0.644219895749731,0.638586635167834,0.638866354887144,0.646426973142411,0.647038956608137,0.646496513007016,0.644271703911749,0.666494029123287,0.685517589246166,0.69260424536726,0.694278744604858,0.694574977528207,0.695017088362771,0.696127718128171,0.699534177609702,0.706141293036553,0.704347775407216,0.704747776541025,0.711828702073358,0.712592618707416,0.705408971180657,0.704664773375774,0.696324183468978,0.696309205898615,0.696941501322129,0.696733392228636,0.697880566996692,0.697806819219065,0.699411408567747,0.703592209041292,0.703831140260238,0.704766082642979,0.706119274191015,0.706070612817331,0.704359022921323,0.703082312765484,0.700573444414278,0.705844154143532,0.705647380760969,0.704579059796826,0.703665240161671,0.69268401316003,0.692270583204793,0.693088958520731,0.693500459803017
0.720938958421558,0.724230149409285,0.746700769101496,0.7392394345438,0.781129714604406,0.809328715517639,0.854328519071748,0.895832002344221,0.887585939239853,0.890597221518678,0.911802982891618,0.902232806716548,0.911921233947242,0.912420859836016,0.894182339229297,0.922575971224461,0.887372142166868,0.884467008265376,0.879411174765152,0.879542072726401,0.918053360216664,0.970188691398891,0.917465069563555,0.917528076425145,0.92417248511008,0.967858664640645,0.945644489475567,0.945073325502057,0.939106703184202,0.913337673074822,0.911823247146928,0.956452692618122,0.915575736545404,0.906676907567955,0.873736036331394,0.930581238214159,0.9277224705254,0.929555222154585,0.928961363689972,0.960225077463779,0.960649351056577,0.989819406806347,0.951522173980896,0.954490531479033,0.954355556369404,0.938752974098849,0.951231090464446,0.938685846663571,0.980114600857437,0.970290752237462,0.964398982042806,0.963850543119189,0.971331694798396,0.972003576497542,0.97345840924593,1.15726860881014,0.95115194296201,0.909771869770421,0.908661880567101,0.908856648307014,1.05727047840981,0.954213600932428,1.01853447512459,0.961109777715788,0.96173832811872,0.961724103630556,0.985220367694376,0.987843985562066,0.937525236070235,0.933599644092714,0.91058413817646,0.927524133454378,0.894162016621197,0.887704472951136,0.962548210993986,0.892653399434213,0.901518267608225,0.898126728355108,0.914997681674087,0.898580738319013,0.929005742029585,0.920440441358062,0.945865869848749,0.924481559130159,0.924328050587778,0.922562273451763,0.92092362673058,0.920787218165188,0.927407101066059,0.902263778403503,0.900524083504926,0.90093963472267,0.876731622332276,0.873669263605603,0.868722298692807,0.869991492894541,0.87319222654662,0.898085538252673,0.862498432093846,0.863102930159168,0.84269679912038,0.844352234177752,0.875858276720459,0.866901455627811,0.818371755207045,0.818640948675322,0.810701073063505,0.783774565110046,0.780577124361678,0.773342090257549,0.773183455744127,0.795215427021986,0.794348134413062,0.769960222392321,0.776989744171601,0.754036152502735,0.73112585066316,0.707255296169873,0.695696675449086,0.671374787121216,0.666693775738891,0.663163135001098,0.643843602471264,0.639372097929544,0.639312477196595,0.638698497345423,0.64105355618719,0.642049435775199,0.645087412680074,0.665723761527742,0.676408763106422,0.693663707516077,0.695138906816234,0.695715715628263,0.696643148480576,0.701327375369309,0.700629190852755,0.706194079588168,0.706580807416479,0.706974322482528,0.709557581583802,0.708595271959966,0.697763345312414,0.697096401621529,0.696400712181939,0.696475985636675,0.696881176666435,0.697675792232736,0.697899278929956,0.698370949886162,0.702182361656188,0.703047300419313,0.702699075235408,0.702391139160158,0.695555582125729,0.70103102405938,0.702048785120899,0.701810479362735,0.702376073439612,0.704274328482086,0.704787272960454,0.698926296918376,0.692746974443143,0.692475388552275,0.69204557351198,0.692903242151052,0.720173229556347
0.72214598818421,0.724601902763432,0.745645368996223,0.749966799471628,0.7870967859262,0.814137857816468,0.846445469181944,0.887373357133781,0.888828491164889,0.890445912399095,0.89245850387698,0.894455966183985,0.893461352173995,0.901435423421069,0.893912568640536,0.886352399191026,0.885738034357579,0.882871077595457,0.880214050409143,0.879561132759476,0.919896356983116,0.945113993403822,0.940755781094784,0.933766042853803,0.932451317172109,0.947398449188689,0.947121626816323,0.94688152321864,0.93677859022756,0.929975051839307,0.922580205851385,0.926878190764844,0.919536775259575,0.915017980576704,0.916394639847205,0.921522181972521,0.924548720569104,0.93454799691604,0.938657721819279,0.958920322418341,0.960287929912508,0.974129283133848,0.966255107978824,0.954170380042852,0.954132500813948,0.944811522677477,0.959338833845293,0.963917183142446,0.967021718407112,0.967781341371528,0.966670412993052,0.967815932528189,0.969777011990386,0.970822237086434,0.960056708864255,0.954018319890661,0.948215052587233,0.926183925217844,0.936620697965598,0.943287798004126,0.957131590671815,0.956769290537344,0.984067138759699,0.984379800943756,0.983609242511163,0.983106997119637,0.984445684771423,0.986260751010579,0.947618428720083,0.939105470679899,0.917780445562964,0.902470335850099,0.892796326283458,0.89214270386614,0.902936720505577,0.903005350796514,0.903036357726626,0.903578760314133,0.913599296506874,0.917887049507215,0.922822343067624,0.922967006876781,0.924620409336816,0.924206477443776,0.92225622546708,0.921032187127444,0.920662349246472,0.920899669810362,0.917594081933972,0.900808213654364,0.900102587187804,0.899189733561069,0.876000587897545,0.87574490279162,0.876267370166281,0.876263411950864,0.875436513805881,0.875782456338621,0.857874732424515,0.855758344593715,0.853306792528637,0.850847493555518,0.850448522229844,0.85160146929065,0.841600660923293,0.827534697712987,0.815626708251716,0.790190439447138,0.781954667344895,0.782324438430468,0.780835153653378,0.79666469759471,0.795808964195125,0.784621476570904,0.780246209733326,0.766499743174289,0.744983098075764,0.72719326746095,0.70036287885871,0.677273686548271,0.673574080262769,0.670002570080144,0.646566611734161,0.643074748345573,0.64269169191159,0.640458808376613,0.640527341588162,0.640717311185526,0.648422071619512,0.664536853418965,0.672171645813379,0.694396888611906,0.695233209049097,0.69643310257039,0.69767772358454,0.701643514637125,0.702455419319502,0.705456210465891,0.706794517905887,0.708129707916686,0.709383761344001,0.703563734918954,0.697007413102881,0.696900754707696,0.696558321286273,0.696552298951231,0.696741445040023,0.697886739232655,0.698500797356068,0.698628632227052,0.700362769080847,0.701651512297536,0.701922558036038,0.701436955266599,0.699226642848801,0.700147470181862,0.701157433084191,0.701450841639488,0.702427450089868,0.703257586964484,0.703805720707391,0.700040339759373,0.700840332796737,0.699968805984946,0.698996867866248,0.698566558927309,0.735824872996366
0.738203890172592,0.72624875185748,0.745310579093573,0.764837368762836,0.792704338971383,0.819368241305592,0.837405315020877,0.884583085566268,0.858477044521777,0.858605074140737,0.871517136822009,0.870670400176725,0.879062505816034,0.914604618474744,0.892961101630887,0.869070110832815,0.884856125610374,0.877297564063146,0.879208386693252,0.879593200070315,0.921875696913693,0.954062616902281,0.984738635521552,0.934411474591475,0.932534934795191,0.948718751841178,0.949096005657755,0.948472049527032,0.936146516420076,0.949381476867887,0.915610717151355,0.936355267963971,0.92284994192972,0.910348663673787,0.91959146949056,0.901117349572197,0.922784863757692,0.944675726070027,0.944525211100615,0.968188762623405,0.956136299750301,1.01403560631604,0.98483629419096,0.951695329859224,0.952153349243576,0.937743629779191,0.9755130321624,1.01085997494234,0.96580416343898,0.96634983365871,0.967376960021804,0.969029177961847,0.970169520444398,0.97084078340197,0.934852350292844,0.935182038288788,0.942754196810043,0.911051742031286,0.946164773142865,0.955408216656359,0.955499739347323,0.936988999746822,0.984606050025771,0.98579637950256,0.983880395286434,1.00050791307059,0.992067635443687,1.01883672438644,0.954391796184832,0.966541851247225,0.927645101002847,0.89179771614394,0.892204193710931,0.891822815507569,0.900470448713538,0.900090557391935,0.90391007322331,0.908582134128685,0.909613283746212,1.05574287360245,0.923206627973354,0.922772182973357,0.914455392236863,0.917168473869272,0.917397385856439,0.920138553770212,0.920535115931557,0.920409980126856,0.911669365474227,0.89857228310061,0.919158105645433,0.919206175980615,0.876764616381135,0.876737589528179,0.890670252337806,0.906453601339139,0.875785077182224,0.875575926782084,0.850191904307818,0.844329398893006,1.03523617870151,0.848404350941823,0.848892089447273,0.852736484654635,0.853300186346506,0.858779473593601,0.820905083395074,0.802299318136437,0.782716266163532,0.783605289014002,0.778531910674559,0.799566360784434,0.811844663084914,0.813774035886262,0.812359806475662,0.779222748434377,0.762010731815009,0.760081794232702,0.706234235248026,0.687699540322665,0.684686749475689,0.672246316951284,0.649058571374257,0.648987393374851,0.654937604542808,0.638629033065888,0.640410495785706,0.641705336258202,0.650081084878961,0.663390347597667,0.668489827942507,0.694078499594709,0.695290643381892,0.695487304893709,0.699829820892698,0.701961593669392,0.703184118740559,0.705142717919912,0.707916331765797,0.708361922647474,0.709423754054888,0.699429598672681,0.69833180278907,0.69718347794718,0.696820767473174,0.696914660193576,0.696707267974235,0.698936646034708,0.699634390448708,0.709592874219459,0.709846629121849,0.70234596045925,0.701955941101009,0.693035767962412,0.692315004870178,0.699708746061872,0.700660469764628,0.700768559546052,0.702332152599993,0.703604928575637,0.703553886634408,0.700747756304009,0.700133340229248,0.699095022442311,0.697912927129436,0.697728613431719,0.751194071350729
0.730600907073958,0.735209523002476,0.757140172996582,0.762911014845124,0.812136519244048,0.812560784664419,0.819161955225255,0.826031996776887,0.846006797139397,0.846465303756532,0.881297537405385,0.852942147277628,0.879723859679769,0.914457212018336,0.895170989281964,0.869230016766955,0.887579555026258,0.889052164626793,0.889184796524666,0.928431610534511,0.930925967936903,0.936840856594535,0.945642877886213,0.955260742686886,0.933145391970931,0.938092115470064,0.940444330075805,0.949037118173497,0.94732740455478,0.947378065167979,0.944974941735134,0.923007306686951,0.924546992607688,0.903144632391491,0.947632145607227,0.947936003380006,0.921958784388733,0.920582191231049,0.936485570101866,0.936286533876768,0.973229173633862,0.960472099503233,0.970277434944125,0.97021683841878,1.0072546603373,0.988830542905002,0.978890259530215,0.981581985103789,0.981139730949417,1.09078980693159,0.96478284463377,0.970233834565501,0.97106170693694,0.964144437669061,0.966046345800997,0.976996996344414,0.977232009131458,0.977594101386481,0.944115927665396,0.95584494036364,1.0057500585452,1.00585487316768,1.00236097067502,0.994097121096389,0.984426132660779,0.983169867382698,0.988718119158959,0.982599413002263,0.985007482032644,0.985417972214717,0.969199506260796,0.920872318908502,0.892418477954855,0.897897687418326,0.899961234117044,0.900236217188056,0.918164859836877,0.934605046343685,0.92789672432052,0.929121936585788,0.916247680834093,1.02886982568234,0.920119125737838,0.918620849738889,0.91787973050209,0.91575515204792,0.914768214580554,0.915359988890622,0.905412120795941,0.897530749792939,0.897283926668085,0.866551523782373,0.86729755210228,0.86874186109261,0.868184805042629,0.848881164044633,0.848033267030021,0.848082576501199,0.848332628810053,0.897128358762385,0.883615856903544,0.859192800554609,0.846595567481774,0.87920546106806,0.854032564875712,0.855032381196433,0.82513465265905,0.801692089779926,0.812174849816038,0.805837233698481,0.805020982371209,0.80404225467609,0.795626594444115,0.796120751071903,0.786889075684717,0.783023167935542,0.762628897904892,0.739484939894165,0.736358750178652,0.713424621093932,0.682975499652759,0.682178959714572,0.639035565897399,0.642001194069264,0.649206210609977,0.640430414303214,0.640341852368341,0.641339493848866,0.634584364443967,0.670961826505333,0.670946524281116,0.693097815741689,0.696270806198276,0.697441144018373,0.699393544789508,0.700912608464567,0.702860565853463,0.705325219427749,0.706061788138668,0.707055406386989,0.700900971658551,0.700387905751111,0.698559456983931,0.697077590291803,0.696762318781471,0.703126377322954,0.705103975434779,0.705651660743406,0.707653980499459,0.713400397375481,0.713790468483039,0.714562086263032,0.926008436009581,0.698586315851252,0.698145958353891,0.701877116272959,0.701049698210727,0.701262384531952,0.702199306304299,0.703922628016096,0.70364284938558,0.702965923745275,0.701717945370118,0.706902069310427,0.99419879510685,0.758398300679066,0.760029318730283
0.731775615489278,0.73985280329387,0.75688833044983,0.770079102086455,0.793091019131193,0.812133559306706,0.815076909928131,0.810093533445817,0.810493565037935,0.827510445247423,0.840606315209128,0.845216467647444,0.86740057330482,0.86186182885363,0.861696014421862,0.926145050522723,0.910483370474363,0.900946560255333,0.901057249008738,0.921070921746091,0.93279102692213,0.956277692507223,0.920114949362606,0.915133193854444,0.926489833136728,0.932368888342319,0.936866163386727,0.93114454054772,0.952839581145949,0.953023105395887,0.952820318651516,0.922210326421829,0.948176212631396,0.921334443150443,0.917573859914811,0.897992080238474,0.920498633788642,0.949078952483168,0.938481507596178,0.916769477577371,0.917292914044593,0.969546421556649,0.969866485653015,1.00316702860235,0.992815336723162,0.982379255478284,0.975762173838895,0.970487223064234,0.974185544676844,0.991702892174695,0.96351639008634,0.97156841225806,0.971510808896892,1.02782343091947,1.02677303599168,0.97632247168278,0.977017910954976,0.952215409276142,0.976546848879287,0.977986429914821,1.0007698879785,1.00608136252893,1.00146144510721,0.99457178916316,0.996513525940835,0.99662654974977,0.994798536802542,1.00855513789265,0.960913640832366,0.911757854056976,0.907161816438362,0.959601664945752,0.89155405707143,0.89841429219704,0.902931198994856,0.932323704657972,0.933514291612383,0.934583436601539,0.928086592162194,0.9273513661786,0.929157544297387,0.908629312156855,0.917715580561357,0.906552615693874,0.907048480911739,0.874520812625677,0.874787785954919,0.874318796683888,0.905046414763065,0.907567466311289,0.864772474991472,0.864461827078792,0.864665709103322,0.850563282939037,0.842013964795286,0.841171742894905,0.84760515243309,0.846190799834228,0.848330768058987,0.848904164793574,0.848204172397253,0.84754515442998,0.861944909282761,0.860096848217766,0.863950649011028,0.854537338311148,0.828763219417046,0.819656862770533,0.830998316332215,0.837283192359792,0.862499565675562,0.809726714775119,0.811769975957242,0.812326929925838,0.786185728465207,0.789053818892951,0.761126589599097,0.758326857940825,0.728687291298648,0.694634922859309,0.689129621084154,0.689897831947414,0.649749300771043,0.636672303230263,0.627441786939351,0.64025167005082,0.639120752459136,0.621616073101988,0.635622763627062,0.670928675773092,0.671350161159063,0.693110596530555,0.694897884881301,0.697038713551214,0.699270007480413,0.700434522919051,0.702966159237175,0.703452585691589,0.70771679089575,0.706502373657428,0.701707509455489,0.701827213383724,0.703040816051307,0.702145882184966,0.707425154344613,0.709160174889904,0.710013738074815,0.709471285824522,0.708996580676127,0.710726614309473,0.712276383181535,0.713185160052172,0.800552896298518,0.924879395968911,0.925417923318103,0.845181348462621,0.715479419829425,0.713508165277828,0.719997451157188,0.719354417203663,0.790193971324786,0.70756201095159,0.978138949802215,0.796418627147684,0.815337544747892,0.757278940524371,0.761167369554445
0.74025346817544,0.755844264307676,0.774625869325264,0.80421569389633,0.804421707351124,0.812703417394261,0.822155601428279,0.833727884299999,0.834485873329941,0.910524632064491,0.911089404794475,0.911094493548757,0.864495690411438,0.864386028211721,0.877720449099522,0.915607790770556,0.915590905201223,0.915570271210465,0.926552945856203,0.929821255317017,0.928641192809556,0.921428111313314,0.92138330581589,0.915324618887939,0.920220281230289,0.960165704354145,0.951235356921225,0.952676950322979,0.938031677842416,0.944160879068013,0.931278698212273,0.927637342680097,0.99163782565328,0.942948997011119,0.902608072334099,0.90372374215188,0.904145900871137,0.903152223416999,0.903517698158075,0.964253527096749,0.919107960434816,0.912402327302109,0.971686709962563,0.984341394896778,0.983330009597175,0.971591862982293,0.973470473446826,0.969899162373911,0.970435989040227,0.971777723804853,0.958117424501499,0.958054514235212,0.959755822928041,0.960286103179264,0.966384560607121,0.999055394050887,0.998037673820649,1.0125394137998,0.995744749424173,1.0019555857714,1.04080420873672,1.00328848823109,1.0028018062462,1.0018181362873,1.02740353240946,1.00207465647854,0.993342235521026,0.986160316208471,0.988325100269841,0.96740757727919,0.908435091182518,0.908672468677559,0.942176743487087,0.927914111865101,0.928681860645835,0.944209187499937,0.934449384497033,0.927198336702606,0.929984599217799,0.932231897666883,0.921013751445642,0.929127148445678,0.929357499769335,0.873751298907479,0.869687342578271,0.929498107699971,0.874334048218272,0.870882777179164,0.871729243717746,0.87348812884773,0.88161175607463,0.907169468965857,0.857183023076139,0.864957069519989,0.86253796360933,0.862961203060001,0.853047717486914,0.849358942687066,0.849955647244934,0.863662941487807,0.893127705815268,0.894565727361387,0.850783992303947,0.849664798927536,0.862623785506836,0.86368070148438,0.840681922394307,0.841103402276292,0.811932112276027,0.810300417934343,0.816935113889796,0.818364221811976,0.817038340193783,0.784945654646018,0.787484646387542,0.742238935304088,0.748213012625634,0.743492610905693,0.741942364463842,0.704631442464357,0.689971278025625,0.672022348079508,0.671801398493041,0.65203232201354,0.641106861668392,0.636810314877774,0.638148524124098,0.637601078215812,0.650130407813696,0.677371202834547,0.660831432763348,0.669558419191206,0.68786623049287,0.690670540009818,0.692043808163281,0.701046047673328,0.703438936915148,0.705297574379682,0.705937212921276,0.707094625045808,0.704662508636437,0.706637118980882,0.707414877769617,0.707566762360692,0.708007244329166,0.709134447823252,0.709793605229783,0.709192993770586,0.708735924113003,0.710594127491962,0.724594436784696,0.725407694148103,0.725778876340677,0.786446943102239,0.71607422769124,0.717194510688359,0.71750639086385,0.719307750713012,0.723907542573645,0.725609490322224,0.726457896057418,0.727418781564336,0.814979041028098,0.816060500633769,0.815246431536468,0.822159364598079,0.762289352100707
0.743417838962535,0.764381492487961,0.779831411755148,0.805628172887733,0.821461781763018,0.836082165326185,0.843009438639215,0.850015200196964,0.857176972911885,0.884586981544732,0.898137464232391,0.890927230280322,0.886030623095933,0.907678232961742,0.910825086348449,0.917618145952053,0.918166345058264,0.920042926019213,0.929795430726148,0.92926036018565,0.929466088275233,0.926208369588337,0.920075195543509,0.918272906548679,0.918760114862261,0.953831733840985,0.949404851814729,0.94578208884478,0.942616334960613,0.94352101975978,0.944039831802798,0.942712901011586,0.939324212861989,0.923821132390808,0.909574704073811,0.906569909807645,0.904839460158275,0.904760651317072,0.90515811988741,0.923229816837942,0.920740936940693,0.917496965913319,0.977611163497976,0.979395376642476,0.9789701786211,0.975535896977356,0.975271463724197,0.975320959232109,0.966106261096261,0.963178966368686,0.958034282460515,0.957695749291186,0.958265844239202,0.975376688881626,0.990176679452464,0.99800643712733,1.00087624444434,1.00246262929201,1.0022395957912,1.00116588252508,1.00884929216812,1.00595235967919,1.00421207709495,1.00398743686443,1.00477621108472,0.997889608820993,0.99530059977069,0.98675889140378,0.976385669871009,0.9652500812119,0.963567105011601,0.960208056955316,0.956439189882451,0.952415545753086,0.948977718305813,0.946028149867228,0.942580331362226,0.940057431817042,0.938047399803169,0.935379018140823,0.930332859244257,0.924739081499308,0.92175904987144,0.901401147496694,0.881070033015866,0.882041559880691,0.873319540712038,0.872612983587979,0.873012595947491,0.872964909446227,0.875380611831527,0.892120356945206,0.882700679833965,0.873863067476204,0.86628079935884,0.863604487978621,0.862089250145893,0.860173625142416,0.859939222662302,0.871209382439081,0.893289832033202,0.894160396008333,0.850938664935347,0.844728195311001,0.840190662163761,0.837736208919715,0.837414258500351,0.835383157786021,0.81279062582111,0.812315431724999,0.814273005494934,0.812563913230518,0.810868484087837,0.797499418792119,0.780304356635372,0.75478013917961,0.752189309183321,0.745811310035183,0.731590639472495,0.704394279232112,0.691939426992763,0.674399549712925,0.669458223783344,0.649389829465937,0.640092521419184,0.639047501114607,0.638818817504192,0.638381324147175,0.641889568812947,0.657881376651241,0.663777024715278,0.677666323385531,0.683265665432164,0.691421894943632,0.692022479535168,0.701018641335819,0.705419040953248,0.705627212073628,0.706378192165915,0.706063875814867,0.706227907829449,0.70699430502983,0.708588043499832,0.709131401340472,0.710216936512196,0.711513951780091,0.713555089596464,0.713874925315261,0.716453126417269,0.720694152413764,0.724262314087337,0.725117470516431,0.725805726508478,0.725193193689794,0.715721530982623,0.716963021467709,0.718288380772027,0.719001512793199,0.723435330685481,0.72586919612767,0.726662382034232,0.727448901660331,0.773949094809767,0.788121704396375,0.80203964624041,0.788644884657362,0.764675179674215
