0.785025368443816,0.782515413650348,0.782949735056606,0.783678484082836,0.788729300436511,0.788762647211149,0.789738650371279,0.783615043877428,0.782988775183011,0.78328401613895,0.782271412860315,0.787202668826874,0.78567522388127,0.784281166034217,0.784052618627553,0.784788687677485,0.777859878576526,0.777870451944094,0.77764434454533,0.779883458461863,0.787035121617718,0.788863500871029,0.787589003411092,0.785989171564445,0.786363306109162,0.789323849028224,0.789525556347984,0.787050575001087,0.788871634230697,0.791371015656598,0.793169301479138,0.794123344568165,0.793011514301583,0.783844404620059,0.781722411082742,0.780439780263137,0.780497527116778,0.78230801297882,0.783818377869122,0.77898878889841,0.777539424205616,0.779401150233565,0.779488990517977,0.78220715931894,0.785112395392261,0.789969637785844,0.788622753424864,0.770608175096757,0.768992889866741,0.763552485584981,0.759952660596033,0.759293858462945,0.759232858265437,0.760041314216412,0.758186908212164,0.756556169598779,0.756393502405424,0.766578908717352,0.764496768642407,0.76202666731131,0.758735909989737,0.757938027406331,0.757421559067428,0.756536649535577,0.764297501330547,0.764888796578393,0.773290557115182,0.773086409787521,0.772072179836953,0.764674889219131,0.755129578313055,0.750505763341938,0.75052528340514,0.751099498597684,0.756619609804188,0.758653763057093,0.760970957226436,0.76092703708423,0.749923414789727,0.737449281067293,0.73684985245978,0.734508258211434,0.735071900036409,0.733566415161908,0.733204480656693,0.727962530350826,0.734287844164438,0.731340314620844,0.72457173270534,0.718747433847261,0.720002411243996,0.720476586112626,0.721922697461552,0.721067068024505,0.719405422644383,0.71851319308883,0.71868968699362,0.721182561731787,0.722136604820814,0.724483892420928,0.717336295944906,0.714054485318968,0.713877991414178,0.713012601945529,0.710922328510916,0.701184256980715,0.70533715042707,0.710128512607343,0.708698667977752,0.703249317000357,0.707028075901996,0.709464830458455,0.708841815107905,0.710335913278871,0.705630764711076,0.694044793864361,0.694642595799941,0.690058634291195,0.689244484988453,0.690412435436742,0.69024163488372,0.696729615890686,0.697508791746857,0.69945022469955,0.699631598620141,0.661312901217454,0.693910593429843,0.693354271628569,0.693572245667665,0.693297338110894,0.693559232292196,0.695722705963818,0.699193210534049,0.699893492801442,0.70022452053992,0.702235900385755,0.70491828240418,0.715919464690784,0.720638439970014,0.721102854807043,0.724887307060448,0.725666482916619,0.732876706262082,0.73807554976171,0.740803478594275,0.741775415074571,0.75109787192575,0.753069398309214,0.752526089883408,0.751422392976493,0.74483274497368,0.852498093575564,0.792380365591366,0.7931335146966,0.710201712844353,0.711344449877672,0.711830824785804,0.711093129063939,0.706116326283241,0.705224096727688,0.695320917996232,0.694816649696831,0.69113955779104,0.686096874797032,0.660466218476041,0.662280771017917,0.662279144345984
0.786132318694598,0.783828137900723,0.783532896944784,0.787881804359131,0.792985487550647,0.79582972342646,0.784299872761453,0.783183975815037,0.783108335570127,0.782430013373836,0.788033084848952,0.786801694195254,0.786036345050518,0.784522726816349,0.785356396182294,0.781582517296456,0.779429616992402,0.778961948811506,0.779183989530436,0.784984701645478,0.785041635163152,0.787135161941632,0.786361679437228,0.786065625145322,0.783194549182605,0.785968024829309,0.786498319879646,0.786574773460523,0.787644310256833,0.794484465737414,0.794222571556112,0.795157094581937,0.785613410347795,0.786205518931608,0.780243766295144,0.781151449234065,0.786889534479666,0.786338906030159,0.784268965994715,0.778645561120431,0.77736943698856,0.777865571928293,0.781964785200841,0.78452760683215,0.78642674631457,0.790195745184607,0.790087571501026,0.770037213248081,0.766530108559345,0.760313781765282,0.759445138952766,0.760662702895028,0.759482552407237,0.763536218865645,0.759067751064182,0.758448802393466,0.767116523791391,0.766428441563499,0.763367044984556,0.760887183621858,0.759209271522401,0.759226351577703,0.762502468851874,0.764478061915171,0.764431701765065,0.777676877984001,0.777502010751145,0.780597567440692,0.775267776850413,0.757775360212976,0.751761554074639,0.750223535761467,0.750988071570236,0.755698913489798,0.756487036041604,0.757162104894027,0.75968100638313,0.758765190084541,0.742981592313299,0.737416747628622,0.736888892586185,0.732738439147731,0.732596918689512,0.732499318373499,0.724684786404721,0.885706601099001,0.815605174122635,0.865405735368289,0.722191098330588,0.720775080412432,0.719860890785777,0.720150438389949,0.720806800515137,0.722194351674455,0.723654289734817,0.725629069462147,0.723356608770977,0.720413959243184,0.726905193594018,0.72143388254552,0.720851533993309,0.715723450722791,0.71452296683583,0.706550647689499,0.721836483849074,0.714290352749333,0.713101255565907,0.713654324023314,0.714478233357658,0.714412353144349,0.705978872504855,0.709465643794421,0.704717388420387,0.707356663632573,0.699616958572739,0.694099287374135,0.695041943759628,0.692382335148272,0.692743456317521,0.692928083581978,0.699718625568586,0.696601922143903,0.697786139311528,0.701659245185312,0.701812965683032,0.704954882522685,0.691438865426813,0.69294028362148,0.692793883147461,0.693741419548754,0.696064307069864,0.699738145631788,0.700257053978591,0.700442494579016,0.703309503861899,0.991293876305775,0.710637660922545,0.71589262460388,0.721310255478571,0.723481862509861,0.724580679400974,0.728258584642732,0.730388711539717,0.740454557464528,0.740778265179305,0.746088535706381,0.752913237803593,0.751996608169037,0.752491929772803,0.826674676630448,0.776208806563972,0.708270853259228,0.709563244110434,0.705666551493614,0.708578294254669,0.710987395388258,0.713279376142631,0.710877595032743,0.704914215724347,0.703169610075614,0.700405081124544,0.692780056436025,0.68899560418262,0.741550934347741,0.662275891002116,0.660892406522632,0.661642302283998
0.783633750604664,0.784091658753958,0.785636183754865,0.793222981652945,0.801351461304898,0.86551146904397,0.787137601949532,0.784623580476229,0.78357681708699,0.784246192587646,0.787929791181171,0.786694333847639,0.785880184544897,0.784341352895758,0.782225052710209,0.778777321547048,0.778783828234783,0.779445070375771,0.787165255372402,0.786281159176518,0.786038785058419,0.785858224473794,0.786263265785248,0.78120594274384,0.780888741716797,0.784721180792242,0.785321422735723,0.785278315929483,0.795505202375717,0.796593445899262,0.795616629403165,0.783477590099043,0.781720784410808,0.780458486990373,0.780476380381642,0.78999566453678,0.789086354925926,0.786010318299581,0.778580494243089,0.776489407472509,0.777562197612686,0.779122989332928,0.786233172354478,0.786712227238909,0.78242920003787,0.779221402984908,0.775459724138572,0.770707402084703,0.763981113639472,0.761715159636035,0.759347538636752,0.760091741046352,0.76167611950963,0.761160464506695,0.761044157463446,0.765718399264504,0.764134834137192,0.764144594168793,0.763210884478935,0.762190961176599,0.760678156278397,0.766458534994269,0.766477241721505,0.765708639232902,0.778166506236,0.777846865201058,0.778295826654717,0.778600827642258,0.872603758674251,0.753330479154549,0.753354065897585,0.756571622982148,0.757072637937682,0.756213755156767,0.755434579300596,0.755750153655705,0.755517539569207,0.748029968659074,0.740927105661225,0.738929552526824,0.732459464911127,0.731544461948505,0.726080470923708,1.01824783024471,0.709302976601066,0.711856038200774,0.715183395640852,0.718688873657654,0.720396879187882,0.721233801897694,0.723797436864969,0.724109757876211,0.724662826333618,0.730298431247405,0.730136577390016,0.730353738093145,0.726797833246404,0.727058914091739,0.726178071239721,0.721623389825779,0.718352965903375,0.719228928739592,0.719359062494277,0.706980902415923,0.711118342478909,0.697195657399649,0.715642117126113,0.699539691655895,0.715122395443344,0.717210228870056,0.717093921826807,0.709685244505451,0.703015889577893,0.69598460014512,0.695608025592503,0.69456207553923,0.695590945537201,0.693528325525459,0.702304220606965,0.699250144051723,0.702836955665202,0.708082159314936,0.649773290520846,0.650243398709642,0.683293305719558,0.701601498331671,0.70324118364069,0.703050049688497,0.693436418561213,0.696353854674036,0.698431928069147,0.698971983151086,0.700580761693368,0.70511510970814,0.711925985093917,0.714237485911492,0.714538420219199,0.718203312085489,0.724152051346484,0.72412277125168,0.727311861577406,0.727748622991564,0.728112997504679,0.731580248731043,0.801916729801807,0.744898625186989,0.772121793330926,0.743723354714998,0.927609670107266,0.815458773648616,0.864413465488823,0.708219613093321,0.70558928457677,0.704092746397903,0.706204166567652,0.71147865031219,0.714285472733532,0.704395307377544,0.704429467488148,0.698253807492423,0.697156617273243,0.691481158897085,1.03006560184195,0.665083526759425,0.665249447296647,0.660088830587458,0.659817989710522
0.783749244311946,0.785841144418492,0.800630032302368,0.800514538595086,0.799967163489446,0.790385252464866,0.786123371998963,0.786584533492125,0.786704907215208,0.788634140128399,0.787969644643543,0.785529636743217,0.784847247867093,0.784744767535279,0.780454420310539,0.778793588266384,0.778845641768257,0.785755744141981,0.785745984110379,0.785875304529097,0.785144115494966,0.786441386361972,0.77968744449387,0.778561787515853,0.779717537924641,0.782036358765917,0.783418216573468,0.786405599579434,0.79550438903975,0.795112361103764,0.785005848380614,0.781054662254019,0.777546744229317,0.778080292623522,0.778495907302544,0.791399482415435,0.783994058437945,0.781871251564662,0.776338126982689,0.776373913765227,0.777620757802294,0.781757384529313,0.785958264797708,0.78170777103534,0.780813914807854,0.780329979907622,0.779038402392383,0.766404854820462,0.763733046169605,0.760655382871327,0.759830660201017,0.760984783937871,0.765553292063248,0.765831452963885,0.768765155796044,0.767502858375609,0.762839189942119,0.763243417917606,0.76354272555338,0.76317184435253,0.769250717368209,0.766838362890753,0.766944096566434,0.780242952959178,0.779433683672236,0.7864015328996,0.78567766388917,0.779023762344981,0.765245851067807,0.760789583305845,0.755467112739267,0.756356088950953,0.757091344664918,0.75590794083326,0.755091351522617,0.750099908694517,0.747278446225773,0.741261386743569,0.738550537966307,0.732858812870813,0.73138423476305,0.727887703441883,0.718879194273879,0.713742977643693,0.709216762988588,0.709185856221851,0.713309469573402,0.71649286654736,0.720675853424486,0.721745390220795,0.723549369395103,0.726760419791932,0.730792939515204,0.73068801917549,0.72928826797667,0.730888099823317,0.733418388015955,0.733763242465868,0.722040631176735,0.730827099625809,0.720420465930918,0.721057307992903,0.71998614452466,0.724914147147352,0.722397685666149,0.695530758675659,0.697442098197582,0.701574658244767,0.716622186966077,0.717550203304168,0.708198466358185,0.708392853654245,0.707526650849629,0.693359964980336,0.696054547038263,0.697345311217535,0.704484774333889,0.708893868609778,0.703147650004511,0.696836976238301,0.668857405645263,0.665599995098327,0.638005945753541,0.688542576049126,0.682784970740323,0.704466067606653,0.704360333930973,0.702127726702174,0.699027289996827,0.696775162704826,0.6973314845061,0.699107810257537,0.707416850494114,0.709005295637226,0.711692557671452,0.714134192243712,0.719528236375366,0.720406639219483,0.724245584982663,0.726563592487972,0.726936100360755,0.727087380850576,0.727579449110475,0.727672982746654,0.738465137689796,0.741083266166846,0.740553784452475,0.958524570204397,0.924722327425214,0.876784305543476,0.705299736972598,0.704462000926819,0.704432720832015,0.702809302242332,0.707774718319495,0.706550647689499,0.706603514527339,0.704586441329736,0.704483147661956,0.707871505299542,0.694518155397024,0.818614517199704,0.668214056895543,0.66557152833949,0.663804149283687,0.662237664211678,0.659452801861439
0.788445446184107,0.792837460404693,0.801779276023421,0.801776836015521,0.794016797556518,0.791502776083215,0.79199077766328,0.793423062300772,0.789608516616595,0.787493029767013,0.786451146393574,0.785427156411403,0.78233078638589,0.780606514136326,0.778784641570749,0.778064025904186,0.783496296826279,0.783301096194253,0.783663844035434,0.784253512611347,0.784281979370184,0.778412947033933,0.778170572915834,0.778011972402313,0.780450353630705,0.781227902814942,0.792473899227545,0.795854123505463,0.795323828455126,0.78876752722695,0.781988371943877,0.780569100681854,0.778067279248053,0.778134786133296,0.782572347168022,0.783016428605881,0.782050185477352,0.77869110793457,0.77599733921261,0.775943659038803,0.780747221258578,0.783725657568909,0.786599173539527,0.781654904197499,0.781720784410808,0.780767554657747,0.766351174646655,0.76574198600754,0.764857076475688,0.761369491850156,0.761642772734992,0.761093770957419,0.766282854425446,0.766758655966009,0.768966863115804,0.762308081555815,0.763454885268968,0.762962003673102,0.768239740761507,0.768185247251733,0.7681836205798,0.767721645750671,0.782570720496088,0.783226269285309,0.786668307096703,0.785943624750306,0.785724837375243,0.765585012165952,0.76521982431687,0.759310938518247,0.757689146600497,0.757618386371388,0.756622863148055,0.75665946326656,0.749593200387216,0.74927437268824,0.744971825423998,0.7367489987999,0.736481411266831,0.735665635292155,0.724483079084961,0.72175677692433,0.715711250683289,0.712670187503516,0.709529897335797,0.708840188435971,0.712892228222446,0.715279369284931,0.720050398066036,0.723070314510672,0.726862900123746,0.729704695991659,0.731267927719801,0.730451338409158,0.735728262161597,0.735040179933705,0.732618065424648,0.726961313775725,0.753354879233552,0.722396872330182,0.722986540906094,0.722596139642042,0.728409051796586,0.701106990063871,0.696058613718097,0.715083355316939,0.673850475145296,0.713110202261542,0.720226078634859,0.721607123106443,0.721386709059447,0.707408717134447,0.687634893110205,0.713198042545953,0.691748746430154,0.691640572746573,0.711097195743773,0.670252276828282,0.705782858536863,0.69219364120398,0.680029388484888,0.663116067055796,0.63573104505447,0.689433178932745,0.682505996503719,0.687572266240763,0.703878025702675,0.677466566853579,0.698618182005539,0.696851616285703,0.699676332098313,0.715834064414272,0.705923565659115,0.716875134451745,0.716344839401407,0.713178522482751,0.720887320775847,0.722516432717298,0.724530252571034,0.725577829296241,0.726394418606883,0.727697382825657,0.729097947360444,0.733624162015549,0.739533861150139,0.74026993020007,0.74154361432404,0.860558253006308,0.780878981685196,0.701744645461823,0.703149276676444,0.704287133693963,0.703372130731341,0.708188706326584,0.708276546610996,0.700873562641407,0.699852826003104,0.700990683020622,0.703359930691839,0.706177326480749,0.827187078289516,0.672970445629245,0.670654878131836,0.663406427995934,0.670875292178832,0.665516221493749,0.662113223808761
0.918345773445695,0.807166000131375,0.798333171532194,0.793132701360633,0.792220138405911,0.793275848490785,0.800859393044999,0.798033050560454,0.789959064418276,0.788952967827375,0.78984194403906,0.781775277920582,0.781122982475228,0.779469470454774,0.782032292086083,0.784946474855039,0.783451563348106,0.783060348748087,0.782194959279438,0.783605283845827,0.78322870929321,0.778522747389448,0.778028239121648,0.778395866978631,0.783290522826685,0.797150581036503,0.797989943754215,0.796002963987383,0.792348645488661,0.783202682542273,0.782599187254926,0.778935108724603,0.776756995005578,0.786042851738252,0.783393003158498,0.782219359358442,0.777984318979442,0.776204739884138,0.777258009961112,0.777584157683789,0.778436533776969,0.778878175206928,0.781251489557979,0.780874101669395,0.780245392967078,0.764078713955484,0.764299941338447,0.763515885466476,0.763484165363772,0.763044150605746,0.763755819576675,0.761611052632288,0.766097413825021,0.764736702752606,0.764356874856122,0.762108814243955,0.762805843167481,0.769904639485496,0.766845682914454,0.766654548962262,0.768142140445494,0.781000168744245,0.780604887464392,0.787681723711305,0.786748014021447,0.787109135190695,0.780559340650253,0.769358077715823,0.762377215112991,0.760203981409767,0.757679386568896,0.758691176511565,0.755916074192927,0.748047862050343,0.748121062287353,0.747090565617448,0.74146797407913,0.735584301695478,0.735275234028103,0.73198203669863,0.722051204544303,0.718792167325434,0.718270818970731,0.71123139617829,0.708749094807692,0.710513220519628,0.711685237647751,0.718204938757422,0.723118301332712,0.726200844646791,0.725265508284999,0.7310133535622,0.731505421822099,0.731665649007554,0.74371034133953,0.744755478056836,0.729918603350921,0.753197905391964,0.739808768706909,0.72205689789607,0.723843797015076,0.723982064129427,0.730545685381304,0.684926484340843,0.71219763930682,0.674632904345334,0.661511355193348,0.709521763976129,0.720216318603258,0.72113376157378,0.721115868182511,0.686946810882313,0.685342099019865,0.684523883037289,0.666100196717894,0.718789727317534,0.716869441099977,0.659595948991592,0.658986760352477,0.693690179382847,0.685929327587877,0.662871252929796,0.720340759006174,0.693642192560807,0.685341285683898,0.69740712475101,0.676276656334187,0.696577522064899,0.698526275041293,0.697186710704014,0.708660441187314,0.715716944035056,0.713714510884856,0.722914154005051,0.725142694554016,0.725613616078779,0.719937344366654,0.722666899871152,0.725198001399757,0.725788483311635,0.726880793515015,0.72854162555917,0.73255706522714,0.732474104958529,0.731495661790498,0.716779974143632,0.717360696023909,0.972635949227949,0.699774745750293,0.700520574831826,0.704078106350501,0.704396120713511,0.708226933117022,0.706810915198867,0.700487228057188,0.699597438509536,0.6990769034908,0.700227773883787,0.700680802017281,0.834799902938533,0.666705318677175,0.667959482737943,0.668445044310107,0.67410179595903,0.67350155401555,0.673434860466274,0.665058313344455
0.811294493498726,0.805380727684303,0.800014336975519,0.795201828060109,0.793649169699535,0.801660528972272,0.802755279183552,0.792330752097392,0.79026325206985,0.791412495790903,0.784340539559792,0.78130923641162,0.780230752919676,0.77819171965097,0.777824905129954,0.785502796656314,0.786015198315382,0.78272932100961,0.781910291691067,0.782157545824967,0.777736251509576,0.777446703905404,0.778379600259295,0.781215702775441,0.796464938816511,0.79700011388265,0.797951716963777,0.795185561340774,0.78360691051776,0.781848478157592,0.780495900444845,0.779530470652282,0.780926968507236,0.78527912926545,0.784069698682855,0.777365370308726,0.773527237881514,0.773637038237028,0.777257196625145,0.778750481460145,0.779180736186569,0.77644142065047,0.772308860603284,0.774941629127736,0.872188957331195,0.763667165956296,0.763588272367519,0.76341909848643,0.763750126224907,0.765027877028711,0.763415845142563,0.762231627974938,0.767085617024653,0.765456505083202,0.764007953726375,0.763834713165452,0.764456915180035,0.767547591853781,0.767075043657085,0.767964833204737,0.785961518141575,0.783834644588457,0.789641863391233,0.786761027396915,0.7804088734964,0.775264523506546,0.774560987895285,0.767959953188936,0.760965263874669,0.76082618342435,0.760242208200205,0.754958777760033,0.750227602441301,0.748538303638308,0.749504546766837,0.74755172711061,0.742830311823479,0.739254073577568,0.733185773929457,0.722782393578434,0.722903580637483,0.71871490040859,0.718430232820219,0.718383059334146,0.712178932579584,0.711424156802416,0.714499380092794,0.717302135834302,0.724858026965644,0.729806362987506,0.729875496544681,0.731648568952252,0.731023926929768,0.742516364140304,0.742957192234296,0.742757924922436,0.739228046826631,0.753448412869731,0.731951129931892,0.72989338993595,0.723359862114844,0.721372069012045,0.72310610129321,0.684440922768678,0.682571876717028,0.672329536887426,0.6733779269486,0.666742732131647,0.71895971453459,0.718557113231036,0.718527019800265,0.699829239260067,0.683116811814768,0.683171305324542,0.665425941201437,0.721089028095608,0.718342392535807,0.655661029584333,0.708077279299136,0.713658390703148,0.713595763833706,0.68200904822802,0.66921364679871,0.66773825535498,0.682553983325759,0.69922574397272,0.679547893592558,0.68281343749916,0.694546622155861,0.694644222471874,0.71783975090834,0.699155797079577,0.699117570289139,0.70641400724708,0.698564501831732,0.721045107953402,0.721362308980444,0.722759620171364,0.724757986641731,0.725956030520791,0.731374474731448,0.732266704287001,0.732654665543153,0.732618065424648,1.07487228025161,0.81544250692928,0.81815904905831,0.702539274701363,0.70024729394699,0.701918699358713,0.704213933456953,0.707368863672074,0.707801558406399,0.701781245580328,0.701118376767406,0.698158647184311,0.69875400911199,0.698603541958137,0.825902007462011,0.749781894331508,0.66357397520509,0.666357210883395,0.666824065728324,0.676501950396984,0.676865511574132,0.679556026952225,0.662251490923113
0.809352247210067,0.797286408142954,0.796867540120065,0.799549108802524,0.802880532922435,0.802546251840091,0.794763439974018,0.790750440313948,0.791497082731448,0.787288069103385,0.782149412465299,0.781688250972137,0.77928646986225,0.777963172244306,0.781245796206211,0.7809107017879,0.780896875076465,0.780542260594951,0.780503220468546,0.777512584118713,0.777388143715796,0.778177079603568,0.778965202155373,0.791011521159283,0.798048503943823,0.797086327495128,0.797472662079346,0.783366976407562,0.779728111292209,0.778404813674265,0.778001399034745,0.778442227128737,0.784687834017605,0.78582650437109,0.783279949459116,0.771458111182037,0.772051033101816,0.773386530759262,0.776404820531965,0.778519494045581,0.77060248174499,0.77013074688426,0.771031923135447,0.767866419552757,0.763885953331359,0.763489045379573,0.761903853580327,0.76406976725985,0.764436581780866,0.763953460216601,0.762774123064777,0.766081960441652,0.76372409947397,0.763715152778336,0.764371514903524,0.766557761982216,0.765429664996298,0.767633805466259,0.768176300556099,0.786146145406033,0.786313692615189,0.786778107452217,0.789430396039872,0.779108349285526,0.777624824482128,0.775098602969324,0.770835909167454,0.769471131415205,0.76164846608676,0.761746066402773,0.758987230803471,0.75042198973736,0.748257702729771,0.748115368935585,0.749466319976399,0.749446799913196,0.74343787379066,0.735119886858449,0.722445672488189,0.722605086337677,0.720039011362501,0.719097168312975,0.719228928739592,0.718805180700902,0.718631940139979,0.716532720009732,0.721142708269415,0.729760002837399,0.729138614158783,0.727109340921679,0.734709152195227,0.734736805618098,0.741844548631747,0.746618017420752,0.714543300235,0.727982050414029,0.728331784879742,0.733440348087058,0.733084920269577,0.726159364512485,0.720492039495994,0.685197325217779,0.687074504629096,0.677268112877686,0.672304323472456,0.681510473280386,0.712274906223663,0.686593009736765,0.692896363479274,0.694984196905987,0.680440936484077,0.66736737415413,0.666637811791933,0.665796822402287,0.721059748000804,0.719033728107566,0.664980233091645,0.666074983302924,0.714159405658682,0.714072378710237,0.671291720193821,0.673259179897451,0.673778088244253,0.675442173632276,0.676706097724644,0.693011857186556,0.69366171262401,0.677176205913441,0.67699971200865,0.691079370929498,0.690610889412635,0.688523055985923,0.708505907353626,0.70486541556634,0.721481056031593,0.720405825883516,0.720118718287245,0.721843803872775,0.727902343489285,0.728378958365815,0.730615632274447,0.730725432629962,0.732330144492409,0.83557257210697,0.991838811403514,0.711288329695965,0.707747064896625,0.701821912378667,0.700505934784424,0.701258270553691,0.70621229992732,0.705995952560158,0.700933749502948,0.697172883992579,0.696947589929782,0.698540915088695,0.698068366891999,0.67946655999588,0.678606050543032,0.663295814304453,0.662844412842893,0.665233993913278,0.673114406095365,0.676190442721709,0.677708940971678,0.678379129808301,0.670743531752215
0.800910633210905,0.799736989410849,0.796781326507587,0.807029359688956,0.802751212503718,0.801738609225083,0.795061934273824,0.794643879586902,0.793313261945257,0.783764697695315,0.783267749419615,0.782196585951372,0.778038812489216,0.780838314886857,0.782077838900223,0.778550400812318,0.779476790478475,0.779302736581585,0.77823970647301,0.777814331762386,0.78023481959951,0.780003832184946,0.786234799026411,0.797388075138801,0.797245741344616,0.796745539725049,0.783931431568504,0.781074182317222,0.780047752327152,0.7774149838027,0.779322256644788,0.780344619955024,0.781361289913494,0.777223849850508,0.771694791948369,0.770985562985341,0.771171003585765,0.773929839185067,0.774051026244117,0.767750112509508,0.766260894354343,0.767428844802632,0.761464652158269,0.762648869325893,0.763768832952143,0.762615522551256,0.761393891929159,0.762404055199894,0.764409741693962,0.762378028448957,0.765277571170511,0.764434955108932,0.76327025800451,0.765682612481966,0.766321081215884,0.764460981859869,0.764700102634101,0.769380037786926,0.904730529361876,0.78881795405689,0.787618283505896,0.786155905437634,0.780478007053576,0.775123003048327,0.776140486342763,0.772958716040738,0.77223159368644,0.769395491170295,0.762588682464352,0.762106374236054,0.753032798190709,0.750540736788509,0.748465916737265,0.747471206849899,0.749438666553529,0.750238989144836,0.735989343006932,0.728405798452718,0.724249651662497,0.721938150844921,0.719250888810695,0.719103675000709,0.72117930838792,0.719424942707585,0.721185001739687,0.721969870947625,0.991041742156075,0.731921849837088,0.730045483761738,0.733382601233417,0.758633429657924,0.704481520990022,0.703444517632383,0.705644591422511,0.718239098868027,0.715529063426732,0.733815295967741,0.724659572989751,0.717835684228506,0.717246828988561,0.719789317220701,0.676141642563702,0.676615004096366,0.676524723804054,0.687966734184649,0.71072712787889,0.687981374232051,0.685691833485578,0.685110298269334,0.695965893417884,0.679801654414191,0.666758185515015,0.676574337298027,0.722818993696939,0.723806383560604,0.716170785504517,0.699694225489582,0.666307597389422,0.713079295494804,0.674224609690013,0.666678478590271,0.676998898672684,0.657764316394414,0.680489736642083,0.684425469385309,0.688247335093186,0.67360484768333,0.679808974437892,0.680388069646236,0.679771560983421,0.690488889017619,0.692331908318332,0.735852702564513,0.679713000793813,0.700077306729934,0.718400139389448,0.719670570169551,0.724705119803891,0.726474125531627,0.732968613226328,0.732803506025073,0.724549772634237,0.724123584587646,0.713276122798764,0.710914195151248,0.708273293267129,0.702537648029429,0.702909342566245,0.702128540038141,0.701943912773683,0.704364400610806,0.698036646789294,0.696770282689025,0.696241614310621,0.696106600540137,0.696754829305656,0.82764254643091,0.680166842263274,0.665403981130334,0.664237657353979,0.664542658341519,0.671114412953064,0.672200216468709,0.677035498791188,0.67776912783322,0.676933831795342,0.670900505593802
0.802119250457534,0.799389694953036,0.806581211571263,0.806348597484765,0.801190420783476,0.797328701613227,0.796441352073475,0.79660157925893,0.78704732165722,0.784397473077466,0.781869624892728,0.779587404169957,0.778233199785276,0.777896478695031,0.778358453524159,0.776910715503299,0.777007502483345,0.778077852615622,0.777569517636387,0.778884681894663,0.780172192730068,0.782400733279032,0.7883942060182,0.789035928095986,0.799735362738915,0.783403576526066,0.780957061938006,0.777680944663835,0.778508920678012,0.778931855380736,0.779183989530436,0.778376346915428,0.777301930103318,0.772817195582519,0.772689501835735,0.772024193014913,0.77233000733842,0.769718385549105,0.766546375278681,0.767099443736088,0.767275937640878,0.76449595530644,0.760543142507912,0.762679776092631,0.763471151988303,0.761771279817743,0.761476038861803,0.763789979687279,0.762464242061436,0.760799343337446,0.761714346300069,0.763585019023652,0.763335324881852,0.765619985612524,0.763281644708045,0.763395511743393,0.764202341022434,0.782068892204588,0.786714667246809,0.787680097039371,0.77869354794247,0.778084359303356,0.773018902902279,0.772685435155901,0.770875762629826,0.770691135365368,0.77155327149015,0.769676905414799,0.761367865178222,0.752805064120012,0.750317069397646,0.749474453336067,0.746731071120133,0.744652184389056,0.744783131479707,0.735836435845178,0.730114617318913,0.729367974901414,0.726024350742,0.725943017145323,0.721577029675673,0.72225372520003,0.724779133376867,0.724792960088303,0.728812466436106,0.738162576710155,0.730535925349703,0.737228867020297,0.739761595220836,0.739855942192982,0.757720053367235,0.686509236132188,0.713263922759262,0.707464023980187,0.704256226927225,0.704919095740147,0.744315463298811,0.699965066366519,0.705397337288611,0.699942292959449,0.686201795136747,0.682850037617665,0.705607177968039,0.679773187655354,0.692873590072205,0.693887820022773,0.696036653646994,0.679561720303993,0.674776864811453,0.697269670972625,0.648386552697494,0.671809815204657,0.695259104462757,0.727191487854323,0.712746641084393,0.719080901593639,0.710755594637727,0.711359903261041,0.665562581643856,0.665824475825157,0.666214063753243,0.656530485732816,0.656779366538649,0.70438880068981,0.706254593397592,0.708340800152371,0.676418176792406,0.678285596172122,0.681528366671655,0.684261988855987,0.679392546422903,0.734500938187733,0.735434647877591,0.673272193272919,0.689605606157701,0.715177702289085,0.721416802490218,0.725466402268792,0.728190264421523,0.729934870070256,0.732979186593896,0.988496000580068,0.712185439267318,0.7098064315645,0.708101679378139,0.706121206299041,0.704715761748453,0.702775955467694,0.701918699358713,0.701666565209013,0.699115130281239,0.693701566086382,0.693509618798223,0.69323552457742,0.693551098932528,0.67859629051143,0.677733341050682,0.667948096034408,0.664780965779785,0.665095726798927,0.667464161134176,0.666801292321254,0.674057875816824,0.674984265482981,0.672697164744409,0.669756141888549,0.669377127328032
0.794177024741972,0.795501135695883,0.803819935964061,0.801579195375595,0.800883793124002,0.800643859013803,0.800204657591745,0.790408025871936,0.787106695182795,0.786080265192724,0.781809438031187,0.778028239121648,0.777434503865902,0.777407663778999,0.778021732433914,0.777857438568625,0.777618317794393,0.77649672749621,0.777256383289179,0.777881025311662,0.781475970284809,0.787041628305452,0.786842360993593,0.786307999263421,0.785071728593923,0.781161209265667,0.780398300128832,0.777247436593544,0.777725678142008,0.773886732378828,0.772629314974194,0.766868456321524,0.766757029294076,0.76397135360787,0.771617525031525,0.770513014788644,0.768689515551134,0.766704975792202,0.765541905359713,0.766499201792608,0.767101883743988,0.760474008950736,0.759014884226341,0.759591539426785,0.760948997155333,0.763264564652742,0.764852196459888,0.763854233228655,0.761457332134568,0.760883116942024,0.76064968951956,0.764052687204548,0.763626499157957,0.763501245419074,0.763568752304316,0.7659388133115,0.781901344995432,0.781910291691067,0.78370288416184,0.777671997968201,0.775532111039615,0.774892828969729,0.771189710313001,0.770704148740836,0.770362547634791,0.7704284278481,0.77080662907265,0.756815623772181,0.753796520663511,0.752670863685494,0.750835164408482,0.750658670503692,0.745337013273081,0.744700984547062,0.744174756176559,0.733376907881649,0.73055951209274,0.727568875742907,0.727003607245998,0.726898686906284,0.723902357204683,0.726597752598577,0.725640456165682,0.73036512479668,0.736742492112166,0.732324451140642,0.744533437337907,0.726944233720423,0.754853857420319,0.754826203997448,0.754347962448984,0.691042770810993,0.688539322705259,0.698138313785141,0.699284304162328,0.715432276446685,0.713606337201275,0.705558377810033,0.701115936759506,0.707545357576865,0.690828050115765,0.704994735985057,0.692040734042227,0.689840660252099,0.693691806054781,0.694276594614892,0.67719653931261,0.671242106699848,0.674337663389395,0.647426816256699,0.651389389086829,0.660624005653596,0.674533677357388,0.702538461365396,0.729664842529287,0.718730353791959,0.711225702826523,0.687450265845747,0.668738658594113,0.669464154276477,0.660556498768354,0.655393442051264,0.671964349038344,0.715560783529436,0.719411929332117,0.707355850296606,0.675086745814795,0.733476948205563,0.733536321731137,0.665649608592301,0.734455391373594,0.657482088813943,0.669518647786251,0.675186786138708,0.696935389890281,0.720023557979132,0.721493256071095,0.725678682956121,0.727779529758302,0.728756346254399,0.930440079271645,0.708332666792703,0.707297290106998,0.704925602427881,0.704571801282334,0.703658424991645,0.704207426769219,0.703876399030741,0.702032566394062,0.696242427646588,0.692324588294631,0.69248888215992,0.692137521022273,0.692280668152425,0.680432803124409,0.675562547355358,0.664214070610942,0.663469868201343,0.663710615647508,0.666858225838929,0.666487344638079,0.670335237096893,0.673851288481263,0.673998502291249,0.671047719403788,0.669847235516828,0.670795585254088
0.794388492093334,0.797764649691419,0.802983013254249,0.803087933593963,0.802691838978144,0.802546251840091,0.792474712563512,0.788979807914278,0.788670740246904,0.782950548392573,0.781742744481911,0.779892405157497,0.780151045994932,0.781088009028657,0.778917215333334,0.778748854788211,0.776044512698683,0.776144553022597,0.77701888918688,0.779711031236906,0.779913551892633,0.786373066140763,0.787253095656814,0.784034725236284,0.780874915005362,0.777777731643881,0.777690704695437,0.777325516846354,0.777019702522847,0.771090483325055,0.769177517131199,0.765157197447429,0.762417068575362,0.763044963941713,0.771279177269347,0.76980785250545,0.76883428935322,0.768978249819339,0.769035183337013,0.759373565387689,0.75825360176144,0.759541112596845,0.76097990392207,0.760135661188558,0.763165337664796,0.769140917012694,0.768901796238462,0.763361351632789,0.762204787888034,0.762055947406114,0.76112630439609,0.762192587848533,0.762713122867269,0.765554105399215,0.76502055700501,0.779920058580368,0.780103872508859,0.77412097313726,0.774342200520222,0.774212066765538,0.772460141093104,0.770264947318778,0.769712692197337,0.771475191237339,0.771329604099287,0.759342658620952,0.756128354880256,0.753576919952481,0.752751383946204,0.753528933130442,0.751729020635968,0.746596870685616,0.747641194066955,0.748081208824981,1.07841029170708,0.733646935422619,0.732352104563512,0.7295127487035,0.729636375770449,0.728843373202844,0.726525365697534,0.732558691899073,0.738498484464434,0.74236589698645,0.739858382200882,0.733298827628839,0.724405812168117,0.723176048186353,0.756632623179656,0.755694033473998,0.696235107622887,0.697769059256225,0.697905699698644,0.696203387520183,0.680000108390085,0.710504273823993,0.727725849584494,0.72615041781685,0.705220843383821,0.685216845280982,0.691259931514122,0.699408744565244,0.697608018734804,0.694453901855649,0.695314411308497,0.685969181050249,0.664928179589771,0.649543929778216,0.664285644176018,0.654026224291114,0.651933510848601,0.65157076300742,0.66367482886497,0.712941841716419,0.659554468857286,0.692851630001102,0.691333945087099,0.687644653141806,0.670575984543059,0.662150637263233,0.658666305981568,0.65733894168379,0.69655474865783,0.721037787929701,0.721677069999586,0.711230582842324,0.734343964346145,0.645973384884072,0.643478883473972,0.742483830701633,0.742503350764835,0.741826655240478,0.659441415157905,0.685475486118416,0.687347785513933,0.718073991666771,0.718884887625646,0.727252488051831,0.724237451622995,0.900411715378299,0.70860838768544,0.707714531457954,0.702371727492207,0.701785312260162,0.701952046133351,0.702706821910518,0.702450621080984,0.700927242815214,0.696576708728933,0.694212341073517,0.693424218521711,0.692447402025614,0.693451871944582,0.691149317822641,0.676183122698008,0.674508463942417,0.663257587514014,0.664159577101168,0.665572341675457,0.667886282500933,0.669737435161313,0.671255120075316,0.672969632293279,0.673347020181862,0.668243336990347,0.669416167454437,0.670217303381711
0.795278281640986,0.797946023612009,0.802386024654636,0.802109490425932,0.802725999088748,0.801079807091995,0.788905794341302,0.788328325804891,0.784043671931918,0.782562587136421,0.78070655446024,0.780474753709709,0.780939168546737,0.779700457869338,0.779275083158715,0.777952598876738,0.777482490687942,0.777227916530341,0.778231573113342,0.780417006856067,0.774917229048733,0.783954204975573,0.783892391442098,0.780566660673954,0.778203106354505,0.777411730458833,0.776909902167332,0.776360900389759,0.773680958379234,0.767097817064155,0.766489441761007,0.765193797565934,0.764434141772965,0.766423561547698,0.769824119224785,0.770063239999017,0.768134820421793,0.76786072620099,0.767445924857934,0.758779016795976,0.758518749286608,0.757639533106524,0.757503706000073,0.757998214267872,0.759207644850467,0.770010373161177,0.770214520488838,0.766477241721505,0.76372409947397,0.763131177554191,0.759017324234242,0.758748110029239,0.759363805356088,0.769640305296294,0.780206352840673,0.779571950786588,0.770152706955363,0.77012830687636,0.764873343195024,0.76514174406406,0.761309304988615,0.767417458099097,0.77025681395911,0.770818015776185,0.758878243783923,0.755297938858178,0.751226379008501,0.753472812948734,0.752982371360769,0.748164982429558,0.746422816788726,0.745962468631531,0.749162132324825,0.74780386126031,0.735623341821883,0.735470434660129,0.73240578473732,0.732755519203033,0.732884026285783,1.04229817478226,0.862770526835937,0.747924234983393,0.750088521990982,0.749888441343155,0.748352049701917,0.752504943148272,0.754243855445237,0.729682735920556,0.757088904657017,0.693120844206104,0.694797129633628,0.699791012469629,0.696950029937683,0.688565349456196,0.692447402025614,0.716707587242589,0.717288309122866,0.691184291269212,0.68882155028573,0.682542596622224,0.681364886142333,0.685571459762496,0.691453505474215,0.694797129633628,0.675660147671371,0.677987915208282,0.660734619345077,0.650719200250206,0.662491425033312,0.645772490900278,0.652361325567125,0.714213085832489,0.714161845666582,0.714111418836642,0.711589264003672,0.710093539160772,0.693562485636063,0.684469389527515,0.691017557396023,0.660417418318035,0.665187633763172,0.666075796638891,0.659395055007798,0.680406776373472,0.707197249783085,0.706753981681192,0.732952346506993,0.640265393069243,0.647844057607655,0.64860452673659,0.648391432713295,0.710788941412365,0.69638557477674,0.686087928101398,0.715932478066252,0.71614231874568,0.718357032583209,0.719727503687226,0.934880893650238,0.710640914266412,0.704333493844069,0.701869899200707,0.699474624778553,0.699027289996827,0.69942257127668,0.69937458445464,0.699731638944054,0.697765805912358,0.69640834818381,0.691372985213504,0.693033003921693,0.691287584936993,0.690502715729054,0.67377890158022,0.672214856516111,0.663569095189289,0.664044083393886,0.664726472270011,0.665125006893731,0.668349070666028,0.670582491230793,0.671107092929363,0.670838692060327,0.667085146573659,0.668816738846924,0.669069686332591,0.669334020521793
0.796165631180738,0.806344530804932,0.806526718061489,0.804142017006904,0.796589379219428,0.791445029229574,0.789006648001182,0.781874504908529,0.78046418034214,0.780964381961707,0.780685407725103,0.780961941953807,0.780790328064817,0.781023755487282,0.782316146338488,0.778145359500864,0.77647151408124,0.777632957841795,0.78033567325939,0.780842381566691,0.782990401854945,0.783363723063694,0.780064019046487,0.777845238529124,0.775817591963953,0.776512994215546,0.780264099694314,0.773411744174231,0.772392634207862,0.770333267539987,0.769311717565717,0.765225517668638,0.763811939758382,0.764719622697304,0.768330021053819,0.767843646145688,0.767144990550228,0.766815589483684,0.766525228543545,0.763428858518031,0.758585442835884,0.757477679249136,0.756963650918134,0.757299558672412,0.757296305328545,0.763900593378761,0.767156377253762,0.765011610309376,0.758625296298256,0.757587479604651,0.756930304143496,0.759472792375636,0.770730175491773,0.775881032169361,0.779507697245213,0.899492645735843,0.767119777135257,0.763604539086855,0.763467898644436,0.761985187177005,0.761084010925818,0.766221854227938,0.7719265926989,0.755397165846125,0.753925027746261,0.753117385131253,0.751913647900426,0.751140978731989,0.747436233403328,0.747572060509779,0.74882785124248,0.748400036523956,0.743023885783571,0.74118818650656,0.738917352487323,0.733148360474985,0.732775039266236,0.73318252058559,0.739925889086124,0.746753844527203,0.749741227533169,0.755051498060245,0.749615160458319,0.749019798530639,0.706456300717353,0.733030426759803,0.732826279432142,0.72292716738052,0.728316331496373,0.696459588349717,0.695892693180875,0.709914605248081,0.694771916218658,0.689214391557682,0.682954957957379,0.715963384832989,0.716651467060881,0.689352658672034,0.689972420678717,0.677465753517613,0.678116422291033,0.68837502883997,0.702633621673509,0.678072502148827,0.676685764325475,0.658127877571562,0.668575991400758,0.651619563165426,0.643203975917202,0.643153549087262,0.654676079728568,0.714032525247865,0.713153309067781,0.713263922759262,0.713308656237435,0.70998048546139,0.680226215788848,0.689504752497821,0.669013566150883,0.651160841680165,0.660318191330088,0.646372732843759,0.647227548944839,0.682520636551121,0.68340635941894,0.686019607880189,0.736626185068917,0.652108378081458,0.646655773760196,0.646628120337326,0.65980334966312,0.704306653757165,0.702425407666014,0.712990641874426,0.713871484726443,0.708685654602284,0.708108186065873,0.712838548048639,0.711262302945028,0.708276546610996,0.701347737510037,0.69798215327952,0.696391268128508,0.69618386745698,0.698065113548131,0.698942703056282,0.695135477395807,0.691821133331197,0.691955333765715,0.690313208448796,0.688718256617949,0.69106879756193,0.672493017416748,0.673003792403883,0.665212847178142,0.665191700443006,0.66507214005589,0.663951363093674,0.664710205550675,0.667514587964116,0.669421860806205,0.669541421193321,0.66601804978525,0.666314917413123,0.667300680604855,0.668379164096799,0.667858629078062
0.805281500696356,0.806564131515961,0.80620870369848,0.793721556600578,0.79128724205202,0.790856987325596,0.788903354333401,0.781081502340923,0.780820421495588,0.781045715558385,0.782007078671113,0.780365766690161,0.779719977932541,0.78213395908193,0.78185905152516,0.777704531406872,0.777542677549483,0.779693951181604,0.785216502396009,0.783013988597981,0.781914358370901,0.774865988882826,0.773796452086516,0.773151476664863,0.775249883459144,0.782254332805013,0.776489407472509,0.773107556522658,0.772470714460673,0.767312537759383,0.764618769037423,0.764835116404586,0.764435768444899,0.764106367378355,0.76748740499224,0.768024206730312,0.766043733651214,0.767529698462512,0.769219810601471,0.761861560110055,0.761034397431845,0.758015294323174,0.757193011660765,0.755602939845719,0.755326405617015,0.76032679514075,0.758644816361459,0.759563886003915,0.759086457791418,0.756121848192521,0.756588703037451,0.771617525031525,0.772183606864401,0.771961566145471,0.757916067335228,0.76077819660231,0.758310535279114,0.762187707832732,0.762408121879728,0.759768846667542,0.761297104949113,0.761359731818555,0.753079158340815,0.75139799289749,0.753925841082228,0.755044178036544,0.754811563950046,0.750759524163572,0.751203605601431,0.749307719462878,0.748881531416288,0.746733511128034,0.741593227818014,0.741672121406791,0.736150383528353,0.735047499957406,0.734962913016861,0.744296756571575,0.750269895911573,0.756842463859084,0.755948607631598,0.693144430949141,0.692813403210663,0.763664725948396,0.69573490600332,0.718950767838955,0.733347627786845,0.723581089497807,0.716871067771911,0.707791798374798,0.703703158469818,0.707995132366491,0.7010744566252,0.690705236384782,0.692022840650958,0.713660017375082,0.712662054143848,0.687625133078603,0.681364886142333,0.682427916250909,0.685412045913008,0.665058313344455,0.641291009723346,0.688553149416694,0.660524778665649,0.671578827790093,0.670292943626621,0.671788668469521,0.649317822379452,0.63954477740268,0.651354415640257,0.713128095652811,0.716812507582303,0.723369622146446,0.71297437515509,0.713839764623739,0.715720197378924,0.676735377819448,0.643007961949209,0.642693200930067,0.644126298903525,0.629664372078293,0.646262932488244,0.655084374383889,0.662963973230008,0.672756538269983,0.672059509346457,0.662468651626242,0.647821284200585,0.680022068461188,0.669094086411594,0.699070396803066,0.708047185868365,0.706810915198867,0.711364783276842,0.702649888392844,0.70339246413051,0.70414398656381,0.706890622123611,0.704823935432034,0.704732028467789,0.696544988626228,0.694141580844407,0.69416110090761,0.695613718944271,0.691758506461756,0.690696289689147,0.691600719284201,0.688516549298189,0.688115574666569,0.687784546928091,0.671313680264924,0.670991599222081,0.661591875454058,0.664044083393886,0.665176247059637,0.662419851468236,0.662772839277816,0.664107523599295,0.6651453402929,0.668074163109258,0.669285220363786,0.66544546126464,0.666105076733695,0.667401534264735,0.668006656224016,0.666745985475514
0.80568898201571,0.805571048300528,0.803247347443451,0.792118471410064,0.790223398607478,0.790122544947597,0.783245789348512,0.783019681949748,0.781641890822031,0.782518666994215,0.782923708305669,0.782701667586739,0.784340539559792,0.781728917770476,0.780188459449404,0.777488997375676,0.784881407977697,0.78307986881129,0.78253249370565,0.781501183699779,0.77455204119965,0.773259650348444,0.771923339355033,0.773142529969229,0.781235222838643,0.779595537529624,0.778554467492152,0.77369722509857,0.766082773777619,0.766744829254574,0.765885133137693,0.766325961231685,0.767123030479125,0.768764342460077,0.768844862720788,0.76701323012361,0.771832245726754,0.771293003980782,0.766036413627513,0.762041307358712,0.760474822286703,0.758824563610116,0.757341038806718,0.753698107011531,0.752846544254317,0.752566756681747,0.75775909349364,0.75800390761964,0.759432938913264,0.763829019813685,0.763865619932189,0.770473161326272,0.769240144000641,0.768998583218508,0.755028724653175,0.755111684921787,0.755334538976683,0.757160478222094,0.759100284502853,0.757487439280737,0.755604566517652,0.750931138052561,0.750135695477055,0.75119628557773,0.752985624704636,0.753386599336256,0.753686720307996,0.760596009345753,0.760613902737022,0.74844965001793,0.744970198752065,0.741597294497848,0.741307746893676,0.738649764954254,0.734475724772763,0.735414314478421,0.741214213257496,0.749180025716094,0.755023844637375,0.754639950061057,0.698947583072083,0.758713949918634,0.758892070495358,0.758759496732774,0.763254804621141,0.718237472196093,0.759806260122014,0.72869046604109,0.730765286092334,0.714718980803823,0.691351838478368,0.690590556013466,0.688790643518992,0.68088664459387,0.680413283061206,0.716269199156497,0.686896384052373,0.681014338340653,0.69965193201931,0.639788778192712,0.632753422080106,0.631323577450514,0.641151929273028,0.687995200943486,0.672622337835465,0.675383613442668,0.687729240082351,0.652765553542613,0.647573216730719,0.649170608569466,0.644175912397498,0.664754939028848,0.714685634029185,0.722105698054077,0.719289115601134,0.713002841913927,0.662898906352666,0.649333275762821,0.623045443980675,0.625160930830258,0.621764439833004,0.633169036759128,0.645082782000453,0.652701300001237,0.652455672539271,0.666323050772791,0.679632480533102,0.684968777811115,0.688916710593843,0.665114433526162,0.67180412185289,0.690575915966064,0.69705657694933,0.685445392687645,0.691247731474621,0.694381514954606,0.699933346263814,0.700574255005633,0.703207836866052,0.703185876794949,0.697351004569303,0.692112307607303,0.691175344573578,0.691000477340721,0.687925254050343,0.689112724561835,0.68845066908488,0.687646279813739,0.686969584289382,0.687505572691487,0.677311219683925,0.676208336112978,0.671072119482792,0.660656539092267,0.661383661446564,0.662760639238315,0.663330787751024,0.662907853048301,0.663553641805921,0.665483688055078,0.667807388912156,0.664095323559793,0.664452378049207,0.665621141833464,0.667674001813604,0.669103846443195,0.669364113952563
0.797262821399918,0.795051360906256,0.789149795131334,0.788660166879335,0.788931821092238,0.788784607282252,0.783445869996339,0.78270654760254,0.7831555090562,0.784741514191412,0.780911515123867,0.781110782435727,0.785035941811385,0.782537373721451,0.782952988400473,0.786730120630178,0.784640660531532,0.784208779133174,0.78148573031641,0.774234840172608,0.772593528191655,0.773269410380046,0.77272610195424,0.779157149443532,0.777741131525376,0.775515844320279,0.77038044102606,0.765593958861587,0.765130357360525,0.765234464364272,0.769293010838481,0.769609398529557,0.771164496898031,0.769955879651403,0.76908398349502,0.775459724138572,0.770755388906743,0.768901796238462,0.767093750384321,0.761654972774494,0.761293851605246,0.759031150945677,0.756757063582573,0.749663960616325,0.750698523966064,0.751400432905391,0.756408142452826,0.764136460809126,0.761372745194023,0.760514675749075,0.762646429317993,0.761301984964914,0.768926196317465,0.7514687531266,0.752880704364922,0.752802624112111,0.753272732300908,0.755184885158796,0.753634666806123,0.753480132972435,0.748245502690269,0.747897394896489,0.750118615421753,0.751791647505409,0.753728200442302,0.750805070977711,0.758182028196363,0.758582189492017,0.758665963096595,0.752152768674658,0.742909205412256,0.741460654055429,0.737672948458157,0.732783172625903,0.733657508790187,0.73645131783606,0.742430150527825,0.761005117337041,0.761885960189058,0.769332050964886,0.760995357305439,0.759118991230089,0.759854246944053,0.760098247734086,0.759188938123231,0.708029292477096,0.740992985874534,0.740740851724833,0.699386784494141,0.697364017944771,0.690394542045473,0.685095658221932,0.688319721994229,0.68787320054847,0.672841938546495,0.703912185813279,0.704313973780866,0.665040419953186,0.649424369391099,0.654296251832084,0.628716022341033,0.640019765607276,0.641347129905054,0.689564939359362,0.673657714521171,0.683427506154076,0.68513144500447,0.652399552357564,0.658174237721668,0.65678912657025,0.685049298071826,0.651948150896003,0.627426071497727,0.626631442258188,0.637314610181782,0.650518306266412,0.639535017371078,0.625887239848588,0.63236383415202,0.671672361426272,0.68857429615183,0.637917292133162,0.654454852345605,0.653443875738903,0.66319821398844,0.661644742291899,0.649205582016037,0.65294286078337,0.665569901667557,0.657042074055917,0.641229196189871,0.64007425911705,0.653899343880297,0.662645145531033,0.635369110549255,0.672529617535253,0.695816239599998,0.694567768890998,0.69590651989231,0.691298158304561,0.690656436226775,0.687670679892743,0.688401868926874,0.688101747955134,0.687088331340532,0.687455959197514,0.687438065806245,0.687033837830758,0.670403557318102,0.680230282468682,0.674935465324975,0.676535297171622,0.667797628880554,0.659875736564163,0.661890369753865,0.660695579218672,0.663744775758113,0.663126640423364,0.662318997808356,0.662273450994216,0.662613425428328,0.664157950429235,0.663992843227979,0.666597958329561,0.670278303579219,0.670066022891891,0.674874465127466
0.796090804271795,0.789105061653162,0.788904981005335,0.789628850015765,0.786586973500025,0.786535733334118,0.784207965797207,0.783170962439569,0.786770787428516,0.786207958939508,0.7814100900715,0.78921648868061,0.789018848040683,0.786479613152411,0.788983061258145,0.785985918220578,0.78408108538639,0.783269376091548,0.772648021701429,0.770222653848505,0.768173047212232,0.774607348045391,0.783229522629177,0.775207589988871,0.774744801823776,0.774966842542706,0.765314171289016,0.76501811699711,0.76511409064119,0.764127514113491,0.774885508946028,0.774978229246241,0.774421094109,0.772175473504733,0.778152679524565,0.778909081973666,0.76928081079898,0.769105943566123,0.766969309981404,0.756317048824548,0.754982364503069,0.752924624507128,0.75294170456243,0.74945086659303,0.748538303638308,0.751678593806028,0.752569196689647,0.76052606245261,0.761537039059312,0.76159803925682,0.758310535279114,0.758921350590162,0.7532190521271,0.75077253753904,0.752102341844718,0.751943741331197,0.750165788907826,0.750695270622196,0.753557399889279,0.746833551451947,0.747010045356737,0.747704634272363,0.749414266474525,0.749363839644585,0.750980751546535,0.7512214989927,0.755703793505599,0.760059207607681,0.759898980422226,0.753952681169132,0.739024712834937,0.730878339791715,0.731847836264112,0.731947876588025,0.733112573692447,0.740686358215059,0.760513049077141,0.759959167283768,0.760419515440962,0.703235490288922,0.700447374594816,0.70279222218703,0.707116729522374,0.761282464901711,0.707092329443371,0.706399367199678,0.736474904579097,0.711446116873519,0.696612495511471,0.690958183870449,0.685207898585347,0.68452876305309,0.683438079521644,0.692788189795693,0.712759654459861,0.711174462660616,0.681487699873317,0.661224247597076,0.643769244414111,0.643475630130105,0.623595259094215,0.638494760669573,0.637763571635442,0.634536254519277,0.66943812752554,0.680927311392208,0.682457196345713,0.671813881884491,0.645350369533522,0.678217275950913,0.640802194807314,0.651205575158338,0.640612687527056,0.641366649968256,0.639195042936966,0.6511746683916,0.636355687076954,0.637844091896152,0.63206615318818,0.631657045196892,0.648731407147407,0.64895263453037,0.661110380561727,0.651212081846072,0.657842396647224,0.655870870263761,0.669232353525946,0.651653723276031,0.638570400914483,0.658288918092984,0.643265789450677,0.63914624277896,0.645051875233715,0.635283710272744,0.63867694792613,0.654319025239153,0.698131807097407,0.697508791746857,0.663814722651255,0.670567851183391,0.630924229490828,0.626030386978741,0.626341894654016,0.627469991639933,0.678378316472334,0.685009444609454,0.684993177890118,0.679179452399608,0.67330716671949,0.669433247509739,0.668719138530911,0.669708968402476,0.665684582038872,0.660243364421145,0.658656545949966,0.659310468067254,0.660512578626148,0.663340547782625,0.663085973625025,0.662183170701904,0.661602448821627,0.662259624282781,0.662484918345578,0.666715078708776,0.669368993968364,0.672947672222176,0.674283169879621
0.791893990683234,0.791671949964304,0.791323028834558,0.788985501266046,0.787973711323377,0.786391772867999,0.786051798433887,0.791681709995906,0.793617449596831,0.790647146646168,0.791712616762643,0.789933037667339,0.791377522344332,0.793094474570195,0.792305538682422,0.786854561033094,0.786119305319129,0.785175022261703,0.773455664316437,0.775148216463297,0.769071783455518,0.785951758109974,0.783937124920271,0.777206769795205,0.772957089368804,0.765034383716445,0.763738739521372,0.764736702752606,0.765225517668638,0.772543101361715,0.772619554942592,0.774700068345604,0.77394691924037,0.78008597911759,0.779483297166209,0.778133159461362,0.76633978794312,0.763945326856934,0.763033577238178,0.754852230748385,0.753127145162855,0.753123078483021,0.750259322544005,0.749358146292818,0.749669653968093,0.758870110424255,0.759292231791012,0.758322735318616,0.754225148718001,0.7542129486785,0.755127951641122,0.753084038356616,0.752049475006877,0.748201582548063,0.748018581955539,0.750732684076668,0.752322755891714,0.746718871080632,0.745252426332536,0.746836804795814,0.746940098463595,0.747923421647426,0.745250799660602,0.748034035338908,0.749637933865388,0.756349582263219,0.75783229373065,0.759244244968972,0.756069794690648,0.738268310385836,0.73607555661941,0.73121262087406,0.7310084735464,0.734906792835154,0.73602756979737,0.762731829594505,0.761447572102966,0.760870103566556,0.756812370428314,0.753095425060151,0.700177347053847,0.701226550450987,0.699737332295822,0.708021972453395,0.706347313697805,0.717407869509982,0.703388397450676,0.703001249530491,0.688303455274894,0.688800403550594,0.684867110815268,0.68719975836798,0.681774807469588,0.690889050313273,0.69346000530425,0.666323864108757,0.698898782914076,0.694096847366235,0.672848445234229,0.634719255111801,0.628443554792163,0.629716425580166,0.629315450948546,0.629796132504911,0.63198563292747,0.650507732898844,0.684703630285946,0.656733006388543,0.637103956166387,0.677739034402449,0.653122608032027,0.627129203869854,0.626864869680652,0.628733915732302,0.635658658153427,0.635273950241142,0.634384974029457,0.635415470699361,0.64036950007299,0.659266547925048,0.65271838005654,0.651021761229846,0.649787117232281,0.660445885076872,0.665909876101669,0.651402402462297,0.651967670959206,0.646203558962669,0.636567154428315,0.662979426613377,0.651945710888103,0.6631477871585,0.666044889872153,0.648626486807693,0.642930695032365,0.644205192492302,0.663199840660373,0.662983493293211,0.66380089593982,0.63291364926556,0.630454934637999,0.63161231171872,0.638221479784736,0.625423638347526,0.680013121765553,0.688541762713159,0.676464536942512,0.671342960359728,0.6641490037336,0.664393004523633,0.668067656421524,0.665765102299583,0.662675238961803,0.654480879096542,0.656308445013886,0.656680139550702,0.658386518408997,0.65875902628178,0.657817996568221,0.65588632364713,0.659784642935884,0.662003423453247,0.662374304654096,0.667787055512986,0.674108302646764,0.67470447791041,0.676325456492194
0.791996471015048,0.793538556008054,0.788662606887236,0.788759393867282,0.788525153108851,0.787837070880959,0.791118881506897,0.791735390169713,0.795211588091711,0.792795980270388,0.791923270778038,0.7948813736892,0.795606869371564,0.795238428178614,0.792106271370562,0.78874475381988,0.787806977450188,0.78029012644525,0.774909095689065,0.777367810316627,0.775178309894067,0.785111582056295,0.783271816099449,0.777841985185257,0.765740359335606,0.765342638047854,0.766177120749765,0.76689204306456,0.772234033694341,0.773885105706895,0.774519507760979,0.775253950138978,0.779744378011544,0.779010748969513,0.777333650206022,0.876792438903144,0.759301178486646,0.759319885213882,0.750726990724901,0.750156842212191,0.74954928024501,0.751656633734925,0.752445569622697,0.751747727363204,0.761677746181564,0.760344688532019,0.758709069902834,0.751990101481303,0.753245078878037,0.754235722085569,0.750134068805121,0.747481780217467,0.746844124819515,0.746766857902671,0.750504136670004,0.752447196294631,0.746231682836533,0.746048682244009,0.745238599621101,0.746531803808274,0.7472263927239,0.744243076397768,0.743961662153263,0.749348386261217,0.752682250389029,0.753802214015278,0.757437825786764,0.742555404266709,0.737613574932582,0.736470837899263,0.73108899380711,0.730596112211245,0.7312654877119,0.737106866625281,0.756740796863238,0.763179164376231,0.763338578225719,0.759590726090818,0.753179198664728,0.746250389563769,0.741174359795124,0.701023216459293,0.701050056546197,0.716204132279155,0.707254996636726,0.697981339943554,0.705869885485308,0.706043939382197,0.682867117672968,0.690751596534888,0.688359575456601,0.683727627125816,0.685746326995352,0.649375569233093,0.669033086214086,0.63518122994093,0.655160827964766,0.664724845598077,0.634846135522618,0.664422284618437,0.625816479619479,0.631339030833883,0.632730648673036,0.628811995985112,0.632343500752851,0.65536904197226,0.654108371223759,0.636684274807531,0.636729008285703,0.654550825989684,0.652915207360499,0.672259589994284,0.652611833044892,0.628294714310243,0.660746819384579,0.657066474134921,0.635669231520995,0.650894067483063,0.633619624884721,0.660284844555451,0.665986329682546,0.652231191812441,0.673626807754433,0.661754542647414,0.668147363346268,0.669720355106011,0.66312501375143,0.659312094739187,0.65187088397916,0.648653326894597,0.662109157128928,0.656229551425109,0.673045272538189,0.666390557658033,0.655875750279561,0.640014885591476,0.640238552982339,0.637888012038358,0.642693200930067,0.631632645117889,0.646271879183878,0.633018569605274,0.64209458565852,0.64311369562489,0.62609870719995,0.632881929162856,0.639018549032176,0.662771212605883,0.662542665199219,0.660167724176235,0.657966023714174,0.658311691500054,0.657068914142821,0.655141307901563,0.654849320289491,0.655097387759357,0.658181557745369,0.658103477492559,0.655500802398878,0.656391405282497,0.657568302426421,0.659937550097637,0.66237349131813,0.663639855418399,0.669776475287719,0.674606877594397,0.676695524357076
0.79421037151661,0.789691476885206,0.789783383849452,0.789287248909719,0.788852114167494,0.790424292591271,0.791249015261581,0.791506029427082,0.791802083718988,0.793130261352733,0.798928533459874,0.795894790303802,0.794630052875466,0.796094870951629,0.79418271809374,0.793813463564824,0.781473530276909,0.776234019978942,0.777671184632234,0.777441823889603,0.779977805434009,0.783214069245808,0.778573174219388,0.771197030336702,0.76601445355641,0.76671554915977,0.766374761389691,0.766855442946055,0.774077866331021,0.774229960156807,0.775661431458332,0.779885898469763,0.779986752129643,0.780403993480599,0.874035229975775,0.762330854962884,0.763264564652742,0.758530135990143,0.750421176401393,0.750115362077886,0.749211745818798,0.749442733233362,0.753009211447672,0.766351174646655,0.764433328436999,0.752334142595249,0.751415072952793,0.752397582800657,0.752617183511686,0.751650940383157,0.747312606336378,0.746716431072732,0.74735489980665,0.749380106363921,0.748069008785479,0.746864458218685,0.746814031388745,0.746049495579976,0.746753844527203,0.744940918657261,0.743852675133716,0.745113345882217,0.747446806770896,0.748526103598807,0.749280066040007,0.748112115591718,0.741232106648765,0.738503364480234,0.734488738148231,0.733113387028414,0.732822212752309,0.735335420889644,0.744454543749129,0.752753010618138,0.752776597361174,0.760004714097907,0.758246281737739,0.746578977294346,0.745232906269333,0.740153623156821,0.737884415809518,0.735328100865943,0.732252064239599,0.728250451283064,0.70932981668797,0.694028527145025,0.710414806867648,0.708510787369427,0.691980547180685,0.694026087137125,0.693031377249759,0.685473046110516,0.656689899582304,0.646406079618396,0.642797307933814,0.665016019874183,0.65464517296183,0.64364073733136,0.661281994450717,0.637916478797195,0.638007572425474,0.633434997620263,0.6359530857734,0.651638269892662,0.64154721055288,0.65813357092333,0.654091291168456,0.664976979747777,0.657960330362407,0.654482505768475,0.648751740546576,0.660506071938413,0.686333555563364,0.66200017010938,0.661643115619965,0.654796453451651,0.663935096374338,0.668324670587025,0.658477612037276,0.662918426415869,0.674895611862603,0.680055415235825,0.670799651933922,0.694518968732991,0.681121698688268,0.679102998818731,0.67679800468889,0.66295095985454,0.653514635968013,0.665250260632614,0.663912322967268,0.702558794764565,0.671896028817135,0.661234007628677,0.659897696635266,0.618050747808708,0.630149933650458,0.630299587468344,0.623670086003159,0.646295465926915,0.63733006356515,0.619112964581316,0.619874247046218,0.633955532638999,0.629870959413854,0.638025465816743,0.643455296730935,0.659145360865998,0.656729753044676,0.653954650726038,0.616043434642706,0.629013703304873,0.755999847797505,0.652885113929729,0.652967260862373,0.653269821842013,0.657257608087113,0.654796453451651,0.655586202675389,0.656363751859627,0.657002220593545,0.658056304006486,0.661377968094797,0.662342584551392,0.668498724483915,0.672911072103671,0.673614607714931
0.79186471058843,0.790198185192508,0.789897250884801,0.790839907270293,0.790405585864035,0.789671956822004,0.791613389774697,0.78976874380205,0.788706527029442,0.795324641791093,0.796673966159973,0.796238018081781,0.796380351875967,0.797775223058987,0.794192478125341,0.794051771003089,0.783475963427109,0.781501183699779,0.777437757209769,0.778120959421861,0.780733394547143,0.776585381116589,0.773481691067374,0.772030699702647,0.76706121694565,0.764426008413297,0.766298307808814,0.766665935665797,0.77489526897763,0.776689488120336,0.776271433433413,0.780196592809071,0.779880205117996,0.770449574583236,0.764665129187529,0.761262944838508,0.759134444613457,0.751170258826793,0.749502920094904,0.749601333746884,0.749466319976399,0.749585880363515,0.766713922487837,0.765029503700645,0.765284891194212,0.749512680126505,0.74967778732776,0.750185308971028,0.751458993094998,0.749816054442112,0.745454133652296,0.746763604558805,0.753055571597778,0.748871771384686,0.74682785810018,0.746622084100586,0.746931965103927,0.749503733430871,0.747392313261122,0.742148736283321,0.743418353727457,0.747014112036571,0.743759954833503,0.743833155070513,0.746812404716811,0.740276436887804,0.737206906949194,0.736839279092212,0.735345180921246,0.733045066807205,0.738663591665689,0.745582640735047,0.746485443658167,0.751732273979835,0.753546826521711,0.754057601508846,0.736960466151261,0.737286613873938,0.732961293202627,0.73578031566347,0.734515578235135,0.731825062857042,0.732064183631274,0.728588799045243,0.733499721612632,0.722140671500648,0.713913778196716,0.717276922419332,0.754267442188274,0.754522829681841,0.666298650693787,0.651622816509293,0.644184045757166,0.638509400716975,0.614713630337029,0.665412927825969,0.654480065760575,0.651057548012384,0.646641947048761,0.637932745516531,0.638685081285798,0.64620843897847,0.646094571943121,0.651389389086829,0.663069706905689,0.663174627245403,0.661439781628272,0.665338914252993,0.658767159641448,0.647016894929445,0.663355187830027,0.68014000217637,0.694548248827795,0.677081045605328,0.676625577463934,0.665477181367344,0.671691068153508,0.666016423113316,0.675172146091306,0.680619057060801,0.681351872766865,0.677255099502218,0.682227022267115,0.715701490651688,0.703202143514284,0.703032156297228,0.688252215108987,0.694571022234865,0.685306312237327,0.691155011174408,0.680130242144769,0.708611641029307,0.70419197338585,0.675835828240195,0.641228382853904,0.643072215490584,0.646235279065373,0.628681048894461,0.65763906265553,0.641518743794043,0.636181633180063,0.64616289216433,0.618662376455723,0.640727367898371,0.623981593678434,0.62096086389783,0.617229278482265,0.626790042771709,0.618399668938454,0.619912473836657,0.61215324871362,0.60956033365154,0.609944228227858,0.650317412282619,0.650435345997801,0.651588656398689,0.650427212638134,0.650985974447308,0.654614266195093,0.655731789813442,0.655625242801795,0.660123804034029,0.661586182102291,0.66235559792686,0.663698415608007,0.670815918653258,0.669745568520981
0.78944340941534,0.792080244619626,0.793639409667934,0.793303501913656,0.795214841435578,0.794103824504963,0.791523922818351,0.78807131163939,0.788609740049395,0.783510123537714,0.797292101494722,0.796730899677647,0.796693486223175,0.793371008798898,0.794371412038032,0.78677241410045,0.782144532449498,0.780762674641947,0.775196203285337,0.77509941630529,0.777976185619775,0.773577664711454,0.775089656273689,0.77282939562202,0.765633812323959,0.763524832162111,0.764540688784613,0.764744836112274,0.772356034089357,0.777456463937005,0.775105922993024,0.774064852955552,0.772626061630326,0.769312530901684,0.762632602606558,0.759149897996826,0.75057083021928,0.750744070780203,0.750542363460443,0.750191002322796,0.755383339134689,0.762604135847721,0.767463818249204,0.763833899829485,0.749816867778079,0.74967534731986,0.748792877795909,0.750735937420535,0.746767671238638,0.747123912392086,0.74807388880128,0.753711120386999,0.748630210602554,0.74842687661086,0.74812431563122,0.747136112431588,0.750360989539852,0.746010455453571,0.744861211732517,0.744793704847275,0.744057635797343,0.739464727592963,0.739813648722709,0.740952319076195,0.738555417982108,0.73590150272252,0.735650181908786,0.73667579856289,0.736487104618598,0.735520861490069,0.743920995354925,0.744979145447699,0.744478943828133,0.744705864562863,0.734471658092929,0.76009987440602,0.716355412768975,0.718361099263043,0.730479805167996,0.729993430259864,0.731382608091116,0.725891776979416,0.732949093163126,0.729468828561294,0.726484698899195,0.728397665093051,0.727844596635643,0.725738056481695,0.727111780929579,0.676184749369941,0.676649977542937,0.676413296776605,0.643148669071461,0.634014906164574,0.635059229545914,0.628440301448296,0.663392601284499,0.66048167185941,0.636142593053658,0.651436562572902,0.641104755786955,0.630171893721561,0.657269808126614,0.664131110342331,0.664411711250869,0.673999315627216,0.65172204349724,0.651846483900156,0.64808480505382,0.688197721599213,0.685277032142523,0.687820333710629,0.689059857723995,0.704323733812468,0.713271242782963,0.700150506966943,0.6968296562146,0.687732493426218,0.701435577794448,0.691401451972341,0.690267661634656,0.707677118003482,0.713516056908962,0.717701483793988,0.718077245010639,0.708174066279182,0.70291584925398,0.698949209744016,0.709126482696276,0.69214321437404,0.706397740527745,0.711267996296795,0.713071162135136,0.683846374176965,0.669394207383334,0.642474413555004,0.644929061502732,0.630248347302438,0.632120646697954,0.645379649628326,0.650188091863902,0.632598888246418,0.63864929450326,0.624406968389057,0.629929519603462,0.62749601839087,0.621993800575635,0.621938493729894,0.625801839572077,0.612318355914875,0.611980821488664,0.657421901952401,0.609244759296431,0.64553743680588,0.645772490900278,0.645339796165954,0.648513433108311,0.650545959689283,0.651629323197027,0.65561629610616,0.659300708035652,0.658664679309634,0.661591875454058,0.664031883354384,0.66497128639601,0.666249850535781,0.667125813371998
0.791968004256211,0.792541406112787,0.793318141961058,0.793052181099922,0.79528478832872,0.793803703533223,0.792072111259958,0.791693910035407,0.791921644106104,0.792273818579718,0.80094479332151,0.802377077959001,0.797108287566231,0.790233971975046,0.789727263667745,0.78597778486091,0.784097352105726,0.783160389072,0.774813935380952,0.774931869096135,0.776444673994337,0.775528044359781,0.774953015831271,0.771162870226098,0.766982323356872,0.76501567698921,0.76596890674227,0.773392224111029,0.775287296913616,0.776974969044674,0.772097393251922,0.772237287038208,0.769317410917485,0.766768415997611,0.764182007623265,0.757578532909016,0.756612289780487,0.751045818423877,0.750228415777267,0.751316659300813,0.770040466591948,0.768539048397281,0.754296722283078,0.751162938803092,0.750565950203479,0.751015724993106,0.752754637290072,0.747791661220809,0.746557017223244,0.747005165340937,0.754050281485145,0.752187742121229,0.75131747263678,0.750175548939427,0.750529350084974,0.752643210262623,0.746849004835316,0.744488703859734,0.743355726858016,0.743784354912506,0.738291897128873,0.736335010792811,0.736842532436079,0.732705092373093,0.733662388805987,0.736784785582438,0.735928342809424,0.734749818993566,0.738264243706002,0.743354100186082,0.747019805388339,0.744822984942079,0.741210959913629,0.73952328778257,0.758330868678283,0.758717203262502,0.70242134098618,0.70047421468172,0.716352159425108,0.721462349304357,0.722030057809167,0.745077559099679,0.743772968208972,0.728539998887236,0.727328941632708,0.727397261853917,0.728252891290965,0.719721810335458,0.721524976173799,0.679480386707315,0.659444668501772,0.645173062292765,0.639557790778148,0.621287824956474,0.620745329866635,0.612783584087871,0.60918213242699,0.642162905879729,0.639411390304128,0.644734674206673,0.642653347467695,0.630431347894962,0.66060285891846,0.687333958802498,0.679791081046623,0.662532905167618,0.674967185427679,0.686426275863577,0.696851616285703,0.671956215678677,0.696677562388813,0.694217221089317,0.722003217722263,0.712925574997084,0.724408252176018,0.723862503742312,0.709108589305007,0.698530341721127,0.708100866042172,0.714845047878673,0.70369014509435,0.72409999784461,0.733000333329032,0.744221929662632,0.738988112716432,0.71444732659092,0.716997134846761,0.711578690636104,0.70952908399983,0.714788114360999,0.735694915386959,0.734389511160285,0.712156159172514,0.705402217304412,0.67156174773479,0.666705318677175,0.662160397294834,0.644994941716041,0.656750899779812,0.64738126944256,0.644330446231186,0.631873392564055,0.648128725196026,0.65389121052063,0.609750654267766,0.624118234120852,0.625623718995353,0.60923255925693,0.60596376200646,0.595386327758546,0.589213107770722,0.590192364274719,0.591575848754204,0.64289165490596,0.643816417900184,0.598607951522943,0.647469109726972,0.64969927694787,0.652511792720979,0.65754064900355,0.657912343540367,0.659476388604476,0.660096150611159,0.663652868793867,0.664690685487472,0.666218130433077,0.668070096429424
0.792130671449566,0.791719936786344,0.791409242447036,0.792790286918621,0.795694709655975,0.793405168909503,0.794312038512457,0.795000934076316,0.794542212591055,0.802800012661725,0.804005376564486,0.80289435963387,0.795292921688388,0.794901707088369,0.788329139140858,0.786355172749494,0.785465383201842,0.778993668914211,0.775101042977224,0.774974162566407,0.774876562250394,0.775179123230034,0.773596371438689,0.770626068488026,0.767968086548604,0.766012826884476,0.767272684297011,0.773665504995865,0.773731385209174,0.771166123569965,0.771139283483061,0.771691538604502,0.770338147555788,0.770435747871801,0.763468711980403,0.760471568942836,0.756888824009191,0.760909143692961,0.759231231593503,0.774133173176761,0.772357660761291,0.759458965664201,0.751073471846747,0.75127192582264,0.751985221465502,0.751472819806434,0.747136112431588,0.746176375990793,0.74657816395838,0.756447182579231,0.752230035591501,0.751997421505004,0.752298355812711,0.754695256906798,0.752685503732896,0.746897804993322,0.743520834059271,0.744696917867228,0.743637954438487,0.736772585542936,0.734885646100018,0.734194310528259,0.728831173163342,0.730129257366315,0.73490028614742,0.736074743283443,0.735717688794029,0.735689222035192,0.741746134979767,0.743781101568639,0.744578984152046,0.744616397606518,0.734684752116224,0.73488239275615,0.7277697697267,0.700519761495859,0.701434764458482,0.710184632789051,0.711828384777904,0.716967854751957,0.718093511729974,0.733296387620939,0.733261414174367,0.6998235459083,0.69805779352443,0.703341223964603,0.722614033033311,0.723150021435416,0.723608742920678,0.698345714456669,0.651115294866025,0.650990854463109,0.626453321681464,0.628770515850807,0.622056427445076,0.63293642267263,0.640155592713728,0.646442679736901,0.672593871076628,0.662911919728135,0.647112055237557,0.658661425965767,0.661277927770883,0.682767077349054,0.704761308562593,0.6968320962225,0.695015103672724,0.703748705283957,0.70843189378065,0.709910538568247,0.705852805430005,0.716521333306197,0.725949523833057,0.735165433672588,0.766792816076614,0.769416637905431,0.74288805867712,0.719929211006986,0.718864554226477,0.716133372050045,0.722391992314382,0.740044636137273,0.737433827683925,0.753971387896367,0.739276846984637,0.751010844977305,0.733930789675023,0.729058093898072,0.741032839336906,0.728129264224015,0.797746756300149,0.727813689868906,0.73290761302882,0.691149317822641,0.705452644134352,0.685440512671845,0.654846066945624,0.650215745286772,0.654405238851632,0.667307187292589,0.662794799348919,0.653691129872803,0.647451216335703,0.632830688996949,0.632454114444332,0.606247616258864,0.598427390938319,0.587971957085422,0.605640054291683,0.602449337294023,0.590224084377423,0.591000820225694,0.598668138384485,0.588132997606844,0.606605484084245,0.655677296303668,0.60629153640107,0.651622816509293,0.65332106200792,0.656737886404343,0.659447108509672,0.659913150018634,0.659950563473106,0.662748439198813,0.664517444926549,0.665918822797303,0.666058716583589
0.79276507350365,0.791846817197161,0.791760603584683,0.794242904955281,0.793092034562294,0.792521886049585,0.797424675257306,0.796885433511334,0.803100133633465,0.803009040005186,0.801044020309457,0.798579612330127,0.796281938223987,0.793142461392234,0.789240888759613,0.796308778310891,0.795111547767797,0.794254291658816,0.775153096479097,0.77477408191858,0.772818008918486,0.773616704837859,0.773518291185879,0.771218990407805,0.769014036601877,0.767165323949397,0.775373510526093,0.772594341527622,0.768021766722411,0.770222653848505,0.771166123569965,0.769161250411864,0.769919279532898,0.771050629862683,0.770288534061814,0.77025437395121,0.764758662823709,0.765845279675321,0.77549307091321,0.773911132457831,0.87329509424601,0.754312175666446,0.753146665226057,0.755280045466909,0.751036871728242,0.750903484629691,0.747634687379221,0.749056398649144,0.757014891084041,0.753822547414448,0.753532999810276,0.754788790542977,0.755311765569613,0.756142181591691,0.747262179506438,0.743132059467153,0.744334983362013,0.742614777792284,0.733963323113694,0.733391547929051,0.733176013897856,0.7357551022485,0.728659559274352,0.728502585432765,0.733377721217616,0.735527368177803,0.735722568809829,0.737409427604921,0.747561487142211,0.743838035086314,0.750612310353585,0.751563100098746,0.730234177706029,0.730245564409564,0.709367230142442,0.702523821317994,0.694050487216128,0.692629589282172,0.691548665782327,0.693753619588255,0.693019990546224,0.730945033340991,0.684596269938332,0.690799583356927,0.70610900625954,0.71489628804458,0.70416431996298,0.718855607530843,0.685801633841093,0.686075728061896,0.649098221668423,0.643636670651526,0.617348838869381,0.637292650110679,0.637141369620858,0.666715078708776,0.63615235308526,0.676861444894299,0.659626042422363,0.657878183429762,0.664039203378086,0.653199061612904,0.665820409145323,0.701575471580734,0.714060178670735,0.699934972935748,0.705537231074897,0.700172467038046,0.696747509281956,0.711928425101817,0.712214719362122,0.741613561217183,0.741913682188923,0.766884723040859,0.798078597374594,0.788752073843581,0.769031929993146,0.769859906007324,0.746997031981269,0.730899486526852,0.735293127419372,0.741358987059582,0.765633812323959,0.766789562732747,0.766269841049977,0.766406481492396,0.75304255822231,0.736782345574538,0.731528195229169,0.737781122141738,0.757740386766404,0.761569572497983,0.72048065279246,0.740895385558521,0.688885803827105,0.687661733197108,0.676691457677242,0.660042470437352,0.68049298998595,0.660942833352572,0.662427984827904,0.657286888181917,0.6566606194875,0.635235723450704,0.621414705367291,0.622519215610172,0.607269979569101,0.607432646762456,0.618698976574228,0.607226059426895,0.579871944192307,0.600990212569628,0.598789325443534,0.588200504492086,0.609178065747156,0.600185009962521,0.610250042551366,0.648388179369428,0.893229958791673,0.656552445803918,0.657020113984814,0.658611812471794,0.660202697622806,0.661948116607506,0.665071326719923,0.664458884736942,0.665287674087086
0.796580432523794,0.794464945674211,0.794944000558642,0.794290891777321,0.792943194080374,0.789820797303924,0.802865892875033,0.803374227854268,0.80333844107173,0.800255897757651,0.799676802549307,0.797044034024856,0.79555481586969,0.794961893949911,0.795318135103358,0.79555237586179,0.794777266685453,0.965982861019727,0.774984735933975,0.77190625929973,0.77347274437174,0.771498777980376,0.771917646003265,0.770991256337108,0.770636641855594,0.772962782720572,0.773394664118929,0.769275930783179,0.766487815089073,0.759345911964819,0.760964450538702,0.764214541061936,0.771844445766255,0.773042489645316,0.769811919185284,0.774087626362622,0.774443867516069,0.776704128167738,0.7751726165423,0.763733046169605,0.753574479944581,0.753031171518775,0.753754227193239,0.755061258091846,0.75151917995654,0.751515926612673,0.753101118411918,0.754734297033203,0.757589106276584,0.756629369835789,0.756879063977589,0.762696856147933,0.761455705462634,0.754202375310932,0.750442323136529,0.744869345092185,0.744603384231049,0.729948696781691,0.730558698756773,0.730553818740972,0.728047930627337,0.727586769134176,0.728579039013642,0.732290291030038,0.734038150022638,0.733588375233011,0.734750632329533,0.733863282789781,0.733986096520764,0.75264646360649,0.752661103653892,0.75283841089465,0.718801114021069,0.718295219049734,0.705856872109839,0.700066733362366,0.699454291379384,0.700684055361148,0.702473394488054,0.688550709408794,0.713545337003766,0.730243124401664,0.698947583072083,0.704760495226626,0.704047199583764,0.715490836636293,0.712024398745897,0.725702269699157,0.698253807492423,0.656180751267102,0.659552028849386,0.629873399421754,0.610502990037033,0.645702544007136,0.646014865018377,0.668372657409064,0.670671144851172,0.670673584859072,0.665629275193131,0.662463771610442,0.6796178404857,0.66878989876002,0.70241890097828,0.721297242103102,0.719601436612376,0.718949954502988,0.733529001707436,0.712086212279371,0.70985197837864,0.730966993412094,0.733146733803052,0.767550845197648,0.7893929825854,0.798505598757151,0.813734501399052,0.812601524397334,0.798756106234918,0.792112778058297,0.746975885246133,0.745111719210284,0.781089635700591,0.754010428022773,0.783729724248743,0.824137068414109,0.79615505781317,0.801291274443356,0.777307623455085,0.756104768137219,0.761720852987803,0.755868900706854,0.768434941393533,0.780020098904281,0.744407370263056,0.710902808447713,0.705320070371767,0.691853666769868,0.691446998786481,0.681617020292034,0.682315675887494,0.67539825349007,0.686387235737171,0.662039210235785,0.652777753582114,0.642559813831516,0.643070588818651,0.650968081056039,0.613233358877498,0.612530636602204,0.627753845892338,0.631879085915822,0.600008516057731,0.612264675741068,0.607652247473485,0.595804382445469,0.584204584887319,0.590782032850631,0.617169091620723,0.616350875638147,0.893343825827022,0.654392225476163,0.656498765630111,0.657064847462987,0.658852559917959,0.663412121347702,0.664868806064196,0.664601218531127,0.66569515540644
0.804793499116291,0.7976255692411,0.795801256667623,0.793356368751496,0.787856590944161,0.787711817142075,0.803440921403544,0.804599925156198,0.804704845495912,0.797867130023232,0.797269328087652,0.796647939409036,0.798168877666906,0.79815261094757,0.795328708470926,0.795517402415218,0.796384418555801,0.789562969802456,0.783648390652066,0.772214513631138,0.77187860587686,0.771591498280588,0.771583364920921,0.772905849202897,0.776527634262948,0.775234430075775,0.769420704585265,0.76783795279392,0.766827789523185,0.758027494362676,0.758295081895745,0.758676536464163,0.771504471332143,0.772147820081863,0.77377286534348,0.77796235890834,0.77988671180573,0.77854470746055,0.969350071922176,0.753645240173691,0.752604170136218,0.753277612316708,0.750550496820111,0.749374413012153,0.750282909287041,0.752180422097528,0.752936824546629,0.755126324969189,0.75713363813519,0.762101494220254,0.764648862468194,0.758697683199299,0.756898584040792,0.755306072217846,0.753341865858083,0.741311000237543,0.732823026088275,0.730506645254899,0.729568868885207,0.727787663117969,0.726217924702093,0.727282581482602,0.728234997899696,0.733528188371469,0.733262227510334,0.732396024705718,0.730520471966334,0.733497281604732,0.751023858352774,0.74403811573414,0.750416296385592,0.739006006107701,0.718624620116278,0.712444080104753,0.710322899903403,0.681913887919907,0.701417684403179,0.682478343080849,0.695791026185028,0.683309572438893,0.685638966647738,0.693944753540448,0.689231471612985,0.689481979090751,0.682623116882935,0.706505914211326,0.719956864429856,0.726258591500432,0.698538475080795,0.69865315545211,0.650785893799481,0.65214579153593,0.65227429861868,0.65489242709573,0.65461995954686,0.66212867719213,0.681204658956879,0.683926894437676,0.671063986123124,0.679217679190047,0.696192000816648,0.686802037080227,0.687907360659074,0.722628673080713,0.740139796445386,0.740444797432927,0.754792857222811,0.749704627414664,0.756736730183404,0.738788845404572,0.768791182546981,0.763755006240708,0.834873103175543,0.808795112072826,0.854075965351109,0.861558656245442,0.837353777874208,0.802358371231765,0.778109572718326,0.776852155313691,0.769554905019783,0.764184447631165,0.812413643789009,0.82329933236833,0.863551329364041,0.822860130946272,0.817483980205887,0.800752032697384,0.812170456334943,0.78507254192989,0.783690684122338,0.775640284723196,0.762009587256008,0.752519583195674,0.700580761693368,0.715001208384294,0.698641768748575,0.708326160104969,0.71224806613676,0.697130590522307,0.690675142954011,0.674258769800617,0.680348216183864,0.648509366428477,0.654301131847884,0.654528865918581,0.642439440108433,0.632536261376977,0.615320378968243,0.646506933278276,0.659640682469764,0.627057630304778,0.61130575263624,0.601642508014982,0.595475794714892,0.590032137089264,0.590821072977036,0.653306421960518,0.63101694979104,0.654532932598415,0.653400768932664,0.657120154308728,0.660219777678109,0.662884266305265,0.659896069963332,0.663482881576811,0.66400016325168
0.801672729011774,0.800580418808395,0.795262014921651,0.79066666670937,0.787201042154941,0.787871230991563,0.800895179827537,0.802971626550714,0.803270934186488,0.796198164619409,0.797116420925899,0.797169287763739,0.797642649296402,0.796703246254777,0.795241681522481,0.797571889067293,0.791832990485726,0.789481636205778,0.786196572235973,0.776424340595167,0.771354817514257,0.772014432983311,0.774719588408806,0.774665094899032,0.775519911000113,0.770652095238963,0.769582558442653,0.768173860548198,0.760767623234742,0.758280441848343,0.755321525601214,0.756012861172974,0.763677739323864,0.769288130822681,0.782079465572156,0.783580883766823,0.781930625090236,0.866023870703038,0.755235311988736,0.75588272741829,0.750870137855053,0.748458596713564,0.747020618724306,0.74655539055131,0.751898194517057,0.752763583985706,0.761525652355777,0.763107590811155,0.765088877226219,0.766204774172635,0.762411375223595,0.757720053367235,0.7579608008134,0.755516726233241,0.737955989374594,0.73408288350081,0.730590418859477,0.728268344674333,0.725215894791026,0.726012150702499,0.726100804322877,0.727703889513391,0.729944630101857,0.736313050721708,0.736127610121283,0.732823839424242,0.739605434715215,0.739087339704379,0.730588792187543,0.734207323903727,0.733237014095364,0.730818966266141,0.700226147211854,0.693889446694707,0.703055743040265,0.686134288251504,0.700427041195647,0.6968345362304,0.683455972912913,0.689072057763497,0.679003771830785,0.680280709298622,0.680753257495319,0.680470216578881,0.679843947884464,0.713493283501893,0.71526716924543,0.677658514141738,0.677162379202006,0.637520384181376,0.664427164634237,0.649350355818123,0.648154751946963,0.65252155275258,0.652151484887697,0.679907388089872,0.688906137226274,0.676725617787847,0.681493393225084,0.684095254982798,0.683044424913725,0.721712043446157,0.730338284709777,0.743795741616041,0.806229850433616,0.799954963449944,0.77998512545771,0.777678504655935,0.765398758229561,0.767227137482872,0.785322236071689,0.798526745492287,0.832481895433223,0.851611557371779,0.855149568827252,0.837044710206833,0.843559531300704,0.83564577234398,0.80333844107173,0.777783424995649,0.772809062222851,0.784242125907812,0.842794995491935,0.883095792645652,0.865194268016927,0.846162206394385,0.815174106060244,0.823128531815307,0.825007337898558,0.81219648308588,0.81511717254257,0.786858627712928,0.794879747017266,0.745108465866417,0.741656668023422,0.726257778164465,0.727596529165777,0.739075139664877,0.736271570587403,0.71970879695999,0.716499373235094,0.675621107544966,0.68345922625678,0.684924857668909,0.67485087838443,0.645433329802133,0.646503679934409,0.635526084390843,0.647426816256699,0.66382366934689,0.648550846562783,0.621602585975616,0.60165064137465,0.599821448785372,0.59833385730214,0.61387833429915,0.604707971273759,0.627686339007095,0.629108863612985,0.649639090086328,0.646114905342291,0.654371078741027,0.655165707980567,0.656353991828025,0.657197421225571,0.658070130717921,0.658514212155781
0.802826039412661,0.796424272018173,0.792103018026695,0.789408435968769,0.788246178872247,0.791623963142265,0.791735390169713,0.797710156181645,0.796002150651416,0.794874053665499,0.796002963987383,0.794898453744502,0.793289675202221,0.792950514104075,0.794063157706624,0.79618271123604,0.790011117920149,0.791528802834152,0.788712220381209,0.779030269032716,0.777956665556572,0.776655328009731,0.775281603561848,0.774983922598008,0.771684218580801,0.770897722700929,0.770328387524186,0.761911986939995,0.759377632067523,0.757794880276178,0.757127944783423,0.758232455026303,0.883364193514688,0.784641473867499,0.783039202012951,0.783002601894446,0.770298294093416,0.757376012253289,0.756698503392965,0.755382525798723,0.750112108734019,0.744019409006904,0.743755888153669,0.750164975571859,0.752583836737049,0.761201944641,0.760072220983149,0.761510198972408,0.764953050119768,0.763299538099314,0.762075467469317,0.758151121429626,0.757963240821301,0.747013298700605,0.737998282844867,0.732530225140236,0.730988953483197,0.724761239985598,0.723952784034623,0.7250231341669,0.724527812563134,0.728476558681828,0.729990176915997,0.741326453620911,0.74146797407913,0.741427307280792,0.724115451227978,0.724832813550674,0.726160991184419,0.719904810927983,0.719758410453963,0.709509563936627,0.696741815930188,0.675439733624375,0.676660550910505,0.707993505694558,0.69311433751837,0.694000873722155,0.701603938339571,0.702315607310499,0.682358782693733,0.681978954797249,0.681917141263774,0.678662984060706,0.677108699028198,0.688237575061585,0.691205438004348,0.676092842405696,0.666423091096704,0.69480688966523,0.668260417045649,0.644163712357997,0.651963604279372,0.666549158171554,0.665615448481696,0.685440512671845,0.688989097494885,0.70333959729267,0.702044766433563,0.692865456712537,0.704846708839104,0.727699822833557,0.744728637969933,0.782268159516448,0.825568539715633,0.810878065483737,0.811453907348214,0.767576058612618,0.786972494748277,0.79792569021284,0.786119305319129,0.80868043170151,0.818915451507411,0.848927548681421,0.867585475759247,0.850448486939291,0.832790963100598,0.862591592923246,0.809221300119416,0.826137874892376,0.795933830430207,0.825300138846597,0.845210603313257,0.898866377041426,0.907333204455557,0.883087659285985,0.866202804615729,0.860005184548901,0.830668156227314,0.806499877974585,0.791756536904849,0.786001371603947,0.795151401230169,0.783582510438757,0.78699933483518,0.761848546734587,0.752687130404829,0.75204622166301,0.759458152328234,0.747901461576323,0.718376552646412,0.724052824358537,0.683382772675903,0.672317336847925,0.657700876189005,0.655154321277032,0.653846477042457,0.663470681537309,0.657042074055917,0.65711202094906,0.648123845180226,0.623774193006906,0.625412251643991,0.608572130451908,0.60157500112974,0.58094310766055,0.628724155700701,0.613508266434268,0.615039778059706,0.627055190296878,0.634191400069364,0.638384146978091,0.652817607044486,0.653740743366776,0.655113654478693,0.657098194237625,0.660231164381643
0.803433601379843,0.787856590944161,0.78474964755108,0.789170128530504,0.789755730426582,0.791546696225421,0.791258775293183,0.790813880519357,0.791707736746843,0.795224601467179,0.795003374084216,0.79001843794385,0.78797045797951,0.788630073448565,0.789304328965021,0.790653653333902,0.788386072658532,0.78891880771677,0.779708591229006,0.778541454116684,0.777767158276313,0.775381643885761,0.774677294938534,0.773352370648657,0.771937979402434,0.771487391276841,0.770713908772438,0.761805439928348,0.760496782357806,0.761406091968661,0.763309298130915,0.888016475244643,1.00912220069749,0.790730920250746,0.786613000250962,0.765033570380479,0.761608612624388,0.759180804763564,0.757865640505288,0.750500883326137,0.748370756429153,0.744354503425216,0.744489517195701,0.754608229958353,0.758223508330669,0.758429282330263,0.757047424522712,0.764887169906459,0.765275131162611,0.761431305383631,0.761893280212759,0.762134840994891,0.743050725870475,0.741279280134838,0.73342977471949,0.732544051851671,0.72746964875496,0.725989377295429,0.726589619238909,0.72667013949962,0.728489572057296,0.732810826048774,0.741663988047123,0.74702712541204,0.7424870840455,0.740694491574727,0.714539233555166,0.716751507384795,0.761445945431033,0.761311744996515,0.706205793239586,0.690301821745261,0.689612926181402,0.683046051585658,0.677541393762523,0.675459253687578,0.70047665468962,0.707038649269564,0.727788476453936,0.727972290382427,0.692933776933746,0.690737769823453,0.690183888030079,0.672268536689918,0.673617047722832,0.659802536327153,0.661451981667773,0.646524013333579,0.660179924215737,0.667102226628961,0.65281923371642,0.658299491460552,0.67774391441825,0.679886241354736,0.666628051760331,0.687637333118105,0.679824427821261,0.698328634401367,0.699900812825143,0.726859646779879,0.729100387368345,0.730143084077751,0.750553750163978,0.857524509850236,0.87434429764315,0.816971578546818,0.822534796559561,0.806882959214937,0.802719492401014,0.788830154096392,0.829139084609777,0.84538140386628,0.859468382810829,0.860175985101924,0.867520408881905,0.873140560412322,0.856540373330438,0.86069652012066,0.853555430332372,0.839200050518788,0.8343037679988,0.833189497724318,0.888903011448428,0.914506827682516,0.927398202755905,0.929049274768459,0.861696923359794,0.876084836612049,0.857744110561265,0.832660829345914,0.811740201608519,0.802792692638024,0.803346574431398,0.785815117667555,0.812159069631408,0.799438495111042,0.795521469095052,0.800081030524795,0.803320547680461,0.761554119114614,0.764855449803755,0.710400166820246,0.707550237592665,0.700628748515407,0.698717408993485,0.673692687967742,0.675058279055958,0.700941882862616,0.670572731199192,0.67921930586198,0.673547914165656,0.645615517058691,0.628628182056621,0.608221582650228,0.59246970498169,0.607208979371593,0.59084791306394,0.606396456740784,0.606984498644763,0.620873023613418,0.624122300800686,0.646589080210921,0.626011680251505,0.652742780135543,0.651806630437784,0.652215738429072,0.653948957374271
0.893270625590012,0.786388519524132,0.786556066733288,0.792847220436295,0.79293424738474,0.789242515431547,0.787553216628554,0.787287255767419,0.79236409887203,0.794398252124935,0.793597929533629,0.787038374961585,0.786146145406033,0.786317759295023,0.789240888759613,0.790901720803768,0.789693916893107,0.78310752223416,0.780308833172486,0.779530470652282,0.77771510477444,0.773818412157619,0.772275513828646,0.772166526809098,0.773360504008325,0.772588648175855,0.76683917622672,0.763871313283957,0.763383311703892,0.762489455476405,0.76788349960806,0.800538125338122,0.800177817504841,0.79490414709627,0.870814419547345,0.76287416338869,0.758565922772681,0.756859543914387,0.755723313568802,0.748840051281982,0.747117405704352,0.744980772119633,0.757269465241641,0.756404075772993,0.756434169203763,0.756617983132254,0.76421860774177,0.763878633307658,0.76200145389634,0.761811133280115,0.763053910637348,0.747390686589188,0.745165399384091,0.739134513190452,0.732471664950628,0.730425311658222,0.729333814790809,0.726849886748277,0.727319994937073,0.729768136197067,0.732850679511146,0.741288226830473,1.00634059169112,0.75164280702349,0.742348816931148,0.730866139752214,0.730703472558859,0.716400146247148,0.761184864585698,0.699412811245078,0.697536445169728,0.694240807832354,0.685017577969122,0.682024501611388,0.681741460694951,0.677074538917594,0.691176157909544,0.701851192473471,0.727903156825251,0.727710396201126,0.692777616428125,0.700796295724563,0.690260341610955,0.662965599901942,0.668244963662281,0.656045737496618,0.638054745911547,0.634903882376259,0.648472766309972,0.667604868256429,0.65162362984526,0.666419837752837,0.686488902733018,0.708553894175666,0.669300673747155,0.69737703132024,0.727658342699252,0.724662012997652,0.722021111113532,0.72294994078759,0.731270367727701,0.751537886683776,0.833376564996676,0.834263101200462,0.859533449688171,0.885706601099001,0.8734740281587,0.811883348738671,0.833954033533087,0.878785112021743,0.865308135052276,0.860387452453285,0.879346313838818,0.883713927980402,0.876572838192114,0.856922641234822,0.869626949035853,0.868455745243697,0.873254427447671,0.845161803155251,0.845747405051329,0.861404122411754,0.897215305028872,0.928845940776765,0.919037109017454,0.900956650476039,0.86529186833294,0.867243874653201,0.843014596202964,0.83792311305095,0.823714133711385,0.800363258105266,0.795396215356169,0.797562942371658,0.81157102772743,0.808467337678215,0.801124540570167,0.817955715066616,0.820647857116643,0.819590520359834,0.769894879453895,0.737809588900575,0.726089417619342,0.705449390790485,0.688692229867013,0.70716308967248,0.696954096617516,0.68533071231633,0.694058620575796,0.687494999323919,0.662951773190507,0.649221848735372,0.643043748731747,0.61459732329378,0.615849860682614,0.590532338708831,0.590641325728379,0.592433918199152,0.615844167330846,0.617178851652325,0.607143099158284,0.632375220855555,0.628858356135218,0.643055135435282,0.650014037967012,0.652384912310162,0.653101461296891
