0.671561456176672,0.672837786833425,0.664663124805096,0.663897040558714,0.66008305583582,0.659374142055585,0.657687613304221,0.656761451752625,0.657979182681576,0.658313629908541,0.653882204151249,0.651879808574418,0.651649697448172,0.654235946410539,0.65389792602944,0.65838866614536,0.658400814869417,0.654581827730734,0.65466901269161,0.778561700619152,0.659309825281169,0.658145691664231,0.656186173937011,0.646132032834069,0.644329733888755,0.642969791425261,0.640377825416279,0.640922374106338,0.645554611125975,0.643582230043871,0.642074358999219,0.641809230962458,0.64194501081956,0.640937381353702,0.640519322319995,0.640364962061396,0.63636088553856,0.636070030792032,0.635726293364318,0.641185358250619,0.641350437971621,0.639778250152553,0.637989529192949,0.635225337154696,0.627344388396203,0.627948251444891,0.62817979183279,0.624275763625713,0.620921286524482,0.620051580808207,0.616430546408562,0.613263302583966,0.609419303366344,0.609483620140761,0.600297040861614,0.612917421263771,0.614058686694249,0.615071318575895,0.623856275330352,0.627004224122623,0.626629042938527,0.624010635588952,0.622454169648074,0.621505139910018,0.611457430484518,0.611450998807077,0.610121785469137,0.609112726741626,0.609346411022006,0.609842364815839,0.608613199793658,0.610010303060148,0.607960027217918,0.608759699113162,0.606312803162031,0.605846149232098,0.605717515683265,0.612426469885726,0.611922655152797,0.607811384005933,0.606324951886087,0.604474772675375,0.606399273492079,0.601023105781693,0.602443077234642,0.603675815410957,0.604514792001678,0.604603406224207,0.615371463523171,0.613363350899725,0.615370034261518,0.610365474581093,0.611599642019061,0.603006206326199,0.602166515104651,0.605952629225299,0.60577325688776,0.604631276826454,0.605515275159267,0.607411905373725,0.611539613029606,0.617681864986375,0.625229081148729,0.628452066177819,0.62858355824996,0.628364166586117,0.628635011669493,0.95559719535451,0.632581917726181,0.688947709563087,0.646437894827961,0.646427889996385,0.650377654576381,0.650456978598161,0.650886471725097,0.651485332357997,0.653971533004605,0.654860533753206,0.655603035182302,0.654659007860034,0.654090161721862,0.649880271520893,0.638741320822795,0.853376401881997,0.63137562089046,0.631811545694838,0.631196963183747,0.63177938730763,0.631640034296394,0.631689343823446,0.632645519869771,0.635066689111136,0.636762508063249,0.639097921605392,0.645214446852395,0.64612274263332,0.646009830962678,0.646233510411482,0.640558627015472,0.633654578597282,0.623808395064953,0.624562330587279,0.625035416194653,0.626316749267194,0.626474682679928,0.624561615956452,0.624342938923437,0.620714043584696,0.623502533071062,0.625175483836716,0.628909429907003,0.623945604183708,0.624161422693417,0.622354121332315,0.614149444809259,0.601085278663629,0.603187722556219,0.602652464066909,0.601779185196499,0.601719156207044,0.602217253893358,0.594661462161081,0.594944455968513,0.594933021875284,0.595890627183262,0.600913052634358,0.614531057670797
0.671842306091624,0.668038326200305,0.665548552399563,0.660914171487445,0.660674055529624,0.660415359170305,0.659635696938212,0.659580670364545,0.65834793218823,0.655077066893741,0.653756429125724,0.653106115073291,0.653842184824945,0.654526801157067,0.656827912419522,0.6573703172171,0.657160930384833,0.657151640184084,0.66294086451239,0.66351685695883,0.663529720313713,0.659273379109,0.648410990540891,0.644533403674407,0.642941920823014,0.642950496392937,0.645218020006529,0.644575566893192,0.64408818866928,0.64143905219415,0.641516946954277,0.641709182646699,0.641960018066923,0.639463097957912,0.638274666892862,0.634960209117935,0.635044535555504,0.63418340540915,0.633926852942311,0.635065259849482,0.638055989859846,0.638529790098047,0.631868001530159,0.631063327219127,0.630748889655313,0.629719106633823,0.627757445014122,0.623865565531101,0.621362213744648,0.615229251988628,0.615306432117928,0.613801419596584,0.610807116432085,0.612357865326348,0.614691134976011,0.614155161855874,0.623666898161237,0.624623788838388,0.626252432492778,0.626128086728906,0.625990162979324,0.625629989042592,0.624872480366132,0.613016040317876,0.611505310749917,0.611487444979246,0.609109868218319,0.608899766755225,0.609426449674613,0.609671568048222,0.611506740011571,0.612086305612145,0.611330226197339,0.606543628919103,0.604138896186755,0.602849702175119,0.601957842903212,0.60079013613214,0.600513574002149,0.60427396141303,0.602817543787911,0.602950465121705,0.603362807108797,0.606021233784676,0.604226081147631,0.6044168875784,0.612716610001426,0.613307609695231,0.614961980059387,0.615767369001246,0.614851212281225,0.61243004303986,0.611604644434849,0.609213489688212,0.605433092614179,0.605836859031349,0.605693218235152,0.606862354267878,0.606974551307693,0.611521032628108,0.611449569545423,0.616319063999573,0.628000419495251,0.628759357433365,0.628286986456817,0.62795968553812,0.90360065639296,0.905901767655415,0.642387367301379,0.644529115889446,0.648413849064199,0.652875289316218,0.653364096801783,0.653517027798729,0.655182832256115,0.654208075808292,0.652941035352289,0.653586346988933,0.653775724158049,0.655128520313274,0.977186192633624,0.630184331302102,0.62898732466713,0.629894905817228,0.630366562162949,0.631096914867988,0.630691719189165,0.631219831370207,0.630768184687638,0.630629546307229,0.631700063285849,0.628241250083899,0.703886352367543,0.638655565123573,0.644330448519582,0.644486238039836,0.645228024838105,0.64373444640999,0.634982362673568,0.634782980672877,0.633523801155968,0.626631186831008,0.625567816160656,0.625523509049391,0.628872983734834,0.630460178801266,0.623816970634875,0.623064464374203,0.623926309151383,0.625500640862932,0.624928221570626,0.625319839263739,0.623501818440235,0.611916938106182,0.611665388055131,0.604162479004041,0.601813487476188,0.60358434266512,0.602230117248241,0.602621020310528,0.60003477134816,0.595235310715041,0.594776517724204,0.596657426060471,0.670137911569588,0.614968411736828,0.616476997412307
0.666161705648999,0.663754829024171,0.661801742974392,0.661106407179868,0.661531612521843,0.666082381627219,0.663013756856728,0.658768849745244,0.657099472133724,0.657276700578783,0.654951291868215,0.654699741817165,0.653720697584381,0.65444676250446,0.655518708744734,0.655966782273168,0.657135918305893,0.66126005280764,0.664405857707431,0.664195756244337,0.654575396053293,0.648803322864832,0.64526089785614,0.644021728002383,0.64430829496395,0.646052708812289,0.645904780231131,0.645774002789818,0.643052688601176,0.64185425270455,0.642058637121029,0.63705264817895,0.637214869376645,0.637523589893844,0.63799381697791,0.637109104014271,0.635020952738217,0.633830377780687,0.634051198706183,0.635127432731418,0.635362546273452,0.632126697889478,0.629665509321809,0.629969942054047,0.629554741543648,0.629295330553502,0.622231204830097,0.621725960835515,0.621180697514629,0.618347900916998,0.612054861855764,0.616426973254428,0.616742125449068,0.615517962842675,0.616353366279262,0.629073794997178,0.628312713166584,0.625226222625422,0.62063829271705,0.624557328171491,0.626303885912311,0.62531054906299,0.616196862128182,0.611936233138507,0.609192765394233,0.6098466526008,0.611050090913214,0.608276608674212,0.607709906428521,0.611053664067348,0.612479352566913,0.612656581011971,0.612683736983391,0.606795178970154,0.603945945863506,0.603315641474225,0.598469015206534,0.5983110817938,0.599463781317508,0.600024766516584,0.602247983018912,0.602637456819545,0.604792783393322,0.605736096084763,0.608839023134943,0.6092477919679,0.613982935826603,0.614195181182178,0.614022955152907,0.612609415377399,0.612194214867,0.609709443482045,0.609235643243844,0.609169182576947,0.606096984652322,0.607425483359435,0.606502894961973,0.607151065121925,0.611137990504917,0.610570573628398,0.611582490879217,0.623948462707016,0.626283161618332,0.628826532731088,0.633794646239344,0.633888262877662,0.692938922731039,0.647476968050199,0.647159671963078,0.647707079176445,0.649110614120377,0.654974160054675,0.656101847499443,0.656139722933266,0.655956777441592,0.655496555189101,0.652878147839526,0.651526780945954,0.718061054818097,0.766227172547735,0.766291489322151,0.630990434874788,0.629942786082627,0.629878469308211,0.629466127321119,0.630185760563756,0.630404437596772,0.631722216841482,0.632129556412786,0.631532839672367,0.624282909933981,0.624739559032338,0.624424406837697,0.629312481693346,0.632335370090918,0.632347518814975,0.631772955630188,0.631304872438602,0.631489247191929,0.631454230281413,0.628124765259123,0.626586165088916,0.626016604319917,0.626569728579899,0.629465412690292,0.630421588736616,0.630628831676402,0.62474813460226,0.625695020447835,0.62668049635806,0.627108560223343,0.613061776690795,0.610522693362999,0.610715643686249,0.604582681930229,0.605082208878196,0.602971189415684,0.604515506632505,0.605255864169121,0.60298333813974,0.602406631062473,0.597414934736931,0.734733392008489,0.610015305475936,0.614102993805514,0.616234737562005,0.615890285503464
0.663584032256554,0.663143819667215,0.661696692242845,0.661825325791678,0.663998518136127,0.665482806363492,0.659789342565985,0.659294103402978,0.657778371419231,0.656775029738335,0.656153300918976,0.652249987342725,0.652298582238951,0.653036795883086,0.661351525553477,0.662462061858401,0.660769101429595,0.660877010684449,0.720347873464015,0.648067253113177,0.647077489417991,0.646692303402319,0.646246373766365,0.646434321673826,0.648946963661028,0.644664895746548,0.644199671078269,0.644369753215059,0.644536976828542,0.639741089349557,0.637237737563104,0.636423058420496,0.636112908641643,0.637800866654661,0.637963087852356,0.63731563232323,0.634924477576593,0.639004304967075,0.634910899590883,0.634690078665386,0.633441618610881,0.63158643698438,0.62866288227174,0.628877986150622,0.621795280025719,0.622148307654182,0.622251929124076,0.620692604659891,0.618879586252174,0.618731657671016,0.618881015513828,0.621521576419036,0.622006810750466,0.628811525483725,0.628784369512304,0.629133823986634,0.622577800781119,0.618737374717631,0.618883874037135,0.619609224326387,0.618368625210977,0.613714949266535,0.611982684142252,0.608249452702792,0.607573411940593,0.608031490300603,0.610494108129925,0.609996010443612,0.611886208980628,0.611728275567894,0.613221853996009,0.612764490266825,0.60825445511858,0.602740363658611,0.602167229735478,0.601718441576217,0.597937329871358,0.597479966142174,0.594834402821178,0.594324871041635,0.595273900779691,0.600486418030729,0.606591509184502,0.609118443788241,0.608851171858999,0.610667048790023,0.612508652430813,0.612255673118109,0.611524605782242,0.612115605476046,0.611476725516843,0.611015788633525,0.608615343686139,0.607569124155632,0.606696559916049,0.607709906428521,0.611036512927504,0.613381216670396,0.61403367461531,0.611979110988118,0.742708672036127,0.774924229710489,0.633666727321338,0.633492357399587,0.634340624191057,0.64507723773364,0.645994109084487,0.647819990847087,0.649417905375922,0.650454120074853,0.653633512623506,0.655375067948537,0.657248115345709,0.655350055869597,0.654826946104344,0.654936999251678,0.750476709123978,0.948715300491952,0.631032598093572,0.631513544640042,0.62999423950216,0.630237928614116,0.629438256718871,0.63066099006361,0.631096200237162,0.633041425347845,0.635611237801195,0.631097629498815,0.632144563660149,0.623802678018338,0.623007293908055,0.623771948892784,0.624315068321189,0.630668136371879,0.630087856140477,0.629774133207491,0.629436827457218,0.626764108164802,0.627913234534375,0.627543055766067,0.623922735997249,0.623826975466451,0.625803644333516,0.626949912179782,0.62900090265284,0.629150975126478,0.626932761039938,0.627558063013431,0.624023498943835,0.625116884108914,0.61096933762978,0.612088449504626,0.60475705185198,0.604466197105452,0.605175825516513,0.6046005477009,0.605586738241952,0.60709103613247,0.607778510987898,0.61308107172312,0.611774011940812,0.610772814152397,0.610495537391579,0.612571539943576,0.614063689110037,0.614280222250573,0.61411514252957
0.662627141579403,0.66253709809522,0.662735765465084,0.664268648588676,0.663919908745173,0.663035195781534,0.660383915413923,0.658555175128016,0.657388897618598,0.6545010744473,0.653603498128778,0.652265709220916,0.652159229227716,0.659730742838183,0.661034229466356,0.662086880674305,0.653216168220626,0.653057520177065,0.649607282545037,0.649229957468461,0.647396214766765,0.648781883940026,0.64819803055449,0.646269956583651,0.644970757740439,0.64414035671964,0.644361177645137,0.644566276692443,0.63823893535152,0.637141262401479,0.637331354201421,0.635757737120699,0.635372551105027,0.636694618134698,0.638827076522016,0.640947386185278,0.639477390574449,0.639175816365519,0.638250369444749,0.634324902312866,0.629190279821955,0.628865122795738,0.628043297344862,0.622194044027101,0.62160232970247,0.621520861788209,0.6172859595083,0.616679952567132,0.616797866653562,0.629361791220399,0.630192192241197,0.631582863830246,0.631572144367843,0.628897995813773,0.628017570635095,0.622045400815116,0.620336003877293,0.61776690605477,0.618587302243993,0.618249281862893,0.612748768388635,0.61169969033482,0.611420269681522,0.609307820957356,0.608851886489826,0.608145831232899,0.609509346850527,0.611754716908487,0.61228711687449,0.614073693941613,0.611994118235482,0.607586275295476,0.602027876724243,0.600865886999786,0.601662700371723,0.601724873253659,0.600886611293765,0.59915934858527,0.599523810306963,0.587927495879681,0.590792450864519,0.595743413232931,0.595803442222386,0.608158694587782,0.608532446510224,0.611193017078584,0.611703978119781,0.611548903230355,0.612440762502263,0.614104423067168,0.614448875125709,0.613881458249191,0.611401689280024,0.609729453145197,0.607113904318929,0.608924064203338,0.612168488157233,0.613034620719374,0.625079723305918,0.626198835180764,0.625023982101424,0.888772066735839,0.636096472132626,0.637745125450167,0.644189666246693,0.645450275025255,0.646144896188953,0.649717335692372,0.653255472916102,0.650920774004786,0.659210491596237,0.658891051616635,0.658341500510788,0.657822678530496,0.703073817117415,0.766234318856003,0.719104415825297,0.628715764952927,0.630127160835954,0.629535446511323,0.630796055289885,0.630070705000633,0.630119299896859,0.635453304388461,0.638596965395771,0.641681312044452,0.641584836882828,0.695988967100032,0.624660235010558,0.61976286995416,0.619884357194724,0.620168065632983,0.625513504217815,0.629401810546702,0.629641211873697,0.627798178971252,0.624064947531792,0.624817453792464,0.627447295235269,0.627425856310464,0.623045169341878,0.625449187443399,0.625496353077971,0.626465392479179,0.625954431437982,0.628464929532703,0.626750530179092,0.626100216126659,0.611633229667923,0.611904789382126,0.603644371654576,0.604608408639995,0.604466911736279,0.604228225040112,0.605497409388596,0.606725145149123,0.605971209626797,0.606990273185884,0.62115782932817,0.621575888361876,0.621740253452052,0.619133994826532,0.619027514833332,0.615184944877364,0.615214959372091,0.612480067197739,0.613844297446195
0.66311309054166,0.664190039197722,0.667079291630674,0.666012347806188,0.66402495947672,0.662565683328294,0.662071158796114,0.660165953011734,0.656231195679102,0.655502272235716,0.65440602854733,0.658951795236917,0.660508975808622,0.657338158829892,0.654518940217972,0.652315733378795,0.651945554610488,0.652072758897667,0.649978175944172,0.649166355324871,0.649154206600815,0.649142772507585,0.648856920176845,0.644644171452569,0.644438357774437,0.644492669717277,0.644744934399155,0.637975951207239,0.638328264204876,0.636685327933949,0.636767510479037,0.635413285062158,0.635449731234327,0.639334464409079,0.639591731506745,0.640139138720112,0.640084826777271,0.639728225994673,0.630017822319446,0.627825334942673,0.624881055936054,0.623151649335079,0.622311958113531,0.620929862094405,0.619409127694869,0.616065370056042,0.616417683053679,0.616315490845439,0.627397985708217,0.629344640080554,0.631772240999361,0.631619310002415,0.631465664374643,0.631223404524341,0.622556361856313,0.617030121672288,0.61860373875301,0.618498688021464,0.617995587919362,0.613188980977974,0.612708034431504,0.612527947463138,0.609849511124107,0.61128020203946,0.611589637187485,0.612250670702321,0.612907416432195,0.612009840113673,0.611459574376999,0.610439081556258,0.606044101971135,0.602368040997823,0.60234374354971,0.601614105475497,0.598656963113995,0.600476413199153,0.599567402787401,0.599292984549891,0.594164793736421,0.59440991211003,0.59457999424682,0.594451360697987,0.594647884175371,0.596052848380956,0.60948147624828,0.610807116432085,0.610665619528369,0.612087020242972,0.613926479991282,0.614243061447576,0.614143727762644,0.614694708130145,0.612834524087857,0.60991239863687,0.610688487714828,0.612333567878235,0.624097105919,0.625320553894566,0.628983751512995,0.626809129906893,0.632297494657095,0.641847106396281,0.643653693126556,0.643043398400427,0.643149878393627,0.644814968220186,0.64755629207198,0.654652576182593,0.655475116264296,0.662240526302078,0.66021454790796,0.661154287445267,0.660341037564312,0.698989701941972,0.721026772749521,0.631968049845918,0.629428966518122,0.628543538923656,0.62918456277534,0.629527585572228,0.630191477610371,0.630539502823046,0.631344891764905,0.634924477576593,0.639727511363847,0.640890930349957,0.641378308573868,0.622970847735886,0.622259790063171,0.619578495200833,0.619421276418926,0.620078736779627,0.625108308538992,0.628612858113861,0.627805325279521,0.626542572608478,0.623516825687599,0.623745507552191,0.623532547565789,0.6253241270487,0.626725518100152,0.626960631642185,0.622141875976741,0.621812431165564,0.622306241066916,0.620789794452342,0.626080206463507,0.61240288706844,0.684401942873499,0.603566476894449,0.603929509354489,0.603546467231297,0.603617215683155,0.605330185775113,0.606849490912994,0.606016231368888,0.619671397208323,0.619830045251884,0.621209282747703,0.620430335146437,0.621129244095096,0.618344327762864,0.617461758691705,0.617381720039098,0.615293568763045,0.615707340011791,0.61596603637111
0.671362074175981,0.672672707112422,0.671988805411128,0.667459475230557,0.6659301652611,0.663496847295678,0.662740053250045,0.65894893671361,0.656700708132342,0.656782176046603,0.659569950902142,0.659242649983445,0.660366764274079,0.653980108574527,0.653053947022931,0.651974139843562,0.651816206430828,0.651336689146012,0.651431735045983,0.651426017999368,0.651450315447481,0.64560106212972,0.646257093228768,0.646110593909264,0.645787580775528,0.644734929567579,0.638176762469584,0.637102672336829,0.63728847635181,0.638108157910206,0.636404478018998,0.636807529805341,0.638001677917006,0.638480480570995,0.638589819087503,0.639378056889517,0.626838429770794,0.625905121910929,0.627079260359442,0.624240746715197,0.623909158011539,0.622707148960779,0.621878177201634,0.616952226912162,0.614955548381945,0.614624674309114,0.615963892478629,0.627718854949472,0.627032809355697,0.627643104081826,0.630265799216363,0.63071101422149,0.622424869784173,0.62151371547994,0.619900079072915,0.618979634567933,0.619028229464159,0.617419595472921,0.614381699827985,0.613974360256681,0.612139188293332,0.611648951546114,0.611741853553604,0.611882635826493,0.61215562480235,0.613649203230465,0.614508904115164,0.609514349266315,0.607100326333218,0.602949750490878,0.601519059575526,0.60200357927613,0.601226775567345,0.601747741440118,0.602026447462589,0.601337543345506,0.601466891525166,0.594856556376811,0.594258410374738,0.594895861072288,0.595100960119593,0.599662448687372,0.604158905849907,0.604116742631123,0.604999311702282,0.607173933308384,0.608321630416304,0.612195644128653,0.614105852328821,0.614950545966157,0.614825485571459,0.613280453723811,0.613455538276389,0.61283380945703,0.623259558589933,0.622972991628367,0.623213822217015,0.626615464952817,0.627806754541175,0.63419698339486,0.641628429363265,0.643043398400427,0.643765175535545,0.6421829828849,0.641789221299306,0.64584618050333,0.647271154372067,0.653739992616706,0.661722418952612,0.66205400765627,0.661535900306804,0.659241220721791,0.718254005141346,0.719568925862749,0.632506881489362,0.627321520209744,0.628732201461944,0.62797111963135,0.629519724633132,0.629631921672948,0.630232211567501,0.627367256582662,0.621845304183599,0.621057066381584,0.698014230863323,0.625150471757776,0.626073774786065,0.619507032118148,0.61812064831406,0.617919122420889,0.619023227048371,0.619838620821806,0.624638796085752,0.626465392479179,0.623530403673309,0.622404145490195,0.620217375160036,0.621810287273083,0.622258360801517,0.620060156378129,0.620093029396164,0.621611619903219,0.618952478596513,0.619285496561825,0.616951512281335,0.617068711736938,0.600146968387976,0.60350287475086,0.601744168285984,0.601811343583707,0.602290146237696,0.603314212212571,0.602841126605197,0.605901175805766,0.607421910205301,0.606816617894959,0.620205941066806,0.619750006599276,0.619800030757156,0.620714043584696,0.620699036337332,0.619321228103167,0.619239045558079,0.61800273422763,0.618342183870384,0.617010112009137,0.617356707960159
0.668434946309207,0.67038017141989,0.671124816741467,0.67105835607457,0.664888233515554,0.664072839742119,0.662365586696776,0.66242132790127,0.662556393127545,0.664538064410398,0.664046398401525,0.664054973971448,0.658414392855127,0.656032528309238,0.655946057979189,0.653434845253641,0.652638031881705,0.65607969394381,0.655491552773313,0.653121122320655,0.647026750629284,0.646167764375412,0.64634499282047,0.646414312010675,0.641816377270727,0.641240384824286,0.637780856991509,0.637816588532852,0.637441407348756,0.638860664170878,0.638649848076958,0.637045501870681,0.637393527083357,0.638534077883008,0.632539754507397,0.631186958352172,0.62139365750103,0.621992518133929,0.621269311737158,0.622547786286391,0.623047313234359,0.618909600746902,0.617799064441978,0.61663278693256,0.614410999691886,0.615931019460594,0.627106416330862,0.628482080672547,0.628740777031867,0.628019714527576,0.627458729328499,0.622302667912782,0.620770499420017,0.619913657058625,0.618590875398127,0.618191396765918,0.616784288667852,0.614962694690214,0.614375268150544,0.613984365088257,0.615438638820895,0.613424094520007,0.613133954404307,0.612548671757117,0.612267821842165,0.612903843278061,0.613296175602001,0.601995718337035,0.6014704646793,0.601474037833435,0.60047712782998,0.601571227625886,0.600922342835107,0.602224400201626,0.6038952070748,0.602194385706899,0.603078384039711,0.603196298126141,0.600065500473715,0.59908002456349,0.599004273695844,0.600911623372704,0.605538143345726,0.60502003599626,0.604882826877505,0.606863783529531,0.607301137595563,0.610912167163632,0.612665156581893,0.613354060698976,0.614337392716721,0.62280433875323,0.624329360937726,0.624079240148329,0.62395203586115,0.624645227763194,0.626783403197127,0.628402756650767,0.657836256516206,0.643382133412353,0.642947637869629,0.641921428002274,0.642038627457877,0.636483087409951,0.637045501870681,0.638478336678514,0.723978198064409,0.65797132174248,0.659715020959992,0.660791969616054,0.661250047976065,0.651689002143649,0.628523529260504,0.629999241917948,0.626781259304646,0.626819134738469,0.62766954542242,0.629060931642295,0.629807006225526,0.630415871690001,0.630613824429038,0.614643254710612,0.616865756582113,0.616678523305479,0.617486770770645,0.619870064578187,0.618600165598876,0.617305969171452,0.615993906973357,0.613203988225338,0.614938397242101,0.618740947871765,0.620189504557789,0.656915097380397,0.621844589552772,0.62215116617749,0.620135907245775,0.620431049777264,0.618150662808788,0.618112787374965,0.618924607994266,0.619038948926562,0.619566346476776,0.61561229411182,0.60216222731969,0.601949981964116,0.601634115138649,0.602006437799437,0.601316104420701,0.604290397922047,0.601094568864378,0.600564312790856,0.601162458792928,0.607076743515932,0.616751415649817,0.618958195643128,0.620087312349549,0.619292642870093,0.620098031811952,0.620506086014083,0.621012759270319,0.620648297548626,0.617729030620947,0.616769996051315,0.617470334261627,0.618171387102767,0.620533241985503
0.667075003845712,0.669110987071406,0.670049297347059,0.665740788091985,0.665772946479193,0.666066659749028,0.66611168149112,0.665861560701723,0.664648117557733,0.662824379687613,0.662362013542642,0.660588299830402,0.658503007077656,0.656555638074492,0.656403421708373,0.658435117149105,0.656733581150377,0.657378892787022,0.653734275570091,0.651926259578163,0.652037027356324,0.644867850901373,0.645633220516929,0.642127241680406,0.641018849267963,0.638917120006199,0.637112677168405,0.637192715821012,0.641426903470094,0.64068154351769,0.638225357365809,0.636315149165641,0.635718432425222,0.633406601700365,0.632000208233126,0.621596612655855,0.620685458351622,0.62129146529279,0.621553734806244,0.621620195473141,0.621245728919872,0.617498919494701,0.618665197004119,0.616589194452122,0.628725055153676,0.629330347464017,0.629231728409912,0.62957689509928,0.627566638583353,0.621851021230213,0.61972642378199,0.620654729226068,0.619519895473031,0.618881730144655,0.619627090097059,0.618981778460414,0.617052989858748,0.616219015683815,0.614898377915797,0.613024615887799,0.613206132117818,0.612739478187886,0.613563447531243,0.610893586762134,0.611553191015316,0.601080276247841,0.600422815887139,0.599965452157956,0.600447827966079,0.601752743855906,0.601707722113814,0.600006186115086,0.599796799282819,0.598509034532837,0.600563598160029,0.600387084345797,0.600313477370631,0.604703454539966,0.602247983018912,0.6025138256865,0.600273458044328,0.603134125244205,0.605223705781912,0.605755391117088,0.606715854948374,0.606717998840854,0.608128680093055,0.610095344128544,0.612576542359364,0.619461295745229,0.621803140964814,0.623295290131275,0.62389986781079,0.626594026028012,0.628933012724289,0.629812008641313,0.640900935181533,0.641534098094121,0.643673702789708,0.643988854984348,0.640742287137972,0.639679631098448,0.636731778937695,0.636781803095574,0.637353507757053,0.637597911499836,0.727915813920348,0.657103045287858,0.659778623103582,0.659740033038932,0.753921229709391,0.627315803163129,0.628612143483034,0.628914432322791,0.626180254779266,0.626393929396494,0.626721944946018,0.627020660631641,0.629476846783521,0.628532819461254,0.703196018988806,0.615687330348639,0.615919585367365,0.615689474241119,0.616689242767881,0.616033211668834,0.915013310697742,0.61477974919854,0.607543397445865,0.607779940249552,0.609758753009098,0.609307106326529,0.609189192240099,0.609556512485099,0.610562712689303,0.615790237187705,0.614579652567022,0.65893750262038,0.79990057710887,0.869062548531337,0.609831645353436,0.623722639365731,0.599385886557381,0.601379706564291,0.602319446101597,0.602080759405429,0.601058122692208,0.603532889245587,0.602036452294165,0.599867547734678,0.599707470429463,0.601732019561927,0.601476896356742,0.605540287238207,0.614697566653452,0.617353849436851,0.619389832662545,0.620140909661563,0.619678543516592,0.619653531437652,0.62186531384675,0.617962714901327,0.61640839285293,0.616932931879837,0.617541082713486,0.618283584142582,0.61855157070265
0.666601203607512,0.668336327255101,0.666278190473776,0.666319639061733,0.66634750966398,0.6670800062615,0.667198634978757,0.665085471623764,0.661218604219683,0.660368908166559,0.658801722763279,0.658752413236226,0.658775281422686,0.65925051092254,0.659573524056276,0.658705247601654,0.65500703307271,0.653942947771531,0.654053715549693,0.653740707247533,0.651873376896976,0.642306614017945,0.643829492309961,0.641538385879082,0.641302557706222,0.641146053555142,0.644095334977549,0.641345435555833,0.639470958897008,0.638313256957512,0.638325405681568,0.636778944572267,0.630648126708727,0.630649555970381,0.621297182339405,0.621467264476195,0.621477983938598,0.622354835963142,0.624672383734614,0.622935116194543,0.62173596566709,0.61787124215549,0.61883527914091,0.627324378733051,0.629776991730798,0.628820101053647,0.628384176249269,0.626401075704762,0.624261471009176,0.61870807485373,0.61947701762342,0.618152092070442,0.61942484957306,0.619892932764646,0.617643274921725,0.618663053111639,0.616270469103348,0.61614969649361,0.616479141304788,0.612485784244354,0.612159912587311,0.612455769749627,0.613331192512517,0.610243987340528,0.600070502889503,0.599548107755076,0.599380169510766,0.601478325618396,0.60138899676504,0.601183183086907,0.600702236540437,0.598321086625376,0.598561917214024,0.598174587305872,0.599325857567926,0.599780362773802,0.599841106394084,0.606856637221263,0.606945251443792,0.604592686761805,0.604137466925102,0.604188920344635,0.605446670599889,0.606027665462118,0.605863300371942,0.607717767367616,0.608730399249262,0.619366249845259,0.621349350389765,0.618926037255919,0.619764299215814,0.621911050219669,0.768170968396764,0.629791998978162,0.634649344708256,0.6427818435178,0.643252785232694,0.641558395542234,0.642058637121029,0.640397835079431,0.638093150662842,0.63628370540926,0.63245971585479,0.631878006361735,0.637343502925478,0.725543239575208,0.703507598029313,0.661352240184304,0.662639290303459,0.662058295441231,0.702869432700936,0.631432076725781,0.627835339774249,0.626359627116805,0.625713600849333,0.626915609900094,0.626710510852788,0.627061394588771,0.627972548893004,0.609291384448338,0.609918830314312,0.61385430227777,0.613642056922196,0.612554388803732,0.727880082379005,0.603110542426919,0.604784922454227,0.601734163454408,0.601960701426519,0.605030755458663,0.604644140181338,0.711613655498263,0.699662169550037,0.910489697563787,0.601846360494223,0.601987142767112,0.876530440671912,0.595772713096831,0.597029034090432,0.596878961616794,0.59549186318188,0.597179821194898,0.599100748857468,0.600211999793219,0.600728677881031,0.60073796808178,0.601464747632686,0.602319446101597,0.599871120888812,0.600140536710534,0.599956161957207,0.604381156037057,0.606005511906485,0.614647542495573,0.614878368252645,0.615746644707267,0.616400531913834,0.617252371859438,0.617403158963904,0.616263322795079,0.614927677779698,0.61406083058673,0.613028189041933,0.613980077303296,0.614198039705485,0.614052969647635,0.613610613165815
0.668403502552825,0.666722690848076,0.665829402314514,0.667511643280917,0.671041204934726,0.668514984961814,0.663326765158888,0.661481588363964,0.661092829194158,0.661238613882835,0.657919868322947,0.658644503981372,0.6594570392315,0.663840584723393,0.664786041307314,0.659877242157687,0.655856014495007,0.654353145866143,0.656147583872361,0.652416496325381,0.645683959305635,0.643674417420535,0.643858792173862,0.642376647838977,0.645157991017074,0.645833317148446,0.643428584416099,0.641370447634773,0.639911886117174,0.638570524055178,0.638013826641062,0.636794666450457,0.631075475943183,0.629628348518813,0.623270278052336,0.621360069852168,0.621488703401001,0.623786956140148,0.623638312928163,0.623902011703271,0.623336024088406,0.631258421434856,0.628587131404094,0.627795320447945,0.626689786558809,0.626450385231815,0.626117367266503,0.624043508606987,0.618328605884673,0.619275491730249,0.619344096289626,0.619555627014374,0.618907456854421,0.617501063387182,0.616233308300352,0.616107533274826,0.615984616772608,0.616795008130255,0.616543458079204,0.615715200950886,0.611455286592038,0.6115181741048,0.598470444468187,0.599425905883685,0.599976171620359,0.599205799589015,0.600631488088579,0.600808001902811,0.600695804862996,0.600694375601342,0.601158885638794,0.598308223270492,0.599157204692789,0.598914230211661,0.599269401732605,0.600008330007567,0.599769643311399,0.60479564191663,0.605978355935065,0.605626757568255,0.603961667741697,0.605553865223917,0.605678210987789,0.606440722080037,0.607914290845,0.607786371926994,0.619878640148109,0.621086366245485,0.621382938038627,0.621630914935544,0.621154256174035,0.624240746715197,0.747968354921737,0.644411916433843,0.646170622898719,0.645831887886792,0.643769463320506,0.642042200612011,0.639015024429478,0.636242256821303,0.63616579132283,0.635641966926749,0.636418056004708,0.725943432838244,0.726736673056047,0.727565644815192,0.653728558523476,0.655568018271786,0.658615918748298,0.63740639043824,0.636966177848901,0.632231033990198,0.627631669988597,0.626044474922165,0.627961829430601,0.627822476419365,0.626883451512885,0.626636903877622,0.700240305888958,0.606385695506369,0.609850940385761,0.610374764781842,0.610990776554586,0.60526729826235,0.594911582950478,0.597238420922699,0.599874694042946,0.59951309084456,0.599277977302527,0.598103838854014,0.59320790305927,0.593671698465895,0.59476365436932,0.59501091663541,0.597046185230277,0.59332796103818,0.593623818200496,0.596465904998875,0.594989477710605,0.595129545352667,0.595089526026364,0.595139550184243,0.596768193838632,0.599500942120504,0.600275601936808,0.599436625346088,0.597330608299363,0.597587160766202,0.599481647088179,0.599671024257294,0.603311353689264,0.605414512212681,0.607526960936847,0.613356204591457,0.615503670226138,0.616474138889,0.617062994690323,0.614983418984192,0.61489766328497,0.615446499759991,0.616152555016918,0.608125821569747,0.609002673594291,0.610437652294604,0.610600588123126,0.609988864135343,0.609387859609963
0.670931866418218,0.670974029637002,0.671504285710524,0.670695323614531,0.670891847091914,0.664634539572022,0.663338199252118,0.660690492038641,0.660401066553768,0.660569004798077,0.660838420619799,0.660779820891998,0.662226948316367,0.662765065328985,0.662537812726047,0.655497269819928,0.654755483021659,0.64861323106489,0.646755905545909,0.645634649778582,0.645030072099068,0.644672756685643,0.643443591663462,0.648668257638557,0.647899314868867,0.644822829159281,0.642052920074414,0.64291119169746,0.641456917964822,0.638842798400207,0.635308948961438,0.634437813983509,0.631983057093282,0.630478759202764,0.62061113674563,0.621424386626584,0.620412469375766,0.620759779957614,0.623210963693707,0.63321508063877,0.634419233582011,0.634105510649024,0.629073794997178,0.626656913540774,0.625282678460743,0.622880089620876,0.62361401548005,0.619377683938488,0.617566094792425,0.619561344060988,0.61949059560913,0.619267630791153,0.618587302243993,0.617902685911871,0.616366944264972,0.616425543992774,0.616753559542298,0.616700676861111,0.616854322488883,0.615086325823259,0.615212815479611,0.600920198942626,0.600389942869104,0.599823240623413,0.599836103978296,0.60138899676504,0.601038827659883,0.601035254505749,0.601159600269621,0.601940691763367,0.602883289823981,0.59939303286565,0.601386852872559,0.602132212824963,0.599196509388266,0.59928869676493,0.599585268558072,0.604761339636941,0.60704101197459,0.606670118575455,0.607898568966809,0.609200626333328,0.607148206598617,0.616756418065605,0.617921266313369,0.618222125891473,0.619781450355658,0.621054207858276,0.620984174037245,0.627315803163129,0.626775542258031,0.649204230758694,0.646573674685062,0.646947426607504,0.646867387954897,0.646500782340723,0.646114881694225,0.64177492868277,0.636525250628735,0.636233681251381,0.636238683667169,0.636199378971692,0.64720469370517,0.653693541612961,0.654674729738225,0.657598284450865,0.658691669615944,0.655330760837272,0.763804574044716,0.729102101092918,0.63222603157441,0.632744853554703,0.631868716160986,0.629148116603171,0.628330578937255,0.62639035624236,0.623043025449398,0.615134206088657,0.615807388327549,0.601641261446917,0.601710580637122,0.601514057159738,0.594289854131119,0.592363209421934,0.59294706280747,0.595811303161481,0.594845122283581,0.592847014491711,0.599863974580543,0.587682377506071,0.588543507652425,0.588445603229146,0.590321509149626,0.592424667673043,0.590395830755618,0.590775299724675,0.592559732899317,0.592589747394045,0.596891824971677,0.597935900609704,0.59461858431147,0.594744359336995,0.597636470293254,0.598177445829179,0.597610743583488,0.598022370939753,0.597662197003021,0.599072163624394,0.602781097615742,0.603174859201336,0.60547597046379,0.60781209863676,0.609893103604545,0.611325938412378,0.614794041815077,0.614969840998482,0.61410156454386,0.613128951988518,0.614383843720466,0.60957223436329,0.609222779888961,0.609199197071675,0.607482653825583,0.608939071450702,0.609737314084292,0.60946789826257,0.609241360290459
0.673111490440108,0.673068612590497,0.673498105717433,0.665201241817714,0.66532916073572,0.662776499422215,0.662161916911124,0.661558053862436,0.659900110344146,0.665953033447559,0.665455650392072,0.662359869650161,0.662077590473556,0.660616170432649,0.651292382034747,0.647016745797709,0.645843321980022,0.64380019244606,0.643825919155827,0.643762317012237,0.644408343279709,0.646080579414536,0.648384549200298,0.648342385981514,0.647168247533001,0.642996232765855,0.642263736168334,0.642276599523218,0.640919515583031,0.635088128035941,0.635233912724619,0.633733902619062,0.627315803163129,0.623190239399729,0.619553483121893,0.619421276418926,0.619692836133129,0.620607563591496,0.620763353111749,0.633576683837155,0.633964728376134,0.634760112486418,0.624984677405947,0.622943691764466,0.622768607211888,0.623237405034301,0.620867689212469,0.619614941373002,0.619641382713595,0.619145428919762,0.618868866789771,0.618920320209305,0.618007022012591,0.618829562094295,0.621596612655855,0.62194249397605,0.623840553452161,0.621790992240758,0.616967234159526,0.613674215309404,0.600431391457062,0.600742255866741,0.600484274138248,0.600091941814308,0.604016694315364,0.604280393090471,0.604375438990442,0.604406882746824,0.602880431300674,0.608003619698356,0.607903571382597,0.60440545348517,0.604108167061201,0.604882112246678,0.598814896526729,0.599428764406992,0.606155584380124,0.607194657602363,0.60691166379493,0.608971944468737,0.609182760562657,0.609041263658941,0.611097971178613,0.617125167572259,0.617854091015646,0.618089204557679,0.619669253315843,0.624310065905401,0.62584366365982,0.645996252976968,0.643134156515437,0.644677044470604,0.648623950527292,0.647628469785491,0.645408111806471,0.64673518125193,0.643298521605612,0.63869701371153,0.638573382578485,0.635219620108082,0.636328727151352,0.721977231749231,0.652287862776548,0.653368384586745,0.65268448288545,0.653290489826618,0.786601297421206,0.740207464142154,0.758316209294514,0.633990455085901,0.634247722183567,0.635659832697421,0.635885656038705,0.633741048927331,0.62284507271036,0.62332387536435,0.618007736643418,0.616961517112911,0.613401226333548,0.601202478119232,0.601832067877686,0.595567614049526,0.592797704964658,0.593148588700641,0.591917994416807,0.592233146611447,0.591646434702604,0.59189226770704,0.592750539330086,0.586967746679222,0.584680928033305,0.585840059234454,0.587887476553377,0.589226694722893,0.589494681282961,0.589452518064177,0.59035223827518,0.591885836029599,0.59691397852731,0.599555254063344,0.5944756581461,0.595117396628611,0.595899917384011,0.59549400707436,0.595139550184243,0.597582158350414,0.598267489313362,0.604371151205481,0.603504304012513,0.601688427081489,0.601262507108687,0.603780151511677,0.607323291151195,0.607418337051166,0.609588670872308,0.610347608810421,0.609273518677667,0.609345696391179,0.60689594191674,0.605801842120833,0.608350930280205,0.606794464339327,0.606506468116107,0.606920953995679,0.607892137289367,0.609300674649087,0.60787784467283
0.673920452536101,0.673441649882112,0.665489238040934,0.663840584723393,0.662785789622964,0.661928947261571,0.661369391324148,0.6612829209941,0.668156954917562,0.668069769956687,0.666107393706159,0.663563307962575,0.840720289938497,0.646325697788145,0.646367861006929,0.646052708812289,0.644041737665535,0.643482181728112,0.643156310071069,0.648959827015912,0.648720425688917,0.64693241936014,0.646695161925626,0.64509295961183,0.644519111057871,0.641533383463294,0.640861630486056,0.642921196529036,0.632774153418604,0.633944718712983,0.633934713881407,0.632819889791522,0.626627613676873,0.62598873371767,0.62164091976712,0.618424366415471,0.619757152907545,0.62202181799783,0.627030665463216,0.628744350186001,0.628718623476234,0.6247731466812,0.622693570975068,0.622298380127821,0.62193105988282,0.621362213744648,0.619384830246757,0.621417240318316,0.619048239127311,0.619039663557388,0.619630663251193,0.619434139773809,0.62011446832097,0.623470374683854,0.624053513438563,0.623644029974778,0.623556130383076,0.62276574868858,0.621257877643928,0.606305656853762,0.601902101698717,0.601481184141703,0.601085993294456,0.604797071178284,0.60440545348517,0.604254666380705,0.606840915343072,0.612648720072876,0.61409942065138,0.614295229497936,0.613578454778607,0.612436474717302,0.611418840419868,0.609158463114544,0.608376656989971,0.607909288429212,0.605914039160649,0.607265406054221,0.607794232866089,0.609154175329583,0.607650592069892,0.611439564713847,0.613864307109346,0.616237596085313,0.616690672029535,0.861301657751755,0.856642264760698,0.891151787389247,0.63707980415037,0.637842315242618,0.642225860734511,0.646770198162446,0.648535336304763,0.648372400476242,0.646652998706842,0.64096739584843,0.641417613269345,0.641297555290434,0.639841852296142,0.718639905787845,0.64814371861165,0.649180647941408,0.649725911262294,0.653434845253641,0.65329906539654,0.739142664210149,0.634845868185639,0.636706052227928,0.629989237086372,0.629075938889659,0.628171216262868,0.6294975710775,0.69689440435765,0.699467075334307,0.619259769852058,0.616758561958086,0.615337161243483,0.615901004965867,0.614341680501682,0.592885604556361,0.592081644876155,0.592070925413753,0.590552334906698,0.589950615750491,0.589123787883826,0.587336496185876,0.588306964848738,0.589369620888263,0.584946056070066,0.583426036301357,0.583534660187039,0.585467736573666,0.587055646270925,0.587636641133153,0.5880025321165,0.588486337186277,0.590751002276562,0.593043537969094,0.59528319098044,0.596284388768856,0.595068801732385,0.595633360085596,0.595281047087959,0.59538752708116,0.597403500643701,0.598726996935026,0.606045531232789,0.603318499997533,0.601099571280166,0.59945877890172,0.599600275805436,0.60099880833358,0.602776095199954,0.604817795472262,0.604773488360997,0.608077226673521,0.608419534839582,0.607443349130106,0.605308032219481,0.604163908265695,0.603577196356852,0.6062720692049,0.60745835637747,0.607126053042985,0.605672493941174,0.601854936064145,0.602024303570108
0.670399466452215,0.667518074958359,0.663363211331058,0.663407518442322,0.662546388295969,0.661898932766844,0.662935147465775,0.670790369514502,0.67030299129059,0.669005936339859,0.664389421198413,0.649564404695426,0.648516755903265,0.645253036917045,0.645400965498202,0.645402394759856,0.644599149710478,0.648683979516748,0.648171589213897,0.648505321810035,0.648486026777711,0.647346905239713,0.64412677873393,0.642920481898209,0.642093654031544,0.639680345729274,0.638667713847629,0.636969036372208,0.631465664374643,0.632276770363117,0.632517600951765,0.631537842088154,0.629999241917948,0.630488049403513,0.62778960340133,0.626604030859587,0.625408453486269,0.624171427524993,0.626627613676873,0.627633813881077,0.624200012758067,0.622479181727014,0.622234063353404,0.622286231403764,0.623303151070371,0.622542783870603,0.62174525586784,0.621555878698725,0.620069446578878,0.619977973833041,0.624206444435508,0.624790297821044,0.624551611124876,0.6246959665519,0.624194295711452,0.622105429804572,0.619995839603713,0.615113481794679,0.609664421739953,0.604895690232389,0.604469770259586,0.602753227013495,0.605210842427029,0.604594830654285,0.605896888020804,0.606650108912304,0.612602983699957,0.613456967538042,0.614022955152907,0.615239256820204,0.614708286115855,0.613936484822858,0.611124412519206,0.60826588921181,0.608253025856926,0.607837825346527,0.607646304284931,0.608250881964446,0.607807096220972,0.614368121842275,0.615161362060078,0.616988673084331,0.618558002380092,0.618714506531172,0.618994641815297,0.866075391675108,0.636954029124845,0.635967838583793,0.636756076385807,0.638069567845556,0.647861439435044,0.648516755903265,0.648927668628703,0.648963400170046,0.64214010503529,0.641474069104666,0.641289694351339,0.641551963864793,0.64190642075491,0.661550907554168,0.661452288500063,0.647976494998167,0.648581072677682,0.647820705477914,0.742923061284181,0.743702008885447,0.630170753316392,0.628983751512995,0.627351534704472,0.627156440488742,0.628502804966526,0.627924668627605,0.70871582749539,0.615728064305769,0.615029869987937,0.613299034125309,0.613521998943286,0.614130149776934,0.659207633072929,0.589668336573886,0.588109726740527,0.589616883154352,0.589562571211512,0.58556206784281,0.586106616532869,0.581082761820119,0.58947895940477,0.589244560493564,0.584738098499453,0.58326667362697,0.582697827488798,0.585305515375971,0.586134487135116,0.58622667451178,0.586639731129698,0.590739568183332,0.59048158645484,0.587723826094029,0.593499472436624,0.593576652565924,0.594481375192715,0.595489004658572,0.595538314185625,0.599768928680572,0.607192513709882,0.609660133954992,0.609082712246898,0.607108901903141,0.597168387101668,0.597309884005384,0.600039059133121,0.60200572316861,0.60641285147779,0.605073633308274,0.604468340997933,0.604594830654285,0.604777061515132,0.605534570191592,0.606607945693519,0.601632685876995,0.602025018200935,0.60239376770759,0.604295400337835,0.602200102753513,0.602478094145158,0.601491188973279,0.60099880833358
0.666810590439778,0.662286262674996,0.662001124975083,0.662740767880872,0.662843674719938,0.668836568833896,0.669783454679471,0.670017853590678,0.671010475809171,0.671340635251175,0.652093483191646,0.648699701394938,0.647262578802145,0.644735644198406,0.645683244674808,0.647098213711969,0.646163476590451,0.646424316842251,0.647757103334324,0.6475834480434,0.648045814188371,0.646961004593214,0.642222287580377,0.639855430281853,0.634870880264579,0.637942363558377,0.635515477270397,0.635788466246254,0.631580005306939,0.631603588124225,0.631746514289594,0.630207914119388,0.629919203265341,0.630501627389223,0.636828968730146,0.625343422081025,0.62961334127145,0.629231728409912,0.629762699114261,0.628226242836535,0.624865334057863,0.623922735997249,0.623274565837297,0.623785526878494,0.621365072267956,0.622179751410564,0.622096854234649,0.62186531384675,0.621630914935544,0.622782899828425,0.623949177337843,0.625429177780247,0.62692561473167,0.626403219597243,0.623741219767229,0.622977994044154,0.615122057364601,0.610498395914887,0.609597961073057,0.605817563999024,0.606437863556729,0.607063880161049,0.60614272102524,0.606823764203228,0.608012909899105,0.616642791764136,0.612884548245736,0.613939343346166,0.614998426231556,0.614664693635417,0.614654688803842,0.613860733955212,0.610868574683194,0.610081051512007,0.608423822624543,0.609237787136324,0.608167984788531,0.610346894179595,0.613777122148471,0.613111086217847,0.616389812451432,0.618039895030626,0.618885303298789,0.619616370634656,0.627949680706544,0.6325504739698,0.63495020428636,0.637658655120118,0.638519785266471,0.642791848349376,0.645763283327415,0.648015799693644,0.648215181694335,0.646545089451988,0.646291395508457,0.641704894861738,0.642311616433733,0.722484619636294,0.65944560513827,0.661042090405451,0.657328153998316,0.656562069751934,0.649444346716515,0.792704244682498,0.629663365429329,0.627549487443509,0.626225276521357,0.626428946307009,0.626869158896348,0.627210752431582,0.627521616841262,0.628869410580699,0.616168276895108,0.614003660120582,0.613138242189268,0.61095575964407,0.604292541814528,0.66868149394447,0.589045178492873,0.587102811905497,0.585830769033705,0.586989900234855,0.584290739601845,0.584380068455201,0.585669977097664,0.589706212007708,0.589222406937932,0.586067311837392,0.584941053654278,0.585234766924113,0.586053019220855,0.586016573048686,0.585277644773724,0.584343622283032,0.589670480466366,0.590414411157116,0.590677395301397,0.587628065563231,0.587565892681295,0.593688849605739,0.595221732729331,0.597877300881902,0.600128387986477,0.602726071042074,0.608886188769515,0.608929781249952,0.609217777473173,0.597224128306162,0.594685044978367,0.597617889891756,0.599582410034765,0.605334473560074,0.605007172641377,0.600231294825544,0.600382796560836,0.600943781759912,0.600877321093015,0.602147934703153,0.601707007482987,0.599986891082761,0.60035921374355,0.600902333171955,0.59944734480849,0.600185558452625,0.600258450796964,0.599618856206934,0.600632917350233
0.660773389214556,0.661749574924032,0.661855340286406,0.661925374107437,0.666853468289389,0.668414936646055,0.668756530181289,0.671022624533228,0.668253430079187,0.659527787683358,0.650908625280729,0.649643014086379,0.649070594794073,0.64717753773375,0.647673491527583,0.647033896937553,0.646582250254984,0.645493152874866,0.643686566144591,0.645335219462132,0.647198976658555,0.643521486423589,0.638509065804069,0.633207934330501,0.633869682476163,0.634374926470746,0.636307288226546,0.636260122591974,0.634998799182585,0.634459252908314,0.632630512622407,0.632698402550958,0.633554530281523,0.635621242632771,0.636170793738618,0.638060277644807,0.632992115820793,0.630864659849262,0.629083799828754,0.629160979958054,0.628801520652149,0.627369400475143,0.625268385844206,0.617553231437542,0.621518003264901,0.62446013837904,0.624574479311336,0.620914140216214,0.621851021230213,0.620606134329842,0.624808878222542,0.624955377542046,0.627039955663965,0.625634276827553,0.622273368048881,0.610578434567494,0.612571539943576,0.609433595982881,0.607193942971536,0.606815903264132,0.607327578936157,0.607830679038258,0.608133682508842,0.608258028272714,0.614352399964084,0.615182086354056,0.615182800984883,0.582425553143769,0.614710430008336,0.614569647735447,0.611703978119781,0.610519120208865,0.611353094383798,0.610601302753953,0.610593441814857,0.611335228613127,0.614262356479901,0.616251174071023,0.616448412179233,0.6170251192565,0.617448180705995,0.620586839297517,0.620879123305698,0.630545219869661,0.632104544333846,0.635326100101282,0.634690793296213,0.63855194365368,0.639719650424751,1.0411527979449,0.648585360462643,0.65218781446079,0.652449369343416,0.653739277985879,0.662265538381017,0.662129758523916,0.663630483260299,0.662279830997554,0.656056111126524,0.656406994862507,0.656720003164667,0.749962174928646,0.699116191598324,0.745409976561617,0.625345565973506,0.626312461482233,0.625757193329771,0.626479685095716,0.626473968049101,0.627159299012049,0.622291948450379,0.616507011907035,0.61231427284591,0.61243004303986,0.613152534805805,0.604236085979207,0.604381156037057,0.581913877471745,0.582894350966182,0.582707117689547,0.584776688564103,0.586944163861936,0.58667117488608,0.584841005338519,0.592325333988111,0.590096400439168,0.584815993259579,0.584508702004034,0.58530122759101,0.585998707278015,0.58582290809461,0.583852670904986,0.584704510850591,0.586672604147734,0.588026114933786,0.590296497070686,0.591174063726057,0.591593552021417,0.587941073865391,0.594457077744602,0.594870134362521,0.599125760936408,0.600166978051127,0.600441396288637,0.608037921978045,0.677943824091262,0.59487942456327,0.595373234464623,0.59445064606716,0.602042883971607,0.604311122216026,0.60479564191663,0.598776306462079,0.599217948313072,0.600006186115086,0.598916374104141,0.596836083767183,0.597224842936989,0.598825615989131,0.597875156989422,0.597117648312962,0.597603597275219,0.59832465977951,0.598996412756748,0.599127904828889,0.599300130858159,0.599731767877576
0.661933235046532,0.661144282613691,0.666313922015118,0.666021638006937,0.666395389929379,0.667194347193796,0.668186254781463,0.669516897381056,0.662607846547078,0.655831717046894,0.649898851922391,0.649510092752586,0.648968402585834,0.645493867505693,0.645571762265819,0.645861187750693,0.639538134194731,0.749176081019112,0.780534081701256,0.718082493742902,0.635973555630408,0.762618286872146,0.636257978699494,0.635248205341156,0.633880401938566,0.634054771860317,0.634503560019579,0.635017379584083,0.636999765497763,0.636968321741382,0.850982388612052,0.637649364919369,0.636727491152734,0.634447818815084,0.640956676386027,0.637004053282724,0.634242005136952,0.6324732938405,0.629926349573609,0.629629777780467,0.628888705613024,0.635156732595319,0.624884629090188,0.628892993397985,0.627784600985542,0.611741138922777,0.613001033070512,0.629257455119679,0.618872439943906,0.621783131301663,0.622766463319407,0.62512474504801,0.622824348416382,0.621928201359513,0.616592767606257,0.611490303502553,0.611150139228973,0.610654900065967,0.610078192988699,0.609913827898524,0.609680858248971,0.610026024938339,0.614774746782752,0.613613471689122,0.614284510035534,0.615577277201304,0.576959341949199,0.618265003741084,0.584394361071738,0.608949076282277,0.609618685367035,0.609935981454156,0.610310448007425,0.611151568490627,0.613032476826894,0.616599199283698,0.614641825448958,0.616672091628037,0.616502009491247,0.617671860154799,0.619857201223304,0.625315551478778,0.625695735078662,0.629918488634514,0.632816316637388,0.636937592615827,0.636877563626372,0.638869239740801,0.641195363082195,0.643661554065651,0.755043200107544,0.651982000782657,0.652720214426792,0.656078979312984,0.662691458353819,0.662252675026134,0.662256248180268,0.662128329262262,0.727772887754978,0.716203014668289,0.715352603984338,0.750884048695282,0.624568762264721,0.699160498709589,0.623606154540955,0.62533556114193,0.626696932867078,0.627168589212798,0.626686213404675,0.621350779651419,0.619386974139237,0.616796437391909,0.617002965700868,0.613992940658179,0.606848776282167,0.651818350323308,0.586098755593774,0.581788817077046,0.582026789142387,0.582727841983526,0.582115403364916,0.586969175940876,0.585458446372917,0.590986115818595,0.591806512007818,0.585740725549522,0.586780513402588,0.584457248584501,0.585256920479745,0.584992507073811,0.585083265188821,0.584790266549813,0.58628098645462,0.586993473388989,0.587381517927968,0.589088770973311,0.591033281453167,0.592875599724785,0.593490896866702,0.595834885978767,0.59750354895946,0.599317281998004,0.599562400371613,0.595939936710314,0.595848463964477,0.590890355287798,0.594466367945351,0.595716971892337,0.599552395540037,0.60191282116112,0.602706061378923,0.604243946918302,0.598882071824453,0.599177928986768,0.599537388292673,0.594459936267909,0.592068066890445,0.593000660119483,0.597744379548109,0.596441607550762,0.596658140691298,0.596931129667154,0.597324176621921,0.598158865427681,0.59942233272955,0.600039773763948,0.599380169510766
0.665394192140963,0.666835602518718,0.667270098061442,0.666213873699359,0.665885858149835,0.666932792311169,0.665832975468649,0.664490898775826,0.658921066111363,0.653195443926647,0.653066095746987,0.646740898298545,0.644853558284836,0.644458367437588,0.639544565872173,0.912111909540734,0.907731222572149,0.625531369988487,0.627313659270649,0.629867749845808,0.632661956378788,0.634232714936203,0.634489982033869,0.635326100101282,0.636010001802577,0.63736780037359,0.637551460496091,0.637760847328357,0.643274938788326,0.643069125110193,0.64372086842428,0.643667271112266,0.639881871622446,0.640590070771853,0.639552426811268,0.636566699216692,0.648940531983587,0.632790589927621,0.633901840863372,0.634128378835483,0.622657124802899,0.622260504693998,0.626810559168547,0.61486836342107,0.63049090792682,0.616459846272463,0.629822013472889,0.629875610784903,0.631231265463436,0.630565944163639,0.624916787477396,0.619659963115094,0.619144714288935,0.613086074138908,0.611903360120472,0.611849762808458,0.611338801767261,0.613356204591457,0.610117497684176,0.609971712995499,0.615737354506518,0.615096330654834,0.617890537187815,0.624555898909838,0.624012779481432,0.572227056613803,0.618625892308643,0.61898034919876,0.617949851546443,0.5963015399087,0.619128277779918,0.610358328272824,0.610839274819294,0.613361921638071,0.614559642903871,0.615116340317986,0.616488431505537,0.617178764884273,0.620110895166835,0.620766211635056,0.627722428103606,0.627402273493178,0.629216006531721,0.629197426130223,0.636869702687276,0.63679395181963,0.641223233684442,0.641247531132555,0.641275401734802,0.641435479040016,0.642516715481039,0.651735453147394,0.655532286730444,0.657015860326983,0.680327117898805,0.662808657809423,0.740343243999256,0.818045053802571,0.717996738043681,0.626692645082117,0.623668327422891,0.623714063795809,0.618641614186833,0.619553483121893,0.621502996017538,0.622452025755593,0.628760072064191,0.628604997174765,0.620409610852458,0.620176641202906,0.620865545319988,0.614032959984483,0.610067473526296,0.608982663931139,0.738406594458494,0.584363631946184,0.585539199656351,0.580075846985088,0.581000579275031,0.581879575192056,0.587648075226383,0.587551600064758,0.590705980534471,0.590011359370773,0.587097809489709,0.588004676008981,0.586862695947675,0.5858093301089,0.584154245113917,0.584809561582138,0.586896283596537,0.586316003365136,0.587087090027306,0.586307427795214,0.587413676315176,0.589132363453749,0.592043054811505,0.595000197173007,0.594862988054252,0.59497232657076,0.595865615104322,0.594924446305361,0.594384185400263,0.594934451136937,0.58795036406614,0.58745369564148,0.591925855355902,0.59173361966348,0.601141019868123,0.602177949197881,0.601441879446226,0.599353728170173,0.597024746305471,0.597248425754275,0.591465633103411,0.590550905645044,0.590958245216348,0.591830809455931,0.595994963283982,0.596357995744021,0.595161703739875,0.595873476043417,0.595927787986258,0.596553089959751,0.597297735281328,0.598503317486222,0.601559793532656
0.666168137326441,0.667359426914799,0.666856326812697,0.666340363355711,0.665765800170925,0.662063297857019,0.659538507145761,0.659321974005225,0.653534178938573,0.650895047295019,0.647231135045763,0.64618848866939,0.64351219622284,0.639522412316541,0.634736529669132,0.892924071839833,0.6275945091856,0.624850326810499,0.624868192581171,0.62895087849496,0.630893245082336,0.631969479107571,0.634711517590192,0.635809190540232,0.637449982918678,0.638715594113028,0.64133257220095,0.643885233514455,0.643795904661099,0.642649636814833,0.643766604797198,0.642818289689969,0.645722549370285,0.646390729193389,0.636393758556595,0.6439023846543,0.634406370227127,0.637069084687967,0.634406370227127,0.633933284619753,0.634229141782069,0.638879244572376,0.637121252738327,0.614653259542188,0.614448875125709,0.615552265122364,0.630045692921693,0.631639319665567,0.632079532254906,0.623163083428308,0.624337221876822,0.620568973526846,0.623891292240868,0.610948613335802,0.613083930246427,0.614106566959648,0.618773106258974,0.614744732288025,0.624595918236141,0.624843895133058,0.614177315411506,0.614245919970884,0.587978949299214,0.585923671041196,0.567880671924906,0.571276597614094,0.602006437799437,0.602741792920265,0.620496795813334,0.620095887919472,0.618880300883001,0.610724933886998,0.61438527298212,0.61425806869494,0.614311666006954,0.615626586728357,0.618926037255919,0.622567795949543,0.625224793363768,0.627602370124696,0.629258884381332,0.632545471554012,0.634978074888607,0.633969730791922,0.638058133752327,0.639483822251891,0.639911886117174,0.640770872371046,0.641026710207058,0.641166063218294,0.641303986967876,0.647634901462933,0.652076332051801,0.652775955631286,0.652402203708844,0.650978659101761,0.792146832637556,0.815236554653054,0.813414246044589,0.622578515411946,0.619630663251193,0.619757867538372,0.618088489926852,0.618409359168107,0.623506820856023,0.625443470396784,0.629153119018959,0.622850789756975,0.619913657058625,0.620401749913363,0.620862686796681,0.61215776869483,0.611957672063313,0.649526529261603,0.583759768897496,0.585765022997635,0.58569355991495,0.582464857839245,0.58357968192913,0.580170178254232,0.580268082677511,0.590861055423897,0.590513030211221,0.586429629666605,0.586509668319212,0.589251706801832,0.589173812041706,0.587558746373027,0.586815530313103,0.587613058315867,0.586597567910914,0.587185709081411,0.587676660459457,0.587144975124281,0.589744087441532,0.59453926028969,0.594181230245438,0.594777946985857,0.596128599248602,0.595476855934516,0.594650028067851,0.594388473185225,0.589999210646717,0.589481103297251,0.588704299588466,0.591956584481457,0.590913223474257,0.597485683188789,0.599702468013675,0.600232009456371,0.599728909354269,0.600484988769075,0.598743433444044,0.591930143140863,0.591561393634209,0.591600698329686,0.590736709660025,0.592326763249765,0.594292712654427,0.59416050595146,0.594240544604067,0.59540110506687,0.595442553654827,0.594935165767764,0.595906349061452,0.598331806087779,0.598943530075561
0.668233420416035,0.66754951871474,0.667125028003592,0.667112879279535,0.661122129058058,0.660841279143107,0.657010857911195,0.656824339265387,0.650131106941117,0.649600850867595,0.648844056821962,0.644784953725458,0.6386855796183,0.636227964204766,0.6311690925815,0.628960883326536,0.626149525653711,0.624599491390275,0.624792441713525,0.627365112690182,0.629741974820282,0.633538808403332,0.636116481795777,0.637214154745818,0.639812552432242,0.641205367913771,0.644261129329378,0.644198241816615,0.643657980911517,0.64466203722324,0.648591792140084,0.645601776760547,0.640752291969548,0.640985261619101,0.665717205274699,0.636703908335448,0.636754647124154,0.637038355562413,0.638433314936423,0.641211084960385,0.617418880842094,0.620856969750066,0.613574166993646,0.630034258828464,0.592700515172207,0.626230993567972,0.629739830927802,0.634838721877371,0.635857785436458,0.63457359384061,0.624213590743777,0.622310528851877,0.626971351104588,0.628550685231925,0.609738743345946,0.609499342018951,0.627340815242069,0.590931089244928,0.590685970871319,0.623751224598805,0.6130060354863,0.600330628510476,0.598569778153119,0.584605891796486,0.560502108637688,0.607464788054912,0.607114618949755,0.600722246203589,0.61996010806237,0.620231667776573,0.597091921603195,0.615395760971284,0.615860271008736,0.613387648347838,0.615824539467394,0.631156229226617,0.622702861175818,0.622409147905982,0.631388484245343,0.631632887988125,0.628358449539502,0.628772220788248,0.635763454167314,0.636669606055759,0.63849977560332,0.639598163184187,0.639710360224002,0.641308274752837,0.641181785096485,0.641897130554161,0.64301767169066,0.650191135930573,0.651814062538347,0.652421498741169,0.652956757230479,0.859007692797569,0.678241110515232,0.688180196055051,0.61787124215549,0.619218321264101,0.620280262672799,0.620346008708869,0.620145197446524,0.623983479617531,0.623646173867259,0.618428654200432,0.617532507143563,0.617471763523281,0.617105157909108,0.619653531437652,0.622114720005321,0.649771647635212,0.728680468905076,0.589975627829431,0.589450374171696,0.585069687203111,0.585852207958511,0.587246452701694,0.586668316362772,0.58290149727445,0.583428180193838,0.589992064338448,0.58705207311679,0.587347930279106,0.587438688394116,0.589409640214566,0.59174934154167,0.59069025865628,0.591912277370192,0.590895357703586,0.58900730305905,0.587804579377463,0.586877703195039,0.590060668897826,0.595819164100577,0.59575484732616,0.595851322487785,0.596627411565743,0.593410858214095,0.594522109149845,0.593095706019454,0.593983277506401,0.588151175328485,0.588321257465275,0.588610682950149,0.589496825175442,0.594842263760274,0.595969236574215,0.596912549265656,0.599037861344706,0.599515949367868,0.600767267945681,0.590820321466766,0.59096467689379,0.591616420207876,0.592292460970076,0.593082128033744,0.594084755083814,0.594166222998074,0.594196952123629,0.594296285808561,0.595447556070615,0.594186232661226,0.595064513947424,0.59490658053469,0.596730318404809,0.597039753552835
0.669053101974431,0.668431373155072,0.661044948928759,0.659618545798368,0.659534933991626,0.659708589282551,0.658215010854436,0.652397201293056,0.648630382204734,0.648360251752185,0.645305204967405,0.638625550628845,0.636362314800214,0.633251526810939,0.632939233139606,0.631289150560411,0.625153330281083,0.62468453245867,0.625572103945617,0.626933475670765,0.633463772166513,0.636142923136371,0.637804439808795,0.639087916773816,0.638802779073904,0.643572939843122,0.643976706260292,0.644805678019437,0.644550554814252,0.647688498774947,0.646851666076706,0.643631539570924,0.641918569478966,0.663614046751282,0.651433164307637,0.636912580536887,0.641889269615065,0.637507153384826,0.637535023987073,0.64385021660394,0.63872416968295,0.600562883529202,0.628582128988306,0.594131920718386,0.582508450319683,0.624933938617241,0.624604493806063,0.635241773663714,0.635527625994454,0.63560552075458,0.604293971076182,0.604782778561747,0.602657466482697,0.602354463012113,0.586865554470983,0.634184834670804,0.632128841781959,0.631479242360353,0.580269511939164,0.580258077845935,0.584641623337828,0.606038384924521,0.590550905645044,0.584785264134025,0.634290600033178,0.634747249131534,0.602142932287365,0.613714234635708,0.614265929634036,0.595421114730022,0.595608348006656,0.614355258487392,0.614963409321041,0.614191608028043,0.615217817895399,0.630280806463727,0.628779367096516,0.63450784780454,0.621831011567061,0.638399012656734,0.639219408845957,0.633378016467291,0.635300373391516,0.636647452500126,0.638839225246073,0.638927124837775,0.639864720482602,0.640082682884791,0.642185841408208,0.64523374188472,0.645185146988494,0.645364519326033,0.652357181966753,0.631842989451219,0.631695775500888,0.90270022155113,0.614691849606838,0.616612777269408,0.617290247293262,0.621675222046808,0.620211658113421,0.620755492172653,0.623750509967978,0.62310376906968,0.617035124088076,0.61604536039289,0.615228537357802,0.61617685246503,0.616728547463358,0.616973665836967,0.604577679514441,0.601892811497968,0.586823391252199,0.58802968808792,0.591572827727439,0.590701692749509,0.593082842664571,0.592433957873792,0.582963670156386,0.583801217485453,0.585649967434512,0.585191889074502,0.58565282595782,0.586733347768016,0.587539451340702,0.590051378697077,0.589999210646717,0.589536844501745,0.591811514423606,0.591291977812487,0.591380592035016,0.591975879513782,0.595987816975713,0.596242940180898,0.599096461072507,0.599253679854414,0.599680314458043,0.599505229905465,0.593998284753765,0.592694083494765,0.592886319187188,0.592619761888773,0.589134507346229,0.589089485604138,0.589313879683768,0.593634537662899,0.594077608775545,0.594467797207005,0.595571901834487,0.598158865427681,0.590435135451095,0.591794363283762,0.590092112654207,0.588569234362191,0.589323884515344,0.595065943209078,0.595672664781073,0.596152896696715,0.597116219051308,0.593413002106575,0.592859163215767,0.594076179513891,0.594602862433279,0.594542118812997,0.59426698594466,0.595630501562288,0.596776054777728
0.668772252059479,0.661819608745063,0.661020651480646,0.658948222082783,0.660597590031151,0.658999675502316,0.658722398741499,0.653316216536384,0.649569407111214,0.646424316842251,0.635298229499035,0.636373034262616,0.636365173323521,0.633366582374062,0.632812743483253,0.632333940829264,0.630548793023795,0.626856295541465,0.626840573663275,0.628982322251342,0.631482815514487,0.637815159271198,0.640051953759236,0.642946923238802,0.642836870091468,0.646097015923554,0.643845928818979,0.654478206260841,0.654361006805238,0.654484637938283,0.654415318748079,0.650977229840107,0.650840735352179,0.64535379986363,0.645089386457696,0.642811143381701,0.63664888176178,0.637006197175205,0.636528109152042,0.636851122285778,0.602601725278203,0.602655322590216,0.624850326810499,0.592215995471603,0.592774836778199,0.582835036607553,0.633086447089937,0.633745336712292,0.632969247634333,0.632780585096045,0.616697818337803,0.615595142971975,0.601957842903212,0.587497288121917,0.58642176872751,0.635181744674259,0.635328243993763,0.584929619561048,0.579629202718308,0.623890577610041,0.629005905068628,0.628925151785194,0.628880130043102,0.59822032367879,0.589886298976074,0.587474419935458,0.589694063283652,0.60946789826257,0.611938377030988,0.59755571700982,0.598781308877867,0.620917713370348,0.613804992750718,0.612498647599237,0.631669334160295,0.616321207892054,0.615719488735847,0.614726151886527,0.620108036643528,0.614927677779698,0.639450949233856,0.635086698774288,0.635540489349337,0.63643806566786,0.638525502313086,0.638772764579176,0.640495739502709,0.643868082374611,0.644182519938425,0.645525311262074,0.645087242565216,0.64405888880538,0.741115045292253,0.632188870771414,0.720998187516447,0.622296950866167,0.617829078936706,0.616448412179233,0.618362193533535,0.619807177065424,0.62015305838562,0.623281712145565,0.623266704898202,0.617428171042843,0.61667137699721,0.614790468660943,0.614678986251954,0.614361690164833,0.614483892036225,0.647768537427554,0.600815862841906,0.583410314423167,0.587421537254271,0.586981324664932,0.586958456478473,0.591805082746165,0.594394190231839,0.597156953008438,0.59765790921806,0.583874109829792,0.583613269577992,0.585404134430076,0.584650913538577,0.58566640394353,0.586263120683949,0.588006105270634,0.588858659847065,0.587503719799359,0.588952991116209,0.592008752531817,0.592002320854375,0.593505189483239,0.594578564985166,0.596923983358886,0.598391120446407,0.599240816499531,0.599325142937099,0.59707048267839,0.594422775464913,0.594457077744602,0.594883712348231,0.589319596730383,0.589894874545997,0.595593340759292,0.595010202004583,0.591867970258927,0.592043769442332,0.593521625992256,0.594367034260419,0.588204058009671,0.589430364508545,0.590142136812086,0.587395095913678,0.587447978594865,0.590230751034616,0.592385362977566,0.593688849605739,0.597307740112904,0.599062873423645,0.59354806733285,0.594279134668717,0.59515384280078,0.595888483290781,0.595210298636101,0.59508809676471,0.596044272811034,0.596939705237076
0.663595466349784,0.660158806703466,0.659142601667686,0.659742891562239,0.660524697686813,0.660497541715392,0.656238341987371,0.649918861585543,0.733304130354791,0.636588138141498,0.637138403878172,0.634275592785814,0.634389219087283,0.633751053758907,0.633764631744617,0.633861821537068,0.630847508709418,0.631647180604662,0.631444225449837,0.834503001744909,0.63501595032243,0.642796136134337,0.641981456991729,0.640512890642554,0.640687260564305,0.647401217182553,0.648215181694335,0.657579704049367,0.658560177543804,0.629564031744397,0.642170119530017,0.642541012929152,0.640512176011727,0.646365717114449,0.646157759543836,0.641391171928752,0.635286080774979,0.639966198060014,0.60330992442761,0.63135060881152,0.597320603467787,0.612425755254899,0.592938487237547,0.599919715785037,0.627458014697672,0.611884065088147,0.604320412416775,0.611513886319839,0.589934179241473,0.599620285468588,0.587599480330157,0.588440600813358,0.587407959268561,0.586771223201839,0.635343965871953,0.634591459611281,0.632283916671385,0.585520619254853,0.586917007890516,0.629344640080554,0.629541878188765,0.627488743823227,0.628025431574191,0.591746483018363,0.59270194443386,0.594552123644573,0.595472568149555,0.596086436029818,0.611704692750608,0.611338087136434,0.599703182644502,0.596738893974732,0.632051661652659,0.632939233139606,0.608996956547676,0.612206363591056,0.630495195711781,0.62356184742969,0.619350527967068,0.613015325687049,0.63522676641635,0.634440672506816,0.635178886150951,0.635583367198948,0.641103890336358,0.641503368968567,0.644515537903736,0.643669415004747,0.644027445048998,0.645103679074233,0.644599149710478,0.874086403244087,0.669571209323897,0.628919434738579,0.886792539345466,0.618241420923798,0.617175906360966,0.616613491900235,0.617278098569205,0.621335057773228,0.621657356276137,0.622339114084951,0.616430546408562,0.616478426673961,0.614156591117528,0.614393133921215,0.614518194315913,0.614121574207012,0.598034519663809,0.597736518609013,0.584750961854336,0.58329168570591,0.584529426298013,0.585758591320193,0.592454682167771,0.593233629769036,0.596549516805617,0.598271062467496,0.599542390708461,0.591374874988401,0.587292903705439,0.58499036318133,0.585386268659405,0.585821478832956,0.58719285538968,0.589538273763399,0.586878417825866,0.586356022691439,0.589494681282961,0.591557820480075,0.593325102514873,0.593976845828959,0.594326300303289,0.597627894723332,0.600750831436663,0.601692000235624,0.595037357976004,0.594716488734748,0.595203152327833,0.5946593182686,0.605121513573673,0.605845434601271,0.605268727524004,0.594929448721149,0.594367034260419,0.594164079105594,0.594828685774564,0.596385151715441,0.588596390333612,0.588009678424768,0.588266230891607,0.589540417655879,0.588980861718457,0.589771243412952,0.590521605781143,0.590652383222457,0.59029792633234,0.590484444978147,0.591817946101048,0.592352489959531,0.594297715070215,0.594963036370011,0.595011631266237,0.595600487067561,0.596782486455169,0.59686395436943,0.597851574172136
0.661958961756299,0.660221694216228,0.659860091017843,0.659204774549622,0.660667623852182,0.661398691188049,0.651662560803055,0.648701845287419,0.642253731336759,0.638716308743855,0.636631730621936,0.636597428342247,0.633851816705492,0.634006891594919,0.636070745422859,0.634280595201602,0.635214617692294,0.636488804456566,0.636105047702548,0.738413740766763,0.646119884110013,0.643878087206187,0.643689424667899,0.646628701258729,0.667836085676307,0.62199466202641,0.621875318678326,0.620015849266864,0.622271938787227,0.633493072030414,0.631934462197056,0.640069819529907,0.646289966246803,0.638724884313777,0.649052014392575,0.63192660125796,0.643027676522236,0.633999030655823,0.595576904250275,0.602515969578981,0.596586677608613,0.608040780501352,0.607053875329473,0.626464677848352,0.626901317283557,0.606717998840854,0.604309692954372,0.603571479310237,0.595604774852522,0.599606707482878,0.58898014708763,0.587708818846665,0.597091206972368,0.637031923884971,0.637427114732219,0.631620024633242,0.631994491186511,0.586639731129698,0.587420822623445,0.628259830485397,0.628337010614697,0.629710531063901,0.596781771824343,0.596246513335033,0.599526668830271,0.587966085944331,0.603915931368778,0.602337311872268,0.60646716342063,0.617371000576695,0.5955190191533,0.599205084958188,0.599274404148393,0.606858781113743,0.607945019970554,0.610068188157123,0.649092748349706,0.648683264885921,0.597463529633157,0.61694365134224,0.635325385470455,0.633135756616989,0.63473009799169,0.639565290166152,0.640685116671824,0.646502926233204,0.646069145321306,0.64619992276262,0.638902112758836,0.638516926743164,0.906773617264171,0.629582612145895,0.625742186082407,0.623694054132657,0.621748829021974,0.619432710512156,0.61860373875301,0.618213550321551,0.619172584891182,0.619707128749666,0.615267842053278,0.6149090973782,0.614024384414561,0.613574881624472,0.613633481352274,0.613966499317586,0.613036764611855,0.644970043109612,0.597634326400774,0.583889117077156,0.58505182143244,0.584568730993489,0.583551811326883,0.588464898261471,0.591172634464403,0.595566184787872,0.596716740419099,0.597044755968623,0.59660311411763,0.591015415682496,0.591254102378664,0.590836757975784,0.586631870190603,0.586826249775506,0.58736293752647,0.587555173218892,0.589130219561268,0.588124019357064,0.591233378084685,0.594049023542471,0.594057599112393,0.594674325515964,0.59568910129009,0.596881820140101,0.597604311906046,0.597413505475277,0.594483519085195,0.594460650898736,0.595572616465314,0.601828494723552,0.604326844094217,0.602795390232279,0.599600990436263,0.598190309184062,0.59646947815301,0.596801066856668,0.595353939432298,0.593425865461459,0.592532576927897,0.589952759642971,0.589235984923642,0.590638805236747,0.589292440758963,0.589351040486764,0.589131648822922,0.589829843140753,0.592005179377682,0.590378679615774,0.590495879071377,0.591567825311651,0.593674556989202,0.594725064304671,0.59493159261363,0.59553045324653,0.596583819085305,0.59498590455647,0.5949201585204
0.660918459272406,0.659100438448902,0.657158071861526,0.656599945185757,0.657069457638996,0.908653096338784,0.918357782967397,0.643324962946206,0.64344645018677,0.639880442360792,0.639947617658516,0.634797987920241,0.635687703299668,0.636658886593356,0.639033604830976,0.638852088600956,0.638874242156589,0.643334253146954,0.651280233310691,0.649099180027147,0.643530061993511,0.650092516876468,0.651668992480497,0.662083307520171,0.668174106057407,0.668402073291171,0.628639299454454,0.629175987205418,0.617060136167016,0.609522924836237,0.620148770600658,0.631099058760469,0.638407588226656,0.637069084687967,0.621614478426526,0.627285788668402,0.617010826639964,0.59846972983736,0.597893022760093,0.610002442121053,0.597251284277583,0.604687018030949,0.610584151614108,0.611861196901688,0.604909268218099,0.604359717112252,0.599992608129376,0.614643969341439,0.614521767470048,0.571395226331351,0.588332691558504,0.612544383972156,0.606837342188938,0.641442625348285,0.628554258386059,0.629204572438492,0.623093764238104,0.631133361040158,0.595692674444224,0.595973524359176,0.587091377812267,0.587151406801723,0.586365312892188,0.578913142629805,0.578976030142567,0.620625429362167,0.621293609185271,0.622218341475214,0.621612334534046,0.593473031096031,0.596768908469459,0.598207460323907,0.597903027591669,0.600131246509785,0.598366108367467,0.602743936812746,0.648370971214588,0.6484431489281,0.592809139057888,0.607508380535349,0.623502533071062,0.636008572540923,0.63523820050958,0.639300162129391,0.640795884449986,0.642771838686224,0.646618696427154,0.644000289077578,0.638216781795887,0.751662996296547,0.626298883496523,0.625197637392348,0.623069466789991,0.622021103367003,0.621530151988958,0.619607795064734,0.618521556207923,0.618966056582223,0.618722367470267,0.613884316772498,0.612657295642798,0.611360955322894,0.611641805237845,0.611034369035023,0.611119410103419,0.611996262127962,0.596755330483749,0.596918266312271,0.585046104385825,0.585305515375971,0.585008943582829,0.586840542392043,0.586914149367209,0.587182850558104,0.594139781657481,0.594890144025673,0.594850124699369,0.593133581453277,0.592580457193296,0.589610451476911,0.589416786522835,0.588414159472765,0.588359847529925,0.58646250268464,0.586483941609445,0.588320542834448,0.588039692919496,0.589357472164206,0.591181924665152,0.593016381997674,0.594697193702423,0.595413968421753,0.596041414287727,0.597056190061853,0.596520216941716,0.595731979139701,0.595634074716423,0.596851091014547,0.599632434192644,0.597787257397719,0.598700555594433,0.599926862093306,0.599082883086797,0.599466639840815,0.597860864372885,0.593682417928298,0.594340592919826,0.59416264984394,0.590010644739946,0.590405835587194,0.591832953348412,0.592198129700932,0.589224550830412,0.589050180908661,0.588964425209439,0.589401779275471,0.590838187237438,0.590436564712748,0.590569486046542,0.591424184515454,0.592514711157226,0.59412191588681,0.594150501119884,0.595646938071306,0.595206725481967,0.593936826502656,0.594849410068542
0.661746716400725,0.65850443633931,0.656763595645105,0.656088984144559,0.655040620721572,0.651288094249786,0.644879999625429,0.643143446716186,0.640289925824577,0.640554339230511,0.641010988328868,0.637747269342647,0.637893054031325,0.640065531744946,0.639927607995364,0.639224411261745,0.649974602790037,0.648726142735532,0.644341882612812,0.655892460667176,0.641010273698041,0.654930567574237,0.665236973359056,0.664926108949377,0.666291053828659,0.609356415853581,0.605005743379723,0.614408855799406,0.615753791015536,0.61044765712618,0.617641845660071,0.630032114935983,0.628223384313228,0.621653783122003,0.617369571315042,0.61950202970236,0.608169414050185,0.607637728715009,0.61266587121272,0.609773045625635,0.61183118240696,0.610518405578038,0.611261621637961,0.611981969511425,0.598849913437244,0.591301268013236,0.590668819731474,0.592356063113665,0.571803995164309,0.572733015239213,0.581552988904186,0.593973987305652,0.585807900847246,0.591710036846194,0.629431110410603,0.631529981149059,0.632140275875188,0.62654900428592,0.604906409694791,0.589386772028107,0.589406781691259,0.589271716464984,0.617622550627746,0.577330235348334,0.59255687437601,0.619226182203196,0.630586668457618,0.624336507245995,0.623876999624331,0.594884426979058,0.594870134362521,0.645709686015401,0.586284559608754,0.586863410578502,0.646863100169936,0.646326412418972,0.64711393559016,0.592042340180679,0.594026155356012,0.62370262970258,0.629119531370097,0.63485944617135,0.635123144946457,0.639145087239964,0.641106034228839,0.641589124667789,0.812756785683887,0.819824484561426,0.711814466760608,0.623729071043173,0.622429157569134,0.623004435384748,0.620762638480922,0.620244531131456,0.620329572199851,0.619401266755774,0.618941044503283,0.618510122114693,0.613607754642507,0.610231123985645,0.609400722964846,0.609703011804603,0.61020039486009,0.610018878630071,0.609207772641597,0.59592492946295,0.594642881759583,0.583485350659986,0.584475828985999,0.584560155423567,0.58702491714537,0.586179508877207,0.587089233919787,0.590664531946513,0.59202375977918,0.592734817451895,0.590451571960112,0.591864397104793,0.589224550830412,0.589648326910734,0.589574005304741,0.588287669816413,0.588356989006617,0.586010856002071,0.586491087917714,0.588229784719438,0.588900108435022,0.589723363147553,0.590630944297651,0.591781499928879,0.594665749946042,0.597469246679772,0.59748782708127,0.597286301188098,0.595917068523855,0.596016402208787,0.601607673798055,0.598966398262021,0.596961858792709,0.596748184175481,0.598073824359286,0.59926368468599,0.597849430279655,0.594941597445206,0.594164793736421,0.591820089993528,0.591009698635881,0.5901957341241,0.589546849333321,0.589502542222056,0.591093310442623,0.592109515478402,0.588219065257035,0.589378911089012,0.5904565743759,0.589619027046833,0.589475386250636,0.589589727182932,0.592709090742129,0.592170973729511,0.593600950014037,0.594254122589777,0.596540941235694,0.594071177098103,0.592681220139882,0.593643113232821,0.593568791626829
0.65840010023859,0.657956314495116,0.659173330793241,0.658942505036168,0.949758661499151,0.646775200578233,0.64596409458976,0.642969791425261,0.642536010513364,0.642658927015582,0.642714668220076,0.639655333650335,0.64104457597773,0.646003399285236,0.64641073885654,0.652825265158339,0.652757375229788,0.651516776114378,0.645563186695897,0.638712735589721,0.637511441169787,0.636308002857373,0.666143839878328,0.666284622151217,0.663628339367819,0.612555103434559,0.614252351648325,0.614182317827294,0.616810015377619,0.613082500984773,0.603213449265986,0.626773398365551,0.63988544477658,0.640108409594557,0.621930345251994,0.617601111702941,0.603199156649449,0.609218492104,0.616752844911471,0.615556552907325,0.61156819826268,0.611847618915978,0.612485784244354,0.603944516601852,0.584656630585192,0.572396424119767,0.584525138513052,0.574834744500976,0.577064392680746,0.575047704487377,0.573791383493776,0.583546094280268,0.575077718982105,0.628003278018558,0.580947696593844,0.647444095032164,0.60959939033471,0.607778510987898,0.614939826503754,0.590554478799179,0.589408210952912,0.581381477505742,0.581791675600353,0.578939583970398,0.592608327795543,0.643822346001693,0.634649344708256,0.623719066211597,0.62491821673905,0.646687300986531,0.567127451033407,0.568022883459449,0.566429256715576,0.654320272848108,0.654083015413594,0.578104180533811,0.579952215852043,0.592085932661116,0.604400451069382,0.605636047769004,0.633966157637788,0.633393023714655,0.634026186627243,0.639997641816396,0.637816588532852,0.793190193644756,0.705190553626542,0.623442504081607,0.622215482951906,0.621928201359513,0.618505834329732,0.617941275976521,0.618622319154508,0.618929610410054,0.618756669749956,0.619424134942233,0.617310256956413,0.612848816704394,0.611769724155851,0.608480993090691,0.609006961379252,0.609958135009789,0.609852369647415,0.609026256411577,0.595243886284963,0.594231254403318,0.582857904794012,0.584396504964219,0.583994882439529,0.586556119322957,0.58720643337539,0.587243594178386,0.592010896424297,0.591204078220784,0.592368926468549,0.592247439227984,0.587474419935458,0.58856280268475,0.588660707108028,0.589188104658243,0.589147370701112,0.587933927557122,0.588074709830012,0.587907486216529,0.589426076723584,0.589596158860374,0.589154517009381,0.58990773790088,0.59050659853378,0.592142388496437,0.595415397683407,0.597181250456551,0.597516412314344,0.599672453518948,0.602508823270712,0.601732734192754,0.600626485672791,0.59501091663541,0.595369661310489,0.595699106121666,0.597067624155082,0.596959000269401,0.592621905781253,0.594151215750711,0.594028299248493,0.588169041099156,0.589565429734819,0.590945381861465,0.589683343821249,0.589551137118282,0.590146424597048,0.589686202344557,0.58989630380765,0.597021887782164,0.595814876315616,0.589410354845393,0.590879635825395,0.592750539330086,0.592917048312742,0.593139298499892,0.594026155356012,0.593077125617956,0.592751253960913,0.592659781215076,0.594822968727949,0.593966840997384,0.594542833443824
0.657485372780223,0.660493253930431,0.660090202144088,0.659294103402978,0.649013424327925,0.648548199659646,0.647525562946425,0.645556040387629,0.646026982102522,0.645769715004857,0.918450684974887,0.919036682252903,0.759059425354437,0.659154750391743,0.660546136611618,0.661474442055695,0.661140709459557,0.659362707962356,0.647006026335306,0.664789614461449,0.644015296324942,0.644135354303852,0.66756095280797,0.613026045149452,0.612895982338966,0.612747339126981,0.617310256956413,0.614719005578258,0.607341871552693,0.598204601800599,0.616970092682833,0.631923028103826,0.637233449778143,0.609416444843037,0.610591297922377,0.603834463454518,0.601226775567345,0.611784731403215,0.604844951443682,0.609655131539204,0.611958386694139,0.613757827116146,0.597361337424917,0.580458889108279,0.582173288461891,0.583111598737544,0.573074608774446,0.62720217686166,0.573723493565226,0.57481116168369,0.56811792935942,0.629528300203054,0.631610019801666,0.629603336439874,0.627820332526885,0.626264581216834,0.625477772676473,0.603330648721589,0.603056945114906,0.591109032320813,0.581973191830373,0.582128981350626,0.585649967434512,0.58627884256214,0.595038787237657,0.595786291082542,0.638481909832648,0.622887235929145,0.623481808777083,0.646605118441443,0.646349280605431,0.56656432194185,0.571878316770301,0.568283723711249,0.572814483153473,0.653399113712299,0.65415876628124,0.591898699384482,0.604464053212972,0.630976856889078,0.631254848280722,0.631785104354244,0.632963530587719,0.636300141918278,0.637337071248036,0.628131196936564,0.626343190607788,0.619391976555025,0.618785969613857,0.617149465020372,0.616697103706977,0.617183767300061,0.617686867402163,0.616870758997901,0.617037267980557,0.61553511398252,0.614111569375436,0.610178955935285,0.609633692614399,0.609763755424886,0.608784711192102,0.609159892376198,0.607844971654795,0.594039733341722,0.593490182235875,0.584297885910114,0.584308605372516,0.585003226536214,0.585747157226964,0.585965119629153,0.587839596287978,0.589316738207076,0.590479442562359,0.590546617860083,0.591026135144899,0.588757182269653,0.587776708775216,0.58878719676438,0.589431793770198,0.589773387305432,0.58877147488619,0.58734935954076,0.587347930279106,0.589128790299614,0.589294584651443,0.590100688224129,0.590296497070686,0.589770528782125,0.591971591728821,0.594086898976294,0.595841317656209,0.596976866040072,0.598377542460697,0.600424245148793,0.60360935474406,0.60376585889514,0.601068127523784,0.594312722317579,0.59373172745535,0.595225305883465,0.595150269646646,0.594982331402336,0.593916102208677,0.592537579343685,0.588614256104283,0.588053270905206,0.587384376451275,0.590768868047233,0.591394170020726,0.592160254267109,0.590961103739656,0.592491842970767,0.592749824699259,0.595055938377502,0.596629555458224,0.59494517059934,0.595034499452696,0.592184551715222,0.592020186625046,0.592823431674425,0.593386560765982,0.592316758418189,0.593005662535271,0.593629535247111,0.594349168489748,0.59750140506698,0.59686181047695
0.660163809119254,0.659654991970537,0.65533361936058,0.653463430486715,0.651774043212044,0.648355249336397,0.646392158455042,0.646157759543836,0.646470767845996,0.652460803436646,0.655369350901922,0.658955368391052,0.663019473903343,0.662557107758372,0.660358903334983,0.661167865430977,0.659985151412541,0.659531360837492,0.671000470977595,0.646793066348905,0.639941185981074,0.641720616739929,0.641863542905299,0.613391221501972,0.613256156275698,0.626383209934091,0.626487546034811,0.612422896731591,0.607522673151886,0.602014298738533,0.631587866246034,0.631337745456637,0.624949660495431,0.609507202958047,0.605781117826855,0.607158211430193,0.597897310545054,0.60890548380184,0.605412368320201,0.609247077337074,0.603314926843398,0.597058333954333,0.596971148993458,0.580044403228707,0.579903620955818,0.574224449774847,0.574255178900401,0.565777513401489,0.567871381724157,0.576937903024393,0.629301047600116,0.563981646133617,0.628870839842353,0.628873698365661,0.628730057569464,0.626457531540083,0.592955638377392,0.607006709694901,0.607847115547276,0.590162861106065,0.594627874512219,0.582479150455782,0.582543467230199,0.570364728679034,0.570567683833859,0.593418004522363,0.602228687986587,0.624633793669964,0.617738320821696,0.649582270466097,0.574975526773865,0.56560957515718,0.570670590672926,0.570609132421817,0.58158371802974,0.600478557091634,0.620229523884092,0.619331232934743,0.628821530315301,0.629763413745088,0.63076532616433,0.624206444435508,0.623975618678436,0.628918005476925,0.627129284517322,0.624583054881258,0.62401778189722,0.618573009627456,0.615370748892345,0.61480476127748,0.614022955152907,0.614593230552733,0.615415056003609,0.616477712043134,0.612077015411396,0.609920974206792,0.612116320106873,0.609250650491208,0.608276608674212,0.606841629973899,0.607612716636069,0.78776614566897,1.01006635697696,0.592646203229366,0.587621633885789,0.586011570632898,0.587064936471674,0.586121623780233,0.585845776281069,0.585629957771361,0.587187138343065,0.590024937356483,0.590153570905316,0.589919886624936,0.590372247938332,0.586786230449203,0.587948220173659,0.588687148448622,0.589112353790597,0.587948934804486,0.587169272572394,0.587446549333211,0.588003961378154,0.588076853722492,0.589637607448331,0.591301982644063,0.590930374614101,0.590677395301397,0.593215763998365,0.593472316465204,0.59450067022504,0.596054992273437,0.600103375907538,0.602127925040002,0.601949267333289,0.602220827047492,0.60148404266501,0.594740071552034,0.592569737730893,0.591800080330377,0.590806028850229,0.590332943242855,0.59006424205196,0.589767670258817,0.588640697444876,0.588015395471383,0.587693096968474,0.588169041099156,0.592054488904735,0.59383391966359,0.591417752838012,0.59130484116737,0.592152393328013,0.59230961210992,0.593126435145009,0.594147642596576,0.593957550796634,0.593984706768055,0.591920138309287,0.59416264984394,0.592862736369901,0.59280628053458,0.592579027931642,0.596519502310889,0.595946368387756,0.596228647564361,0.596549516805617
0.658679520891888,0.658733832834728,0.653865053011405,0.653544898400976,0.649130623783529,0.648457441544637,0.647836427356105,0.647734949778692,0.656644252297021,0.656726434842109,0.662090453828439,0.666910638755537,0.666974240899127,0.653658524702445,0.610802114016297,0.610959332798204,0.673430930419709,0.635068833003616,0.63394757723629,0.646467194691862,0.637591479822394,0.638128167573358,0.631879435623388,0.618307166959868,0.618210691798243,0.621728819358822,0.617302396017318,0.618415790845549,0.604308263692719,0.609713731267006,0.629527585572228,0.631591439400168,0.597156238377612,0.60621990115454,0.628707189383005,0.62729293497667,0.602063608265585,0.603873768149994,0.58541914167744,0.579870033306956,0.608245879548658,0.580847648278086,0.583358146372807,0.591915135893499,0.590735280398371,0.59207592782954,0.57517419414373,0.567839223336949,0.564273215510972,0.570156056477594,0.628665740795047,0.567712733680597,0.63146637900547,0.637538597141207,0.628653592070991,0.62862214831461,0.630301530757705,0.629663365429329,0.597116933682135,0.567641985228739,0.56726751867547,0.56592472735182,0.567877098770772,0.569107693054607,0.575354995742922,0.576280442663692,0.585038243446729,0.584800271381389,0.596737464713078,0.591975879513782,0.646282105307708,0.572073410986031,0.565516673149689,0.587543739125663,0.586937732184495,0.617734033036735,0.630079280570555,0.624473001733923,0.624186434772356,0.626932046409111,0.626984929090298,0.62045677648703,0.62151157158746,0.623150220073425,0.62356184742969,0.621128529464269,0.620461778902818,0.615218532526226,0.613992226027352,0.612831665564549,0.612371443312058,0.612646576180395,0.612297121706066,0.609969569103018,0.609255652906996,0.609670853417395,0.609019110103309,0.607082460562547,0.606763735213773,0.606580789722099,0.589895589176823,0.591646434702604,0.590801026434441,0.587706674954184,0.584876736879862,0.585930817349464,0.586703333273288,0.583844095335064,0.583954148482399,0.58534196154814,0.585972980568248,0.58654182670642,0.588970142256054,0.589233126400334,0.586566124154533,0.586281701085447,0.586975607618318,0.587241450285906,0.588155463113446,0.587075655934077,0.588223353041996,0.587237162500944,0.587000619697257,0.588235501766053,0.589213116737182,0.591505652429715,0.592423953042216,0.59502449462112,0.594402051170935,0.594170510783036,0.594735069136246,0.596556663113885,0.597775108673663,0.597344186285073,0.599632434192644,0.599509517690426,0.591379162773362,0.58926814331085,0.589377481827358,0.587525158724165,0.58830410632543,0.588459895845683,0.588094004862337,0.585995848754707,0.587044926808522,0.586726201459747,0.586714052735691,0.586346017859863,0.589626173355101,0.589823411463312,0.589659046373136,0.58945180343335,0.590087824869246,0.590425845250346,0.593122861990875,0.593145015546507,0.593718864100467,0.593873938989893,0.593983277506401,0.593114286420952,0.594111911055234,0.592500418540689,0.594365604998765,0.596620265257475,0.596526648619157,0.5952581789015,0.595021636097813
