0.882238323610247,0.881968422797898,0.88428966707817,0.884912346099872,0.886378510283872,0.920757326833126,0.918268714464589,0.919491855425674,0.895914686164951,0.889126941479249,0.889189424433509,0.884791432233078,0.88312187114539,0.882867526392824,0.889948790657482,0.8945419959178,0.892281293697894,0.893405447073605,0.890926860749016,0.890142520034709,0.888179763244398,0.864976249074862,0.864088388024775,0.864709296821122,0.857763524272232,0.851018112757649,0.85160374260108,0.851405459686953,0.851543070818962,0.886426576841574,0.854716999545954,0.854108924511973,0.853083361040735,0.864052806446033,0.855986777838179,0.855476724741509,0.847933390418499,0.844543725062628,0.827771964248394,0.824913582636854,0.823280883437576,0.82084394454699,0.829800431050168,0.840513769443957,0.836341400299596,0.818577117454927,0.853355766374716,0.859841889355011,0.87405427761577,0.884862043622578,0.89789967084467,0.908937038967774,0.983378236906069,1.02146719836864,1.05070863271153,1.08854044730293,1.08691260082886,1.10582076171318,1.07268379550886,1.06825924531766,1.06565842492532,1.12794491744983,1.0456627435698,1.0339453463876,1.05099605655119,1.04976695862168,1.0693910157677,1.21280211678107,1.08946678840312,1.08360852642698,1.12443560641988,1.20303069134268,1.15777616412526,1.15729353762066,1.13178798978049,1.11442991088605,1.1090022592363,1.09395587050528,1.09606370465794,1.17718886188842,1.15083717517011,1.14924290607496,1.14905834619459,1.14769423881899,1.14827313063562,1.14904667268696,1.14387988087762,1.14582582588834,1.11920072153472,1.07680362005845,1.10438555927885,1.11394999168928,1.12416641768973,1.17521480103095,1.15639118639102,1.17461536222115,1.14365399338523,1.09674961777676,1.11377554508423,1.10615487716813,1.10085609416823,1.09899841824575,1.09980877961556,1.11790506088326,1.1185330536525,1.13034344500748,1.08326799575217,1.07180119893147,1.07101718694831,1.06175715381657,1.06384711403719,1.05872495613989,1.0727272914992,1.12668784487618,1.05958980378453,1.02913094061905,1.0371224413557,1.03752120518556,1.08232206758299,1.12650995863759,1.06871576925535,1.06622515307472,1.0683870388066,1.08615844108466,1.06570151532446,1.03113421387176,1.03732412940996,1.05402724163697,1.01623025602031,0.997915357401521,0.988541629165019,0.968254785883673,0.997253520275812,1.0240439593429,0.997648836567334,0.964685414006784,0.929648859983231,0.892749704957324,0.874515673322164,0.836379909476656,0.826071630092418,0.824949281868815,0.812749107385312,0.808090279019171,0.79581478971224,0.778142151121768,0.771559666173971,0.742901648024626,0.737200663788023,0.725709512738605,0.727281344168338,0.728957654627929,0.736274274739807,0.742626664440751,0.744920887449578,0.757273612791986,0.754606315818942,0.754983533549008,0.754783236834515,0.755772752935017,0.820593268056856,0.824199081469394,0.823267245008753,0.824497683373396,0.825025287772832,0.827245336257588,0.828228228411787,0.830760383396876
0.882243265283164,0.885779515692794,0.883997923202619,0.885715169575184,0.886590038745834,0.920722051821942,0.915355816096404,0.907214119278436,0.892444552306104,0.88785981216147,0.887624629186956,0.884279771848219,0.884123901875546,0.885398591011557,0.892104145477114,0.89146943273464,0.89283378794534,0.889747537667662,0.890479755097051,0.888131375329687,0.887289042317249,0.88813291512761,0.862751782318834,0.863747860159733,0.839655365872222,0.814688024152421,0.834667880902266,0.844957948757484,0.846212742092992,0.864950050658028,0.854117944762592,0.854001762668294,0.852254140848967,0.863196021210829,0.859385421953837,0.861271716169925,0.847959302186888,0.84526513375173,0.82112333082859,0.809038395802445,0.820691323949221,0.829540279062991,0.830779948659032,0.849649271543484,0.845092611990445,0.843744127243604,0.863502812698161,0.875494280246287,0.88746828563674,0.899825503463241,0.933782811189356,1.08987140556267,1.06783489087795,1.09067785050635,1.05584930780336,1.04985569790803,1.0865577126088,1.0860224997007,1.07437010603717,1.05917147957215,1.06390575913978,1.05157910412054,1.05586300695805,1.07116425880097,1.0686688056871,1.07260438147441,1.06831373899406,1.21266456130822,1.0916005844287,1.08981070445275,1.09781759351354,1.09086224125842,1.1392679077184,1.14357382485188,1.13528401800966,1.15382383100952,1.10755254687117,1.09613284171156,1.09714073430968,1.17623235528269,1.15102624257663,1.1485202001503,1.149201854945,1.15148303577965,1.14604300538189,1.12706362279077,1.13949278533323,1.17863396958674,1.1238487587888,1.10355461424431,1.10857417734285,1.11758506554324,1.12538336958357,1.12660155059607,1.14537329887239,1.14983687093168,1.14971788496406,1.1561991478437,1.136666097454,1.13804861577346,1.10650355440586,1.09288392293729,1.10101498579761,1.11610170671146,1.11825438425052,1.14012470226369,1.08194454192312,1.07205602787914,1.07108065019163,1.06182485070903,1.06493546811557,1.12941839703649,1.07184660413595,1.06993567919712,1.06960597389728,1.13308844616867,1.11416821377247,1.10907442361514,1.0954932521397,1.05720214147826,1.08315597542134,1.10132333854307,1.08687378762676,1.08708147983197,1.06633023274841,1.05726241027436,1.04341094069635,1.03123309765597,1.02533935487976,1.00224938815792,1.00235748218344,1.00382181560568,1.00411342648855,1.00468510664635,1.00456087105237,1.00645027480787,0.935280961471512,0.901714878146008,0.888525963451392,0.87427252748917,0.866612974275884,0.85483043781299,0.852605048661544,0.843011162081134,0.81721723846907,0.807037918497136,0.783068011323551,0.763764240320648,0.762506547746259,0.760708150227942,0.754621086042973,0.752614636555807,0.747633483038723,0.742454485868204,0.74713232008064,0.748705506339939,0.753093918299034,0.750853958000234,0.752334801567044,0.750924886290116,0.821875565249965,0.824367836387949,0.825379489863802,0.826065765669533,0.826251386425731,0.826991898488383,0.831581551010389,0.835439148487702
0.884451020574671,0.88257228767875,0.884825337657715,0.885717249083947,0.887585249694028,0.903981887572138,0.900428929387847,0.891513560282305,0.890427356219394,0.886782897037011,0.88724848898933,0.886397586642983,0.889629516963076,0.896435873416274,0.896059988204282,0.897329100609644,0.891793998143683,0.891464046282814,0.890876147291237,0.909946315352708,0.88540333024295,0.866536077935032,0.861045956950919,0.807774311873255,0.812600533014801,0.814857003893353,0.828548375218525,0.829086153966053,0.83320875159821,0.831944732677385,0.842808307728898,0.842226669646717,0.848909824225687,0.851565604366215,0.852226234535116,0.8510936375286,0.840100539725212,0.838827869271656,0.820981039553388,0.803576334879181,0.818978824219011,0.833794594378791,0.832338904659252,0.83085118669348,0.844817815815299,0.84666564454139,0.878391609173529,0.899177316560117,0.904570557707748,0.916284998012273,0.957432710916152,1.04148816636128,1.05211209316301,1.04459953369809,1.05946399307462,1.11324559382269,1.08718978221771,1.08792319413644,1.07648648725673,1.07223299877059,1.07658214132339,1.09123818774974,1.07235997442897,1.06872880253197,1.06680573044581,1.06605110255564,1.07142636348797,1.06646647394081,1.09379561357224,1.09501081701676,1.1042887043149,1.17688530189417,1.13722759328221,1.13482582479771,1.1297974722475,1.10312961699604,1.10596828802396,1.09831768340356,1.09830464901257,1.15633343226185,1.15245262010415,1.16434257363795,1.14855114549966,1.14685955904066,1.14637887037374,1.13461417557619,1.13713465463142,1.13347938288671,1.12655553318583,1.12428852728682,1.12230593372979,1.13892467509451,1.1263741786911,1.13122111537739,1.13811904281197,1.15201212913413,1.1504004203511,1.16110652269995,1.13544223994428,1.12389526468527,1.11150083177681,1.10238371114786,1.10294266057695,1.13029919652005,1.10974007028773,1.07629867323253,1.08020475430597,1.07811744229053,1.08591667434452,1.08818537962074,1.07299281028168,1.06938393472889,1.0710646567737,1.06952589726617,1.06836115685086,1.11968731931458,1.11670358731521,1.12426787930169,1.10402653381607,1.11622881397743,1.08928452356382,1.08646941186358,1.08862034720031,1.07531513227796,1.06607163420929,1.06066432197935,1.0567453803992,1.0579387833456,1.03691555443392,1.0304602230941,1.03616487878877,1.0498096897142,1.04746901017464,1.06286129722046,1.00247319227593,0.998084083430862,0.939537047231673,0.92864915511805,0.90185794582151,0.875967018012035,0.872002411094193,0.867668184149369,0.855628527200246,0.840883975746894,0.830214535831372,0.802986548278721,0.792653475596168,0.774031343632236,0.765664725077816,0.757159270950404,0.756086751738273,0.75121133150429,0.756335493598912,0.761406708789195,0.751543435152189,0.755245797703148,0.751943887762229,0.752863080613207,0.753011921609395,0.823408323365266,0.822234972514653,0.826924265233952,0.826574961523057,0.827273028860063,0.826966674791248,0.834442162375058,0.834043865410983,0.837867791411308
0.885251994468947,0.885467642148977,0.889345277945263,0.892852100880323,0.890404640030393,0.903260067793758,0.897234951297258,0.887350752824303,0.888045552747179,0.887786870378613,0.888625496421921,0.893018876516766,0.893386782730821,0.895709990028875,0.897273374076311,0.895145657360158,0.891787976768284,0.888873210965466,0.890559032446202,0.882298589879882,0.884555397088297,0.859266448504801,0.859477644030092,0.808515952531064,0.810337350393455,0.796855835889153,0.827793435376131,0.831036528720364,0.831996006481366,0.849420951881795,0.842264065392688,0.843068798538094,0.843154113348361,0.85741050582547,0.854511206692272,0.857692706911609,0.83928805619179,0.803540931374184,0.813805477116092,0.80347605814862,0.817860824819937,0.816896292676638,0.844199329148824,0.868771936162871,0.877777790959867,0.880255788085152,0.898457187568415,0.923615603798462,0.940795746831916,0.96640186936267,0.99156942751002,1.06010762344761,1.06427842148479,1.0691799253282,1.07618073350746,1.07733137076758,1.07587053123117,1.07994622537334,1.07742777296181,1.07578139219402,1.07774610906907,1.09935604979132,1.08001057549801,1.07708690506504,1.07495684389492,1.0749858156802,1.07930730183136,1.08679750317002,1.09927462005817,1.10223051092944,1.11430355395131,1.12211362566937,1.12802177029184,1.12625364393035,1.1244030046566,1.11014726328523,1.10720250592752,1.07867001919655,1.10009719561882,1.21125464516973,1.15001404290789,1.14978506218315,1.14827269331266,1.1570581117516,1.14525450584403,1.14422237842878,1.14238445879767,1.35536365168243,1.12717933401007,1.10956005196837,1.12205670170315,1.17692450207626,1.12375086397558,1.11830634155422,1.12689520553976,1.1346846662354,1.13539845939781,1.13304044732968,1.13398452229373,1.11039950726643,1.11725063447043,1.12360109395598,1.10522357866463,1.09231524942712,1.10240315571188,1.07138374558808,1.09974588761129,1.13344468519239,1.10810359791806,1.10508836910082,1.10185021774002,1.10280855856502,1.07305238468004,1.06262746628371,1.06478692759379,1.03592039361576,1.09497627921512,1.18403831834009,1.09658136341629,1.0971823847433,1.09943763612586,1.11781962297454,1.09343394051024,1.06468145064646,1.0650076549448,1.05825966399154,1.05639028897498,1.05633766085353,1.04088759724972,1.08317038502241,1.03988759369537,1.04134267369152,1.03675217353968,1.03653117754461,1.00041224165373,0.983673160882275,0.94387682593971,0.936841608946812,0.91381338168387,0.883136006801559,0.881926539187452,0.882480057618263,0.872297301781224,0.865075941674903,0.858917817685751,0.848300113347871,0.815135719782293,0.790559540462264,0.783978220052657,0.777232590281702,0.774565391155099,0.770709618975968,0.765329422990658,0.760073141396906,0.751918127269704,0.75012907894179,0.753254617281208,0.752752149072237,0.754864796691951,0.822768470759708,0.822442741870633,0.826365744463449,0.827090495598962,0.830119154943482,0.828802448367708,0.835087372347285,0.834759352676095,0.834879555844742
0.891379738707955,0.891096407554742,0.891445576004037,0.891964895127053,0.890877026160972,0.890006058635959,0.889246777289352,0.886292918422282,0.887997441137475,0.888500670525148,0.890599094905682,0.892577369776249,0.894229311357847,0.89624838297309,0.89571261323205,0.895414368110013,0.892766785234276,0.889596908837321,0.889870653342087,0.887824604552382,0.885756090560103,0.859582762130383,0.859420848460933,0.818629077813324,0.81658468378063,0.814695087852666,0.826852588273595,0.830686180123825,0.830863401548277,0.835031616247129,0.835071677281052,0.835165707097243,0.835833570192512,0.835622509419682,0.835240641172955,0.835487903536196,0.833756117208333,0.824310029593037,0.826933107160144,0.828086914373162,0.828824781530156,0.832059952342038,0.852705820222068,0.871414934834359,0.881874173378804,0.896786359532086,0.914101671679208,0.927321114302911,0.963080425231775,0.994667028410184,1.01726485353143,1.05641793992083,1.06582860029809,1.0756356461907,1.07598155130767,1.07533573295427,1.07472575278637,1.07664014405545,1.07787469871127,1.0814913502885,1.08404698359536,1.08615742916394,1.08356181088965,1.07658982889961,1.07690681987844,1.07844709830216,1.08263541234848,1.08980674481344,1.1028900181449,1.11106480262245,1.11813813987942,1.12635786793779,1.12774217621986,1.12663148817708,1.12436801573594,1.10796789320805,1.10784496306052,1.10730590521953,1.10301955841555,1.1237168548084,1.13181265704199,1.14073076975947,1.14124741689053,1.14138532932569,1.14128322985188,1.14191520429287,1.14115863078719,1.15050022038548,1.12888043343573,1.12479582117081,1.12338612438002,1.12257205381693,1.12170790463027,1.11985330534511,1.12433045455733,1.12588595424127,1.12737370629717,1.13052815402964,1.13235763873626,1.12620230910294,1.12418456002031,1.11511017197825,1.10820184724649,1.1097489748698,1.11117100498063,1.11187930023027,1.11640618701521,1.11654878254378,1.10917036381384,1.10449747632629,1.10119521541204,1.10096012196997,1.07420009062255,1.06517512790506,1.06607647377657,1.04771941636703,1.08323066287724,1.08403122600882,1.08563478437169,1.10063002867818,1.10063684573429,1.1007452895012,1.09674674634346,1.07695845828071,1.06504038138177,1.06402724401444,1.04441299342938,1.03999755699175,1.03606888409812,1.03323117715875,1.02969129106475,1.02509089738946,1.0207177087762,1.0169478023371,0.998304752400375,0.97166407325238,0.94627496548851,0.934805190744351,0.922491773779141,0.917681848117623,0.907227283315253,0.897968062389956,0.887701504100632,0.87857641144165,0.870356574426967,0.859547679032158,0.834602586691077,0.796433300062532,0.791837823116116,0.779041433636376,0.776518868162215,0.77502513096163,0.770151696846423,0.756115087102513,0.751731218904408,0.752348435590517,0.754160164651921,0.756493480651103,0.757922130957503,0.819841769494083,0.823235511640693,0.825298290654022,0.828429496619179,0.830508378622645,0.831098110379924,0.833284785664959,0.833697958249063,0.833596123195378
0.892552912596492,0.895679125777603,0.897209027448937,0.903483652042596,0.892104122247655,0.890043919381088,0.888834080950594,0.887553686722733,0.887384040378628,0.890561257496014,0.890867626604276,0.893079091064565,0.895749089044043,0.896726942105073,0.897163223453397,0.893720328828665,0.895026469402416,0.887009817062558,0.89212913462096,0.893998639557141,0.885976802215524,0.860765287716892,0.860096220356011,0.822518552756075,0.818952078572402,0.809918976788603,0.825587517147065,0.830903605235676,0.830493759451106,0.833196529656249,0.833562498222346,0.832386831028059,0.835849234595534,0.835937207912658,0.835082444276349,0.824973767086438,0.825802280655736,0.820923210482433,0.828313995530602,0.829563741931444,0.829359917337061,0.835760247480609,0.860796938106808,0.874929116323847,0.890435204977777,0.911484397653966,0.923059033805336,0.934610403900675,0.984842990708119,1.0235846455927,1.03458983139536,1.05413878990789,1.06501347248248,1.09241351422632,1.07859302395132,1.07562001619104,1.07461450364322,1.0754984770135,1.09302778281561,1.12390627793413,1.12858908449975,1.21203085216839,1.12025415975572,1.07786321951125,1.07666523899952,1.07837619268057,1.08339512692345,1.09917063602878,1.10850225902064,1.14014231940039,1.13628036671328,1.13881063381377,1.12849048006296,1.12756876941025,1.12372189050214,1.10598167274013,1.10932226047073,1.11166274453748,1.09829789647911,1.08926628427465,1.13009371098552,1.1401216761568,1.13575921359795,1.11997382428721,1.13196249835032,1.13855704167407,1.13969884807179,1.16001578914214,1.13202663210594,1.12546553228956,1.12431943959035,1.11998923509334,1.12059591545407,1.11950112479042,1.12359024276098,1.12232168982999,1.12629058356264,1.12846209580827,1.13074323620933,1.13015513430165,1.12546894252269,1.1040614832056,1.1092319159427,1.11149249559523,1.11189195987001,1.11259501123138,1.11707917620775,1.13818794666164,1.11327792045309,1.09353805599054,1.10193190955188,1.10344473690182,1.07500985325134,1.06652723912382,1.06736765063765,1.03744346853384,1.05165286219076,1.03473317901551,1.08280584502317,1.2364272946212,1.10020971587563,1.10064493810425,1.0986132627168,1.09893990712624,1.06723123539879,1.0665644210125,1.03822519431667,1.01214639306824,1.00636035491167,0.997137654800519,1.0060850700348,1.00600084221039,1.01541792621673,1.01481176237917,0.996296497739191,0.961527211840008,0.948006623518181,0.933698593978142,0.929482434901735,0.925904848623629,0.912664281477358,0.90553428825902,0.912612577849052,0.919101571164581,0.895310776503453,0.87662826826693,0.853867607086598,0.808585195918722,0.799271276984433,0.784124650939209,0.784832872712044,0.784839554651702,0.775890737870787,0.729399429505732,0.749302693066269,0.750206281656016,0.754966788668318,0.760950828965664,0.761289757984411,0.813644158987079,0.812724133098498,0.815005643928645,0.82878514587041,0.830561753677713,0.831159456589437,0.834265961241021,0.83263651304246,0.833035617628269
0.899973237082545,0.900778157146655,0.903980598499567,0.910181572663488,0.894879599398838,0.888454898324141,0.888572244637311,0.885647775243829,0.888586435368052,0.88803767194738,0.89210893425414,0.892021630057326,0.897571713278209,0.901641056917013,0.899918832401555,0.896757166774042,0.895405203467734,0.887133151975519,0.893243845228434,0.911491075036224,0.887054221112096,0.887527094913896,0.861243993932139,0.863407308327808,0.82292394243004,0.821640028344559,0.823837685183253,0.837782502371485,0.828241729755792,0.828274845860607,0.836721782833659,0.839888370388338,0.849103832518457,0.861971709199747,0.842395033224207,0.823242156260643,0.826636967038506,0.82831551536521,0.82697650425242,0.831075871311232,0.82987204407097,0.828742781047848,0.87172994306799,0.8797738419715,0.902146725094062,0.91215121366223,0.946145514652426,1.04023338510419,1.03412919289523,1.0233608699559,1.04511637617092,1.06437351711374,1.06477791963975,1.06543234726158,1.08267783416037,1.09944943848333,1.08913179314633,1.08730260436852,1.10036639980645,1.13198675956783,1.13195966239219,1.1725915399421,1.13129685648279,1.08385732652313,1.08218997601481,1.08219150203599,1.08842172964857,1.09633610525535,1.11875679955066,1.1303374693011,1.13118629743657,1.12968484538167,1.1292900448178,1.12077601343603,1.12204141428234,1.12315967386987,1.11492589669582,1.09297348366742,1.09307049085523,1.08507663905261,1.12582785940191,1.14810500225451,1.13102825026215,1.11895908493202,1.12097310759737,1.11347421650302,1.13910442783097,1.13896175027642,1.13826742505935,1.13726251273041,1.12995524621046,1.12434897339074,1.13449047085047,1.14685245553476,1.12528441176033,1.12311217274698,1.12398718143622,1.13391695333745,1.13918856442548,1.14408177395879,1.12987138287029,1.10623124362653,1.1079008774631,1.10752090674317,1.11313916583691,1.13780078574993,1.12450707019532,1.13906597821549,1.11411400376797,1.07979369419632,1.07974579261328,1.07957172315058,1.0768548499976,1.05371888070206,1.06874104365467,1.082287444007,1.05397135303014,1.03615458450754,1.07046416429979,1.07036298189261,1.09365725329644,1.09616232406206,1.09711328273108,1.13290644866627,1.06977691186478,1.04198341915515,1.03453280885995,0.998533737334669,1.00294767920176,0.997773121530331,1.00539976474763,1.0039214757847,1.01568283596748,1.04091432100761,0.994443533475799,0.959522725563928,0.952915497573286,0.952903133994429,0.952033434944238,0.950439674389441,0.965833616236375,0.982914128506656,0.97007973240384,0.964415182242745,0.927738727721708,0.929318730394643,0.872754976042491,0.827874456190779,0.815596096472799,0.796416352090957,0.788279805047417,0.783043460724153,0.781159137156755,0.730469711170135,0.748857259833314,0.748535135827819,0.75659699417382,0.770091540998539,0.76554906628862,0.80129745311987,0.802379807647804,0.802229682719563,0.828050830577143,0.829549533119604,0.831272109297608,0.830365403655102,0.832379182656312,0.831401602961207
0.921414322379313,0.92191058117957,0.920686457968271,0.920286929032849,0.897642050949165,0.899017334343963,0.895090750733992,0.895055915722179,0.889816788196004,0.889309351796633,0.894199142162985,0.899069256433448,0.898682159792888,0.905638408724119,0.901482684325492,0.889006932294371,0.894536953158612,0.903026162650182,0.903513424394584,0.902313631361449,0.883161990892364,0.871470907673682,0.861062969303844,0.854112547701542,0.82340586343268,0.800618968906919,0.801831638894581,0.800629859362324,0.816515747652504,0.816238923525441,0.844840479221279,0.85285156466163,0.856553229636338,0.875199899385348,0.844962873206618,0.842442667220638,0.836518333321517,0.822030196978372,0.824696071725089,0.823570365197477,0.844982950723355,0.856159629777099,0.878946105313046,0.896066130309713,0.911796750609828,0.927041078877517,0.96503992208961,1.00865577472577,1.0374443173229,1.05137538000845,1.05495801727188,1.06884625198799,1.06560341026914,1.06501564223623,1.08368819510122,1.12052682272592,1.09027209153474,1.08957823190413,1.10231079823469,1.13659312142012,1.13387793302841,1.13636299974633,1.14246390142962,1.16195528113507,1.10657843840743,1.08697082303266,1.09810946445585,1.11246803252826,1.12480736114135,1.13230093431011,1.13242201712037,1.13228685840304,1.13466898806909,1.14058044584126,1.14897987407087,1.22496101266394,1.12441254550097,1.09288023144815,1.09306592506651,1.08526670166956,1.10869378831006,1.1159733025229,1.12579595024889,1.12101816338579,1.12175647017258,1.11312075356702,1.15128579096592,1.15650763058511,1.14674190242418,1.13963373114674,1.15069322680248,1.15799901007185,1.15313436773573,1.14758598439035,1.12632514316187,1.12452077502558,1.12406634193212,1.1408007513622,1.14226443583169,1.14309052620341,1.13044993786736,1.14073914199274,1.11819165959932,1.18223044333634,1.11268880332711,1.11244365590368,1.11700679434631,1.15182902227172,1.11238093215486,1.07969907440931,1.07973285010024,1.0654188772749,1.07924242400682,1.18718243978491,1.09683081932148,1.10248272024003,1.05535411286412,1.05343892525238,1.06998434518175,1.06892445860838,1.08952677752667,1.08333637842625,1.08533094174038,1.08425616536059,1.07334540571841,1.01877178486021,1.02693221837402,1.01948265690223,1.02149176329381,1.06420892379986,1.03948328996111,1.08895795846537,1.01538538685377,1.00750057192288,0.992950623692353,0.990034590608177,0.981218715613839,0.99079038621303,0.974884223836484,0.962930869436558,0.971690701238911,0.976271330147431,0.97264099398902,0.964925009486255,0.926868100605415,0.923494717920452,0.89832804169255,0.896948206805185,0.831757865667708,0.804178428902867,0.802218663042811,0.801051627239177,0.784023587958505,0.750126545800676,0.757675560702657,0.770727370747579,0.759011215314571,0.760807905757124,0.763459069623946,0.766243212172282,0.78837957853977,0.775317561547213,0.826334450233345,0.831288796328132,0.830865635433095,0.832570839665473,0.831100432388,0.832221197411919
0.922356183826419,0.923516759490283,0.919679962938121,0.919585249591258,0.898757647365,0.896593356164287,0.897433735086669,0.893803653140216,0.897149089228247,0.896095260478446,0.897044522654035,0.897848888042467,0.899477511624396,0.906278745354661,0.90635673490455,0.9212045018977,0.905839991223795,0.916821157758383,0.9034366955111,0.899871465297752,0.880400077222307,0.879121794557207,0.860633270243766,0.859489462939679,0.823484694142171,0.80095623787793,0.801667754950255,0.799634244491199,0.816293658648462,0.815480353879024,0.847250463658848,0.859653777276028,0.860472468587999,0.865511435870094,0.851414354882206,0.851262143868391,0.84556291027675,0.841324816665823,0.84240858646594,0.842569086450105,0.855986823724045,0.896165942318166,0.888540431684853,0.881873090693302,0.926527857470898,0.970634486606041,0.981289114308619,0.992108377716443,1.03990507061251,1.0672914888532,1.06691179712305,1.06815929294308,1.07178513315683,1.09440857492678,1.08419664254033,1.12284564584366,1.07635533013697,1.07536024027644,1.10502879591215,1.13136067923705,1.13329011361737,1.15060131533082,1.1466239692576,1.15152296831753,1.11388492854097,1.10719344669986,1.11455564185335,1.17684910364143,1.14212818573673,1.13046222116781,1.1344148378784,1.13586280267875,1.15048716956681,1.16046527098451,1.16150040236785,1.2959102112382,1.13325689193973,1.13056078993332,1.11085058337599,1.08929044596613,1.10488917754021,1.14601618689162,1.13692525570965,1.16873991293666,1.15918064634387,1.19778380066583,1.17960055592396,1.18477832993995,1.17046582607573,1.16984745521682,1.17019474422964,1.17048992882341,1.15874091001541,1.14158369749155,1.12844701613203,1.12432626950316,1.12455966656587,1.16433352337376,1.1500031911726,1.2124042155199,1.12337501123007,1.10332134655276,1.10506888092931,1.08243583280376,1.0828122393763,1.0820690645571,1.10285521543554,1.10100046876221,1.11561423750506,1.12574746413655,1.08970000449664,1.0708929785602,1.0814419391127,1.09149801378736,1.09513271243814,1.05568916915182,1.05779830784457,1.10674778692927,1.09061968492461,1.1220838804614,1.09327056200489,1.09860323890459,1.08874719394507,1.08696070979905,1.07965462255879,1.07530266172856,1.05769761480545,1.02296545383554,1.02284781070741,1.01284252269151,1.0180848974769,1.01935257326614,1.01464000377076,0.99366673586798,0.99250961540897,0.964565106762928,0.971249914309738,0.963783380422381,0.98051764659744,1.00387921796626,0.986501071691804,0.986897592475746,0.983380842065741,0.978794898630921,0.926861489021055,0.906532026258675,0.900558417953906,0.876536560248276,0.843750846996635,0.823611736752247,0.820760051274771,0.820678968266012,0.802993927053512,0.798121116516572,0.761066732101693,0.753319182754256,0.754662808052287,0.753773968293789,0.754449534422316,0.753746040135645,0.796414686149491,0.825809136569302,0.823784524329276,0.820214993049853,0.831779951274819,0.830438786017519,0.83178016054282,0.830746121268449
0.922022985409512,0.922150193455359,0.913706205601015,0.907849209195985,0.898842540113237,0.898619317271827,0.89705105676877,0.897059298328707,0.896269156173214,0.897188678132329,0.898072736297783,0.899996291806632,0.901291602659066,0.904329227544813,0.904671881192582,0.905724800057979,0.906126553604185,0.90596778755716,0.894570671467211,0.887589430719442,0.878578809886387,0.86660730173684,0.853312485375552,0.852326813501977,0.823501643878163,0.820637511897856,0.823799832917996,0.83003294275611,0.835793836576766,0.842155809454199,0.848867002682968,0.855799886542035,0.860795385703882,0.863531198159685,0.85024557460423,0.849752957794756,0.849362006563328,0.850317991587274,0.852173077000044,0.852977559690695,0.861466922061823,0.883428812801282,0.896529252675549,0.903709955454403,0.939150215554503,0.970856133741845,0.994678897336611,1.01598254268557,1.04418216426304,1.06631036742001,1.06603314505854,1.07107335954912,1.07207200322081,1.07466238126354,1.0766775962952,1.07726726352904,1.07702817873543,1.07649928060444,1.1102553632766,1.13076886039284,1.12879453805746,1.13062794299622,1.13177652281015,1.13175957243903,1.13213188073265,1.13261086129222,1.13359340218202,1.15932633006244,1.1516457025219,1.15199876667872,1.15395397116014,1.15643140725866,1.15892706155822,1.16065598577556,1.16168297233044,1.15024079242337,1.14136124225406,1.13790425750971,1.12355475693898,1.1018474867961,1.1030238961119,1.12370832553052,1.13484566436365,1.14279531912389,1.1514912567486,1.1711699171705,1.16985901380071,1.17079677198865,1.17140128305278,1.17140866147311,1.1710844056017,1.16994335134356,1.16622013714728,1.15552097046136,1.13173463711092,1.12462151154634,1.12440476698909,1.15096252603402,1.14386454001406,1.1359382877503,1.1196978820397,1.11935789042352,1.10592688044164,1.08250653677657,1.08418026648906,1.09523327542432,1.1031499487016,1.10286238202924,1.12026095907059,1.12447105824351,1.0986014636478,1.08057120757786,1.08331245549424,1.09413342759573,1.09537936406614,1.06163466215623,1.06076077968803,1.09103447974215,1.09308776953973,1.09603692031255,1.09523325268738,1.0959863810963,1.09237112446943,1.09020174097275,1.08535143759611,1.07961559993933,1.06440031624219,1.05150308894153,1.04216283784535,1.03515888067421,1.01866357797077,1.01839875564591,1.01371131884976,0.992102239754181,0.991836240138654,0.991174857200972,0.990004968448653,0.988346865690555,0.986881931725166,0.98630912629791,0.986092590596669,0.985218662232143,0.983846956649293,0.983767445857207,0.927633629124728,0.905410800456908,0.902973719082526,0.884374962215732,0.853496882475573,0.828973454319268,0.82843992569241,0.820550267981596,0.805496684173565,0.790421379176638,0.767318527869321,0.760426473017947,0.757607047496621,0.755842997590069,0.755405753220138,0.786251128177794,0.804450725857284,0.824682790130804,0.822586280942635,0.820654632248052,0.831574321576334,0.831695186556964,0.831456053451663,0.832415220715891
0.921941246433636,0.921959308268039,0.907308109435585,0.900901737605348,0.899348122629729,0.899536045600303,0.897687024999724,0.89701195940792,0.896576225565817,0.895921956805704,0.899547358802639,0.900289937024723,0.902674818861146,0.904598855083949,0.902177957913658,0.885058159333947,0.895082440891574,0.905567880820496,0.890815348586992,0.878330486154115,0.876247067507216,0.843566800677675,0.848152807832802,0.847401507872694,0.824451824562236,0.814358919870471,0.825714799640599,0.838000242259429,0.845503475762774,0.852097514006013,0.850005117876542,0.848726052730023,0.860614202769134,0.866078669882097,0.849766033729305,0.835248070369691,0.848899208640971,0.850071339881658,0.851819599837836,0.852286953379911,0.866920528787515,0.873999894349929,0.906793718666565,0.915543201645028,0.950488034508471,0.971014547974737,1.0092837126278,1.03366109103701,1.05087051681561,1.06610033881114,1.06611489667186,1.10124592357486,1.07614128361593,1.0700440163757,1.07681964888092,1.07662950155142,1.07692123865491,1.07563151748601,1.11622564195889,1.13266035648647,1.12654817782711,1.11700808255892,1.12439065648231,1.13084200097478,1.13163867187994,1.13135704053598,1.13312881325905,1.22604185642098,1.15124149168677,1.15071175374972,1.15843077687906,1.18009546285712,1.16648478590582,1.16464284887981,1.16229314533687,1.14410629847976,1.14742290283097,1.14898113488273,1.13766012873072,1.0985277509145,1.10252832005899,1.09457644685822,1.12745998349059,1.12611307427777,1.14689764275589,1.17306273486029,1.17011172344673,1.17175031562377,1.17303638904707,1.17388901701853,1.1732732658613,1.18569055411948,1.17420593357325,1.18463516626013,1.13562832414036,1.12405734816507,1.12313313584325,1.20809086773942,1.13585174386806,1.11553601984002,1.11842198510492,1.23479627972883,1.10650640033079,1.07892834667704,1.0879897159697,1.10949841476485,1.10717307857374,1.10378974070813,1.12123358110375,1.13607624540376,1.10445753073313,1.075071755406,1.08462403710215,1.09317431721799,1.09461529069732,1.06315594831868,1.06322911295945,1.08915989348489,1.06854647261254,1.06300245801076,1.07581631640912,1.14655392633948,1.09391590239253,1.09547085580345,1.08933478215718,1.10527309896643,1.06852878258816,1.06523851083164,1.05491710217602,1.05312154987959,1.02105312617882,1.01799127819884,1.01272151373202,0.986815171715784,1.00126605795155,1.00876154059617,1.00621361783487,1.06939564946312,0.986316766991376,0.98608746727672,0.986573030001334,0.998899416442567,0.992434835457008,0.998058329296961,0.928831081267498,0.904626896232889,0.904400660914958,0.889126613325228,0.863433107226769,0.8345081762676,0.830490804127791,0.821906399680146,0.808579931894579,0.783264899959525,0.775154223162386,0.76247295896012,0.758513872304025,0.737175366719913,0.755340229964847,0.827271711670057,0.81131991147838,0.826124492715645,0.823041411650468,0.820203567659663,0.830606939515303,0.829749077753976,0.831630202931869,0.831997118928082
0.921280047971148,0.920978589299233,0.902547106276891,0.899193436380019,0.899906108135202,0.89826540420795,0.897878558612201,0.896541140300948,0.89577044131017,0.895608651946371,0.900992583265543,0.903389889189731,0.902689476715904,0.90410637717015,0.900584456950364,0.87905767084467,0.889336959694325,0.900215439507588,0.886815717948715,0.872790617446899,0.87386161952549,0.865060932405038,0.849850931787209,0.836432140026597,0.826773396819188,0.803618233240207,0.827006315763955,0.856277907159334,0.856999317777665,0.873174087978773,0.872250720814598,0.873398775195978,0.859740072776111,0.860821697796308,0.850317408722209,0.851892844309849,0.853224590516678,0.857713437983936,0.869712215982925,0.898625577295165,0.910066998218132,0.916055064634674,0.923641236704046,0.935138853037155,0.959375750004658,0.970340046380022,1.02165341030382,1.0321675953541,1.05646522982548,1.06698006415242,1.06645101547178,1.04810366785656,1.08223477750413,1.11332501894528,1.11065190022015,1.12266022082819,1.11602555885584,1.12369598303284,1.12157603183458,1.17744541127136,1.12609608784534,1.11203228064315,1.12340188413882,1.16776719849861,1.11090564089338,1.0834518197782,1.08442969675105,1.07229730842172,1.13411785004922,1.17466804183376,1.16691459509379,1.18148408222915,1.16701461320412,1.16418609262907,1.16320474839513,1.1552588553153,1.15350005334869,1.17718051068072,1.1570360216602,1.18374317582826,1.15339034706263,1.19723378009386,1.12984541671822,1.09561982827288,1.1418239005579,1.14718924047525,1.16742255694274,1.19208858698908,1.17492706433632,1.16452210617704,1.16427171759246,1.16624834397894,1.16302901237699,1.1414558144559,1.13975201444418,1.12404705598477,1.12213000377586,1.12014371865861,1.12311436177118,1.11103793977061,1.11186663394137,1.10959685260395,1.10774936116535,1.0907327363508,1.09061659699715,1.09182512100104,1.11317829749376,1.15972974789319,1.12293622409923,1.10922971832215,1.11120609558617,1.14804726569767,1.10972428494104,1.11024305535226,1.10767131418508,1.12242448334702,1.06551878054816,1.06734897545194,1.06603708722726,1.06249889543734,1.07251870490021,1.07458010139475,1.07419675966207,1.0745676072607,1.08657514866122,1.11957764852319,1.0711921539878,1.07057255868214,1.05580508385081,1.05477129410072,1.0238164321318,1.01143697191765,1.01179508325669,1.0097198087823,1.00327785750713,0.996896489206178,1.00267912133908,0.984217833859922,0.985548624437606,0.972052615950142,0.977929061676216,0.972398284609606,0.973919819271464,0.974387056083394,0.930152087054836,0.919438449489058,0.918149889210871,0.932459224556142,0.869684642879086,0.837812857501672,0.832362734896716,0.823831489182607,0.811699160406834,0.807746616111271,0.78112355107481,0.769954921715121,0.759543435122507,0.754802377561259,0.755444023465579,0.755578178988367,0.802717142546924,0.804825328770559,0.814661899399266,0.827674230086362,0.828815228797462,0.830599380892291,0.830819731051833,0.833375258920956
0.901886565481505,0.900423970630976,0.898836855239064,0.900226670197133,0.898313206867004,0.900273584302416,0.896875165846304,0.895844507128414,0.895692851078374,0.896080812473297,0.902306442995556,0.903414220682846,0.902330513159446,0.90277841004117,0.89975471639627,0.877546228200344,0.879008569085982,0.874367942766839,0.884542499840615,0.889158092582654,0.872399007031891,0.870021410957131,0.853432343140234,0.836212245020701,0.828964856991262,0.83058292379275,0.829190033120493,0.855128808059504,0.85682303389961,0.872182128461878,0.871473730251297,0.883274442794074,0.858172467372433,0.848431517174525,0.848847342605339,0.830967215592688,0.853853847556932,0.873126095512631,0.876495774371837,0.916868538422928,0.922781628549903,0.939955131860589,0.946175326657264,0.956106316992275,0.998682926613766,1.02155569444593,1.05756586247363,1.11401427810393,1.08340441124943,1.06593864553071,1.07295978736892,1.09601330969621,1.09740868556567,1.10308364239884,1.1101994694142,1.11040628491818,1.11219572530612,1.09511839709274,1.11939510668668,1.12087561492179,1.12001214020706,1.12308733744872,1.12158000092041,1.09909283387064,1.09961176930389,1.08827680321215,1.08624774093185,1.07258551822957,1.11468883510141,1.11026075670369,1.15620397932225,1.15799171780505,1.16839561993059,1.17054066445936,1.16641567394262,1.14723357280213,1.15103777649808,1.13462643551556,1.13656661926227,1.13223888909673,1.13537964278334,1.13349292410386,1.1321964212836,1.12588152067264,1.13285399283294,1.11564011008251,1.16733697357453,1.17619919996305,1.17665812881973,1.17945925424019,1.16280515675543,1.15954063407324,1.15881406840551,1.15697950125891,1.14279187039988,1.12243184878223,1.13257624114425,1.14285296866785,1.12525258607775,1.11096543650115,1.11358424220049,1.11624670737273,1.12076919604422,1.12258780235352,1.1205461739797,1.12003991286343,1.12495289832521,1.13743653719748,1.1325195201108,1.13424117972794,1.11203127078723,1.11400389121518,1.10926158017782,1.09867939433905,1.1082950778879,1.11335404543778,1.06577328567913,1.06448797552899,1.06491691858217,1.05533395543415,1.07039861847368,1.06811317314644,1.07401381024579,1.07460134748509,1.08338782464719,1.07922416881305,1.08452903159364,1.11977423509652,1.05700570915102,1.05413715198758,1.02641383949749,1.02866225101099,1.03393687255765,1.08158851800173,1.0471223028055,1.04000243255164,1.01993513440232,0.993804790565681,0.999499135407288,1.01042343920189,1.00568297718138,1.03802295057927,0.967784318716224,0.932412619344304,0.931719341726935,0.934102652231355,0.917188154619046,0.906562884714156,0.87598888727754,0.858060118183212,0.84754744646205,0.818917374193075,0.815124171091783,0.790757572409119,0.787171101839895,0.763758412858671,0.761408136912415,0.734165837709376,0.756343196114639,0.758489936454769,0.801517889523143,0.800696296166283,0.8033057530983,0.803239642625626,0.827526033851033,0.830259814412698,0.831002032903062,0.832127928875971
0.898611959391318,0.89697010959564,0.898591447185249,0.897246716089392,0.89893527025469,0.897879136487449,0.896581162275697,0.894387526692504,0.895649069362136,0.898386838673544,0.903700093534099,0.908805335638531,0.900787922778028,0.901636968610941,0.898733008653472,0.888699925272912,0.879811405514285,0.874339304503456,0.881730873202043,0.882272015088547,0.870475260503266,0.857126629468879,0.857903695887142,0.858331950844754,0.831381022921544,0.822463328327236,0.827786673184562,0.842598122244982,0.847195686305595,0.87263807194236,0.86336380353521,0.85455410316812,0.855566084770883,0.853127334439709,0.854627392843411,0.855132672111703,0.853204662654358,0.851056846090547,0.883829224830457,0.916249593293395,0.92761959745045,1.05249049617912,1.04999165117292,1.04745597407332,1.05415881014811,1.10937652212911,1.10953878764021,1.11099140462775,1.11096175373465,1.11103342380178,1.10266168678581,1.10052049861189,1.09863983569085,1.0742094837731,1.10469583486832,1.09536455742782,1.11373294909741,1.11552344113017,1.11697557566365,1.11730523049183,1.1186837245736,1.11755301416086,1.12060861188736,1.0999176817627,1.09987427726557,1.08770670737971,1.09706532720405,1.12526689561853,1.1176348612167,1.10266331754477,1.14792506518047,1.1364242294283,1.17207525463561,1.17413694223275,1.17455637620589,1.18379324093951,1.16537348583009,1.13630015637458,1.13756189043049,1.13745188053555,1.13742395198107,1.13903276864053,1.13765590570059,1.1785357227023,1.16637709129409,1.16994045091427,1.16888105153765,1.18912293857875,1.18226557950551,1.20342337110714,1.16297549719544,1.16468266339501,1.15833636723472,1.15067189934059,1.14577932537694,1.14874169166098,1.14026388685999,1.14240548194143,1.12876771452697,1.13180207668207,1.1296563634937,1.12744635547228,1.12709589101276,1.12948548883039,1.12948800783958,1.12898719267525,1.12949027577178,1.12895855712222,1.13094125385647,1.16772767877115,1.11051754810638,1.10272771386128,1.10664320126075,1.08110325994361,1.06852843726232,1.06819319822471,1.06645500777005,1.05846191681644,1.06662134924829,1.07830595218455,1.08514422224325,1.15015008019867,1.09563751868868,1.09494991666888,1.08559840240073,1.08550062980833,1.08673828544338,1.12465857218075,1.05904147839337,1.02542816270963,1.02758632042065,1.02936814677661,1.03563370137718,1.04218106472762,1.04996977501377,1.05468961820505,1.02722594634822,0.992645434578076,1.01168404979495,1.03558897266576,1.00218529102975,0.953854176213128,0.960129909171973,0.945189638644798,0.936625486396194,0.934827975817126,0.916951967655183,0.903296309719051,0.881637583682218,0.876850590772707,0.861734023254575,0.857857345929218,0.841428976681218,0.838392022483102,0.79285580766419,0.762811993416872,0.76346788233673,0.757213186993729,0.759930163061565,0.767708552142048,0.799514325365115,0.802588108816319,0.802780730469168,0.821736768055585,0.826167245728033,0.830284082574441,0.829993700718216,0.838554822196798
0.898083257109361,0.897432152220684,0.897767631331383,0.898792519053709,0.897589523681995,0.89697886584581,0.895517837792642,0.894566621140069,0.894978416612855,0.901479299434755,0.904031251042822,0.906952569932726,0.899634574656585,0.897249877181125,0.896672827182595,0.886664796667899,0.880836389384693,0.882159802884165,0.880785418485764,0.875218578423519,0.86899879206955,0.863144376227003,0.86053561838538,0.84868987896558,0.832761765471642,0.826481231287024,0.82697787119845,0.843361756252335,0.846985762636419,0.850077186314693,0.852852766536715,0.85358129469932,0.853948523912479,0.854155166623621,0.853515972785455,0.85527981759817,0.858871130556446,0.859957129272115,0.887638928268308,0.917297357822336,0.933256501898368,1.04839777795403,1.05231897900688,1.05461096407819,1.05669957961694,1.08135851336237,1.10793156529455,1.11197654029482,1.11166238049013,1.11044972306814,1.10424800413894,1.10455763990602,1.10807149068072,1.11016432985953,1.11170593222318,1.11109944573082,1.11416498022425,1.11429441319154,1.11666236278475,1.1173418393624,1.11939398341599,1.12011396357983,1.12048238346802,1.1173613745087,1.11898250206569,1.12004023972964,1.12068121793166,1.12114705532824,1.12104548551547,1.12077646858626,1.15567758147497,1.15853046564108,1.17385250444797,1.17436231976452,1.1760859901322,1.18004702424211,1.17257984702266,1.16933159395854,1.15975967774381,1.14691832314653,1.14575866231484,1.13830376016932,1.13762515241099,1.15025458977578,1.16068113884361,1.16012824638916,1.1608895839414,1.16165526256552,1.16050573030465,1.16227035732656,1.16217734069375,1.16363009553699,1.15789547930417,1.14613858851731,1.14422780214528,1.14174644313518,1.13834178349397,1.13548033239165,1.1281912669093,1.12892102351679,1.12950413271128,1.12814628124631,1.1261314433161,1.12931013890921,1.12912448871927,1.12875370212954,1.12877751506649,1.12833287563381,1.12745681426136,1.12663820019571,1.10870191398296,1.10791583678031,1.10652117098121,1.06850644568041,1.06889884250808,1.06794616470383,1.06565269111336,1.06421811181239,1.06702145265932,1.08207297154315,1.09069976912982,1.10682006586996,1.10018114191248,1.09532769819895,1.0888448144773,1.07285706063959,1.06691618471923,1.06598248006568,1.05921368104166,1.05247933447686,1.05040051601888,1.04870898406325,1.04889782119973,1.0502894715657,1.05034306618828,1.05236680835372,1.03267721866929,1.03416444102818,1.03205956250941,1.0308510781517,0.999511156957869,0.976177351266238,0.962089298939514,0.941503593493017,0.938965288943913,0.937781561802253,0.917528090491785,0.899136915496943,0.887338539201614,0.874800170170515,0.865091790270704,0.853532679221194,0.84326021066145,0.824790121864022,0.799423034160644,0.766318301527611,0.764602183716086,0.760147000468148,0.761800738662049,0.771460728939017,0.796674355940467,0.802613031858105,0.80312929347723,0.823996170815636,0.825757135990016,0.828091517418515,0.829760214948965,0.839302668624632
0.897240704761135,0.89563902528488,0.897870393896797,0.898865053449548,0.89685354549905,0.895444267532005,0.89451638314592,0.8928535626869,0.894407116439894,0.911808245608259,0.90429994981314,0.907849755954227,0.898902281904176,0.890763975388159,0.893799519447717,0.884062330769707,0.88194238825224,0.882407964964185,0.87783357794913,0.864625366477511,0.868522210264449,0.906281104441281,0.863057331603711,0.842480744351208,0.834522699681518,0.827581719852886,0.827531777117581,0.842947867069979,0.845203709423163,0.835504702860587,0.8526670759278,0.853019665608131,0.853800746405734,0.854558939354361,0.853599987322866,0.853688915106966,0.860352461288088,0.861447845777002,0.888728028176869,0.918895839228389,0.939856220056216,1.0441759677387,1.05441794206112,1.06850205672761,1.06692906117653,1.06659989227844,1.10564935286917,1.11326366326624,1.11351588332851,1.12442929193963,1.10479671523092,1.08285623621202,1.10869694930386,1.11440295819866,1.11602185212413,1.12069955360334,1.11377071545413,1.11227409254989,1.11762940422238,1.13011599601187,1.12976645486592,1.12815375391451,1.12238312944976,1.11511415888604,1.12559686352924,1.13759845045536,1.12058982907151,1.05916723095663,1.12113318286714,1.12107772942466,1.15903303148293,1.16683107655386,1.1753160434869,1.19991459878427,1.18940739414356,1.19631940500388,1.17579028217043,1.17445109987506,1.1683091568797,1.15243680375521,1.14644708922422,1.11058203509835,1.13034633873733,1.11121986765549,1.15889780032011,1.15262247935112,1.16123179158923,1.15484954405495,1.15758795215318,1.15585907371278,1.16926988112697,1.17651695031194,1.15768632833556,1.1239096020381,1.1246652501755,1.09817952318603,1.12034536412499,1.13085519425867,1.11818043495938,1.11015992831486,1.10977999307189,1.10833570928699,1.12395626322739,1.12853899231652,1.12838904852099,1.12823105754811,1.12825528904729,1.12741117142631,1.12701452656127,1.12559001046838,1.10933316412023,1.10819411029206,1.10753480606305,1.05868575844987,1.06219428687609,1.05534292403659,1.0642818926874,1.06258045064849,1.07237282096042,1.08911894299842,1.09837823027908,1.12561848305802,1.11809002306826,1.12207155968686,1.09473808748593,1.05606240124056,1.06604962907816,1.06303437385955,1.05998684895811,1.073074144125,1.05138557410735,1.04576901440786,1.0472994908873,1.05802252939846,1.05203265007379,1.05487466910077,1.03753295296339,1.07993786977437,1.02986001826119,1.02899262761361,0.996513355846575,0.995982645546875,0.96172705976335,0.939394447740112,0.94337254163946,0.949857009190617,0.918070114056801,0.895093423195252,0.890643355264395,0.872573557109176,0.868215701008834,0.85056810670873,0.845492914133676,0.807553664072562,0.806941285352883,0.771247393119548,0.767001570597689,0.756046762450782,0.763774218081181,0.771009718723294,0.794825369546994,0.80402491327726,0.803278057917668,0.84314912688224,0.826096269857542,0.824630404851719,0.830166212217375,0.838777582937187
0.896576145626969,0.896028245908768,0.896460926028962,0.902510815147848,0.895011691528676,0.894148960000624,0.893631402189245,0.892278753096202,0.892222690989203,0.886064706795174,0.895154021588718,0.897998622249308,0.896727261253175,0.897803878310994,0.893464152815558,0.891879727314689,0.880225741659734,0.875320038509589,0.875736069561872,0.86570257199034,0.867078578629832,0.895544657270621,0.865424302383814,0.867788151591464,0.836826331502799,0.838692075051072,0.828751714313754,0.819451028040008,0.847956687603055,0.861139084415955,0.857534080301113,0.867640532609913,0.867415629294346,0.86557844460115,0.864902816846763,0.862534184765353,0.866105116818666,0.889881769501552,0.890859446649699,0.92405081761811,0.946515321143616,1.03227140057862,1.05692314961415,1.13437066757713,1.09997931067867,1.09926452993218,1.10403868793196,1.10026976201815,1.10570808298361,1.10306235248509,1.10351650606833,1.10240711913722,1.10930992337895,1.11978145894584,1.1182855035417,1.10522638448325,1.11394856521568,1.11319698448712,1.12074210906867,1.14786292281555,1.14791868343952,1.14661492073898,1.14149275531295,1.1373083549739,1.13478659542866,1.15464310841441,1.12125247322855,1.09307478515271,1.12259763380225,1.18192557158805,1.15971794750946,1.21952762224241,1.17744403992239,1.17954654979709,1.1788773645941,1.1794015769109,1.18010941754996,1.17828070507932,1.17287850441171,1.17086178478287,1.16486288021052,1.15434462485986,1.15370416548175,1.15094801650067,1.16879104455735,1.17817435873892,1.18159768957058,1.19896807017775,1.19888501416137,1.19779041743802,1.19379658074749,1.19423550969856,1.15705696456106,1.15576269583829,1.12614698973827,1.09859884564778,1.10845676293964,1.09891627293748,1.10980644336351,1.10211645202918,1.11167261073021,1.11312250202313,1.12079841483793,1.11691160435608,1.1284229677801,1.1298193424371,1.12883322875239,1.13581902180143,1.11754934670459,1.1109464522434,1.11024665274632,1.10950453785982,1.10804768030131,1.08263035542928,1.08937426855494,1.15328535571364,1.14319734071742,1.16033899352747,1.10620550615928,1.09937114270537,1.10651523410945,1.11145761000632,1.1166626487466,1.10406101872795,1.10505954367492,1.1065528004234,1.07912089097994,1.05854308534618,1.05917404126941,1.06116015636026,1.05423190052552,1.04599782666088,1.04671212333309,1.03014988074395,1.03156265448432,1.02637192177873,1.03395014482728,0.998741281692607,1.00977753560483,0.99111635661704,0.994046024783966,0.967626952230829,0.962628838762133,0.984220669587511,0.949307465940083,0.916593067293397,0.917740809200566,0.905419370381081,0.90179702854275,0.897053570941324,0.883146908055934,0.845963797156506,0.846507265793568,0.830430337322478,0.814526987387164,0.771179639953074,0.771308436743671,0.770536794485887,0.78048429594921,0.790696468329052,0.793490595752964,0.802251679548054,0.802867043350203,0.844111465275028,0.826725757841821,0.825432162333641,0.830007211684848,0.842474478152773
0.896374801029886,0.896305959888672,0.896196830214775,0.894933904844209,0.89519732253219,0.89562030038967,0.893974941689248,0.89055684187627,0.891334913162589,0.887583324275896,0.894212961246063,0.892267012996103,0.895559259512927,0.894124860255615,0.894167814972639,0.88360617756937,0.881033197714075,0.893742115141091,0.885478225242555,0.887596079677181,0.865357030744726,0.865538066106421,0.864520353362891,0.863676565705066,0.836765827247894,0.831492496630568,0.830657635886449,0.82819454041542,0.851713699799633,0.867950780967757,0.85664931115231,0.853125141509462,0.867694640338299,0.866273955390764,0.866793644687814,0.848226626017976,0.873661741306976,0.897658595136,0.899261299554499,0.925998915038247,0.953483972002542,1.03648805792909,1.05981038072766,1.07275717016701,1.09893925377568,1.09880043784173,1.10698611005707,1.10945210215287,1.10871507315212,1.11293291231255,1.12077825268826,1.1302366562703,1.10961725418399,1.0828370605967,1.11907368874387,1.13077269794925,1.12746140274147,1.15028434767079,1.12393551806045,1.12438927627738,1.15018785178488,1.18462772487364,1.14418080696565,1.13743607075224,1.12886215321386,1.10967041446474,1.12195691217886,1.12656137511439,1.12416140944537,1.1360817553215,1.13446614830478,1.09663155569283,1.16735868193497,1.1706253964789,1.17751755540113,1.21963238576971,1.19039222899933,1.18860925703122,1.1909383473036,1.21300348839322,1.17483929171962,1.13800704829605,1.16315837558836,1.1701639385649,1.18157434116967,1.19004499407511,1.18499305399489,1.20554362418238,1.19849864052795,1.19620664301193,1.19175527224964,1.17593938316423,1.14937883922505,1.12956260881789,1.12917777588388,1.13296293527091,1.1389692193001,1.14459120241873,1.13704259363583,1.12833079967801,1.13518472392198,1.14034153553116,1.13802775629882,1.13603942254472,1.13403930618087,1.11776800443064,1.1202952105532,1.10419379566746,1.11331228599796,1.10244406940411,1.10197155824907,1.10035064250026,1.10795317634645,1.11412556829823,1.09672238618814,1.08791515932624,1.13454554436437,1.13883174690646,1.11740851479533,1.11412436296877,1.1155847691703,1.11658404496038,1.11765078845023,1.12055604205411,1.1101285712572,1.10678414675884,1.08786499774596,1.06712379439939,1.07106321147592,1.0889178098509,1.05588916251841,1.04730751012295,1.04671715949377,1.03201241750577,1.03135883410794,1.0296565380373,1.0396400360193,1.05299226416152,1.05231475854768,1.06938969590952,1.01640892183521,0.976482531893323,0.960479981892504,0.961074372576126,0.951691625168961,0.950767325591334,0.94760760701367,0.94250538309309,0.943144380646638,0.942552746976065,0.909056534025753,0.889086893343147,0.860242572632266,0.839152777387051,0.821844288108988,0.803399078677471,0.794925981543092,0.786690114675223,0.788053953085972,0.790360544661931,0.78850232321383,0.789096668112097,0.796081765732569,0.815578465015839,0.816313313818978,0.816819339539464,0.82868085117727,0.851423306669259
0.896702099204969,0.895643448367895,0.896318448301065,0.895716409021482,0.895997383282171,0.895099162095406,0.893997565081265,0.890911900136085,0.89112483343743,0.891802705640055,0.891365752313894,0.893153177309877,0.892741565035278,0.894641165852491,0.894296072617638,0.882517663627257,0.880827066732253,0.879622486469263,0.885676886454765,0.888039846725391,0.862306325001667,0.840248160708678,0.841433074365509,0.835821116258886,0.835955413424833,0.832099664188319,0.831756915279497,0.819440885645303,0.853817425052108,0.854797191264564,0.857103775596841,0.850998219447582,0.865383009806279,0.871309467292949,0.867827416071794,0.840758425523466,0.875187723951209,0.903181795263596,0.904143724733115,0.904828518777201,0.960061944061509,1.07612885645038,1.06442101091629,1.16035902734173,1.10634200718792,1.11065310872859,1.1079197115429,1.09546277990963,1.11134953119903,1.13016600521507,1.12242521817389,1.13015131603292,1.11493510631252,1.11947194983573,1.11837779752401,1.11508657014835,1.12613118779503,1.122771929718,1.12372424561417,1.12241906871382,1.1529423594368,1.18667140654933,1.146425382234,1.11835828325858,1.12347668678771,1.1198457068396,1.12172655181596,1.12170753278252,1.12291462280687,1.0689827640335,1.1339242552417,1.1602028349858,1.15148276705133,1.1373094888577,1.17680998328317,1.21981579244961,1.19220283068784,1.19362954985684,1.19281182099805,1.21496856473158,1.19690294350678,1.21214865820817,1.18117610431929,1.18392508815375,1.18255514464669,1.20762445001417,1.18518684567781,1.18019539539948,1.18908336568571,1.19581980924179,1.1887275303458,1.17701365207031,1.14512451501579,1.1116512264161,1.14057022468183,1.20492709499122,1.14165219014603,1.14073708677321,1.15989311817269,1.20405703620663,1.20400132018265,1.20437950196634,1.15271760857122,1.13690204541675,1.13529215868156,1.1157464117219,1.12336280446783,1.13963823657005,1.12238416294755,1.12160405828304,1.10327062585314,1.09007820009702,1.10679617472255,1.14047184448559,1.12621411249668,1.12497606097302,1.12896664556478,1.12869642819416,1.1286794053749,1.13013972775465,1.12580229658048,1.12544239236524,1.12668715109852,1.13682443276638,1.1110515365289,1.10643233800397,1.10533747386848,1.09887946802407,1.08596759993208,1.09971835323217,1.06748618980621,1.06430098354857,1.05836836508677,1.05347952411875,1.05431656180393,1.05680084867813,1.04616055653206,1.04110707409719,1.04959396082944,1.0768491580785,1.02872364971754,1.02539707089563,0.959916782428278,0.959530853708573,0.959632635650563,0.958108282341721,0.950683018173334,0.940225171777779,0.944612617440167,0.959877854803289,0.93581266564358,0.932596834937369,0.874330918508409,0.838117152675486,0.830180749272501,0.824596638659599,0.820778809042717,0.81303225295557,0.791582142036919,0.786643124696643,0.78711442717112,0.782549493328352,0.789278977118287,0.789840873806135,0.815134925482041,0.827938513928308,0.826350115954267,0.850174545020136
0.896986998500785,0.896701657012341,0.896358404823412,0.896669449785615,0.896096454627493,0.894554217737194,0.893275784946946,0.892435948810302,0.891918017680648,0.891203173205622,0.891709515955724,0.891029169225177,0.893597175230532,0.893690250936332,0.895135233998663,0.881843176408708,0.881927650249533,0.881474390777218,0.883120790284678,0.882360305182281,0.859703237208426,0.842414775652533,0.840986162039965,0.839561339815948,0.841799936127129,0.84287889853331,0.849830541987957,0.851844417772128,0.854646836738697,0.855873491185183,0.858280470133048,0.861015101540612,0.862342751631984,0.86781094145387,0.870891952607806,0.876227947120135,0.876646745174626,0.893579895448153,0.904603086521207,0.905176407253619,0.966286830724776,1.03588850175353,1.05601351789281,1.08479881365862,1.08855023408556,1.10829529792917,1.10864411177497,1.11130358479196,1.11333451332122,1.11543982526422,1.11482208669515,1.11290864557431,1.11370299085533,1.11610801020865,1.1201315455226,1.1223759920611,1.12886877517646,1.1342979018404,1.14163341105108,1.14739424454045,1.15473143993311,1.1544340713872,1.14798821840878,1.14390143065379,1.13482089627678,1.121002164362,1.12187545787011,1.12165970798662,1.12371410979804,1.12750175684387,1.13318661893074,1.13901900699926,1.14602015062849,1.16188422369673,1.17712348889863,1.17957079392795,1.18168622419199,1.18276923661615,1.182522481186,1.1814141238196,1.18016341954158,1.17945918878676,1.17980881109129,1.18164456762389,1.18242515190699,1.18366956954532,1.18518439348755,1.18671608905709,1.18636335811759,1.18747842852821,1.18677410339734,1.15774497467975,1.1396228868306,1.13486165238874,1.14263230521922,1.14995726800099,1.15017935795257,1.14994303499557,1.17548831259385,1.20326108711628,1.20368501711641,1.19710932047397,1.16956953491431,1.15576332436128,1.14544450288788,1.12724957156943,1.12612244602386,1.12580160931263,1.12371190157899,1.12241945764604,1.10422912425336,1.10525959889738,1.10575922502358,1.11466638387216,1.12735643845793,1.12672277605723,1.12844836585279,1.12783608786742,1.12709728465139,1.12730412778437,1.12620596216715,1.12624872143729,1.1273754934188,1.12958938189787,1.11285567419838,1.11052741585409,1.10582023288467,1.10569355633272,1.07729497999119,1.07483065537073,1.0669666623982,1.06611645697641,1.0631298059677,1.06212013814388,1.06086253624327,1.05862917944472,1.04953696243132,1.04270138586679,1.0459190635258,1.05349216944601,1.02929264628325,1.00135121624108,0.960114331695093,0.959741405498474,0.959583912597585,0.959326866598316,0.95221741391258,0.948539825626246,0.946086534012061,0.944605722889587,0.939512884652974,0.930742278738157,0.883927255559629,0.865929895415246,0.841647075446119,0.832520667608097,0.823273884688397,0.820901650944454,0.793853635898942,0.786064002970878,0.785289279986914,0.785054349035135,0.786937876048381,0.788827984970957,0.813584635808862,0.817811333248292,0.823142993806361,0.850187305665927
0.897062102874705,0.89599696099683,0.896704160187674,0.89689371887035,0.898224036667305,0.901780283667543,0.893610496636463,0.893026137226951,0.892407924615735,0.892155590093293,0.890837540891388,0.891173186111422,0.894292134804295,0.895570248400281,0.895497952698024,0.883326311974867,0.882469120303771,0.883823244058224,0.883531299415154,0.883180816273976,0.859119717306844,0.844082099369125,0.839166687398237,0.816640649449054,0.843585515943659,0.845529002743801,0.850704970378203,0.852953369394498,0.857585730455702,0.865198273394125,0.861755201041065,0.863134812247871,0.861377170477543,0.841527303582546,0.877503904206701,0.882576885735863,0.88462849211483,0.885800718143358,0.905137881400376,0.905434289023665,0.971914887687634,0.991037044353206,1.0507948913344,1.08318300308267,1.08474600331512,1.11359369084324,1.10790186077738,1.10933822648649,1.09408082522533,1.08989160823701,1.09257007503488,1.07484629259163,1.07455407070196,1.0749873380874,1.11921179316417,1.12296894747633,1.13076436355836,1.14295675662384,1.14720873031415,1.16736115875555,1.15550852600924,1.16137104273891,1.15475692981731,1.15000688533929,1.14340827303564,1.11994298621552,1.1216209566597,1.11183638461644,1.12418814482283,1.133759668873,1.13067187119797,1.11823689322485,1.13937660153546,1.18299060781934,1.17557343940439,1.17516459238086,1.17652540122674,1.1648850095161,1.17973266423268,1.18033851599619,1.174037037612,1.14760116034465,1.17849712817104,1.22417497055211,1.18198285733144,1.18212999547672,1.1855037168159,1.18620230461212,1.1878311079717,1.18733937099824,1.18602261292687,1.11488342019034,1.13314586103607,1.11274089037811,1.14408725546901,1.14985644672057,1.15006231977429,1.15011687559125,1.18358964199106,1.20727422751488,1.20399038805054,1.17668746246017,1.17295067410047,1.17010409785943,1.1555369296864,1.12685761848912,1.12698844068662,1.12681941131124,1.12482324803371,1.13172405060457,1.10424564670636,1.10552111460539,1.10583802277449,1.10616939273486,1.12865519810378,1.13029182457159,1.12990475220536,1.12267673945157,1.12528487093481,1.12698621654096,1.12547254346774,1.12675411878074,1.1268524415585,1.13264041579209,1.11739301586258,1.12290860427778,1.10796367301469,1.11015332735977,1.0757332154611,1.07478550600996,1.06863670703517,1.11149650200313,1.06237000816224,1.06153704243025,1.06572266014391,1.08552312658843,1.05000643557601,1.03762119891358,1.04590229171516,1.05829840046573,1.03403848175227,0.958458553139482,0.959514367478434,0.959052649778723,0.959374848986576,0.958530889323188,0.973311258614305,1.00421719261762,0.966019379148431,0.943382728672784,0.941859736465454,0.927890767475592,0.897154797245056,0.893182878359594,0.846665407988798,0.842669295543149,0.826543031056074,0.824953091755982,0.796722987622763,0.783713186228571,0.783865278513823,0.781330655907553,0.785280177432962,0.783828068365999,0.810416848295893,0.810944563004407,0.820413264207771,0.849989272496642
0.89533316878294,0.897353005389198,0.896066454773147,0.908257821506752,0.896031798289852,0.896630765537171,0.894290686831641,0.89408732591016,0.893328480648279,0.892177369270226,0.89238689121079,0.889350902132083,0.897035769032288,0.898507359606188,0.897260850544764,0.888400544368915,0.889081444168215,0.889008569750532,0.885760817381583,0.85870256588953,0.860142840725924,0.837406410009403,0.837916438752913,0.821668206872803,0.850108364629552,0.857829716416343,0.862273768490017,0.870417262962687,0.867292061322454,0.865493624604044,0.861981435942569,0.840841589896902,0.859492887755906,0.88241413204988,0.882179018589327,0.88970844116026,0.897052872421713,0.912986515360435,0.925683448014555,0.94447175220163,0.978153782449025,1.01244188466129,1.03634915922021,1.07101515106614,1.07355254441308,1.07694950553203,1.07750259417535,1.04181552160391,1.08353564958294,1.11878750699509,1.09560960887208,1.06277558298325,1.07445785863123,1.07537042437907,1.11952388038325,1.12037347269104,1.13136114107839,1.16743731131303,1.15346394119916,1.16055719377581,1.14764089317079,1.13941027484408,1.15759888079064,1.15829861231927,1.15671804812371,1.15655553438786,1.12687103189782,1.1173040820907,1.12530547121967,1.13319811821392,1.12852013038766,1.12655576237265,1.13116109434425,1.15647437294078,1.16986170648139,1.17718884347202,1.17715752139567,1.18007775625863,1.17939460162234,1.16334647939822,1.17234461743509,1.15696937241025,1.17886900690874,1.18089804965257,1.18198732770759,1.18442144440568,1.18601375354105,1.1876041493429,1.18689188959928,1.18542721883391,1.18400440042854,1.14322864263197,1.1435648777788,1.14404611393804,1.15927129039807,1.16851635828812,1.1870716400576,1.23079963180566,1.22192023482706,1.20594590527057,1.2045669842351,1.20257909027565,1.2026622566188,1.20063120901139,1.19011661140517,1.18310854060993,1.11772971748375,1.09176173241341,1.10094152496633,1.09836251667229,1.10138503029737,1.09994714033924,1.12840790318819,1.17142246155761,1.13979890713096,1.13895369713531,1.136735263662,1.23606375515724,1.12435267375267,1.12217363123178,1.12318917511536,1.12951633288984,1.12792984856237,1.08886946771727,1.10587174374493,1.09827586468235,1.09176239736044,1.08991340754662,1.06823238030189,1.06351207435186,1.0618697203493,1.06051385090246,1.06198586105175,1.09602487142848,1.06764802060504,1.07742965945648,1.06299703362777,1.07937145602896,1.04650141738308,1.04040308990357,1.04385529435961,1.04680879578424,1.0098500710807,1.00204177601283,0.988679466622718,0.98623524891674,0.982903537356494,0.980122817567097,0.977746301514815,0.990777219653448,0.973272562503914,0.980879393687141,0.89859416485041,0.863000472090734,0.854667037748672,0.848898723481331,0.831718720816736,0.819075916991288,0.801853460380016,0.794417630744253,0.79040570335847,0.793572216754579,0.785801730330889,0.789169822788884,0.810533191988353,0.807724814704843,0.818782807203665,0.850950613010221
0.895665975043596,0.895394471026034,0.896917734042921,0.90677972364216,0.896201926208048,0.896080832632945,0.895549755925842,0.894487769303305,0.8939053944562,0.894620379640488,0.892855820714588,0.895595448048792,0.89770617619577,0.902488192327504,0.898630212853204,0.891358850846132,0.889161097415854,0.889394564093745,0.887537868510282,0.863596062530511,0.86184254721606,0.861978787617507,0.872350740932868,0.879085409919613,0.868468815649496,0.855450029914069,0.866559560644277,0.87151842366222,0.871826510306471,0.882926757474274,0.861182910755812,0.859137269324594,0.858661764119752,0.881667470510655,0.882528826695928,0.882707157023748,0.903536823539484,0.924795795785514,0.939836922023959,0.954164912375598,0.984077607640281,0.996280363165212,1.01032892897136,1.00715430478408,1.06468620489316,1.09599309294882,1.07764023783948,1.05931274534651,1.06255838631787,1.0586665839789,1.09822643389581,1.09925737918587,1.09674653845622,1.08844816595008,1.12748283475779,1.13745267203769,1.13827590145163,1.15185446906412,1.14430650856115,1.13246533420509,1.14564831321649,1.1395326254504,1.15802921817447,1.15983518569177,1.15623491695553,1.16504930117886,1.13228791485406,1.12849223865271,1.12659214429243,1.12590137483288,1.12039327591949,1.09984762957028,1.12559835397925,1.14405767263538,1.13105359230805,1.12314819575281,1.16451584663137,1.18608183929305,1.18664973864127,1.19735608044881,1.19316975676837,1.23101350422544,1.19144330569169,1.19242634070755,1.18150839723677,1.18314843912513,1.18616606346414,1.1871295702593,1.18899780577411,1.18668946405621,1.19887102124228,1.25556712624353,1.21920770756929,1.19456316714558,1.21954784685213,1.22913587807127,1.22860640775692,1.22788650176372,1.22164048435186,1.21552786808056,1.21534456391935,1.22524083982229,1.20677532461352,1.20633417343577,1.19273160954456,1.10622176230729,1.11364987122508,1.08934521325849,1.10195974250698,1.10315782801082,1.12594109357427,1.14226553217284,1.14001841222233,1.18878382211313,1.13978567092906,1.13350392219401,1.13411603631043,1.11546213395104,1.12411942621267,1.12352439154623,1.12238977623601,1.12072799276123,1.11802249482642,1.11955125266574,1.10930847443823,1.11181583711324,1.08088198298975,1.05574065312531,1.06818078176379,1.06565348149676,1.05618145236645,1.03471385586386,1.0381170164075,1.03755490802668,1.06481860602914,1.06082653375921,1.06503345727845,1.03650267310504,1.04583244205896,1.07250525158767,1.04430776947153,1.04576348241368,1.02646116252476,1.02816605165775,0.990585539511058,0.984817669681325,0.989597430955411,1.04638456694389,0.977135041322533,0.956580476411536,0.968176399129703,0.965878547053625,0.900844014927999,0.882962564960834,0.857923643112643,0.850110133307252,0.840409468258606,0.836792589670322,0.807608240825571,0.794889806076841,0.78624753305045,0.770457489205028,0.771342668540339,0.770019130110541,0.812319244179339,0.81497831546466,0.81856114123324,0.849584080222408
0.895047023124632,0.903453314225715,0.89784423613888,0.897701676056805,0.896581405877945,0.896994660756552,0.896165626108609,0.895415897646558,0.89444463130853,0.893392599231428,0.895024473574082,0.894727804873274,0.899098075258324,0.907569398744297,0.899311082894878,0.890137603733466,0.890352264131642,0.889388789129189,0.888379037400477,0.865134209943095,0.8720946169335,0.881816486029146,0.876030860808011,0.868284550657194,0.877331748727447,0.896703748689826,0.873956389002705,0.87257921423994,0.872639677015204,0.87533167075308,0.850480585845394,0.830863395800317,0.855544195197257,0.879846502248894,0.884960656679488,0.910126099619048,0.910285897488727,0.910868131459463,0.954195302090468,0.986213994924279,0.98940723958773,0.992320752733805,1.01319542984298,1.0189703093748,1.05386013628512,1.03424040147946,1.07601266002272,1.0732355400358,1.07306018308587,1.07346623549181,1.10102421942963,1.10595351692222,1.11673954105404,1.13346403788223,1.13411565530126,1.14128480491445,1.13819877643866,1.12552044258547,1.13916396307979,1.20104595700929,1.17317739122669,1.17422975529634,1.16431737758706,1.14496238019522,1.15371752829188,1.16701662766659,1.13882636605938,1.12721881938886,1.12676794932882,1.10219396040028,1.10952664634394,1.10487027913836,1.10577951882627,1.10603015215828,1.11342018277724,1.122297883701,1.15379856839219,1.18704114398518,1.18695714812227,1.17271615031447,1.18405829846255,1.18692126859363,1.18983210307305,1.19081406010842,1.1813141559851,1.17355282898359,1.17436249000734,1.17216625031282,1.18164481584901,1.18144558349622,1.20577976689018,1.22234739819892,1.22187302791734,1.2234112456634,1.22481500453444,1.22540896669832,1.22755691525222,1.23403058336295,1.22378391756067,1.22390691159447,1.21859596903888,1.20463819990265,1.20570039858539,1.20033864654866,1.19847907939666,1.11684081015044,1.14085008599347,1.16557525405576,1.15629457742628,1.14335607262735,1.14244727659789,1.1387456270344,1.13878161867421,1.13786345832047,1.13921807591675,1.13339167066579,1.13478114769397,1.13604882554772,1.13319492321932,1.15447439155687,1.10532431725756,1.06608948518325,1.06486467502793,1.06565032053659,1.07250183412232,1.07520121339024,1.07700503532712,1.07654704517015,1.07034834346901,1.051066620507,1.0541604945681,1.02755340022157,1.03867528032181,1.03974641706323,1.06590748464489,1.09620850685205,1.06818897123604,1.04508970180875,1.04396500972613,1.0408319278277,1.04230453296082,1.02589026931049,1.02549532988248,0.992094206241359,0.991335253815339,0.9899486984321,0.99042361465713,1.00097589750094,0.978137380223172,0.967538890822343,0.968086874037441,0.908075492539813,0.907108705116843,0.906857043393708,0.862157143900191,0.850568222333141,0.844195369839734,0.820633251682216,0.812790019036164,0.781725452924205,0.783456683495754,0.771263019306943,0.771864808094852,0.769665328891501,0.813321130065186,0.849656755692775,0.817993311613925,0.817400523852571
0.895289911330682,0.896642918766966,0.897232315087738,0.896835601405586,0.896515160247334,0.897198742058004,0.896946296448073,0.894729058334072,0.893702354119605,0.893072203760971,0.896367408850132,0.897803225972738,0.900243283774058,0.903183638592118,0.90060056901336,0.891825181914957,0.89134370072966,0.889864865808855,0.889221222629161,0.886665970670748,0.884288996634526,0.8824933459028,0.880733582849182,0.878557390615312,0.877640884039864,0.877425115113331,0.874510438779882,0.873546201116349,0.86998162087982,0.869302734678616,0.84912170409751,0.844504853769148,0.853896879545036,0.868079861545011,0.887861381830194,0.90954134140511,0.926467073430087,0.944442431392939,0.964935223925523,0.98307131031496,0.998154524874236,1.0049686796158,1.0201236873315,1.02429736182948,1.0565897217998,1.05814669596642,1.07589152705811,1.07468324359152,1.09608166211218,1.10616340816567,1.11357862760247,1.12220071549312,1.12913337488261,1.13449229442665,1.13574847054384,1.13914534913435,1.13889785250125,1.12977890505409,1.13507983087212,1.17510031785253,1.17321870063604,1.1731460547838,1.16608641063905,1.16158756549198,1.15265255005806,1.152522739556,1.14223727600806,1.13921872455258,1.13406682539413,1.11323141094873,1.1095593988412,1.10708143611855,1.10628960852235,1.10666161727266,1.11138013291732,1.11377837274288,1.14364233391828,1.1860857260413,1.18680858363802,1.1849113201229,1.18461623418423,1.18628309159835,1.18675758104631,1.18648602014105,1.18209086499222,1.17620040251924,1.17442125202187,1.1741982999455,1.1836917799053,1.18318721575306,1.21512381964578,1.22113122151592,1.22115458770886,1.22193037295806,1.22517488762935,1.22542242944238,1.22762593357686,1.2289830609344,1.22592508945336,1.22530152022839,1.22338555417882,1.21020364859341,1.20861316820697,1.20247337039767,1.2025844076619,1.18249555862948,1.17652751387536,1.16371024423138,1.15689562748496,1.15541212148087,1.15305588868754,1.14899712221208,1.14478704164369,1.14249538095683,1.14072962748618,1.13785484197743,1.13549224926458,1.13418426368609,1.13100269521218,1.10756353523468,1.09346195671354,1.06867930145947,1.06627968601605,1.06672064087863,1.07020874850598,1.07500403796069,1.07766175334523,1.07894573908313,1.07164315175764,1.05838805106644,1.05646191522633,1.05493175168282,1.05388514694954,1.05232143426644,1.06491942672082,1.06932589734428,1.06882245637136,1.04490041626543,1.04422851884866,1.04296165258962,1.04286062128795,1.02630631172916,1.0247989858859,0.992739801542168,0.991972000747321,0.990136650841781,0.991393922681562,0.994318090837649,0.979455127312198,0.967861256573045,0.967649945245027,0.913867994419283,0.912932114584026,0.892626754322736,0.866755190106026,0.851225017034951,0.848778539862539,0.820976227030121,0.816829490305783,0.793704327331222,0.791405879820364,0.77382655455263,0.773764573120585,0.77233099443734,0.813230713551698,0.816880161199068,0.81785074318019,0.819605904862354
0.895112669054728,0.89745819597885,0.897010004508855,0.894838264817229,0.896262505094624,0.897987721547651,0.898328676935105,0.891847091116326,0.892696343640438,0.891720036812814,0.905385936625233,0.911492161621711,0.910814244129317,0.909554785402924,0.901528009799262,0.893169151780436,0.892141932361796,0.881692111729814,0.889426006100508,0.969431139278984,0.884817622071993,0.871968923865209,0.883018682595273,0.897923876877591,0.884123850841476,0.878300744544336,0.875938621306387,0.886249106439562,0.869229607422018,0.869310180000668,0.844956243130588,0.831660250310134,0.85207437426774,0.858636346854636,0.890069969294722,0.908861465479238,0.938474757631546,0.964522345537944,0.970297950240488,0.981102800141994,1.0052734076976,1.01776413369576,1.02467521822792,1.03949417478191,1.06179104248722,1.12804296748574,1.0763654988655,1.07449415413378,1.10413909625587,1.14126267599132,1.1443429402525,1.14794932131574,1.14934352411616,1.14982232705373,1.14336411521652,1.13958547182439,1.13917101423382,1.1159709969125,1.13258957512379,1.17752371050414,1.17250280129373,1.17213848484592,1.17088331991682,1.17406162165225,1.15252516572365,1.15084397390856,1.15065280691074,1.14948832231207,1.14038363494437,1.11794855215525,1.12605943028667,1.13994192857325,1.12616305427783,1.10700412863318,1.11135479887918,1.10914810463862,1.13323272256909,1.1922953855416,1.19020065438177,1.20075240106671,1.18523331906279,1.18530766486037,1.18647679669766,1.1853941141,1.18350187790603,1.18434751276702,1.17325896004965,1.17356786084139,1.18466874697121,1.18344980535373,1.22158447091093,1.23351789741468,1.22188545167568,1.21990778514502,1.22295175491822,1.23692218312337,1.24032897533793,1.23933688160207,1.22725685206273,1.22647990455996,1.22370066685259,1.21885442171934,1.21123806727276,1.2029535385829,1.20395045305663,1.45249746629683,1.18163671557378,1.16092482406701,1.15872347074515,1.15843657704513,1.15761258229592,1.15582678924393,1.14788632089098,1.14429338518307,1.14825941780882,1.15010030172699,1.14289426906271,1.11795148398561,1.12512065695806,1.06797590004614,1.06951368901041,1.07272260210733,1.06680756208544,1.06838617491172,1.0678324776511,1.06851903066627,1.08435974718128,1.10794487993642,1.08524427335127,1.0586576481083,1.05720881913758,1.05569643051145,1.05396835171168,1.05028046363114,1.0630194627849,1.06785787947568,1.06810366319131,1.03728325101469,1.0449012167664,1.04470566189701,1.04457468267815,1.01940537123114,1.02225795676686,0.994207787183551,0.994078349860599,0.988596459669387,0.993460476307829,0.998372573321321,0.979829579556074,0.969635493400254,0.967842156917663,0.922349102270622,0.919222298887781,0.881201538808576,0.872008909849378,0.852127081488399,0.851087330886211,0.821577325252294,0.820076106302868,0.802079421745637,0.797978871371486,0.775214452175229,0.775252009594346,0.763830123431287,0.812039000207024,0.81538994739276,0.816302128445673,0.822568499622196
0.894066894551175,0.89302321819012,0.897200869787927,0.896385848542459,0.901296892999885,0.907858254901257,0.906773323747332,0.906805040253626,0.910704112875847,0.913802568057341,0.912644691004278,0.910750298547139,0.911200419242437,0.909958288637893,0.903438363521419,0.903398546534142,0.901007451217743,0.894686199928421,0.894234658340515,0.892882530333496,0.890920124373443,0.886039214287079,0.888933870851133,0.897619308036003,0.892404887365836,0.892774488954221,0.876114653550666,0.873811424624022,0.856344098039574,0.828606346238889,0.831105220005821,0.831710962972818,0.850443347686757,0.885127755325681,0.892131901297227,0.917358948227078,0.950421903717105,0.981905277513009,1.01352480406173,1.06114174048029,1.06062475486848,1.06136074143872,1.06545375975903,1.07913484452086,1.07926904994018,1.08102520972121,1.07892832794292,1.07447619295912,1.10950820345762,1.24640006640288,1.14879189198223,1.16341786733452,1.15123744493188,1.15408802338495,1.14563266908067,1.14001920511827,1.13928625208552,1.12309132199023,1.12366989524627,1.12293587715882,1.12360390327843,1.12610527155311,1.13809341819227,1.14455354876779,1.15204303628429,1.1507727759365,1.15114081133378,1.13279079680073,1.14380093717765,1.15245928926734,1.16510648441649,1.20711795963802,1.20005963760319,1.20686280243233,1.13746527506475,1.1073864170147,1.1234438128555,1.11072718920989,1.12813124036309,1.1119787452862,1.17004093851504,1.19424778328852,1.18589020263281,1.18564592706736,1.18127213187856,1.16903994404754,1.17022459211915,1.23652555846275,1.22632835559579,1.22040835985127,1.22596567336272,1.23218745613094,1.25310999931184,1.27575273633593,1.25844641954721,1.23328165655952,1.24319036320443,1.25176927053176,1.24616779684432,1.23050147707155,1.22317236821104,1.22113860426084,1.21060454936672,1.16048749473758,1.19222301856124,1.18643212067503,1.18733632728985,1.18550741717451,1.20907789656041,1.23408583460686,1.24585705378497,1.25225820942628,1.2027479662065,1.18309870615449,1.15778355273319,1.15342901575333,1.14458920913081,1.13355716310139,1.13241203681342,1.06929396110451,1.06977710270157,1.06158240685596,1.06753819617921,1.0660449383343,1.0669434892182,1.06716611303568,1.09027177639838,1.10841796055248,1.10693920980094,1.10846482645247,1.07605791934108,1.05499340741982,1.055714284468,1.04949336280538,1.06112068594925,1.05930714115464,1.06829566126349,1.08242381518408,1.04479077170056,1.04113394698607,1.04730998162057,1.09253419623868,1.02589378583415,0.994882854297378,0.994925470872804,0.99601359343451,0.995485598572709,0.996933728046619,0.979087571476662,0.977887991981083,0.968503770518374,0.956553475898827,0.924636868410044,0.879509038858304,0.877882474231781,0.863574058568505,0.857369121578528,0.825780154762989,0.822349486455371,0.821362731001902,0.804768474188757,0.776311317699619,0.783868602315356,0.794145588722743,0.809614994913976,0.806426185247596,0.815569659396098,0.815908555889012
0.891181558422582,0.889766778595725,0.897784241832318,0.89977093307948,0.904672665599643,0.907122611380167,0.909679679004942,0.91961501324699,0.914406227361331,0.915136285429129,0.911871382825332,0.912796574231933,0.909699096139748,0.907758163745038,0.906215644679213,0.905724338704094,0.906496264902831,0.905688426213497,0.895019638668846,0.893599259819493,0.891170310765619,0.889645853326228,0.891018272686116,0.891679302267202,0.892046148646387,0.891114758125277,0.872974007982102,0.865461041748032,0.843248662091879,0.831119557259726,0.832186901046458,0.832348963694291,0.848823522565268,0.871734346898978,0.895704165880815,0.931494941160317,0.961760683144248,1.0250419794191,1.03299324712792,1.30390641650218,1.16006482900012,1.30362314310875,1.08522895062049,1.08321866161099,1.07983095857335,1.05737913467713,1.08800346397118,1.12389040257666,1.12405142198949,1.13626824286593,1.14462862168692,1.14810146646477,1.14851150044398,1.14714613799639,1.14878520863412,1.15271581463854,1.15217094814686,1.16330034921713,1.12285978984686,1.12121686135498,1.12253153697845,1.12804330897029,1.12640759597522,1.12303706882174,1.16471763538527,1.18518733448263,1.16286248585815,1.13773059501215,1.14647392337315,1.15331156253265,1.17574980777719,1.20770748469637,1.19363789220299,1.16736224476074,1.15136483285113,1.13983852094257,1.13028462471428,1.11134927841577,1.14030454219185,1.17717987370125,1.16362106375279,1.13471584980071,1.1408756612612,1.1394254681042,1.15879882105399,1.16376468287741,1.16876595523326,1.17886947685844,1.2274431291098,1.26959781436005,1.24960885811413,1.26958797406293,1.26390092438987,1.26899673742082,1.26802849212398,1.27043970873585,1.26055914213148,1.23430735104594,1.26149911022483,1.2670059579796,1.24803785781221,1.21772782162068,1.21341382266526,1.1978730131966,1.19996580458173,1.22455431425708,1.22254820900407,1.22065039794138,1.2458154447156,1.26394322010417,1.28296321501673,1.43360321418367,1.24965616448756,1.227340096267,1.16651103236265,1.15491709563974,1.14819399276197,1.14926564711292,1.13700024657305,1.07445680129554,1.072142715981,1.06884600431849,1.06759520009305,1.06778221482978,1.07507919423099,1.19191805468121,1.1607252225558,1.20831685390731,1.11859842806552,1.11678792954012,1.07697201970394,1.05638419258837,1.05958385605392,1.07623290203155,1.07590301579882,1.08959026228223,1.08493855910822,1.09350677398779,1.05787227647036,1.06058326172382,1.0495645137022,1.02957657271573,1.03405864165479,1.07895547618373,0.996982490401407,0.988193867505066,0.990969519530236,0.958061810354159,0.972751323167419,0.968253947511872,0.968750289183779,0.968766632453079,0.928965090549884,0.885054745790908,0.881171301412587,0.864619575902845,0.862011837919772,0.825018265703104,0.823325182105872,0.811260517680905,0.808226747244957,0.804958857244182,0.810901039795356,0.818305507438635,0.812119646586183,0.808172556419753,0.815177383526096,0.815162678676421
0.89037936113158,0.889389673948416,0.903529245861835,0.909443759759503,0.910886474463092,0.911913759536902,0.913147438153624,0.921415456067609,0.914865374250601,0.913338558010606,0.912257916974387,0.909734480637171,0.909549426559644,0.908435118204145,0.906673220707358,0.907273387486333,0.906400883197563,0.905887065515797,0.896650159955092,0.897963152051225,0.897296786639597,0.896438903748843,0.892043345788132,0.865758675807008,0.87221636292715,0.879608180830148,0.854097288825062,0.82271020766573,0.823065503950806,0.822276586558395,0.827336482596518,0.834536105652597,0.847454461384017,0.847587685575005,0.900275569682015,0.932413299297038,0.972012636240544,1.02488448228184,1.03619140776703,1.30464659595133,1.13556763591523,1.09923767043552,1.09875917521597,1.11639760767619,1.10292539565853,1.10288750344058,1.10426445348561,1.11879117682097,1.12290257020508,1.12638744734589,1.14329121228334,1.1435415155602,1.14706381460093,1.14718949686048,1.15133306528817,1.18674967294222,1.15286855651945,1.11900924946075,1.12097003819319,1.11884072981628,1.12291047011929,1.12260719115441,1.12376736850687,1.17250291968028,1.16731024755615,1.15502560997641,1.17553052878518,1.21881910775862,1.21507580289436,1.22785960688906,1.19829976183718,1.17877492403534,1.17463890997246,1.16686708574025,1.16779241564784,1.16733819409394,1.16661929156418,1.16885951544318,1.14956483905129,1.12124484688408,1.15497550225075,1.15829809887448,1.14138171614991,1.13802995929124,1.14422830385285,1.15156447146713,1.15262763374266,1.15050741168243,1.22547395816682,1.22693705163849,1.22832960927726,1.22426580018386,1.2387576623975,1.23794034764188,1.26594193326684,1.24878641694249,1.27346619543914,1.27978864106829,1.27903747438432,1.26333587053227,1.28617977667033,1.30706571643238,1.23219036654578,1.2030912238614,1.20071544421026,1.19746986345842,1.2405347136907,1.27661597161262,1.30424127090911,1.39196323285163,1.36408577665089,1.4354896892399,1.34961977341857,1.35435163641789,1.17795056038595,1.1467666443222,1.14636358970683,1.14655978760648,1.14481516126711,1.18527605923396,1.13020950997729,1.12035004969819,1.09856920986701,1.05900266533878,1.08072558935077,1.09347441030003,1.15281471385723,1.17118646632718,1.12078744289037,1.12131257982432,1.09169116676209,1.08622692592358,1.0830065156656,1.08443304252003,1.07533622761114,1.07617307971976,1.08060555045584,1.05655426908855,1.05701069592449,1.060389598146,1.05066527922074,1.05250391956397,1.0361237025764,1.00853814744274,1.00673829768648,1.00521310287345,0.993858558025932,0.979424330853224,0.976142309036675,0.963597400702765,0.962390478073786,0.936419579748471,0.933904138185805,0.92643502218223,0.902476548427474,0.891090255274692,0.868390794087798,0.838186497568577,0.836173592149078,0.835066733458799,0.82416707243971,0.811308744273523,0.814847434968789,0.819206467909176,0.814773652653856,0.801504276737505,0.825893610573107,0.842323531458675
0.896926803255495,0.90149981599499,0.90579592286962,0.909224978392087,0.911249699152423,0.9135798189006,0.915485669081368,0.917703579320014,0.915238142465362,0.913142376507361,0.911590680016669,0.910411099593215,0.909551652998049,0.907714319361932,0.907416502949608,0.907100302856881,0.907761357310756,0.901886565853112,0.895115820785649,0.895902422255119,0.89601890437351,0.894847497129117,0.893106736876802,0.880185344208377,0.869182311181486,0.851735021588165,0.839407248900911,0.823797009621305,0.82375968135323,0.823033360142745,0.825200031182925,0.827928360631466,0.8463894492974,0.846363624162774,0.904917107200553,0.962587783580181,0.9817619794239,1.01454100206526,1.0398756227194,1.10882965964921,1.10657550683221,1.09917819677993,1.09849170203425,1.10123501820112,1.10275669689128,1.10364318973018,1.10436081641696,1.10263082138538,1.10620243731702,1.13460329849617,1.14341186463742,1.14433693045297,1.14680277516914,1.14720837681075,1.15268334862402,1.15945932379528,1.15640989208778,1.14389119220962,1.12172255362581,1.12004885734074,1.12270038487978,1.12287671593524,1.12235967936873,1.17490142512293,1.17481313453889,1.1747005898222,1.17783535912263,1.19962463440861,1.20181621814966,1.20529575516602,1.20283496897925,1.1974788214906,1.17213464196531,1.16848607363893,1.16839671086621,1.16682615014055,1.16544089701594,1.16548733158999,1.15177382530761,1.15186137198142,1.15214032825856,1.14961806100562,1.14195956285444,1.13892532923382,1.14055943776527,1.14274398077925,1.14540379270508,1.14915514113287,1.22401494895599,1.22625023804572,1.22852224965224,1.22862944267665,1.23670610961671,1.2447439944134,1.27560866139866,1.2751760130863,1.27760968098052,1.28257470644026,1.29076307693004,1.29569893128433,1.30178072603742,1.30597968836033,1.27018271097972,1.27039057953226,1.2711935945404,1.27313838781492,1.27555369387017,1.29472516063405,1.30716878115549,1.36230462149429,1.36172026588957,1.35886042646671,1.35065532042286,1.34789514826187,1.18761586501898,1.16444484575817,1.14550893669914,1.14483765926258,1.14442342781573,1.15958426209478,1.14583433264343,1.13128108227634,1.11450027339121,1.10882632895005,1.11397268874324,1.1171773189135,1.1245642507789,1.12365449670638,1.12294961837191,1.11621746201462,1.09084759038432,1.08615245658829,1.08219036916734,1.08181153175375,1.07457315231949,1.07537266872246,1.07743898027235,1.05576724222442,1.05621247457714,1.05756818805776,1.04941924183194,1.04751159298282,1.03958246842985,1.01742292432247,1.01230310294753,1.00201686837867,0.994897696524695,0.982340811389734,0.978735421715144,0.963515516498408,0.962898367251467,0.949054586632404,0.940960854568307,0.933114247780454,0.91517497517992,0.902751097373233,0.883615963474922,0.866970206641552,0.852331266696083,0.844582012197775,0.843542316078915,0.841103771065302,0.839921850408068,0.839049060963347,0.837767160765531,0.837978087993982,0.839516935299099,0.840968684742648
0.901800112096172,0.906941821194552,0.907247698041162,0.908226566380284,0.912934686674449,0.921417162925417,0.91906761176443,0.92449354735923,0.915673507945345,0.910899834294933,0.911369503455817,0.910859369608974,0.909143024047621,0.908769800056089,0.906527774976918,0.907458348058092,0.907871732458794,0.893334656063617,0.894410152826139,0.893158764557835,0.896873030582384,0.900366016587046,0.893050387269998,0.885559895082645,0.861562391637531,0.812976820917374,0.812241977090552,0.812241932763987,0.813680735323489,0.81469729149775,0.813203538234461,0.81405902317339,0.845810114740668,0.845480098323837,0.908965999384968,1.00484665054305,1.00435140236424,1.005689460326,1.04556400787736,1.11275719405711,1.10470566312632,1.10064639937273,1.09658462105146,1.09099656148311,1.08806712640148,1.08664507565246,1.09139041653715,1.09578085650879,1.10384304927559,1.18098260562872,1.14443002374215,1.1442516265651,1.14652601040324,1.14542026576271,1.15340620884302,1.15972081923941,1.15783924214873,1.19882543002341,1.12171649705854,1.11765767741968,1.12371555529144,1.12292287227272,1.12235980615297,1.18007701504968,1.17694854089366,1.20866038715427,1.18206204969086,1.17707205303767,1.19933215676654,1.20829361412975,1.20405504848139,1.21238372248318,1.17154840882882,1.16936061213512,1.16947932675019,1.18671312114871,1.18021051710677,1.21515532403491,1.1514210126767,1.15309881870544,1.15232448057934,1.14755694255046,1.14389591763347,1.13302322112493,1.1398439704028,1.14003226647683,1.14360680344426,1.14334848696322,1.22154009017912,1.23424286921673,1.22755705915203,1.2275346144406,1.23375572095316,1.25346458173044,1.2786910329592,1.28427180276333,1.27880115709935,1.34685486314753,1.29945102114315,1.33908284691037,1.30563691761786,1.33985918481398,1.27104863204615,1.29362089515432,1.27072692350302,1.29177490701697,1.28906581435123,1.29566085182224,1.3090465810919,1.41464023509015,1.37872991450826,1.41210523347726,1.35484487844935,1.35023479762329,1.19343626426907,1.16774973834146,1.14031312569904,1.11049466423184,1.13526529867407,1.18002907986355,1.16069273333044,1.18111969556085,1.11631711462367,1.09410123978783,1.1179705017333,1.18572817077812,1.12490569768765,1.12367991499467,1.12449899058738,1.10923001894292,1.09063497901555,1.08583082182962,1.08249028501606,1.08351069692873,1.07432345818407,1.07312189889504,1.07387976040689,1.05791981535195,1.05800631316225,1.05956467218049,1.05082473144225,1.04510114503028,1.04380207533787,1.0308691738364,1.01900050719833,0.994089451172858,0.99447517387687,0.984972350312918,0.981185750677409,0.953185427273289,0.962413543075056,0.959959813622825,0.948009777457564,0.937443965463467,0.929541707473938,0.924313172462548,0.895059372675231,0.89249523220065,0.855968244474319,0.848407331770244,0.844201460707245,0.840612158781232,0.839757122103138,0.841272497429183,0.836435040908426,0.836573916547055,0.838748893391225,0.839623115801391
0.905074781385589,0.906914148009172,0.906633100001794,0.913146771178229,0.913552785379991,0.916673847624785,0.91638746159222,0.916207464869638,0.915102388087603,0.913115032582154,0.912658174648532,0.911577449956406,0.911951533859624,0.911454259198463,0.913023821585693,0.911858055520589,0.912021025435304,0.947857059838451,0.900371721233667,0.894403205411511,0.896160692021168,0.898174186251443,0.893468443954323,0.893387728854466,0.853289137753891,0.804063672869841,0.803036301361316,0.791701870703962,0.80571613684601,0.806894869512903,0.8119859494393,0.811953256398051,0.853746442909999,0.863591259705715,0.911534723342186,0.959881739822586,1.01282599539341,1.05406730337498,1.05554894887765,1.05489263478324,1.08708721454842,1.08936320060743,1.08313864980557,1.07882717766032,1.08346451834448,1.12389623849978,1.08403543937113,1.08275430961597,1.10280571382687,1.20571297612202,1.14758777750727,1.14787066201531,1.1488383881546,1.21566624527566,1.17276528164015,1.19751845283887,1.14922959509978,1.13657713752215,1.12495246700567,1.12500537835272,1.12418405591448,1.12315433166668,1.12500721049153,1.17803031742882,1.17724128390812,1.18522566038992,1.18539159799036,1.18492658902158,1.19884623272841,1.20525049935847,1.20355120852239,1.17194548677651,1.17188876851637,1.15026518874226,1.16476006491299,1.15119823698075,1.15449079278022,1.13333432512721,1.15118387584846,1.15166344966758,1.15284478193613,1.15328871524888,1.15477576687991,1.15393462657556,1.15034003198446,1.13990775610564,1.14301492932655,1.20164128353663,1.21952472620024,1.24717982125191,1.22718881924259,1.22550461704893,1.2326199681369,1.34488978496395,1.28148784809337,1.32181976708871,1.27705084708389,1.27157970113967,1.29354244679815,1.31449010672898,1.25942571895752,1.21913723659767,1.2433175662767,1.2246846789712,1.24667206952599,1.22620147986998,1.2793015896541,1.28197234504171,1.31490080547859,1.34466276858114,1.3743786298532,1.49093439556767,1.33571787314882,1.22143991773141,1.20421951323433,1.22539338349247,1.1383786936142,1.12353607150265,1.12497807573718,1.1172619330391,1.15523683114469,1.16310220726184,1.12549964213964,1.1253504600811,1.12350146724428,1.14352742055877,1.12703367333399,1.12820377163193,1.1266491822944,1.1677476531529,1.09289756154373,1.09329598606619,1.06509180361719,1.059048408985,1.06781571547402,1.06990954212183,1.07164334106642,1.0756335905057,1.06054839663737,1.06174440453748,1.05035655139657,1.03866461254976,1.04375826731006,1.05541568824153,1.03696517950888,1.0249351374926,1.02037927578274,1.01626274549178,0.9952330285458,0.967125984368277,0.96572536058669,0.966876430667108,0.964961160022134,0.958882336885329,0.939924218705252,0.913850580496679,0.896878936168636,0.89279241683467,0.860718820286962,0.859556814673252,0.85403321025841,0.855291392078269,0.837840497090261,0.831151917829018,0.835574849652083,0.8414737256439,0.840788619043059,0.840539531462994
