0.879100655808944,0.880924832270901,0.882265006359371,0.88429874779279,0.88383058271621,0.883846589258415,0.884694547980066,0.884519517957239,0.883714543246154,0.883755106269835,1.041238667862,0.878250801481386,0.876772880902574,0.876664590094699,0.8757594653142,0.875557054337412,0.875857544699806,0.876152006366913,0.876253705540831,0.876484823584721,0.877813737800547,0.878737757546779,0.879030856432897,0.879547440246869,0.880173616522871,0.879507307188406,0.878760068004783,0.878836936069959,0.877732432795175,0.878688587659853,0.878486752638863,0.878898386657587,0.874126231493703,0.873326258624367,0.873039366643345,0.86492271184698,0.864524757140814,0.865404410596734,0.874025496965337,0.874231326924183,0.874573791264309,0.910701900482577,0.897014513756951,0.897957904417549,0.897963336712945,0.898299656155283,0.89937163456884,0.918051394058559,1.01164682233046,0.00392130665208845,1.07617777540744,1.07613999494934,0.918646533126671,0.883904315133029,0.884434068675492,0.884757842673364,0.885051698980834,0.885155169742865,0.887097896144293,0.887481297021413,0.888287967773119,0.88843887557698,0.889029139863777,0.889133171363896,0.889328761570715,0.889961708181184,0.890843880381563,0.891696399856905,0.892379175896489,0.891465726508765,0.892004139129332,1.07618723739302,1.07675263521914,1.06764717981698,1.06752048488873,0.963712962524213,0.945294124727599,0.916101368209057,0.916912567613473,0.91894172837352,0.920078841642643,0.920045589531098,0.919639286751489,0.919046493655499,0.920505703591729,0.921648919429076,0.922034589848136,1.08527546422781,0.928758047854852,0.92982541452157,0.930613462638571,1.12289887340316,1.12356804319242,1.08539459401862,1.12036086183777,1.0317030767196,1.09246660331152,1.13328562438172,1.08378288836021,1.059691280575,1.06155425771978,1.06139317053953,1.09525011525459,1.00964595925722,1.00976586443016,1.00977701633504,1.01000896862406,1.01504749042078,1.2779575999391,1.06368960106736,1.24932567130931,1.20141660619675,1.20919788238798,1.05017985131808,1.27109400124607,1.09468554938845,1.08780244162839,1.13333374417483,1.06144470202269,1.06151733266253,1.06624672292919,1.06780711761967,1.07244310711231,1.07512373648467,1.07579657289766,1.07967175440235,1.08437679954937,1.08436671185248,1.0858666119071,1.08695973027162,1.08751795873477,1.08616415342707,1.08565978558227,1.08793505949068,1.08788622182756,1.08732949926212,1.08718925209031,1.08673998781506,1.08733157182311,1.08802846945612,1.0885630175903,1.0895937320269,1.09099361386924,1.09316965439347,1.09547779006699,1.09666519301079,1.10815803101569,1.11624674244485,1.11799007395982,1.11678634577937,1.11589331004938,1.11563253251067,1.10749475503469,1.10534241152772,1.104113142636,1.10351886045316,1.1044079983014,1.1042088586055,1.10816925195132,1.10799262965236,1.10816652634019,1.10599814632107,1.10552973214215,1.25589436461619,1.09738272207765,1.09644609109747,1.09423578473406,1.09259228131108,1.09275999400967,1.11815283091126,1.2146250656808
0.879336133119329,0.881313446653832,0.882211952657439,0.88333427144926,0.884732277156874,0.884680079198328,0.884602092036676,0.884040216162208,0.883790626770951,0.935048019701283,1.01832325522367,0.936289447106904,0.876380387012068,0.876203214467918,0.875927001672098,0.875607325379321,0.876196614794168,0.876458783254661,0.877508109440441,0.878088091947171,0.878821415699248,0.879623977928787,0.880829353794085,0.881396315310019,0.881968359019947,0.879864505366623,0.879891629480565,0.879427173228364,0.880043994347122,0.879594170101464,0.880070060417595,0.879348141257598,0.895018917428546,0.873526424091989,0.87411142533245,0.873483830698626,0.873715684332862,1.01350089391873,0.873299442582649,0.87347717399416,0.873721211929884,0.873582735246958,0.996107537433726,0.897487535967416,0.89741421106455,0.896955972673016,0.89671377497403,0.91302973578409,0.968185466795766,0.961966178348664,0.938080081084542,1.07784330643043,1.07842980596782,0.915665287935906,0.884815714435277,0.884664203577549,0.884916862557252,0.88490704288879,0.885687262463129,0.887212669746574,0.887668808771366,0.887938592093076,0.887805272235371,0.888207381027986,0.888440860801427,0.889929850349191,0.890454876837656,0.891180744448187,0.891132671145336,0.891502536798623,0.891341862863948,1.0760021844013,1.07609476546783,0.901103484343941,0.903359706387879,0.959678854535209,0.953251402907622,1.02835070993462,0.916618013985315,0.918275872146312,0.919409356590619,0.919623113532289,0.919437361845982,0.918260992897132,0.918542352954714,0.923167727576877,0.923499272453113,0.925095238150769,0.927248349122275,0.928627797921647,1.07389856901827,0.93633550059957,1.0229137862327,1.06246263145659,1.08017634979697,1.03264059697772,1.07598228665098,1.13479960810488,1.08502879387775,1.10326783509822,1.06702617392362,1.06708683579758,1.06786712800519,1.09161815165038,1.00852673490876,1.00778190278963,1.00631715738359,1.258276779698,1.1779090563179,1.1825812080221,1.19417270984663,1.04582951360037,1.09103437518623,1.13668434918846,1.27302180088957,1.08138500987513,1.0773398841484,1.07055237298875,1.06575623378405,1.11457180032766,1.06659828184897,1.06804573696471,1.11075184216318,1.07635883741175,1.07616750544501,1.10926347949594,1.08425039491983,1.08455514200407,1.0856224102377,1.08681226486612,1.08829019980315,1.08812187292762,1.08959702425432,1.08992767590651,1.08904988269988,1.08822597640158,1.08769232946356,1.08727467796179,1.12701937376951,1.16081900852308,1.21826763447609,1.12779609189679,1.09300381709279,1.09390107723225,1.09520734621387,1.09592080509308,1.10449177688081,1.19340976662739,1.11999837911338,1.1189837733799,1.11624810065074,1.11501257619944,1.23794591797303,1.23796893647624,1.10406929865672,1.1038859740295,1.1050146964375,1.10538386997779,1.10789521206656,1.10853830121455,1.10830435093131,1.10664013506517,1.10383674772411,1.12651561110381,1.10569774270974,1.09401695806056,1.09287612809588,1.11359692714989,1.09422750240522,1.08220518623723,1.11610973261647
0.879156520934515,0.881332331935239,0.88248662692955,0.883498206288971,0.884395353112103,0.884730743030196,0.884855220618038,0.884770193811305,0.884837949192999,0.91968403331424,0.904307393053189,0.891423304206414,0.876767170285336,0.876236980019192,0.876400636965385,0.876568584287924,0.876982886081427,0.877582426339631,0.878830928866653,0.879385279904825,0.879899803748652,0.880541267103002,0.881356648859486,0.882078532754929,0.882460681713771,0.881859869146366,0.881272465294222,0.880538647294051,0.880524250691583,0.880664275446869,0.880127293926241,0.879444624566737,0.877916507621203,0.875028417811458,0.874132510506198,0.873680660673534,0.873631823211702,0.873515688954908,0.873498340370737,0.873542529838403,0.873535004389815,0.873499207106193,0.905548588037056,0.90119196352384,0.896335873216703,0.896210923043473,0.896043522025073,0.904341046654388,0.95813683126021,0.950647192589427,0.938913750544657,0.939367252634985,0.939663849293365,0.928552882132115,0.886264106117816,0.88512740906401,0.884935421842498,0.884857054144346,0.88541885848582,0.886114165630104,0.886899536906338,0.887408057286403,0.887562280674452,0.88772848515739,0.888141822257041,0.888886722059573,0.889831222485872,0.890628041933705,0.891003610490666,0.891433796812133,0.891826941967009,0.895335661442479,0.897621417175654,0.900132623573812,0.902236827904978,0.934828599413824,0.941146460686929,0.985561735363498,0.968134520527409,0.9510121421246,0.918748108454031,0.918614230972918,0.918783088898101,0.918985547707635,0.919968428410837,0.922718466995254,0.923836171863142,0.925182253814384,0.926883926877932,0.928180033242641,0.933829968275858,0.936013257770838,1.02880146077719,1.07150162583405,1.07699931732496,1.05375451077635,1.06225239571089,1.07017607148122,1.08653874417148,1.08696749059934,1.09018751354412,1.09095257928572,1.0885908016811,1.08875629041897,1.05063622538067,1.00412013226032,1.00400975650036,1.06548473031959,1.09084199717672,1.17969198328731,1.17992331882836,1.10755799269784,1.11270685794849,1.13733872655171,1.19352201864928,1.1177254910024,1.0738776169078,1.06813065089337,1.06580296439209,1.06562688362468,1.06672731986394,1.06762461261199,1.07074980429319,1.07420416933615,1.07572007174255,1.08370030032415,1.08390829231604,1.08431640992777,1.08575998115729,1.08686218536832,1.08825601631334,1.08885187450479,1.08985926197713,1.0905705974262,1.09054516100341,1.09632866842101,1.10052731139828,1.10716178021819,1.11561089167798,1.1356297124615,1.15067801029584,1.10563424762845,1.09437667746213,1.09429508413267,1.09473106132507,1.09508350817586,1.10074209362923,1.10153960971764,1.11999436650643,1.11839724715651,1.11554095197449,1.11171947751077,1.10656510153974,1.10405695123592,1.10384078606726,1.10424760041357,1.10568335617284,1.10686981607611,1.10838364415281,1.10901641376548,1.10883697139681,1.10828074372333,1.10480712605338,1.105390227941,1.10562207634414,1.092698742221,1.09075823830298,1.08878706155932,1.08800489114645,1.08373018612043,1.08434075724216
0.880294743013319,0.882672123143381,0.883275946471758,0.883962118341228,0.884718939142533,0.885007239016818,0.88523164387789,0.885165225449185,0.885688192479964,0.942998793664402,0.869329155783374,0.868317300732426,0.868739431598865,0.874818166766352,0.876751547331966,0.877257874699598,0.877710004762139,0.878168789960904,0.88095172959759,0.880854043379524,0.880781528953927,0.881461990914648,0.881837808103182,0.883221234134821,0.883862902598958,0.883882495093511,0.882956733817953,0.880679376029527,0.881456898656083,0.881767675110474,0.881517218766251,0.881178792612084,0.880922571001865,0.898848508517865,1.00936665774375,0.873470300133922,0.873555755963729,0.873450937818846,0.873422782102086,0.873344823932306,0.872797531874964,0.872873150475874,0.909232973730394,0.908807919689161,0.895081015520172,0.895269708429368,0.895576781454719,0.895134546859614,1.03537834962657,0.939543221326841,0.939531114925763,0.939785297465986,0.940197559655618,0.944236664825958,0.888355556067506,0.884501142588118,0.884528114778955,0.884073288910655,0.884764181554013,0.885232040352838,0.886152095547391,0.887561939677356,0.887097755644915,0.887177549241096,0.887382541289344,0.887611373343325,0.889170351062511,0.890354602444739,0.890513620598194,0.890677521530112,0.891193098720379,0.892682697616873,0.896753307037255,0.898318066391463,0.902247348012098,0.905579783759972,0.936127689736934,1.18924716589623,1.0316847750453,1.03266879894689,0.917812984815963,0.916961299191546,0.917858868632663,0.918536285745657,0.919384212186986,0.924024637267908,0.923989783860216,0.92439792646583,0.926575028616537,0.928626741775655,0.930619396058356,0.935412731982011,1.03478649367401,1.07507224942751,1.09499035315904,1.01704606086047,1.03182733641669,1.04221837731594,1.08817017967669,1.08386800948028,1.09109057730256,1.19007152410488,1.0846843193283,1.08765628632969,1.08848334083369,1.00599663889181,1.00614314494353,1.00807301160386,1.01779875509646,1.22583993250879,1.18280462018508,1.10277147623684,1.12116593090077,1.13823236077777,1.26028802141563,1.13967470534807,1.06983591385487,1.06430478548219,1.06421171100664,1.06299396679505,1.06634754732928,1.06732009007365,1.06896740759057,1.0733995260764,1.07745558090935,1.08271065273101,1.08311855769764,1.08285501065603,1.08674108135902,1.08633864449234,1.25967515376777,1.09736886789647,1.09052251403627,1.09142243677449,1.09163718253096,1.16046780251729,1.12574081633176,1.18395194646227,1.08534427482606,1.0968447536752,1.17594332784326,1.09735675265088,1.09531870437201,1.09395858850201,1.09392357301864,1.09479282259297,1.09491340963814,1.09565494560042,1.12109121018618,1.13821746643797,1.1160821417065,1.27916607135741,1.102713597482,1.10246833902954,1.10336051385953,1.10351401207698,1.10557512687031,1.10728526616994,1.10914442907377,1.11018924131733,1.14270129474377,1.13859333208124,1.09734587679386,1.09718830660711,1.12774122548151,1.088542520691,1.08839197716607,1.0878279948005,1.08740504242494,1.08399993341717,1.08317059977892
1.00135575616469,0.884134863990201,0.884069478964774,0.884816121203913,0.885612997532679,0.885679368282701,0.885905620081844,0.885792782917703,0.8858904406279,1.0218911383373,0.899000794614517,0.869594856861588,0.869911385028817,0.871295907290002,1.0585941416992,0.877323419299491,0.878223574949189,0.879303448336297,0.881378434092459,0.882315379747127,0.883459855888381,0.882277022619024,0.882673486398512,0.884150315602301,0.885111840310767,0.886169763350707,0.885894610952999,0.887066070047039,0.886568374141889,0.885068397258739,0.883931919570754,0.882763318724266,0.882148018196756,0.882508449366712,1.09338948660791,0.873801341301486,0.873574552958671,0.873080506924901,0.873032176709307,0.873028146057765,0.872130415555967,0.871432710913908,0.87152232928422,1.10515481905906,0.894844409136006,0.895218058591142,0.896233807766939,0.895550770335942,1.01386810218322,1.00012584969098,0.939215592620939,0.939257533687406,0.938822973077682,0.945471747689761,0.961367140634679,0.884245815517156,0.884340071800389,0.883813147730099,0.883965776043679,0.884301693841709,0.885479506478532,0.887120734564539,0.8870602198303,0.887677830377195,0.887814254287019,0.887978306933275,0.888793787372966,0.889188445559908,0.889967485879941,0.890280247721817,0.890835494503279,0.891829739190022,0.895617543407462,0.896737935356438,0.901275923547566,0.903011613655248,0.903410551379178,0.90398790451698,1.11294082776848,0.913851986121283,1.12715809327444,0.916007629677014,0.916714032466587,0.918266406205431,0.919992044895471,0.923991006702364,0.923736953664976,0.924535340133932,0.926287889792019,0.927290888142169,0.93149853825886,0.933448209079839,0.934967464549119,1.0694351178042,1.07881049204124,1.01775898137973,1.02621460472498,1.0183727250664,1.07395550052361,1.17601196490588,1.13356252278049,1.17936866211268,1.03532375909867,1.03714399985566,1.08783744643049,1.00543816657797,1.00664984736023,0.997756805957501,0.997977652478276,1.01122891082871,1.1848136124591,1.27018077446147,1.27635197051079,1.05166683227048,1.0665346251998,1.16983191499712,1.06638414069156,1.06626218879063,1.06490428452991,1.25639501706092,1.06602780423278,1.0666243881006,1.07121773200973,1.07280631734908,1.07908235467446,1.08100230497485,1.08227934987508,1.08259165299832,1.0877454068219,1.08792820019859,1.08892867698107,1.0901368936783,1.09039738281208,1.09106919365512,1.09109544035634,1.09654006748081,1.09500853102967,1.09581506989406,1.19260015171834,1.1925771504832,1.28265879946353,1.30015341925189,1.15905762211262,1.0904109569969,1.09182400592908,1.0906123362592,1.09091625551641,1.23707866073728,1.25960133809227,1.1151195338759,1.11190029196408,1.11250728792775,1.10291201950981,1.10257278803989,1.10279394165332,1.10242147979379,1.10479377554008,1.1063855854132,1.10779011759108,1.12183194200257,1.25442693503681,1.09848325002488,1.09608685382706,1.09411873335381,1.08785771170467,1.08717368472654,1.08716991841078,1.08754787971071,1.08624013312884,1.08457942527295,1.08503803436134
0.885741611496517,0.885301646708683,0.885256327239371,0.885366340983304,0.886095056514632,0.886538906561728,0.886907515144741,0.886759632908158,0.886350297393596,0.898723701236123,0.899663775520481,0.900067035351545,0.870311844742219,0.87115954463313,0.933693662579045,0.87412496665425,0.893105501945816,0.944407340819392,0.888309792539616,0.885806490964997,0.885041535378923,0.885333665291459,0.884442521101064,0.885312507597677,0.886664069672444,0.887585274617965,0.887545511877991,0.887678507628236,0.888148745017881,0.887024163841579,0.886873954301509,0.883969291578724,0.88286148840722,0.882668781629317,0.923954098047407,1.10007060716344,0.880587758716736,0.873219521380229,0.872196092773068,0.872157458329201,0.872459994490205,0.87273878003836,0.872677750920586,0.873435644323949,0.895508149988812,0.895928909389576,0.898292958847645,0.901634704625507,1.02298849701055,1.0349776101087,0.93684002488213,0.937112667585261,0.938716495804296,1.07968375589036,1.08186492387175,0.938480918541711,0.913539765047869,0.884384112557911,0.883462281730601,0.884119505161403,0.884844692103894,0.886457553022174,0.887377352550684,0.88769237976468,0.888108401121873,0.888248022233749,0.888871487362277,0.888627767425729,0.889675405620597,0.889715002954139,0.890794303882789,0.890916686680957,0.895252274771779,0.897256508264403,0.899597242436788,0.902165572413072,0.902821458406872,0.903565575025291,0.905041788518077,0.905984203502433,1.22702507685826,1.22655895216834,0.916771913798001,0.918211063299973,0.919458108517845,0.924058035486139,0.923378655003008,0.924865820023091,0.926598060349553,0.927237162045468,0.930997502389682,0.931575717567482,0.933488750399241,1.08189597701197,1.06850014766626,1.06933979891151,1.05158359540826,1.02014492974355,1.0189477066968,1.1988062022406,1.02964235403332,1.03081450291455,1.03686685846037,1.03776318398294,1.09771656990048,1.25209059973611,1.05363243871722,1.0057503038547,1.00050826387036,1.00115777170611,1.16554967385903,1.19092790362511,1.18344339782882,1.13053410623379,1.20585136291399,1.05602927369711,1.06425447830375,1.05440757290313,1.21348150282946,1.05790493097014,1.21452148241638,1.06643798106642,1.06939720245903,1.10997537332171,1.10880142905469,1.0805833968187,1.08233496081483,1.08363501302461,1.08622101134099,1.08757072211721,1.08855667722128,1.08937296702589,1.09048002717828,1.09007445643967,1.09058203939738,1.09186626855803,1.09197983182355,1.16667283185015,1.29659727720349,1.29836868319536,1.29558227909574,1.30215767090232,1.16004166339231,1.08822319528662,1.08857132670429,1.09008216877641,1.08802605181677,1.26706785589757,1.10080617180668,1.19268267749972,1.1116419747746,1.11164196509664,1.10342313372195,1.23990801413965,1.10123109612922,1.10248088032311,1.10388828439432,1.1035247470362,1.18931638480654,1.23174952087282,1.15131045718091,1.15414199990155,1.09595609238596,1.09546287756089,1.08692594899562,1.08703847711535,1.0857289200822,1.08434954228284,1.085101252188,1.08625290100345,1.08561961191321
0.887767879509119,0.887756589621983,0.887635907194117,0.887602536659542,0.887687053219053,0.88803087961809,0.888504446441346,0.88882471613133,0.88778658785866,0.920990173110837,1.01729031500901,0.909514372403373,1.00032855545912,0.90512650675531,0.901999399787733,0.933549765237306,0.899176479572623,0.900715628252932,0.886025243985917,0.885938217128674,0.886704020886861,0.88616137331813,0.885796283710722,0.886236114084361,0.887864350894663,0.888340333621417,0.888680840384189,0.889777942478186,0.889764772111032,0.889449246416553,0.886268963610148,0.886248529019634,0.883446476768876,0.882759217902706,0.882842226052179,0.883810501117037,0.887747566207473,0.899733664184904,0.872259512203748,0.87194272114612,0.872254200808446,0.87260680335057,0.873040152865587,0.87343634337386,0.893950742031078,0.903662067203702,0.899786785583695,0.898577669665027,1.02016018423553,1.01762180036991,1.01603335973042,1.09881956576437,0.930675413070923,0.932132689817644,1.08107177163368,0.969032519128772,0.915728869372225,0.915387456098572,0.883747983061878,0.883780352267766,0.884470005660173,0.885804049296369,0.887331163198179,0.888370023988846,0.889920757148192,0.889638736615703,0.889731785591324,0.88969680346902,0.889481641604144,0.890014745258485,0.890186877175709,0.891284443454694,0.89411253631723,0.897067086867735,0.898180895575354,0.90237250077231,0.90195653265853,0.902371118430832,0.903522691224748,0.906249483639532,0.906477294293906,1.14837586106793,1.22881597290728,0.919091994474414,1.23174644194795,1.23787572918739,0.921960737134706,0.924269176070865,0.925222987079189,0.927171919564012,0.927958202575826,0.930828538447348,0.935329539494283,0.937405022992712,1.07511693324212,1.07692483837438,1.06180662134191,1.05305345190462,0.973444367010066,0.98294550591472,1.01495311149614,1.02968376098637,1.05650583315556,1.05493134801864,1.05791454373984,1.22659510703658,1.10016526655196,1.09631282188703,1.00059319303202,1.00037788581382,1.00264445417647,1.00717423813813,1.27584277495705,1.19881483186448,1.15771846372823,1.17413346222083,1.17116414924783,1.22697949540641,1.17765106313219,1.08312797662885,1.05902257176265,1.17795274520178,1.25224131496358,1.2635103990599,1.18888554939751,1.10678556572492,1.10668885450281,1.10579112948891,1.19832796541098,1.08842958830917,1.08762951357583,1.08691200229751,1.1521497981339,1.08585403082417,1.15144835392173,1.08436055166252,1.08864482806789,1.1507196224011,1.13635405539068,1.15694818500345,1.0789302301069,1.07874140014523,1.08069489741346,1.08200284905432,1.08294005142301,1.0850021855539,1.08660549872918,1.213461275841,1.19912397753804,1.09872860250903,1.26716767656131,1.15401406622766,1.1353623173819,1.09720162095992,1.15927860837166,1.15902262786819,1.1348675170984,1.15815315614619,1.25570688749109,1.24033577593912,1.16848984383012,1.21405140356958,1.09458149065683,1.09437750513961,1.08498717079092,1.08486471936502,1.08459769535451,1.08382730395071,1.08550229241209,1.08573973763735,1.08677585643439
0.889464251161051,0.889756651946682,0.889560337770533,0.889050058938487,0.888389416001639,0.890231447371929,0.890179647376392,0.890549295717205,0.890717469670951,0.891127582075399,0.891124329869538,0.889953352785528,0.948347483759789,0.886598631651927,0.902759266105846,0.918483883241885,0.899584298618483,0.900877633169941,0.886414339114909,0.886755680034182,0.887739193866674,0.888223403395886,0.887444535103846,0.88831019492653,0.888211806706111,0.88888145340553,0.889319780217504,0.890015376320563,0.890801481496155,0.889459777435131,0.887328941687487,0.88610950146944,0.884123466895135,0.882352536758317,0.882104078109631,1.15621273648278,0.905311661376071,0.902381897828281,0.999094650688088,0.873203267822272,0.872657274911473,0.873146516788259,0.872704370960131,0.873301969814097,0.873303818993096,0.89796425194279,0.89715660117208,0.895706771386594,1.03148496588456,1.03324667004726,1.01401094139656,1.04522360420942,0.968638116691864,0.935281659290348,0.919002520661711,0.919084940846439,0.919969222453157,0.958598872159413,0.973738106013805,0.88320348129834,0.88437690031709,0.884904395552485,0.886434548379575,0.88856422591105,0.890147551268319,0.891392870298627,0.8908688310648,0.890273967064698,0.89059937099195,0.890627754548951,0.890704623719189,1.01308702332441,0.964155490596106,0.898725502682752,0.899629062632363,0.900393622842129,0.900490665003229,0.899044588789966,1.07356192340888,0.906488678615264,0.906263145066958,0.906755091091327,1.17550007923303,0.924466289693271,0.998061245433004,0.939847916555543,0.921021842878621,0.922269421016626,0.925097840181061,0.92673286491864,0.929165384971561,0.930153669681952,0.932970670481938,0.937880305076121,1.06740564402214,1.07779784187617,1.08403381765288,1.15981550110021,0.974801323145056,0.975876185780453,0.986224060660829,1.17993871683304,1.17847994077475,1.05628044440408,1.05629363074246,1.10016348658941,1.10179906411307,1.0026237042134,1.00075595636718,0.999218612477132,1.00490075117505,1.00532411876596,1.0036418404031,1.0039834561425,1.27324456140768,1.16667375204275,1.16859333456178,1.18198076559208,1.17812268385475,1.06812347281866,1.06093157661822,1.176726992638,1.06078554104869,1.30734408261697,1.27381677962291,1.30590286878737,1.10801310912801,1.12753953835827,1.10178764289316,1.07881991386677,1.20969043750541,1.24502069822104,1.0828800400633,1.11289549026886,1.23452168438945,1.08985797282659,1.0875352158914,1.08221893783121,1.16621494979995,1.19519509361816,1.2062266056005,1.20744788445393,1.24539123751303,1.08152742271177,1.20967033286572,1.08007668564424,1.08835761064223,1.21174157583863,1.20469294757859,1.10179888934278,1.10299904895522,1.10304554872503,1.15522252235113,1.26422418546384,1.15952478334733,1.09141330065743,1.11986957166408,1.15764084243258,1.25552806097074,1.19105363816133,1.16683319275538,1.16534480456944,1.18061262369764,1.08187530316209,1.08251685386009,1.08316647040635,1.08314070186017,1.08327189054951,1.083592303905,1.08445939274137,1.0837619408073
0.890069156289521,0.890866450665631,0.890960936501528,0.891153842659105,0.892931790925778,0.891746916170281,0.891573779364785,0.891914316071807,0.89228519520117,0.892293223355186,0.891278854151705,0.889240200062184,0.889825314127229,0.889701182515421,0.89101881180073,0.89225104253279,0.893166380412572,1.02668186431704,0.889587036378571,0.888694560878608,0.888404740778846,0.88809629148988,0.888570826753972,0.889044159708559,0.888880856136584,0.888717417218175,0.889322366724232,0.890358015668089,0.890419249778922,0.890776349879664,0.890364365816714,0.891007699998425,1.32109139763417,0.89139932984854,0.891522610124811,0.906933254551587,0.906912196911079,0.920676824168333,1.22008045094062,0.996116631835817,0.873594029439435,0.87383938216576,0.874782741336943,0.874473345445162,0.874822277123128,0.89252923940998,0.89486373342832,0.893852591593557,0.894247124436681,1.01293319479212,0.971893395391646,1.10778756036324,0.920133474845228,0.9185351072405,0.919084235966249,0.919300822281651,0.92149122321108,0.992152859806978,0.996975922551532,0.936064696747756,0.884980709604589,0.885429228707567,0.886408048930245,0.886868510928053,0.891248593661202,0.892518923860013,0.8921414386609,0.891108896942588,0.890703602073342,0.891371913045316,0.963617382615456,1.14109821181517,0.977737231490868,0.899734458652149,0.901076627376996,0.900830387120283,0.900466563699505,0.899084086071647,0.89888846880093,0.904659969979243,0.906350372679326,0.905587890023064,1.16289119027562,1.12167975997942,0.966318142200737,1.27428902599065,0.921376709790385,0.923521572879685,0.924464070587075,0.926258249289517,0.927432581811838,0.929970299895243,0.930941813072519,0.937674285778375,1.13773175572129,1.01350121918903,1.09421913436104,1.1245802923924,0.967489385601632,1.02650020744886,1.02659230652444,1.1505354808835,1.16711070600895,1.18279487597245,1.12766424407774,1.11599541916198,1.10279575682084,1.10143935008159,1.1841220138222,1.09794807516947,1.00587698088065,1.00609409377409,1.00177655399039,1.00205230557615,1.1415824563575,1.12099061543442,1.10112464701319,1.07716576712633,1.03797259429897,1.08091717909416,1.04597072476129,1.13023106345244,1.05349692517752,1.05477716431404,1.05562034135102,1.10373748407587,1.1072619866891,1.16583831649565,1.19960754143833,1.07024086827569,1.18410044610655,1.23478170261654,1.2469927552563,1.14367656764455,1.14113879574764,1.22229022724839,1.09958618066674,1.11141715751637,1.15604352225809,1.16524302459066,1.20718543031436,1.06501961897268,1.15337799446289,1.16164215585949,1.13536335862428,1.07550080656267,1.09010527567623,1.21018259860758,1.22025727247006,1.10265597972209,1.10567308579749,1.10580015375091,1.08541406712628,1.08422631208257,1.0831271804982,1.08553884656939,1.11026655230253,1.18706147130693,1.08910930679414,1.08920218787728,1.16834642386136,1.15263363864594,1.13761428697834,1.08092773968082,1.08225746549891,1.08294055407868,1.08189040460672,1.08186483029902,1.08224904139629,1.0814361828678,1.08286582682084
0.89088400250629,0.891447750934951,0.891722310074588,0.892596289121586,0.892581784506453,0.892860284431013,0.892477673672162,0.893268338339713,0.893041913156914,0.892845082448014,0.892486325644498,0.888319869140822,0.889406481508724,0.890253834223376,0.890892736390278,0.891178877899961,0.890871658014661,0.890746361075304,0.890252793970419,0.889317959865767,0.888400292316108,0.888261633536041,0.888211708636825,0.88964442169506,0.888555239662151,0.885234578957789,0.889510805389859,0.891113672418309,0.891573821612099,0.890443366804943,0.891154375750171,0.891130316462972,0.892128040613412,1.24882480681906,0.892452012233868,0.893226620646613,0.894223956254257,0.89484531402561,0.896925565705416,0.953621597603712,0.874342319974687,0.875042672247664,0.875241807811171,0.875478451809369,0.875651419695935,0.875989328410672,0.895060621393176,0.893917264218196,0.892154439560441,0.891467511357981,0.891193124028217,0.958018866554681,0.966803542968964,0.918229299373235,0.918706996822903,0.926450998987003,0.925511120152915,0.927053764951395,1.32793652502504,0.98370436644539,1.10234943898083,0.885790419281201,0.886213591497193,0.887614726599218,0.888729935442314,0.893879053115148,0.89436184083584,0.896549530190722,0.89237248047124,0.892262896136625,0.893918768946239,0.897256764693191,1.12420550777489,0.900134591591029,0.900940681774355,0.901416869265885,0.901275003164084,0.901353784405248,0.902340855837132,0.905196685608836,0.905459822216971,0.903683807508409,0.903538123773672,1.12187624273184,1.12374984614055,1.00140560404481,0.922333800504006,0.92394081000404,0.924923749548493,0.926613336456417,0.928010061673893,0.929603589018646,0.931482076738644,1.23688683559387,0.971646473005144,1.06142790238563,1.09859493155929,1.13529531206967,1.19512551615245,0.973247821142501,1.1459903216521,1.02890212241707,1.14103506875491,1.13080060494661,1.07437405890485,1.13549432466861,1.06699482655778,1.01503816376559,1.18174454304871,1.1803585167896,1.1506167642203,1.00680368975913,1.00260450107153,1.00172333091505,1.03749911150582,1.09535563780096,1.08333430762146,1.07935684104135,1.03759768081828,1.04253974867081,1.04591882969802,1.04646410793255,1.07299550367494,1.05647914435736,1.05723941273159,1.05837295777169,1.0599170302129,1.06070280093757,1.06316685941338,1.06406287065627,1.06704630925518,1.06875656174303,1.06949340311932,1.06864132800645,1.06734266209877,1.06713653212387,1.06695758444082,1.06573358037992,1.06521481358201,1.06545093685002,1.06548634264242,1.06603515107719,1.06646357198486,1.062933818069,1.06445539696462,1.06539565662119,1.06688089293559,1.06770065532717,1.21376128512605,1.1020577143739,1.1083910085387,1.10723139525815,1.19800201975488,1.08142216984606,1.08028557652718,1.07960614946107,1.08140689600249,1.08443331540896,1.08539481626158,1.08748205858175,1.14716125869587,1.08563780750658,1.08194835745508,1.07772702275438,1.07713710525801,1.07699329879024,1.07871114907682,1.08047579994873,1.0799436832336,1.08065653349367,1.07976719647399
0.892219482591989,0.892626363933367,0.893385487205485,0.893477880253981,0.893473240555938,0.893147045741387,0.892612633200404,0.89331470275551,0.893514750691237,0.893340429571359,0.905082453358384,0.885140213428862,0.88517301497175,0.890435844726242,0.89055607459121,0.890924048523126,0.890870492351438,0.89120456062635,0.890766792349255,0.889475324712633,0.888988721760986,0.888658463677642,0.888924201282441,0.889675971922038,0.890232385658472,0.890655544219581,0.890268973337452,0.890850402886536,0.890604724511564,0.89108445988111,0.891066654594434,0.892124702055985,0.892074289829665,0.892317301178589,0.892823820032883,0.894707686430485,0.894544974028722,0.895406047737394,0.896759144946313,0.897770511151202,0.898392945593239,0.875820559505288,0.876007164327473,0.87652639695671,0.876568555509102,1.05257768042375,0.945814824380964,0.978319543258243,0.891955773191357,0.891509653774267,0.888579678648346,0.887737408615073,0.978278114912033,1.00680572638563,0.921033191612239,0.927164633697591,0.927234908297755,0.928627886176797,0.929815482452735,0.935045230981609,0.954600695120548,0.886655753746457,0.885901832456262,0.886277044713294,0.890437848212773,0.893145611650445,0.89405634467868,0.898455987542998,0.900508852169774,0.892565960986449,0.893157407294639,0.895129550784258,0.896981193560578,0.899377592887328,0.901970681599402,0.901967450922373,0.901959264388944,0.902054899370413,0.903164535569154,0.90577307843563,0.907008865667889,0.90890973632132,0.910136055033024,0.911169633639714,1.11206838748919,0.999840328558735,0.923378202056441,0.925139917740902,0.925611444021879,0.926992895872864,0.928135080559046,0.931129107870288,0.931549001493262,0.932674161412148,1.28221360818269,1.33365950038462,1.10480149342711,1.11782309695434,1.11778525188464,0.974272143410954,1.16305783714146,1.17514390949162,1.13741619988887,1.16517212318162,1.02577310978538,1.02620627631029,1.02742080901406,1.02357400499664,1.14221127332829,1.13080392477377,1.15149855415694,1.15344291349109,1.00667747340236,1.00644880974168,1.26243521606496,1.04068794556018,1.0692644912597,1.0376127000029,1.03824912317047,1.0435709333443,1.04935719813379,1.1167419833514,1.06188315496525,1.06141018455839,1.06120750352362,1.06015067446721,1.06050704823016,1.06003926716797,1.06096076475754,1.06302968809548,1.06804500589643,1.06994004228211,1.06981222443042,1.06936574240615,1.06813704919487,1.06888134824801,1.06782789428761,1.06709859980443,1.06617808942587,1.06623412783675,1.06591107393237,1.06644110051177,1.06608529706423,1.06377551506061,1.06495597558378,1.0661289280501,1.0670407117701,1.06687447439653,1.0672733170122,1.1902689443994,1.19112683875051,1.18583151164788,1.14084638489314,1.14388481018783,1.07701645652742,1.07887777409741,1.08028152811719,1.08298421717649,1.08621665724014,1.08742221857119,1.22262750360577,1.23276087411934,1.07917935981517,1.07762167198043,1.07710182763568,1.07705347796459,1.07466686961518,1.07227380937894,1.0826287167683,1.07930922393268,1.07788467956312
0.893378310857479,0.893694783905826,0.894039997868812,0.89389746438065,0.893613697234518,0.892676784889775,0.891873223514174,0.892680432904393,0.893109443146735,0.89293351368447,0.906324816482783,0.885339443755227,0.885160149544596,0.885217592220336,0.905843610791995,0.891127010139386,0.890613627384272,0.891032645919296,0.890752002327032,0.890427350274423,0.888838442717419,0.889168662334291,0.889808787258209,0.890566713162687,0.890543683956215,0.890631938792174,0.890516798118782,0.890577128981744,0.890899838349857,0.890425888210673,0.89131954442505,0.891643689972832,0.892049750088322,0.891902156342144,0.891886779547967,0.892145734734133,0.893898837542198,0.896142702446342,0.897073375051665,0.89769279856546,1.08594875544659,0.875136492008139,0.875466870753382,0.876795625053806,0.87730995556002,0.877489399870667,0.925695435380207,1.01495632443934,1.0146973657111,0.985576529332716,0.887060474359688,0.887275062089708,0.912844545316195,0.913333337254837,0.919214337123861,0.956171334390614,0.927804440110145,0.929971144895927,0.931505497806743,0.932822170188292,0.932896721502099,1.11105906513139,0.886033099338264,0.887099777734486,0.88933831093671,0.891601323436154,0.893280276711286,0.8947381728287,0.900785399222428,0.89251710375546,0.892203320799309,0.893112789556003,0.895444428109033,0.896982632414951,0.902165430401603,0.902323525826236,0.902409213727177,0.902799978696522,0.903491745439711,0.905971540326552,0.908026967824014,0.909379851403992,0.910613941533682,0.912242266285919,1.10597981219406,0.924071088346728,0.923622841079731,0.924298828696433,0.924602657403191,0.904592435416937,0.929325121665969,0.930264661665298,0.931672637118478,0.932604298676291,0.936292857514347,1.09879063653014,1.09924456352726,1.09961321377236,1.18588929614782,1.10027595749878,1.10064504469797,1.1476952941392,1.16544081120408,1.12376860708808,1.03141593610755,1.02978191181832,1.02777547868114,1.02454824618825,1.01969716171064,1.04037554803584,1.03996184656759,1.14493024123231,1.14308558556753,1.0131494000872,1.2608716024105,1.26088146709856,1.08178101641843,1.09138982592734,1.11012031813526,1.05270566235657,1.05309479303337,1.05358261926947,1.16559565385211,1.06692396443908,1.06634481583418,1.06138892176592,1.06169461135873,1.06098560367577,1.06167528435584,1.06400978840705,1.06535035672653,1.06778080453709,1.06931702996504,1.06931868536698,1.06887298417257,1.06832457059623,1.06805977641354,1.06756689836408,1.06585341392351,1.06550686655161,1.066484644191,1.0663564379379,1.06544774410097,1.06466613104157,1.06494835101537,1.06668762504217,1.06789477392465,1.06902897740316,1.06832645943701,1.06869168177611,1.09870946782527,1.07292850444725,1.21406398966516,1.07465132500294,1.07665343119691,1.07729938515003,1.07816193910375,1.07937024448563,1.07946319864462,1.22402111299602,1.22226048484212,1.14205727063371,1.07799333510694,1.07715706122931,1.07103574557591,1.07174728153906,1.07275137601405,1.0725283200688,1.07315773600243,1.07439769792574,1.074576995661
0.894620315552407,0.894660112303804,0.89468047770125,0.894162103817938,0.892961719933703,0.89164145558711,0.890343322845589,0.891132994126911,0.891605788339336,0.89098253690925,0.888689756555411,0.885882227346562,0.885462869293859,0.885423407464772,0.886228082494864,0.888710827013625,0.889635291696719,0.890171480574473,0.890174922114252,0.88983384639665,0.888942958128464,0.888856233933663,0.889767953370371,0.890247572139671,0.890463296181848,0.890569958378075,0.890580901033455,0.89070690702146,0.890806698335221,0.890919034097573,0.891142405814993,0.891471922985642,0.891701934156955,0.891631491794593,0.891580724046344,0.891877949725789,0.892740399749832,0.893847308837362,0.895608589753569,0.895302481463607,0.940307425509102,0.882228020020827,0.876022499600012,0.876543734227194,0.877159434351312,0.877640720490453,0.903831293107406,0.918362637882802,0.932472882167739,0.946838695687255,0.88624202215727,0.886510379362291,0.912391037820678,0.91270132485143,0.926565473343912,0.944411876013529,0.926213364356807,0.928429263177789,0.93058495110232,0.931860416405222,0.932243640611427,0.942469437000238,0.8863558707472,0.887150029499986,0.888882304446171,0.89079473921353,0.892233197809101,0.893661337306318,0.897093090556039,0.893679136799152,0.892591600283178,0.893001716581973,0.894646598703848,0.896935265100231,0.900261993282539,0.901952405383056,0.902609426529131,0.903457805282092,0.904611726609674,0.906567184474856,0.908549271584031,0.910147887944092,0.911601330903092,0.912588099677453,0.921133548368559,0.922011984991142,0.923051500359815,0.923921145574661,0.924114428394884,0.923024146580659,0.928520018536412,0.930173753276999,0.931700795383077,0.933203886636263,0.935220603716695,0.984532783473782,1.02474775874939,1.09601798635615,1.09710833911444,1.09988694995704,1.10088559202487,1.11528345639828,1.1322965214018,1.12986211900244,1.03408713801373,1.02915621457434,1.02646388432111,1.02299481955522,1.02148640517227,1.02689550710374,1.07623317769119,1.09621980996337,1.0731275550457,1.04977788806956,1.06249515764608,1.07075398429827,1.0743352798999,1.09805178196048,1.09980181589521,1.05366051203807,1.05374719504511,1.05397819523745,1.08154778873744,1.07286418469479,1.06571549480646,1.06422893268411,1.06338259362878,1.06272545831854,1.06293487349849,1.0637388104323,1.06472431143724,1.0660887650532,1.06755722927744,1.06827956433579,1.06830068504376,1.06814367044859,1.06794920395854,1.06746546572172,1.06644937588424,1.06576300986383,1.06565442639271,1.06534172467097,1.0648674805549,1.06476964205961,1.06569245264622,1.06705877264084,1.06855796467311,1.06997159343255,1.06845178517667,1.068206364549,1.07832994981827,1.07331538756941,1.07408616829916,1.07408536987337,1.07465688817152,1.07571874651512,1.07602820122348,1.08722190604496,1.11112758524995,1.11687341325688,1.11261415883943,1.11092792750832,1.07648085131778,1.07488721607173,1.07249331344064,1.07188697155594,1.07193951410627,1.07231875495474,1.07349496922946,1.0743496121966,1.07449878144927
0.895421138064951,0.8958371064545,0.895989694836021,0.895463177595653,1.18049438005217,0.923840778318119,0.888611650038063,0.891025737812058,0.892042028472592,0.892213440031632,0.888226827903133,0.886388827888412,0.885586433672603,0.885104833678504,0.885202903523641,0.980043499508867,0.889139874241663,0.889900037336541,0.889474281458145,0.890057258389321,0.887787284079914,0.887967074568385,0.889841901658274,0.890484535764345,0.890360674038949,0.890750884207522,0.890603503057026,0.890743976112794,0.890939300044168,0.89102336470822,0.891135463572341,0.891215106343619,0.891812233083675,0.89130272702262,0.890961780179704,0.890984790129905,0.891402573863624,0.891071447680345,0.889970347088687,0.893449156986486,0.984532570097417,0.896862909005257,0.875879889115482,0.876049644020906,0.876716828826229,0.877721683956604,0.877633976366846,0.878199394451846,0.878637840234357,0.98721970516633,0.884187461841696,0.883890272145146,0.961283731444389,0.912904128241227,0.942238573465418,0.991454429279283,0.924284210229627,0.927841174055746,0.93082523645167,0.932325441363539,0.932469534515312,0.951554485788894,0.885697576834991,0.886088022413012,0.888072517795436,0.89027304883677,0.89095411449626,0.891804822005442,0.89994881073083,0.908474937450747,0.892266555819782,0.892210562788912,0.89342003201174,0.895633951643285,0.89993101308316,0.90308201850148,0.902662038235347,0.903812065644002,0.904957617896558,0.906999129650518,0.909550327768008,0.911114596445654,0.91324936221535,0.913907154958616,0.919544132730789,0.920224509729194,0.92242380909016,0.92380432216858,0.92421573975688,0.920694644820626,0.925690093844336,0.929643708654697,0.931806419349417,0.933271358646564,0.935523920193484,0.93850644750024,0.999540011846174,1.09475626532869,1.0950055834488,1.09425311167106,1.0281236381001,1.10952646081543,1.1343768903565,1.13496748125463,1.04138384431204,1.1248143802249,1.06743986407297,1.02355092572776,1.02034284737406,1.02058833526437,1.12195515087818,1.128637626849,1.04516029203238,1.01996589706098,1.01978453040119,1.02505365292316,1.07033978030327,1.12406768022941,1.16348654667469,1.05393100389242,1.05398545886703,1.05369802184965,1.09574066607415,1.09696260051052,1.06648301858893,1.06584837255485,1.06450599026671,1.06342161811469,1.06349837406432,1.06321916908204,1.0637137310688,1.06430137462995,1.06642684174997,1.06782948306337,1.06759610110882,1.06743488397665,1.06721947661006,1.06734684102165,1.06632607428781,1.06530057055669,1.064804146011,1.06440408247899,1.06388763892437,1.06377731447046,1.15985539119446,1.08239933329722,1.07741383949293,1.07326689401099,1.0667348210362,1.06700540147735,1.17538426102344,1.072489917972,1.07440620831374,1.07277352403416,1.07189035565952,1.07544020842573,1.0752990725632,1.10976779028224,1.19724029950865,1.1346601765098,1.07216430612841,1.07225913031409,1.07221967317089,1.07353890907036,1.07193754380187,1.07107355958772,1.0706957633106,1.07154080161354,1.07420413613995,1.07517479102053,1.07430885987427
0.896553669638136,0.896665732722867,0.895652038215352,0.911906476186337,0.883734891204139,0.883908809187825,0.884680454463136,0.911203366700775,0.890927608705139,0.889126639148086,0.888806355174945,0.888200654534154,0.888157397062252,0.885500545254288,0.884900406983239,0.884459638135658,0.8876133458267,0.889090554870377,0.889449736848046,0.889042483986209,0.88899373729355,0.888386493297594,0.88936717963824,0.889789909650317,0.889873865752057,0.889638505145458,0.890424650799206,0.890699294929299,0.890987569714189,0.891331486909281,0.891240111217773,0.891341386723668,0.891347976183273,0.890729023730153,0.88997243241347,0.88999717330298,0.890743842369541,0.892382615815016,0.890099680035515,0.889941751106689,1.15247510702471,0.903808951423598,0.875912848164309,0.875403113910269,0.87565658259965,0.875749705470811,0.876368715335767,0.876475512946798,0.876814782445299,0.876803777477454,0.967449502105035,0.883624675224677,0.918940191012917,0.905792430325157,0.911108603357694,1.01919221153605,0.922614459092844,0.925073160909745,0.928772549248133,0.932102657995601,0.932515684305415,1.05758420487104,0.88570456765519,0.885258851873703,0.886158858373061,0.888853060088991,0.889450019631024,0.890924135154184,0.891560912888572,0.898224270930424,0.902783388947353,0.891320546651546,0.891920898295251,0.894565163019309,0.896797596706101,0.899601632680391,0.901562609126797,0.903573597928671,0.904743134947493,0.907103810529128,0.911633381630759,0.912641187150208,0.913674908002153,0.914624021251193,0.920465794540869,0.921343187267889,0.922718675317775,0.923764015281373,0.926242627086697,0.925126132948618,0.926511757697369,0.92824178640873,0.932782081685406,0.934073534167358,0.935682984892917,0.937184251341097,0.97532093049131,1.19585059900344,1.08024144469835,0.957446933839967,1.09763565820353,1.04615325642168,1.06365534582728,1.132961452634,1.13293693224258,1.08210403869942,1.07933641649615,1.10049019487052,1.1132227837553,1.11092536283778,1.02450464122706,1.0236888418873,1.0229427853137,1.02228472626434,1.02301885462393,1.02481905831215,1.06176305694517,1.28167796551976,1.12563663206918,1.0539590606324,1.05382836729157,1.05324370611918,1.05233202661144,1.12114372516578,1.08025455540566,1.06522347200638,1.06519362303025,1.06607387855903,1.06599150287188,1.06415707666523,1.06331051777142,1.06378442189805,1.06295440586799,1.2910695148278,1.06575621610986,1.06496777628265,1.06552250016324,1.06485702695091,1.06452519442771,1.06227043675375,1.06273439992644,1.06297639079764,1.06221652553687,1.06198144644792,1.0719813340074,1.0749538384506,1.11039854909169,1.21383138978358,1.06507911114885,1.06650352624146,1.09105228077416,1.07366180538169,1.07376672729543,1.07352176976065,1.07068433279264,1.10855475555018,1.06915921138566,1.06872331114758,1.06985278000266,1.10430875027684,1.1050223044827,1.07028892342728,1.06998688241951,1.06970062615382,1.07166167910816,1.06827249941386,1.06824998817955,1.06662916020339,1.11595404463843,1.07556128543678,1.07459864658826
0.898164904619771,0.898232915930743,1.17073165737994,1.00570487766342,0.884456282642213,0.884035418050417,0.884800690395367,0.885714374708162,0.886919967256216,0.887676279216765,0.889424913016772,0.889650283693099,0.889564261343839,0.887053457967863,0.885209275478646,0.884991807226074,0.885887225907894,0.893243513848044,0.889362909021517,0.889238426278838,0.88821481712578,0.888765600029144,0.889696454705496,0.89007594765298,0.890017830736448,0.890528666839222,0.890645633698947,0.891004936837858,0.890562378716572,0.890806013659345,0.891084100289945,0.890865259766122,0.890079012435096,0.889496421638235,0.888757068616542,0.888881396809185,0.889141763845487,0.889261737707845,0.890332426815319,0.890573323447637,0.89777486690321,0.887441328465669,1.07976011786047,1.14518975076003,0.874724117318383,0.87509258878375,0.87518550549713,0.875073391605172,0.875743818148935,0.875796236635495,0.875528335928737,0.875266805864788,0.874908162637658,0.910860619564489,0.910182485084599,0.912340698869293,0.921699358710515,0.984617876459312,0.955238865796253,0.932051606020847,0.932344176332706,0.932292890906112,0.916574336182952,0.884613888494898,0.885849430105977,0.886202860238158,0.887618869584473,0.886601797301536,0.891412649550735,0.896742667538914,0.894480559192964,0.891853077632959,0.891713089390022,0.893741882482966,0.895680075579034,0.898795377720715,0.900565609289064,0.901944382983303,0.903977674558258,0.909213564811133,0.915244807441384,0.917773564594666,0.915560804720103,0.915395459013762,0.921610370107038,0.922732107959209,0.923743430720647,0.925275714899665,0.928081586185545,0.926832465929675,0.927333543153258,0.929794133118579,0.93211337459864,0.937261554801476,0.937479499607211,0.937571070070845,0.941037682280635,0.940985496159551,1.07738186751807,1.07893603048097,1.06766875566311,0.974470002719717,1.13255493362502,1.10961802327544,1.0790117735065,1.07792090032857,1.07778325880723,1.10195346164644,1.09450202769633,1.09451971510028,1.03789620448192,1.07358626279404,1.10495062596497,1.09687127503919,1.09506994884803,1.02631607380203,1.04383886708863,1.04220643743706,1.04652351516535,1.05382373244289,1.05366451960336,1.05227843045178,1.05253080726262,1.05160288650853,1.06158569962161,1.06260440229233,1.0649010675337,1.06629598769777,1.06741709159129,1.06647166777113,1.05570944838785,1.05548836891971,1.1594633896637,1.05904485236527,1.14646334840387,1.06421013765231,1.0645174956696,1.06343547057484,1.18686956768728,1.06240833722271,1.06209440638627,1.06200015071636,1.06104319292865,1.05971178318065,1.07052296456759,1.29679249018738,1.13167409915001,1.28236852061594,1.06213578058508,1.0644315936399,1.07384024027324,1.07453084933449,1.07450419488788,1.07440701248013,1.06515495487037,1.06462056381803,1.06486121057221,1.06459731084533,1.06547150265301,1.18033423069647,1.15568293090194,1.10273376410541,1.19879781342035,1.0636930129969,1.06380269748344,1.09106919071712,1.06731542145089,1.0673357473449,1.09862952559798,1.14913779537003,1.11261018665666
0.897981353513172,0.898639932708283,0.983852074856369,0.984415371217514,0.8855183394905,0.884788363492382,0.884893123774648,0.884924090381774,0.885856309169421,0.886446460559348,0.890495804445235,0.890323569300385,0.88988768869821,0.889591326919725,0.885410329020342,0.884910861779982,0.88559260077599,0.885636546758773,0.888648768067599,0.888969374562619,0.889666735784647,0.889762118355804,0.890866972303928,0.890334791740169,0.890723504210691,0.890652386450234,0.890790655929251,0.890998571544349,0.890838724707654,0.890637265277216,0.890990382519495,0.890599148981899,0.890547331083876,0.889804456019851,0.887870356380155,0.887467142259077,0.887764149489423,1.21906548662059,1.20455358428518,0.884073076217983,0.882241468474228,1.00235706105414,0.879674379229555,0.985292643166602,1.04900405780102,0.873747931008516,0.873653905700946,0.872988158341254,0.873091080814066,0.874193854554466,0.873496008732877,0.872203944105504,0.870766755053175,0.871254715454375,1.00743264101106,0.913498576072937,0.922849958179261,1.00128019621165,0.927986103822361,0.931866750942087,0.932385435323914,0.93225404400064,1.11375791483118,1.08628083452584,0.887596350587657,0.88763485925915,0.887965004369913,0.887536321676576,0.888740624064323,0.89652200391264,0.890723789194046,0.900534333502975,0.892833889375803,0.893772394444825,0.895170008518395,0.898677416633313,0.900140497198962,0.900964912456921,0.911520692317297,0.91184069032027,0.912745078351825,0.922059821327826,0.922438050460103,0.922495307845992,0.922659072901733,0.924038444201208,0.924627265599776,0.926548962488278,0.928087817402195,0.928101542554703,0.926849601827907,0.932488446670331,0.9329210590727,0.938382315436737,0.937788797716334,0.938048072305487,0.940632237234666,0.941216408388931,0.945428516652029,1.06789897245564,1.06815770354865,0.968231707114174,0.977389884627804,1.09174257996008,1.09186649123876,1.07433594253961,1.06320565115779,1.04291127289397,1.04290563293608,1.03732451928366,1.03716737207473,1.08190879227393,1.04072982288073,1.04071795312472,1.04045117854665,1.04236615137106,1.04348520809195,1.04259028234402,1.1633000206207,1.0437218764771,1.04943794309528,1.04922518238228,1.05099448191159,1.04950473567988,1.27726704484292,1.18689808211462,1.15528746697738,1.23151776972108,1.16668420305537,1.26664976023917,1.17395126566843,1.15773544474563,1.15879672928623,1.12382289801711,1.1450937633162,1.26083183355387,1.12278848271813,1.26564845534971,1.15566503239845,1.11314894068321,1.06114595854292,1.14561990658397,1.17440305982972,1.05656299258192,1.18124530268079,1.06508790501966,1.10269296031577,0.0037993607075491,1.10614029285975,1.12449309768274,1.07197378760636,1.07456224543806,1.07335300479805,1.14471500154109,1.06469622411698,1.06428397930167,1.06475936519782,1.06393956218116,1.06627452811829,1.06536822846442,1.1484529483566,1.06302137703175,1.1729035218574,1.08413448760698,1.06199476251259,1.0641165612639,1.06364245093189,1.06358806829822,1.06325343392751,1.10361744615277,1.10648136060548
0.897671461487172,0.897845541955785,0.897901071267893,1.00450456307338,0.885512710130031,0.88523308313591,0.885054839828742,0.884987759435823,0.885110892242193,0.885708850608671,1.1910598730237,0.890495949505566,0.890358975385666,0.890388917155564,0.890452009519838,0.884733364195408,0.885261413216699,0.884987954299457,1.1280898801909,0.889363291656119,0.890030701029099,0.890112785052819,0.889865740031928,0.890125643004006,0.890692466966521,0.890922966100145,0.890714580991158,0.890816352335332,0.890508216668023,0.890121465918734,0.890189847266027,0.890428797168631,0.890047701321266,0.888831358008166,0.887351167103399,0.88596378855893,0.886320077798415,0.901643813752167,1.20488958389219,0.882368867738371,0.881421449455465,0.878751331419484,0.876463290246043,0.875872971256882,0.876149856599573,0.872287433260211,0.872435362312541,0.870403416182247,0.870628299313045,0.872534973406547,0.872958220010577,0.871523648127269,0.869745906725532,1.01489063604979,0.895227210237935,0.91289255721033,0.923937542641542,0.999677369756412,1.00719250292056,0.932173300584119,0.93224244551796,0.932191923819819,0.932363306246214,1.10942783249428,0.890311292762338,0.889646590259517,0.88904082424358,0.887516828215883,0.887994397450332,0.888232529609514,0.891913993172436,0.903374525199112,0.911498444579279,0.893575466088668,0.895299873197623,0.897673609631499,0.900657716071614,0.900594630763892,0.909521700757902,0.910901290521296,1.02512857781403,1.1064755056805,0.922238216850535,0.922965490174416,0.921793299086108,0.950837867643172,0.935833846752952,0.927904415765789,0.950316097972775,0.950179734095012,0.933163795324408,0.934951939924043,0.935637455377456,0.936551298297571,0.946589520530438,0.94280767158048,0.942394133129411,0.942808935001639,0.944839695007203,1.03090285315484,1.04730308769014,0.967761805157945,1.05596183194245,1.0806711095008,1.09344643674278,1.0765735898044,1.05145087505078,1.03118920471931,1.03071777337298,1.03095274713402,1.02872623637142,1.02844186597677,1.10041010139495,1.04942997757221,1.04071700650772,1.04312786351013,1.04390956901681,1.1505333832801,1.27366488032288,1.27265206618182,1.05130444352828,1.05958515032387,1.06086878749208,1.148633770116,1.16193468948517,1.19701256337845,1.13080745396723,1.09118487641849,1.08290659029346,1.1717765844263,1.10905738027925,1.04742482106763,1.04586982753889,1.04632668575086,1.04750160155657,1.04914333201929,1.04968093817373,1.04989588480788,1.05527251329533,1.05591532822883,1.05586160566578,1.31838096888167,1.26086848943861,1.25490912040097,1.17510949373061,1.26955872358183,1.11419865611022,1.26910123083061,1.05112667427759,1.16970446563331,1.0821151356609,1.17171569839199,1.08457372339542,1.06428732526236,1.05528057075006,1.05508534171671,1.05574858886639,1.05851582780859,1.06028230932996,1.05822266703775,1.07932078288446,1.15928221012252,1.16572104567841,1.05979080854902,1.06103292033208,1.06223402315794,1.06271647427742,1.06355797060791,1.06345284720756,1.07400120151368,1.12816748074184
0.897457166253456,0.898064101043567,0.898159435306464,1.16752211174078,1.16532738307716,0.885535420204393,0.885225963664477,0.884970419516182,0.88508976279696,0.885905268582007,0.914444170379486,0.889674060827406,0.889833317776161,0.889788076028245,0.888380238092525,0.885585970165476,0.885566651213811,0.885073051531639,0.885476304682948,0.90367452080009,0.890812332352121,0.890270306288435,0.890783364129285,0.89053297255651,0.890880535962811,0.890820342489231,0.890480721525461,0.889872576414293,0.890175397225335,0.890237215806182,0.890361113217013,0.889617848245394,0.889053694171101,0.888185056491304,0.886120013193464,0.88490397802485,0.884770657907512,0.891603774472394,1.23114818708657,1.22110097018581,0.882081262693001,0.877079186059906,0.876379412730687,0.874862328181274,0.874375874764906,0.97831711176842,0.872674813747902,0.868087406072165,0.867406257033144,0.866719056771678,1.00151113106133,0.948433802444671,0.866917687090985,0.866542182337934,0.895513787323951,0.896762098809796,0.922889755199786,0.9908178834314,0.992662866064467,0.930788729169651,0.931075404717973,0.930795376357186,0.93103960867227,1.06791593990257,0.936358182663632,0.891405455298793,0.890708098431748,0.887337576260211,0.887293688772267,0.887032578146586,1.01634943369047,0.913898685998562,0.913894720543731,0.898193363728141,0.902027512208614,0.90152657091752,0.903188051014826,0.906655686900672,0.908278453144952,0.898580414441868,0.898477671955141,0.897971956302817,0.897603237279609,0.945606410698494,0.922837784424014,0.949347814421278,0.945211076853591,0.948570516391489,0.950135549621769,0.949288711114688,0.940575314010022,0.940356068407529,0.937740027983684,1.00452866270169,1.00437328788946,0.953134616789591,0.943879292812409,0.944956840811351,0.946251804375993,0.947679310335125,1.03217863313577,1.05084603886972,1.08178187759173,1.0323322019333,1.03268566203391,1.02558068058673,1.03198023884499,1.02952737262394,1.02973126905142,1.03110776517621,1.02888862358671,1.02718562179393,1.02624607620263,1.02748698316644,1.03062616307812,1.01732624820131,1.01691484764805,1.01643725049015,1.01552842078476,1.01323067845258,1.01302757932149,1.01406826383223,1.01544808147411,1.03231771813706,1.01740079118747,1.04427799070558,1.08753023675161,1.16976483392636,1.04324592523736,1.03669392732985,1.04411350155726,1.0474283378762,1.04643105903018,1.04670290490753,1.0478620165633,1.04893371248186,1.04927815598445,1.04901696551884,1.04955820699654,1.04970748848588,1.04887338513933,1.04805078781384,1.04581615260224,1.04612528349449,1.04162196014733,1.04092590460199,1.044217020651,1.04652754633239,1.04648570372899,1.05858632827057,1.06191485127385,1.06321141796379,1.05567103946954,1.05579941681613,1.05485847826597,1.05471577915547,1.05438290352196,1.05422480630769,1.05355550649846,1.05295621839997,1.15241467770459,1.05523000772259,1.05601324627511,1.05743760607929,1.0582768339065,1.05921211958744,1.05884589309135,1.0592232747188,1.05870634532524,1.0594653625955,1.06096023839077
0.898427903131217,0.898827155426956,0.898252499451488,0.89857179566027,1.17172139736563,1.17168463610952,0.931450515045069,0.885939393048129,0.885304182312827,0.885413455252647,1.15878505421605,0.889307764446481,0.889195353116668,0.88721269538632,0.886928304874705,0.886751110974315,0.885993461341554,0.885412666457728,0.885539103048998,0.903805835498509,0.891080145959917,0.891524968620251,0.891571870842793,0.891288282249046,0.89072740661652,0.890518553483078,0.890418648299481,0.890464039726603,0.889847349112827,0.889436367909989,0.889356685717514,0.888726117240176,0.888177649108959,0.887437651180143,0.885833096863284,0.883695738402774,0.883202821367651,0.882916360193344,0.880839303392258,0.880502702083989,0.881373796328348,0.876281374421716,0.875079031312086,0.874078744162217,0.872711090370755,0.872570783002995,0.872335380959472,1.03150711805159,0.86605028153897,0.864712019085576,0.864642383777193,0.866860961222973,0.865383093176159,0.865084321976953,0.865611855728225,0.871088077867913,0.91169137471276,0.873800070482751,0.983292267885755,0.997939166850621,0.931012320947051,0.93052381697449,0.930496542162189,1.06899703085002,1.01641941412686,0.895195456304048,0.893258048932707,0.886604176445374,0.88716552068779,0.887985478573402,0.893827803771636,1.07052348098569,0.913403338365087,0.903148052244474,0.902542330982783,0.908566278901198,0.907627822993614,0.907391298156146,0.911052006820686,0.90139964058267,0.896982748652314,0.89736614453104,0.896643010411275,0.895050871242886,0.885517906591511,0.907770181799194,0.911278619071476,0.907221056979012,0.918535628255898,0.94799267966809,0.926924773534798,0.961555118256628,0.951888951687684,0.952923988684906,0.9535794531557,0.953483415069161,0.943752717578558,0.944642689523311,0.951923793090275,0.957769223164191,0.966035283769279,1.06922155796033,1.06505199978762,1.07187622112778,1.07296847783285,1.04678889143923,1.03834706661529,1.0582200317656,1.02685069324184,1.02502272299361,1.02347421507973,1.02883126425772,1.04677194701309,1.02559627069084,1.01745313547859,1.01646996260458,1.01625507128202,1.01460872741525,1.01181553279542,1.01081039542468,1.0111040341074,1.01383068836156,1.0139991296899,1.01509780161621,1.01651852201465,1.01591794278399,1.01692064892152,1.01641385611748,1.03969209108411,1.04026386250788,1.17207823981749,1.039476384123,1.04373588805504,1.04800732097128,1.04995953437913,1.0502802767582,1.04913498810697,1.04824982148307,1.04818441250254,1.04903071272757,1.04885724426209,1.04804058768721,1.04579829271726,1.04515295582999,1.04387557231902,1.04292857832187,1.04303036944052,1.04223791868845,1.11938904770759,1.05224405109329,1.15953603737047,1.05640132526624,1.05697545799982,1.05677564130838,1.05553112284197,1.05458336440509,1.0534334402467,1.05238590457042,1.04932533517824,1.04936882390635,1.05004767502504,1.04818738763132,1.04847051766047,1.14070751953385,1.13051472748758,1.0534562570832,1.05668166026055,1.05515727835072,1.05462846176222,1.05452310940398,1.05567101049159
0.897486129300756,0.899230996720375,0.898962563623407,0.899005217691321,1.03259566725485,1.09694630781662,0.988704286272385,0.987592841634701,0.885900347116731,0.886040036197647,0.924786449009869,0.915451639972436,0.891085238661402,0.892044387242899,0.892181421496649,1.17583313315296,0.981726913602313,1.2462870168406,0.905282528887783,0.901870008962721,0.891835581218152,0.891952601576956,0.892778007761329,0.892494710861984,0.890878088582709,0.890170677313205,0.890294250143367,0.890513118962913,0.888787720220809,0.888916080799112,0.888586195785895,0.887922715279596,0.887014935460898,0.88618926197608,0.883328271280453,0.881684621371123,0.881578653522528,0.881393396119487,1.19574701573902,0.880024921244141,0.882023372157846,0.875446607148505,0.874530334619803,0.873906747737675,0.872881239443172,0.871669220033419,0.871254183593879,0.8700390831884,0.863110348229515,0.863912313335897,0.864164853016658,0.867028814439783,0.868154106173036,0.865324796917954,0.945310927570995,0.996981823660939,0.960470083698138,0.989600349228953,0.979055209191382,0.991661718429518,0.930707560166678,0.929943224549062,0.929800930972871,1.06753791907875,1.04955548700571,1.07186290164012,0.91561690064576,0.886279928262455,0.886867601431749,0.89414208170664,0.894431962570004,0.903988296852172,0.908660847368921,0.908939728161177,0.910264995243588,0.909275467378809,0.908657192392645,0.9117671548295,0.899633232927003,0.898617861565379,0.898509457630971,0.898656225207055,0.895324910836407,0.896612654523454,0.91253910929202,0.92659678283754,0.918418075746594,0.900785476286383,0.950121223151038,0.935598589514366,0.965548145387638,0.942844894260538,0.949343813344491,0.948659795183697,0.950096629208006,0.943704782049645,0.944138497749726,0.945237218701691,0.993411136593186,1.00982939398927,1.00850746037548,1.01354573835582,1.06410606222328,1.00674489429962,1.05301342847906,1.03133901572976,1.0332602128487,1.02170529514873,1.03012703463815,1.03289510450624,1.03301191450597,1.05897132831655,1.05942538438179,1.09241813167835,1.20572630617767,1.1945148802479,1.15610734632064,1.21174199815426,1.011833930085,1.00906960678306,1.00878917038157,1.00552162392493,1.00527006941117,1.01557613014383,1.01810743913299,1.01828562476298,1.01809019065479,1.01805030267598,1.02248604156109,1.02239454727666,1.06992331429247,1.03903642434974,1.04121955739647,1.04827636545244,1.04929437396759,1.05029992191879,1.04889951136916,1.04909704797887,1.04877587058924,1.04993067621075,1.0502960750659,1.05068593915996,1.04566238821652,1.04470492159072,1.04415486640025,1.04312081982271,1.04294936363444,1.04232371420571,1.04270651916411,1.04402631049671,1.04667343334468,1.04868545158708,1.05958162200643,1.05741510788286,1.05543426241513,1.05318684705799,1.05269954588421,1.05172850520104,1.04890027971372,1.04447942957994,1.04460893391629,1.04615007832429,1.04352742435974,1.1063434112617,1.13506247880954,1.1339131330895,1.05740082296605,1.05529299716614,1.0540817022837,1.05455066269652,1.04513899974539
0.898871272272077,0.899509762300891,0.899941454316532,0.900429942587464,0.900754639664107,0.989507287059726,0.989338598902966,1.03087744898972,1.16569060517783,0.887540461618949,0.888022520783555,0.889439295102608,0.892718482896528,0.893548300759828,0.893863851525455,0.89487168318596,0.956096962168434,1.14099669643569,1.16449825467875,0.888413724712436,0.889484310466498,0.892050316236501,0.893105327502424,0.89306793913221,0.891398509950799,0.890336620772475,0.890006523527827,0.889288369264578,0.888330380892263,0.888230934403078,0.887006054665327,0.886468642640077,0.885005779592172,0.882865415299684,0.880897451700821,0.880102417439623,0.879666035833017,0.878939502314622,1.0818145192716,1.04364408633032,0.875430371265911,0.87437803296645,0.873118353216315,0.874647823295472,0.871782977834143,0.870990182036863,0.870381693166564,0.869656929133024,0.866717914160441,0.863998334382926,0.864136353577727,0.864562955013882,0.869952620470656,0.971053629691374,0.943734166832027,0.87400997550855,0.95661229624468,0.955250466927032,1.00759048761282,0.974743613425801,0.974584641166805,0.928363650985018,0.92801981906798,0.92731859755834,1.0596450238682,1.06083307915054,0.927554477393061,0.947399663870928,0.89149539730982,0.892114380473127,0.896770327550096,0.907720551435696,0.90852398471465,0.909000860156123,0.909791567194887,0.894295839947893,0.907767663241605,0.918342755636819,0.979456848053384,0.896374383151113,0.929242554312977,0.911427036638026,0.915800988599709,0.893633385531619,0.942463399537624,0.950936813240736,0.930351309961757,0.906825306962992,0.927159176536555,0.923743416815608,0.921348756077209,0.940425756919423,0.957823054269717,0.946022609995663,0.944006002228458,0.941639923890585,0.944385393937729,0.94512760925577,0.972285725563632,0.969027279816346,1.06820149852224,0.996207373638831,1.01433672591136,1.0142997206289,1.03636709178931,1.03494366019047,1.03459195903498,1.0266473093827,1.06486406468778,1.06498764802169,1.07283835750228,1.05968179086579,1.05881045413296,1.05654669288759,1.05590611889122,1.17536490837837,1.14306304134807,1.12446329947661,1.12150437545839,1.01400243910637,1.00733151502563,1.00486303857614,1.00476723662432,1.1300234344602,1.01997063399525,1.01865147463111,1.01829157394997,1.0172096156574,1.01762169692985,1.02054098908018,1.02057988654655,1.06076010009211,1.06090912786446,1.03980056378719,1.13982219154558,1.12972890434936,1.04768127885643,1.04674978453575,1.04676878284296,1.04781721963899,1.04852216055217,1.04877724819695,1.04788906749345,1.04417574561067,1.04354241564337,1.04316098694979,1.04294192382592,1.04245943130469,1.04282691563421,1.04377072905396,1.04460561577261,1.04724293290054,1.04894488081326,1.05453960773526,1.05408829702495,1.05348655835936,1.05257373023476,1.05158648937378,1.04684034120218,1.0443040575137,1.04387124430074,1.04160738951949,1.04054990336202,1.12395238980623,1.10213401003699,1.04537051694512,1.04490729718887,1.04649836669756,1.04705976509849,1.04616592446705,1.11569440301372
0.898396928906722,0.899291340086124,0.899866205370045,0.900353443469629,0.900623018645149,0.935274221162344,0.955544567733067,0.97851665739152,1.00354675138954,0.915041773890091,0.91112762534696,0.908915209169102,0.90891505929374,0.895127725585542,0.895309565028689,0.895527915624808,0.932895512355098,0.956110901090936,0.981745208342227,0.88925339548104,0.889687099983678,0.890822078549164,0.89269976252794,0.892620948114461,0.891615402358517,0.890697795674001,0.89006597612357,0.889186988234561,0.888099600272577,0.887173943697298,0.886175116793793,0.885301289600463,0.883854578708046,0.882302426445949,0.879906853766263,0.878908613002698,0.877910760754094,0.877017029331861,0.875292026456378,0.874423487523586,0.874080458376755,0.873558514039956,0.873160725543743,0.872932126344279,0.871398986739036,0.870192656570564,0.869378488453495,0.868294831092997,0.866691894430445,0.865122456671001,0.864719554865759,0.865010919062113,0.86978385271283,0.899552542335592,0.914127436299173,0.926281806879405,0.956347063058527,0.956742734065366,0.959937998553516,0.961561707509316,0.966188702966894,0.928574396298322,0.928508932070035,0.940006875545746,0.961940256565313,0.944790089330267,0.920770608199,0.914790914094694,0.912027337418058,0.908678424834601,0.905980857422425,0.906525785269919,0.907878254771674,0.908302577280402,0.908410773569321,0.90801673836809,0.909358991558383,0.913989681658352,0.909893284835381,0.897944007841003,0.900790093078556,0.905971715837572,0.916940228966553,0.916697142447168,0.931206915687188,0.94680459893136,0.947193525520813,0.946508330839879,0.943985098326481,0.941242569405823,0.942067568509238,0.943904502112085,0.946020774698015,0.945189470362459,0.944253735687738,0.944070999032516,0.945637612250179,0.947158175365996,0.963718070983334,0.975644055035651,0.982979334493095,0.988969633632366,1.01246913590726,1.013140020824,1.03020089092734,1.03520416203916,1.03745575732535,1.03997223257431,1.04659480012043,1.04779423794451,1.05001980982149,1.0522490335285,1.05676758820795,1.05758126316979,1.05775789995816,1.07071828711886,1.08028199322011,1.09418310240406,1.11008983146955,1.07506656510739,1.05015917321159,1.00557691110828,1.0057048795877,1.00831741066648,1.02094420091591,1.01927247296542,1.01870751594916,1.01835736882833,1.01875984136505,1.01982547639488,1.0202771112355,1.03813596380759,1.04701025210301,1.0395561709506,1.04011630313261,1.04097854735723,1.0419905438066,1.04440309464851,1.04571348673658,1.04664453990333,1.04750343763202,1.04774657387415,1.04698436987783,1.04520037250237,1.04416392128439,1.0435066881076,1.0429611593345,1.04253149537996,1.04254162048511,1.04286532569097,1.04360557482052,1.04486881618315,1.05094393746566,1.05312482666895,1.05378262888908,1.05341983290667,1.05272808092287,1.05196946363116,1.05047820984753,1.04374472346377,1.04354569970022,1.04186807134168,1.03994863339385,1.03856446011818,1.03958561603204,1.0424935530477,1.0436318919714,1.04448319354396,1.04449803693691,1.04427023564202,1.04395573719884
0.898274389099111,0.899153635750875,0.899716726084877,0.900089738317882,0.900328271506715,0.901174892646546,0.903261227050009,0.891317318806005,1.16727713301023,0.921783515121081,1.16100025206842,1.16285252246836,1.16322449503793,0.895908701699194,0.895950104708835,0.895888207117081,0.895820378388152,0.89513811796529,1.24016697230072,0.889679584219629,0.888874127749266,0.889290855863259,0.893896641291054,0.893497819238965,0.891505982448863,0.890866988063612,0.890190369583262,0.889140266223123,0.887721107885802,0.886067861565515,0.88523480478794,0.884708194214576,0.882774114696683,0.882239248533307,0.877740847944561,0.877858943388001,0.876002217995878,0.875366561378363,0.873894642512214,0.872095347928833,0.872529828622421,0.872060986436701,0.872758942580976,0.872604066165013,0.87055455024903,0.86901255891584,0.868491732150046,0.867344503819004,0.866780047870917,0.864708510638446,0.864215926049315,0.865515585774259,0.870161277265601,0.876352941261852,0.876752146961342,0.980014689245769,0.952973448676432,0.948462782533076,0.887815395952517,0.888026860515068,0.996294967081747,0.918342520941821,0.918647450935248,0.956341226056122,0.995441422097055,0.894919458708523,0.895665887722727,0.878670953038617,0.914651543988053,0.918686791177393,0.902220920550595,0.90281535536087,0.894065428596306,0.92589375710527,0.896774397064836,0.940227064321061,0.939071366819554,0.938885187185972,0.895608118970982,0.897046751760149,0.898582418741844,0.90425788935029,0.9181729738505,0.916585894621907,0.917146221604404,0.946244385156323,0.94679103486513,0.959108105815251,0.970025731920176,0.938484491264327,0.981533440073149,0.95896028094267,0.949723842524168,0.945533397583831,0.944404084712164,0.944359746141943,0.947751233138095,0.950668220775266,0.95415722505018,0.980123218432994,0.976045596509579,0.980227628654602,1.02487193908307,1.0073213980543,1.02251474120365,1.03294673164261,1.04049111583947,1.04392577466068,1.04692318664947,1.04562193964332,1.04363127774011,1.05085649508612,1.05772544867003,1.04516822414626,1.0484301527027,1.04911753461893,1.05142673274314,1.06087332573891,1.13247756431022,1.12550254792605,1.1243259160481,1.00525916499347,1.00590192536254,1.00743274779365,1.13248353699034,1.01725549254687,1.01816807725187,1.01823561770766,1.01884732724385,1.01899010996434,1.01971617494989,1.0212682802391,1.13319135596392,1.03249068532571,1.03357729098489,1.0372112228667,1.04170371196408,1.04319573898466,1.04492412905904,1.04589536935004,1.04700847050686,1.04788182455344,1.0473684694845,1.04519874608046,1.04409530712858,1.04354804988893,1.04244568564613,1.04196049549035,1.04177613826429,1.04143783275148,1.04131522797358,1.04332846212845,1.05090491846539,1.05316527564035,1.05453486342051,1.05392997072706,1.05330006615466,1.05251443704781,1.05181459430234,1.04266183994813,1.03656538823356,1.02920569101584,1.02453795581119,1.02767614421833,1.02930284311935,1.11624989501365,1.0436123322226,1.04362327456161,1.04248494714846,1.04262375941841,1.04281386621151
0.897584116395101,0.898305942194857,0.899475316036932,0.90017149806399,0.900482980699303,0.901128947582191,0.902648409972878,1.07613470360553,1.15090122354754,1.11840290886807,1.16189427909237,0.914509478802176,0.898522030548688,0.89735386375793,0.897232150467227,0.896118890562987,0.896097145805388,0.89521931704519,0.895431196982126,0.893444806280038,0.888242745507654,0.887903460520889,0.907332263902228,0.891336949498588,0.892023776365159,0.892039941937231,0.890589337330498,0.889279210656026,0.886725300899953,0.885546676538202,1.04284085356763,0.881306996221817,0.881075692910911,1.18455139124222,0.876909858642388,0.873438317697895,0.872634298305144,0.870369694540324,0.871313964630195,0.871740587210453,0.872508971379068,0.873054573391531,0.87351217673566,0.873168938548114,0.870148105217175,0.868117710951466,0.868041803358084,0.867249676271971,0.867123091648343,0.866944307608851,0.864387328203365,0.872043891296138,0.967000640129791,0.878803810488328,0.954519509090968,0.945352291087238,0.941363945540941,0.931092271691576,0.888202741682218,0.984332052796149,0.960781578490813,0.920242768371009,0.919276117529618,0.920563990395945,0.912292620881997,0.907182788125235,0.896692620794227,0.876812926198414,0.883418168038931,0.942407184957749,0.901376797232641,0.901244065714034,0.910234441781842,0.895302012576607,0.895989696979759,0.954962204860088,0.956386112349331,0.955776073530194,0.929082936077442,0.929693935084035,0.903488175469506,0.910069571222562,0.941957037725229,0.948383988417906,0.935972991871722,0.945943965057404,0.946532494269698,0.947040039903943,0.948050112369149,0.949009032572551,0.96249273436408,0.956210409696725,0.94826275059904,0.946106350002622,0.946382626609937,0.948470057316643,0.948836427740698,0.950766247650256,0.962539552282359,0.965579472347493,0.986200820357057,1.0858383676959,1.01289157882224,1.0525206992185,1.08404155852048,1.13092114723057,1.04577835363067,1.05151374244635,1.05018218164592,1.05019152341796,1.04239646013798,1.06447077396276,1.05449232639545,1.03009920686236,1.03519948371593,1.04217375319588,1.04949532513252,1.04769522506329,1.04750720598937,1.04951881330026,1.04108756470417,1.0394074263518,1.12297568783343,1.12513367250924,1.02061546126292,1.15379658373859,1.11570299298244,1.13002002543944,1.02885972826939,1.13921974470876,1.13873673034268,1.02287471159947,1.05900893750965,1.11589960207545,1.03624562498239,1.0361907427814,1.04019190940311,1.04018703993034,1.03980546642968,1.04285863671887,1.04508047544636,1.04574625938512,1.045385865208,1.04513007461789,1.0424515448606,1.04272137053107,1.04094526315372,1.04063922811115,1.03973939460007,1.03892769322237,1.038403525181,1.03709829428286,1.03764475647361,1.04827635664808,1.08134433709357,1.05380065887177,1.05356760071627,1.05328520795592,1.05221091658458,1.06706711336996,1.02891224898195,1.02775689157592,1.0263086761556,1.02879062847727,1.03095360445897,1.03472972055788,1.03787384967314,1.03886557974927,1.0398728087748,1.10083080737037,1.03364717094936
0.89709314325767,0.897542370883988,0.898724894752317,0.899327931885071,0.899893183120289,0.900328351586144,0.901361351681177,0.900549888346662,0.981132511175512,1.1427710028476,0.900682619157199,0.900853903670884,0.900579115154551,0.899645236898185,0.898794161037125,0.897107513104232,0.896654137868091,0.896147558574878,0.895299202168742,0.8933136211062,0.887825392713492,0.887360000624905,0.887871795992448,0.890765900459378,0.890903926281459,0.891297876211148,0.89045583419858,1.10553462436196,0.884679142624927,0.884610290892827,0.882205376490312,1.08198669558226,0.877109737142043,0.875749029968426,0.872859080850288,0.870034610802591,0.870921046771199,0.869444538790688,0.870442894032394,0.871172780489437,0.872413098360893,0.873018669423495,0.873872916556682,0.874126830352194,0.869198106533647,0.868608541592066,0.868101657380483,0.867247370004748,0.867650210470778,0.868571954670998,0.869446589865364,0.872964597287517,0.881615834228775,0.881296408190066,0.88160297520583,0.881785346645102,0.909861484645125,0.919928704046989,0.891422134328,0.890062227206374,0.974921947595198,0.914413143263028,0.914273318699333,0.91401195290372,0.936445818871183,0.895531286538795,0.897651137405634,0.875224785645675,0.89830836416496,0.883961842860625,0.930508121805973,0.89778337134595,0.897565003976195,0.896039447933219,0.89711664121195,0.897695491400669,0.957605095409264,0.95734329758236,0.925550616902901,0.926103006970684,0.926493957783916,0.924372738930772,0.965333093722064,0.950253607195761,1.0010135446698,1.03858340208159,0.974567424333525,0.953080116829605,0.948129233358524,0.947826946995123,0.956773632258169,0.951020241894862,0.949887716964659,0.983528427826069,0.975070636672749,0.966980125999614,0.974421907344657,0.97871697566702,0.978750594201919,1.07830948969511,0.98319701070631,1.04880076508431,0.986738241128701,0.988505686103135,0.997564899125865,1.08022111514498,1.04321117687603,1.03864830854144,1.04392045793135,1.07913899517257,1.07984424935488,1.06526324381183,1.06121316469984,1.03003019309591,1.06447717922919,1.04947351992293,1.05036471327048,1.05063686096859,1.05053631975145,1.04792916862301,1.05681616894887,1.04474795251863,1.05597724731118,1.05593044865294,1.11373542858742,1.25883785571365,1.1123592337511,1.10469404457463,1.07875906364373,1.26261864486523,1.11559376184672,1.11487489856717,1.23039561768979,1.10840152970288,1.05236993561045,1.09447165295326,1.05010072498169,1.03880831766618,1.03854835423752,1.04044451417272,1.04283073517882,1.04376947571436,1.04403902239508,1.04368628596563,1.04323235728509,1.03649091404364,1.03779894021879,1.03695077021612,1.03709734480198,1.03725063018838,1.03712741189768,1.03624189891298,1.03729541162569,1.03915299932956,1.08063944141953,1.06107836315168,1.06089556217798,1.06182808737366,1.06190855996912,1.05829434403344,1.065602324433,1.11039011259804,1.03882463915049,1.03391683484951,1.03417067110159,1.03639363477447,1.03736630929653,1.03773037953168,1.03774938024485,1.03645035449033,1.03510719088453
0.897077543986027,0.897201421736748,0.898450380468848,0.899122486448146,0.899650407372961,0.899947532864743,0.900776221163475,0.900505376881576,1.11622959641403,0.909913866997603,0.902202609688739,0.902437050982356,0.901642090137032,0.900384735455189,0.899632084292846,0.897365071067667,0.897179320705562,0.896669624309768,0.896442818386676,0.891168658929556,0.889731575971012,0.887638631034954,0.888050494383661,0.888608134945654,0.890269014038053,0.890381689774172,0.889316088557468,0.886494602795076,0.884774837847266,0.884364390535414,0.881591680078958,0.880611730547709,0.87559261785534,0.874690914519175,0.872261695457197,0.870549035106227,0.870804939005718,0.869661810239365,0.869753972861824,0.871325702464448,0.871966423840045,0.872856092152052,0.873566049827457,0.87403356824998,0.870542112202026,0.996573662123647,0.874279323883095,0.869071343523446,0.867840533573811,0.868917057065731,0.869781938444839,0.945168927437103,0.929744909246969,0.881456145082818,0.881812899218957,0.881866493818101,0.903028526486609,0.923224540512098,0.888683306219211,0.88919175367667,0.979678063136442,0.913080705405158,0.912584369614727,0.9121909915609,1.05701576064946,1.03670274388096,0.900271659970211,0.885291702626936,0.896173952548561,0.917910589843201,0.924271249241864,0.980560009740675,0.898415895072691,0.900453990213978,0.977493208440876,0.962354636098946,0.961281269704106,0.960702954236988,0.94413439403221,0.926463380455771,0.926859421243612,0.944728232398379,0.962763698950595,0.973642803752103,1.01918418009066,1.0040753023151,0.987793976513018,0.974297592304994,1.00539384342432,0.954564539913375,0.956236728257237,0.970625170777431,0.960853354421453,0.96851873430396,0.966856612731769,0.978833977318708,0.990784586938852,1.03297116137494,0.978693277247306,0.97949966290075,0.981613497939678,1.05216720296694,0.980020959215836,0.980298370387631,1.0509249871981,1.05172489445877,1.03119352012873,1.00372620573793,1.02728871756211,1.01739468529453,1.01803904898632,1.09944563092746,1.02537703854917,1.06834945718569,1.05632420099237,1.05044539636122,1.0514793466304,1.05332690735557,1.04017871260584,1.05490275872112,1.0557139774897,1.0476681787103,1.04995010283799,1.0510103979258,1.04974878877352,1.05474262125831,1.05383486608077,1.05431211413044,1.0492205599581,1.0466670444424,1.0646836336937,1.101500745984,1.10456903216662,1.10335247641664,1.20353302444843,1.05606398783788,1.0565036010435,1.08829684525274,1.04484670945536,1.04286863911074,1.0425518451351,1.04340653280384,1.04338799766218,1.04195164345585,1.0355266692422,1.03572939269075,1.03676653875449,1.03478681043797,1.03624249443462,1.03672848492757,1.03704035240628,1.03720012844221,1.03734427614107,1.03813134839194,1.09087732974206,1.05869551981448,1.0595783856128,1.06086752902274,1.05994563081774,1.05358535575646,1.05484052582982,1.08134310454014,1.03933781123639,1.03647642015293,1.03658230538001,1.03849072254614,1.03774614087006,1.03788350360965,1.03661104075734,1.03484025824488,1.03377515700761
0.89691540532057,0.89738747370973,0.898157594374386,0.898776805565214,0.899681713247107,0.900091190844398,0.90067177822714,0.900822996918586,0.902233311697942,0.901970371956168,0.902591339398252,0.902741197114227,0.902489166129194,0.901893884286678,0.899782167173854,0.897708660930742,0.89744842036742,0.896973711701747,0.888672748328857,0.889447606800005,0.889932637557989,0.889153563577361,0.887860565906293,0.888813156737583,0.889775123611637,0.890202090997286,0.889502165012724,0.888829732766496,0.886751385286652,0.886175563881834,0.88570842845594,1.08511009345732,0.873192964641217,0.873706690333326,0.873509540090333,0.872907108278593,0.872078886197652,0.870831255263704,0.870554362224888,0.870703061682194,0.872129833785128,0.872077586725913,0.873102682459054,0.978611409323922,0.987544767528259,0.88814897715575,0.881272219937211,0.880296236307744,0.867135060354966,0.942313981350582,0.940405158131827,0.938741436591393,0.88405982797704,0.883832245062326,0.882918275416391,0.882350612582805,0.895106370268328,0.884516739507781,0.887277622411056,0.9749148502444,0.98308731423603,0.91290906324955,0.912627111912283,0.910044812390142,0.907756679132286,0.902992210265581,0.903514174882538,0.90311267192253,0.891251731764715,0.890904404479445,0.927024696093257,0.983258558664749,0.954454185918504,0.954667144514898,1.0157839299895,1.01548821610277,1.00621471067493,1.00546674201002,0.970662446568438,0.939510344847486,0.950752033456843,0.95097147988223,0.952122459824075,0.990895291029021,1.04443806303595,1.00126972685668,0.994069487575353,0.989370632851778,0.990705328212954,0.992061304339559,0.955093847704088,0.970478818789848,0.970427730084783,0.993408756809117,0.992973945668226,0.990034754930405,1.00392671321658,1.02528086090776,1.00688720295243,1.03276308400293,0.9811361145062,0.974664546113974,0.979743080308228,1.04076298887547,0.989606971454773,0.990032821793761,1.01004665648408,1.00235111716993,1.02451583935673,1.02445682233364,1.01992643433157,1.04154626417665,1.01713309890934,1.10294880671859,1.04953336055099,1.04931882096397,1.05163767787221,1.05429616611406,1.04938421488723,1.05309435148693,1.0552859479002,1.03895092324461,1.05863345849932,1.04303082641612,1.04261457729445,1.05221820945782,1.05273787883635,1.05311153432436,1.05665854135999,1.05655869653294,1.04668195834497,1.07648344548825,1.04946148980244,1.05743197044383,1.05611146806232,1.0563465356917,1.05573567770175,1.05253748707751,1.05202919631866,1.04441511024587,1.04326019172026,1.0433056510691,1.04260901052136,1.04211631241077,1.04075487966088,1.03982334644182,1.03833222127709,1.03726406763511,1.03790815015029,1.03608285080198,1.03696722641822,1.03664273126532,1.03559587143838,1.0352386990202,1.03720968564281,1.07672552260071,1.05796069397962,1.05554105070763,1.05486671230625,1.04882448855796,1.04614992088222,1.04608611185406,1.03290014186822,1.0340473542745,1.03519483559726,1.03915342902602,1.03749205855511,1.03882635997667,1.03658522342313,1.03593202815861,1.03003736276622
0.897540083359409,0.897197984842675,0.897587118243267,0.898224960364411,0.89964576610223,0.900434034826411,0.900672175799128,0.90107617664581,0.901385411538363,0.902047537968709,0.902514245835609,0.902466853152767,0.902474988582851,0.901350152556849,0.900605960409919,0.897767451609009,0.897743714799843,0.896377461472284,1.02545612902133,0.890797813079837,0.890460629526173,0.889658986062606,0.88878357788578,0.888153671309325,0.890013965811661,0.889802547072482,0.889668923120692,0.888685622444216,0.886958123456815,0.886320667310004,1.03965154959662,1.07704374465304,0.871941647482421,0.872738356606464,0.874139895154618,0.874195199535071,0.873769883676901,0.873050504888035,0.872763883362517,0.871541707510891,0.871885694794626,0.871162932514998,0.871155746353593,0.891844684649553,1.1157898300036,1.16210835061641,0.96273734103287,0.976632463146799,0.964446825645739,0.944000182281698,0.889136338063486,0.889855637934332,0.890173849184603,0.905965782279025,0.921399066193968,0.909507899165553,0.906533001119659,0.909205107159685,0.89525658111719,0.932987010776262,0.932918364243061,0.912944718548535,0.913621369189077,0.909312027928337,0.90605543982063,0.904192191551308,0.917129892278408,0.933278543593929,0.943281426214467,0.929138034452807,0.926681653674832,1.02421972521105,0.923059223309513,0.989267602900683,1.02284071485317,1.013131267418,1.00762825899517,1.01061561180714,1.02950794543617,0.968310846194115,0.96885428691613,0.970424011796663,0.987317428148999,1.01849187279725,1.005550551268,0.992756170367096,1.00884630508668,1.02620173351525,0.982446750388014,0.990973232663207,1.00076555939485,0.970477630698071,0.971336914291005,0.994302546527614,1.02098481794513,1.0209138322343,1.01587391769937,1.00783230925821,1.03587927062066,1.01638945121789,0.992625444202638,0.980539707018792,0.981200911965609,1.08859093709308,1.0398947077977,1.01953410786639,1.01393891115768,1.01154413863171,1.02549617115895,1.02508503286119,1.07016947100209,1.01243711270233,1.01948217685156,1.03370684404033,1.04898587133959,1.05178359299818,1.05168577897667,1.05226017771855,1.04976409632549,1.05014858390768,1.05764338140656,1.04262201895151,1.06096569843551,1.05479312573854,1.04800875443482,1.04395631147869,1.05064812773099,1.05403841312962,1.05649733141663,1.05603457190784,1.05510462646034,1.05415024476352,1.05361449746827,1.05521759639214,1.05568072320292,1.05544117485942,1.05655067809849,1.05416545336871,1.05220513861278,1.04655745209494,1.04495481196937,1.04396152956479,1.04307003165397,1.04195531723901,1.04139168913514,1.04059691678792,1.03969230169213,1.03968899423436,1.0399953633656,1.03801325378279,1.03677183415846,1.03625036470372,1.03328841428798,1.0324415110129,1.03243705569834,1.11825167308279,1.05106322075896,1.04775024080874,1.04923779096197,1.04308964437983,1.04402813060525,1.07590982541214,1.03388775606042,1.03390642339459,1.03301928300066,1.03372038915841,1.03426567755123,1.03474540280242,1.02749006486174,1.02842522282494,1.02904667935369
0.898282730719602,0.898535895661095,0.898289090650246,0.898339907353746,0.899153061022934,0.89988997253063,0.90039651485266,0.900653225323755,0.900766040595071,0.901537221191913,0.902403735644181,0.901566511534135,0.901527302124696,0.9016296905374,0.900853894205243,0.899033061411913,0.898760406413615,1.22831532046255,0.893819724344889,0.892320401446946,0.891040719857443,0.891475915212518,0.890637859693204,0.888962755517726,0.88901792626945,0.890462608211312,0.890349185300477,0.890046093517019,0.88745661829765,0.887494221700262,1.07361743500913,0.936962880836176,0.871574107661282,1.07247165305119,0.876141135081699,0.876484577420993,0.875804339223925,0.874820171864046,0.87482403602466,0.876471181002283,1.11684246406189,0.984378120127552,1.11333789694878,0.996816281334085,0.881929930883682,0.882188889293723,0.952462811676257,0.981865553006385,1.11516786795365,0.936159898054144,0.936620107240826,0.89003802010874,0.889665729465875,0.89442740903681,0.893987505556994,0.89912524155361,0.903615674040364,0.894427883265272,0.894572803559906,1.00417339329118,0.908629915469031,0.915769316148441,0.920778797815539,1.04226388617403,1.0416656491679,0.930019318295434,0.939767334966424,0.954074458445253,1.02316333705949,0.963153260513789,0.944706533855726,1.04413276475978,0.965280674975685,0.98899549962183,0.975979147881179,1.01357033002648,1.00643449663951,0.983731707326446,1.03075507795881,1.02537536048425,1.00321829158987,0.967457172200122,0.996912514265075,1.00710749243239,1.00703550493648,1.0389003261447,1.01720959247017,1.00242516325431,1.02018873301975,1.01294785139599,1.01155843369401,0.995262056903429,1.00800720997268,0.99340780053152,1.01749059225182,1.02901319023401,1.01869299968074,0.999743325152304,1.03710433176014,1.00846310076489,1.00819735953406,1.00807394759442,1.00212825732677,1.00237241727973,1.03811790795665,1.02849734436751,1.02659277719263,1.02948940875629,1.06352681768959,1.03057721227582,1.03760435503251,1.01420202114124,1.08048964714645,1.08411754679617,1.05512691661351,1.03399944515911,1.03334360423025,1.01658833217408,1.01711091951119,1.01866593170766,1.05284866931337,1.0187985002297,1.04577896111333,1.04325373682289,1.02865701256271,1.03738913679973,1.03645920815484,1.03647666348158,1.0490305799883,1.0490402600737,1.08573834080898,1.08458741298425,1.05518973482553,1.05580909943096,1.08493389102704,1.06142403425348,1.05999680938651,1.06115702120887,1.34857549046208,1.11037760499893,1.04555594576338,1.04425330581371,1.04377550526651,1.04270083177519,1.04232811510456,1.04131850584161,1.04007930819153,1.04091499248935,1.04070168923861,1.04010580442946,1.03526494318021,1.03461206050306,1.03199997260279,1.03120243835808,1.03072204531022,1.03553245124584,1.03820673500738,1.04308206357435,1.04308201939962,1.04219583072035,1.04215082196673,1.03629516089605,1.03509626729607,1.03403880619325,1.03247472559132,1.03253316578017,1.03182557221318,1.03011407954924,1.02840235983701,1.02792752342188,1.0280894724927
0.900608395850081,0.899278941199862,0.899163079029579,0.898906020857627,0.899528194544528,0.899943961941606,0.900356303329937,0.900880396574895,0.900585335673631,0.900868431726857,0.901780202616294,0.901826144337936,0.90215414638396,0.901872790846934,0.901799121752543,0.900229752373414,0.899117277844156,0.898099888149062,0.89617396233389,0.894711439714484,0.892659752877652,0.892034437767803,0.89155085934829,0.890148960740103,0.904655909087721,0.891130183559653,0.891274115766139,0.891215796660794,0.890102591976087,0.888792744392212,0.888539963782214,1.07396762452789,0.939586527738268,1.07118261687166,0.87916640027833,0.878413768722453,0.87808486017606,0.876913323959973,0.876921248637738,0.877170900949285,0.87740938368644,1.12187488432529,0.900407082895599,1.07014496611974,0.979595563623126,0.928332872552216,0.941020833164267,0.9476781367832,0.934452363312908,0.933722732499262,0.944808063278822,0.974815909964197,0.896003599786342,0.895945559700381,0.939678012703738,0.938751278965314,0.915818473927448,0.894458945391154,1.00050762362927,1.00417745357537,0.951115955244601,1.03416811713999,0.959634664495544,1.03692510004965,0.950593173602567,1.0326255435445,1.03294652448321,1.03243224904414,0.969443516895782,0.952827346433524,0.963105312916832,1.04494513153676,1.01330107273228,1.02151895641358,1.00203510829462,0.993564583814828,1.0006833087037,0.996343005193923,0.996526119538158,1.01613456873893,1.01906489966392,1.0416309194597,1.0696599211397,1.01391053233716,1.07676256887862,1.03546763377451,1.02351266709262,1.01700992727145,1.01878227431124,1.0174186699873,1.02821408743566,1.02859720767919,1.01149447953672,1.04656304245609,1.04680522949488,1.02946980612972,1.03644237366979,1.04129611868073,1.02600738782809,0.998106882081923,1.05477839487665,1.0223695835125,1.00057464776555,1.06818619281525,1.02375296123831,1.02283462927477,1.02347046208783,1.01644998493208,1.03347945741058,1.03060338541741,1.02649003148471,1.09092932331506,1.09105267521228,1.03095889663102,1.03759270592305,1.03656751303362,1.0314789304721,1.01784786983805,1.01771310743162,1.016858927794,1.01612662326119,1.03999652779549,1.0473966613381,1.04310713281337,1.04222651896451,1.02018525552171,1.02050922521951,1.02140644220444,1.1354270280878,1.0438662220105,1.03772499123767,1.04441079703458,1.04529036794566,1.04355475614498,1.04358931389603,1.0491996902119,1.04853250508527,1.0473362320273,1.06838282506446,1.04107877201814,1.10961093981538,1.10983389409106,1.04701313413912,1.10958741080135,1.1157715882383,1.03546035217224,1.03815813285095,1.294194276638,1.04730314311421,1.0386664651369,1.03692318962473,1.03675620728657,1.03723317375456,1.03654407793427,1.03627908059053,1.03517541655116,1.0357567025704,1.03546590546933,1.04585918517675,1.04353660967992,1.0423071066481,1.03397283214558,1.03417184716625,1.03386611962511,1.03352713269051,1.0609411788864,1.03033366272671,1.029024630442,1.02803000469532,1.02651510850339,1.02455284952076
0.902067918517588,0.900149611726829,0.899570311766632,0.899287061121497,0.89954520102662,0.900053342549379,0.900265900221841,0.900415222468477,0.90055748998404,0.901018832831494,0.901592112367047,0.90173487499541,0.901484459492212,0.901004826443693,0.900606659208577,0.900024868821636,0.899058728382098,0.898475138454623,0.89686298533477,0.896369028320674,0.895027899376526,0.893248505602434,0.892021015659808,0.891921583700561,1.11411477143198,0.89221376420247,0.892440321577943,0.89214332856055,0.890706565024653,0.889664879229867,0.888589584159985,0.888126769201534,0.887197618364182,0.885538670669355,0.882115918936108,0.882141338464174,0.880533793945417,0.879764065370155,0.880647382569689,0.882153538307193,0.993457532252141,0.886177063087204,1.08555508486834,1.08469387685935,1.08470570210004,0.900213904527381,0.931955792667424,1.09800170523458,1.09949487815272,1.09206904116543,1.11315239820524,0.943977138808329,0.930165841685863,0.908785590044598,0.921472345997987,0.939884003968925,0.923785288144228,0.907995302434775,0.989263559208664,0.996494535401102,0.960442409529598,1.03296039870568,0.959859112157121,1.03217149147973,1.01318729151433,1.03359916539575,1.03346963567723,1.0335340714943,1.01276521307859,0.990493169563594,0.984266584448836,1.02510426343135,1.03831000842058,1.04367265901295,1.01146895266682,1.04023824187283,1.03213637896235,1.02168940278942,1.05290007804053,1.06065714701523,1.03057225396808,1.02815107721821,1.07578470441606,1.04066123166496,1.04094792266491,1.02793824212947,1.02830184904694,1.02738137984483,1.02641499970219,1.03482938094391,1.05397282509935,1.03175692612623,1.06178307981115,1.06709164161034,1.03104973983243,1.07255089062641,1.06908103654653,1.07580571617553,1.05500111358193,1.06388583736442,1.06380281318729,1.06471505101562,1.05771164630133,1.05875208573676,1.07007440383114,1.01315430804938,1.02282938802282,1.0220928204445,1.02125050099822,1.02858474657451,1.04976367034376,1.03454302858197,1.03447475807732,1.0260748789477,1.03891355411218,1.02720372547479,1.02865418699297,1.01963723611466,1.02166747441246,1.04466703978186,1.03892696528719,1.01632754959931,1.01606653546783,1.02403334068191,1.0237639324366,1.02189917342564,1.02056902765359,1.02299111445714,1.02160910066031,1.01774099696249,1.01781510322323,1.05834706162215,1.09299852985922,1.03329737781821,1.03444727472146,1.03518467461681,1.04044445244181,1.09148222322972,1.0393855083335,1.04042972960155,1.09461520509282,1.61632096512801,1.10463478440139,1.10314362788691,1.04004901412868,1.03373903643446,1.03350898979254,1.03268550847484,1.11220255189217,1.11042242846871,1.10910598402715,1.03764141100766,1.03705346727544,1.0361855128645,1.03582394492363,1.03492605285682,1.03423925974576,1.0335304505099,1.03150891779307,1.03125628106053,1.03152128787296,1.03302182978685,1.03485607591926,1.03397915299558,1.03273904206467,1.03242181846056,1.03038424556561,1.02904534738753,1.02730488866248,1.06375184825236,1.02474846520492
