0.993145451623539,0.993939567474235,0.989874039586434,0.990219307347606,0.98979635434017,0.986714839571709,1.03058974032266,0.977599770676765,0.973560137871051,0.96577434985662,0.965532662423799,0.959766690812225,0.963219368423946,0.953577766193215,0.953405132312629,0.950107825193435,0.948355591305486,0.948580015350248,0.948269274365193,0.936314378134609,0.935036887418272,0.928545853508236,0.927268362791899,0.926526037105379,0.92960755187384,0.917298756188054,0.917747604277578,1.02021444409943,0.944264168335597,0.928847962799262,0.926577827269555,0.926992148582962,0.923427258948859,0.921839027247468,0.920276690628164,0.920794592269922,0.920889540904244,0.916452850173183,0.917902974770106,0.918308664389483,0.918394981329776,0.916918961650765,0.909694233748238,0.908546218442341,0.90744136160659,0.904178581263514,0.903418992188935,0.900700008569705,0.900415162666738,0.90310825120388,0.905033118972415,0.904670587823184,0.904368478532159,1.03550117422533,1.01690850528621,0.984073541198742,1.02590273046474,0.947285261245853,0.950884677656072,0.95177374214109,0.951368052521713,1.04074061250112,1.01303287466705,1.06093877652968,1.05754652077617,1.06408071315635,1.07407621484228,1.04886303658269,1.05008873713485,1.11801153745144,1.06479714376078,1.06862961590979,1.06996752848434,1.05057211200049,1.10187026961664,1.07241892958866,1.0941103766843,1.0431229600532,1.10147321169129,1.10523663028807,1.12548658448081,1.09476638543052,1.0944642761395,1.07506885965565,1.06045540166404,1.06153436341771,1.14879215835993,1.0961733515573,1.08560815806543,1.08220727061789,1.08212958537162,1.09664809472891,1.0579090519254,1.1524951550985,1.08463277664012,1.10073088600477,1.05493111748529,1.06095603991774,1.03545801575518,1.0110130582642,1.03878121795646,1.09971234610931,1.00782796316738,0.992247755444492,0.988501600235774,0.981932881079475,0.968268909431088,0.963133051483653,0.996744868033759,1.00231231068266,0.990469626474456,0.953819453626035,0.996339178414381,0.996684446175554,0.999153110667934,1.00296831942889,1.0830359132447,1.01972243753976,1.17994394211168,1.16210223055312,1.16290497809784,1.15253831356865,1.14770456491224,0.991453639593796,0.99141048112365,0.988941816631269,0.983279425348046,0.978298937893138,0.968942181565374,0.970159250423506,0.966749731281931,0.9668878383864,0.968726389214641,1.21038792695304,1.25806940477091,1.25746518618885,1.0030891631453,0.954958837237903,0.956132747625888,0.958411514849625,0.956745597901969,0.950392671096402,0.947388841574204,0.953405132312629,1.00499676752577,0.971980537863689,0.964505490834312,0.965782981550649,0.962718730170246,0.962969049297096
0.994069042884675,0.9943711521757,0.991142898608741,0.989563298601379,0.991022054892331,0.988656970728302,0.985627246124017,1.07972997443148,0.97196327447563,0.970366411080209,0.965075182640246,0.96230440885684,0.960293224148012,0.954078404446914,0.953534607723068,0.950919204432189,0.949400026283032,0.945558922439992,0.939654843723949,0.935934583597319,0.934570775940689,0.927604998859042,0.92725973109787,0.92354810266527,0.930194507067833,0.917687182419373,0.930669250239445,0.936288483052521,1.12815377793587,0.930168611985745,0.927363311426222,0.926966253500874,0.923712104851827,0.922641774792193,0.92168365675494,0.919845105926699,0.921105333254977,0.920777328881863,0.918628037068567,0.920958594456479,0.91957752341179,1.32774443897544,0.910246662166114,0.909754655606444,0.906655877449924,0.904411637002305,0.903160041368056,0.899949051189155,0.899482939711573,0.901778970323368,0.90546470367388,0.904618797659008,0.907484520076737,0.913526705897249,0.958325197909331,0.957142655827317,0.948321064529369,0.947224839387648,0.950565304976988,0.951670161812739,1.03713256439687,1.0533428857839,1.03191038950914,1.07012289897686,1.08704965096833,1.06378723555935,1.07589750228247,1.0789703853569,1.06436555905932,1.06749886399195,1.07298862139459,1.06726580825316,1.06943236345452,1.04618721143361,1.0888968334906,1.09171076574415,1.07417979517064,1.05001968358262,1.07775331649877,1.12644470251806,1.12298339321231,1.13145108505506,1.10777434833268,1.07745983890177,1.0612667809028,1.06214721369379,1.12341497791378,1.11365253196664,1.08300138646858,1.08213821706565,1.07912575584943,1.06827571645459,1.06405481807426,1.09354931657239,1.08650585424448,1.08572037008781,1.06815487273818,1.06656664103679,1.05938507160441,1.02813833921833,1.07668298643913,1.10004898217646,1.05766736449258,0.99004667346702,0.985808511698632,0.989502876743173,0.957988561842189,0.936029532231642,0.955338631775193,0.97469088978889,0.999783224332073,0.960793862401712,0.996321915026323,0.995346533601012,0.995769486608448,0.999627853839546,1.05800400055972,1.01917000912189,1.0169344003683,1.01405141456251,1.14175732772605,0.99189385598929,0.990081200243137,0.992031963093759,0.987224109519438,0.984073541198742,1.01954980365918,1.14528769058403,0.968640072274348,0.9668878383864,0.96750068866248,0.965316870073067,0.96107007661065,0.962994944379184,0.95487252029761,0.948890756335303,0.987517587116434,1.00441844402581,0.952041324655999,1.06133583445503,0.955157366200577,0.950936467820248,0.948476435021897,0.948510961798014,0.957341184789991,0.972040959721894,0.962839573886657,0.964186118155228,0.965446345483506,0.961398080983763
0.99326629533995,0.994258940153319,1.03168596546438,0.99053868002669,0.991004791504272,0.989330242862588,0.989925829750609,1.08741218211756,0.975217423124677,0.965843403408854,0.963107156401565,0.96230440885684,0.969425556431015,0.954449567290174,0.952360697335083,0.950746570551603,0.950444461260578,0.94595598036534,0.939249154104572,0.936107217477905,0.933966557358638,0.928891121269408,0.927061202135196,0.921545549650471,0.920872277516186,0.92180450047135,0.925714657866625,0.926206664426295,0.929383127829079,0.932671803254243,0.928753014164939,0.927423733284427,0.9267677245382,0.922935252389189,0.921752710307175,0.921605971508677,0.922374192277285,0.921778605389263,0.920561536531131,0.92094996276245,0.935796476492851,0.939361366126953,0.90844263811399,0.909340334293037,0.908615271994576,0.902961512405382,0.90273708836062,0.897273226040071,0.900104421681683,0.900708640263734,0.905421545203734,0.904739641375419,0.906923459964832,0.913466284039044,1.03910059063555,0.955312736693105,0.945843768342959,0.944039744290835,0.942287510402886,0.964341488647755,1.0020015696976,1.02866487255412,1.066333585298,1.07429200719302,1.08334665422976,1.09198697995309,1.08105062361796,1.08231085094624,1.04604047263511,1.05181507594071,1.05960949564917,1.07014016236492,1.06231984757437,1.06750749568598,1.0465670059709,1.07424884872287,1.07959186732701,1.0725484049991,1.09382553078133,1.09804642916166,1.21640421769146,1.15478255401627,1.16382856935898,1.09307457340078,1.07361873505873,1.10422672208664,1.12320781725708,1.18626234214113,1.08364013182675,1.08075714602096,1.07005384542463,1.06844835033518,1.08608290123704,1.11311736693682,1.09351478979627,1.08819766627422,1.07968681596133,1.04926009450804,1.04719711963503,1.0459800507769,1.07041637657386,1.06151710002965,1.01334361565211,0.99363745818321,0.98743990187017,0.967448898498305,0.972955919289,0.953672714827537,0.941717818596952,0.954328723573764,0.938981571589663,0.958023088618306,1.03639887040438,0.994146728130939,0.992739762004162,0.99784109317548,1.21057782422168,0.985480507325518,0.992912395884748,1.22914459807871,0.989839512810316,0.988423914989511,0.986093357601599,0.987120529191086,1.02404691624844,0.980594968504933,0.980249700743761,0.967069103961015,0.968268909431088,0.967785534565447,0.963262526894093,0.960379541088305,0.959740795730137,0.958005825230247,0.951540686402299,0.943495947566989,0.943677213141604,0.94769095086523,0.94856275196219,0.947967165074168,1.05520733169423,0.945826504954901,0.94496333555197,0.96279641541651,0.959464581521199,0.959801217588342,0.971531689774165,0.965601715976034,0.965506767341711,0.961941877707609
0.995165268026396,0.994914948899546,1.06578978857415,0.991367322653503,0.989813617728228,0.989485613355115,0.99040920461625,1.07016605744701,1.0693978366784,1.04941546500057,0.962770520334422,0.960155117043544,0.959412791357023,0.95313754979772,0.953318815372336,0.952688701708196,0.951195418641127,0.945032389104205,0.939905162850799,0.935658369388382,0.93530446993318,0.930418931112595,0.91970699882223,0.921752710307175,0.91995731794908,0.921890817411643,0.925956345299445,0.925542023986039,0.930246297232009,0.932689066642302,0.929555761709665,0.928390483015709,0.925723289560654,0.92540391688157,0.923867475344354,0.923841580262266,0.923461785724977,0.923099254575746,0.922313770419079,0.922115241456405,0.951911849245559,1.15497245128491,0.906137975808166,0.908692957240839,0.909020961613953,0.902832036994943,0.903021934263587,0.897143750629632,0.904169949569485,0.90285793207703,1.06057624538045,0.90694935504692,1.04951041363489,0.915701892792633,1.00320137516768,0.956970021946731,0.940405801104498,0.939844740992594,0.949382762894973,0.991703958720646,0.9864472570568,1.02371891187533,1.02932951299438,1.06485756561899,1.05470669344053,1.06560852299954,1.06678243338752,1.08128367935675,1.04676553493357,1.05037358303782,1.07213408368569,1.07478401375269,1.07537096894668,1.14432957254678,1.06770602464866,1.07236713942448,1.07279872412595,1.16203317700088,1.13601725119656,1.13267678560722,1.14766140644209,1.15309074198652,1.16514058685143,1.09313499525899,1.08871556791598,1.14120489930817,1.14766140644209,1.1107263876907,1.08298412308052,1.07783963343906,1.07293683123042,1.0871877580728,1.11256493851895,1.14098910695744,1.08665259304298,1.09242719634858,1.08495214931921,1.08006661049862,1.07309220172294,1.04850050543346,1.09836580184074,1.08529741708038,1.03056384524057,1.00219146696625,0.973050867923322,0.963633689737353,0.941640133350689,0.939387261209041,0.93753144699274,0.950056035029259,0.963504214326913,0.980948867960134,1.00278705385427,0.992420389325078,0.99239449424299,0.995441482235334,1.21358165374388,0.987258636295555,0.986412730280683,0.988769182750683,0.989131713899913,0.987137792579145,0.982079619877973,1.02841455342727,0.990763104071452,0.977375346632003,0.977176817669329,0.967699217625154,0.968018590304238,0.963055366237389,0.961225447103177,0.955053785872225,0.956667912655705,0.955165997894606,0.950159615357611,0.944928808775853,0.942555092917795,0.94620629949219,0.94645661861904,0.945222286372849,0.943565001119223,0.94100138799252,0.944868386917648,0.94570566123849,1.01111663859255,1.02238963099482,0.976356806736545,0.968398384841528,0.96502339247607,0.962511569513543
0.997055609018814,0.995786749996506,0.995855803548741,0.991073845056507,0.990391941228192,0.987819696407459,0.990107095325225,1.0921682455277,1.01215244187606,1.04367538847108,0.9650320241701,0.960647123603214,0.959473213215229,0.956305381506474,0.953396500618599,0.953310183678306,0.949943823006878,0.939801582522447,0.939188732246367,0.937747239343473,0.935287206545122,0.93258548631395,0.920630590083365,0.92230513872505,0.919767420680435,0.924713381359226,0.926560563881496,0.926741829456112,0.931411575925965,0.929849239306661,0.929797449142485,0.92874438247091,0.927518681918749,0.927354679732192,0.926249822896442,0.926845409784463,0.924022845836881,0.92316830812798,0.92230513872505,0.918800670949153,1.14149837690517,1.29807730659672,0.906483243569338,0.907622627181206,1.15649162943407,0.902780246830767,0.90273708836062,1.12164548063777,0.905507862144027,0.906172502584283,0.908649798770693,1.03277355891207,0.979714535713944,0.999049530339583,0.99895458170526,0.953983455812592,0.943565001119223,0.942606883081971,0.953094391327574,0.975295108370941,1.04484066716503,1.01688261020412,1.02516903647225,1.0577623131269,1.05788315684331,1.08013566405085,1.06945825853661,1.07083069788727,1.0525487699332,1.04716259285892,1.08048093181203,1.12914642274924,1.06277732735793,1.11599172104858,1.07437832413331,1.0789703853569,1.15723395512059,1.10180984775843,1.13673368180099,1.13972024793513,1.16659071144835,1.16113548082183,1.10087762480327,1.09176255590833,1.09379963569924,1.15527456057594,1.14664286654663,1.18171343938769,1.09250488159485,1.09733863025126,1.10195658655693,1.09473185865441,1.1378558020248,1.13498144791305,1.12196485331686,1.08073125093888,1.08638501052807,1.13000096045814,1.12382929922719,1.05448226939577,1.05503469781364,1.06491798747719,1.03376620372544,1.0091572440479,0.973542874482992,0.976270489796252,0.936728699448015,0.976071960833578,0.943029836089406,0.938498196724022,0.96923565916237,1.01424994352519,1.00740501015995,0.99115153030277,0.992221860362404,0.991453639593796,1.2134694417215,0.988173595862661,0.988976343407386,0.989856776198375,0.990219307347606,0.982545731355555,0.980413702930317,0.980612231892992,0.974138461371014,0.975450478863468,0.973240765191967,0.972386227483066,0.968329331289294,0.962338935632957,0.961268605573324,0.953905770566328,0.952472909357464,0.95672833451391,0.94781179458164,0.946750096216036,0.944713016425121,0.946214931186219,0.946387565066805,0.940846017499993,0.940656120231348,0.938480933335964,0.938489565029993,1.34695858988467,1.01381835882372,1.02555746270357,0.978126304012552,0.978618310572223,0.965299606685008,0.963625058043323
0.99784972486951,0.996589497541231,0.995588221033832,1.0202058124054,0.989537403519291,0.98831170296713,0.993145451623539,1.00723237627936,1.05271277211976,1.04239789775474,0.96441054219999,0.959015733431675,0.958739519222738,0.95549400226772,0.953456922476804,0.953008074387281,0.949961086394937,0.942563724611824,0.938877991261312,0.938092507104645,0.935856898351056,0.932697698336331,0.921640498284794,0.921916712493731,0.92243461413549,0.925222651306955,0.927708579187394,0.927665420717247,0.931506524560287,0.932283377022924,0.93110083494091,0.929590288485782,0.928261007605269,0.928545853508236,0.928804804329115,0.928606275366441,0.925343495023365,0.92341862725483,0.920837750740069,1.14243923155436,1.15500697806103,1.29146542897028,0.907018408599155,0.906871669800656,0.904411637002305,0.904135422793367,0.905801339741023,1.02368438509921,0.906491875263367,1.11518897350385,1.08479677882668,0.98384911715398,0.981984671243651,0.938791674321019,1.0305724769346,0.947906743215963,0.947414736656292,0.947639160701054,0.954268301715559,0.984703654862881,1.00568730304812,1.06781823667104,1.03504369444178,1.03885890320273,1.04389118082181,1.05688188033591,1.06917341263364,1.09822769473627,1.15706132124,1.08666122473701,1.08326033728946,1.08370055368496,1.05981665630588,1.12377750906301,1.06071435248492,1.08922483786371,1.09370468706492,1.09556050128122,1.12313013201081,1.12074778445873,1.12376887736898,1.11247862157865,1.11256493851895,1.09365289690074,1.14816204469579,1.11612119645902,1.12958663914473,1.11093354834741,1.15932282507568,1.11892649701854,1.10641917237008,1.15981483163535,1.13139066319686,1.1367941036592,1.12947442712235,1.14220617581557,1.09442111766935,1.11950482051851,1.12649649268224,1.05868590438804,1.05531954371661,1.04090461468767,1.01901463862936,1.01594175555493,0.974621836236655,0.97853199363193,0.936581960649517,0.947457895126439,0.941924979253656,0.960414067864423,0.980698548833285,0.947854953051787,1.02825055124071,0.987897381653723,0.991885224295261,0.990115727019254,0.993369875668301,0.989278452698412,0.989882671280463,0.990495521556543,1.2161797936467,1.2091104362367,0.981302767415336,0.977228607833505,0.975364161923175,0.974259305087425,0.972127276662187,0.971272738953286,0.963953062416437,0.962623781535924,0.959645847095815,1.01109937520449,0.951186786947098,0.944385012052007,0.946258089656366,0.946059560693692,0.945075547574351,0.946396196760835,0.947466526820468,0.9384032480897,0.937315654642008,0.935986373761495,0.936573328955488,0.938877991261312,0.945369025171348,1.01073684405526,1.00189798936925,1.01071094897317,0.963210736729917,0.957159919215375
0.999040898645553,0.994051779496616,0.995527799175627,1.05522459508229,0.99004667346702,0.983641956497277,0.989468349967056,1.02115529874863,1.00578225168244,0.986179674541892,0.983805958683834,0.960060168409221,0.958877626327207,0.955658004454277,0.954889783685669,0.951592476566475,0.950384039402373,0.95140257929783,0.939378629515011,0.937885346447942,0.936754594530103,0.933983820746697,1.18356925360399,0.925248546389042,0.925188124530837,0.927743105963511,0.92911554531417,0.929521234933547,0.929754290672339,0.932499169373657,0.932645908172155,0.932257481940836,0.929693868814133,0.928917016351496,0.92948670815743,0.928321429463474,0.927743105963511,0.923435890642889,0.923599892829445,1.1445712599796,0.906604087285748,1.11537023907847,0.905999868703697,0.903928262136664,0.904817326621682,0.903928262136664,0.906776721166334,0.909685602054209,0.91178310370333,1.06515104321598,0.914916408635967,1.03209165508375,1.00017165056339,0.938584513664315,0.932948017463181,1.0134299325924,0.950737938857574,0.957168550909405,1.01752998725632,0.987094634108998,1.0465670059709,1.06576389349207,1.03075374250921,1.04435729229939,1.04277769229203,1.04618721143361,1.07297998970056,1.07749436567789,1.07691604217792,1.16024641633682,1.08328623237155,1.08323444220737,1.06493525086525,1.07507749134968,1.07699372742419,1.08817177119214,1.13987561842766,1.1285163090851,1.11536160738444,1.12979379980143,1.1439238829274,1.15652615621019,1.15350506329993,1.15541266768041,1.09931528818397,1.18779015198432,1.1159399308844,1.11429990901884,1.16421699559029,1.16735893221696,1.12036798992144,1.1230092882944,1.13454986321158,1.13876212989788,1.114938654377,1.08647995916239,1.08437382581924,1.12395877463763,1.13676820857711,1.07108101701412,1.07468043342434,1.04578152181423,1.08898315043089,1.01399962439834,1.01124611400299,0.968579650416143,0.973594664647168,0.936038163925671,0.963115788095595,0.947147154141384,0.971169158624934,0.939128310388162,1.05276456228393,0.989373401332734,0.989554666907349,0.99003804177299,0.988406651601452,0.986732102959768,1.19920125149106,1.1994774657,0.978488835161783,1.13975477471125,0.972256752072626,0.975502269027644,0.975502269027644,0.974233410005337,0.971523058080136,0.967457530192334,0.962528832901602,0.954484094066292,0.954604937782702,0.960603965133067,0.945645239380285,0.945662502768344,0.945075547574351,0.945127337738527,0.944738911507208,0.945179127902703,0.951644266730651,0.979067158661746,0.939335471044865,0.936979018574865,0.935649737694353,0.936633750813693,1.05140938632133,1.08542689249082,1.01260992165962,0.959896166222664,0.962373462409074,0.956314013200504
0.999645117227605,0.996278756556176,0.994146728130939,0.993741038511561,0.992817447250426,0.984142594750976,0.979343372870684,1.00814733584647,0.980465493094493,0.980819392549695,0.97889452478116,0.960017009939075,0.95982711267043,0.956503910469149,0.956495278775119,0.951816900611237,0.95190321755153,0.952326170558966,0.941148126791018,0.940535276514938,0.939352734432923,0.93567563277644,0.93592595190329,0.948666332290541,0.929529866627577,0.932188428388602,0.932620013090067,0.930979991224499,0.931687790134902,0.932775383582595,0.935131836052594,0.935200889604829,0.932594118007979,0.929814712530544,0.924842856769665,0.926310244754647,0.926741829456112,0.923953792284647,0.924178216329409,1.16469173876191,0.901666758300987,0.904541112412745,0.90484322170377,0.902573086174063,0.904877748479887,1.15317705892682,0.908261372539374,0.911696786763037,1.09644956576624,0.916521903725417,0.998445311757531,1.01689987359218,1.0189369533831,0.966050564065557,0.931135361717027,0.929995978105159,0.975338266841087,0.963814955311968,0.975105211102296,0.976874708378303,1.05613955464939,1.03663192614317,1.03206576000167,1.07124501920067,1.04080103435932,1.06409797654441,1.07738215365551,1.0771749929988,1.07936744328225,1.09433480072906,1.10883604669829,1.11575866530979,1.14582285561385,1.07598381922276,1.08649722255045,1.0796781842673,1.10900004888484,1.1069543373999,1.11239230463836,1.13555977141301,1.15037175836729,1.14072152444253,1.16860189615718,1.16890400544821,1.16166201415762,1.2984829962161,1.21171720783355,1.17151940873908,1.17157119890326,1.10549558110895,1.12136063473481,1.12247412326459,1.12184400960045,1.14199038346484,1.13746737579348,1.11240956802642,1.10070499092268,1.13026854297305,1.06681696016364,1.0590570672313,1.07441285090943,1.05523322677632,1.02193215121126,1.02529851188269,1.00133692925735,0.982709733542112,0.960146485349514,0.979110317131893,0.9370480721271,0.9468277814623,0.958972574961529,0.942347932261092,0.94459217270871,0.986602627549328,0.987802433019401,0.995959383877092,0.992178701892257,0.983072264691343,0.983572902945042,1.19872650831945,0.974518255908304,0.974276568475483,0.972748758632296,0.971523058080136,0.97171295534878,0.974164356453102,0.969943458072773,0.962287145468781,0.958540990260064,0.952291643782848,0.949589923551677,0.944359116969919,0.944082902760981,0.944730279813179,0.942252983626769,0.943038467783436,0.943383735544608,0.944643962872886,0.952464277663435,0.953353342148453,0.940776963947758,0.934078769381019,0.934544880858602,0.935502998895854,0.980922972878046,0.953465554170834,1.03227292065837,0.951238577111274,0.956314013200504,0.954181984775266
1.00011122870519,0.996149281145737,0.994914948899546,0.995035792615957,1.00731869321965,0.982709733542112,0.980974763042222,0.979472848281124,1.00763806589874,1.01205749324174,1.00834586480914,0.960491753110686,0.959835744364459,0.956564332327353,0.954967468931932,0.952403855805229,0.951091838312776,0.947975796768197,0.94285720220882,0.941735081985011,0.939542631701568,0.938877991261312,0.938221982515085,0.949322341036768,0.931946740955782,0.932896227299005,0.932732225112448,0.929849239306661,0.932361062269188,0.933414128940763,0.937013545350982,0.937453761746477,0.929676605426075,0.925662867702449,0.925818238194976,0.92577507972483,0.927225204321753,0.925326231635306,0.924109162777174,0.913103752889813,0.890074393219633,0.890799455518094,0.90410089601725,0.902935617323294,1.15180461957616,1.14549485124074,0.908951908061718,1.07663982796899,0.919171833792413,0.922089346374317,1.00510897954815,1.00508308446607,1.11631109372766,0.966896470080429,0.928235112523181,0.929020596679848,0.966059195759587,0.969287449326546,0.984418808959914,1.0382028944565,1.01412909980877,1.07332525746173,1.05222076556009,1.08878462146822,1.07423158533481,1.06383902572353,1.06790455361133,1.07358420828261,1.10820593303415,1.11269441392939,1.11456749153374,1.11480054727254,1.0929623613784,1.12616848830913,1.09054548705019,1.09758031768408,1.15749290594147,1.11988461505579,1.15927966660553,1.18641771263366,1.18635729077546,1.15998746551594,1.15135577148663,1.14511505670345,1.16586564914989,1.11976377133938,1.12661733639865,1.21053466575153,1.13223656921173,1.12034209483935,1.19374602086454,1.14817067638982,1.12633249049568,1.14790309387491,1.10789519204909,1.08811134933393,1.10161131879576,1.05099506500793,1.04919967264983,1.05333425408987,1.08764523785635,1.14372535396473,1.01490595227141,1.01445710418189,1.00089671286185,0.993447560914565,0.964082537826876,0.957384343260137,0.9748117335053,0.952939020835046,0.957979930148159,0.94769095086523,0.963504214326913,0.992308177302697,0.989744564175994,0.981406347743687,0.979498743363212,0.980051171781087,0.980456861400464,1.23699943964538,0.971782008901015,0.971488531304018,0.97282644387856,0.969347871184751,0.969563663535484,0.968804074460905,0.962874100662774,0.960811125789771,0.95673696620794,0.946025033917575,0.946542935559333,0.945006494022117,0.942658673246146,0.941268970507429,0.939853372686623,0.940336747552264,0.940587066679114,0.947734109335377,0.952127641596292,0.952403855805229,0.9360467956197,0.932922122381093,0.933094756261679,0.934588039328748,1.03383525727767,0.954242406633471,1.03984291632207,1.00216557188416,0.953793558543947,0.952800913730577
0.999783224332073,0.997616669130718,0.995398323765188,0.993413034138448,1.0087170276524,0.982528467967497,0.979723167407973,0.979533270139329,0.97890315647519,1.00864797410017,1.00710290086892,1.02051655339046,0.9589639432675,0.956253591342298,0.955856533416951,0.952490172745522,0.952636911544021,1.136440204204,0.944126061231128,0.940543908208967,0.940604330067172,0.940146850283619,0.944057007678894,1.13026854297305,0.935865530045085,0.935416681955561,0.933086124567649,0.930651986851386,0.931730948605049,0.933759396701935,0.935813739880909,0.936210797806257,0.94534313008926,0.947043573813032,0.945981875447428,0.946223562880249,0.928839331105232,0.927682684105306,0.923884738732413,0.921649129978823,0.916401060009007,0.902892458853148,0.904031842465016,0.903298148472525,0.903833313502342,1.2019806569685,1.08706691435638,1.20205834221476,0.920768697187834,1.00232094237669,1.01695166375636,1.01771988452496,1.03137522447932,0.933500445881056,0.931584209806551,0.97406940781878,0.975036157550062,1.0434768595084,1.04059387370262,1.0228557424724,1.05904843553727,1.03752099062819,1.04750786062009,1.05481890546291,1.05842695356716,1.06475398529064,1.10270754393748,1.07222903232001,1.10072225431074,1.1060134827507,1.11209882704136,1.10923310462363,1.13524039873392,1.07179744761855,1.10504673301942,1.11582771886202,1.15498108297894,1.13672505010696,1.13831328180836,1.18321535414879,1.17675884701487,1.15665563162063,1.1585028141429,1.13868444465162,1.13420459545041,1.12389835277942,1.13496418452499,1.14440725779304,1.10326860404939,1.11706205110821,1.16462268520967,1.16569301526931,1.1322883593759,1.13225383259979,1.17769970166407,1.092254562468,1.08869830452792,1.10061867398239,1.05292856447049,1.04651521580672,1.05151296664969,1.0105124200105,1.04158651851599,1.026273893308,1.02149193481577,1.00981325279412,0.968916286483286,0.966430358602847,0.963944430722407,0.945938716977282,0.975165632960501,0.963314317058268,0.968407016535557,0.984315228631563,0.981915617691416,0.980853919325812,0.98025833243779,0.980275595825849,0.977107764117094,1.21750907452721,0.970573571736912,0.970159250423506,0.968346594677352,0.967923641669916,0.966438990296876,0.965575820893946,0.961225447103177,0.960931969506181,0.954354618655852,0.946361669984717,0.944782069977355,0.940940966134315,0.940440327880615,0.939059256835927,0.93815292896285,0.936901333328601,0.940207272141824,0.944928808775853,0.945800609872813,1.30657952521559,0.998747421048557,0.93282717374677,0.931782738769225,0.931877687403547,0.953422395700687,1.03436179061346,1.07716636130477,1.08509025642367,0.998626577332147,0.948519593492043
1.00018891395145,0.997910146727715,0.997245506287458,0.994345257093612,0.986369571810537,0.982554363049585,0.979093053743834,0.98001664500497,0.978782312758779,1.00493634566757,1.0040904396527,0.994820000265224,0.957030443804936,0.955062417566255,0.956262223036328,0.951255840499332,0.950401302790431,0.965860666796913,0.943754898387868,0.941933610947685,0.941407077611898,0.940768332253729,0.939508104925451,0.947604633924937,0.939689370500066,0.939775687440359,0.957030443804936,0.931428839314023,0.931264837127466,0.933733501619847,0.937367444806184,0.937807661201678,0.94273635849241,0.943703108223692,0.94509281096241,0.941398445917868,0.935157731134682,0.932395589045305,0.924946437098017,1.13984109165154,1.13933182170381,0.902849300383001,0.905637337554466,0.906310609688752,0.907285991114063,1.08879325316225,1.00280431724233,1.0730490432528,1.07369642030499,0.99462147130255,1.02602357418115,1.02608399603936,1.05553533606734,0.933301916918382,0.979749062490061,0.978514730243871,0.982010566325739,1.01715019271903,1.07135723122305,1.03968754582954,1.06170699729829,1.07291093614833,1.05771915465675,1.05750336230602,1.05873769455221,1.07084796127532,1.07651898425258,1.0906663307666,1.13319468724898,1.11064870244444,1.11229735600404,1.15041491683744,1.10262985869122,1.12414867190627,1.13670778671891,1.17187330819429,1.14023814957689,1.14449357473334,1.14019499110674,1.14330240095729,1.17359101530612,1.15903797917271,1.15404022832975,1.1207391527647,1.10757581937001,1.14034172990524,1.14082510477088,1.13336732112957,1.10388145432547,1.11859849264543,1.27878547044123,1.16047947207561,1.13232288615202,1.15952135403835,1.13882255175609,1.09074401601287,1.09042464333378,1.10521936690001,1.10743771226554,1.0524020311347,1.07888406841661,1.03568243979994,1.03708077423269,1.0833898126999,1.04694680050818,1.01696029545039,0.978264411117021,0.965826140020795,0.974544150990392,0.934424037142191,0.937850819671825,0.952326170558966,0.966050564065557,0.979878537900501,0.986343676728449,0.986542205691123,0.976503545535043,0.972955919289,0.975985643893285,1.16284455623964,0.970668520371235,0.970280094139916,0.966861943304312,0.965489503953653,0.965342765155155,0.962468411043397,0.959386896274935,0.95091057273816,0.950781097327721,0.956460751999002,1.09111517885613,0.93852409180611,0.939119678694132,0.938480933335964,0.936590592343546,0.935761949716733,0.936884069940543,0.936849543164426,0.942675936634205,0.993775565287679,0.956866441618379,0.931558314724463,0.929633446955928,0.939249154104572,1.03672687477749,0.919249519038677,1.06578115688012,0.933440024022851,1.03196217967331,0.945653871074315
1.00142324619764,0.999627853839546,0.998134570772477,0.994984002451781,0.982623416601819,0.981173292004896,0.980336017684054,0.980180647191526,0.979179370684127,1.00720648119727,1.08063630230455,0.993499351078741,0.954527252536438,0.953560502805156,0.954673991334936,0.952360697335083,0.949745294044204,0.948787176006952,0.94534313008926,0.94285720220882,0.941795503843216,0.941855925701421,0.94992655961882,0.938593145358345,0.941303497283546,0.941855925701421,0.9603191192301,0.932965280851239,0.932870332216917,0.934657092880983,0.936763226224132,0.938972939895634,0.939551263395597,0.941950874335744,0.942762253574498,0.94224435193274,0.937963031694205,0.936348904910726,0.937341549724096,0.920829119046039,0.919145938710325,1.05563028470166,0.911834893867506,1.08425298210283,1.15109682066575,0.924385376986112,1.00423717845119,1.06437419075335,1.07264335363342,1.04655837427687,1.03442221247167,0.969425556431015,1.00798333365991,0.935244048074975,0.978859998005043,0.980810760855665,0.974518255908304,0.996917501914345,1.07560402468547,1.07990260831206,1.12408825004807,1.0584701120373,1.05582881366434,1.06941510006646,1.06976036782763,1.08720502146085,1.10092941496745,1.09663083134085,1.11543066093667,1.16366456717242,1.17453186995531,1.11468833525015,1.10657454286261,1.14762687966597,1.12508952655546,1.13231425445799,1.14372535396473,1.15102776711352,1.15092418678517,1.14162785231561,1.19372875747648,1.19536877934205,1.20008168428205,1.11639741066796,1.1144380161233,1.10049783026598,1.10900004888484,1.10357071334041,1.10299238984045,1.14184364466634,1.28024422673218,1.16874000326165,1.16184327973224,1.12992327521187,1.11304831338459,1.09253077667693,1.09001895371441,1.09140865645312,1.06110277871624,1.10438209257917,1.05515554153005,1.08798187392349,1.05517280491811,1.05447363770174,1.0614135197013,1.01652871074892,0.999532905205224,0.959896166222664,0.963400633998561,0.944479960686329,0.969451451513103,0.96279641541651,0.958860362939148,0.970133355341418,0.977746509475263,0.986706207877679,0.969011235117608,0.970530413266765,0.972101381580099,0.970806627475703,0.966879206692371,0.96973629741607,0.965549925811858,0.962753256946364,0.961251342185265,0.957556977140723,0.95623632795424,1.26498339168838,0.956063694073654,1.15045807530759,0.95561484598413,0.99833309973515,0.934096032769078,0.935761949716733,0.935114572664536,0.933241495060177,0.932525064455745,0.934527617470543,0.934303193425781,0.937108493985305,0.939447683067246,0.931282100515525,0.927000780276991,0.926215296120324,0.921174386807211,0.918645300456626,1.17814854975359,1.00432349539149,0.936038163925671,0.943884373798307
1.00323590194379,1.00053418171262,0.998255414488887,0.995700433056213,0.984695023168852,0.982269517146618,0.980206542273614,0.980197910579585,0.979136212213981,1.00722374458533,0.998885528153026,1.07015742575298,0.985394190385225,0.954078404446914,0.953750400073801,0.954311460185705,0.948571383656219,0.949728030656145,0.948769912618893,0.945032389104205,0.94434185358186,0.943806688552044,0.947613265618966,0.950004244865083,0.944290063417685,0.943823951940102,0.960111958573397,0.963676848207499,0.935131836052594,0.974129829676985,0.938014821858381,0.940259062306,0.942287510402886,0.943504579261018,0.944298695111714,0.94236519564915,0.941441604388015,0.938688093992667,0.937635027321092,1.08930252310997,0.919715630516259,1.14862815617337,0.916789486240325,1.01138422110746,1.1067471767432,1.09062317229646,1.06083519620133,0.999731434167898,1.00169946040658,1.03867763762811,1.01471605500277,1.01454342112218,1.0486904027021,1.01562238287584,0.969572295229513,0.966421726908817,0.99177301227288,1.00370201342138,1.0472748048813,1.04492698410533,1.07793458207338,1.06383902572353,1.057201253015,1.04693816881416,1.06285501260419,1.07904807060316,1.09211645536353,1.14478705233033,1.11195208824287,1.11474875710836,1.11060554397429,1.10896552210873,1.10777434833268,1.15742385238923,1.13301342167436,1.17422976066429,1.14397567309158,1.12647922929418,1.15401433324766,1.14770456491224,1.27117231630739,1.14558979987506,1.11871070466781,1.10714423466854,1.10742044887748,1.09713146959455,1.09971234610931,1.10594442919847,1.11224556583986,1.11139965982499,1.27175927150138,1.18525243393971,1.14792035726297,1.15227936274777,1.12462341507788,1.1123146193921,1.09606977122895,1.10156816032561,1.08194831979701,1.10106752207191,1.05094327484375,1.04871629778419,1.06880224979038,1.05496564426141,1.06383902572353,1.02528124849463,1.00487592380936,0.992498074571342,0.974975735691857,0.969434188125044,0.967578373908744,0.966672046035667,0.958506463483947,0.986007040661306,0.948122535566695,0.946266721350395,0.969425556431015,0.969287449326546,0.96849333347585,0.966110985923762,0.968182592490795,0.965334133461125,0.963711374983616,0.960992391364386,0.959404159662994,0.954932942155815,0.951972271103764,0.946042297305633,1.28803001474662,1.26526823759134,0.950945099514277,0.951109101700834,0.930945464448382,0.933137914731825,0.932913490687063,0.931515156254316,0.932904858993034,0.934285930037723,0.935097309276477,0.937842187977796,0.939067888529956,0.927967530008273,0.925628340926332,0.923694841463768,0.923530839277211,0.922115241456405,0.932602749702009,0.927958898314243,1.05757241585826,1.02408144302456
1.00724963966742,1.00253673472742,0.998428048369473,0.996718972951671,0.995950752183063,0.981906985997387,0.981906985997387,0.979835379430354,0.979610955385593,0.98162214009442,0.99982638280222,1.06258743008928,0.993585668019034,0.953672714827537,0.954415040514057,0.963953062416437,0.946068192387721,0.950582568365047,0.949728030656145,0.945688397850432,0.94571429293252,0.948001691850285,0.948010323544314,0.948018955238344,0.947449263432409,0.947276629551823,1.06181920932067,0.95994795638684,1.00256262980951,0.971652533490575,0.938877991261312,0.94348731587296,0.945248181454937,0.944255536641567,0.946171772716073,0.94533449839523,0.94397932243263,0.942624146470029,1.17596473116418,0.93221432347069,1.14575380206162,0.923435890642889,1.16344014312766,1.12514131671964,0.927518681918749,0.929296810888785,0.988959080019327,0.989710037399877,1.08772292310261,0.963228000117975,1.00522982326456,0.939266417492631,1.04879398303046,0.946413460148893,1.00174261887673,0.960983759670357,0.995821276772623,0.996805289891964,1.05249697976903,1.0487767196424,1.16551174969469,1.06961362902913,1.10526252537016,1.07026100608133,1.07076164433503,1.09373921384104,1.09663946303488,1.13593093425627,1.1132295789592,1.11129607949664,1.11505086639938,1.10880151992217,1.16231802290385,1.17365143716432,1.15663836823257,1.15765690812802,1.12782577356275,1.11451570136957,1.14104952881565,1.1589171354563,1.24896296756999,1.14214575395737,1.13667325994279,1.1115205035414,1.11225419753389,1.11038975162356,1.12407098666001,1.19530835748384,1.24255825060025,1.22320599258655,1.22243777181794,1.18450147655916,1.1836296754622,1.15175282941198,1.15058755071803,1.08761934277426,1.08849114387122,1.0975285275199,1.10080857125104,1.06732623011137,1.05515554153005,1.09497354608723,1.09064906737855,1.07643266731228,1.10636738220591,1.05015779068709,1.04011049883698,1.00392643746614,0.99536379698907,0.957608767304899,0.93542531364959,0.929952819635012,0.924687486277138,0.983132686549548,0.95562347767816,0.962744625252334,0.951065943230688,0.963504214326913,0.963901272252261,0.965230553132774,0.962459779349367,0.963107156401565,0.960785230707683,0.959490476603287,0.959663110483873,0.948407381469662,0.946689674357831,0.941700555208894,1.26325705288252,1.29604022680581,0.918515825046186,0.951428474379918,0.928675328918676,0.929555761709665,0.932102111448309,0.927561840388896,0.927035307053108,0.930021873187247,0.932490537679628,0.935451208731678,0.941700555208894,0.926059925627797,0.926500142023291,0.923349573702596,0.920760065493805,0.921139860031094,0.922460509217577,0.925809606500947,0.924126426165233,1.03258366164342
1.00699932054057,1.00643826042867,0.998531628697824,0.998065517220242,0.995648642892037,0.986473152138888,0.981354557579512,0.980146120415409,0.980189278885556,0.980612231892992,0.996701709563612,1.05849600711939,1.06885403995456,0.985635877818046,0.983788695295775,0.946007770529516,0.947872216439845,0.951393947603801,0.952619648155962,0.947354314798087,0.948044850320431,0.948355591305486,0.950323617544167,0.949391394589003,0.949408657977061,0.94967624049197,0.948614542126365,0.957556977140723,1.46377130518322,1.07618234818543,0.965290974990979,0.943806688552044,0.945843768342959,0.947147154141384,0.947449263432409,0.945679766156402,0.945023757410175,0.942796780350615,0.937773134425561,1.15394527969542,0.930134085209628,1.13249552003261,1.03698582559837,0.929443549687284,0.927924371538126,0.931325258985672,1.04989883986621,1.15681963380718,0.961035549834532,0.980223805661673,0.953439659088746,0.995812645078594,0.998194992630682,0.952680070014167,0.9869478953105,0.960681650379331,0.98693926361647,0.999636485533575,1.10639327728799,1.10831814505653,1.07545728588697,1.0703991131858,1.10147321169129,1.0771749929988,1.0759665558347,1.11379927076514,1.09172802913221,1.09079580617704,1.11182261283243,1.11186577130257,1.15372948734469,1.11132197457873,1.12527079213008,1.12307834184664,1.19735406896879,1.19775112689414,1.10746360734763,1.23150105054871,1.1692837999855,1.1536431704044,1.24633893258508,1.18213639239513,1.12691944568968,1.11323821065323,1.08833577337869,1.0961733515573,1.10458925323587,1.20161812581926,1.30616520390218,1.31576364766277,1.26125449986772,1.20816958158751,1.16316392891872,1.18999986565582,1.11616435492916,1.08755892091605,1.1369408424577,1.12193032654074,1.11849491231708,1.08496078101324,1.0823281143343,1.03857405729976,1.038349633255,1.03756414909833,1.09373921384104,1.03267861027775,1.00843218174944,1.00168219701852,0.969477346595191,0.983987224258449,0.94856275196219,0.948070745402519,0.951238577111274,0.948027586932373,0.946413460148893,0.96441054219999,0.952058588044057,0.951385315909772,0.96143260775988,0.961372185901675,0.959758059118196,0.960742072237536,0.958359724685448,0.956797388066145,0.954579042700614,0.947526948678673,0.942054454664095,0.937082598903217,0.934398142060104,1.26479349441973,0.920380270956515,0.92180450047135,0.925982240381533,0.925481602127833,0.927242467709811,0.969382397960868,0.924946437098017,0.925576550762156,0.930220402149921,0.930885042590177,0.932637276478126,0.948079377096549,0.924238638187614,0.923625787911533,0.921001752926625,0.917341914658201,1.10257806852704,0.923081991187687,0.922270611948933,0.929279547500727
1.00699068884654,1.00707700578683,1.0010866101305,1.0010866101305,1.00392643746614,1.05845284864925,0.985264714974786,0.982191831900354,0.981216450475043,0.972058223109952,0.998669735802293,0.996054332511415,0.993033239601159,1.04675690323954,1.03131480262112,0.948769912618893,0.946732832827977,0.953422395700687,0.953664083133508,0.949192865626329,0.947889479827904,0.948329696223399,0.958566885342152,0.951851427387354,0.95040993448446,0.950384039402373,0.950263195685962,0.949538133387501,0.947604633924937,0.944997862328087,0.946016402223545,0.946025033917575,0.947354314798087,0.947889479827904,0.950245932297904,0.947259366163765,0.946534303865304,0.945653871074315,1.15623267861319,1.14087689493506,1.13065696920436,1.07922933617778,0.933172441507942,0.932240218552778,0.931627368276697,1.0544909010898,1.05531091202258,1.00611888774958,0.96205408972999,0.986593995855299,0.953983455812592,0.953318815372336,0.998100043996359,1.00388327899599,1.00219146696625,0.97270560016215,0.981285504027277,1.01002904514486,1.07856469573752,1.10718739313869,1.10284565104195,1.10240543464646,1.06209542352961,1.13191719653264,1.1289306303985,1.11315189371294,1.09121012749045,1.12882705007015,1.13095907849539,1.11265125545924,1.11294473305623,1.10576316362386,1.12111031560796,1.17800181095509,1.24923918177893,1.1909061935289,1.15757922288176,1.13745011240543,1.15792449064293,1.15705268954597,1.25303712715182,1.18009931260421,1.10794698221327,1.12224106752579,1.0911065471621,1.09644093407221,1.10955247730272,1.13808885776359,1.2542369326219,1.31388193836438,1.290205201642,1.29838804758178,1.30884102905127,1.11747637242162,1.11770942816041,1.10520210351195,1.10727371007898,1.14410514850202,1.15518824363564,1.0799716618643,1.09357521165448,1.04039534473994,1.03777994144907,1.03462074143434,1.033636728315,1.02903603539738,1.0138701489879,1.01652007905489,1.01105621673434,0.992480811183283,0.985549560877753,0.942908992372996,0.927147519075489,0.951273103887391,0.936651014201752,0.93407013768699,0.956693807737793,0.947000415342886,0.959775322506254,0.960042905021163,0.957954035066071,0.95500199570805,0.954259670021529,0.952619648155962,0.980948867960134,0.944730279813179,0.93939589290307,0.932663171560214,0.929970083023071,0.925188124530837,0.920639221777395,0.920906804292303,0.920483851284867,0.921148491725123,1.10849077893711,0.936892701634572,0.00378249464058085,0.925352126717394,0.932809910358712,0.931860424015488,0.931644631664756,0.930177243679775,0.929719763896221,0.92985787100069,0.914683352897175,0.91512356929267,0.915943580225454,0.91797202832234,0.920345744180398,0.922201558396698
1.19858840121498,1.00795743857782,1.00127650739914,1.0005859718768,1.00135419264541,1.14432957254678,1.14120489930817,0.998609313944088,1.10899141719081,0.974086671206839,0.97183379906519,0.972058223109952,0.992256387138521,1.04222526387416,1.02772401790493,0.986343676728449,0.95078972902175,0.951014153066512,0.958635938894386,0.953128918103691,0.948968441581567,0.949607186939735,0.952593753073874,0.953370605536512,0.950755202245633,0.951359420827684,0.950720675469515,0.948416013163692,0.947406104962263,0.946801886380212,0.947621897312996,0.950323617544167,0.948131167260725,0.948864861253215,0.950919204432189,0.948502330103985,0.945170496208673,0.945627975992227,0.943193838275963,0.944531750850505,1.22284346143732,1.1066004379447,1.09140865645312,0.933983820746697,1.06913888585752,1.05638987377624,1.01646828889072,1.01013262547321,1.01713292933097,0.965921088655118,0.944652594566916,0.998514365309766,0.992549864735518,1.03446537094181,1.00869976426434,0.981380452661599,1.00617930960779,1.03326556547174,1.05665745629115,1.05689051202994,1.09985908490781,1.13584461731598,1.1352921888981,1.15788133217279,1.12896515717462,1.11754542597385,1.10098983682565,1.1223619112422,1.12349266316004,1.117588584444,1.12025577789905,1.10255217344495,1.17101013879136,1.17562809509703,1.17561083170897,1.12349266316004,1.10301828492254,1.10306144339268,1.13051023040587,1.16236118137399,1.1830427202682,1.13164961401773,1.10855120079532,1.09505123133349,1.10549558110895,1.09385142586342,1.11968608609312,1.14174869603202,1.3080555448946,1.30140914049204,1.27364098079977,1.30316137437998,1.14552074632282,1.12000545877221,1.12089452325722,1.11152913523543,1.12447667627938,1.16185191142627,1.15755332779967,1.06685148693976,1.06775781481283,1.03524222340445,1.03690814035211,1.03563064963577,1.03123711737485,1.03080553267339,1.08562542145349,1.04959673057518,1.00495360905563,1.04363223000093,0.954604937782702,0.947449263432409,0.959119313760027,0.932844437134829,0.937065335515158,0.938541355194169,0.935502998895854,0.966223197946144,0.963020839461272,0.958938048185412,0.954458198984204,0.953525976029039,0.953275656902189,0.95177374214109,0.944782069977355,0.943685844835634,0.937876714753912,0.928580380284353,0.925939081911386,0.922365560583255,0.918740249090948,0.919301309202853,0.916694537606003,0.917333282964172,1.09556913297525,1.31547017006577,0.920354375874428,0.91772170919549,0.921916712493731,0.933509077575085,0.930280824008126,0.929624815261899,0.928545853508236,0.929037860067906,0.982813313870464,0.912361427203293,0.914588404262853,1.26470717747944,1.26259241244226,0.921830395553438
1.18953375417824,1.01045199815229,1.00482413364519,1.00147503636182,1.00119019045885,1.00651594567493,0.992454916101195,0.994509259280169,0.992584391511635,0.974475097438157,0.97257612475171,0.972895497430795,1.11536160738444,1.03722751303119,1.03698582559837,1.01443984079383,1.01695166375636,1.13573240529359,0.959386896274935,0.954855256909551,0.952213958536585,0.953361973842482,0.953465554170834,0.953336078760394,0.952127641596292,0.951747847059002,0.952239853618673,0.950729307163545,0.94782042627567,0.946862308238417,0.948450539939809,0.951609739954534,0.950340880932226,0.949520869999442,0.94905475852186,0.949149707156182,0.94360815958937,0.948018955238344,0.946534303865304,0.945144601126586,1.12034209483935,1.22204934558662,1.05599281585089,0.938377353007612,0.938558618582228,0.937125757373363,0.95722034107358,1.00481550195116,1.00496224074966,0.960396804476364,0.947552843760761,1.01098716318211,1.0235635413828,1.04504782782174,1.02314058837537,0.996718972951671,1.00564414457797,1.01703798069665,1.06144804647741,1.05585470874643,1.09819316796016,1.09212508705756,1.18747941099927,1.17936561861172,1.15653478790421,1.11815827624993,1.10212058874349,1.19062134762593,1.12915505444327,1.12379477245107,1.1175281625858,1.11239230463836,1.13711347633828,1.18014247107436,1.17954688418634,1.17138130163462,1.17693148089546,1.11972061286924,1.16290497809784,1.16038452344128,1.15954724912044,1.26638172612112,1.31463289574493,1.11451570136957,1.16359551362018,1.09677757013935,1.12213748719744,1.14789446218088,1.28659715353775,1.28162529777687,1.27361508571768,1.1769142175074,1.11937534510807,1.11853807078722,1.12671228503297,1.18181701971604,1.1477218283003,1.1388570785322,1.16831705025421,1.07554360282727,1.03527675018057,1.03658013597899,1.03711530100881,1.0466274278291,1.0290705621735,1.028630345778,1.07704551758836,1.03568243979994,1.04029176441159,0.99623559808603,1.00265757844383,0.9328358054408,0.948424644857721,0.925964976993475,0.956788756372115,0.927976161702302,0.933690343149701,0.936849543164426,0.967000050408781,0.959939324692811,0.954216511551383,0.954898415379698,0.953172076573838,0.948571383656219,0.947293892939882,0.944117429537099,0.934726146433217,0.928968806515672,0.923513575889152,0.919689735434171,0.918489929964098,0.920604695001278,1.03576875674024,0.906276082912635,0.928804804329115,0.909720128830326,0.911765840315271,0.914717879673293,0.91760086547908,0.930574301605122,0.930116821821569,0.926672775903877,0.925334863329335,0.925447075351716,1.03803026057591,1.0726088268573,0.909599285113916,0.909323070904978,0.911506889494392,1.19008618259612
1.01709840255486,1.14489063265869,1.2195375226241,1.00414222981687,1.00156135330211,1.00160451177226,1.00751722218233,1.06019645084316,0.980336017684054,0.979774957572149,0.973603296341197,0.973266660274055,0.973491084318817,1.11269441392939,1.01383562221178,1.00213967680207,0.969468714901161,1.01171222548057,0.960923337812152,0.959723532342078,0.956011903909478,0.954173353081236,0.953655451439478,0.953802190237977,0.953750400073801,0.951480264544094,0.953448290782775,0.951368052521713,0.948726754148747,0.94620629949219,0.948674963984571,1.01292066264467,0.951204050335156,0.949900664536732,0.949227392402446,0.948649068902483,0.943409630626696,0.951851427387354,0.951471632850065,1.03159964852408,1.06365776014892,1.22168681443739,1.0908993865054,1.05586334044045,1.05869453608207,0.989606457071525,0.958307934521273,0.946197667798161,0.934182349709371,0.928062478642595,0.933483182492997,1.02634294686024,1.01988643972632,1.02050792169643,1.08048956350606,1.00226915221251,1.03519043324027,1.02838865834518,1.05630355683595,1.05642440055236,1.06843108694712,1.16082473983678,1.18843752903652,1.19097524708113,1.14347503483788,1.12357034840631,1.10641054067605,1.10254354175093,1.13211572549532,1.12098084019752,1.16631449723942,1.11518897350385,1.14194722499469,1.17796728417897,1.17473039891799,1.17639631586564,1.16545132783649,1.1659864928663,1.21887288218384,1.15707858462806,1.16184327973224,1.26694278623303,1.14465757691989,1.1280156708314,1.16936148523176,1.16048810376964,1.17218404917934,1.21925267672113,1.27572121906083,1.28010611962772,1.2794242157994,1.19507530174505,1.1722013125674,1.11709657788433,1.11471423033224,1.11185713960854,1.17780328199242,1.17690558581337,1.17466997705978,1.08149084001346,1.05821979291045,1.05192728796309,1.04099093162797,1.06175878746247,1.04698995897833,1.07046816673804,1.17041455190333,1.05656250765683,1.02162141022621,1.02566104303192,0.98706873902691,0.951609739954534,0.928019320172448,0.927354679732192,0.939352734432923,0.936323009828638,0.934087401075049,0.935010992336184,0.968139434020649,0.963426529080649,0.95932647441673,0.955528529043837,0.951316262357537,1.09187476793071,1.01410320472669,0.933793923478052,0.932171165000543,0.929719763896221,1.00162177516031,0.916599588971681,0.916944856732853,0.917790762747725,0.908019685106554,0.906819879636481,0.906733562696188,0.912050686218238,0.912551324471938,0.913923763822597,0.91859351029245,0.915710524486663,0.925921818523328,0.919249519038677,0.918507193352157,0.920052266583402,0.922348297195197,0.920630590083365,0.920673748553512,0.906284714606664,0.906112080726078,0.90682851133051
1.04464213820236,1.05006284205276,1.0881027176399,1.0048586604213,1.00308053145127,1.00185483089911,1.00125924401108,1.03241965945687,1.04348549120243,0.980482756482552,0.974880787057535,0.973663718199403,0.973499716012846,1.04387391743375,1.0399119698743,0.982148673430207,0.967060472266986,0.967768271177389,0.962010931259844,0.959749427424166,0.960163748737573,0.956875073312408,1.01462110636845,0.954484094066292,0.955079680954313,0.953862612096182,0.953698609909625,0.951178155253069,0.948700859066658,0.947086732283179,0.94719894430556,0.951316262357537,0.953456922476804,0.950599831753105,0.949408657977061,0.941588343186513,0.962917259132921,0.953828085320064,0.95499336401402,1.00748269540621,1.09645819746027,1.11682899536942,1.08963915917712,1.05037358303782,0.981906985997387,1.00591172709288,1.17482534755231,0.945550290745963,0.99264481336984,0.924523484090581,0.970556308348853,1.06604873939503,1.08980316136367,1.06832750661877,1.0321348135539,1.09448153952756,1.02641200041247,1.0828891744462,1.06425334703694,1.07408484653631,1.06902667383514,1.14834331027041,1.11519760519788,1.13668189163682,1.13018222603275,1.13535261075631,1.10882741500426,1.1425687069648,1.13546482277869,1.11562918989935,1.18167891261157,1.11314326201891,1.13925413645755,1.29557411532823,1.17978857161916,1.1757057803433,1.18182565141007,1.18280966452941,1.14311250368865,1.15424738898645,1.16133400978451,1.16037589174725,1.13073465445063,1.114938654377,1.11731237023506,1.14138616488279,1.17045771037348,1.21174310291564,1.2767138638742,1.27922568683673,1.27997664421728,1.20173896953567,1.17771696505212,1.12408825004807,1.1677818852244,1.16192959667253,1.15961630267268,1.13666462824876,1.17814854975359,1.09206466519935,1.02509998292002,1.04888029997075,1.06113730549236,1.05494838087335,1.05929012297009,1.073402942708,1.03815110429233,1.05500017103752,1.08161168372987,1.01614891621163,0.963599162961235,0.94583513664893,0.935934583597319,0.955977377133361,0.926465615247174,0.927648157329189,0.934872885231715,1.00241589101101,0.948528225186072,0.961657031804642,0.95858414873021,0.952611016461933,0.950806992409808,0.949866137760614,0.945861031731018,0.930367140948419,0.928822067717174,1.00302010959306,0.917169280777615,0.91685853979256,0.916193899352304,0.917298756188054,0.908753379099044,0.908710220628898,0.91203342283018,0.911938474195857,0.912067949606297,0.909469809703477,1.08193968810298,1.07366189352888,0.916107582412011,0.917454126680582,0.914890513553879,0.913431757262927,0.915839999897102,0.919361731061058,0.920069529971461,0.904912275256005,0.904428900390364,0.90496406542018
1.04187136441895,1.02974383430778,1.15561119664308,1.00620520468987,1.00511761124218,1.00308053145127,1.00747406371218,1.01591586047284,1.03993786495639,0.982096883266032,0.979576428609475,0.978609678878193,0.975260581594824,0.97469088978889,0.974406043885923,1.01017578394335,0.968484701781821,0.968199855878854,0.963461055856767,0.959499108297316,0.960526279886804,0.958851731245119,0.978911788169219,1.04700722236639,0.956003272215449,0.956365803364679,0.956685176043764,0.951825532305266,0.9505394098949,0.947656424089113,0.946560198947392,0.951549318096328,0.952757755260431,0.951273103887391,0.939499473231422,1.1871945650963,1.18655581973813,0.951739215364973,1.00238999592892,1.00447023418998,0.974164356453102,1.06432240058917,0.966723836199843,1.04916514587372,1.11869344127975,1.14087689493506,0.983296688736105,0.981535823154127,0.949710767268087,0.921286598829592,0.982968684362991,0.994422942339876,1.05093464314972,1.07355831320053,1.06685148693976,1.07566444654368,1.08515067828188,1.05387805081372,1.0739640028199,1.08808545425184,1.07556949790935,1.07064943231265,1.11731237023506,1.13438586102502,1.12931042493579,1.13102813204762,1.14291397472597,1.13033759652528,1.12609080306286,1.15602551795649,1.12444214950327,1.13331553096539,1.138503179077,1.17984899347736,1.17813991805956,1.1772681169626,1.18409578693978,1.16682376718714,1.16627133876927,1.13519724026378,1.14161058892755,1.16378541088883,1.11466244016807,1.1151717101158,1.30237589022332,1.17012970600037,1.16486437264249,1.21548062643033,1.21441029637069,1.12481331234653,1.18193786343245,1.18273197928315,1.20255898046846,1.19022428970058,1.19907177608062,1.18988765363344,1.13280626101766,1.1354993495548,1.10653138439246,1.08723954823697,1.05664019290309,1.04920830434386,1.05746883552991,1.0520481316795,1.06205226505947,1.05781410329108,1.05289403769437,1.05010600052291,1.07182334270064,1.03033078950178,0.990504153250573,0.952507436133581,0.944851123529589,0.941657396738747,0.933845713642228,0.933914767194463,0.923651682993621,0.965290974990979,0.95970626895402,0.951704688588856,0.953327447066365,0.950694780387427,1.08375234384913,0.939162837164279,0.938325562843436,0.927233836015782,0.925231283000984,0.937928504918088,0.915891790061278,0.916918961650765,0.915606944158311,0.910091291673586,0.910384769270583,0.911670891680949,0.911817630479447,0.909858235934795,0.908900117897543,1.03160828021811,0.900035368129449,0.909564758337799,0.909754655606444,0.943772161775927,1.4239101421559,0.906258819524576,0.912715326658494,0.916461481867212,0.920647853471424,1.0524020311347,0.904057737547104,0.90410089601725
1.03312745836727,1.03444810755375,1.04024860594145,1.0073618516898,1.00576498829438,1.00411633473478,1.00390054238405,1.01117706045075,1.03526811848654,1.03116806382262,0.980206542273614,0.98150129637801,0.979524638445299,0.974207514923249,0.975234686512736,0.974621836236655,0.975407320393322,0.966594360789403,0.964263803401492,0.961242710491236,0.962710098476217,0.961993667871785,0.961285868961382,0.977625665758853,0.960621228521126,0.956331276588562,0.956201801178123,0.955459475491603,0.952179431760468,0.94719031261153,0.947285261245853,0.949633082021823,0.951592476566475,0.952403855805229,0.941407077611898,0.941536553022337,0.949633082021823,0.950591200059076,0.998980476787348,1.00035291613801,0.998747421048557,0.96007743179728,1.0421216835458,1.06490072408914,1.06385628911159,0.990150253795371,0.972696968468121,0.933457287410909,0.941916347559626,0.92453211578461,0.966369936744642,1.02841455342727,1.0591174890895,1.08168936897613,1.08059314383441,1.08535783893858,1.05957496887306,1.06363186506683,1.07743394381968,1.07935017989419,1.08800776900558,1.07265198532745,1.15465307860583,1.1580625977474,1.15899482070257,1.12978516810741,1.12943990034623,1.12374298228689,1.12552111125693,1.13972024793513,1.18827352684996,1.18611560334264,1.16366456717242,1.1724947901644,1.18420799896216,1.17466134536575,1.17517061531348,1.16353509176198,1.13014769925664,1.13089865663719,1.14199038346484,1.13110581729389,1.1140236948099,1.11950482051851,1.12038525330949,1.12724745006279,1.13252141511469,1.13257320527887,1.21942531060172,1.25858730641266,1.15353095838202,1.13427364900264,1.13397153971162,1.16363867209033,1.17080297813465,1.26881586383739,1.27016240810596,1.13027717466708,1.13574966868165,1.08256117007309,1.05810758088807,1.04939820161251,1.0368477184939,1.06667022136514,1.06920793940976,1.06579842026818,1.08820629796825,1.0761737164914,1.07085659296935,1.01128927247313,0.986568100773211,0.980966131348193,0.956348539976621,0.934026979216843,0.91871435400886,0.946715569439919,0.923729368239885,0.963409265692591,0.961251342185265,0.953370605536512,0.953500080946951,0.944661226260945,0.939413156291129,0.93877441093296,0.939421787985158,0.925870028359152,0.924273164963731,0.945222286372849,0.942883097290908,1.14583148730788,1.09454196138576,0.909150437024392,0.912965645785344,0.911722681845125,0.908166423905052,0.908908749591572,0.906742194390217,0.906854406412598,0.899198093808606,0.963210736729917,1.07725267824507,1.37119638671895,0.903160041368056,0.899008196539961,0.912715326658494,0.910488349598934,0.912793011904758,0.913492179121132,0.914881881859849,0.905102172524649
1.02957983212123,1.02543661898716,1.1811264841937,1.14806709606147,1.007715751145,1.00510897954815,1.0038573839139,1.01398236101028,1.19824313345381,1.02207889000976,0.999153110667934,0.982321307310793,0.98174298381083,0.976132382691783,0.974880787057535,0.977073237340977,0.977582507288706,0.968855864625081,0.965498135647682,0.965230553132774,0.974242041699366,1.00679215988387,0.965964247125264,0.965800244938708,0.981397716049658,0.956452120304973,0.956253591342298,0.956132747625888,0.954855256909551,0.946050928999663,0.947932638298051,0.947734109335377,0.949451816447208,0.950824255797867,0.942019927887978,0.941648765044718,0.947147154141384,0.947613265618966,0.947639160701054,1.08125778427466,1.00388327899599,0.957410238342225,1.03861721576991,1.00728416644354,0.989563298601379,0.957211709379551,0.971738850430868,0.93332781200047,0.926828146396405,0.952628279849991,1.00491045058548,0.993464824302624,1.08105925531199,1.07554360282727,1.07921207278972,1.10885331008635,1.11250451666074,1.10832677675056,1.0855391045132,1.07569034162576,1.09345436793807,1.11827911996634,1.0995310805347,1.12395877463763,1.16521827209769,1.13583598562195,1.1390038173307,1.13301342167436,1.13160645554759,1.12944853204026,1.14834331027041,1.22662414342215,1.22465611718347,1.14161058892755,1.20357752036392,1.14677234195707,1.19681027224494,1.21040519034109,1.1698448600974,1.1205924139662,1.13436859763697,1.13819243809195,1.1308727615551,1.12108442052587,1.12408825004807,1.1234495046899,1.17096698032121,1.13254731019678,1.2191836231689,1.17407439017176,1.15072565782249,1.13326374080121,1.18824763176787,1.16584838576183,1.1713467748585,1.26891944416574,1.26972219171046,1.14112721406191,1.1415070085992,1.12708344787623,1.08142178646122,1.05777957651496,1.05021821254529,1.05925559619397,1.22305925378805,1.13491239436081,1.04763733603053,1.04771502127679,1.0711069120962,1.0462735283739,1.01410320472669,0.980068435169145,0.949451816447208,0.950712043775486,0.938791674321019,0.911869420643623,0.919776052374464,0.953776295155889,0.959628583707756,0.94013821858959,0.947768636111494,0.945895558507135,0.941536553022337,0.939300944268748,0.935226784686917,1.27294181358339,0.920552904837102,0.92032848079234,0.910471086210876,0.90979781407659,0.903462150659082,0.912050686218238,0.911895315725711,0.912137003158531,0.908908749591572,0.909020961613953,0.906681772532012,0.905179857770913,0.895400148435713,0.894795929853662,0.897713442435566,1.18966322958868,1.07061490553653,0.892577584488131,1.13652652114429,0.908615271994576,0.912551324471938,0.913552600979337,0.913172806442048,0.911679523374978
1.02858718730786,1.02499640259167,1.02232920913661,1.13890886869638,1.00882923967478,1.00869113257031,1.0028561074065,1.01756451403244,0.984686391474822,0.985920723721013,0.98533376852702,0.98335711059431,0.983124054855519,0.977487558654384,0.977150922587241,0.980465493094493,0.979377899646801,0.976952393624567,0.967353949863982,0.967017313796839,0.972524334587535,0.968881759707169,0.966171407781968,0.967820061341565,0.975441847169439,0.978670100736398,0.956426225222884,0.956624754185559,0.955528529043837,0.954475462372262,0.947734109335377,0.947414736656292,0.947967165074168,1.23783671396622,0.942529197835707,0.941778240455158,0.942330668873033,0.946715569439919,0.944497224074388,0.944894281999736,1.09195245317697,1.07030416455148,1.03279945399416,1.13274583915946,0.975649007826142,0.95375903176783,0.959490476603287,0.927596367165013,0.930876410896148,0.976753864661893,0.979196634072186,1.0619745798132,1.07033005963357,1.06879361809635,1.09335078760972,1.08837893184884,1.10416630022843,1.09706241604232,1.12406235496598,1.08566857992364,1.09368742367686,1.1224482281825,1.13061381073422,1.16445005132909,1.13684589382337,1.16560669832901,1.12385519430927,1.12805882930154,1.1287234697418,1.12343224130184,1.15890850376227,1.16735030052293,1.16772146336619,1.16316392891872,1.11438622595913,1.14867131464352,1.16249065678443,1.1283695702866,1.12805019760752,1.12046293855576,1.11157229370558,1.10488273083287,1.1490770042629,1.11657867624257,1.11451570136957,1.11771805985444,1.11901281395883,1.15362590701634,1.15597372779231,1.17458366011949,1.13082960308495,1.12973337794323,1.13837370366656,1.18968912467077,1.17069076611227,1.26644214797933,1.32748548815456,1.13989288181572,1.13781264355466,1.11154639862349,1.09553460619913,1.0671881230069,1.07764973617042,1.0471280660828,1.09429164225891,1.06277732735793,1.04787039176932,1.04721438302309,1.0316341753002,1.02822465615863,0.975148369572443,0.983711010049511,0.964073906132847,0.948856229559186,0.912050686218238,0.933888872112375,0.912723958352524,0.945420815335523,0.955010627402079,0.937868083059883,0.940820122417905,0.942839938820762,0.941294865589517,0.935123204358565,0.93543394534362,0.930125453515598,0.919318572590911,0.918886987889446,0.981596245012332,1.10276796579569,0.904523849024686,0.906163870890254,0.912249215180912,0.911765840315271,0.908787905875162,0.908848327733367,0.905179857770913,0.905551020614173,0.911386045777982,0.89395002383879,0.894398871928314,0.894864983405896,0.89233589705531,0.891783468637435,0.89382918012238,0.899491571405602,0.914122292785271,0.914717879673293,0.913215964912194,0.913285018464428
1.02809518074819,1.02664505615126,1.02314058837537,1.16593470270213,1.00939893148072,1.00840628666735,1.00440118063775,1.01989507142035,1.02649831735277,0.985247451586727,0.985489139019548,0.985273346668815,0.984574179452442,0.97877368106475,0.977375346632003,0.980025276698999,0.980077066863175,0.980111593639292,0.980491388176581,1.04704174914251,0.971782008901015,0.968648703968378,0.967526583744568,0.969287449326546,0.970521781572736,0.978065882154347,0.9603191192301,0.956650649267647,0.95635717167065,0.953336078760394,0.950470356342666,0.947423368350322,0.946353038290688,0.945653871074315,0.9407597005597,0.939982848097062,0.938843464485195,0.941717818596952,0.941571079798454,0.942727726798381,1.00575635660035,1.0528422475302,1.01043473476423,1.02633431516621,0.992731130310133,0.990728577295335,0.958610043812298,0.986507678915005,1.00799196535394,0.977116395811124,0.981009289818339,1.05312709343317,1.07595792414067,1.07161618204393,1.07580255364814,1.09170213405012,1.1057459002358,1.1127289407055,1.12361350687645,1.13161508724162,1.15702679446389,1.11174492758616,1.11565508498144,1.16890400544821,1.20387099796091,1.13730337360693,1.15038039006132,1.12945716373429,1.12967295608502,1.12444214950327,1.14715213649436,1.14552074632282,1.24311931071215,1.14201627854693,1.11495591776506,1.12950895389847,1.13129571456253,1.12946579542832,1.15965946114282,1.12256907189891,1.15283179116564,1.1125217800488,1.12212022380938,1.12234464785415,1.11925450139166,1.11356621502635,1.17968499129081,1.17700053444769,1.12337181944363,1.1235099265481,1.1278689320329,1.12806746099557,1.18279240114135,1.1459264359422,1.15563709172517,1.18635729077546,1.18092795523103,1.13988425012169,1.11920271122748,1.09173666082624,1.10896552210873,1.07477538205866,1.07572486840188,1.03476748023284,1.03475884853881,1.06272553719375,1.02492734903943,1.04876808794837,1.02954530534511,1.0996778193332,1.02498777089764,0.989364769638705,0.992618918287752,0.944307326805743,0.937341549724096,0.908865591121425,0.918722985702889,0.96007743179728,0.968648703968378,0.922987042553365,0.940725173783583,0.940474854656733,0.940198640447795,0.934467195612338,0.935080045888418,0.926854041478493,0.920406166038604,0.917635392255197,0.914976830494172,0.911463731024245,0.907035671987213,0.904825958315712,0.96106144491662,0.909746023912414,0.911601838128715,0.909219490576627,0.907475888382708,0.905447440285821,1.06994163340225,0.889599650048021,0.889996707973369,0.894355713458167,0.891861153883698,0.892223685032929,0.893673809629852,0.89964694189813,0.900337477420474,0.914363980218091,0.912335532121205,0.913302281852487
1.0871877580728,1.0284231851213,1.02475471515885,1.04213894693386,1.00990820142845,1.00867386918226,1.00552330086156,1.00624836316002,0.984090804586801,0.984884920437497,0.985773984922515,0.986067462519511,0.985031659235995,0.984090804586801,0.977306293079769,0.977245871221563,0.980094330251233,0.978998105109512,0.979533270139329,1.01014988886127,0.97444057066204,0.972360332400978,0.969270185938487,0.969494609983249,0.971678428572663,0.974172988147132,0.972679705080062,0.958316566215302,0.95685780992435,0.95500199570805,0.951696056894827,0.94744063173838,0.944454065604241,0.942848570514791,0.941294865589517,0.940863280888051,0.93865356721655,0.939749792358271,0.937022177045012,1.1116672423399,1.0621213186117,1.05568207486584,0.999394798100755,1.05014052729903,0.987457165258229,0.949374131200944,0.948959809887538,0.947889479827904,0.949192865626329,0.986421361974712,1.03683908679987,1.03867763762811,1.05522459508229,1.05506922458976,1.09136549798298,1.10597895597459,1.11265125545924,1.11643193744407,1.12514131671964,1.10301828492254,1.10198248163902,1.11304831338459,1.11250451666074,1.16959454097055,1.15966809283685,1.13939224356202,1.12229285768997,1.13536124245033,1.13511955501751,1.14147248182308,1.14619401845711,1.14247375833048,1.16050536715769,1.13833917689044,1.12320781725708,1.14444178456916,1.13559429818913,1.15412654527004,1.16898169069447,1.13589640748015,1.14210259548722,1.12403645988389,1.12443351780924,1.1327889976296,1.18501937820091,1.17813128636553,1.15088966000905,1.1265741779285,1.12564195497334,1.11435169918301,1.12742008394338,1.12976790471935,1.18485537601436,1.18927480335736,1.32335953840855,1.32324732638617,1.17510156176125,1.12414004021224,1.11132197457873,1.09595755920657,1.10676444013125,1.07316988696921,1.0781762695062,1.10581495378803,1.04274316551591,1.07462001156613,1.03350725290456,1.04610952618734,1.02498777089764,1.05201360490339,1.00451339266013,0.998756052742586,0.980033908393028,0.960129221961456,0.932965280851239,0.909081383472158,0.908649798770693,0.904696482905272,0.914855986777762,0.951955007715706,0.941217180343253,0.938619040440433,0.9389038863434,0.935615210918235,0.935528893977942,0.926983516888932,0.92106217478483,0.920190373687871,0.916599588971681,0.909996343039264,0.911437835942158,0.904316688367983,0.907562205323001,0.909763287300473,0.91004813320344,0.910022238121352,0.907372308054356,0.901200646823404,0.899914524413038,0.889711862070402,0.888028681734688,0.893294015092563,0.89245674077172,0.891671256615054,0.894044972473112,0.8987837724952,0.899655573592159,0.98979635434017,0.912275110263,0.911722681845125
1.08333802253573,1.03260955672551,1.02523809002449,1.02890655998694,1.0078020680853,1.00741364185398,1.00412496642881,1.15680237041912,0.983486586004749,0.984116699668889,0.984850393661379,0.986127884377716,0.986222833012039,0.985057554318083,0.977263134609622,0.977185449363358,0.978186725870758,0.979429689810977,0.977755141169292,0.983158581631636,0.975053420938121,0.974570046072479,0.971876957535337,0.972740126938267,0.974431938968011,0.970659888677205,0.968467438393762,0.959231525782408,0.957781401185485,0.953189339961896,0.951842795693325,0.947423368350322,0.944479960686329,0.943875742104278,0.94186455739545,0.938860727873253,0.937704080873326,0.938705357380726,0.938351457925524,1.1113133428847,1.01013262547321,0.968519228557938,0.968942181565374,0.935451208731678,0.957790032879515,0.905102172524649,0.909521599867652,0.956771492984057,0.97270560016215,0.986171042847863,1.07664845966302,1.03590686384471,1.08223316569998,1.07020921591716,1.09686388707964,1.10828361828041,1.09804642916166,1.10963016254898,1.2775079797249,1.11686352214554,1.12660007301059,1.11225419753389,1.11475738880239,1.19199378697659,1.17007791583619,1.18092795523103,1.18129048638026,1.13251278342066,1.13576693206971,1.15355685346411,1.11831364674246,1.13642294081594,1.1307260227566,1.12074778445873,1.12262086206308,1.13655241622638,1.12970748286114,1.1937632842526,1.14858499770323,1.12746324241352,1.12074778445873,1.15010417585238,1.1523484163,1.15701816276986,1.14881805344202,1.14870584141964,1.14779088185253,1.12748050580158,1.12659144131656,1.11783027187682,1.16265465897099,1.19687069410315,1.1783298153282,1.3023413634472,1.32464566081892,1.32203888922207,1.17377228088073,1.1515801955314,1.12147284675719,1.12595269595839,1.12320781725708,1.08840482693093,1.07559539299144,1.07063216892459,1.00659363092119,1.00733595660771,1.01903190201742,1.04394297098599,1.02480650532302,1.02052518508449,1.02254500148735,1.00453065604819,0.963020839461272,0.958886258021236,0.937272496171861,0.906793984554393,0.908856959427396,0.931877687403547,0.909512968173623,0.920863645822157,0.946422091842922,0.935969110373437,0.935951846985378,0.934380878672045,0.934760673209334,0.92750141853069,0.923996950754793,0.919517101553585,0.908667062158751,0.90881380095725,0.910652351785491,0.911601838128715,1.11148597676528,0.909702865442268,0.910833617360106,0.908874222815455,0.906319241382781,0.900156211845859,0.896038893793881,0.889219855510732,0.888235842391391,0.891334620547911,0.893552965913442,0.892940115637361,0.89395002383879,0.89580583805509,0.899223988890694,0.983745536825629,1.10010940403466,0.91252542938985
1.03900564200123,1.10006624556452,1.0273614867557,1.02688674358408,1.00956293366727,1.00713742764504,1.10403682481799,0.990711313907276,0.981458137907863,0.983754168519658,0.984496494206178,0.985808511698632,0.986240096400097,0.984410177265885,0.978333464669256,0.978998105109512,0.980974763042222,0.981216450475043,0.978186725870758,0.978583783796105,0.980543178340757,0.976745232967864,0.970659888677205,0.975355530229146,0.978134935706581,0.972170435132333,0.966732467893872,0.962891364050833,0.954579042700614,0.95413019461109,0.952593753073874,0.947854953051787,0.94546397380567,0.943746266693839,0.943573632813253,0.938964308201605,0.938144297268821,0.938964308201605,0.938912518037429,0.944454065604241,1.00713742764504,0.969080288669843,0.969347871184751,0.944704384731091,0.983667851579365,0.942917624067025,0.939490841537392,0.970694415453322,1.00920903421207,1.08855156572942,1.0874553405877,1.08634185205792,1.07607876785708,1.08427887718492,1.10083446633312,1.08994126846814,1.09742494719155,1.11432580410092,1.21299469854989,1.20787610399051,1.14067836597239,1.18054816069374,1.14834331027041,1.16874863495568,1.17230489289575,1.16972401638099,1.13762274628601,1.13919371459935,1.13923687306949,1.1536431704044,1.12204253856312,1.13716526650246,1.13095907849539,1.12060104566023,1.19388412796901,1.19858840121498,1.14207670040513,1.1273682937792,1.13125255609239,1.13316879216689,1.12062694074231,1.13045844024169,1.13024264789096,1.18457053011139,1.1565606829863,1.14253418018869,1.16923200982132,1.12726471345085,1.12661733639865,1.1608592666129,1.14514095178554,1.14612496490488,1.29931163884292,1.29866426179072,1.32643242148299,1.32616483896808,1.2829891054335,1.12562469158528,1.10994953522807,1.10890510025052,1.11519760519788,1.09035558978155,1.09974687288543,1.07872006623005,1.06051582352225,1.01368888341328,1.01888516321892,1.06465903665631,1.04615268465749,1.04567794148588,1.040706085725,1.04106861687423,0.977573875594677,0.948364222999516,0.938679462298638,0.906465980181279,0.926560563881496,0.936987650268895,0.90261624464421,0.914105029397212,0.947665055783142,0.934596671022778,0.933681711455671,0.934415405448162,0.929762922366368,0.928459536567943,0.925162229448749,0.919620681881937,0.913449020650985,0.911973000971974,0.910531508069081,0.911515521188421,0.926180769344207,0.911170253427249,0.911049409710839,0.911938474195857,0.907769365979704,0.899724627144394,0.89629784461476,0.894139921107434,0.891636729838937,0.890505977921098,0.893975918920878,0.894157184495493,0.891170618361354,0.891170618361354,0.898343556099705,0.912456375837615,0.974552782684421,0.927674052411277
1.04282948245621,1.04213894693386,1.03355904306874,1.02926045944214,1.0134299325924,1.1027420707136,1.01961022551738,0.990849421011745,0.982407624251086,0.981648035176508,0.982882367422698,0.98062949528105,0.985817143392661,0.982338570698852,0.978954946639365,0.978445676691636,0.983253530265958,0.981604876706362,0.979300214400538,0.977496190348413,0.980465493094493,0.978324832975226,0.979835379430354,0.98397859256442,1.38322033650177,0.97183379906519,0.970763469005557,0.959438686439111,0.953836717014094,0.954035245976768,0.952852703894753,0.94819158911893,0.945507132275816,0.944859755223619,0.94348731587296,0.939715265582154,0.938437774865817,0.941243075425341,0.944807965059443,0.948070745402519,0.972878234042736,0.972817812184531,0.947397473268234,0.959179735618232,0.986982422086617,0.909538863255711,0.969908931296656,0.995553694257715,1.01134106263731,1.05892759182086,1.06877635470829,1.08733449687129,1.09379963569924,1.09042464333378,1.10052372534807,1.0903987482517,1.09221140399785,1.09989361168393,1.20791926246066,1.20898959252029,1.12979379980143,1.15407475510586,1.14372535396473,1.33288029692287,1.17422976066429,1.17504977159707,1.18357788529802,1.13919371459935,1.15290947641191,1.14485610588257,1.12140379320495,1.13507639654737,1.12256044020488,1.12276760086158,1.21881246032564,1.19491993125253,1.18123869621608,1.21618842534073,1.18982723177524,1.16560669832901,1.12084273309305,1.12089452325722,1.15467034199389,1.15202904362092,1.15304758351638,1.25956268783798,1.18152354211905,1.13411827851012,1.12324234403319,1.13833054519642,1.14493379112883,1.14343187636773,1.29663581369383,1.29604885849984,1.29640275795504,1.30513803231269,1.25954542444992,1.11595719427246,1.18718593340227,1.12573690360766,1.10572000515371,1.09080443787107,1.16896442730641,1.03354177968068,1.03490558733731,1.01612302112954,1.02076687251731,1.07608739955111,1.02915687911379,1.01677039818174,1.04246695130698,0.982588889825702,0.957677820857134,0.941596974880542,0.934838358455598,0.913077857807725,0.90472237798736,0.928528590120177,0.912301005345088,0.891498622734468,0.953327447066365,0.944238273253509,0.932266113634866,0.932913490687063,0.931800002157283,0.929529866627577,0.930039136575305,1.01128927247313,0.915037252352377,0.913500810815161,0.911739945233183,0.911929842501828,1.10464967509408,0.912137003158531,0.91190394741974,0.911696786763037,0.909374861069154,0.898680192166848,0.894381608540255,0.895892154995383,0.893691073017911,0.893544334219413,0.895003090510365,0.896815746256518,0.896574058823698,0.897385438062452,0.898645665390731,0.910263925554172,0.926543300493438,0.928114268806771
1.06422745195485,1.04386528573972,1.03404241793438,1.04084419282947,1.0136370932491,1.01417225827892,1.02831097309892,0.997616669130718,0.984323860325592,0.983020474527167,0.98113013353475,0.979990749922882,0.983426164146544,0.981587613318303,0.982088251572002,0.984444704042002,0.983193108407753,0.98347795431072,0.979472848281124,0.978419781609549,0.980862551019841,0.98856202209398,0.980543178340757,0.985635877818046,1.01930811622636,0.969917562990685,0.970875681027938,0.960241433983837,0.954846625215522,0.954233774939442,0.953448290782775,0.953698609909625,0.945938716977282,0.945904190201164,0.944807965059443,1.07659666949884,0.93952536831351,1.00996862328665,0.944764806589296,1.06809445087998,0.973810456997901,0.973516979400904,0.974630467930685,0.975761219848523,0.910151713531791,0.913751129942011,0.971393582669696,1.00283884401845,1.07922070448375,1.05772778635078,1.10357934503444,1.10629832865367,1.08938020835624,1.09227182585605,1.08465867172221,1.09127918104268,1.0897513711995,1.1093107898699,1.11715699974253,1.14103226542759,1.16672881855282,1.15727711359074,1.25095688889076,1.17454050164934,1.17817444483568,1.17403123170161,1.1654858546126,1.1292241079955,1.13355721839821,1.12212022380938,1.12344087299587,1.122301489384,1.11760584783206,1.13803706759942,1.15181325127019,1.21749181113915,1.18026331479077,1.17239984153007,1.18015973446242,1.20045284712531,1.12719565989861,1.12855083586121,1.19212326238703,1.15353959007605,1.15123492777022,1.15834744365037,1.20770347010992,1.13436859763697,1.12420046207045,1.13262499544305,1.14344913975579,1.14262912882301,1.16022052125473,1.30376559296204,1.32155551435643,1.32635473623672,1.2165336931019,1.1125217800488,1.09997992862422,1.09704515265426,1.10649685761635,1.11569824345158,1.06270827380569,1.08389908264763,1.0845378280058,1.01664955446533,1.01561375118181,1.02768085943478,1.06301901479075,1.01639923533848,1.01399962439834,0.983762800213687,0.961372185901675,0.95313754979772,0.952300275476878,0.929806080836514,0.905430176897763,0.92540391688157,0.903142777979998,0.894459293786519,1.00199293800357,0.942227088544681,0.931920845873694,0.930582933299152,0.931109466634939,0.932145269918455,1.08660943457283,0.933017071015415,0.914761038143439,0.912810275292817,0.911610469822744,0.912128371464502,0.914044607539007,0.913621654531571,0.912352795509264,0.912931119009227,0.912050686218238,0.901494124420401,0.901330122233844,0.901709916771133,1.12073052107067,0.896410056637141,0.898412609651939,0.89951746648769,0.897186909099778,0.896772587786372,0.898662928778789,0.909573390031828,0.947052205507062,0.928295534381386
1.05900527706712,1.05631218852998,1.04114630212049,1.04686048356789,1.07656214272272,1.01434489215951,1.02431449876335,1.04113767042646,1.04770638958276,0.986188306235921,0.980085698557204,0.980215173967643,0.981009289818339,0.981786142280977,0.982692470154054,0.984444704042002,0.984073541198742,0.983762800213687,0.980396439542259,0.979377899646801,0.988769182750683,0.989520140131232,0.983098159773431,0.985230188198669,0.993525246160829,0.971859694147278,0.968942181565374,0.959386896274935,0.959619952013727,0.954043877670797,0.953310183678306,0.953612292969332,0.942166666686476,0.948053482014461,0.948260642671164,0.948605910432336,0.952567857991786,0.948165694036842,0.948614542126365,0.99697792377255,0.973344345520318,0.974017617654604,1.05000242019456,0.958031720312335,0.916703169300032,0.958290671133214,0.990245202429694,1.0846845668043,1.09666535811697,1.05767599618661,1.11561192651129,1.10332902590759,1.08898315043089,1.09666535811697,1.09697609910202,1.09834853845268,1.08679933184148,1.10986321828777,1.11661320301869,1.11922860630957,1.13232288615202,1.12128294948854,1.26416338075559,1.18912806455886,1.18888637712604,1.19232179134971,1.18691835088736,1.16545132783649,1.13190856483861,1.12116210577213,1.1209463134214,1.12212022380938,1.11857259756334,1.12870620635374,1.16672018685879,1.20886874880388,1.17448007979114,1.25875994029325,1.18003025905198,1.17171793770176,1.18710824815601,1.13059654734616,1.13461891676381,1.14745424578539,1.2069611444234,1.19028471155879,1.17785507215659,1.17486850602245,1.14175732772605,1.12448530797341,1.2010398023193,1.15726848189671,1.14834331027041,1.30446476017841,1.3191904301924,1.29414125411936,1.25051667249527,1.13510229162946,1.14205943701707,1.09242719634858,1.11799427406338,1.17066487103018,1.06265648364152,1.06254427161914,1.07594929244664,1.02737875014375,1.02212204847991,1.02130203754713,1.01148780143581,1.01250634133127,1.00817323092856,0.995510535787568,0.980068435169145,0.94422100986545,0.946767359604095,0.914959567106113,0.902875195465089,0.900846747368203,0.897489018390804,0.896479110189376,0.976020170669402,0.935589315836147,0.935528893977942,0.930643355157357,0.932361062269188,0.932559591231862,0.935943215291349,0.913751129942011,0.911558679658568,0.912257846874941,0.91116162173322,0.911480994412304,0.914717879673293,0.915960843613513,0.913293650158458,0.914666089509117,0.924022845836881,0.903738364868019,0.90533522826344,0.904083632629192,0.903418992188935,0.899810944084687,0.899698732062306,0.899482939711573,0.897937866480328,0.896884799808753,0.897005643525163,0.970668520371235,0.998781947824674,1.00006807023504
1.05071021910496,1.05150433495566,1.04708490761265,1.0722549274021,1.19481635092417,1.01626975992804,1.02648968565874,1.02394333592009,1.04023997424742,0.993568404630975,0.987491692034346,0.980223805661673,0.979973486534823,0.980430966318376,0.982338570698852,0.984997132459877,0.985342400221049,0.984738181638998,0.981466769601892,0.979326109482626,0.97927431931845,0.98892455324321,0.983080896385372,1.02495324412152,1.02289026924852,1.09270341055752,0.970530413266765,0.970003879930978,0.960828389177829,0.954570411006584,0.952585121379845,0.95178237383512,0.943306050298344,0.945403551947465,0.948364222999516,0.948441908245779,0.952429750887317,0.952464277663435,0.950487619730724,0.951229945417244,0.972602019833798,0.973663718199403,0.940820122417905,0.927328784650104,0.935287206545122,0.959421423051053,1.00175125057075,1.10882741500426,1.07918617770763,1.11845175384693,1.1212397910184,1.19514435529729,1.08629869358778,1.14428641407663,1.12375161398092,1.13352269162209,1.08560815806543,1.1205924139662,1.11275483578759,1.23132841666813,1.22006405595988,1.14281902609165,1.15412654527004,1.19470413890179,1.18630550061128,1.18746214761121,1.19241673998403,1.16281866115755,1.14515821517359,1.1174418456455,1.18176522955187,1.1297247462492,1.13627620201744,1.12995780198799,1.17731990712678,1.18094521861908,1.17679337379099,1.1743506043807,1.1729954284181,1.18473453229795,1.18565812355908,1.14943953541213,1.14261186543495,1.13853770585312,1.19692248426732,1.18611560334264,1.18045321205941,1.17473903061201,1.13621578015924,1.18636592246949,1.11954797898865,1.15416970374019,1.15065660427026,1.1489906873226,1.32132245861764,1.13265089052513,1.12734239869711,1.15018186109865,1.09703652096023,1.08758481599814,1.12251728173473,1.13818380639792,1.06860372082771,1.17109645573165,1.09028653622932,1.0334899895165,1.02316648345746,1.01383562221178,1.00011122870519,1.00145777297376,0.996572234153173,0.977617034064823,0.957746874409368,0.956970021946731,0.948916651417391,0.943366472156549,0.899301674136958,0.90100211786073,0.903790155032195,0.913768393330069,0.972230856990538,0.93827377267926,0.934743409821276,0.930582933299152,0.930306719090214,0.933301916918382,0.937436498358418,0.912637641412231,0.911826262173476,0.911118463263073,0.91202479113615,0.910842249054136,0.913077857807725,0.915235781315051,0.915201254538934,0.916142109188128,0.930626091769298,0.903151409674027,0.903229094920291,0.905637337554466,0.905447440285821,0.900613691629412,0.902193291636774,0.901804865405455,0.90051011130106,0.895072144062599,0.894476557174577,0.898766509107141,0.902607612950181,0.903738364868019
1.05732209673141,1.04973483767965,1.24614903531644,1.11733826531715,1.1333759528236,1.01765083097273,1.01415499489086,1.02377933373354,1.04169873053837,1.08514204658785,0.991263742325152,1.082535274991,0.980853919325812,0.981613508400391,0.982882367422698,0.985532297489694,0.986067462519511,0.98533376852702,0.98434112371365,0.979118948825922,0.980154752109438,0.986688944489621,0.988242649414895,1.02337364411416,1.03101269333009,1.05695956558218,0.971281370647315,0.971652533490575,1.0110734801224,0.95202406126794,0.953292920290248,0.953353342148453,0.945748819708637,0.944695753037062,0.946396196760835,0.947328419715999,0.950755202245633,0.951229945417244,0.950737938857574,0.951670161812739,0.973214870109879,1.05970444428349,0.943918900574425,0.91028982063626,0.942313405484974,1.01080589760749,1.00632604840629,1.06541862573089,1.11215924889957,1.11251314835477,1.17582662405971,1.1298714850477,1.12710934295832,1.0796781842673,1.10542652755671,1.09086485972928,1.09826222151239,1.12387245769733,1.11322094726517,1.10294059967627,1.13993604028587,1.12190443145865,1.14180911789022,1.19242537167806,1.21086267012465,1.18361241207414,1.16943917047802,1.18078121643253,1.10666949149693,1.11368705874276,1.1177957451007,1.18432021098454,1.13659557469653,1.11875386313796,1.21001676410978,1.20576997064736,1.17938288199978,1.26461222884512,1.19523067223758,1.22814332157131,1.16674608194088,1.1491374261211,1.17734580220886,1.16413931034403,1.19836397717022,1.19147588533483,1.2099649739456,1.14843825890473,1.14793762065103,1.18600339132026,1.12570237683154,1.13171003587594,1.13190856483861,1.12759271782396,1.12683312874938,1.11961703254089,1.12980243149546,1.10852530571323,1.0944642761395,1.09329036575151,1.09656177778862,1.13868444465162,1.08006661049862,1.06225942571617,1.06357144320862,1.04643753056046,1.04096503654588,1.01740051184588,1.01241139269694,1.03671824308346,0.973275291968084,0.974414675579952,0.980948867960134,0.988078647228338,0.950712043775486,0.928071110336625,0.907009776905125,0.904834590009741,0.902176028248716,0.900337477420474,0.924014214142852,0.934346351895928,0.933440024022851,0.93109220324688,0.928804804329115,1.02069781896507,0.938575881970286,0.938463669947905,0.91178310370333,1.07740804873759,0.910816353972048,0.910678246867579,0.91140330916604,0.915822736509044,0.915468837053842,0.91562420754637,1.01165180362236,0.905965341927579,0.906008500397726,0.907959263248349,0.909469809703477,0.904541112412745,0.903660679621756,0.903289516778496,0.899879997636921,0.894916773570072,0.893294015092563,0.915969475307542,0.900579164853294,0.903444887271023
1.21176899799772,1.17994394211168,1.03227292065837,1.03370578186723,1.06156025849979,1.01967927906962,1.01459521128636,1.02046476322628,1.01806515228614,1.00075860575738,0.99610612267559,0.992817447250426,0.986214201318009,0.986188306235921,0.984884920437497,0.986127884377716,0.986093357601599,0.985860301862808,0.982174568512295,0.979800852654237,0.980336017684054,0.987586640668668,0.988242649414895,1.00099166149618,1.00186346259314,1.09255667175902,0.971290002341344,0.970918839498084,1.00860481563002,0.949728030656145,0.953154813185779,0.953275656902189,0.946283984738454,0.944885650305707,0.943409630626696,0.948157062342812,0.952300275476878,0.952205326842556,0.954423672208086,0.980974763042222,0.973741403445666,0.995778118302477,0.951126365088893,0.911644996598861,0.950806992409808,1.01391330745804,1.04993336664232,1.13983245995751,1.12136926642883,1.13429954408473,1.13398017140565,1.14274134084539,1.10352755487027,1.08234537772236,1.08166347389404,1.09083033295316,1.09548281603496,1.09657040948265,1.11796837898129,1.08984631983382,1.10598758766862,1.12556426972708,1.13077781292078,1.12865441618957,1.18040142189524,1.15504150483715,1.30767575035731,1.143216084017,1.10733413193719,1.11321231557114,1.11764037460818,1.13046707193572,1.11997956369012,1.11869344127975,1.21093172367688,1.15073428951652,1.19778565367025,1.19339212140934,1.19398770829736,1.25754287143512,1.16229212782176,1.17120866775403,1.15423875729242,1.19663763836436,1.19471277059582,1.19232179134971,1.16923200982132,1.21335722969912,1.13246962495052,1.13889160530832,1.12624617355539,1.15647436604601,1.13275447085349,1.13148561183118,1.14696223922572,1.12240506971235,1.13751053426363,1.11455885983971,1.1159399308844,1.10689391554169,1.12700576262997,1.08820629796825,1.09193518978891,1.05973033936558,1.05813347597016,1.03379209880753,1.04042987151606,1.09783926850495,1.05483616885097,1.01652871074892,1.01809967906225,0.974000354266545,0.983961329176361,0.980638126975079,0.987379480011965,0.937893978141971,0.933440024022851,0.904282161591866,0.912042054524209,0.920457956202779,0.918740249090948,0.929788817448456,0.930669250239445,0.931135361717027,0.92973702728428,0.929529866627577,0.936245324582374,1.15821796823993,0.927268362791899,0.917143385695527,0.917419599904465,0.910963092770546,0.911973000971974,0.913431757262927,0.914976830494172,0.916314743068714,0.93803208524644,0.94199403280589,0.939689370500066,0.907268727726004,0.909806445770619,0.905732286188788,0.905507862144027,0.902642139726298,0.897851549540035,0.897558071943039,0.892879693779156,0.896591322211757,0.894873615099925,0.899612415122013
1.12780851017469,1.03702035237449,1.03268724197178,1.03279082230013,1.03468979498657,1.02005907360691,1.01661502768921,1.01224739051039,1.01711566594291,1.00431486369746,0.99834173142918,0.993404402444418,0.988026857064163,0.984531020982295,0.985946618803101,0.986058830825482,0.986024304049365,0.98608472590757,0.9832362668779,0.97964548216171,0.979464216587094,0.979282951012479,1.03809931412815,1.10548694941492,1.0022950472946,1.09051096027408,0.97282644387856,0.971186422012993,0.965187394662627,0.956262223036328,0.948398749775633,0.995053056004015,0.94917560223827,0.946663779275743,0.943962059044571,0.946732832827977,0.951661530118709,0.951074574924717,0.958627307200357,1.03196217967331,1.01912685065174,0.99115153030277,0.908028316800583,0.909616548501975,1.00424581014522,1.02566967472595,1.04390844420987,1.08155126187166,1.12628070033151,1.13215025227143,1.13247825664455,1.17254658032857,1.09943613190038,1.12361350687645,1.08173252744628,1.09102886191584,1.09648409254235,1.10305281169865,1.1025349100569,1.08770565971455,1.11755405766788,1.11247862157865,1.12086862817514,1.11842585876484,1.16287045132172,1.18703056290974,1.30080492190998,1.1612735879263,1.1103120663773,1.11111481392202,1.11790795712308,1.1303721233014,1.11732100192909,1.14762687966597,1.13550798124883,1.16936148523176,1.16850694752286,1.19414307878989,1.19490266786447,1.20437163621461,1.18640908093963,1.19967599466267,1.15442002286704,1.18009931260421,1.18957691264839,1.20536428102798,1.16369046225451,1.15719079665044,1.15656931468033,1.13310837030869,1.14332829603938,1.13978066979334,1.13924550476352,1.13183087959235,1.13192582822667,1.12617712000316,1.15417833543422,1.15041491683744,1.23652469647377,1.18908490608872,1.15952135403835,1.08275969903576,1.11921134292151,1.05480164207485,1.07605287277499,1.03394746930005,1.03171186054647,1.0397652310758,1.03688224527002,1.05045126828408,0.995924857100975,0.989062660347679,0.984582811146471,0.97035777938618,0.987767906243284,0.939577158477685,0.924583905948786,0.902029289450218,0.894183079577581,0.915788209732926,0.915408415195637,0.943521842649077,0.928459536567943,0.931368417455818,0.926422456777028,0.927915739844097,0.928511326732119,0.921450601016149,0.919663840352083,0.917428231598494,0.915175359456846,0.911886684031681,0.912240583486883,0.911886684031681,0.917782131053695,0.917246966023879,0.939352734432923,0.90558554739029,0.942753621880469,0.90794199986029,0.909254017352744,0.908736115710986,0.902814773606884,0.93109220324688,0.894295291599962,0.895175724390951,0.893855075204467,0.890505977921098,0.894416135316372,0.895736784502856
1.03774541467295,1.03679592832972,1.03700308898643,1.12080820631693,1.0207927675994,1.02005044191288,1.01803925720405,1.01225602220442,1.01139285280149,1.0083631281972,0.999420693182843,0.994319362011524,1.07963502579716,0.984332492019621,0.984194384915152,0.985748089840427,0.985307873444932,0.986024304049365,0.98595525049713,0.980068435169145,0.978126304012552,0.976322279960428,1.04715396116489,1.09421395701265,1.06808581918595,1.02331322225595,1.01752135556229,0.969641348781748,0.965342765155155,0.965480872259624,0.948769912618893,0.947509685290615,0.947596002230908,0.947466526820468,0.947647792395083,0.949097916992007,0.951696056894827,0.95463083286479,0.957695084245192,0.973111289781527,1.01606259927134,0.980336017684054,0.948864861253215,0.906112080726078,1.0178493599354,1.05309256665705,1.06335565085789,1.05880674810445,1.11703615602612,1.15012143924044,1.12968158777905,1.16500247974696,1.11477465219045,1.16589154423198,1.08139589137913,1.09455922477382,1.10030793299734,1.21654232479593,1.09960013408693,1.12388108939136,1.10441661935528,1.09587124226627,1.1000921406466,1.11575866530979,1.12295749813023,1.18481221754421,1.187988680947,1.16318982400081,1.1123750412503,1.20246403183414,1.13262499544305,1.13419596375638,1.11765763799623,1.23653332816779,1.19841576733439,1.12981969488352,1.15130398132246,1.1475750895018,1.22646877292963,1.22242050842988,1.1697844382392,1.15630173216542,1.15655205129227,1.18356062190996,1.20589081436377,1.15076018459861,1.15807122944143,1.14825699333011,1.1416537473977,1.1982690285359,1.14817067638982,1.15089829170308,1.12149874183927,1.14138616488279,1.1290169473388,1.12705755279415,1.12614259322704,1.18200691698469,1.23665417188421,1.18625371044711,1.12967295608502,1.09177118760236,1.06850014049935,1.05941959838053,1.07700235911822,1.03417189334482,1.03417189334482,1.02558335778566,1.03104722010621,1.05246245299291,0.998617945638117,1.00866523748823,0.994880422123429,0.993930935780206,0.972049591415923,0.944479960686329,0.925421180269628,0.897575335331097,0.889521964801757,0.916004002083659,0.921735446919116,0.925127702672632,0.930203138761862,0.929901029470837,0.927423733284427,0.926655512515819,0.927294257873987,0.926034030545709,0.920535641449043,0.916452850173183,0.913742498247981,0.912482270919703,0.911860788949594,0.915097674210582,0.91846403488201,1.09145181492327,0.962761888640393,0.906586823897689,0.907553573628971,1.01041747137617,0.909538863255711,0.909202227188568,0.90917633210648,0.899759153920511,0.891127459891208,0.892732954980658,0.893561597607471,0.888900482831647,0.892491267547838,0.896979748443075
