0.974669599220278,0.938606211195957,0.938951480588243,0,0.951087699727113,1.02606294826212,1.02521703825102,0.921075157802611,0,0.910846552056125,0.907670073647089,0.907549229359789,1.11533234963779,0,0.914178401691689,0.91268511157005,1.00426781787404,0.899392239967021,0,0.899763404563729,0.900997742641153,0.901481119790354,0.902551454906442,0,0.90256008664125,0.903328311039087,0.905089184939748,0.904942445448026,0,0.90477844248669,0.906323523017172,0.904968340652447,0.903699475635795,0,0.899720245889693,0.899806563237765,0.891364726596361,0.891960316298055,0,0.893790244077173,0.890346181889116,0.890838190773124,0.892426429977642,0,0.89291843886165,0.891735891193069,0.887860242264653,0.888093299104446,0,0.883760168231251,1.08510401434311,0.87664761875015,0.876138346396528,0,0.875931184761156,0.871649844296803,0.87257343992117,0.873220820031707,0,0.874826322705839,0.87537012199869,0.876233295479406,0.974971709938529,0,0.890751873425052,0.882249614639998,0.856484749414101,0.962533380081409,0,0.923837312940903,0.951804133716107,0.88525345835289,0.884649236916389,0,0.883173210264364,0.885184404474433,0.889353532386292,0.912408896056221,0,0.913133961780022,0.914117979548039,0.911968677581056,0.910561704807488,0,0.909465474486979,0.926616731548809,0.892788962839542,0.897907581580189,0,0.983767447707027,0.900721527127324,0.95720759970539,0.978812831927716,0,1.00383623113368,0.933573909803382,0.941782689604992,0.943181030643752,0,0.939434857737444,0.960694820567484,0.960884718733241,0.990621045143913,0,1.02618379254942,1.01200185226125,1.00772914353171,0.992917086602618,0,0.958813102379522,0.971121956214535,0.970992480192428,0.992761715376089,0,0.99330551466894,1.00876495170857,1.04106490335697,0.982852483817468,0,0.983732920767798,0.984311246999878,0.982550373099217,1.04211797500344,0,1.05550579568935,1.00678828443773,1.02961059126786,1.02595073570963,0,1.04252366653938,1.01950282980868,1.01926977296888,1.05036991347909,0,1.0490578897884,1.09446081487407,1.05249332024165,1.05513463109264,0,1.06232486618701,1.04017583467183,1.06071073177807,1.06107326463997,0,1.05768962459556,1.05442682883845,1.06401668620921,1.04770270742367,0,1.04748691405349,1.04702080037391,1.09328689894029,1.05578201120318,0,1.06091789341344,1.06116821372285,1.04637342026337,1.04575193535725,0,1.04409464227428,1.04646836934625,1.04481107626327,1.04298978021896,0,1.03633471268264,1.03517806021848,1.03762947290372,1.0385789637325,0,1.03976151140108,1.04075416090391,1.03728420351143,1.03981330180993,0,1.0609955790267,1.0570163492806,1.05750835816461,1.05718035224194,0,1.049299578363,1.05525547537994,1.03889833792037,1.0382077991358,0,1.04190218163326,1.04103900815254,1.03780210759986,1.03706841014125,0,1.03674903595339,1.03501405725715,1.02851436094735,1.02221319453812,0,1.02851436094735,1.19276764259283,1.02666716969862,1.08251449390096,0,1.04564835453957,1.05386576607599,1.1211328754282,1.01441010627245,0,1.01232122644912,1.06411163529209,1.10878949465396,1.05398661036329
1.00761693097921,0.939590228963973,0.951018645848655,0,0.950915065030969,0.950319475329275,0.950854642887319,0.943163767174138,0,0.96028049729674,1.16398943874576,1.00275726428278,0.930742700786632,0,0.890933139856003,0.913755446686138,0.911735620741262,0.900928688762696,0,0.899797931502958,0.900963215701925,0.900635209779252,0.902439242353949,0,0.905175502287819,0.904709388608233,0.905011499326484,0.90477844248669,0,0.905563930354142,0.905632984232599,0.905089184939748,0.904916550243605,0,0.900617946309638,0.899564874663164,1.02331805659344,0.89361760938103,0,0.893790244077173,0.890915876386388,0.890760505159859,0.892003474972091,0,0.892314217425148,0.891675469049419,0.889517535347628,0.888671625336526,0,1.08838407356983,0.872927341048263,0.876621723545729,0.876276454153442,0,0.876000238639613,0.874386104230674,0.876077924252877,0.873721460650522,0,0.87397178095993,0.873652406772065,0.876518142728043,1.11270830225641,0,0.976559949143047,0.89082092730351,0.984026399751242,0.942361015837072,0,0.891330199657132,0.891053984143303,0.890933139856003,0.884424811811403,0,0.882888363015728,0.883786063435673,0.969102130269659,0.960047440456947,0,0.912926800144651,0.913401545559045,0.912184470951235,0.908861253050477,0,0.904450436564018,0.934842774820034,0.946115820478187,0.934091813891811,0,0.987271932038735,0.986590024988969,0.978545248148694,1.02131549411818,0,1.00027132465832,0.968894968634287,1.03205337221829,0.971829758468722,0,0.987340985917192,1.01113004704573,0.990129036259905,0.998614031575345,0,1.00037490547601,1.02907542370982,0.966814720545761,0.96709093605959,0,1.00261915652587,0.973495683286504,0.97259798286656,0.988575323994616,0,1.0233871104719,1.00810030812842,1.01138899908994,0.994790173055772,0,0.979563792855939,0.980228436436091,0.982153313298088,0.992166125674395,0,1.02119464983088,1.00461308726632,1.04117711590946,1.02101338339993,0,1.02038326675901,1.01800090795223,1.03765536810814,1.0611077915792,0,1.05211352391013,1.05926060033046,1.05016275184371,1.05316659555661,0,1.04136701407522,1.04808250375519,1.04080595131275,1.0556870621203,0,1.05432324802077,1.05488431078323,1.05967492360121,1.05781910061767,0,1.05838016338013,1.05736161867289,1.06057262402115,1.05860458848512,0,1.05791404970055,1.05500515507053,1.05458220006498,1.04940315918068,0,1.04633026158934,1.04614036342358,1.04597636046224,1.04572604015283,0,1.04226471449516,1.04264451082668,1.03986509221877,1.04019309814144,0,1.03955434976571,1.03932129292592,1.03583407206383,1.03524711409694,0,1.06917846362389,1.05854416634147,1.05837153164533,1.05155246114767,0,1.04926505142377,1.08216059277386,1.03426309632892,1.03541111705828,0,1.03774168545621,1.17879286394004,1.02963648647228,1.03066366291434,0,1.02962785473748,1.03235548293654,1.02330942485863,1.02286920638347,0,1.01665435732231,1.01609329455985,1.01709457579748,1.01776785111244,0,1.01812175223953,1.07445245359107,1.07468551043086,1.0074788232223,0,1.00690912872503,1.11080068886403,1.13640241430207,1.1072789410627
1.01140626255956,1.0650870213253,1.06828939493875,0,1.04961032081606,0.952209825252044,0.952080349229936,0.995549765718802,0,0.91448051240994,1.14663102004855,0.951260334423256,0.891951684563248,0,0.892435061712449,0.892089792320162,0.912244893094885,0.901386170707476,0,0.900617946309638,0.900678368453288,0.900557524165988,0.902111236431277,0,0.90389800553636,0.904761179017076,0.905037394530905,0.905796987193935,0,0.905572562088949,0.905460349536456,0.904666229934197,0.904346855746332,0,0.900410784674266,0.897993898928261,0.896224393292793,0.893954247038509,0,0.892728540695892,0.893280971723551,0.890691451281402,0.891226618839446,0,0.892849384983193,0.892435061712449,0.889862804739915,0.888887418706705,0,1.07609248320443,0.874368840761059,0.874481053313552,0.879504722971321,0,0.879340720009984,0.876052029048456,0.87576718179982,0.874101256982037,0,1.12115013889781,0.873186293092478,1.11048131467616,1.11843977416836,0,1.12792605072143,0.977146907109934,0.969438767927138,0.933056005714952,0,0.890760505159859,0.890812295568702,0.903147044608137,0.903129781138522,0,0.910121486332323,0.895352588077269,0.897078935038702,0.941204363372912,0,0.910993291547846,0.918684167261028,0.924251636211647,0.926297357360944,0,0.962274428037194,0.962144952015087,0.93266757764863,0.938563052521921,0,1.04498371095942,0.988955120326131,0.960556712810569,1.02550188549965,0,1.01469495352109,1.01669751599635,1.02715917858263,1.00198903988495,0,0.968661911794494,0.96906760333043,0.988273213276365,1.05175099104823,0,0.995273550204973,0.990750521166021,0.981523196657165,0.993374568547398,0,0.99701716063602,1.0053036260509,0.999321833829532,0.995748295619367,0,0.995817349497824,1.05475483476112,1.01723268355439,1.01738805478092,0,1.0034995934762,0.983845133320291,1.03502268899195,1.09517724886306,0,1.01294271135523,1.02316268536691,1.02713328337821,1.02979185769881,0,1.07221683427601,1.01594655506813,1.02333532006306,1.03932992466073,0,1.03875159842865,1.02244625137792,1.02608021173173,1.02763392399702,0,1.06646809889444,1.04878167427457,1.05790541796574,1.03298559957746,0,1.04597636046224,1.10984256630043,1.06079704912614,1.05951092063987,0,1.05893259440779,1.05661065774466,1.05762920245191,1.0588203818553,0,1.05802626225304,1.13510765408099,1.05259690105933,1.05306301473892,0,1.04788397385462,1.04669279445124,1.04481970799808,1.0445952828931,0,1.04374937288199,1.04290346287089,1.04299841195377,1.04151375356694,0,1.03711156881529,1.03418541071566,1.03380561438414,1.03422856938969,0,1.05044759909235,1.04949810826356,1.04633889332414,1.04665826751201,0,1.04333504961125,1.03630018574341,1.03661092819647,1.034841422561,0,1.03709430534567,1.03737915259431,1.03037018393089,1.0309830371022,0,1.03180305190888,1.02529472386428,1.02090980258224,1.02093569778667,0,1.01532507016201,1.01499706423934,1.01503159117857,1.01547180965373,0,1.01617098017311,1.02474229283662,1.01421157637189,1.00807441292399,0,1.00306800673584,1.00334422224967,1.10676103697427,1.22025971795364
0.9683080106674,1.00686597005099,1.05988208523658,0,1.08297197584574,1.06756432921495,0.918951751040049,0.913565548520381,0,0.913367018619816,0.927471273294718,1.16249614862412,0.8929788610053,0,0.893108337027407,0.893522660298151,0.911623408188769,0.901973128674363,0,0.901455224585933,0.900971847436732,0.900669736718481,0.902197553779349,0,0.902508296232407,0.903811688188288,0.903768529514252,0.90471802034304,0,0.904994235856869,0.904364119215946,0.904976972387255,0.904502226972861,0,0.90362179002253,1.23066095839627,0.897864422906153,0.894990055215369,0,0.893790244077173,0.896543767480658,0.891442412209625,0.891105774552146,0,0.893850666220823,0.893660768055066,0.888896050441513,0.889733328717807,0,1.03716335922413,1.03283022835093,1.07551415697235,1.08121110194508,0,0.880031258794557,0.87914219010942,0.877545319170095,0.879496091236513,0,1.11597972974832,1.10828022230033,0.984837782823115,0.883889644253359,0,0.883863749048937,0.969179815882924,0.949171454599923,0.939693809781659,0,0.939900971417031,0.890829559038317,0.894299516430796,0.89495552827614,0,0.900453943348302,0.89541301022092,0.897018512895052,0.903172939812558,0,0.910984659813039,0.921118316476647,0.922870558642501,1.03081040240606,0,1.03480689562177,0.954126070379233,1.02526019692505,0.9648121580705,0,0.962835490799659,1.0464079472026,1.02933437575403,1.02253256872599,0,0.98533842344193,0.986866240502798,1.01971862317886,1.02726275940031,0,0.993529939773927,1.00126397416114,1.01226080430547,1.0098870772335,0,1.0414619631581,0.995731032149753,1.00385349460329,1.02619242428423,0,0.998311920857094,0.998216971774215,1.00307663847065,1.03570459604172,0,1.02267930821771,1.00330106357563,1.00885126905664,0.999977845674876,0,1.01153573858167,1.00163513875785,1.003016216327,1.02633916377595,0,1.05184594013111,1.01605013588581,1.04244598092611,1.03268348885921,0,1.08058961703896,1.08212606583463,1.09673959286316,1.05666244815351,0,1.03501405725715,1.01899355745505,1.01996031175346,1.0665371527729,0,1.01826849173125,1.02444881385318,1.04743512364465,1.03247632722384,0,1.02176434432815,1.0389328648596,1.05173372757862,1.04596772872743,0,1.06813402371223,1.05073244634099,1.09090454013352,1.08758132223276,0,1.06404258141363,1.04746101884907,1.07238083723735,1.1122162933724,0,1.04919599754531,1.04933410530223,1.04567424974399,1.04487149840692,0,1.04445717513618,1.04421548656158,1.04365442379911,1.03891560138998,0,1.0371288322849,1.03473784174332,1.03393509040625,1.03390919520183,0,1.03714609575451,1.04617489036281,1.04435359431849,1.04317104664991,0,1.04432769911407,1.03741367953354,1.03696482932356,1.03522985062732,0,1.03473784174332,1.03221737517963,1.03142325557737,1.03078450720164,0,1.02651179847209,1.02664990622901,1.02346479608516,1.02305910454923,0,1.0163954052781,1.01314987299061,1.0132620855431,1.01296860655965,0,1.01271828625025,1.02873015431753,1.01086246326671,1.00762556271402,0,1.00154018967497,0.998484555553238,1.04992106326911,1.09503914110615
1.06096968382228,0.971838390203529,1.00944685875833,0,1.01402167820613,0.921731169647956,0.914238823835339,0.910682549094789,0,0.910302752763274,0.92436384876414,0.993624888856805,0.893729821933523,0,0.89373845366833,0.894662049292697,0.910363174906924,0.9061163613818,0,0.902603245315285,0.9026205087849,0.902439242353949,0.902396083679913,0,0.903311047569473,0.903984322884431,0.903103885934101,0.903811688188288,0,0.905002867591676,0.904761179017076,0.904873391569569,0.904588544320932,0,0.903552736144073,0.900669736718481,0.899702982420079,0.900954583967117,0,0.894662049292697,0.895309429403234,0.893781612342366,0.90663426547023,0,0.893634872850644,0.894144145204267,0.891485570883661,0.891200723635025,0,0.89100219373446,0.941385629803863,1.0676247513586,0.881731710551568,0,0.882292773314034,0.879245770927106,0.879556513380163,0.879099031435384,0,0.977069221496669,0.977172802314355,1.08508675087349,0.993564466713155,0,0.930017635062831,0.93953843855513,0.938485366908656,1.17905181598425,0,0.945192224853821,0.924096264985118,0.896880405138137,0.898045689337104,0,0.941584159704428,0.896043126861842,1.00228251886839,0.996516520017205,0,1.03440983582064,1.03541974879308,0.968955390777937,0.964259727042841,0,1.03397824908029,1.0338746682626,0.967229043816505,0.957837716346313,0,0.966339975131367,0.975705407397138,1.01674067467038,1.03381424611895,0,0.996637364304505,1.00497562012822,1.00187682733245,1.01710320753229,0,1.01883818622852,1.04350768430739,1.04960168908125,1.08145279051968,0,1.08266123339268,1.04395653451737,1.02064221880322,1.03501405725715,0,1.00126397416114,1.01407346861497,1.01359009146577,1.04302430715819,0,1.03268348885921,1.04286893593166,1.00707313168636,1.02757350185337,0,1.06456911723687,1.02476818804104,1.06815991891665,1.02542419988639,0,1.03571322777653,1.0176038481511,1.02894594768771,1.02915310932308,0,1.02769434614067,1.09289847087397,1.03419404245047,1.03478100041735,0,1.03895012832921,1.02050411104631,1.02038326675901,1.01901945265948,0,1.04157417571059,1.04274809164436,1.04702943210872,1.04486286667212,0,1.04377526808642,1.02393954149956,1.09416733589062,1.04005499038453,0,1.04049520885969,1.09489240161443,1.0937702760895,1.044957815755,0,1.04284304072724,1.05113813787692,1.07036101129247,1.04335231308086,0,1.11152575458783,1.11210408081991,1.11179333836685,1.11823261253299,0,1.03722378136778,1.03971835272705,1.16082159207153,1.04044341845085,0,1.0396579305834,1.03933855639553,1.03930402945631,1.03801790097004,0,1.03802653270485,1.03775894892582,1.04941179091549,1.11831892988106,0,1.03450478490352,1.03672314074896,1.03634334441745,1.03649008390917,0,1.03518669195329,1.03077587546683,1.02962785473748,1.02678801398592,0,1.02596799917924,1.02505303528968,1.02307636801884,1.0220664550464,0,1.0168787824273,1.01176016368665,1.00949864916718,1.00841968231628,0,1.0075996675096,1.00905843069201,1.00810893986322,1.00172145610592,0,0.995869139906668,0.994954176017108,0.995532502249188,1.0973956047085
0.92059178065341,1.00943822702353,0.938968744057858,0,0.961946422114522,0.918925855835628,0.917941838067612,0.909266944586414,0,0.909422315812943,0.994332691110993,0.935602367483064,0.894221830817531,0,0.894092354795424,1.1034205556039,0.906686055879073,0.905719301580671,0,0.905192765757434,0.902491032762792,0.902396083679913,0.902145763370506,0,0.902905356033536,0.903060727260065,0.903483682265616,0.904269170133067,0,0.904683493403811,0.90407927196731,0.904044745028081,0.9029830416468,0,0.902767248276621,0.90036762600023,0.899521715989129,0.899858353646608,0,0.897709051679625,0.894998686950176,0.894109618265038,1.11487486769301,0,1.11154301805744,0.894765630110382,0.893013387944529,0.891873998949983,0,0.890579238728909,0.890743241690245,0.888395409822697,0.886151158772835,0,0.884942715899832,0.882206455965962,0.883225000673207,0.884571551303124,0,0.887368233380645,0.88890468217632,1.08789206468582,0.993555834978348,0,0.903354206243508,0.903328311039087,1.10312707662046,1.09393427905083,0,1.10241927436627,0.961264515064756,0.930043530267252,0.9091288368295,0,0.91855469123892,0.9093705254041,1.00435413522211,0.998027073608458,0,0.95139844218017,1.05573885252914,1.03596354808593,0.975360138004851,0,1.03448752143391,1.03524711409694,1.01337429809559,0.998458660348816,0,0.996015879398389,1.03788842494793,1.02354248169843,1.01534233363162,0,1.07016248139191,1.01562718088026,1.01617961190792,1.06247160567873,0,1.05690413672811,1.07642912086191,1.06815991891665,1.04380979502564,0,1.02942069310211,1.04368895073834,1.03730146698104,1.05530726578878,0,1.05492746945727,1.0789495874256,1.08624340333765,1.07587668983425,0,1.04197986724653,1.07776703975702,1.06331751568983,1.06594156307121,0,1.06583798225352,1.06595019480601,1.06089199820902,1.07070628068476,0,1.06222991710413,1.06552723980046,1.02277425730059,1.03073271679279,0,1.03790568841755,1.05751698989942,1.0284453070689,1.04948947652876,0,1.04904062631878,1.02215277239447,1.0248286101847,1.04872125213092,0,1.04089226866082,1.01818217438318,1.04558793239592,1.02793603471527,0,1.02500124488084,1.02305910454923,1.02445744558799,1.01963230583078,0,1.02508756222891,1.05628265182199,1.03410772510239,1.03630881747822,0,1.03787116147832,1.0940119646641,1.04223881929074,1.04322283705876,0,1.03312370733438,1.10701998901849,1.10665745615659,1.30703454797004,0,1.03686988024069,1.0345997339864,1.11456412523995,1.11203502694145,0,1.11219902990279,1.04018446640664,1.03873433495903,1.03792295188716,0,1.03756041902526,1.03586859900305,1.03310644386476,1.0339955125499,0,1.03443573102507,1.03494500337869,1.03844085597559,1.03464289266044,0,1.03534206317982,1.05628265182199,1.15039445642448,1.06708095206575,0,1.09221656382421,1.17124009598377,1.03342581805263,1.01898492572025,0,1.01373683095749,1.01375409442711,1.00850599966435,1.00720260770847,0,1.00293853071373,1.00437139869172,1.03935581986515,0.99789759758635,0,0.996335253586254,0.995083652039216,0.987522252348142,0.986624551928197
0.918779116343906,0.922844663438079,0.92366467824476,0,0.92621967174768,0.923681941714374,1.16829667441453,0.908723145293563,0,0.90803260650899,0.924950806731027,0.925736294598479,0.895361219812077,0,0.930665015173368,0.919150280940614,0.905727933315478,0.906288996077943,0,0.904847496365147,0.903431891856773,0.901904074795905,0.902214817248963,0,0.903699475635795,0.903492314000423,0.903647685226952,0.903613158287723,0,0.903794424718674,0.903811688188288,0.90350094573523,0.903785792983867,0,0.90134301203344,0.899150551392421,0.899582138132779,0.899625296806814,0,0.899616665072007,0.899072865779156,0.897130725447545,0.899927407525065,0,0.909672636122351,0.89699261769063,0.894282252961181,0.892227900077077,0,0.891891262419597,0.89082092730351,0.887851610529846,0.888110562574061,0,0.887463182463524,0.887316442971802,0.891312936187518,0.977716601607206,0,0.890639660872559,0.89112303802176,0.993918367840249,0.90292261950315,0,0.903000305116415,0.902965778177186,0.91791594286319,0.917967733272033,0,0.953470058533889,0.936422382289745,0.928524344941192,1.04052973579892,0,0.925615450311178,0.927005159615132,1.00507920094591,0.97551550923138,0,1.05925196859566,1.06089199820902,1.03262306671556,1.04115985243984,0,0.986641815397812,1.00349096174139,1.00268821040433,1.04290346287089,0,1.04178996908077,1.04366305553392,1.05039580868351,1.06043451626424,0,1.05623086141315,1.03582544032902,1.04686542914738,1.04411190574389,0,1.03258853977633,1.0320706356879,1.03692167064953,1.03874296669384,0,1.04716753986563,1.04418959135716,1.05089644930232,1.04698627343468,0,1.07638596218787,1.07137955599972,1.06510428479491,1.06347288691636,0,1.06368868028654,1.06232486618701,1.09457302742656,1.068099496773,0,1.06890224811006,1.06976542159078,1.07052501425381,1.0642411113142,0,1.04633889332414,1.06606240735851,1.06863466433104,1.04991243153431,0,1.03425446459412,1.02860931003023,1.02702970256052,1.02406901752166,0,1.03491047643946,1.05794857663977,1.02647727153286,1.07036101129247,0,1.04328325920241,1.05046486256197,1.04476791758924,1.05116403308135,0,1.01858786591912,1.02764255573183,1.05086192236309,1.00725439811731,0,1.02342163741113,1.05709403489387,1.04431906737927,1.03409046163278,0,1.03082766587567,1.03053418689223,1.02822088196391,1.04335231308086,0,1.04299841195377,1.10902255149375,1.02904089677059,1.06602788041928,0,1.03482415909139,1.03130241129007,1.30807898788171,1.04253229827418,0,1.28860579415675,1.0451995043296,1.0382077991358,1.04684816567776,0,1.04139290927964,1.0347119465389,1.03252811763268,1.03244180028461,0,1.03215695303598,1.04006362211934,1.0347205782737,1.03453931184275,0,1.03487594950023,1.07036964302728,1.0591829147172,1.06674431440827,0,1.16408438782863,1.10714083330579,1.01387493871441,1.01389220218402,0,1.01211406481375,1.15402841677829,1.17495174195085,1.00331832704525,0,1.00308527020545,0.998035705343265,0.991311583928486,0.992951613541847,0,0.994885122138651,0.987392776326035,0.985985803552467,0.985528321607688
0.919288388697529,0.920729888410325,0.923457516609388,0,0.924070369780696,0.924294794885683,1.19848185103517,0.910837920321318,0,0.908438298044927,0.98886880297806,0.930103952410902,0.927117372167624,0,0.927022423084746,0.922836031703272,0.905684774641442,0.905727933315478,0,0.905192765757434,0.903129781138522,0.90338010144793,0.902318398066649,0,0.904812969425919,0.903483682265616,0.904519490442475,0.903647685226952,0,0.903923900740781,0.90547761300607,0.902171658574927,0.902396083679913,0,0.900341730795809,0.898813913734941,0.899193710066456,0.899504452519514,0,0.899633928541622,0.899495820784707,0.899815194972572,0.898926126287434,0,1.02404312231724,0.900592051105217,0.895568381447449,0.894998686950176,0,0.891856735480369,0.890674187811788,0.890795032099088,0.889638379634928,0,0.891433780474818,0.974091272988199,0.89234011262957,0.977405859154149,0,0.894282252961181,1.08091762296163,0.943500404831617,0.90292261950315,0,0.903328311039087,0.904312328807103,0.915568110995642,0.979089047441545,0,0.921325478112019,0.924968070200641,0.937328714444497,0.971165114888571,0,0.946253928235102,0.9355246818698,0.986728132745883,0.998769402801874,0,0.98375881597222,0.992960245276654,1.05874269624203,1.01120773265899,0,1.04984337765585,1.04235103184323,1.05059433858407,1.04750417752311,0,1.03162178547793,1.03102619577624,1.07741313862992,1.06410300355728,0,1.06392173712633,1.03863075414135,1.06283413854063,1.11242345500777,0,1.11168975754916,1.1101619404883,1.03410772510239,1.04033120589836,0,1.08803017244273,1.08719289416644,1.04949810826356,1.08150458092852,0,1.11610057403562,1.07393454950264,1.08840133703944,1.09430544364754,0,1.0966705389847,1.06440511427553,1.0942622849735,1.04742649190984,0,1.04528582167767,1.07145724161298,1.04953263520279,1.09672232939354,0,1.05557484956781,1.05873406450723,1.11036910212367,1.07962286274056,0,1.07386549562418,1.05534179272801,1.05511736762303,1.0225412004608,0,1.04069373876026,1.02642548112402,1.06378362936942,1.06383541977826,0,1.03138872863814,1.03232095599731,1.024233020483,1.05109497920289,0,1.01157026552089,1.01176879542146,1.01911440174235,1.02198013769833,0,1.01142352602917,1.06174653995493,1.04138427754483,1.03257990804153,0,1.03156136333428,1.03339992284821,1.02297278720116,1.0605122018775,0,1.04324873226318,1.04273945990956,1.04293798981012,1.02248941005195,0,1.18010488763073,1.02549325376485,1.02384459241668,1.18122701315566,0,1.03199295007464,1.09741286817812,1.04582098923571,1.22187385236258,0,1.02730591807435,1.06168611781128,1.16202140320972,1.10761557872018,0,1.08575139445364,1.02980048943362,1.07068901721515,1.03617070972131,0,1.03409909336759,1.11565172382565,1.06967910424271,1.14749419352927,0,1.16239256780643,1.16379090884519,1.01235575338835,1.01186374450434,0,1.0112163643938,1.00825567935494,1.41608788552372,1.18956526897938,0,0.996309358381833,0.990370724834505,0.990094509320676,0.989766503398004,0,1.00517415002879,1.00898937681355,0.98707340213817,0.984371669143528
0.920453672896496,0.92110968474184,0.921515376277777,0,0.924717749891233,0.924501956521055,0.920798942288782,0.911295402266097,0,0.910397701846152,0.909871166022916,0.928299919836206,0.928645189228492,0,0.926478623791894,0.975360138004851,0.908559142332227,0.906470262508894,0,0.90681553190118,0.905503508210492,0.903431891856773,0.903155676342944,0,0.903475050530809,0.903820319923095,0.903785792983867,0.913133961780022,0,0.903535472674459,0.903112517668908,0.901222167746139,0.899961934464294,0,0.89954761119355,0.89872759638687,0.89890886281782,0.899642560276429,0,0.899746141094115,0.900289940386966,0.901420697646704,0.901662386221305,0,0.902827670420272,0.902603245315285,0.90012593742563,0.895507959303798,0,0.894515309800975,0.89100219373446,0.89082092730351,0.891287040983096,0,1.09445218313926,0.984129980568928,1.09190582137115,0.971510384280857,0,0.891977579767669,0.899590769867586,0.901368907237861,0.904174221050189,0,0.904105167171731,0.955731573053366,0.917510251327254,0.974350225032413,0,0.934816879615613,0.932658945913822,0.97597299117616,0.960668925363062,0,0.960910613937663,0.971156483153764,1.02959332779825,1.03072408505799,0,1.00762556271402,1.0791912760002,1.058699537568,1.07976960223228,0,1.0593037590045,1.05831110950168,1.05138845818633,1.07030922088363,0,1.03186347405253,1.04444854340137,1.08828912448695,1.11223355684201,0,1.07315769336999,1.12115877063262,1.02776340001913,1.03456520704717,0,1.03632608094783,1.0380869548485,1.046166258628,1.06432742866227,0,1.081124784597,1.10489658225593,1.10451678592441,1.11812903171531,0,1.0802788745859,1.07512572890603,1.11243208674258,1.12134003706357,0,1.12007980378172,1.08834091489579,1.05570432558991,1.05383987087157,0,1.1004080801562,1.05081876368906,1.09697264970295,1.0849831700558,0,1.09119801911696,1.0608747347394,1.11345063144982,1.06294635109312,0,1.06394763233075,1.05771551979998,1.04117711590946,1.02846257053851,0,1.04959305734644,1.02797919338931,1.02788424430643,1.02899773809655,0,1.02853162441697,1.0783539977239,1.07214778039756,1.02166939524527,0,1.04056426273815,1.01220038216182,1.0088081103826,1.02046958410708,0,1.05019727878294,1.00085828262521,1.04367168726873,1.03748273341199,0,1.03104345924585,1.03377108744491,1.07398633991148,1.0161623484383,0,1.04367168726873,1.04358536992066,1.04116848417465,1.01675793814,0,1.01598108200735,1.01970135970924,1.02118601809607,1.02107380554358,0,1.10242790610108,1.17376919428227,1.04609720474954,1.14531036462306,0,1.04411190574389,1.06120274066207,1.1565747785464,1.2380497233912,0,1.02394817323436,1.02433660130069,1.02538967294716,1.03135420169891,0,1.15679057191658,1.10704588422291,1.0525537423853,1.09755097593503,0,1.01806133009588,1.07937254243115,1.01153573858167,1.01187237623915,0,1.01123362786342,1.05664518468389,0.999002459641667,1.1887452541727,0,0.990577886469877,0.986659078867426,0.98923133583996,0.987504988878528,0,1.00456992859229,1.00737524240461,0.999313202094725,0.981177927264878
0.920341460344003,0.923371199261316,0.924251636211647,0,0.925201127040435,0.925028492344292,0.92086799616724,0.914860308741455,0,0.911942782376634,0.912339842177764,0.962870017738888,1.08832365142618,0,0.926797997979759,0.924648696012776,0.908662723149913,0.908403771105698,0,0.908662723149913,0.907091747415009,0.908749040497984,0.908679986619527,0,0.911537090840698,1.05828521429725,1.26424703853094,0.891105774552146,0,0.893893824894859,1.21950012529061,0.899849721911801,0.900410784674266,0,0.899280027414528,0.898736228121677,0.898140638419983,0.899323186088564,0,0.96672840319769,0.900894161823467,0.901731440099762,0.901170377337296,0,0.902853565624693,0.901507014994776,0.900488470287531,0.893652136320259,0,0.894394465513675,0.893712558463909,0.892227900077077,1.08748637314988,0,1.08771942998968,1.02796192991969,1.0848536940337,0.89681135125968,0,0.896457450132586,0.896448818397779,0.906418472100051,0.907342067724417,0,0.908619564475877,0.908541878862613,0.931182919261798,0.951010014113848,0,0.933832861847596,0.956922752456754,0.977414490888956,0.981687199618501,0,1.04494918402019,1.06309309058484,1.03040471087012,1.03036155219609,0,1.02425891568742,1.06755569748015,1.05840605858455,1.05161288329132,0,1.06133221668418,1.06445690468437,1.05184594013111,1.05500515507053,0,1.04400832492621,1.04385295369968,1.03718062269374,1.11439149054381,0,1.09171592320539,1.12304048882058,1.1231872283123,1.08203974848656,0,1.0707580710936,1.0702746939444,1.05213941911455,1.05019727878294,0,1.1134161045106,1.07433160930377,1.12253984820177,1.08083130561356,0,1.07968328488421,1.09005863012242,1.08784027427698,1.1208911868536,0,1.12621696722962,1.0932955306751,1.11780965752744,1.140657859562,0,1.11256156276469,1.08007171295053,1.10000238862027,1.10603597125047,0,1.10634671370353,1.10866865036666,1.11164659887513,1.09326963547068,0,1.09640295520568,1.05670560682754,1.05175099104823,1.05531589752359,0,1.06092652514825,1.04494918402019,1.08758132223276,1.03385740479299,0,1.02723686419589,1.02835898972082,1.03734462565508,1.01708594406267,0,1.01646445915656,1.0077205117969,1.00911022110085,1.01116457398496,0,1.03318412947803,0.996749576856998,1.061832857303,1.03722378136778,0,1.03273527926806,1.03277843794209,1.03147504598621,1.02825540890314,0,1.01602424068139,1.01086246326671,1.04357673818585,1.01166521460377,0,1.0131412412558,1.01270102278063,1.01328798074752,1.02312815842768,0,1.01773332417321,1.31040092454483,1.20247834425089,1.04615762689319,0,1.08788343295101,1.21621143432908,1.01920935082523,1.039899619158,0,1.17355340091209,1.02093569778667,1.02214414065967,1.02209235025082,0,1.10983393456562,1.08092625469644,1.11476265514051,1.01923524602965,0,1.0648453327507,1.02029694941094,1.03200158180945,1.00589921575259,0,0.998622663310152,0.999149199133389,0.996568310426048,0.990621045143913,0,1.12651044621306,0.982351843198652,1.27594303919464,0.988031524701765,0,0.989274494513996,0.995713768680139,0.994436271928679,0.992131598735166
0.920660834531868,0.922956875990573,0.924622800808355,0,0.925192495305627,0.924873121117762,0.920073876564981,0.915257368542584,0,0.915196946398934,0.912529740343521,0.91204636319432,1.13843950371656,0,0.928170443814098,0.926314620830559,0.98004717000514,0.909612213978701,0,0.909413684078136,0.908636827945491,0.908101660387447,0.914627251901662,0,0.914903467415491,0.915654428343714,0.9158788534487,0.892952965800878,0,0.893479501624115,1.21917211936794,0.89954761119355,0.898658542508412,0,0.899202341801264,0.898572225160341,0.89966845548085,0.897424204430988,0,1.09542756917247,0.96569259502083,0.902292502862228,0.902991673381608,0,0.902456505823564,0.900600682840024,0.901498383259969,0.901196272541718,0,0.897208411060809,0.895689225734749,0.895067740828633,0.987910680414464,0,0.903172939812558,0.903362837978316,0.996162618890111,1.09943269412299,0,0.897225674530424,0.892875280187614,0.898718964652062,0.911960045846248,0,0.947686796213091,0.925649977250407,1.04141880448406,0.937950199350612,0,0.967772843109356,1.00565752717799,1.00556257809511,1.04286893593166,0,1.06967910424271,1.02229088015139,1.03516079674887,1.04608857301473,0,1.08419768218835,1.06330888395502,1.08629519374649,1.0841286283099,0,1.05339102066159,1.07778430322663,1.05297669739085,1.0553245292584,0,1.04910104846243,1.05332196678314,1.0371288322849,1.07896685089521,0,1.08565644537076,1.08542338853097,1.08817691193445,1.09198350698441,0,1.08177216470754,1.04798755467231,1.05188046707034,1.05192362574438,0,1.08119383847546,1.12215142013544,1.11505613412396,1.07978686570189,0,1.08046014101685,1.13427900753951,1.12940207737346,1.12986819105305,0,1.07255347193349,1.07585079462983,1.07613564187846,1.09964848749317,0,1.15436505443577,1.10048576576947,1.09369259047623,1.11892315131756,0,1.10641576758199,1.09127570473023,1.13862077014751,1.11465907432283,0,1.09806024828865,1.06431879692746,1.05073244634099,1.04618352209761,0,1.05390029301522,1.06272192598814,1.03302012651669,1.03418541071566,0,1.04598499219705,1.02934300748884,1.01877776408487,1.08900555847594,0,1.00445771603979,1.03805242790927,1.03024070790879,1.01388357044921,0,0.991406533011365,1.04373210941238,1.07805188700565,1.07713692311609,0,1.04380116329084,1.03006807321264,1.02613200214058,1.00246378529934,0,1.01787143193012,1.00810893986322,1.00734071546539,1.00604595524431,0,1.17471005337625,1.00814346680245,1.0088081103826,1.01119046918938,0,1.01119910092419,1.33219605493292,1.01083656806229,1.01015466101252,0,1.04619215383242,1.0455706689263,1.04024488855029,1.01420294463708,0,1.01556675873661,1.01738805478092,1.15438231790539,1.10839243485283,0,1.05445272404287,1.07026606220959,1.06694284430884,1.07358064837554,0,1.02263614954368,1.13995005730781,1.02147086534471,1.04653742322471,0,1.00166103396227,1.00112586640423,1.04757323140157,0.990275775751627,0,1.42313138112636,0.979261682137688,0.975498245761766,0.972485770314067,0,0.97296051572846,0.969119393739274,0.971821126733915,0.970025725894025
0.920876627902047,0.923008666399416,0.923828681206096,0,0.923457516609388,0.924001315902239,0.92053135850976,0.916008329470807,0,0.915032943437598,0.913341123415394,0.914031662199967,0.91530052721662,0,0.924458797847019,0.924070369780696,0.923768259062446,0.911304034000904,0,0.909275576321221,0.909569055304665,0.910156013271552,0.91128677053129,0,0.913634602398838,0.912616057691593,0.912020467989899,0.894006037447352,0,0.893936983568895,1.21956917916907,0.899625296806814,0.899038338839928,0,0.897812632497311,0.89833053658574,0.898080216276333,0.897778105558082,0,0.897303360143688,0.965960178799852,0.901636491016883,0.902646403989321,0,0.902465137558371,0.900229518243316,0.901187640806911,0.902370188475492,0,0.897501890044253,0.897225674530424,0.897683156475203,1.08215196103906,0,0.905512139945299,1.02302457761,0.981566355331201,0.98010759214879,0,0.914963889559141,0.910294121028466,0.928144548609677,0.990785048105249,0,0.92767843493009,0.931467766510434,0.926797997979759,0.968972654247552,0,1.01269239104583,0.993806155287756,1.05249332024165,1.03926950251708,0,1.02394817323436,1.02103064686954,1.04361126512508,1.07257073540311,0,1.07165577151355,1.06687379043038,1.05519505323629,1.05469441261747,0,1.08324819135957,1.07763756373491,1.0650870213253,1.08841860050906,0,1.0878748012162,1.05223436819743,1.11172428448839,1.08904871714998,0,1.09188855790153,1.0840077840226,1.10107272373635,1.0996830144324,0,1.12361018331785,1.04698627343468,1.04632162985453,1.09207845606729,0,1.08531980771328,1.12322175525153,1.10285086110663,1.14984202539682,0,1.14989381580566,1.15010097744103,1.08115931153623,1.1328288760919,0,1.07339075020979,1.14010542853434,1.13310509160573,1.14540531370594,0,1.14659649310933,1.09700717664218,1.09717117960352,1.11496981677588,0,1.11892315131756,1.09091317186833,1.08856534000078,1.11841387896394,0,1.11188828744973,1.06378362936942,1.0638872101871,1.0706285950715,0,1.07098249619859,1.03294244090343,1.0606330461648,1.03810421831811,0,1.01888134490256,1.01750889906822,1.01312397778618,1.02774613654952,0,0.999977845674876,1.00017637557544,1.00170419263631,0.99510091550883,0,0.995144074182866,0.9846996750662,0.986313809475139,1.05239837115877,0,1.04294662154493,0.994427640193872,0.994332691110993,1.0024119948905,0,1.02204919157679,0.995610187862453,1.00214441111147,1.05053391644042,0,1.00309390194026,1.00492382971938,1.00777230220574,1.15616908701047,0,1.09400333292929,1.02690885827322,1.07353748970151,1.00781546087978,0,1.0101287658081,1.08465516413313,1.04048657712489,1.01139763082475,0,1.01432378892438,1.15375220126446,1.07435750450819,1.04394790278256,0,1.07634280351384,1.06759022441937,1.11806860957166,1.07343390888382,0,1.07341664541421,1.04690858782141,1.02997312412976,1.14743377138562,0,1.04241145398688,0.986115279574575,1.04637342026337,1.17570270287907,0,1.13879340484365,0.972347662557152,0.97138090825875,0.97201965663448,0,0.972123237452166,0.971458593872014,0.970604052126105,0.971337749584714
0.921912436078906,0.922499394045793,0.9223871814933,0,0.922922349051344,0.922180019857928,0.920634939327446,0.918865433691978,0,0.91785552071954,0.914169769956882,0.914566829758011,0.914739464454155,0,0.919279756962722,0.921515376277777,0.921126948211454,0.911640671658384,0,0.911632039923577,0.910078327658287,0.910061064188673,0.912296683503728,0,0.912659216365629,0.91019054021078,0.908947570398549,1.0460454143407,0,1.22305640003116,0.901610595812462,0.901135850398068,0.899072865779156,0,0.896543767480658,0.89866717424322,0.897311991878495,0.896914932077366,0,1.17975961823844,0.965649436346794,0.900747422331746,0.901895443061098,0,0.901869547856676,0.900410784674266,0.899849721911801,0.901109955193646,0,1.08827186101733,1.05311480514776,0.910941501139003,0.975550036170609,0,0.974255275949535,0.969240238026574,0.990103141055483,0.990362093099698,0,0.924691854686812,0.900151832630051,0.926305989095751,0.987677623574671,0,0.952744992810088,0.931493661714855,1.00949001743237,0.985200315685016,0,0.993357305077783,1.04009814905856,1.04681363873854,1.0201329464496,0,1.02960195953306,1.03311507559957,1.08897966327152,1.04961032081606,0,1.04393927104775,1.07636006698345,1.11802545089762,1.08402504749221,0,1.08832365142618,1.08807333111677,1.18589678168633,1.09013631573568,0,1.04488013014173,1.04666689924681,1.04243734919131,1.06778012258513,0,1.12844395480986,1.12620833549481,1.0885912352052,1.04639068373298,0,1.04570877668322,1.08805606764715,1.09158644718328,1.09307973730492,0,1.11914757642255,1.09941543065338,1.11503887065434,1.10035628974736,0,1.13038609514148,1.12829721531814,1.07589395330386,1.07877695272946,0,1.07849210548082,1.06578619184468,1.12967829288729,1.08939398654226,0,1.08992915410031,1.08981694154782,1.09118075564735,1.08289429023247,0,1.07983865611074,1.07894095569079,1.12272974636752,1.12121919277627,0,1.06022735462887,1.07625648616576,1.06275645292736,1.06559629367892,0,1.0659329313364,1.05009369796526,1.02749581624011,1.02791013951085,0,1.03490184470465,1.0121831186922,1.01301176523369,0.999321833829532,0,0.999192357807425,1.00091870476886,1.03220874344482,0.999857001387576,0,1.03819053566618,0.98637423161879,0.986192965187839,1.0482206115121,0,1.02179023953257,0.990767784635635,0.963008125495803,0.960755242711134,0,1.01974451838328,1.00224799192916,0.992666766293211,1.04923052448454,0,0.996766840326612,0.998320552591901,1.00035764200639,1.00091007303405,0,1.01494527383049,1.00501014706745,1.00438866216134,1.00304211153142,0,1.00649480545428,1.03721514963297,1.04723659374409,1.14910832793821,0,1.0133829298304,1.06671841920385,1.1005289244435,1.15682509885581,0,1.10816800974784,1.06658894318174,1.00294716244854,1.04000319997569,0,1.11202639520664,1.1290913349204,1.12990271799227,0.989309021453225,0,1.01317576819503,1.03769852678217,1.00305074326623,1.15704089222599,0,0.97232176735273,0.971191010092992,0.968472013628736,0.967323992899384,0,1.00400023409501,0.97150175254605,0.971337749584714,0.971113324479728
0.922128229449085,0.922672028741936,0.921938331283327,0,0.921515376277777,0.921256424233562,0.918856801957171,0.919115754001386,0,0.91657802396808,0.914515039349168,0.914351036387832,0.91536094936027,0,0.915671691813328,0.914972521293948,0.916086015084072,0.911243611857254,0,0.912063626663935,0.911554354310312,0.910837920321318,0.912270788299306,0,0.91256426728275,0.909905692962144,0.90745428027691,0.904528122177282,0,0.903604526552916,0.90407927196731,0.902724089602586,0.899392239967021,0,0.897890318110575,0.89839095872939,0.898356431790162,0.897873054640961,0,0.89687177340333,0.896362501049707,0.898598120364762,0.900117305690823,0,0.901248062950561,0.899780668033343,0.900609314574831,0.901532910199197,0,1.0235079547592,0.953418268125046,0.916422652741551,0.975757197805981,0,0.977043326292248,0.976119730667881,1.00401749756463,1.01645582742175,0,1.00702997301233,0.95069927166079,0.989429865740525,0.947609110599827,0,1.03548880267154,1.03704251493683,0.987159719486241,0.992623607619175,0,1.04337820828529,1.0425495617438,1.0608661030046,1.04040889151162,0,1.07704197403322,1.0901622109401,1.05317522729141,1.09147423463079,0,1.04384432196487,1.04658058189874,1.04571740841803,1.06386994671749,0,1.06633862287234,1.08125426061911,1.08149594919371,1.06661483838616,0,1.04506139657268,1.04980021898181,1.04763365354522,1.05995977084984,0,1.08116794327104,1.0825662843098,1.09578147029956,1.04456075595387,0,1.0390537091469,1.03704251493683,1.05056844337965,1.08634698415534,0,1.10298033712874,1.14870263640227,1.08908324408921,1.12514663211353,0,1.10556122583608,1.08194479940368,1.05375355352349,1.054849783844,0,1.06182422556819,1.05792268143535,1.09174181840981,1.08634698415534,0,1.08133194623238,1.08848765438751,1.09046432165835,1.07706786923764,0,1.07890642875156,1.09728339215601,1.12411945567148,1.07594574371271,0,1.07402949858552,1.10219484926129,1.101849579869,1.12124508798069,0,1.06515607520375,1.08466379586794,1.02822951369872,1.02802235206334,0,1.05510873588822,1.01368504054865,1.01198458879164,1.00746155975269,0,1.01392672912325,1.02027105420651,1.00961949345448,1.00961949345448,0,1.00758240403999,1.01014602927771,0.990154931464327,0.977578493850292,0,1.01800953968704,0.979995379596297,0.966055127882731,0.953470058533889,0,1.00425055440442,0.995377131022659,1.01094878061478,0.992330128635731,0,0.971216905297414,0.997888965851543,0.998165181365373,1.01270102278063,0,1.01406483688016,1.0823245957352,1.0976372932831,1.00109997119981,0,1.08248859869654,1.00100502211693,1.04888525509225,1.1476495647558,0,1.20568934959915,1.01363325013981,1.15663520069005,1.15772279927576,0,1.15747247896635,1.14650154402645,1.16763203083438,0.99364215232642,0,1.12714056285398,1.12742541010262,1.01086246326671,0.984199034447385,0,0.97980548143054,0.980530547154341,0.975291084126394,0.974445174115292,0,0.967582944943599,0.966081023087152,0.965977442269466,0.965614909407566,0,0.964121619285927,0.963068547639453,0.965545855529109,0.965847966247359
1.00598553310066,0.923595624366303,0.922836031703272,0,0.921040630863383,0.921782960056799,0.921437690664512,0.917726044697432,0,0.917492987857639,0.917026874178052,0.915671691813328,0.913289333006551,0,0.915084733846441,0.91536094936027,0.915507688851992,0.91040633358096,0,0.912244893094885,0.912288051768921,0.914670410575697,0.914092084343618,0,0.913815868829788,0.913211647393287,1.25003057130354,0.90477844248669,0,0.903164308077751,0.903129781138522,0.902749984807007,0.899866985381415,0,0.899763404563729,0.898822545469748,0.898399590464198,0.897475994839831,0,0.89565469879552,0.896500608806622,0.896914932077366,0.898917494552627,0,0.899892880585837,0.899961934464294,0.899720245889693,0.899961934464294,0,1.03350350366589,0.973323048590361,0.974505596258942,0.996913579818334,0,0.999028354846089,1.00709902689079,0.945002326688063,0.943828410754289,0,1.02557957111292,0.948152909892678,0.947885326113656,0.947401948964455,0,0.977069221496669,1.0380869548485,0.996179882359725,1.00195451294572,0,1.05384850260637,1.03712020055009,1.07894095569079,1.0761788005525,0,1.06775422738071,1.07988181478477,1.06878140382276,1.07036101129247,0,1.04420685482677,1.04680500700373,1.07502214808834,1.06587250919275,0,1.06060715096038,1.06343835997713,1.06381815630864,1.06515607520375,0,1.0426704060311,1.05211352391013,1.09675685633277,1.08558739149231,0,1.06767654176745,1.09812930216711,1.07734408475147,1.04492328881577,0,1.04103900815254,1.05027496439621,1.10185821160381,1.12123645624588,0,1.12026970194748,1.12793468245624,1.09057653421085,1.12876332899773,0,1.0726829479556,1.07662765076247,1.05543674181089,1.05595464589932,0,1.05666244815351,1.08628656201169,1.09275173138225,1.09189718963634,0,1.08113341633181,1.16839162349741,1.07795693792278,1.076783021989,0,1.06669252399943,1.06685652696077,1.07951065018806,1.05374492178869,0,1.05334786198756,1.08905734888479,1.0795538088621,1.08029613805552,0,1.11213860775914,1.05055117991004,1.0643619556015,1.05634307396564,0,1.0554453735457,1.02862657349985,1.00695228739906,1.02616652907981,0,1.03008533668226,1.09506503631057,1.03818190393137,1.0027745277524,0,1.00317158755353,0.986607288458583,0.984035031486049,0.984621989452936,0,0.987824363066393,0.942680390024937,0.939201800897651,0.956517060920817,0,0.962602433959866,0.975256557187166,0.977423122623763,0.980590969297991,0,0.981747621762151,0.949050610312623,0.992520026801489,0.991941700569409,0,0.991216634845607,0.991423796480979,0.992097071795938,0.993115616503183,0,1.04971390163374,1.05068065593214,1.0460454143407,1.01414252249343,0,1.01368504054865,1.01112141531092,1.15546991649109,1.15907798164048,0,1.15835291591668,1.14872853160669,1.14629438239107,1.14877169028073,0,0.986900767442027,0.986400126823211,0.986408758558018,0.982360474933459,0,0.979261682137688,0.978881885806173,1.05880311838568,1.15007508223661,0,0.964259727042841,0.96365550560634,0.965960178799852,0.963983511529012,0,0.961670206600693,0.961419886291285,0.962542011816216,0.963379290092511
1.12356702464382,0.925693135924443,0.925088914487942,0,0.922395813228107,0.922102334244664,0.922404444962914,0.91983218799038,0,0.917700149493011,0.917536146531675,0.917708781227818,0.914851677006648,0,0.915222841603356,0.916560760498466,0.916483074885201,0.917259931017846,0,0.915015679967984,0.914575461492818,0.915732113956978,0.915145155990091,0,0.914653147106083,0.912011836255092,0.904882023304376,0.905762460254706,0,0.905607089028178,0.905581193823756,0.902577350110864,0.899677087215657,0,0.89966845548085,0.898589488629955,1.04795302773308,0.895646067060713,0,0.89495552827614,0.894178672143495,0.895991336452999,0.900609314574831,0,0.900531628961566,0.900255413447737,0.900453943348302,0.969438767927138,0,0.909016624277006,0.908774935702406,0.977690706402785,0.953047103528338,0,0.953901645274247,0.951113594931534,0.945269910467086,0.942421437980722,0,0.942222908080157,0.947125733450625,0.947548688456176,0.990318934425663,0,0.998277393917866,1.04999011714757,1.05218257778859,1.05374492178869,0,1.03100030057182,1.05485841557881,1.05452177792133,1.05923470512604,0,1.05880311838568,1.07999402733727,1.06721905982267,1.0744869805303,0,1.04090953213044,1.04111669376581,1.06134084841899,1.06954099648579,0,1.06987763414327,1.06419795264016,1.06284277027544,1.05758604377787,0,1.05226889513666,1.03997730477126,1.0400204634453,1.08201385328214,0,1.08482779882928,1.06951510128137,1.06961868209906,1.05585106508163,0,1.06230760271739,1.0748495133922,1.07346843582305,1.1116120719359,0,1.11856061845566,1.12022654327345,1.14820199578346,1.10328244784699,0,1.13279434915267,1.0713536607953,1.06912667321505,1.05775867847402,0,1.0770247105636,1.11883683396949,1.11901810040044,1.10822843189149,0,1.08204838022137,1.07841441986756,1.07769798587856,1.07568679166849,0,1.06501796744684,1.0629204558887,1.05958860625314,1.05934691767853,0,1.13946668015861,1.0970330718466,1.07724913566859,1.08295471237612,0,1.12927260135135,1.06501796744684,1.06443964121476,1.04290346287089,0,1.05522094844071,1.03612755104727,1.04381842676045,1.04470749544559,0,1.07306274428711,1.07528110013256,1.05805215745746,1.02207508678121,0,1.00807441292399,0.989861452480883,0.979874535308997,0.984509776900443,0,1.02204055984198,0.954169229053269,0.952468777296258,0.93233093999115,0,0.933832861847596,0.951225807484027,0.954376390688641,0.978458930800622,0,1.0039829706254,0.954894294777071,0.955861049075473,0.992899823133004,0,0.990344829630084,0.989317653188032,0.990154931464327,0.990810943309671,0,1.19782583918983,1.05200994309245,1.20665610389756,1.02265341301329,0,0.984224929651806,1.00997339458157,1.23735055287182,1.16555178274585,0,0.98935218012726,0.987729413983514,0.985226210889437,0.986003067022082,0,0.983974609342399,0.984363037408721,1.02932574401923,0.979650110204011,0,0.978044607529879,0.976335524038061,1.05901028002106,1.02349932302439,0,0.963370658357704,0.962464326202952,0.962516116611795,0.962395272324494,0,0.960107862600597,0.963111706313489,0.955705677848944,0.955498516213572
0.924804067239305,0.927203689515696,0.926383674709016,0,0.924139423659154,0.923319408852473,0.922257705471192,0.921213265559526,0,0.918407951747198,0.91791594286319,0.918977646244471,0.915257368542584,0,0.917441197448796,0.917631095614554,0.917208140609003,0.917311721426689,0,0.9161205420233,0.915628533139292,0.916319071923865,0.91536094936027,0,0.911942782376634,0.908679986619527,0.934083182157004,0.90362179002253,0,0.90471802034304,0.905054658000519,0.904131062376153,0.898062952806718,0,0.899590769867586,0.89884844067417,0.890907244651581,0.891321567922325,0,0.895801438287242,0.896673243502765,0.896707770441994,1.06748664360169,0,0.90088553008866,0.90018635956928,0.90268093092855,0.903017568586029,0,0.910414965315767,0.908938938663742,0.989947769828955,0.951329388301713,0,0.951804133716107,0.951778238511686,0.941627318378463,0.940332558157389,0,0.93859757946115,0.95453176191517,0.960867455263627,0.978381245187358,0,0.999589417608554,1.0227828890354,1.02522566998582,1.03753452382084,0,1.06740895798842,1.07060269986707,1.07912222212174,1.07212188519313,0,1.08868618428808,1.0764204891271,1.07699881535918,1.06482806928108,0,1.04099584947851,1.04132385540118,1.04684816567776,1.04775449783252,0,1.05471167608709,1.06547544939162,1.0577327832696,1.05803489398785,0,1.0489456772359,1.05655023560101,1.05465125394344,1.08573413098403,0,1.08525075383483,1.06913530494986,1.06836708055202,1.08297197584574,0,1.07800872833162,1.09085274972468,1.10575112400184,1.10656250707371,0,1.20801991799709,1.15164605797151,1.09230288117228,1.12401587485379,0,1.07584216289502,1.08380062238722,1.06952373301618,1.09224245902863,0,1.09942406238819,1.14245326040189,1.11250114062104,1.18341947379668,0,1.08340356258609,1.0791912760002,1.07591984850829,1.07566952819888,0,1.06523376081702,1.06399079100479,1.07901864130406,1.0619537015903,0,1.08263533818826,1.09339047975798,1.07966602141459,1.08588950221056,0,1.08428399953642,1.07552278870716,1.06854834698297,1.06648536236406,0,1.04059878967738,1.045449824639,1.05801763051823,1.04105627162216,0,1.06582071878391,1.09119801911696,1.03239000987577,1.00810893986322,0,1.01699099497979,0.996404307464712,0.984043663220856,0.962973598556574,0,0.961307673738792,0.969050339860816,0.93871842374845,0.948221963771135,0,0.947669532743477,0.946081293538959,0.947980275196534,0.934117709096233,0,0.945701497207444,0.953444163329468,1.1404161709874,0.97889051754098,0,0.989438497475332,0.98929175798361,0.988057419906186,0.991958964039023,0,0.992796242315318,1.20694095114619,1.00726302985212,0.980556442358763,0,0.983698393828569,0.992563185475524,1.2262328784402,0.985709588038638,0,0.984846414557922,0.984017768016434,1.13839634504252,0.98086718481182,0,0.981626777474851,0.985148525276173,1.01990852134461,1.02818635502468,0,0.97557593137503,0.975567299640223,0.988048788171379,0.962214005893544,0,0.963353394888089,0.963336131418475,0.96028049729674,0.957432024810376,0,0.958234776147442,0.955981893362773,0.955282722843393,0.955343144987043
0.924985333670256,0.926694417162074,0.926996527880324,0,0.924493324786247,0.923440253139774,0.923336672322088,0.921921067813713,0,0.920453672896496,0.91907259532735,0.918632376852184,0.918684167261028,0,0.918960382774857,0.917941838067612,0.917760571636661,0.91761383214494,0,0.917553410001289,0.917467092653218,0.91727719448746,0.927238216454925,0,0.94756595192579,0.908749040497984,1.20115768882539,0.901791862243412,0,0.902499664497599,0.904571280851318,0.904441804829211,0.89814927015479,0,0.898589488629955,0.898977916696277,1.11979495653309,0.891848103745562,0,0.898235587502862,0.898934758022242,0.898589488629955,0.992960245276654,0,1.05535042446282,0.903492314000423,0.902732721337393,1.04558793239592,0,0.911554354310312,0.99899382790686,0.998510450757659,0.998268762183058,0,0.952011295351479,1.06809086503819,0.936672702599153,0.935956268610158,0,0.935593735748257,0.945149066179785,0.965839334512552,0.976775742513226,0,0.995843244702246,1.02029694941094,1.01903671612909,1.03476373694774,0,1.06072799524768,1.06127179454053,1.04847956355632,1.04918736581051,0,1.0870202594703,1.06194506985549,1.07070628068476,1.07636869871826,0,1.07079259803283,1.04275672337917,1.04555340545669,1.04538077076055,0,1.08086583255279,1.08153047613294,1.07030922088363,1.070516382519,0,1.0642411113142,1.12527610813564,1.06348151865117,1.07530699533698,0,1.05737025040769,1.08753816355872,1.0875036366195,1.1574120568227,0,1.13519397142906,1.12481862619086,1.12131414185915,1.15455495260153,0,1.14762366955138,1.14755461567292,1.14606132555128,1.12086529164918,0,1.07599753412155,1.08854807653116,1.0837747271828,1.10597554910682,0,1.13954436577187,1.13032567299783,1.10626039635546,1.10648482146044,0,1.07879421619907,1.07845757854159,1.07163850804393,1.09498735069731,0,1.08259217951422,1.08947167215553,1.08300650278497,1.11673932241135,0,1.13701526747338,1.09397743772487,1.08218648797828,1.10020955025564,0,1.15064477673388,1.08152184439813,1.14335959255664,1.07770661761337,0,1.05240700289358,1.06244571047431,1.04404285186544,1.04368031900354,0,1.06971363118194,1.0409872177437,1.02827267237275,1.01467769005147,0,0.982999223309189,1.00030585159755,0.967651998822056,0.984380300878335,0,0.957104018887704,0.954859767837842,0.970362363551505,0.934480241958134,0,0.932443152543643,0.933806966643175,0.945546125980915,0.945209488323436,0,0.977802918955278,0.958381515639164,1.06286866547986,0.998096127486915,0,0.987694887044286,0.987358249386806,0.988126473784644,0.989593868701861,0,0.990871365453321,1.2085119268811,0.983586181276076,0.982395001872688,0,0.981316035021793,0.981566355331201,1.23464018814237,0.984509776900443,0,0.981920256458294,0.983560286071655,0.978510721209465,0.977241856192812,0,1.02317131710172,0.985191683950209,1.00225662366397,1.12497399741738,0,0.972304503883116,0.972848303175967,0.969438767927138,0.962878649473696,0,0.962360745385266,0.962939071617346,0.958312461760707,0.955645255705294,0,0.956422111837939,0.953159316080831,0.94987925685411,0.951476127793435
0.926288725626137,0.924476061316633,0.924631432543162,0,0.924312058355297,0.92372510038841,0.92302592986903,0.921601693625848,0,0.922861926907694,0.922490762310986,0.91995303227768,0.92104926259819,0,0.921791591791606,0.918502900830077,0.918865433691978,0.917544778266482,0,0.917536146531675,0.917786466841083,0.918079945824526,0.931044811504883,0,0.945830973229551,1.29439768821236,1.25512329483977,0.901239431215754,0,0.9028621973595,0.902775880011428,1.15308755768431,0.898442749138233,0,0.89827011444209,0.897786737292889,0.898554961690726,1.11677384935058,0,1.05024906919179,0.900920057027889,0.901170377337296,1.05923470512604,0,0.904648966464583,1.02906679197501,0.974833602181615,0.975239293717551,0,1.01558402220622,0.995213128061323,0.963405185296932,0.994738382646929,0,0.949171454599923,0.942335120632651,0.93814009751637,0.938511262113078,0,0.949326825826452,0.948360071528049,0.973193572568254,0.972157764391394,0,1.01547180965373,1.0091620115097,1.0088081103826,1.07138818773453,0,1.04016720293702,1.05354639188812,1.05346007454005,1.06307582711523,0,1.07620469575692,1.0643619556015,1.06588114092756,1.06717590114863,0,1.13586724674402,1.04730564762254,1.04189354989845,1.05551442742416,0,1.06136674362341,1.12482725792566,1.12446472506376,1.05787089102651,0,1.05804352572265,1.11160344020109,1.10881538985838,1.06216949496048,0,1.07384823215457,1.15193090522015,1.09502187763653,1.09514272192383,0,1.1345120643793,1.11350242185867,1.11526329575933,1.13902646168344,0,1.17038555423786,1.12335986300845,1.1566869910989,1.15104183653501,0,1.0959454732609,1.08805606764715,1.08853944479636,1.15111952214828,0,1.13381289385992,1.13292382517478,1.14168503600405,1.12227226442274,0,1.0841286283099,1.08803880417754,1.09168139626616,1.09295026128282,0,1.09913921513955,1.08721015763605,1.08265260165787,1.13365752263339,0,1.13582408806999,1.10909160537221,1.11773197191418,1.11479718207974,0,1.11370095175923,1.07689523454149,1.12690750601419,1.08891060939306,0,1.11858651366009,1.11367505655481,1.12944523604749,1.049299578363,0,1.0553245292584,1.05308027820854,1.02945522004133,1.02865246870427,0,0.981238349408528,0.984527040370057,0.985364318646352,0.969361082313874,0,0.974462437584907,0.948921134290515,0.933565278068574,0.971001111927234,0,0.93041469486396,0.937035235461053,0.93348759245531,0.959805751882346,0,0.965640804611987,1.00951591263679,1.00983528682466,1.02147949707952,0,0.985467899464038,0.987738045718321,0.986460548966861,0.986667710602233,0,0.986529602845319,1.22622424670539,1.20618999021797,0.983094172392068,0,0.983258175353404,0.983396283110319,0.985329791707123,0.984984522314836,0,0.984906836701572,0.977457649562992,0.977518071706642,0.975411928413694,0,0.975662248723102,1.09431407538235,0.968489277098351,0.969809932523846,0,0.970612683860912,0.967919582601078,0.968351169341436,0.96608965482196,0,0.963370658357704,0.962835490799659,0.958070773186106,0.955662519174908,0,0.959684907595046,0.960539449340955,0.94860176010265,0.949741149097195
0.926435465117859,0.926426833383052,0.926211040012873,0,0.925252917449278,0.924596905603933,0.92360425610111,0.923569729161881,0,0.923008666399416,0.922231810266771,0.92396678896301,0.923707836918796,0,0.922016016896592,0.921247792498755,0.919124385736193,0.918226685316248,0,0.915973802531579,0.915930643857543,0.915775272631014,1.13777486013641,0,1.15116268082231,1.28794978231141,1.28876979711809,0.900730158862131,0,0.902352925005878,0.903172939812558,0.899944670994679,0.899720245889693,0,0.900022356607944,0.900540260696374,0.901498383259969,1.14649291229164,0,1.11468496952725,0.90256008664125,1.09175045014462,1.0283244627816,0,1.08062414397819,1.05507420894899,0.978338086513322,0.977837445894507,0,1.00096186344289,0.94744510763849,0.943647144323339,0.959952491374068,0,0.944139153207348,0.942041641649207,0.943793883815061,0.942947973803959,0,0.945615179859372,0.954065648235583,0.980185277762055,1.00584742534375,0,0.989386707066489,1.02509619396372,1.06515607520375,1.04011541252818,0,1.04082321478237,1.0329079139642,1.05250195197646,1.0518373083963,0,1.05283858963393,1.06631272766791,1.06129768974495,1.06763338309341,0,1.0679786524857,1.05633444223084,1.15927651154105,1.07348569929267,0,1.07989044651958,1.0791912760002,1.0914828663656,1.07582489942541,0,1.06117684545765,1.11999348643365,1.13223328639021,1.05482388863958,0,1.06156527352398,1.08527664903925,1.08558739149231,1.09080095931583,0,1.13613483052305,1.11900946866564,1.11663574159367,1.11887136090872,0,1.11850019631201,1.15783501182825,1.10758105178095,1.10829748576995,0,1.11990716908558,1.08827186101733,1.14459393063406,1.14385160144065,0,1.12700245509707,1.12632917978211,1.12436977598088,1.1054662767532,0,1.08537159812213,1.15610866486682,1.09658422163663,1.10050302923908,0,1.09904426605667,1.1035327681564,1.14567289748496,1.12633781151692,0,1.14091681160621,1.10939371609046,1.12505168303065,1.1239036623013,0,1.11817219038934,1.09013631573568,1.08973062419974,1.11463317911841,0,1.11646310689752,1.11954463622368,1.05358955056216,1.04919599754531,0,1.04986064112546,1.05839742684975,1.03438394061622,1.01731036916766,0,1.01016329274733,1.0026623151999,0.969292028435417,0.969516453540403,0,0.973676949717455,0.969714983440968,0.931640401206577,0.94221427634535,0,0.943267347991824,0.936016690753808,0.963103074578682,0.960349551175197,0,0.976223311485568,0.943759356875832,0.986305177740332,1.02526882865986,0,0.982835220347853,0.98400050454682,0.986710869276269,0.986020330491696,0,0.985597375486145,0.988005629497343,0.986262019066297,0.984621989452936,0,0.98451840863525,0.985088103132522,0.985519689872881,0.986003067022082,0,0.978225873960829,0.978312191308901,1.18089900723299,0.9746954944247,0,0.972744722358281,0.972442611640031,0.969378345783488,0.968480645363544,0,0.969516453540403,0.968843178225444,0.968213061584521,0.96569259502083,0,0.963008125495803,0.958726785031451,0.956301267550638,0.953478690268696,0,0.958105300125335,1.20749338217385,0.94750552978214,0.947030784367747
0.925347866532157,0.926478623791894,0.926841156653795,0,0.926495887261509,0.926357779504594,0.925667240720021,0.924225741007225,0,0.923707836918796,0.923854576410517,0.924035842841468,0.923733732123217,0,0.923310777117666,0.923500675283424,0.919029436653314,0.918347529603548,0,0.91785552071954,0.916439916211165,1.14248778734112,1.13987237169455,0,0.902836302155079,1.12223773748352,1.11130996121765,0.902024919083205,0,0.90268093092855,0.899815194972572,0.899797931502958,0.899918775790258,0,0.900272676917352,0.901092691724032,0.903043463790451,0.904156957580574,0,1.09985564912854,0.90389800553636,1.06066757310403,1.06033093544655,0,0.908714513558756,1.0118205858303,0.975247925452358,0.997647277276943,0,0.934040023482968,0.934074550422197,0.928429395858313,1.02640821765441,0,0.94425136575984,0.943733461671411,0.94470884770462,0.943362297074703,0,1.01373683095749,1.01243343900161,1.01599834547697,0.983292702292633,0,1.04381842676045,1.04570877668322,1.06360236293847,1.0255623076433,0,1.02751307970972,1.03470331480409,1.0521912095234,1.04027078375471,0,1.04114258897023,1.06832392187798,1.11580709505218,1.16105464891132,0,1.07326990592249,1.15649709293314,1.07914811732616,1.09361490486297,0,1.08143552705006,1.08511264607791,1.08663183140397,1.05982166309293,0,1.0591829147172,1.11193144612376,1.07505667502757,1.05295943392124,0,1.0766621777017,1.13509902234619,1.13722242910875,1.11291546389178,0,1.10948866517334,1.11091290141652,1.11771470844456,1.12626875763846,0,1.1304206220807,1.13075725973818,1.14935001651281,1.14842642088844,0,1.17305276029328,1.09123254605619,1.09446081487407,1.09412417721659,0,1.11339020930617,1.11364052961558,1.11229397898566,1.11139627856572,0,1.16017421196099,1.15796448785036,1.16537914804971,1.16577620785084,0,1.16109780758536,1.14328190694338,1.11974316612425,1.10755515657653,0,1.11831029814626,1.13086947229068,1.13192254393715,1.13599672276613,0,1.08090035949202,1.08014939856379,1.1212537197155,1.13950983883265,0,1.13369204957262,1.12719235326283,1.06190191118145,1.10868591383627,0,1.09284668046513,1.09368395874142,1.04024488855029,1.01447916015091,0,1.01033592744347,1.02077169482533,0.987824363066393,0.987211509895084,0,0.974816338712,0.952002663616672,0.967013250446326,0.930923967217583,0,0.954557657119591,0.959287847793916,0.942076168588436,0.967410310247455,0,0.963008125495803,0.945641075063794,0.934480241958134,1.00491519798457,0,0.979356631220567,0.984121348834121,0.98609801610496,0.984078190160085,0,0.985562848546916,0.985079471397715,0.983206384944561,0.983871028524713,0,0.9843371422043,0.98573548324306,1.18927178999593,1.19535716303498,0,0.974315698093185,1.13387331600357,0.966305448192139,1.12678666172689,0,0.970051621098447,0.972425348170416,0.970699001208984,0.970293309673047,0,0.968100849032028,0.966581663705968,0.964363307860527,0.960694820567484,0,0.960686188832676,1.12115013889781,0.95057842737349,0.948964292964551,0,1.16330753169599,0.956422111837939,0.942067536853629,0.942533650533215
0.92646136032228,0.926504518996316,0.928921404742321,0,0.929223515460572,0.929094039438465,0.926754839305724,0.926435465117859,0,0.92396678896301,0.923820049471289,0.922102334244664,0.919547340741744,0,0.960306392501161,0.922128229449085,0.921653484034691,0.91837342480797,0,0.91931428390195,0.924208477537611,1.1427035807113,0.90593509495085,0,0.8996080333372,0.900531628961566,0.900453943348302,0.900453943348302,0,0.899616665072007,0.898960653226663,0.900091410486401,0.901532910199197,0,0.901109955193646,0.902024919083205,0.904407277889982,0.906461630774087,0,0.90721259170231,1.09135339034349,0.912115417072777,1.06740895798842,0,1.06082294433056,1.02104791033916,1.00406065623866,1.1533206145241,0,0.935541945339414,0.947816272235198,0.926970632675903,1.00781546087978,0,1.0084455775207,0.960332287705583,0.956404848368324,0.958105300125335,0,0.97858840682273,0.965252376545665,0.96539048430258,0.992891191398197,0,1.03804379617446,1.04576056709206,1.09777540104002,1.08544928373539,0,1.04702080037391,1.04611446821916,1.03644692523513,1.03542838052789,0,1.09729202389082,1.09641158694049,1.07257936713791,1.07236357376773,0,1.07239810070696,1.0743747679778,1.07959696753614,1.09143970769156,0,1.08194479940368,1.08202248501695,1.10099503812309,1.06781464952436,0,1.11562582862123,1.07129323865165,1.07718871352494,1.07579037248618,0,1.09408101854255,1.14508593951807,1.10423193867578,1.10267822641049,0,1.10866001863185,1.11057626375904,1.1243870394505,1.13309645987092,0,1.13627293827996,1.14308337704281,1.15189637828092,1.15121447123116,0,1.1236619737267,1.1284871134839,1.09827604165883,1.15477937770651,0,1.14164187733001,1.21029006425137,1.10986846150485,1.11225945204644,0,1.16080432860191,1.16009652634773,1.09997649341584,1.11591067586987,0,1.12572495834561,1.12099476767128,1.11770607670976,1.13032567299783,0,1.13848266239059,1.13651462685456,1.13360573222455,1.10886718026722,0,1.11625594526215,1.07949338671845,1.08848765438751,1.11954463622368,0,1.06201412373395,1.04684816567776,1.05321838596545,1.05554895436338,0,1.09145697116118,1.09400333292929,1.01183784929992,1.0150747498526,0,1.01803543489146,1.00710765862559,0.990646940348335,1.00522594043763,0,0.955343144987043,0.955921471219123,0.968981285982359,0.931122497118148,0,0.93099302109604,0.941644581848078,0.94407009932889,0.942283330223808,0,0.948834816942444,0.9487830265336,0.975265188921973,1.01637814180848,0,0.978795568458102,0.984544303839671,0.983724289032991,0.983560286071655,0,0.981350561961022,0.981946151662716,0.981108873386421,0.977863341098928,0,0.978225873960829,0.979063152237124,1.2327412064848,1.23740234328067,0,0.972451243374838,0.972528928988102,0.966883774424218,0.966944196567869,0,0.968523804037579,0.968653280059687,0.970750791617827,0.968497908833158,0,0.968713702203337,0.964561837761092,0.963103074578682,0.959408692081216,0,0.958062141451299,0.956180423263338,0.948291017649592,0.946357509052788,0,0.945097275770942,0.941342471129827,0.937665352101976,0.938744318952871
0.927264111659346,0.928066862996412,0.929335728013065,0,0.932365466930379,0.931856194576756,1.02086664390821,1.03012849535629,0,0.995782822558596,0.920022086156138,0.91959049941578,0.919694080233465,0,0.919780397581537,0.920962945250118,0.921031999128575,0.919555972476551,0,0.918606481647763,0.918684167261028,1.11562582862123,0.902905356033536,0,0.90356136787888,0.898037057602297,0.898632647303991,0.900030988342751,0,0.899884248851029,0.897674524740396,1.14723524148506,1.27835992494065,0,1.13970836873321,0.905140975348591,0.90617678352545,0.909016624277006,0,0.909094309890271,1.09464208130502,1.03865664934577,1.03994277783204,0,0.993918367840249,1.02585578662675,1.01135447215072,1.01484169301281,0,0.947030784367747,0.947799008765584,0.924320690090104,0.92378552253206,0,0.92506301928352,1.01891587184179,0.965994705739081,0.962930439882538,0,0.982619426977674,1.07239810070696,0.978001448855843,1.03355529407474,0,1.03932129292592,1.01935609031695,1.0268829630688,1.02677075051631,0,1.05046486256197,1.04799618640712,1.05604096324739,1.06283413854063,0,1.06095242035267,1.07825041690622,1.07080986150245,1.06973089465155,0,1.06872098167911,1.10575112400184,1.10625176462065,1.11059352722865,0,1.11242345500777,1.09710212572506,1.0761788005525,1.0734080136794,0,1.08842723224386,1.06644220369002,1.09504777284096,1.08057235356935,0,1.09036937257547,1.15010960917584,1.10310118141604,1.10276454375856,0,1.10840106658763,1.10966993160429,1.17847348975217,1.17691977748688,0,1.14201304192672,1.13526302530752,1.14165914079963,1.14119302712004,0,1.16471450446956,1.14527583768383,1.15338103666775,1.29504506832289,0,1.11542729872066,1.12298006667693,1.20789907370979,1.18646647618361,0,1.16056264002731,1.10294581018951,1.10536269593551,1.19066149929989,0,1.18879704458154,1.12105518981493,1.12126235145031,1.12255711167138,0,1.14218567662287,1.14455077196003,1.20652662787545,1.10516416603495,0,1.09440902446523,1.0819620628733,1.0756954234033,1.04525992647325,0,1.06869508647469,1.10652798013448,1.05384850260637,1.0841372600447,0,1.04307609756704,1.02946385177614,1.00740976934384,1.00869589783011,0,1.02828130410756,1.02292962852712,1.02517387957698,0.991113054027921,0,0.984199034447385,0.957716872059013,0.965416379507001,0.948127014688256,0,0.933945074400089,0.940099501317596,0.942740812168587,0.95900300054528,0,0.953461426799082,0.927134635637239,0.927488536764333,0.990111772790291,0,0.989024174204588,0.986667710602233,0.984984522314836,0.976016149850196,0,0.976594476082275,0.97755259864587,0.976620371286697,0.976344155772868,0,0.976111098933075,1.19564201028362,1.23308647587709,0.967159989938048,0,0.968463381893929,0.967945477805499,0.967643367087249,0.968264851993365,0,0.968092217297221,0.965761648899288,0.966642085849618,0.966227762578874,0,0.969939408545954,0.967323992899384,0.960712084037098,0.956827803373875,0,0.95261551678798,0.951260334423256,0.944872850665956,0.945692865472636,0,0.943051554621645,0.940720986223711,0.938433576499814,0.938545789052307
0.926841156653795,0.927928755239498,0.929301201073837,0,0.931623137736963,0.932279149582307,0.965761648899288,0.923517938753038,0,0.922482130576179,0.920807574023589,0.941566896234813,0.919858083194801,0,0.942412806245915,1.20770054380922,0.921757064852377,0.920945681780504,0,0.919745870642308,0.918261212255477,0.910276857558852,0.912641952896014,0,0.885546937336334,0.884959979369447,0.899530347723936,0.899694350685272,0,0.899737509359308,0.898675805978027,0.899720245889693,1.15761058672326,0,1.25609004913817,1.00344780306736,0.905926463216043,1.09561746733823,0,0.912754165448507,0.914713569249733,0.917743308167047,0.988687536547109,0,1.01057761601807,1.00452676991825,1.01993441654903,1.13543566000367,0,0.944916009339992,0.932451784278451,0.924933543261413,0.925857138885779,0,0.948964292964551,0.960487658932112,1.04004635864972,0.967203148612083,0,0.986184333453032,0.982748902999782,0.985476531198845,1.00949864916718,0,1.00906706242682,1.07010205924826,1.04312788797588,1.04317104664991,0,1.04425001350081,1.04579509403129,1.0479702912027,1.06141853403225,0,1.05986482176696,1.06343835997713,1.068099496773,1.06815128718184,0,1.06907488280621,1.0941414406862,1.10169420864247,1.11223355684201,0,1.11038636559328,1.10915202751586,1.19584917191899,1.08882429204499,0,1.11660984638925,1.11553951127316,1.06989489761289,1.08740005580181,0,1.11495255330627,1.10936782088604,1.16190919065723,1.13102484351721,0,1.13679084236839,1.15494338066785,1.17787790005048,1.17620334349789,0,1.16444692069054,1.15094688745213,1.1516287945019,1.14798620241328,0,1.12657086835671,1.16513745947511,1.13094715790394,1.11761975936168,0,1.11650626557156,1.1300580892188,1.20664747216275,1.18541340453713,0,1.19225837023921,1.1073911536152,1.11625594526215,1.18745049395162,0,1.18313462654804,1.15105046826982,1.14527583768383,1.11840524722914,0,1.14476656533021,1.1445162450208,1.10300623233316,1.1129413590962,0,1.08355030207782,1.10707177942733,1.09542756917247,1.09509093151499,0,1.04296388501454,1.04757323140157,1.04665826751201,1.05211352391013,0,1.04824650671652,1.02983501637285,1.00838515537705,1.01118183745457,0,1.01023234662578,1.04639068373298,1.01767290202956,1.02247214658234,0,0.996041774602811,0.959564063307745,0.969179815882924,0.950794220743669,0,0.968696438733723,0.962602433959866,0.933504855924924,0.936094376367073,0,0.952667307196823,0.931062074974497,0.956016420302002,0.960194179948668,0,0.993374568547398,0.98400050454682,0.98515715701098,0.975964359441353,0,0.977112380170705,0.975869410358474,0.97563635351868,0.972269976943887,0,0.97341799767324,0.97539466494408,1.19516726486922,0.966184603904839,0,0.966201867374453,0.965839334512552,0.967229043816505,0.965908388391009,0,0.964622259904742,0.964604996435128,0.962550643551023,0.95988343749561,0,0.961661574865886,0.956422111837939,0.956033683771616,0.95580925866663,0,0.951553813406699,0.94778174529597,0.942300593693422,0.941187099903298,0,0.939503911615902,0.938045148433491,0.938502630378271,0.936172061980337
0.926892947062638,0.927428114620683,0.929629206996509,0,0.930880808543547,0.930949862422004,0.93175261375907,0.939581597229166,0,1.39241103694768,0.93999592049991,0.940617405406026,0.940979938267926,0,0.938752950687679,0.942809866047045,0.929456572300365,0.922249073736385,0,0.920764415349553,0.918002260211262,0.902732721337393,0.90368221216618,0,0.902784511746236,1.10828022230033,0.897898949845382,0.899461293845479,0,0.90030720385658,0.899530347723936,0.899677087215657,1.0102496100954,0,1.26778604980188,1.0807622517351,1.07325264245287,0.996654627774119,0,0.917303089691882,0.990517464326227,1.05600643630816,0.998924774028403,0,1.01670614773116,1.01173426848223,0.995523870514381,1.02485450538912,0,1.03379698264934,0.930078057206481,0.927540327173175,0.92755759064279,0,0.969533717010017,0.970448680899576,0.970379627021119,1.01613645323388,0,1.0221786675989,1.04305020236261,1.01116457398496,1.01685288722288,0,1.05437503842961,1.05358091882735,1.04354221124662,1.05153519767805,0,1.05226889513666,1.05077560501502,1.05249332024165,1.0544786192473,0,1.06947194260734,1.07373601960207,1.07308863949154,1.06708095206575,0,1.089316300929,1.10380898367022,1.10222074446571,1.10153883741594,0,1.10848738393571,1.10306665447681,1.10316160355969,1.12958334380441,0,1.06718453288344,1.06751253880611,1.10323065743814,1.15349324922025,0,1.16856425819355,1.14158145518636,1.17570270287907,1.13613483052305,0,1.13480554336274,1.13377836692069,1.13869845576077,1.17230179936505,0,1.16347153465733,1.1621163522926,1.15300987207105,1.15266460267876,0,1.14185767070019,1.11881957049988,1.16551725580662,1.13351078314167,0,1.27379373722766,1.14310064051242,1.13154274760564,1.14102902415871,0,1.09916511034397,1.10282496590221,1.11263061664314,1.11274282919564,0,1.16144307697764,1.16209908882299,1.14807251976135,1.14737334924197,0,1.12941070910827,1.15143889633614,1.13536660612521,1.09163823759213,0,1.08676130742608,1.08663183140397,1.09661874857586,1.10259190906241,0,1.04916147060608,1.04825513845133,1.04073689743429,1.04698627343468,0,1.04343863042894,1.03866528108058,1.00532952125532,1.0159120281289,0,1.0216952904497,1.07368422919323,1.01453958229456,1.01521285760952,0,0.995256286735359,0.967513891065141,0.972891461850003,0.956819171639068,0,0.969076235065238,0.993150143442412,0.941092150820419,0.932624418974594,0,0.971449962137207,0.923621519570724,0.923250354974016,0.95976259320831,0,0.9683080106674,0.980142119088019,0.979658741938818,0.976335524038061,0,0.981082978182,0.974471069319714,0.973979060435705,0.969878986402304,0,0.971208273562607,1.19975934778663,1.23113570381067,1.23205066770023,0,0.96608965482196,0.965200586136822,0.964648155109164,0.963940352854976,0,0.962360745385266,0.960945140876891,0.960116494335404,0.956145896324109,0,0.959201530445845,0.957380234401533,0.956819171639068,0.951208544014413,0,0.948515442754578,0.94924050847838,0.95115675360557,0.93959886069878,0,0.935421101052114,1.2809494453828,0.935610999217872,0.935075831659828
0.926582204609581,0.928170443814098,0.930207533228588,0,0.931821667637528,0.932460416013258,0.931640401206577,1.17763621147588,0,0.937941567615805,0.938813372831329,0.939616124168395,0.938286837008092,0,0.936111639836687,0.930337009250696,0.930224796698203,0.927393587681454,0,1.19975934778663,0.919737238907501,0.977069221496669,1.1353579743904,0,0.916206859371372,1.10962677293025,0.898304641381319,0.899936039259872,0,0.902689562663357,0.901886811326291,0.903095254199293,1.03527300930136,0,0.915922012122736,1.08519896342598,0.993037930889919,1.06166885434166,0,0.918692798995835,0.984121348834121,0.989878715950497,1.04404285186544,0,1.02949837871537,1.02221319453812,1.1275203591855,1.05139708992114,0,1.05169920063939,0.929447940565558,0.974859497386036,0.975178871573901,0,0.974445174115292,0.954324600279798,0.981428247574286,1.03320139294764,0,1.02913584585347,1.06684789522596,1.06718453288344,1.02709875643898,0,1.12050275878728,1.06995531975654,1.06974815812116,1.10448225898518,0,1.05282132616432,1.06506112612088,1.05469441261747,1.09935500850973,0,1.07704197403322,1.08815101673003,1.07067175374553,1.09453850048733,0,1.12961787074364,1.09981249045451,1.15756742804923,1.10636397717314,0,1.1085995964882,1.11038636559328,1.11760249589207,1.17421804449224,0,1.09464208130502,1.13401142376048,1.13334678018033,1.15213806685552,0,1.16663074959675,1.13615209399266,1.13587587847883,1.13538386959482,0,1.13572913898711,1.13898330300941,1.13846539892098,1.16782192900014,0,1.16032095145271,1.15511601536399,1.15094688745213,1.19688498009585,0,1.19885301563188,1.11560856515161,1.11431380493054,1.14792578026963,0,1.13690305492088,1.1365577855286,1.10948003343853,1.11286367348294,0,1.09786171838809,1.11502160718473,1.11504750238915,1.1142620145217,0,1.27525250041007,1.15035992948525,1.15641940731988,1.15950956838084,0,1.15428736882251,1.15494338066785,1.14678639127508,1.09724023348197,0,1.08821143887368,1.08557012802269,1.08820280713888,1.09074053717218,0,1.05680918764523,1.04904062631878,1.04741786017504,1.06756432921495,0,1.08243680828769,1.02732318154396,1.03377108744491,1.04715027639602,0,1.12932439176019,1.055566217833,1.04891115029668,1.02525156519025,0,0.998242866978637,0.991052631884271,0.97539466494408,0.958398779108779,0,0.963146233252718,0.96319802366156,0.948032065605377,0.935930373405737,0,0.966823352280568,0.947824903970006,0.934411188079676,0.924821330708919,0,0.966460819418668,0.974462437584907,0.980849921342206,0.981471406248322,0,0.981402352369865,0.97104427060127,0.968083585562414,0.967298097694962,0,0.97098384845762,0.971605333363736,1.16527556723202,1.20667336736717,0,0.966193235639646,0.965563118998723,0.960746610976327,0.961825577827222,0,0.960349551175197,0.960289129031547,0.956983174600404,0.957682345119784,0,0.955817890401437,0.954065648235583,1.02022789553248,0.946012239660502,0,0.945951817516851,1.26831258562511,0.950492110025418,1.08567370884038,0,0.948161541627485,1.13356257355051,0.932883371018809,0.934238553383533
0.927669803195283,0.928481186267156,0.930526907416453,0,0.931761245493878,0.933409906842045,0.934298975527183,0.934816879615613,0,0.938165992720792,0.936197957184759,0.938088307107527,0.937544507814676,0,0.937518612610254,0.933047373980145,0.93278842193593,0.931649032941384,0,0.932917897958037,0.932020197538093,0.931718086819842,0.9157580091614,0,0.914756727923769,0.912849114531386,1.05867364236358,1.11915620815736,0,0.907022693536552,1.07990770998919,1.00548489248185,1.14721797801544,0,0.922231810266771,1.08314461054188,0.999459941586447,1.06167748607647,0,1.06723632329228,0.975429191883309,1.04071963396468,1.00749608669191,0,1.02065085053803,0.963879930711326,0.94197258777075,1.01113004704573,0,0.930967125891619,0.931079338444112,0.966598927175582,0.974764548303157,0,1.02093569778667,0.970509103043226,0.981057082977578,0.992407814248996,0,1.07259663060753,1.07112923569031,1.08334314044244,1.07664491423209,0,1.04582962097052,1.06212633628644,1.05474620302632,1.05188909880515,0,1.05086192236309,1.06532007816509,1.06636451807676,1.06136674362341,0,1.08004581774611,1.08313597880707,1.09219930035459,1.0878661694814,0,1.15220712073398,1.10624313288584,1.11205229041106,1.23167950310352,0,1.17101567087879,1.11122364386958,1.1108956379469,1.10260054079722,0,1.14944496559569,1.14428318818101,1.1208998185884,1.12827132011372,0,1.13074862800338,1.1914038284933,1.1310162117824,1.14707987025853,0,1.15630719476738,1.1465619661701,1.13761085717507,1.17164578751971,0,1.17918992374117,1.19022128082472,1.18941852948765,1.19659150111241,0,1.1164372116931,1.11277735613487,1.10208263670879,1.09480608426635,0,1.0949787189625,1.1088412850628,1.11015330875349,1.09997649341584,0,1.09945858932742,1.11025688957117,1.14127071273331,1.30926153555029,0,1.27728958982456,1.17636734645923,1.16015694849138,1.1517496387892,0,1.12726140714128,1.12634644325172,1.10866865036666,1.12386913536207,0,1.08866028908366,1.10367087591331,1.08481053535966,1.08214332930425,0,1.05694729540214,1.05516052629706,1.11061079069827,1.10058071485235,0,1.07907906344771,1.08448252943699,1.01148394817282,1.0511122426725,0,1.05048212603158,1.05025770092659,1.05707677142425,1.07427118716012,0,1.01126815480264,1.02033147635016,0.99911467219416,0.95593010295393,0,0.956275372346217,0.959080686158544,0.951104963196727,0.936353328411288,0,0.96639176554021,0.957889506755156,0.953970699152704,0.953694483638875,0,0.966348606866174,0.962930439882538,0.972269976943887,0.981436879309093,0,0.974730021363929,0.96423383183842,0.96557175073353,0.965735753694866,0,0.968178534645293,0.965804807573323,0.965960178799852,0.961980949053751,0,0.962990862026189,0.965209217871629,0.961247251595142,0.960375446379619,0,0.957880875020349,0.957216231440198,0.956171791528531,0.955886944279895,0,0.952537831174716,1.24693177850777,0.95139844218017,1.26051812909425,0,1.26116550920478,0.951950873207829,1.14641522667837,0.950198631041975,0,0.950120945428711,0.993167406912026,0.927419482885875,0.929275305869415
0.984691043331393,0.968169902910486,0.961644311396271,0,0.932399993869608,0.933401275107238,0.935809529118436,0.936698597803574,0,0.93814009751637,0.938459471704235,0.938433576499814,0.938942848853436,0,0.937803459858891,0.936698597803574,0.934920460433299,0.933772439703946,0,0.933004215306109,0.931821667637528,1.09134475860868,0.916042856410036,0,0.91511926078567,0.915395476299499,0.909379157138907,0.913358386885009,0,1.10619997421181,1.00676238923331,1.10275591202375,1.10249695997954,0,1.08427536780162,1.16348016639213,1.16852109951952,0.99528218193978,0,1.05166467370016,1.00715944903443,0.960202811683475,0.992934350072233,0,1.01059487948769,1.01031866397386,1.04473339065001,0.93309053265418,0,1.01129405000707,1.01087972673632,1.0373705208595,0.96888633689948,0,0.961963685584136,0.954661237937278,0.987522252348142,1.0050705692111,0,1.05589422375567,1.0433954717549,1.04037436457239,1.07458192961318,0,1.05617907100431,1.05939870808738,1.05890669920337,1.05203583829687,0,1.03747410167719,1.04299841195377,1.06702916165691,1.07421076501647,0,1.07440066318222,1.09387385690718,1.14751145699888,1.14113260497639,0,1.10831474923956,1.10805579719535,1.11125817080881,1.12105518981493,0,1.10564754318415,1.13280298088748,1.10501742654323,1.10251422344915,0,1.15433915923135,1.15298397686662,1.12722688020205,1.13439985182681,0,1.16374775017116,1.13288929823555,1.14037301231336,1.1089621293501,0,1.12456830588145,1.14707987025853,1.14402423613679,1.14285032020302,0,1.28477330390237,1.19021264908991,1.14116713191562,1.12470641363836,0,1.10094324771425,1.10940234782527,1.08893650459749,1.093658063537,0,1.09343363843202,1.08843586397867,1.13243181629077,1.10626902809027,0,1.10272138508452,1.10840106658763,1.10872907251031,1.26463546659726,0,1.2675788881665,1.2075538043175,1.18112343233797,1.14460256236887,0,1.14448171808157,1.1505411959162,1.16056264002731,1.15326019238045,0,1.11097332356017,1.09301931516127,1.08771942998968,1.08625203507246,0,1.09721433827755,1.08777122039852,1.08804743591235,1.09741286817812,0,1.04641657893741,1.04487149840692,1.08230733226558,1.04888525509225,0,1.04922189274973,1.07925169814385,1.05926923206527,1.0413497506056,0,1.01970999144405,0.999848369652769,0.992865296193775,0.981626777474851,0,0.969231606291767,0.964380571330142,0.943837042489097,0.945770551085901,0,0.964458256943406,0.962386640589687,0.962516116611795,0.959512272898902,0,0.955507147948379,0.962170847219508,0.974203485540692,0.941713635726535,0,0.948964292964551,0.964199304899191,0.965355957363351,0.963879930711326,0,0.962645592633902,0.962999493760996,0.961195461186299,0.959710802799467,0,0.963146233252718,0.960668925363062,0.960116494335404,0.95918426697623,0,0.956145896324109,0.954212387727305,0.954566288854399,0.950405792677347,0,1.24629303013204,0.947272472942347,0.943060186356452,0.941040360411576,0,1.29984431287567,1.284566142267,1.26238258381259,1.2599829615362,0,0.950526636964647,0.947799008765584,0.92454511519509,0.926564941139966
0.952261615660887,0.965718490225252,0.992649502823596,0,0.933617068477417,0.934894565228877,0.937699879041205,0.938364522621356,0,0.938364522621356,0.938433576499814,0.938813372831329,0.94157552796962,0,0.939624755903202,0.9387788458921,0.93756177128429,0.937492717405833,0,1.17154220670202,1.17315634111096,0.925209758775242,0.929706892609773,0,0.917898679393576,0.918183526642212,1.13242318455597,1.13245771149519,0,1.12062360307458,1.11437422707419,0.923138142421523,0.924061738045889,0,0.924804067239305,1.00874768823895,0.985200315685016,0.995377131022659,0,1.03160452200832,1.08222101491751,0.959287847793916,0.959512272898902,0,1.00527773084647,0.935593735748257,0.934040023482968,1.04361989685989,0,1.00477709022766,0.941463315417127,0.996153987155304,0.963854035506905,0,0.956491165716396,0.994876490403844,0.99032756616047,1.00094459997328,0,1.04255819347861,1.04760775834079,1.04421548656158,1.07427981889492,0,1.16104601717651,1.07939843763557,1.10058071485235,1.04607130954512,0,1.0378538980087,1.06592429960159,1.04531171688209,1.07308000775673,0,1.08974788766936,1.08861713040962,1.09114622870812,1.13881066831327,0,1.10849601567051,1.10884991679761,1.10607912992451,1.11165523060993,0,1.10433551949346,1.10352413642159,1.1040247770404,1.15736889814866,0,1.15996705032562,1.15643667078949,1.1300580892188,1.15363135697716,0,1.15317387503238,1.12951428992595,1.12434388077646,1.10030449933852,0,1.15225027940802,1.13591903715287,1.15022182172833,1.1704287129119,0,1.24424730898275,1.137524539827,1.14149513783829,1.11276872440006,0,1.09828467339364,1.08744321447585,1.09299341995685,1.09118938738215,0,1.08876386990134,1.11577256811295,1.1366786298159,1.15046351030293,0,1.18951347857053,1.23803245992159,1.29200669767077,1.21879232303643,0,1.26736309479632,1.24056155822009,1.17964740568595,1.29419052657698,0,1.15213806685552,1.14643249014799,1.12059770787015,1.14601816687725,0,1.08187574552523,1.08418905045355,1.08430126300604,1.0946248178354,0,1.13389921120799,1.06090926167863,1.07659312382324,1.05053391644042,0,1.05009369796526,1.04934273703703,1.09047295339316,1.08613119078516,0,1.07181977447488,1.051224455225,1.08856534000078,1.05866501062877,0,1.02526019692505,1.01948556633906,1.00160061181862,0.998596768105731,0,0.980228436436091,0.981799412170994,0.954160597318462,0.940807303571783,0,0.929983108123602,0.958683626357415,0.924579642134319,0.9255205012283,0,0.977630284259135,0.978389876922165,0.949050610312623,0.956473902246782,0,0.958010351042456,0.953608166290804,0.945900027108008,0.958510991661272,0,0.958977105340858,0.960988299550927,0.959538168103324,0.958001719307649,0,0.957345707462305,0.958407410843586,0.958390147373971,0.955697046114137,0,0.954600815793627,0.953176579550446,0.951199912279606,0.990154931464327,0,0.943068818091259,0.943673039527761,1.00332695878006,0.936853969030103,0,0.935740475239979,1.25915431499471,1.29156647919561,1.30558441652244,0,1.29899840286457,1.07713692311609,0.923535202222652,0.923569729161881
0.948204700301521,1.05194088921399,1.0496621112249,0,0.959572695042553,1.00668470362004,0.938683896809221,0.940099501317596,0,0.940971306533119,0.939633387638009,0.941635950113271,0.94151510582597,0,0.940720986223711,0.939987288765103,0.939314013450144,0.937604929958326,0,1.13284613956152,0.930181638024167,0.92837760544947,1.14859905558459,0,1.0675039070713,1.12639823366057,1.03841496077117,1.15375220126446,0,1.11816355865453,0.924752276830462,0.923595624366303,0.924070369780696,0,0.926815261449374,0.975213398513129,0.981281508082564,0.976024781585003,0,0.95638758489871,0.957293917053462,0.960151021274632,0.957173072766162,0,0.975351506270044,0.935490154930571,1.04118574764427,0.945200856588628,0,0.947376053760033,0.948351439793242,0.983085540657261,0.956681063882153,0,0.956422111837939,0.978761041518873,0.990405251773734,1.00064248925503,0,1.04923915621935,1.10387803754868,1.10391256448791,1.05859595675031,0,1.09537577876363,1.0702746939444,1.09563473080784,1.09860404758151,0,1.06643357195521,1.06556176673969,1.05646391825294,1.1246287280251,0,1.11759386415726,1.08675267569127,1.08831501969137,1.10260917253203,0,1.16816719839242,1.10761557872018,1.10891033894126,1.10842696179206,0,1.1501786630543,1.1059496539024,1.10707177942733,1.12127098318511,0,1.15708405090003,1.16845204564106,1.12097750420167,1.19341502270337,0,1.18990190663686,1.15650572466795,1.11215587122875,1.10069292740484,0,1.11266514358237,1.1500664505018,1.14985065713163,1.14973844457913,0,1.2320247724958,1.13829276422484,1.18073500427165,1.12012296245576,0,1.10330834305141,1.15393346769541,1.09663601204547,1.09195761177999,0,1.09068874676334,1.09997649341584,1.10008870596834,1.10945413823411,0,1.26945197461966,1.30676696419102,1.31342203172734,1.22017340060557,0,1.25773871048634,1.20421332294713,1.20359183804101,1.1580162782592,0,1.15070519887753,1.11140491030053,1.11142217377014,1.1034119238691,0,1.08318776921592,1.10537132767032,1.1055871210405,1.10943687476449,0,1.10898802455452,1.11581572678699,1.06457774897167,1.11133585642207,0,1.10924697659874,1.07524657319333,1.06624367378946,1.04462117809752,0,1.04355947471624,1.08870344775769,1.07100839140301,1.03224327038405,0,1.03721514963297,1.00414697358674,0.998303289122287,0.999537627199711,0,0.989611132171475,0.966011969208695,0.96633134339656,0.951605603815542,0,0.951553813406699,0.951268966158063,0.939305381715337,0.919202071349457,0,0.947988906931341,1.00195451294572,0.960513554136533,0.940617405406026,0,0.959175635241423,0.945045485362099,0.945934554047237,0.959564063307745,0,0.958580045539729,0.958873524523173,0.957760030733049,0.955101456412443,0,0.955653887440101,0.956016420302002,0.955222300699743,0.955058297738407,0,0.952287510865308,0.951346651771327,0.950837379417705,0.94273218043378,0,0.94261133614648,0.937173343217968,0.935559208809029,0.931234709670641,0,0.930535539151261,0.929827736897073,1.26156256900591,0.915775272631014,0,0.915162419459706,0.916379494067515,1.20149432648287,0.920678098001482
0.941791321339799,0.939244959571687,0.939227696102072,0,0.995213128061323,1.42653228464039,0.941368366334248,0.941497842356356,0,0.942291961958615,0.944216838820612,0.944941904544413,0.944622530356548,0,0.942058905118822,0.941679108787306,0.939823285803767,0.941299312455791,0,0.937311450974883,1.12259163861061,1.14966075896587,1.13551334561693,0,1.12687297907496,1.12575948528484,1.07453877093914,0.929447940565558,0,0.92953425791363,0.928619294024071,0.925796716742129,0.923328040587281,0,1.03264033018518,0.993650784061227,1.0350831111356,1.1533206145241,0,0.957621922976134,0.956870962047911,0.954687133141699,0.956681063882153,0,0.950569795638683,0.94981883471046,0.98342217831474,0.99358173018277,0,0.964863948479343,0.960850191794013,0.968696438733723,0.957276653583848,0,0.980496020215113,0.971234168767028,0.977811550690085,1.00040080068043,0,1.05410745465059,1.04337820828529,1.10318749876411,1.1157121459693,0,1.0776289320001,1.09736107776927,1.06717590114863,1.06014103728079,0,1.10386940581387,1.06417205743574,1.12670897611362,1.12745993704185,0,1.10923834486393,1.08783164254217,1.09011042053126,1.16720907582883,0,1.11557403821239,1.20404931998579,1.15950093664603,1.10804716546054,0,1.10685598605715,1.11553951127316,1.11928568417947,1.10527637858744,0,1.15630719476738,1.17711830738745,1.25507150443093,1.18768355079141,0,1.18717427843779,1.14699355291045,1.10339466039948,1.10273864855414,0,1.12473230884278,1.13400279202568,1.15106773173944,1.15186185134169,0,1.21067849231769,1.17571133461388,1.17522795746468,1.18145143826064,0,1.13625567481035,1.10247969650992,1.10266096294087,1.09169002800097,0,1.098716260134,1.09549662305093,1.10614818380297,1.12650181447825,0,1.25155838836441,1.31026281678792,1.32459149656781,1.2761329373604,0,1.27530429081891,1.26151077859707,1.15453768913191,1.16329889996118,0,1.15842196979514,1.11364916135039,1.11307946685312,1.12755488612473,0,1.12786562857778,1.10640713584718,1.11105100917343,1.15118857602674,0,1.11493528983666,1.07342527714902,1.07068901721515,1.08945440868591,0,1.09065421982411,1.03225190211885,1.03680082636223,1.0315872585387,0,1.03104345924585,1.03151820466025,1.02996449239496,1.02937753442807,0,1.02955016912421,1.01285639400716,1.01970135970924,1.01993441654903,0,1.00696091913387,0.98707340213817,0.988247318071944,0.981989310336752,0,0.963500134379811,0.945278542201893,0.932995583571302,0.92326761844363,0,0.943034291152031,0.944484422599634,0.93418676297469,0.928489818001963,0,0.958700889827029,0.95075969380444,0.943603985649303,0.950742430334826,0,0.956396216633517,0.954108806909619,0.955006507329564,0.955697046114137,0,0.953021208323917,0.950440319616575,0.950621586047526,0.951830028920529,0,0.949162822865116,0.949111032456273,1.12983366411382,0.948558601428614,0,0.940341189892196,0.934626981449855,0.928886877803093,0.928990458620778,0,0.926513150731123,0.923241723239209,0.923638783040338,0.916802449073066,0,0.915076102111634,0.916111910288493,0.915248736807777,0.916465811415587
