1.26754, 1.26913, 1.27222, 1.27098, 1.25647, 1.23959, 1.33682, 1.22877, 1.21677, 1.21707, 1.21581, 1.25377, 1.25039, 1.20919, 1.20851, 1.60462, 1.21358, 1.51678, 1.21219, 1.44811, 1.19614, 1.19459, 1.199, 1.19092, 1.18494, 1.18906, 1.18895, 1.1848, 1.17727, 1.17206, 1.1697, 1.15358, 1.14805, 1.13932, 1.13237, 1.13171, 1.12695, 1.12433, 1.11799, 1.11261, 1.11282, 1.11073, 1.11003, 1.10952, 1.12061, 1.11646, 1.18616, 1.15002, 1.16183, 1.16853, 1.17079, 1.24119, 1.27492, 1.28532, 1.2395, 1.23411, 1.21056, 1.35494, 1.22091, 1.22425, 1.29167, 1.30553, 1.25425, 1.27507, 1.29614, 1.29399, 1.2939, 1.31396, 1.33086, 1.30745, 1.30318, 1.30973, 1.30349, 1.29292, 1.29037, 1.28808, 1.30667, 1.25942, 1.26411, 1.26446, 1.2653, 1.28197, 1.27911, 1.2807, 1.28828, 1.28781, 1.26905, 1.30476, 1.29123, 1.24634, 1.23192, 1.19552, 1.17837, 1.17847, 1.22352, 1.17912, 1.15493, 1.16548, 1.16418, 1.17149, 1.12633, 1.12243, 1.11617, 1.11552, 1.10647, 1.07528, 1.07782, 1.05077, 1.04591, 1.02053, 1.03243, 1.00062, 0.999398, 0.998843, 0.98522, 0.984725, 1.02211, 1.02312, 1.06667, 1.0624, 1.26149, 1.08016, 1.08046, 1.23394, 1.05831, 1.05267, 1.05385, 1.0538, 1.04719, 1.04745, 1.04568, 1.04603, 1.03932, 1.03879, 1.03917, 1.03204, 1.03076, 1.03034, 1.03431, 1.03235, 1.13319, 1.04413, 1.04821, 1.04791, 1.04081, 1.04129, 1.041, 1.04142, 1.04334, 1.04362
1.26764, 1.26665, 1.27241, 1.27119, 1.3355, 1.24364, 1.23232, 1.33111, 1.32986, 1.21766, 1.2156, 1.21589, 1.30583, 1.21009, 1.20937, 1.21237, 1.21351, 1.20922, 1.46845, 1.19919, 1.19999, 1.19858, 1.19814, 1.19576, 1.18857, 1.18897, 1.18864, 1.18265, 1.17882, 1.17258, 1.17054, 1.15359, 1.37217, 1.13645, 1.13035, 1.12314, 1.12389, 1.12441, 1.12122, 1.12086, 1.12637, 1.11506, 1.11578, 1.11923, 1.12124, 1.10553, 1.09466, 1.12181, 1.16809, 1.16438, 1.188, 1.22335, 1.2829, 1.32818, 1.23428, 1.2356, 1.23774, 1.2088, 1.24298, 1.2287, 1.25168, 1.3084, 1.31567, 1.2869, 1.31247, 1.36117, 1.29267, 1.30947, 1.31218, 1.30896, 1.30383, 1.37174, 1.30152, 1.31835, 1.28501, 1.28368, 1.28838, 1.25674, 1.25918, 1.27045, 1.27162, 1.29538, 1.29046, 1.25862, 1.27398, 1.276, 1.29895, 1.24548, 1.27018, 1.23544, 1.23771, 1.20625, 1.17821, 1.19835, 1.21003, 1.1712, 1.13843, 1.18052, 1.16304, 1.20534, 1.1158, 1.09914, 1.11179, 1.10526, 1.09808, 1.07276, 1.09483, 1.05037, 1.04929, 1.02538, 1.02601, 1.02667, 1.01149, 1.01168, 0.981818, 0.980367, 1.03171, 1.02303, 1.0666, 1.06451, 1.06662, 1.07968, 1.08038, 1.06337, 1.06109, 1.05338, 1.05431, 1.05293, 1.05263, 1.04623, 1.04444, 1.04552, 1.03995, 1.04004, 1.03954, 1.03519, 1.03285, 1.03073, 1.03434, 1.03265, 1.11984, 1.04452, 1.04854, 1.04937, 1.04245, 1.04241, 1.04086, 1.04587, 1.04425, 1.04034
1.26836, 1.26671, 1.26736, 1.26796, 1.27717, 1.3328, 1.23949, 1.39499, 1.21116, 1.21194, 1.21593, 1.21594, 1.21629, 1.23938, 1.21209, 1.21299, 1.21425, 1.21375, 1.20551, 1.20549, 1.19921, 1.19774, 1.19801, 1.19715, 1.18959, 1.19113, 1.18504, 1.1836, 1.17956, 1.17353, 1.17553, 1.20944, 1.40191, 1.13191, 1.13047, 1.12339, 1.12353, 1.12203, 1.12251, 1.12203, 1.12236, 1.11495, 1.11531, 1.11503, 1.11586, 1.10477, 1.11139, 1.12324, 1.13642, 1.13933, 1.20473, 1.22247, 1.21532, 1.32113, 1.23607, 1.23735, 1.22554, 1.24435, 1.21714, 1.28398, 1.25123, 1.2534, 1.285, 1.35648, 1.30884, 1.30848, 1.28863, 1.3234, 1.36367, 1.30813, 1.32285, 1.30663, 1.28009, 1.29597, 1.30204, 1.35462, 1.32535, 1.25987, 1.25674, 1.26645, 1.26898, 1.28694, 1.2871, 1.27212, 1.31628, 1.29573, 1.25554, 1.27482, 1.27362, 1.22655, 1.20913, 1.20897, 1.19784, 1.26771, 1.23595, 1.20148, 1.1586, 1.17083, 1.16999, 1.125, 1.13904, 1.09499, 1.13135, 1.10747, 1.13933, 1.10505, 1.07056, 1.07011, 1.0763, 1.02504, 0.989528, 0.998449, 1.0351, 1.01167, 0.97847, 0.984634, 1.06781, 1.06711, 1.06667, 1.06537, 1.06616, 1.26186, 1.07751, 1.06747, 1.17941, 1.05653, 1.24497, 1.05291, 1.05224, 1.04783, 1.04729, 1.04563, 1.04112, 1.03945, 1.03979, 1.04004, 1.03435, 1.02916, 1.03509, 1.03799, 1.04, 1.0458, 1.04973, 1.04412, 1.04096, 1.04103, 1.04365, 1.04705, 1.04752, 1.03977
1.26779, 1.26725, 1.26788, 1.26864, 1.28163, 1.42963, 1.42222, 1.33043, 1.33103, 1.21011, 1.21525, 1.21594, 1.21575, 1.21654, 1.21124, 1.21344, 1.21473, 1.21299, 1.20843, 1.20641, 1.20683, 1.20316, 1.19794, 1.29586, 1.19066, 1.19172, 1.18881, 1.18379, 1.17704, 1.17623, 1.39257, 1.20856, 1.39889, 1.13231, 1.12779, 1.12523, 1.12232, 1.12024, 1.12169, 1.12202, 1.12165, 1.11513, 1.11617, 1.11264, 1.11325, 1.12192, 1.12018, 1.10243, 1.12222, 1.11191, 1.22433, 1.22495, 1.20888, 1.22093, 1.25044, 1.24298, 1.18923, 1.18909, 1.20818, 1.28027, 1.25612, 1.26794, 1.2845, 1.35846, 1.31154, 1.31199, 1.28796, 1.29219, 1.28785, 1.344, 1.29253, 1.3056, 1.28094, 1.29202, 1.28439, 1.35097, 1.51963, 1.28534, 1.24961, 1.26775, 1.29278, 1.29448, 1.27015, 1.293, 1.31119, 1.24968, 1.28124, 1.2373, 1.2438, 1.20051, 1.20813, 1.18531, 1.18397, 1.19933, 1.24358, 1.20542, 1.16689, 1.1667, 1.2081, 1.16668, 1.09618, 1.08992, 1.10467, 1.09171, 1.09129, 1.05809, 1.04624, 1.0595, 1.04259, 0.991929, 0.994174, 1.01867, 1.01113, 1.02367, 0.980644, 1.07937, 1.0717, 1.06669, 1.06766, 1.06801, 1.06574, 1.06637, 1.07698, 1.07582, 1.05713, 1.05706, 1.05142, 1.05028, 1.05015, 1.04891, 1.04677, 1.0475, 1.04383, 1.04184, 1.04006, 1.03994, 1.03552, 1.02966, 1.03173, 1.35642, 1.04123, 1.04325, 1.04423, 1.04589, 1.04106, 1.04052, 1.04392, 1.04594, 1.04676, 1.03908
1.33328, 1.27084, 1.26889, 1.26981, 1.27994, 1.27544, 1.2633, 1.32784, 1.32966, 1.21099, 1.21481, 1.21629, 1.21571, 1.26147, 1.63106, 1.21513, 1.21519, 1.21544, 1.20939, 1.20929, 1.21325, 1.34679, 1.28823, 1.20892, 1.1927, 1.19242, 1.18812, 1.18496, 1.17791, 1.17601, 1.39865, 1.16028, 1.18738, 1.22598, 1.12967, 1.1253, 1.12247, 1.11411, 1.12238, 1.12077, 1.34834, 1.31325, 1.11469, 1.10797, 1.11153, 1.11965, 1.17634, 1.09629, 1.09711, 1.10988, 1.16437, 1.27589, 1.2116, 1.21183, 1.21313, 1.23295, 1.18535, 1.1842, 1.24371, 1.24319, 1.25246, 1.31477, 1.32204, 1.30935, 1.32611, 1.3101, 1.31035, 1.3309, 1.34304, 1.34284, 1.2852, 1.28647, 1.25258, 1.29153, 1.28922, 1.3516, 1.32878, 1.28536, 1.2494, 1.26181, 1.26694, 1.27582, 1.33117, 1.28132, 1.31263, 1.2463, 1.23422, 1.22912, 1.20235, 1.21148, 1.19581, 1.1964, 1.20278, 1.19867, 1.25754, 1.21546, 1.24252, 1.18087, 1.15244, 1.10631, 1.12139, 1.09307, 1.09435, 1.0683, 1.112, 1.04895, 1.04358, 1.03017, 1.01832, 1.00594, 1.0091, 1.01044, 0.994923, 0.994909, 0.999383, 0.99321, 1.01602, 1.06694, 1.06971, 1.07035, 1.06661, 1.0656, 1.0768, 1.07687, 1.05491, 1.05489, 1.05451, 1.04945, 1.04919, 1.0491, 1.04638, 1.04805, 1.04454, 1.0456, 1.04194, 1.04113, 1.03603, 1.03113, 1.03086, 1.11895, 1.31507, 1.04134, 1.0433, 1.04502, 1.04521, 1.04054, 1.04289, 1.04508, 1.04727, 1.06508
1.33379, 1.27147, 1.26919, 1.26798, 1.29137, 1.27223, 1.26695, 1.32274, 1.22335, 1.20809, 1.20883, 1.21689, 1.2165, 1.21671, 1.21813, 1.21565, 1.21576, 1.21524, 1.21523, 1.21686, 1.3475, 1.35215, 1.21281, 1.26737, 1.19102, 1.19241, 1.18748, 1.18274, 1.17873, 1.16904, 1.16286, 1.16132, 1.1563, 1.32625, 1.12866, 1.1255, 1.12591, 1.11416, 1.11754, 1.21264, 1.21124, 1.3246, 1.11126, 1.11104, 1.11052, 1.15881, 1.13633, 1.09263, 1.10495, 1.12868, 1.11416, 1.1635, 1.18277, 1.23963, 1.21396, 1.20455, 1.19252, 1.20693, 1.23715, 1.2365, 1.25128, 1.32294, 1.29286, 1.3313, 1.33542, 1.31261, 1.3275, 1.34942, 1.3164, 1.33621, 1.29567, 1.27081, 1.30486, 1.31234, 1.31169, 1.31114, 1.3786, 1.29713, 1.24841, 1.24639, 1.46213, 1.29554, 1.274, 1.28268, 1.36915, 1.26389, 1.23752, 1.22422, 1.19428, 1.18729, 1.19117, 1.19537, 1.18683, 1.19432, 1.19993, 1.19524, 1.17733, 1.20419, 1.11584, 1.11488, 1.08419, 1.09263, 1.08122, 1.07959, 1.10093, 1.06728, 1.02642, 1.02866, 1.0323, 1.00184, 1.02546, 0.991736, 1.00008, 0.999515, 1.02923, 1.0026, 1.04625, 1.07034, 1.0705, 1.06946, 1.07007, 1.0692, 1.07691, 1.0734, 1.05311, 1.05337, 1.05464, 1.04951, 1.04823, 1.04762, 1.04881, 1.04805, 1.04585, 1.046, 1.0435, 1.04219, 1.04122, 1.03631, 1.03431, 1.03606, 1.13156, 1.12932, 1.07188, 1.04599, 1.04726, 1.04235, 1.04297, 1.04588, 1.04796, 1.06063
1.47841, 1.27045, 1.26867, 1.2674, 1.31301, 1.27149, 1.27058, 1.70021, 1.22209, 1.37446, 1.21562, 1.21602, 1.21789, 1.21731, 1.21714, 1.21694, 1.21686, 1.21519, 1.21507, 1.34712, 1.36791, 1.21212, 1.2119, 1.26931, 1.19018, 1.19068, 1.18661, 1.18218, 1.17452, 1.17176, 1.16426, 1.16318, 1.1531, 1.5094, 1.12906, 1.12697, 1.12336, 1.12199, 1.11542, 1.11288, 1.11074, 1.10855, 1.29814, 1.1105, 1.10919, 1.11091, 1.112, 1.11254, 1.1188, 1.1145, 1.11117, 1.13026, 1.18068, 1.22669, 1.22537, 1.20176, 1.19111, 1.19021, 1.18763, 1.22196, 1.2613, 1.24653, 1.27825, 1.27946, 1.33621, 1.30721, 1.37719, 1.35332, 1.30596, 1.26766, 1.27261, 1.24528, 1.24488, 1.24762, 1.30886, 1.27376, 1.31556, 1.30765, 1.24707, 1.24938, 1.24585, 1.44406, 1.44374, 1.27761, 1.24751, 1.23941, 1.24033, 1.19289, 1.19312, 1.20018, 1.19204, 1.1944, 1.18427, 1.19802, 1.22941, 1.18381, 1.17812, 1.18215, 1.11947, 1.11032, 1.08224, 1.08307, 1.06702, 1.08372, 1.09057, 1.05389, 1.0315, 1.03071, 1.01321, 1.00762, 1.01579, 1.0178, 0.998841, 1.0046, 1.06207, 1.09136, 1.07077, 1.07025, 1.0663, 1.06584, 1.06974, 1.07588, 1.07735, 1.0769, 1.05609, 1.0535, 1.05461, 1.04847, 1.04777, 1.04943, 1.04922, 1.04878, 1.04877, 1.04582, 1.05277, 1.04098, 1.04203, 1.03987, 1.03925, 1.03552, 1.03467, 1.13057, 1.06844, 1.04806, 1.0492, 1.04798, 1.04634, 1.04646, 1.04993, 1.05097
1.31723, 1.27929, 1.26703, 1.26661, 1.26089, 1.44706, 1.28144, 1.26648, 1.29578, 1.22429, 1.21843, 1.22009, 1.21898, 1.21867, 1.21811, 1.21691, 1.21709, 1.21664, 1.21665, 1.35049, 1.36229, 1.33319, 1.21345, 1.2089, 1.18915, 1.19094, 1.18217, 1.17988, 1.17756, 1.17054, 1.16582, 1.16352, 1.15823, 1.15157, 1.31476, 1.12831, 1.16587, 1.13058, 1.10937, 1.11258, 1.10816, 1.10781, 1.39971, 1.11389, 1.10906, 1.10844, 1.11609, 1.10482, 1.1253, 1.12174, 1.12234, 1.12573, 1.1087, 1.17369, 1.19486, 1.20364, 1.23562, 1.19209, 1.21676, 1.22425, 1.22297, 1.2441, 1.24222, 1.24422, 1.29832, 1.30153, 1.37583, 1.32672, 1.26035, 1.26109, 1.26209, 1.23761, 1.26799, 1.27907, 1.31039, 1.41718, 1.31776, 1.24707, 1.24725, 1.2488, 1.24408, 1.44368, 1.28343, 1.28466, 1.23996, 1.21749, 1.21619, 1.19435, 1.19612, 1.19474, 1.19785, 1.19821, 1.18804, 1.21933, 1.22434, 1.1885, 1.16415, 1.16863, 1.14483, 1.10292, 1.07819, 1.06399, 1.05133, 1.07733, 1.103, 1.05517, 1.05998, 1.05378, 0.99967, 1.02041, 1.02859, 0.997515, 0.998639, 1.05738, 1.0564, 1.05739, 1.06917, 1.071, 1.0656, 1.06136, 1.06212, 1.07728, 1.07741, 1.07578, 1.05424, 1.05313, 1.05331, 1.0551, 1.0476, 1.04762, 1.05007, 1.04872, 1.04889, 1.04585, 1.03346, 1.05284, 1.0418, 1.04022, 1.03932, 1.03585, 1.03404, 1.12546, 1.31171, 1.05041, 1.05121, 1.04842, 1.05105, 1.04955, 1.05168, 1.05178
1.46699, 1.27179, 1.27074, 1.26064, 1.25678, 1.25373, 1.28783, 1.27366, 1.26806, 1.22267, 1.22184, 1.22193, 1.2214, 1.22226, 1.21743, 1.21741, 1.21584, 1.21832, 1.21864, 1.22795, 1.22874, 1.22186, 1.2167, 1.2066, 1.1877, 1.18816, 1.18077, 1.17883, 1.17716, 1.16913, 1.16669, 1.16177, 1.16338, 1.15176, 1.30901, 1.30852, 1.13647, 1.10578, 1.10724, 1.11231, 1.10744, 1.10726, 1.10799, 1.11306, 1.10941, 1.10817, 1.11279, 1.10584, 1.12511, 1.09932, 1.09877, 1.09275, 1.14329, 1.16377, 1.20147, 1.19939, 1.22906, 1.20238, 1.23601, 1.20835, 1.23541, 1.2139, 1.22332, 1.22895, 1.23014, 1.23323, 1.29778, 1.32628, 1.32476, 1.23031, 1.28197, 1.23957, 1.28365, 1.27855, 1.46138, 1.42704, 1.41615, 1.24569, 1.25569, 1.24629, 1.24432, 1.26326, 1.29003, 1.2601, 1.24335, 1.22589, 1.21716, 1.19876, 1.19654, 1.20021, 1.1934, 1.20471, 1.20915, 1.18302, 1.21326, 1.19909, 1.15521, 1.14261, 1.12171, 1.10387, 1.0696, 1.05813, 1.05286, 1.07886, 1.04824, 1.05338, 1.01701, 1.02715, 0.997957, 0.998908, 1.00948, 0.997915, 0.998269, 1.0671, 1.08185, 1.04085, 1.08916, 1.07149, 1.06312, 1.06007, 1.06062, 1.07757, 1.07493, 1.07391, 1.05456, 1.05368, 1.05271, 1.05358, 1.04752, 1.04755, 1.04956, 1.04742, 1.04677, 1.04703, 1.03347, 1.03645, 1.0426, 1.03967, 1.04015, 1.03481, 1.03381, 1.12466, 1.04115, 1.05165, 1.05029, 1.04967, 1.0481, 1.04959, 1.05171, 1.05186
1.46516, 1.27087, 1.27156, 1.26777, 1.25882, 1.25062, 1.2949, 1.23357, 1.22621, 1.22537, 1.22494, 1.22452, 1.22384, 1.22422, 1.22152, 1.21826, 1.21546, 1.2167, 1.21947, 1.22879, 1.22885, 1.2232, 1.28155, 1.20535, 1.24004, 1.2633, 1.17704, 1.17735, 1.17715, 1.16915, 1.16889, 1.3734, 1.16005, 1.18446, 1.21945, 1.13431, 1.12654, 1.10595, 1.10609, 1.11225, 1.10877, 1.10744, 1.10744, 1.23723, 1.11277, 1.10793, 1.10852, 1.11955, 1.12471, 1.09479, 1.08306, 1.08785, 1.09783, 1.12487, 1.172, 1.1745, 1.1726, 1.20324, 1.22177, 1.19003, 1.21253, 1.21361, 1.21012, 1.18943, 1.21524, 1.23365, 1.31244, 1.3413, 1.21235, 1.25211, 1.22182, 1.23923, 1.28033, 1.27762, 1.40542, 1.41902, 1.2277, 1.24144, 1.25578, 1.25352, 1.25549, 1.28228, 1.28159, 1.30275, 1.22971, 1.2048, 1.2031, 1.20217, 1.19455, 1.19671, 1.18043, 1.24071, 1.19403, 1.19468, 1.15713, 1.17031, 1.15175, 1.13806, 1.13052, 1.09763, 1.10217, 1.0532, 1.07152, 1.06558, 1.06284, 1.01182, 1.04262, 1.02912, 1.00732, 0.989301, 1.00254, 0.987618, 1.01936, 1.0669, 1.08049, 1.03151, 1.06704, 1.0713, 1.06046, 1.06069, 1.06442, 1.25027, 1.07638, 1.25088, 1.057, 1.0532, 1.05261, 1.05298, 1.04751, 1.04739, 1.04753, 1.04893, 1.04591, 1.04595, 1.03681, 1.03739, 1.04154, 1.04025, 1.03701, 1.03448, 1.02937, 1.04029, 1.04205, 1.04985, 1.04948, 1.05066, 1.04938, 1.05332, 1.05398, 1.04981
1.52028, 1.2688, 1.26738, 1.26055, 1.25606, 1.24965, 1.23806, 1.23272, 1.2328, 1.22581, 1.22551, 1.22566, 1.22395, 1.22398, 1.22006, 1.21823, 1.21535, 1.21575, 1.21316, 1.22866, 1.22871, 1.22331, 1.22241, 1.20395, 1.19956, 1.19522, 1.17282, 1.17525, 1.17657, 1.16838, 1.1688, 1.22004, 1.36893, 1.18252, 1.24825, 1.2994, 1.12713, 1.10518, 1.10601, 1.10785, 1.10793, 1.1074, 1.10598, 1.17122, 1.11366, 1.10805, 1.10778, 1.13019, 1.11891, 1.1192, 1.09824, 1.07971, 1.08914, 1.13107, 1.16049, 1.1361, 1.15858, 1.18742, 1.19089, 1.20347, 1.20467, 1.20281, 1.18133, 1.17658, 1.2449, 1.29588, 1.35111, 1.22188, 1.21409, 1.22169, 1.21914, 1.24212, 1.24086, 1.29199, 1.46131, 1.44714, 1.23453, 1.23808, 1.24736, 1.25595, 1.23526, 1.28995, 1.24993, 1.25315, 1.22044, 1.19097, 1.19146, 1.21881, 1.18693, 1.19988, 1.23157, 1.17727, 1.2132, 1.21224, 1.15321, 1.14296, 1.14053, 1.11897, 1.11349, 1.07161, 1.07779, 1.04837, 1.06275, 1.06408, 1.02877, 1.01391, 1.03562, 1.02528, 1.02033, 0.98544, 1.02035, 1.01573, 1.07868, 1.07809, 1.03864, 1.0311, 1.06367, 1.0678, 1.37123, 1.06477, 1.06482, 1.06678, 1.07388, 1.06881, 1.08222, 1.05325, 1.0528, 1.05292, 1.04667, 1.04859, 1.04801, 1.04785, 1.04618, 1.04599, 1.03639, 1.03712, 1.03882, 1.03998, 1.03532, 1.03541, 1.02986, 1.04193, 1.04621, 1.04746, 1.04965, 1.05214, 1.05237, 1.05353, 1.05439, 1.04857
1.40975, 1.4647, 1.26443, 1.26289, 1.25529, 1.25076, 1.24056, 1.23346, 1.22711, 1.22695, 1.22643, 1.22515, 1.22628, 1.22262, 1.22152, 1.21841, 1.21523, 1.21514, 1.21441, 1.22104, 1.22746, 1.22196, 1.22051, 1.20221, 1.20198, 1.19609, 1.17387, 1.17398, 1.17355, 1.16644, 1.16445, 1.37021, 1.20152, 1.23468, 1.17792, 1.26832, 1.33518, 1.34788, 1.10532, 1.10589, 1.1061, 1.10755, 1.10741, 1.1083, 1.11367, 1.10741, 1.10732, 1.10276, 1.09348, 1.12274, 1.06783, 1.08152, 1.10077, 1.09133, 1.14067, 1.13907, 1.15105, 1.18612, 1.19343, 1.19764, 1.19072, 1.18792, 1.16997, 1.16567, 1.1747, 1.21152, 1.25749, 1.24572, 1.22272, 1.2247, 1.26492, 1.24803, 1.24949, 1.29149, 1.22619, 1.22866, 1.23444, 1.23764, 1.23686, 1.2389, 1.24653, 1.25423, 1.25975, 1.22261, 1.20583, 1.19503, 1.171, 1.17062, 1.17418, 1.17126, 1.17149, 1.18397, 1.15112, 1.15692, 1.15608, 1.11392, 1.115, 1.10349, 1.11657, 1.08414, 1.07141, 1.06418, 1.0493, 1.05867, 1.02459, 1.01184, 1.01024, 1.07729, 1.07718, 1.00554, 1.00951, 1.00131, 1.07429, 1.05664, 1.03604, 1.05873, 1.06666, 1.06726, 1.06876, 1.06717, 1.06529, 1.06614, 1.06989, 1.0687, 1.05714, 1.0561, 1.05393, 1.04938, 1.04814, 1.0494, 1.04913, 1.04792, 1.04677, 1.04639, 1.03791, 1.03848, 1.03865, 1.03947, 1.03262, 1.03379, 1.02976, 1.04263, 1.0444, 1.04734, 1.05014, 1.05259, 1.05475, 1.05459, 1.05032, 1.04426
1.46111, 1.26348, 1.2637, 1.2637, 1.25536, 1.24992, 1.24033, 1.25035, 1.2276, 1.22826, 1.22804, 1.22528, 1.2258, 1.221, 1.22098, 1.21858, 1.21499, 1.21473, 1.21432, 1.21868, 1.28428, 1.2228, 1.21831, 1.21162, 1.19872, 1.39128, 1.17354, 1.17382, 1.1915, 1.16283, 1.16066, 1.16032, 1.35694, 1.15188, 1.24288, 1.32329, 1.23559, 1.12993, 1.10607, 1.10719, 1.10592, 1.10739, 1.10917, 1.1094, 1.1122, 1.11184, 1.10786, 1.1076, 1.11313, 1.11485, 1.08579, 1.08405, 1.0921, 1.09162, 1.13526, 1.11539, 1.12531, 1.15789, 1.17522, 1.18153, 1.13874, 1.19526, 1.16946, 1.16091, 1.17193, 1.27921, 1.21539, 1.2775, 1.28488, 1.28448, 1.20593, 1.34684, 1.24029, 1.23954, 1.22586, 1.2353, 1.23628, 1.22106, 1.21966, 1.24755, 1.2264, 1.20923, 1.23383, 1.18738, 1.18743, 1.18955, 1.17575, 1.16923, 1.17811, 1.15771, 1.17862, 1.15982, 1.15544, 1.12559, 1.11888, 1.11952, 1.14661, 1.08111, 1.08651, 1.0655, 1.06169, 1.05962, 1.05039, 1.03519, 1.01882, 1.01187, 1.01034, 1.02324, 1.01178, 1.01131, 1.00998, 1.01149, 1.06652, 1.07501, 1.19962, 1.05998, 1.06141, 1.06562, 1.06737, 1.06756, 1.06647, 1.06835, 1.06974, 1.0676, 1.07513, 1.05787, 1.2136, 1.04974, 1.04912, 1.05043, 1.05084, 1.04613, 1.04549, 1.04811, 1.04116, 1.03895, 1.03775, 1.03913, 1.03119, 1.03304, 1.02871, 1.0417, 1.04541, 1.04879, 1.04237, 1.05376, 1.05744, 1.0578, 1.04941, 1.04364
1.41093, 1.26496, 1.26119, 1.26352, 1.25412, 1.25096, 1.24673, 1.24795, 1.22555, 1.22812, 1.2276, 1.22619, 1.222, 1.24604, 1.28926, 1.2187, 1.21246, 1.21316, 1.2155, 1.21862, 1.3154, 1.29151, 1.21783, 1.21182, 1.20315, 1.1956, 1.17374, 1.17352, 1.17074, 1.16115, 1.16201, 1.15959, 1.15995, 1.2363, 1.34819, 1.22, 1.1266, 1.12641, 1.10624, 1.10783, 1.1049, 1.10647, 1.11038, 1.10997, 1.11139, 1.11256, 1.10887, 1.10193, 1.11365, 1.12283, 1.07548, 1.07216, 1.08788, 1.08356, 1.107, 1.11808, 1.11996, 1.14462, 1.1605, 1.17497, 1.13592, 1.16825, 1.17649, 1.16698, 1.17855, 1.18984, 1.19633, 1.19808, 1.21438, 1.19514, 1.23226, 1.26034, 1.24133, 1.23907, 1.23195, 1.22721, 1.29835, 1.24617, 1.24266, 1.24405, 1.2411, 1.20644, 1.19469, 1.18119, 1.16616, 1.16226, 1.16259, 1.20595, 1.15337, 1.14089, 1.12613, 1.12932, 1.14436, 1.1425, 1.16156, 1.10336, 1.09437, 1.07206, 1.05884, 1.09427, 1.06908, 1.04441, 1.08715, 1.07386, 1.02657, 1.04209, 1.04433, 1.05947, 1.00363, 1.01507, 1.05215, 1.01581, 1.0524, 1.0536, 1.06448, 1.0626, 1.06177, 1.06359, 1.06578, 1.06382, 1.06679, 1.07095, 1.06988, 1.06624, 1.06456, 1.06186, 1.05771, 1.05699, 1.052, 1.05086, 1.04563, 1.04556, 1.04726, 1.04823, 1.04236, 1.03922, 1.03761, 1.03747, 1.03111, 1.03192, 1.02886, 1.0948, 1.04619, 1.04965, 1.04734, 1.05533, 1.05745, 1.05409, 1.04935, 1.04232
1.31889, 1.34327, 1.26173, 1.26567, 1.26004, 1.25422, 1.43603, 1.22534, 1.22538, 1.22602, 1.22645, 1.22548, 1.2239, 1.24713, 1.219, 1.21916, 1.21309, 1.21303, 1.21578, 1.21848, 1.22967, 1.22007, 1.21549, 1.20325, 1.19677, 1.18468, 1.17325, 1.17336, 1.24824, 1.16289, 1.16386, 1.15764, 1.23256, 1.15324, 1.25687, 1.16842, 1.31656, 1.12554, 1.26321, 1.31915, 1.11267, 1.11348, 1.11111, 1.11245, 1.11142, 1.11302, 1.10303, 1.1017, 1.10416, 1.0965, 1.07046, 1.07336, 1.08745, 1.13515, 1.13543, 1.10161, 1.11503, 1.13088, 1.17833, 1.13272, 1.13337, 1.13217, 1.16952, 1.15302, 1.17231, 1.17526, 1.19027, 1.18986, 1.202, 1.2076, 1.19056, 1.25909, 1.22722, 1.30466, 1.2324, 1.25842, 1.25201, 1.2476, 1.22635, 1.19217, 1.21165, 1.20492, 1.18694, 1.15877, 1.15314, 1.14669, 1.15936, 1.17118, 1.15491, 1.13145, 1.11942, 1.1513, 1.12833, 1.12651, 1.1221, 1.0914, 1.10547, 1.05511, 1.05421, 1.10007, 1.05649, 1.04232, 1.09489, 1.09564, 1.0302, 1.04064, 1.05488, 1.06038, 1.01165, 1.01616, 1.04724, 1.04051, 1.16002, 1.06896, 1.07245, 1.06828, 1.34218, 1.06748, 1.06883, 1.06971, 1.06831, 1.07251, 1.07329, 1.06802, 1.06413, 1.0617, 1.05652, 1.05645, 1.05281, 1.05311, 1.04464, 1.04406, 1.04603, 1.04766, 1.04493, 1.03946, 1.03649, 1.03564, 1.03101, 1.03293, 1.02894, 1.10842, 1.13059, 1.04689, 1.04617, 1.05434, 1.05749, 1.05731, 1.04913, 1.04229
1.40419, 1.26904, 1.26386, 1.27438, 1.26523, 1.53709, 1.22938, 1.22542, 1.2252, 1.22408, 1.22248, 1.22356, 1.22248, 1.21808, 1.21611, 1.38421, 1.21458, 1.21257, 1.217, 1.21816, 1.21793, 1.2238, 1.2368, 1.19948, 1.36115, 1.1847, 1.17572, 1.17279, 1.16935, 1.16908, 1.16339, 1.15839, 1.15858, 1.15373, 1.24692, 1.58646, 1.32659, 1.31342, 1.12141, 1.11239, 1.11242, 1.11224, 1.11009, 1.11398, 1.11373, 1.11491, 1.11153, 1.10483, 1.10146, 1.09411, 1.06311, 1.07018, 1.07074, 1.1274, 1.13622, 1.09955, 1.1015, 1.1989, 1.12979, 1.1358, 1.12182, 1.15502, 1.13447, 1.1539, 1.17915, 1.18799, 1.18135, 1.23933, 1.1968, 1.18419, 1.20441, 1.20308, 1.21655, 1.24036, 1.29328, 1.21517, 1.25212, 1.24812, 1.26426, 1.19203, 1.21489, 1.21632, 1.1408, 1.13691, 1.1475, 1.15772, 1.19036, 1.13921, 1.12592, 1.10222, 1.11698, 1.15039, 1.16405, 1.09631, 1.08014, 1.09627, 1.04967, 1.05149, 1.04354, 1.06669, 1.03596, 1.0956, 1.10404, 1.09396, 1.07354, 1.04533, 1.05377, 1.02639, 1.07424, 1.08021, 1.04985, 1.05508, 1.06874, 1.07004, 1.07117, 1.06981, 1.07708, 1.06784, 1.06934, 1.06861, 1.06861, 1.07377, 1.07509, 1.06883, 1.06931, 1.06059, 1.05665, 1.05489, 1.05363, 1.05324, 1.05337, 1.04332, 1.04566, 1.04756, 1.04923, 1.04596, 1.03823, 1.03577, 1.03125, 1.03272, 1.02635, 1.12388, 1.05318, 1.05345, 1.04594, 1.05503, 1.05653, 1.05271, 1.04886, 1.04569
1.35393, 1.26697, 1.26633, 1.31819, 1.31758, 1.43508, 1.2301, 1.22613, 1.21971, 1.21909, 1.21837, 1.22205, 1.22186, 1.21664, 1.21288, 1.21027, 1.21248, 1.21443, 1.21803, 1.21905, 1.21558, 1.2132, 1.20954, 1.20849, 1.18601, 1.1859, 1.17793, 1.17311, 1.16949, 1.16983, 1.16158, 1.15818, 1.15823, 1.22595, 1.22662, 1.14425, 1.42598, 1.12895, 1.12614, 1.11238, 1.11218, 1.11162, 1.10919, 1.11335, 1.11346, 1.11353, 1.11116, 1.10467, 1.1018, 1.09305, 1.05996, 1.06799, 1.07508, 1.12858, 1.08179, 1.08054, 1.10844, 1.13042, 1.13064, 1.15464, 1.13801, 1.13496, 1.13255, 1.16095, 1.18578, 1.19274, 1.17842, 1.18091, 1.18039, 1.18474, 1.18551, 1.27826, 1.2054, 1.26504, 1.26133, 1.20212, 1.30603, 1.3068, 1.21422, 1.17229, 1.17249, 1.16746, 1.13387, 1.13089, 1.16013, 1.14972, 1.14071, 1.12705, 1.10404, 1.1066, 1.09087, 1.12721, 1.12011, 1.09456, 1.10496, 1.04602, 1.04545, 1.05047, 1.04434, 1.06713, 1.03322, 1.02845, 1.08394, 1.02199, 1.0159, 1.01378, 1.08831, 1.08082, 1.08089, 1.05743, 1.05695, 1.05755, 1.17227, 1.07063, 1.19325, 1.20919, 1.26509, 1.06963, 1.06999, 1.0673, 1.06997, 1.07176, 1.07261, 1.07283, 1.07308, 1.11659, 1.05599, 1.05571, 1.05438, 1.05493, 1.05223, 1.05759, 1.04691, 1.04876, 1.05072, 1.0468, 1.03794, 1.03538, 1.03157, 1.03239, 1.02639, 1.0358, 1.09764, 1.0569, 1.04653, 1.05407, 1.0562, 1.05401, 1.04643, 1.04593
1.42978, 1.26758, 1.43618, 1.26702, 1.26741, 1.48523, 1.23104, 1.22767, 1.21903, 1.21967, 1.21856, 1.22181, 1.22187, 1.21942, 1.21891, 1.20962, 1.20934, 1.20981, 1.21784, 1.21885, 1.21585, 1.21177, 1.21152, 1.20748, 1.25007, 1.18421, 1.17786, 1.17141, 1.16871, 1.16793, 1.16267, 1.15975, 1.15839, 1.22615, 1.25595, 1.32981, 1.42708, 1.13268, 1.29368, 1.11369, 1.11175, 1.11151, 1.11033, 1.10934, 1.11338, 1.11372, 1.11393, 1.10591, 1.10376, 1.09414, 1.05863, 1.14812, 1.08448, 1.0892, 1.11993, 1.11205, 1.08764, 1.08843, 1.10525, 1.10551, 1.14055, 1.13812, 1.13258, 1.15081, 1.20953, 1.19772, 1.16047, 1.21226, 1.22016, 1.27078, 1.22527, 1.19095, 1.21085, 1.18788, 1.18904, 1.18579, 1.23712, 1.1746, 1.17911, 1.17338, 1.17478, 1.13854, 1.15038, 1.15808, 1.12667, 1.13515, 1.11715, 1.11034, 1.11111, 1.09146, 1.09925, 1.07493, 1.11638, 1.07667, 1.05753, 1.0601, 1.04097, 1.03717, 1.03709, 1.03528, 1.0394, 1.05767, 1.02928, 1.01285, 1.04296, 1.02516, 1.08712, 1.09241, 1.08795, 1.05949, 1.06433, 1.0622, 1.18036, 1.1366, 1.05719, 1.20678, 1.21167, 1.2261, 1.23092, 1.23664, 1.07238, 1.07062, 1.0715, 1.0733, 1.07162, 1.07082, 1.1533, 1.05649, 1.05417, 1.05353, 1.0525, 1.0526, 1.05153, 1.04954, 1.05117, 1.04759, 1.03704, 1.03854, 1.03096, 1.03187, 1.11969, 1.03237, 1.10129, 1.05688, 1.05184, 1.05273, 1.05366, 1.05649, 1.04407, 1.0457
1.30325, 1.27789, 1.27705, 1.36116, 1.27091, 1.32888, 1.47828, 1.22272, 1.22647, 1.22421, 1.22156, 1.22042, 1.21948, 1.21913, 1.21795, 1.21273, 1.20882, 1.20917, 1.21644, 1.21697, 1.2161, 1.2117, 1.20898, 1.21006, 1.20627, 1.18719, 1.17029, 1.17018, 1.16995, 1.17019, 1.16148, 1.1597, 1.16011, 1.15627, 1.15189, 1.31876, 1.2213, 1.13195, 1.12921, 1.11735, 1.11142, 1.10957, 1.10978, 1.11032, 1.11488, 1.1129, 1.11212, 1.10534, 1.1045, 1.10256, 1.09142, 1.06707, 1.075, 1.10167, 1.13581, 1.11189, 1.08908, 1.09673, 1.10634, 1.09982, 1.12139, 1.12518, 1.15024, 1.14071, 1.2022, 1.18071, 1.16096, 1.14373, 1.27434, 1.20229, 1.20635, 1.28022, 1.23964, 1.18393, 1.1841, 1.18185, 1.18212, 1.18254, 1.16393, 1.17225, 1.15022, 1.11834, 1.11941, 1.12036, 1.12065, 1.14226, 1.11851, 1.11047, 1.10994, 1.12888, 1.08256, 1.09092, 1.09465, 1.06431, 1.0585, 1.05969, 1.06701, 1.03503, 1.03613, 1.03414, 1.03248, 1.0099, 1.00794, 1.01903, 1.00662, 1.09908, 1.05374, 1.05356, 1.06084, 1.06002, 1.07078, 1.06958, 1.06753, 1.07942, 1.05572, 1.05684, 1.21193, 1.21056, 1.21699, 1.07704, 1.07776, 1.07183, 1.07334, 1.0746, 1.07294, 1.07194, 1.06537, 1.24694, 1.05713, 1.05169, 1.05113, 1.05282, 1.05284, 1.04977, 1.04395, 1.04592, 1.04569, 1.04112, 1.03074, 1.07154, 1.03645, 1.03549, 1.09114, 1.05716, 1.05269, 1.05262, 1.05068, 1.05406, 1.22905, 1.04605
1.60095, 1.27873, 1.27722, 1.2719, 1.25879, 1.30574, 1.23531, 1.88942, 1.22645, 1.22529, 1.22231, 1.22167, 1.21825, 1.23046, 1.21762, 1.21545, 1.20974, 1.20647, 1.21504, 1.21822, 1.21731, 1.2173, 1.21216, 1.21158, 1.19749, 1.18959, 1.17025, 1.16855, 1.16493, 1.17167, 1.17008, 1.15771, 1.15554, 1.15195, 1.14997, 1.14698, 1.23009, 1.15762, 1.12709, 1.11881, 1.11316, 1.11113, 1.11117, 1.1115, 1.11475, 1.11225, 1.11135, 1.10614, 1.10442, 1.10175, 1.09431, 1.07122, 1.07171, 1.14494, 1.14686, 1.10124, 1.10537, 1.12018, 1.1047, 1.10894, 1.12173, 1.11891, 1.15967, 1.12581, 1.17022, 1.14018, 1.12869, 1.12271, 1.14787, 1.18993, 1.19225, 1.23398, 1.15794, 1.18614, 1.18753, 1.17386, 1.1405, 1.17911, 1.16374, 1.14546, 1.12693, 1.11427, 1.12406, 1.16372, 1.11511, 1.14659, 1.10256, 1.10511, 1.08939, 1.08761, 1.07186, 1.08565, 1.06185, 1.10831, 1.05137, 1.03289, 1.03341, 1.03558, 1.0392, 1.03387, 1.03653, 1.06363, 1.01059, 1.01457, 1.00242, 1.04963, 1.05057, 1.04948, 1.0602, 1.10491, 1.07559, 1.07657, 1.07043, 1.08033, 1.06027, 1.19959, 1.19968, 1.19267, 1.08451, 1.07714, 1.07707, 1.07392, 1.07394, 1.07467, 1.07194, 1.07262, 1.06452, 1.07455, 1.07724, 1.05286, 1.05192, 1.05501, 1.05432, 1.05136, 1.04862, 1.04465, 1.04342, 1.04248, 1.05898, 1.14433, 1.03837, 1.03892, 1.08518, 1.05269, 1.0496, 1.05239, 1.04899, 1.0536, 1.0533, 1.04755
1.30642, 1.39611, 1.3825, 1.50356, 1.26418, 1.27412, 1.23514, 1.25115, 1.24979, 1.22671, 1.22181, 1.22295, 1.23407, 1.21396, 1.2181, 1.21518, 1.20961, 1.20697, 1.21249, 1.21834, 1.21838, 1.24676, 1.21124, 1.21037, 1.19537, 1.19535, 1.17245, 1.1691, 1.15986, 1.16084, 1.21919, 1.15625, 1.15589, 1.15026, 1.1481, 1.14456, 1.13744, 1.12784, 1.12674, 1.12684, 1.11491, 1.11134, 1.1114, 1.11171, 1.11247, 1.11303, 1.11134, 1.10841, 1.10311, 1.10303, 1.10215, 1.1022, 1.10542, 1.14297, 1.14376, 1.10845, 1.11636, 1.11991, 1.10679, 1.1263, 1.0986, 1.15904, 1.13471, 1.12553, 1.12824, 1.14933, 1.13443, 1.12488, 1.12685, 1.18989, 1.17857, 1.27438, 1.17836, 1.18742, 1.17368, 1.174, 1.21529, 1.15186, 1.15379, 1.13565, 1.12356, 1.11588, 1.12366, 1.12906, 1.11222, 1.12717, 1.10163, 1.07487, 1.0638, 1.07832, 1.09947, 1.08191, 1.0837, 1.08155, 1.07514, 1.04769, 1.04435, 1.03317, 1.08215, 1.05935, 1.05993, 1.06014, 1.08723, 1.02306, 1.02271, 1.02592, 1.05342, 1.05813, 1.06075, 1.06972, 1.07744, 1.08046, 1.07113, 1.08079, 1.06237, 1.2018, 1.19969, 1.19087, 1.11269, 1.0779, 1.07793, 1.07531, 1.0742, 1.07521, 1.07284, 1.07274, 1.06701, 1.06687, 1.07708, 1.05263, 1.05305, 1.05585, 1.05521, 1.05618, 1.05036, 1.04374, 1.04343, 1.05705, 1.0571, 1.05935, 1.05653, 1.04101, 1.05629, 1.05298, 1.04968, 1.21232, 1.20604, 1.05155, 1.0507, 1.05483
1.30671, 1.43046, 1.41469, 1.40831, 1.26463, 1.25104, 1.24415, 1.24015, 1.23968, 1.7109, 1.22364, 1.22467, 1.22526, 1.23278, 1.22432, 1.2245, 1.45841, 1.21178, 1.21686, 1.2183, 1.21853, 1.2826, 1.21317, 1.21335, 1.20128, 1.40618, 1.17921, 1.16369, 1.15869, 1.15823, 1.16083, 1.16094, 1.15023, 1.14828, 1.14571, 1.14306, 1.21198, 1.12596, 1.12577, 1.12261, 1.1145, 1.1137, 1.11126, 1.11124, 1.11148, 1.11165, 1.10877, 1.10793, 1.10446, 1.10473, 1.10431, 1.10137, 1.10779, 1.12893, 1.13936, 1.09084, 1.11431, 1.09944, 1.10447, 1.12023, 1.11928, 1.11992, 1.14025, 1.19289, 1.12215, 1.12339, 1.11533, 1.13748, 1.12667, 1.16763, 1.17344, 1.17023, 1.20255, 1.16644, 1.17284, 1.16709, 1.14001, 1.15606, 1.12736, 1.11276, 1.113, 1.14073, 1.13971, 1.11703, 1.09251, 1.10895, 1.07819, 1.07696, 1.08832, 1.07855, 1.06002, 1.08742, 1.0615, 1.03674, 1.0315, 1.09571, 1.0462, 1.03561, 1.03894, 1.03894, 1.03588, 0.998466, 0.999828, 0.997131, 1.01156, 1.01713, 1.05304, 1.0664, 1.06637, 1.06963, 1.07845, 1.08389, 1.07897, 1.07497, 1.20235, 1.06647, 1.21, 1.20938, 1.18838, 1.08138, 1.07744, 1.07637, 1.07365, 1.07478, 1.06949, 1.07372, 1.06691, 1.06521, 1.58861, 1.05982, 1.05596, 1.05615, 1.05616, 1.05676, 1.05403, 1.11964, 1.04319, 1.05705, 1.04816, 1.04626, 1.04811, 1.0447, 1.04596, 1.0508, 1.03615, 1.03075, 1.03202, 1.22218, 1.0544, 1.05434
1.40567, 1.27971, 1.27274, 1.27394, 1.26024, 1.25341, 1.2429, 1.24101, 1.24163, 1.39014, 1.2266, 1.22504, 1.22729, 1.22805, 1.2264, 1.22966, 1.21863, 1.21349, 1.2169, 1.21845, 1.21846, 1.21376, 1.21294, 1.21361, 1.19687, 1.20119, 1.17565, 1.16732, 1.15871, 1.1509, 1.15661, 1.21102, 1.16245, 1.14604, 1.14321, 1.25874, 1.12581, 1.12467, 1.12553, 1.12231, 1.11507, 1.11318, 1.11222, 1.1105, 1.10982, 1.10947, 1.10796, 1.10796, 1.10599, 1.10439, 1.10406, 1.10243, 1.10361, 1.10803, 1.1224, 1.11397, 1.13697, 1.13343, 1.07361, 1.09854, 1.1213, 1.12199, 1.17687, 1.179, 1.11626, 1.12678, 1.13087, 1.10944, 1.14295, 1.14591, 1.14671, 1.1637, 1.1988, 1.15742, 1.17089, 1.17672, 1.13387, 1.12783, 1.14788, 1.10479, 1.12995, 1.13244, 1.10206, 1.11195, 1.10651, 1.10835, 1.06511, 1.06755, 1.06454, 1.06417, 1.04635, 1.06626, 1.06076, 1.02779, 1.03575, 1.03462, 1.05652, 1.04591, 1.04364, 1.07778, 1.08278, 1.00052, 1.02199, 1.00858, 1.01523, 1.0404, 1.05616, 1.08651, 1.07452, 1.07087, 1.08067, 1.08582, 1.07859, 1.0771, 1.07583, 1.18523, 1.26627, 1.21052, 1.18074, 1.08217, 1.07739, 1.07526, 1.07406, 1.07378, 1.07236, 1.07387, 1.06474, 1.066, 1.06527, 1.06294, 1.05489, 1.05722, 1.05712, 1.05713, 1.05429, 1.05381, 1.17699, 1.05143, 1.04965, 1.04661, 1.04768, 1.04793, 1.0462, 1.04574, 1.03571, 1.03122, 1.03243, 1.03394, 1.04704, 1.05373
1.33328, 1.27821, 1.27408, 1.39943, 1.25346, 1.25286, 1.24939, 1.24337, 1.24059, 1.23582, 1.22974, 1.22919, 1.2277, 1.22694, 1.22821, 1.22788, 1.22535, 1.21267, 1.21462, 1.21768, 1.21845, 1.21363, 1.21275, 1.21357, 1.20532, 1.18709, 1.18277, 1.27622, 1.15792, 1.15075, 1.15657, 1.16666, 1.20921, 1.20748, 1.13988, 1.20523, 1.12217, 1.12249, 1.12586, 1.12396, 1.12691, 1.11178, 1.11056, 1.10645, 1.10792, 1.10971, 1.1079, 1.10605, 1.10628, 1.10726, 1.09938, 1.10151, 1.10364, 1.10386, 1.10663, 1.09207, 1.11946, 1.10242, 1.06917, 1.07072, 1.08179, 1.18182, 1.16872, 1.11839, 1.1457, 1.14068, 1.09783, 1.11887, 1.12341, 1.14555, 1.14675, 1.1402, 1.14154, 1.15081, 1.13677, 1.14779, 1.12774, 1.12351, 1.17485, 1.11082, 1.11126, 1.12604, 1.11987, 1.11893, 1.08069, 1.09528, 1.09149, 1.11545, 1.07108, 1.05752, 1.04624, 1.05943, 1.0401, 1.02748, 1.10173, 1.03391, 1.05716, 1.06436, 1.04267, 1.07908, 1.01179, 1.04477, 1.02329, 1.07736, 1.01567, 1.04191, 1.05999, 1.06091, 1.0747, 1.07395, 1.07799, 1.08595, 1.08705, 1.15714, 1.07676, 1.07702, 1.23026, 1.09314, 1.18156, 1.12632, 1.07994, 1.07547, 1.07542, 1.07439, 1.07412, 1.0735, 1.06873, 1.06828, 1.06814, 1.05828, 1.05691, 1.05631, 1.05683, 1.05671, 1.054, 1.05367, 1.05495, 1.0543, 1.05101, 1.04802, 1.05029, 1.04982, 1.04603, 1.04341, 1.03728, 1.02591, 1.02508, 1.03191, 1.05287, 1.05617
1.5484, 1.27193, 1.2731, 1.25739, 1.25164, 1.25324, 1.25043, 1.24707, 1.23828, 1.23649, 1.23714, 1.23211, 1.22534, 1.22803, 1.22851, 1.22858, 1.22968, 1.20942, 1.21017, 1.21714, 1.21533, 1.21376, 1.21319, 1.21844, 1.20151, 1.18475, 1.18271, 1.17699, 1.16028, 1.15373, 1.15448, 1.16855, 1.17145, 1.21154, 1.14872, 1.24998, 1.12137, 1.12242, 1.12525, 1.12691, 1.12773, 1.10924, 1.10888, 1.10477, 1.10425, 1.11559, 1.10505, 1.10496, 1.10591, 1.10501, 1.09884, 1.10155, 1.10437, 1.10507, 1.11099, 1.09906, 1.08042, 1.12682, 1.11358, 1.0747, 1.08445, 1.11202, 1.13425, 1.13636, 1.1364, 1.14737, 1.10097, 1.08959, 1.12143, 1.13013, 1.16498, 1.1466, 1.12571, 1.1508, 1.13645, 1.13244, 1.12902, 1.12047, 1.12212, 1.10907, 1.1051, 1.13429, 1.09428, 1.10265, 1.07229, 1.07709, 1.08832, 1.03374, 1.04661, 1.06977, 1.03422, 1.00981, 1.05945, 1.02176, 1.01781, 1.02032, 1.07099, 1.07152, 1.0406, 1.03583, 1.03645, 1.08165, 1.0331, 1.03869, 1.07546, 1.07141, 1.06316, 1.11976, 1.13602, 1.07561, 1.07682, 1.08856, 1.08872, 1.08906, 1.08142, 1.07909, 1.08133, 1.09196, 1.09973, 1.10098, 1.08032, 1.07517, 1.07601, 1.07525, 1.07481, 1.07129, 1.06708, 1.06908, 1.06911, 1.0587, 1.05589, 1.05498, 1.05465, 1.05626, 1.05243, 1.05304, 1.05611, 1.05453, 1.0524, 1.04929, 1.05077, 1.0494, 1.04981, 1.03894, 1.12922, 1.01952, 1.02178, 1.0284, 1.2281, 1.05363
1.28838, 1.26757, 1.27172, 1.3095, 1.25402, 1.2529, 1.2534, 1.24624, 1.24642, 1.23635, 1.23556, 1.23572, 1.23208, 1.22782, 1.22728, 1.22871, 1.22816, 1.20868, 1.20954, 1.21614, 1.21556, 1.2135, 1.21341, 1.20982, 1.19463, 1.19139, 1.18242, 1.2669, 1.1619, 1.15429, 1.15286, 1.16812, 1.17167, 1.20582, 1.19461, 1.20007, 1.11798, 1.12249, 1.12375, 1.13233, 1.12666, 1.10972, 1.10808, 1.10604, 1.10372, 1.09977, 1.10535, 1.10477, 1.10448, 1.10376, 1.10186, 1.09844, 1.10483, 1.10743, 1.11202, 1.09663, 1.11938, 1.12529, 1.09169, 1.10787, 1.06636, 1.07528, 1.10497, 1.11862, 1.09071, 1.11, 1.0827, 1.1391, 1.10863, 1.14719, 1.1302, 1.10641, 1.09851, 1.10116, 1.13559, 1.17499, 1.13254, 1.12267, 1.12973, 1.13302, 1.08465, 1.10327, 1.12134, 1.08486, 1.10839, 1.05614, 1.04959, 1.03598, 1.02041, 1.04537, 1.00656, 0.998008, 1.00856, 1.01536, 1.02817, 1.0374, 1.04396, 1.07074, 1.04125, 1.01608, 1.05692, 1.01717, 1.03415, 1.0171, 1.07332, 1.07273, 1.07817, 1.06863, 1.12675, 1.0779, 1.08001, 1.08876, 1.08996, 1.09081, 1.08792, 1.08222, 1.08306, 1.09559, 1.10041, 1.10109, 1.1638, 1.07577, 1.07527, 1.07528, 1.07504, 1.07393, 1.08334, 1.08339, 1.064, 1.06049, 1.05551, 1.05526, 1.05595, 1.05729, 1.05287, 1.05176, 1.05394, 1.05426, 1.0529, 1.05305, 1.04694, 1.04944, 1.04979, 1.03223, 1.03104, 1.01988, 1.02294, 1.03012, 1.03418, 1.1494
1.52164, 1.43067, 1.27124, 1.26831, 1.26462, 1.2565, 1.25554, 1.24735, 1.28563, 1.23738, 1.23753, 1.23578, 1.23306, 1.23157, 1.22627, 1.22802, 1.22406, 1.40912, 1.2187, 1.21663, 1.21498, 1.21249, 1.21441, 1.2099, 1.19118, 1.18768, 1.1867, 1.17786, 1.16445, 1.1567, 1.15095, 1.1643, 1.16354, 1.16529, 1.18951, 1.19175, 1.11991, 1.12136, 1.13397, 1.13372, 1.12374, 1.10726, 1.10669, 1.1059, 1.10769, 1.09683, 1.09862, 1.10477, 1.10217, 1.10477, 1.10387, 1.15148, 1.10683, 1.10303, 1.11163, 1.09459, 1.12925, 1.0754, 1.1152, 1.06465, 1.04962, 1.0707, 1.08339, 1.07437, 1.05138, 1.05112, 1.09286, 1.0807, 1.10966, 1.14471, 1.11926, 1.10627, 1.09538, 1.09983, 1.09304, 1.17685, 1.11335, 1.07695, 1.09176, 1.09583, 1.09386, 1.0993, 1.07054, 1.11127, 1.08128, 1.06179, 1.03489, 1.06733, 1.04929, 1.05215, 1.01696, 0.990061, 1.01154, 1.08114, 1.01512, 1.03283, 1.00606, 1.05051, 1.04397, 1.01818, 1.04117, 1.0251, 1.01291, 1.01458, 1.11768, 1.07301, 1.08006, 1.07086, 1.10033, 1.10331, 1.08512, 1.08889, 1.08924, 1.09069, 1.08799, 1.08884, 1.08086, 1.09457, 1.09608, 1.10113, 1.17787, 1.07693, 1.07468, 1.0751, 1.07352, 1.07445, 1.17444, 1.39516, 1.56085, 1.05954, 1.05649, 1.05649, 1.05906, 1.05969, 1.05305, 1.05166, 1.05526, 1.05629, 1.05585, 1.05526, 1.06027, 1.05063, 1.05687, 1.12563, 1.08045, 1.23921, 1.2608, 1.03171, 1.03371, 1.1041
1.28368, 1.33013, 1.32699, 1.90287, 1.26876, 1.25499, 1.25627, 1.2581, 1.29773, 1.23625, 1.23758, 1.23787, 1.23402, 1.23254, 1.22599, 1.2259, 1.22382, 1.4275, 1.21986, 1.21852, 1.21288, 1.2125, 1.21501, 1.20977, 1.21911, 1.1863, 1.18437, 1.25976, 1.16133, 1.15944, 1.1496, 1.15685, 1.15695, 1.36144, 1.40132, 1.1848, 1.12311, 1.12251, 1.13436, 1.13507, 1.12594, 1.11514, 1.10813, 1.10767, 1.10785, 1.09759, 1.09591, 1.09775, 1.10419, 1.10673, 1.10628, 1.10657, 1.1057, 1.10446, 1.12615, 1.09525, 1.11952, 1.07615, 1.07357, 1.064, 1.05444, 1.08773, 1.08529, 1.04754, 1.05777, 1.05932, 1.05507, 1.08494, 1.12841, 1.14667, 1.10552, 1.10148, 1.09847, 1.0842, 1.11216, 1.10149, 1.10841, 1.09972, 1.0716, 1.05198, 1.08098, 1.08143, 1.07347, 1.09454, 1.06322, 1.05554, 1.08663, 1.05667, 1.005, 1.01651, 0.990352, 0.989975, 1.00162, 1.02847, 1.01547, 1.0132, 1.03131, 1.06085, 1.06892, 1.02903, 1.01934, 1.02252, 1.08289, 1.11515, 1.12179, 1.07792, 1.07734, 1.07534, 1.1008, 1.10738, 1.09016, 1.08901, 1.09469, 1.09304, 1.09106, 1.08837, 1.08319, 1.19356, 1.09567, 1.10511, 1.17718, 1.12551, 1.07425, 1.07406, 1.07068, 1.07197, 1.07099, 1.39098, 1.0596, 1.05946, 1.06124, 1.06019, 1.05978, 1.0591, 1.05476, 1.05298, 1.05326, 1.05587, 1.05473, 1.05569, 1.05674, 1.05483, 1.05099, 1.04031, 1.30282, 1.03641, 1.26019, 1.03347, 1.04247, 1.04697
1.28863, 1.36192, 1.51643, 1.42568, 1.50957, 1.25602, 1.25665, 1.25685, 1.25292, 1.26559, 1.23739, 1.23942, 1.2337, 1.23462, 1.22706, 1.22492, 1.22618, 1.22571, 1.22252, 1.21927, 1.21836, 1.21458, 1.21543, 1.20956, 1.19778, 1.20165, 1.18439, 1.17894, 1.16186, 1.15937, 1.15431, 1.15609, 1.15636, 1.14853, 1.15671, 1.16905, 1.12035, 1.12268, 1.13677, 1.13305, 1.11659, 1.11489, 1.11462, 1.10654, 1.1062, 1.42268, 1.0944, 1.09502, 1.1021, 1.10585, 1.1064, 1.1062, 1.10635, 1.0977, 1.12366, 1.10223, 1.09748, 1.09782, 1.06686, 1.06852, 1.08167, 1.09541, 1.09246, 1.07319, 1.06043, 1.06249, 1.06079, 1.07187, 1.14197, 1.09833, 1.07689, 1.09862, 1.11424, 1.08259, 1.11901, 1.1092, 1.09494, 1.08006, 1.05331, 1.05967, 1.05729, 1.07086, 1.08419, 1.07539, 1.06425, 1.08462, 1.02934, 1.02199, 0.996228, 0.996161, 0.977093, 0.977846, 0.991396, 1.02211, 1.05747, 1.05911, 1.02227, 1.00967, 1.05163, 1.09826, 1.02413, 1.05288, 1.03421, 1.11977, 1.12066, 1.07465, 1.07771, 1.07607, 1.10023, 1.1012, 1.09074, 1.09418, 1.09641, 1.0932, 1.09134, 1.08888, 1.08319, 1.08375, 1.09443, 1.10678, 1.10651, 1.17436, 1.07361, 1.07302, 1.06815, 1.06918, 1.06974, 1.06739, 1.05998, 1.05755, 1.06534, 1.06093, 1.05932, 1.0576, 1.05587, 1.05199, 1.05214, 1.0552, 1.05611, 1.0549, 1.05607, 1.05639, 1.05058, 1.04428, 1.04627, 1.04035, 1.04018, 1.03068, 1.04256, 1.0447
2.11677, 1.32774, 1.28475, 1.34574, 1.27323, 1.25752, 1.25657, 1.25661, 1.25419, 0.00446792, 1.24033, 1.23979, 1.23411, 1.31516, 1.22694, 1.22655, 1.22812, 1.22501, 1.22193, 1.22198, 1.21747, 1.21662, 1.21584, 1.21323, 1.19633, 1.22269, 1.19452, 1.255, 1.15991, 1.15828, 1.15731, 1.15369, 1.15794, 1.14363, 1.42435, 1.41185, 1.15408, 1.14104, 1.12637, 1.12975, 1.12315, 1.11466, 1.11479, 1.10629, 1.10494, 1.10582, 1.11981, 1.09401, 1.10115, 1.10269, 1.10425, 1.10732, 1.10098, 1.09666, 1.12209, 1.09877, 1.09878, 1.09653, 1.10281, 1.09403, 1.08943, 1.09204, 1.07446, 1.09609, 1.06388, 1.06698, 1.04632, 1.07439, 1.08447, 1.09793, 1.10669, 1.09228, 1.14662, 1.07901, 1.11531, 1.08448, 1.07032, 1.08893, 1.04826, 1.04587, 1.04577, 1.05236, 1.04683, 1.0891, 1.06063, 1.04486, 1.01004, 0.998221, 1.01565, 0.988396, 0.982322, 0.978361, 1.00332, 0.997485, 1.07022, 1.03217, 1.01796, 1.04882, 1.05553, 1.06525, 1.06501, 1.10713, 1.12956, 1.07137, 1.07044, 1.06348, 1.06641, 1.07719, 1.13407, 1.09784, 1.09539, 1.09545, 1.09689, 1.09752, 1.09501, 1.08744, 1.08364, 1.08405, 1.09416, 1.09531, 1.17688, 1.17048, 1.15946, 1.07266, 1.06653, 1.06638, 1.06686, 1.06687, 1.06391, 1.06689, 1.0662, 1.06364, 1.05784, 1.05311, 1.05542, 1.05031, 1.04945, 1.05562, 1.05555, 1.05697, 1.05638, 1.05653, 1.0534, 1.04581, 1.04551, 1.04528, 1.23244, 1.23071, 1.03757, 1.04278
1.33958, 1.34383, 1.28365, 1.36499, 1.34384, 1.25806, 1.25702, 1.25659, 1.73101, 1.42683, 1.24163, 1.23944, 1.24057, 1.27432, 1.49274, 1.23698, 1.22943, 1.22624, 1.22206, 1.22211, 1.22286, 1.2192, 1.21971, 1.20141, 1.19341, 1.20957, 1.20833, 1.17196, 1.16771, 1.15813, 1.1558, 1.15403, 1.1512, 1.14563, 1.13836, 1.34812, 1.14713, 1.14652, 1.12769, 1.12463, 1.12186, 1.11405, 1.11464, 1.10713, 1.10751, 1.10441, 1.10458, 1.09465, 1.0933, 1.10435, 1.10481, 1.10764, 1.09924, 1.10005, 1.09908, 1.11642, 1.09911, 1.21843, 1.10357, 1.09069, 1.10677, 1.10174, 1.10897, 1.10736, 1.11905, 1.0658, 1.09617, 1.04813, 1.08888, 1.07053, 1.06037, 1.08206, 1.08532, 1.10699, 1.09249, 1.07071, 1.07088, 1.07423, 1.06714, 1.05184, 1.03751, 1.06523, 1.05374, 1.02384, 1.05519, 0.997296, 1.00068, 1.01769, 1.01806, 1.09308, 1.01104, 0.993505, 1.01706, 0.997356, 1.03179, 1.01131, 1.01539, 1.03907, 1.09496, 1.08739, 1.07942, 1.11658, 1.06682, 1.06839, 1.06489, 1.06366, 1.06281, 1.06427, 1.13419, 1.09785, 1.09877, 1.09618, 1.09775, 1.0975, 1.0956, 1.08738, 1.08785, 1.08253, 1.09222, 1.09452, 1.4422, 1.21632, 1.15572, 1.07029, 1.06627, 1.06495, 1.06501, 1.06312, 1.06365, 1.06669, 1.06441, 1.06598, 1.05591, 1.05584, 1.05543, 1.05285, 1.04922, 1.05536, 1.05651, 1.05758, 1.05725, 1.05714, 1.05627, 1.04945, 1.04653, 1.04668, 1.03918, 1.0817, 1.03723, 1.04593
1.33691, 1.33406, 1.37861, 1.27439, 1.26517, 1.25766, 1.25709, 1.25647, 1.32964, 1.5193, 1.24157, 1.24094, 1.24008, 1.24043, 1.24339, 1.23745, 1.23186, 1.22985, 1.22615, 1.2258, 1.23125, 1.2187, 1.2189, 1.22712, 1.19494, 1.20691, 1.2151, 1.23581, 1.20654, 1.15491, 1.15387, 1.15348, 1.1505, 1.14821, 1.13666, 1.12925, 1.12789, 1.1347, 1.1215, 1.12218, 1.12306, 1.11489, 1.115, 0.890099, 1.10506, 1.10561, 1.10534, 1.09476, 1.09377, 1.09385, 1.10162, 1.09927, 1.09798, 1.10298, 1.0983, 1.11267, 1.09914, 1.10149, 1.10567, 1.09432, 1.09518, 1.10079, 1.10119, 1.10305, 1.10245, 1.11639, 1.07036, 1.04691, 1.0975, 1.04906, 1.05297, 1.06749, 1.06543, 1.07414, 1.05893, 1.05275, 1.11339, 1.06431, 1.03295, 1.0305, 1.09553, 1.01457, 1.05409, 1.03383, 1.08286, 1.02283, 1.00049, 0.990843, 1.00833, 1.09098, 0.997198, 1.00679, 1.04611, 1.02557, 0.994648, 1.03439, 1.00585, 1.04453, 1.08086, 1.07548, 1.08115, 1.12569, 1.13316, 1.07742, 1.06326, 1.06313, 1.06363, 1.06565, 1.1328, 1.09398, 1.09923, 1.09802, 1.1002, 1.0983, 1.09495, 1.09238, 1.08744, 1.08131, 1.0917, 1.0918, 1.20637, 1.14834, 1.15005, 1.06623, 1.0642, 1.06389, 1.06477, 1.06325, 1.05656, 1.06635, 1.06565, 1.06602, 1.05762, 1.05599, 1.05581, 1.05183, 1.04951, 1.05301, 1.05695, 1.05702, 1.05993, 1.05914, 1.05647, 1.05645, 1.04786, 1.04241, 1.04078, 1.03782, 1.03914, 1.04633
1.34411, 1.34033, 1.37583, 1.36974, 1.26383, 1.26006, 1.25704, 1.25639, 1.35162, 1.68621, 1.24135, 1.24128, 1.24014, 1.24103, 1.24134, 1.44375, 1.23265, 1.22925, 1.23009, 1.22945, 1.22614, 1.29859, 1.22193, 1.2251, 1.19752, 1.26812, 1.19876, 1.18747, 1.18837, 1.15496, 1.15252, 1.15149, 1.15014, 1.15014, 1.14312, 1.12766, 1.12734, 1.12613, 1.12604, 1.1268, 1.12484, 1.11462, 1.115, 0.89054, 1.10512, 1.10483, 1.18622, 1.09334, 1.09457, 1.09545, 1.10142, 1.10173, 1.10303, 1.10453, 1.09749, 1.0986, 1.10003, 1.09943, 1.08467, 1.10186, 1.09842, 1.09242, 1.1023, 1.09939, 1.08658, 1.05502, 1.07436, 1.07801, 1.08386, 1.05997, 1.05353, 1.06009, 1.0551, 1.06205, 1.04645, 1.04594, 1.05852, 1.05216, 1.01973, 1.01868, 1.01814, 1.06393, 1.03038, 1.013, 1.00525, 1.06628, 1.00249, 1.0075, 1.00189, 1.05076, 1.03168, 0.988909, 1.04102, 1.02592, 1.00948, 1.00925, 1.01133, 1.01271, 1.07546, 1.06791, 1.13014, 1.14747, 1.07447, 1.07482, 1.06351, 1.06344, 1.06553, 1.06494, 1.06649, 1.09416, 1.10069, 1.09927, 1.09941, 1.09753, 1.09731, 1.09324, 1.08724, 1.08062, 1.09189, 1.09053, 1.27134, 1.20985, 1.12712, 1.12746, 1.06171, 1.06201, 1.06609, 1.06357, 1.0642, 1.06452, 1.0644, 1.06594, 1.06693, 1.05411, 1.05425, 1.05255, 1.05211, 1.0497, 1.05696, 1.05875, 1.05961, 1.05986, 1.05957, 1.05426, 1.11861, 1.22972, 1.03926, 1.03856, 1.04131, 1.04684
1.34217, 1.46441, 1.2864, 1.2786, 1.27648, 1.30702, 1.26363, 1.26302, 1.25039, 1.68598, 1.23997, 1.23834, 1.24282, 1.24091, 1.24143, 1.23478, 1.23374, 1.23084, 1.23175, 1.23117, 1.22758, 1.22417, 1.22583, 1.21893, 1.19694, 1.20116, 1.21108, 1.18273, 1.1883, 1.15189, 1.15113, 1.14965, 1.14949, 1.14959, 1.15729, 1.13762, 1.12774, 1.12249, 1.12231, 1.12643, 1.12682, 1.11511, 1.11502, 0.862248, 1.10489, 1.10646, 1.10729, 1.26473, 1.09631, 1.09637, 1.09866, 1.10098, 1.10393, 1.10357, 1.09695, 1.09739, 1.10248, 1.09871, 1.09639, 1.09947, 1.09813, 1.09536, 1.09855, 1.09926, 1.07439, 1.07479, 1.07205, 1.07142, 1.08401, 1.10879, 1.08467, 1.05997, 1.04322, 1.04377, 1.04521, 1.05452, 1.05016, 1.05477, 1.01914, 1.10363, 1.00142, 1.02815, 1.07074, 1.00682, 1.00438, 0.987624, 0.989698, 1.00758, 1.0105, 1.00944, 1.0182, 0.998872, 0.991401, 1.02967, 1.05718, 1.02377, 1.00208, 1.05696, 1.07168, 1.07389, 1.20245, 1.10706, 1.10674, 1.07682, 1.06321, 1.06662, 1.06676, 1.06685, 1.06678, 1.1024, 1.09883, 1.09925, 1.09777, 1.09535, 1.09514, 1.09322, 1.08727, 1.08084, 1.0891, 1.08831, 1.20897, 1.21481, 1.21909, 1.14443, 1.0606, 1.06038, 1.06352, 1.06366, 1.06308, 1.06613, 1.06546, 1.06646, 1.06676, 1.05176, 1.05306, 1.05367, 1.05189, 1.05028, 1.0563, 1.05982, 1.06149, 1.05861, 1.05882, 1.05301, 1.05612, 1.44714, 1.04292, 1.03878, 1.0416, 1.04958
1.30458, 1.29613, 1.45773, 1.45525, 1.26937, 1.26815, 1.26267, 1.26321, 1.31294, 1.24235, 1.2396, 1.24046, 1.24282, 1.24106, 1.24108, 1.23699, 1.23508, 1.23297, 1.23222, 1.23134, 1.22875, 1.22601, 1.21922, 1.21377, 1.19596, 1.19867, 1.37905, 1.17484, 1.2053, 1.15357, 1.15051, 1.14966, 1.1498, 1.14938, 1.15926, 1.2618, 1.12996, 1.12065, 1.12016, 1.12601, 1.12281, 1.11524, 1.11468, 1.11134, 1.10699, 1.10301, 1.10656, 1.2615, 1.09573, 1.09524, 1.10058, 1.10125, 1.10329, 1.10185, 1.10105, 1.09746, 1.09698, 1.09658, 1.09768, 1.09942, 1.09894, 1.09712, 1.09109, 1.09881, 1.06315, 1.07817, 1.07996, 1.06345, 1.06445, 1.05628, 1.07737, 1.14404, 1.03473, 1.05149, 1.0434, 1.04292, 1.02303, 1.02864, 1.0297, 1.00961, 1.00518, 1.01895, 1.0616, 1.08979, 0.997349, 0.982228, 0.997688, 0.998738, 1.00408, 1.00905, 0.99037, 1.00105, 0.997062, 1.04015, 1.03749, 1.03291, 1.00168, 1.0844, 1.06778, 1.0682, 1.07705, 1.49802, 1.10173, 1.08048, 1.06374, 1.06746, 1.16541, 1.06656, 1.06644, 1.35083, 1.09817, 1.09883, 1.09605, 1.09172, 1.09598, 1.09144, 1.08592, 1.08105, 1.08107, 1.08946, 1.22214, 1.22321, 1.22271, 1.22349, 1.24086, 1.05959, 1.06098, 1.06356, 1.06423, 1.06623, 1.06599, 1.06441, 1.06483, 1.0538, 1.05315, 1.0509, 1.052, 1.05426, 1.05241, 1.05949, 1.05742, 1.0527, 1.05988, 1.05611, 1.05638, 1.05722, 1.04119, 1.04198, 1.04489, 1.13658
1.30245, 1.3176, 1.49594, 1.46066, 1.26703, 1.26676, 1.2625, 1.26259, 1.66561, 1.68267, 1.23974, 1.24098, 1.24599, 1.24008, 1.23855, 1.23625, 1.23372, 1.23416, 1.23145, 1.23002, 1.2289, 1.23014, 1.21696, 1.22327, 1.20098, 1.19361, 1.17688, 1.17638, 1.17079, 1.15321, 1.15334, 1.14972, 1.14792, 1.14741, 1.14051, 1.15346, 1.13055, 1.1188, 1.119, 1.12007, 1.12014, 1.11645, 1.11292, 1.10982, 1.10441, 1.10214, 1.10342, 1.26607, 1.24739, 1.09712, 1.09903, 1.10216, 1.10431, 1.10648, 1.10176, 1.09979, 1.10258, 1.09837, 1.09716, 1.09895, 1.09777, 1.09592, 1.09158, 1.096, 1.09657, 1.07449, 1.12282, 1.08061, 1.08077, 1.06072, 1.06317, 1.14632, 1.05277, 1.04954, 1.05245, 1.02589, 1.0541, 1.05291, 1.01545, 1.01461, 1.01537, 1.02651, 1.05144, 1.05647, 1.0164, 1.0385, 1.01141, 1.00207, 1.01574, 1.04151, 1.01174, 0.997788, 0.990821, 1.04996, 1.05305, 1.07019, 1.04331, 1.04344, 1.06536, 1.07032, 1.07781, 1.09165, 1.09795, 1.08539, 1.06376, 1.06668, 1.36383, 1.06474, 1.06503, 1.32264, 1.10144, 1.09848, 1.09312, 1.09472, 1.09534, 1.0914, 1.08977, 1.08447, 1.07948, 1.08975, 1.09044, 1.2532, 1.15028, 1.14141, 1.13942, 1.05769, 1.05957, 1.06079, 1.06337, 1.06391, 1.0658, 1.06311, 1.06326, 1.06338, 1.05416, 1.05732, 1.05716, 1.05972, 1.05308, 1.34346, 1.05576, 1.05306, 1.05952, 1.0577, 1.0556, 1.05772, 1.04143, 1.04312, 1.04816, 1.05281
1.3009, 1.29459, 1.34659, 1.34632, 1.26462, 1.34668, 1.26419, 1.26483, 1.70619, 1.25342, 1.6088, 1.24275, 1.24502, 1.24444, 1.23833, 1.2362, 1.23124, 1.23586, 1.2314, 1.23064, 1.22987, 1.22189, 1.22163, 1.20152, 1.20081, 1.18805, 1.18396, 1.17026, 1.15895, 1.15545, 1.15476, 1.15081, 1.14651, 1.14521, 1.17443, 1.13695, 1.14858, 1.12883, 1.12281, 1.12017, 1.11945, 1.11912, 1.1124, 1.10943, 1.10685, 1.10678, 1.11132, 1.11181, 1.25033, 1.09545, 1.10115, 1.10428, 1.10465, 1.10848, 1.10952, 1.10631, 1.10383, 1.09885, 1.09795, 1.09889, 1.09693, 1.093, 1.09155, 1.09596, 1.09406, 1.09543, 1.12823, 1.09418, 1.08958, 1.10546, 1.11184, 1.04388, 1.05009, 1.04526, 1.07326, 1.06696, 1.03726, 1.0386, 1.04563, 1.0447, 1.01282, 1.02702, 1.06307, 1.02465, 1.08806, 1.07171, 1.08254, 1.06499, 1.03023, 1.05077, 1.00705, 1.00814, 1.04934, 1.05266, 1.05466, 1.05728, 1.19678, 1.05932, 1.06697, 1.07396, 1.07626, 1.23242, 1.09732, 1.08473, 1.06357, 1.06658, 1.05699, 1.05749, 1.06623, 1.06683, 1.09973, 1.09757, 1.09771, 1.09286, 1.09407, 1.09127, 1.089, 1.08585, 1.07742, 1.08843, 1.09053, 1.2199, 1.21761, 1.3543, 1.35437, 1.13005, 1.05569, 1.06174, 1.06203, 1.06495, 1.06577, 1.0563, 1.06113, 1.06221, 1.06147, 1.0638, 1.06222, 1.05975, 1.05058, 1.053, 1.05325, 1.05634, 1.05954, 1.0583, 1.05449, 1.05676, 1.04931, 1.04932, 1.04997, 1.05465
1.38816, 1.28682, 1.28679, 1.2649, 1.258, 1.2572, 1.26372, 1.26456, 1.26449, 1.30012, 1.29577, 1.2428, 1.24431, 1.24523, 1.23226, 1.23306, 1.22986, 1.23543, 1.23233, 1.22919, 1.22932, 1.22298, 1.22213, 1.20173, 1.19884, 1.18804, 1.18148, 1.20307, 1.15858, 1.15536, 1.15457, 1.16812, 1.34918, 1.14256, 1.1393, 1.13809, 1.13694, 1.12882, 1.12356, 1.12205, 1.11973, 0.889253, 1.11248, 1.10814, 1.10776, 1.10784, 1.11265, 1.11312, 1.12196, 1.15735, 1.10201, 1.10365, 1.10672, 1.10831, 1.10801, 1.10625, 1.10797, 1.10623, 1.0995, 1.09944, 1.09502, 1.0876, 1.09077, 1.08609, 1.08824, 1.09592, 1.09603, 1.09384, 1.09244, 1.08438, 1.08577, 1.13618, 1.02042, 1.04308, 1.05644, 1.04075, 1.04274, 1.08921, 1.04912, 1.04911, 1.02853, 1.01864, 1.01692, 0.990827, 1.07098, 1.07701, 1.08337, 1.0344, 1.03048, 1.05513, 1.03816, 1.03354, 1.04721, 1.05326, 1.05394, 1.05906, 1.06059, 1.0591, 1.19646, 1.0747, 1.07544, 1.07804, 1.098, 1.08474, 1.06433, 1.06548, 1.05607, 1.05632, 1.49891, 1.06049, 1.13698, 1.1024, 1.09837, 1.09239, 1.09157, 1.09061, 1.08893, 1.0875, 1.08113, 1.07455, 1.0913, 1.09256, 1.21579, 1.36414, 1.36148, 1.13911, 1.05543, 1.05968, 1.06067, 1.06557, 1.06655, 1.06044, 1.06049, 1.06135, 1.06421, 1.06353, 1.06159, 1.06344, 1.05049, 1.04968, 1.04644, 1.05318, 1.05639, 1.05876, 1.05767, 1.04859, 1.04932, 1.05051, 1.05562, 1.05663
1.36255, 1.5802, 1.31644, 1.52795, 1.25713, 1.25664, 1.26237, 1.26591, 1.26606, 1.26593, 1.47564, 1.24258, 1.24385, 1.24519, 1.23144, 1.23292, 1.2289, 1.23613, 1.23667, 1.23694, 1.23011, 1.22708, 1.219, 1.21194, 1.2051, 1.26823, 1.18122, 1.17241, 1.16395, 1.15675, 1.15366, 1.20637, 1.13987, 1.14255, 1.1387, 1.1374, 1.13595, 1.1324, 1.12529, 1.1232, 1.12283, 0.897071, 1.11184, 1.10831, 1.10795, 1.10804, 1.11526, 1.12742, 1.12924, 1.14331, 1.10207, 1.10545, 1.1078, 1.10838, 1.10799, 1.10606, 1.10799, 1.10571, 1.10218, 1.09891, 1.09246, 1.08673, 1.08118, 1.08225, 1.087, 1.09682, 1.09458, 1.08983, 1.08903, 1.08378, 1.08033, 1.02166, 1.1474, 1.06698, 1.08157, 1.04832, 1.07075, 1.05695, 1.03504, 1.05716, 1.08442, 1.0913, 1.01009, 1.00506, 1.03622, 1.05484, 1.05588, 1.12294, 1.04021, 1.04782, 1.02823, 1.13692, 1.10801, 1.05412, 1.05501, 1.05731, 1.06038, 1.05767, 1.06963, 1.07107, 1.07638, 1.07705, 1.10211, 1.10782, 1.09033, 1.06648, 1.06691, 1.06257, 1.06145, 1.05978, 1.13791, 1.15641, 1.09893, 1.09941, 1.08991, 1.08926, 1.08802, 1.0872, 1.0817, 1.15651, 1.08936, 1.091, 1.22259, 1.35244, 1.14974, 1.14449, 1.05281, 1.05571, 1.05985, 1.06218, 1.06666, 1.06353, 1.06026, 1.06233, 1.06374, 1.06588, 1.06076, 1.06252, 1.05391, 1.04739, 1.04496, 1.0527, 1.05214, 1.05811, 1.06013, 1.06067, 1.05006, 1.0539, 1.05724, 1.06118
1.3608, 1.41567, 1.39798, 1.44278, 1.2587, 1.25656, 1.26399, 1.26583, 1.26562, 1.2648, 1.26043, 1.55587, 1.2457, 1.24447, 1.23412, 1.23245, 1.22895, 1.2354, 1.23625, 1.23664, 1.2322, 1.22102, 1.21523, 1.20489, 1.20451, 1.26115, 1.17931, 1.17257, 1.16198, 1.1585, 1.15491, 1.14054, 1.13853, 1.1406, 1.13979, 1.13707, 1.13608, 1.13222, 1.13288, 1.12607, 1.1251, 0.893778, 1.11035, 1.1096, 1.10703, 1.1077, 1.11467, 1.33439, 1.1081, 1.10727, 1.10429, 1.10442, 1.10657, 1.10555, 1.10781, 1.10782, 1.10787, 1.10565, 1.10508, 1.09752, 1.09488, 1.29213, 1.07738, 1.08557, 1.08363, 1.08379, 1.09144, 1.0916, 1.08415, 1.08003, 1.08202, 1.06076, 1.05841, 1.0834, 1.07757, 1.08073, 1.08788, 1.07164, 1.07671, 1.04637, 1.0799, 1.09822, 1.11681, 1.01188, 1.02494, 1.07683, 1.05783, 1.05445, 1.05519, 1.04648, 1.04712, 1.21349, 1.0538, 1.05634, 1.05921, 1.05882, 1.06049, 1.07002, 1.29113, 1.0645, 1.07605, 1.0778, 1.07962, 1.09739, 1.09866, 1.06652, 1.06701, 1.06708, 1.06025, 1.05961, 1.12047, 1.17937, 1.09842, 1.09847, 1.08824, 1.08741, 1.08801, 1.08667, 1.08461, 1.07372, 1.12194, 1.1085, 1.2751, 1.21143, 1.14881, 1.14949, 1.051, 1.05138, 1.05838, 1.06308, 1.06651, 1.06293, 1.05994, 1.06122, 1.06448, 1.06739, 1.0607, 1.06367, 1.05299, 1.04934, 1.04361, 1.05248, 1.0505, 1.05779, 1.06, 1.05151, 1.05334, 1.0565, 1.05916, 1.06337
1.35723, 1.3339, 1.40919, 1.44772, 1.26005, 1.25336, 1.25732, 1.26458, 1.26571, 1.26026, 1.26011, 1.25122, 1.2466, 1.2446, 1.23959, 1.23013, 1.22861, 1.23366, 1.2341, 1.29027, 1.23088, 1.27049, 1.21351, 1.20705, 1.31155, 1.18253, 1.17928, 1.17199, 1.16491, 1.15579, 1.15486, 1.18074, 1.13764, 1.13973, 1.13931, 1.13807, 1.13125, 1.13194, 1.13232, 1.1281, 0.864518, 0.891875, 1.1288, 1.12989, 1.10685, 1.10738, 1.10823, 1.10729, 1.10771, 1.10861, 1.10873, 1.1033, 1.10322, 1.10725, 1.10705, 1.10861, 1.10805, 1.10715, 1.10535, 1.09732, 1.09353, 1.25181, 1.07522, 1.07225, 1.08354, 1.0829, 1.08939, 1.12271, 1.08114, 1.07468, 1.07394, 1.07333, 1.07705, 1.08105, 1.07583, 1.08753, 1.08159, 1.075, 1.07638, 1.07414, 1.0736, 1.07474, 1.0534, 1.05356, 1.04809, 1.05485, 1.05665, 1.05108, 1.0572, 1.05495, 1.05548, 1.05789, 1.05769, 1.06005, 1.06024, 1.06119, 1.06319, 1.07178, 1.19469, 1.06919, 1.07784, 1.0782, 1.07858, 1.0943, 1.0978, 1.06919, 1.06677, 1.06779, 1.06649, 1.05685, 1.2609, 1.16996, 1.09844, 1.09771, 1.08359, 1.08536, 1.08722, 1.08644, 1.08485, 1.07419, 1.28151, 1.2329, 1.21949, 1.31735, 1.14888, 1.29991, 1.13572, 1.04959, 1.05252, 1.05965, 1.06601, 1.06518, 1.06235, 1.05605, 1.06306, 1.06347, 1.05777, 1.06421, 1.05179, 1.052, 1.05122, 1.05251, 1.05027, 1.05366, 1.06189, 1.05619, 1.05444, 1.05972, 1.05959, 1.06161
1.35592, 1.403, 1.60399, 1.42444, 1.26374, 1.25487, 1.25743, 1.26297, 1.26453, 1.25921, 1.25386, 1.25268, 1.51881, 1.23964, 1.23938, 1.22995, 1.22321, 1.22783, 1.23078, 1.29688, 1.22601, 1.2633, 1.25422, 1.30514, 1.19798, 1.17911, 1.17833, 1.17182, 1.17006, 1.15621, 1.15464, 1.17145, 1.13642, 1.14266, 1.14137, 1.13705, 1.13307, 1.13105, 1.13242, 1.12453, 1.1247, 1.13223, 1.14031, 1.13183, 1.10737, 1.10783, 1.10796, 1.10594, 1.10688, 1.10857, 1.10796, 1.10059, 1.1022, 1.10414, 1.10344, 1.10511, 1.10824, 1.10658, 1.10533, 1.10266, 1.09769, 1.07395, 1.07353, 1.07506, 1.07904, 1.0817, 1.08055, 1.08436, 1.0776, 1.07696, 1.07328, 1.07255, 1.07202, 1.07612, 1.07648, 1.07701, 1.08111, 1.08077, 1.07353, 1.07331, 1.07011, 1.07515, 1.10306, 1.29468, 1.05559, 1.06286, 1.06093, 1.05699, 1.05515, 1.05785, 1.0556, 1.06068, 1.05952, 1.06027, 1.06308, 1.06369, 1.06426, 1.07219, 1.28257, 1.08069, 1.07875, 1.08039, 1.07985, 1.08057, 1.09784, 1.08834, 1.06916, 1.07059, 1.0693, 1.06564, 1.06433, 1.1402, 1.31906, 1.09758, 1.09796, 1.09073, 1.08775, 1.0854, 1.08464, 1.06701, 1.06845, 1.08438, 1.27169, 1.3053, 1.30723, 1.20124, 1.30189, 1.04909, 1.04936, 1.06027, 1.06804, 1.06858, 1.05932, 1.0566, 1.2621, 1.06126, 1.06261, 1.06431, 1.11299, 1.05023, 1.05158, 1.05294, 1.05031, 1.05609, 1.0601, 1.05685, 1.05763, 1.05922, 1.06301, 1.06427
1.38475, 1.38293, 1.34025, 1.35692, 1.34757, 1.252, 1.25389, 1.2574, 1.26052, 1.25654, 1.25472, 1.24668, 1.24355, 1.23949, 1.23694, 1.2259, 1.22395, 1.22532, 1.31661, 1.29683, 1.22878, 1.23027, 1.20784, 1.27687, 1.26356, 1.1789, 1.17524, 1.17418, 1.17581, 1.15667, 1.15303, 1.16017, 1.13954, 1.1424, 1.13923, 1.13816, 1.13333, 1.13261, 1.13201, 1.13159, 0.893959, 1.13597, 1.12938, 1.13918, 1.1083, 1.10767, 1.10484, 1.10531, 1.10594, 1.11373, 1.10009, 1.09844, 1.1009, 1.10125, 1.10359, 1.1013, 1.11319, 1.10681, 1.10652, 1.10211, 1.18468, 1.0766, 1.07276, 1.07686, 1.07681, 1.08541, 1.0769, 1.07787, 1.07695, 1.07688, 1.07489, 1.07112, 1.07328, 1.07524, 1.07715, 1.07754, 1.08181, 1.08357, 1.07718, 1.07387, 1.06949, 1.07418, 1.08618, 1.06374, 1.06284, 1.06396, 1.06493, 1.06217, 1.06024, 1.06001, 1.0604, 1.20612, 1.06232, 1.06211, 1.06319, 1.19917, 1.06876, 1.06918, 1.1948, 1.08556, 1.08561, 1.07913, 1.07942, 1.07981, 1.09977, 1.1012, 1.07068, 1.07105, 1.07295, 1.06606, 1.06663, 1.28245, 1.21657, 1.09615, 1.0967, 1.09082, 1.08847, 1.08543, 1.0844, 1.08524, 1.06882, 1.06783, 1.21536, 1.20442, 1.32101, 1.19662, 1.19407, 1.04897, 1.0498, 1.05892, 1.06723, 1.06757, 1.05742, 1.05669, 1.05629, 1.06051, 1.06125, 1.06313, 1.06329, 1.05331, 1.05314, 1.05282, 1.05088, 1.05706, 1.06475, 1.06309, 1.06081, 1.06123, 1.06446, 1.06615
1.39506, 1.38279, 1.36929, 1.40704, 1.35175, 1.25278, 1.25234, 1.25474, 1.25798, 1.25636, 1.25689, 1.24683, 1.24071, 1.23984, 1.22899, 1.22561, 1.22334, 1.22395, 1.36203, 1.36419, 1.2372, 1.25767, 1.24377, 1.28837, 1.17859, 1.17847, 1.15299, 1.15362, 1.16541, 1.15347, 1.15021, 1.15099, 1.16045, 1.14699, 1.14124, 1.13597, 1.13434, 1.13022, 1.1305, 1.1324, 0.891577, 1.13883, 1.12025, 1.15729, 1.14744, 1.10824, 1.10276, 1.10196, 1.11212, 1.28525, 1.09909, 1.09604, 1.09728, 1.10165, 1.10227, 1.10245, 1.10823, 1.10544, 1.10584, 1.10217, 1.25359, 1.0735, 1.07222, 1.06985, 1.07767, 1.08753, 1.07435, 1.07656, 1.0787, 1.07688, 1.06634, 1.06727, 1.07036, 1.07463, 1.07806, 1.0789, 1.08172, 1.0833, 1.07825, 1.0716, 1.07283, 1.07322, 1.08485, 1.08537, 1.09369, 1.0685, 1.06779, 1.06413, 1.06171, 1.06016, 1.06054, 1.36646, 1.19906, 1.06458, 1.06708, 1.06973, 1.06989, 1.07045, 1.08091, 1.08708, 1.08964, 1.08898, 1.08078, 1.07856, 1.07802, 1.10269, 1.06961, 1.07151, 1.07301, 1.2702, 1.07164, 1.07328, 1.13671, 1.09587, 1.09594, 1.09688, 1.09187, 1.08406, 1.0845, 1.08864, 1.0672, 1.06738, 1.24474, 1.18428, 1.29558, 1.19441, 1.3008, 1.04656, 1.04842, 1.05676, 1.06678, 1.06573, 1.06646, 1.05292, 1.04898, 1.12591, 1.06061, 1.06046, 1.06235, 1.05338, 1.05371, 1.05308, 1.05168, 1.06044, 1.06574, 1.06658, 1.06035, 1.06394, 1.06517, 1.06622
1.32913, 1.37816, 1.37239, 1.33874, 1.34728, 1.2531, 1.25328, 1.25442, 1.25351, 1.25589, 1.25638, 1.24803, 1.24057, 1.2372, 1.23301, 1.22455, 1.22548, 1.32764, 1.36389, 1.33217, 1.28516, 1.26028, 1.4817, 1.2097, 1.28073, 1.16939, 1.16394, 1.16277, 1.16315, 1.16077, 1.15164, 1.15132, 1.14672, 1.1464, 1.14251, 1.14148, 1.13357, 1.12882, 1.12928, 0.887382, 1.13249, 1.13524, 1.11909, 1.11941, 1.12398, 1.107, 1.13616, 1.09987, 1.10293, 1.30508, 1.0971, 1.09749, 1.09642, 1.09904, 1.09807, 1.09987, 1.09626, 1.10523, 1.10574, 1.10209, 1.09723, 1.0809, 1.0692, 1.06984, 1.07017, 1.08344, 1.07327, 1.0787, 1.0776, 1.07743, 1.07401, 1.07465, 1.07404, 1.07443, 1.07762, 1.08041, 1.08016, 1.08085, 1.08123, 1.07359, 1.07359, 1.07356, 1.08005, 1.07962, 1.29167, 1.34615, 1.06603, 1.06801, 1.06574, 1.06355, 1.06196, 1.06369, 1.07661, 1.06399, 1.06804, 1.06995, 1.07092, 1.07485, 1.08529, 1.08504, 1.09085, 1.08784, 1.08217, 1.08107, 1.07796, 1.10212, 1.08393, 1.06981, 1.07382, 1.0748, 1.07387, 1.07371, 1.0751, 1.08985, 1.09579, 1.09762, 1.09278, 1.08656, 1.08563, 1.09106, 1.09163, 1.06654, 1.30553, 1.15818, 1.23719, 1.26457, 1.28268, 1.15006, 1.04878, 1.05549, 1.05755, 1.0662, 1.06572, 1.05346, 1.04759, 1.04817, 1.05609, 1.05895, 1.05974, 1.05784, 1.05373, 1.05351, 1.05364, 1.06064, 1.0667, 1.06466, 1.06213, 1.06784, 1.06728, 1.06521
1.32776, 1.37096, 1.36853, 1.37203, 1.3509, 1.51299, 1.25978, 1.25207, 1.25043, 1.25189, 1.25344, 1.25212, 1.24311, 1.23768, 1.2322, 1.22538, 1.22559, 1.37263, 1.20135, 1.33402, 1.25681, 1.18639, 1.18423, 1.37106, 1.63327, 1.27771, 1.16117, 1.162, 1.16181, 1.16001, 1.16381, 1.15046, 1.14899, 1.146, 1.14372, 1.14308, 1.15066, 1.1282, 1.12807, 1.12977, 1.13053, 1.12933, 1.12249, 1.11934, 1.12204, 1.1076, 1.13781, 1.09795, 1.09855, 1.09388, 1.09435, 1.09691, 1.09754, 1.09894, 1.09847, 1.09743, 1.09631, 1.10511, 1.10536, 1.1015, 1.0995, 1.07933, 1.07839, 1.0677, 1.06873, 1.06443, 1.07134, 1.07788, 1.07822, 1.07623, 1.07353, 1.07405, 1.07347, 1.07473, 1.07779, 1.0817, 1.08084, 1.0802, 1.08074, 1.07916, 1.07404, 1.07511, 1.07887, 1.07827, 1.08577, 1.07737, 1.07134, 1.06921, 1.06602, 1.06424, 1.06412, 1.06588, 1.0767, 1.06876, 1.06916, 1.06932, 1.0725, 1.07787, 1.07839, 1.08364, 1.09016, 1.08888, 1.0875, 1.08116, 1.07797, 1.07903, 1.08424, 1.07151, 1.07099, 1.07503, 1.07553, 1.07385, 1.07686, 1.0789, 1.0951, 1.09594, 1.0914, 1.0948, 1.14628, 1.09583, 1.1026, 1.06439, 1.06367, 1.26204, 1.2568, 1.28606, 1.18936, 1.29312, 1.04813, 1.05104, 1.05894, 1.06409, 1.0632, 1.44062, 1.0509, 1.05085, 1.05402, 1.0594, 1.05797, 1.05386, 1.05821, 1.0539, 1.05612, 1.06144, 1.06645, 1.06464, 1.06399, 1.06637, 1.06742, 1.06331
1.32691, 1.32462, 1.31735, 1.31349, 1.31399, 1.34013, 1.41434, 1.69542, 1.24857, 1.2486, 1.25121, 1.25089, 1.51687, 1.23629, 1.23387, 1.22514, 1.22457, 1.3276, 1.20071, 1.20268, 1.18885, 1.18134, 1.18035, 1.23355, 1.17804, 1.25133, 1.16033, 1.25736, 1.18822, 1.15776, 1.17021, 1.15074, 1.14731, 1.14591, 1.14292, 1.14679, 1.13402, 1.12686, 1.12747, 1.12841, 1.13137, 1.13053, 1.12914, 1.12081, 1.12086, 1.12333, 1.13464, 1.09577, 1.09779, 1.09339, 1.09356, 1.09571, 1.09793, 1.09943, 1.09823, 1.09422, 1.09789, 1.1044, 1.10445, 1.10128, 1.09788, 1.20196, 1.13989, 1.26754, 1.0681, 1.06444, 1.06894, 1.06897, 1.07782, 1.07452, 1.07213, 1.07165, 1.07152, 1.07391, 1.07712, 1.08381, 1.08333, 1.08015, 1.08036, 1.08111, 1.0756, 1.07643, 1.07785, 1.0782, 1.08671, 1.28905, 1.07202, 1.06966, 1.06339, 1.06444, 1.06564, 1.0665, 1.07092, 1.0707, 1.06895, 1.06936, 1.07241, 1.07664, 1.07872, 1.08537, 1.08803, 1.09056, 1.08514, 1.08418, 1.08048, 1.07922, 1.22046, 1.08038, 1.07609, 1.07705, 1.07535, 1.07671, 1.07564, 1.07691, 1.09734, 1.09371, 1.09138, 1.09338, 1.09464, 1.15004, 1.22631, 1.26501, 1.06209, 1.06098, 1.30934, 1.224, 1.26909, 1.25872, 1.04822, 1.04913, 1.05519, 1.2969, 1.06301, 1.43658, 1.05188, 1.05174, 1.05263, 1.05868, 1.05924, 1.05456, 1.05759, 1.0596, 1.05734, 1.06286, 1.06487, 1.06399, 1.06481, 1.06666, 1.06913, 1.0646
1.32364, 1.31946, 1.31537, 1.3159, 1.34794, 1.90416, 1.31873, 1.29163, 1.24664, 1.24627, 1.2512, 1.25116, 1.24819, 1.23928, 1.23488, 1.22348, 1.22333, 1.32562, 1.34323, 1.20326, 1.19103, 1.18246, 1.17946, 1.18168, 1.27489, 1.18945, 1.19462, 1.15292, 1.15332, 1.15564, 1.15673, 1.15303, 0.972293, 1.14617, 1.14168, 1.14708, 1.13269, 0.876301, 1.12683, 1.12698, 1.13092, 1.13063, 1.12767, 1.12108, 1.11995, 1.13749, 1.13545, 1.09527, 1.09445, 1.0924, 1.09169, 1.09672, 1.09696, 1.09687, 1.09608, 1.09851, 1.10031, 1.10357, 1.10452, 1.1039, 1.09901, 1.09126, 1.07707, 1.06394, 1.06787, 1.06424, 1.06446, 1.06515, 1.08008, 1.07242, 1.07162, 1.07082, 1.07031, 1.07416, 1.08027, 1.08645, 1.08635, 1.0874, 1.08082, 1.08034, 1.07835, 1.0771, 1.07817, 1.07946, 1.08931, 1.09038, 1.09443, 1.07005, 1.06311, 1.06571, 1.06657, 1.19583, 1.06987, 1.07168, 1.0752, 1.06965, 1.07197, 1.07459, 1.07824, 1.08404, 1.08746, 1.08895, 1.08642, 1.0858, 1.08405, 1.07896, 1.07822, 1.07926, 1.0772, 1.07692, 1.07704, 1.07749, 1.07632, 1.07679, 1.07709, 1.35504, 1.09099, 1.09277, 1.12959, 1.10608, 1.10687, 1.10144, 1.06203, 1.06029, 1.23599, 1.2365, 1.21923, 1.27779, 1.05026, 1.04917, 1.05481, 1.77162, 1.05959, 1.0607, 1.05287, 1.05295, 1.05149, 1.05757, 1.05947, 1.05297, 1.05597, 1.05915, 1.06088, 1.06043, 1.063, 1.0648, 1.06367, 1.06678, 1.06848, 1.06584
1.32057, 1.31865, 1.31292, 1.30965, 1.34313, 1.33719, 1.37408, 1.57001, 1.64739, 1.25193, 1.25, 1.25084, 1.24841, 1.51267, 1.23409, 1.22982, 1.22288, 1.21881, 1.21264, 1.28583, 1.19091, 1.1821, 1.18095, 1.18046, 1.63884, 1.21219, 1.23904, 1.154, 1.15158, 1.15428, 1.15735, 1.15242, 1.14522, 1.14549, 0.908313, 0.907636, 0.867901, 0.849868, 1.12719, 1.12737, 1.12877, 1.12927, 1.12419, 1.12229, 1.12089, 1.20287, 1.13958, 1.09873, 1.09175, 1.09202, 1.09234, 1.09488, 1.09702, 1.09763, 1.09438, 1.09961, 1.10103, 1.10135, 1.1023, 1.1026, 1.09886, 1.18222, 1.07317, 1.07002, 1.06693, 1.06389, 1.06317, 1.06346, 1.06341, 1.0735, 1.07212, 1.07196, 1.07095, 1.07382, 1.08089, 1.08719, 1.08759, 1.08463, 1.08243, 1.08051, 1.07907, 1.07929, 1.08018, 1.09046, 1.09002, 1.09065, 1.09069, 1.072, 1.06647, 1.06405, 1.06237, 1.06141, 1.07059, 1.07029, 1.07764, 1.07103, 1.07264, 1.0751, 1.07904, 1.08417, 1.08658, 1.08755, 1.08722, 1.08709, 1.08203, 1.08081, 1.07746, 1.07883, 1.0769, 1.0769, 1.07802, 1.07607, 1.07679, 1.07729, 1.07623, 1.07623, 1.09096, 1.09211, 1.08844, 1.12662, 1.10782, 1.10125, 1.08719, 1.05985, 1.05995, 1.23464, 1.21895, 1.27187, 1.26538, 1.05099, 1.05524, 1.056, 1.077, 1.05615, 1.0534, 1.05284, 1.04815, 1.05782, 1.05071, 1.05245, 1.05432, 1.06015, 1.06292, 1.05965, 1.06103, 1.06441, 1.06445, 1.06764, 1.07037, 1.06703
1.31915, 1.31885, 1.31338, 1.30841, 1.33106, 1.33254, 1.37344, 1.64398, 1.58046, 1.58232, 1.25253, 1.24967, 1.24735, 1.24275, 1.23375, 1.23005, 1.2286, 1.22022, 1.20808, 1.29928, 1.18747, 1.18198, 1.18072, 1.20586, 1.40275, 1.41865, 1.26674, 1.15632, 1.15695, 1.15134, 1.15139, 1.15023, 1.14592, 1.1781, 1.17782, 0.864394, 1.14035, 1.12867, 1.12753, 1.12641, 1.12622, 1.12881, 1.12604, 1.12584, 1.21271, 1.11297, 1.10932, 1.1372, 1.09946, 1.09071, 1.09179, 1.0891, 1.09184, 1.09328, 1.09777, 1.10138, 1.1013, 1.10092, 1.10153, 1.10123, 1.0969, 1.0954, 1.15344, 1.07018, 1.06845, 1.06665, 1.06641, 1.06547, 1.07009, 1.07042, 1.06639, 1.06785, 1.07407, 1.07387, 1.08219, 1.08675, 1.08835, 1.08734, 1.08492, 1.08183, 1.07809, 1.08044, 1.08509, 1.08813, 1.09066, 1.091, 1.08978, 1.30233, 1.07002, 1.06311, 1.06125, 1.0604, 1.07064, 1.07069, 1.07635, 1.0723, 1.07225, 1.07484, 1.07816, 1.0841, 1.08797, 1.08871, 1.08728, 1.08633, 1.08524, 1.08121, 1.07886, 1.07483, 1.07607, 1.07694, 1.07721, 1.07691, 1.07704, 1.07831, 1.07851, 1.07529, 1.2947, 1.08999, 1.08962, 1.21939, 1.15835, 1.17157, 1.24566, 1.22423, 1.05851, 1.0595, 1.30996, 1.16852, 1.16384, 1.05438, 1.05369, 1.05431, 1.05399, 1.05465, 1.05368, 1.05201, 1.04579, 1.05624, 1.05756, 1.0516, 1.05438, 1.05656, 1.22966, 1.06008, 1.05997, 1.06397, 1.06377, 1.06817, 1.06981, 1.06969
1.31935, 1.31879, 1.30967, 1.30732, 1.33003, 1.33092, 1.33401, 1.31495, 1.29079, 1.58824, 1.25613, 1.25092, 1.24863, 1.24363, 1.44669, 1.23236, 1.23007, 1.21524, 1.20544, 1.20374, 1.26641, 1.60784, 1.17915, 1.3728, 1.18447, 1.18139, 1.26535, 1.15642, 1.15695, 1.14957, 1.14947, 1.1523, 1.20293, 1.14554, 1.17682, 1.1394, 1.13888, 1.14259, 1.13023, 1.12553, 1.12557, 1.12837, 1.13102, 1.13202, 1.24364, 1.12013, 1.1077, 1.10737, 1.10115, 1.09234, 1.08755, 1.08615, 1.09076, 1.09308, 1.09464, 1.10113, 1.1018, 1.10063, 1.09955, 1.10105, 1.10093, 1.09215, 1.14661, 1.07085, 1.06776, 1.0665, 1.06655, 1.06554, 1.06635, 1.06668, 1.06239, 1.06148, 1.06679, 1.1616, 1.10833, 1.09131, 1.0875, 1.08717, 1.08503, 1.08328, 1.07737, 1.08229, 1.08542, 1.08879, 1.09083, 1.09096, 1.08864, 1.0888, 1.3055, 1.06301, 1.06314, 1.06074, 1.0615, 1.19263, 1.19753, 1.07915, 1.07324, 1.07578, 1.06929, 1.084, 1.08824, 1.08905, 1.08636, 1.08504, 1.08467, 1.083, 1.07691, 1.07381, 1.07442, 1.0757, 1.07771, 1.07585, 1.07799, 1.07855, 1.07825, 1.07739, 1.07642, 1.09076, 1.09136, 1.0879, 1.12574, 1.16218, 1.16807, 1.21661, 1.05692, 1.05797, 1.17859, 1.15606, 1.26159, 1.055, 1.05501, 1.05316, 1.05318, 1.05336, 1.05298, 1.0504, 1.0443, 1.0554, 1.05618, 1.05358, 1.05594, 1.05598, 1.05695, 1.05684, 1.05572, 1.22747, 1.06359, 1.06761, 1.06942, 1.07199
1.32257, 1.31643, 1.31078, 1.30685, 0.00481478, 1.33143, 1.32882, 1.31623, 1.52827, 1.28783, 1.2574, 1.25479, 1.52531, 1.24317, 1.24352, 1.39298, 1.3473, 1.34034, 1.21882, 1.25612, 1.25341, 1.59601, 1.22322, 1.17702, 1.17717, 1.18082, 1.17241, 1.17389, 1.15203, 1.15169, 1.15051, 1.1525, 1.15351, 1.14557, 1.14226, 1.14018, 1.13765, 1.13849, 1.13025, 1.12574, 1.1238, 1.12772, 1.13105, 1.13331, 1.13367, 1.11751, 1.11369, 1.1078, 1.10721, 1.09483, 1.08575, 1.0857, 1.09038, 1.09091, 1.09311, 1.09973, 1.10099, 1.1, 1.09814, 1.09928, 1.09929, 1.09793, 1.18538, 1.21967, 1.06681, 1.06614, 1.0666, 1.06596, 1.06734, 1.06707, 1.06324, 1.05978, 1.06129, 1.25396, 1.1051, 1.09291, 1.08713, 1.08736, 1.08737, 1.08373, 1.08378, 1.08178, 1.08462, 1.0856, 1.09063, 1.08957, 1.08783, 1.08755, 1.21041, 1.06448, 1.06314, 1.06783, 1.06798, 1.33041, 1.07833, 1.07815, 1.07427, 1.07574, 1.07732, 1.08448, 1.08665, 1.08817, 1.08743, 1.08603, 1.08548, 1.08407, 1.08423, 1.07015, 1.06992, 1.07039, 1.07136, 1.07171, 1.07921, 1.07865, 1.07788, 1.07718, 1.0761, 1.07685, 1.08882, 1.08744, 1.09054, 1.13829, 1.08717, 1.16414, 1.21137, 1.05783, 1.06021, 1.06755, 1.06674, 1.06218, 1.05635, 1.05132, 1.05008, 1.05269, 1.05375, 1.04974, 1.04716, 1.16461, 1.05452, 1.05447, 1.05823, 1.05411, 1.05576, 1.05556, 1.05471, 1.05465, 1.065, 1.06795, 1.0701, 1.07066
1.32334, 1.31494, 1.30871, 1.30407, 1.30539, 1.32962, 1.32979, 1.31023, 1.57262, 1.53866, 1.48997, 1.25526, 1.23784, 1.24385, 1.2455, 1.24404, 1.25619, 1.23021, 1.25149, 1.24887, 1.2779, 1.25017, 1.58897, 1.57828, 1.21017, 1.26137, 1.36351, 1.19154, 1.15772, 1.15327, 1.15271, 1.15361, 1.15337, 1.19055, 1.14102, 1.1432, 1.13674, 1.13146, 1.13056, 1.12857, 1.12503, 1.1279, 1.12666, 1.13348, 1.13408, 1.11779, 1.11725, 1.10855, 1.10687, 1.1173, 1.08293, 1.08473, 1.08869, 1.09016, 1.09106, 1.09831, 1.10096, 1.09796, 1.09747, 1.09949, 1.10077, 1.10342, 1.16683, 1.35088, 1.25049, 1.06499, 1.06647, 1.06661, 1.06674, 1.07481, 1.06289, 1.0633, 1.06641, 1.07086, 1.24335, 1.24265, 1.08909, 1.08803, 1.08761, 1.08381, 1.0837, 1.08197, 1.08151, 1.08238, 1.09049, 1.09074, 1.0846, 1.08707, 1.09537, 1.0636, 1.0649, 1.07105, 1.0738, 1.10272, 1.08024, 1.08035, 1.07233, 1.0735, 1.07403, 1.31912, 1.08722, 1.08852, 1.0872, 1.08698, 1.08676, 1.08429, 1.08458, 1.08394, 1.06802, 1.06819, 1.07148, 1.07098, 1.21934, 1.07699, 1.07704, 1.07722, 1.07809, 1.07659, 1.09067, 1.08567, 1.08423, 1.08386, 1.15943, 1.07386, 1.18803, 1.06405, 1.06352, 1.06634, 1.07021, 1.07066, 1.05698, 1.05471, 1.05429, 1.05381, 1.05296, 1.04944, 1.04869, 1.05009, 1.05617, 1.24266, 1.06057, 1.05289, 1.05267, 1.05634, 1.0544, 1.05288, 1.06556, 1.06794, 1.0701, 1.06971
1.32151, 1.37697, 1.30567, 1.30235, 1.30545, 1.32725, 1.31963, 1.31616, 1.6337, 1.56101, 1.53313, 1.25665, 1.25054, 1.24904, 1.24633, 1.24519, 1.2498, 1.32679, 1.26201, 1.24954, 1.24484, 1.24303, 1.22895, 1.21995, 1.21248, 1.21527, 1.18342, 0.00422589, 1.1555, 1.1546, 1.15431, 1.15512, 1.15764, 1.31004, 1.1459, 1.14174, 1.13628, 1.13104, 1.13365, 1.12779, 1.1256, 1.12597, 1.12844, 1.12988, 1.23095, 1.11719, 1.11773, 1.11168, 1.10748, 1.1181, 1.08242, 1.08364, 1.08425, 1.09009, 1.09077, 1.09269, 1.19476, 1.08428, 1.09557, 1.09848, 1.1021, 1.10449, 1.10483, 1.15492, 1.16817, 1.27063, 1.06678, 1.06665, 1.06752, 1.07157, 1.06229, 1.06661, 1.06675, 1.07353, 1.07398, 1.07557, 1.09445, 1.08858, 1.08675, 1.08415, 1.08298, 1.07759, 1.07724, 1.08066, 1.08985, 1.09046, 1.08747, 1.08283, 1.10144, 1.06407, 1.06539, 1.07124, 1.07354, 1.1811, 1.08065, 1.08133, 1.07166, 1.07168, 1.07267, 1.08405, 1.08675, 1.08744, 1.08424, 1.08628, 1.08651, 1.08552, 1.0839, 1.09471, 1.14238, 1.06643, 1.07031, 1.06867, 1.06706, 1.07417, 1.07365, 1.11189, 1.07998, 1.0735, 1.07685, 1.23312, 1.08068, 1.07627, 1.07194, 1.14836, 1.06404, 1.06437, 1.16242, 1.06782, 1.07, 1.07089, 1.05653, 1.05649, 1.0563, 1.0564, 1.04954, 1.04747, 1.04505, 1.05267, 1.13117, 1.05962, 1.06126, 1.05644, 1.04837, 1.04991, 1.05837, 1.05962, 1.22371, 1.06776, 1.06991, 1.07006
1.47156, 1.47564, 1.43399, 1.30037, 1.30534, 1.32817, 1.32719, 1.32271, 1.58018, 1.2878, 1.53098, 1.25624, 1.25644, 1.25107, 1.24724, 1.24632, 1.24595, 1.23299, 1.22551, 1.26081, 1.24387, 1.23998, 1.22302, 1.22418, 1.20937, 1.26071, 1.17964, 1.16961, 1.15712, 1.15582, 1.15502, 1.15591, 1.15634, 1.15531, 1.14327, 1.14446, 1.13577, 1.13585, 1.1355, 1.12766, 1.12618, 1.12801, 1.12887, 1.12183, 1.17227, 1.11663, 1.11778, 1.29772, 1.10731, 1.28695, 1.14831, 1.08581, 1.0875, 1.09031, 1.08916, 1.0908, 1.18821, 1.08621, 1.08585, 1.09902, 1.10275, 1.10314, 1.10471, 1.09978, 1.24551, 1.07876, 1.06482, 1.06758, 1.07024, 1.07228, 1.07779, 1.07385, 1.06915, 1.06796, 1.07491, 1.07594, 1.23578, 1.09543, 1.08626, 1.08389, 1.08376, 1.08, 1.07763, 1.08057, 1.08681, 1.08819, 1.08621, 1.07971, 1.30138, 1.10608, 1.0658, 1.07128, 1.07485, 1.0769, 1.08075, 1.0815, 1.07142, 1.07118, 1.07059, 1.07227, 1.08201, 1.08809, 1.08242, 1.083, 1.08572, 1.08623, 1.08369, 1.28496, 1.1488, 1.06653, 1.06797, 1.06645, 1.06722, 1.07018, 1.07006, 1.07493, 1.077, 1.07511, 1.07596, 1.17402, 1.10613, 1.07273, 1.07126, 1.07341, 1.06305, 1.06271, 1.05947, 1.15148, 1.07031, 1.12998, 1.05698, 1.05641, 1.05773, 1.04954, 1.04825, 1.04634, 1.04441, 1.05318, 1.32988, 1.06106, 1.06291, 1.12625, 1.04791, 1.04655, 1.05827, 1.05929, 1.22198, 1.06853, 1.06894, 1.0699
1.47833, 1.47098, 1.30244, 1.29977, 1.30272, 1.30388, 1.32675, 1.32733, 1.62597, 1.28324, 1.27593, 1.25405, 1.25838, 1.25347, 1.24379, 1.24679, 1.24698, 1.23264, 1.22655, 1.22624, 1.2593, 1.24618, 1.22858, 1.2203, 1.20183, 1.18528, 1.22731, 1.1711, 1.15774, 1.15841, 1.15694, 1.15658, 1.15659, 1.15411, 1.14936, 1.14164, 1.13578, 1.13559, 1.13557, 1.13491, 1.12772, 1.12854, 1.12874, 1.12866, 1.12179, 1.12456, 1.11686, 1.11534, 1.10767, 1.09809, 1.09216, 1.08921, 1.0905, 1.09039, 1.08895, 1.09092, 1.08685, 1.08648, 1.1166, 1.09863, 1.10239, 1.10229, 1.10209, 1.09834, 1.0992, 1.1477, 1.11634, 1.07201, 1.07257, 1.07974, 1.08118, 1.07259, 1.06836, 1.07097, 1.07556, 1.07668, 1.07696, 1.07876, 1.08873, 1.08385, 1.08379, 1.08176, 1.079, 1.08005, 1.08423, 1.08664, 1.08187, 1.07903, 1.30141, 1.33141, 1.35513, 1.07426, 1.07542, 1.07528, 1.07942, 1.08576, 1.07337, 1.07064, 1.07014, 1.06967, 1.23793, 1.08859, 1.0892, 1.08044, 1.08429, 1.08607, 1.08483, 1.08055, 1.09763, 1.06623, 1.06739, 1.06615, 1.06656, 1.14022, 1.06735, 1.07512, 1.07347, 1.07416, 1.07599, 1.07351, 1.0743, 1.07058, 1.07269, 1.07346, 1.06643, 1.06325, 1.05673, 1.05377, 1.23715, 1.12375, 1.05444, 1.05363, 1.05872, 1.04772, 1.04669, 1.04565, 1.0455, 1.05357, 1.05946, 1.06182, 1.06307, 1.1058, 1.04591, 1.04428, 1.04834, 1.06031, 1.1618, 1.06768, 1.06753, 1.06605
1.30953, 1.36002, 1.30239, 1.30281, 1.30188, 1.30312, 1.32551, 1.3257, 1.62376, 1.60531, 1.28181, 1.54122, 1.26008, 1.25795, 1.24326, 1.24961, 1.24706, 1.23452, 1.23126, 1.22552, 1.23476, 1.23558, 1.34383, 1.21544, 1.38071, 1.54421, 1.36937, 1.16026, 1.15714, 1.15706, 1.15725, 1.15736, 1.1566, 1.15217, 1.15098, 1.14377, 1.1407, 1.13417, 1.13554, 1.13586, 1.1278, 1.12794, 1.12638, 1.13362, 1.13288, 1.22941, 1.11521, 1.11499, 1.22079, 1.10408, 1.09933, 1.08949, 1.09063, 1.09151, 1.09028, 1.08687, 1.08652, 1.08731, 1.11204, 1.10317, 1.10509, 1.10339, 1.10152, 1.10254, 1.10196, 1.13271, 1.12073, 1.15036, 1.13711, 1.10508, 1.08023, 1.07825, 1.07232, 1.06987, 1.07381, 1.07664, 1.07685, 1.07693, 1.08463, 1.08226, 1.37115, 1.12962, 1.07889, 1.08189, 1.08502, 1.08464, 1.08191, 1.08428, 1.091, 1.30131, 1.17194, 1.07448, 1.07503, 1.07395, 1.07755, 1.08708, 1.07201, 1.07106, 1.06881, 1.06852, 1.07098, 1.09377, 1.08921, 1.08023, 1.08058, 1.08516, 1.08527, 1.07928, 1.09897, 1.30295, 1.06336, 1.33704, 1.06567, 1.06729, 1.06661, 1.07432, 1.07427, 1.07422, 1.07251, 1.06996, 1.0718, 1.07394, 1.07327, 1.07465, 1.06068, 1.06576, 1.05852, 1.05238, 1.04783, 1.17382, 1.05382, 1.05362, 1.11988, 1.0787, 1.04551, 1.04308, 1.0441, 1.05391, 1.05731, 1.06015, 1.18784, 1.17907, 1.04318, 1.04543, 1.04763, 1.05397, 1.10889, 1.06814, 1.06712, 1.06728
1.30667, 1.30267, 1.30314, 1.30261, 1.30223, 1.30337, 1.37874, 1.32296, 1.84097, 1.28508, 1.28431, 1.26441, 1.263, 1.26048, 1.37866, 1.24754, 1.24615, 1.23558, 1.23065, 1.21949, 1.22712, 1.22978, 1.22664, 1.18588, 1.21305, 1.19264, 1.17425, 1.15988, 1.15836, 1.15646, 1.1564, 1.1574, 1.49592, 1.15088, 1.14997, 1.14997, 1.13927, 1.13898, 1.13533, 1.13563, 1.18723, 1.12511, 1.12265, 1.13199, 1.13213, 1.33042, 1.11581, 1.11614, 1.1638, 1.11822, 1.10172, 1.0919, 1.09093, 1.09267, 1.09187, 1.08634, 1.086, 1.1085, 1.11644, 1.10154, 1.10659, 1.10597, 1.10181, 1.10428, 1.10847, 1.13568, 1.11152, 1.14779, 1.09497, 1.08957, 1.08145, 1.08082, 1.07375, 1.07106, 1.07336, 1.07376, 1.07511, 1.07583, 1.07611, 1.23163, 1.08866, 1.08621, 1.08688, 1.08813, 1.08241, 1.08367, 1.08051, 1.08076, 1.17626, 1.09991, 1.10013, 1.07317, 1.07367, 1.07315, 1.0752, 1.07681, 1.07684, 1.06728, 1.06641, 1.06696, 1.07019, 1.20551, 1.09167, 1.09329, 1.08479, 1.08386, 1.08406, 1.0782, 1.10142, 1.10258, 1.06156, 1.06046, 1.06385, 1.06494, 1.06698, 1.06838, 1.06761, 1.07086, 1.07016, 1.06684, 1.06661, 1.0731, 1.07277, 1.06382, 1.0623, 1.06128, 1.05093, 1.05257, 1.04639, 1.04288, 1.04136, 1.06028, 1.04924, 1.04347, 1.04249, 1.04297, 1.0447, 1.05019, 1.06568, 1.08409, 1.08314, 1.17189, 1.11091, 1.04664, 1.04644, 1.0495, 1.1644, 1.06637, 1.06648, 1.06611
1.30197, 1.30129, 1.30147, 1.30206, 1.3021, 1.30227, 1.30584, 1.32084, 1.31772, 1.28635, 1.28542, 1.26615, 1.26373, 1.26078, 1.25772, 1.25307, 1.24342, 1.23946, 1.25238, 1.22214, 1.24354, 1.2201, 1.19096, 1.21193, 1.38916, 1.19934, 1.17285, 1.16086, 1.15777, 1.15802, 1.15607, 1.15735, 1.32912, 1.14715, 1.14961, 1.14914, 1.1393, 1.13859, 1.13889, 1.13435, 1.16082, 1.12503, 1.12223, 1.13107, 1.13278, 1.12613, 1.12574, 1.22205, 1.13225, 1.11529, 1.26745, 1.09422, 1.09368, 1.09206, 1.09255, 1.08569, 1.08486, 1.0994, 1.10688, 1.10232, 1.10325, 1.10881, 1.10298, 1.10671, 1.11526, 1.11583, 1.10271, 1.19088, 1.0942, 1.08987, 1.15035, 1.08289, 1.07961, 1.06994, 1.07353, 1.07513, 1.07493, 1.07537, 1.07452, 1.09388, 1.2302, 1.08886, 1.07242, 1.0882, 1.0833, 1.08146, 1.0802, 1.0803, 1.07828, 1.1007, 1.1006, 1.07256, 1.0735, 1.0736, 1.07411, 1.07594, 1.07647, 1.07089, 1.0671, 1.06677, 1.06699, 1.07565, 1.09255, 1.09413, 1.08099, 1.08248, 1.08354, 1.0784, 1.10114, 1.26063, 1.05459, 1.05901, 1.05911, 1.0638, 1.06707, 1.06632, 1.06624, 1.06838, 1.06813, 1.06568, 1.06357, 1.06557, 1.06953, 1.067, 1.06643, 1.06321, 1.05647, 1.05158, 1.04646, 1.04226, 1.04076, 1.03896, 1.04344, 1.18124, 1.11418, 1.10195, 1.0451, 1.04731, 1.09624, 1.08372, 1.07092, 1.05173, 1.05251, 1.04247, 1.04474, 1.04729, 1.05433, 1.06191, 1.06332, 1.06436
1.30176, 1.30453, 1.30284, 1.30263, 1.30328, 1.30306, 1.30765, 1.31001, 1.32157, 1.28741, 1.50673, 1.26573, 1.26421, 1.2626, 1.26063, 1.25098, 1.24483, 1.24308, 1.2344, 1.23259, 1.22788, 1.19627, 1.25357, 1.24129, 1.31532, 1.45755, 1.49225, 1.17042, 1.15773, 1.1581, 1.156, 1.15651, 1.14529, 1.1451, 1.14874, 1.14842, 1.26053, 1.13886, 1.13763, 1.13352, 1.13376, 1.12648, 1.12334, 1.12459, 1.12176, 1.11913, 1.12679, 1.2003, 1.17936, 1.12509, 1.12331, 1.09446, 1.09414, 1.09485, 1.09398, 1.08523, 1.08449, 1.095, 1.09374, 1.09919, 1.09834, 1.10745, 1.22721, 1.11122, 1.11446, 1.11498, 1.13666, 1.12777, 1.09397, 1.09501, 1.09562, 1.08332, 1.08104, 1.08124, 1.07722, 1.07394, 1.0744, 1.07618, 1.07606, 1.36794, 1.09154, 1.06911, 1.08575, 1.08879, 1.081, 1.08096, 1.07844, 1.07847, 1.07919, 1.0988, 1.0995, 1.2026, 1.07259, 1.07373, 1.07275, 1.0739, 1.07551, 1.07499, 1.06767, 1.06606, 1.06163, 1.07052, 1.19928, 1.09425, 1.09438, 1.08345, 1.08386, 1.07798, 1.07801, 1.24367, 1.05461, 1.05531, 1.05794, 1.06156, 1.06429, 1.06456, 1.0631, 1.06334, 1.06387, 1.06397, 1.06414, 1.0655, 1.0657, 1.06736, 1.06492, 1.06014, 1.05348, 1.05058, 1.14039, 1.03959, 1.03865, 1.03736, 1.03604, 1.03778, 1.03508, 1.03625, 1.1054, 1.17525, 1.04658, 1.08415, 1.07821, 1.04913, 1.05071, 1.05089, 1.04491, 1.04633, 1.05008, 1.05843, 1.06067, 1.06305
1.30441, 1.30564, 1.30675, 1.30358, 1.30563, 1.30615, 1.30886, 1.30945, 1.30951, 1.28467, 1.28435, 1.26689, 1.2637, 1.26082, 1.25915, 1.25079, 1.25087, 1.24279, 1.23882, 1.22973, 1.20931, 1.20501, 1.19972, 1.19502, 1.23904, 1.44877, 1.1783, 1.17451, 1.15724, 1.15691, 1.15647, 1.15604, 1.1431, 1.14762, 1.14887, 1.14872, 1.25508, 1.16938, 1.13581, 1.13307, 1.13277, 1.12742, 1.128, 1.12324, 1.12108, 1.1195, 1.12863, 1.13249, 1.13378, 1.12881, 1.15362, 1.09476, 1.09501, 1.09612, 1.09666, 1.08654, 1.08537, 1.09223, 1.09332, 1.09473, 1.09981, 1.19611, 0.00443321, 1.11484, 1.11391, 1.12068, 1.12637, 1.11419, 1.08774, 1.09396, 1.0943, 1.10908, 1.09265, 1.08024, 1.08074, 1.07508, 1.07536, 1.07437, 1.07374, 1.07306, 1.06847, 1.06853, 1.06875, 1.09117, 1.07839, 1.08025, 1.07763, 1.07735, 1.08687, 1.09862, 1.09822, 1.09859, 1.07236, 1.07371, 1.0731, 1.07329, 1.07373, 1.07349, 1.07141, 1.06863, 1.06044, 1.25138, 1.08159, 1.09259, 1.28392, 1.08101, 1.08036, 1.07606, 1.07398, 1.17048, 1.05281, 1.05259, 1.05504, 1.05526, 1.06358, 1.47861, 1.06248, 1.06203, 1.06242, 1.06311, 1.06378, 1.061, 1.06224, 1.06663, 1.08724, 1.14319, 1.05307, 1.04794, 1.03265, 1.034, 1.03845, 1.0356, 1.03591, 1.03783, 1.03309, 1.03495, 1.15138, 1.04167, 1.0418, 1.08661, 1.16086, 1.0475, 1.04943, 1.04862, 1.04908, 1.049, 1.05069, 1.05159, 1.05783, 1.05806
1.31324, 1.3065, 1.30804, 1.30643, 1.30729, 1.30627, 1.30995, 1.31019, 1.30756, 1.30453, 1.50639, 1.26789, 1.2635, 1.25985, 1.25944, 1.26021, 1.43714, 1.2787, 1.3303, 1.21118, 1.23611, 1.21581, 1.19883, 1.19229, 1.23995, 1.44434, 1.17772, 1.17308, 1.16309, 1.15955, 1.15746, 1.15653, 1.15022, 1.14938, 1.14908, 1.14644, 1.14447, 1.22198, 1.1344, 1.13468, 1.13472, 1.12751, 1.12752, 1.12574, 1.12005, 1.12201, 1.12074, 1.13422, 1.13405, 1.13377, 1.17281, 1.09514, 1.09506, 1.09594, 1.09599, 1.0863, 1.08848, 1.09001, 1.09318, 1.09395, 1.0947, 1.19182, 1.12569, 1.11611, 1.11723, 1.11808, 1.12718, 1.13181, 1.08808, 1.0927, 1.09612, 1.09247, 1.09096, 1.08452, 1.08142, 1.08092, 1.07471, 1.06949, 1.07314, 1.07244, 1.06796, 1.06746, 1.06763, 1.09416, 1.07901, 1.07923, 1.07702, 1.07528, 1.08207, 1.10239, 1.09877, 1.09828, 1.07077, 1.07167, 1.07354, 1.07207, 1.07272, 1.0742, 1.07544, 1.07086, 1.06866, 1.0759, 1.07579, 1.0866, 1.09056, 1.07802, 1.07725, 1.07512, 1.06914, 1.0688, 1.07766, 1.04978, 1.05163, 1.05405, 1.05299, 1.05937, 1.06101, 1.06107, 1.06003, 1.06011, 1.06407, 1.06154, 1.06135, 1.07846, 1.09342, 1.09146, 1.05021, 1.04775, 1.04073, 1.03789, 1.03651, 1.03539, 1.03198, 1.03207, 1.03077, 1.03235, 1.04585, 1.16528, 1.03329, 1.04222, 1.04259, 1.04036, 1.0472, 1.04692, 1.04938, 1.04956, 1.09641, 1.05321, 1.05615, 1.05616
1.31218, 1.31077, 1.30835, 1.30864, 1.30665, 1.30492, 1.30644, 1.31067, 1.30737, 1.30189, 1.42618, 1.26836, 1.26784, 1.26229, 1.26403, 1.33607, 1.29505, 1.29717, 1.26457, 1.23423, 1.22098, 1.21314, 1.2045, 1.1939, 1.18778, 1.36777, 1.36051, 1.17695, 1.16383, 1.16269, 1.16054, 1.15659, 1.1535, 1.14809, 1.14837, 1.146, 1.14389, 1.26063, 1.1341, 1.13461, 1.1356, 1.12837, 1.12849, 1.12713, 1.12559, 1.12235, 1.12026, 1.12059, 1.13457, 1.13453, 1.17084, 1.24306, 1.09472, 1.09461, 1.09411, 1.0925, 1.08792, 1.0906, 1.09122, 1.09101, 1.09141, 1.09703, 1.21031, 1.24499, 1.11532, 1.11681, 1.11579, 1.11226, 1.09139, 1.09141, 1.09641, 1.11919, 1.09138, 1.08379, 1.08436, 1.08231, 1.08389, 1.06908, 1.07377, 1.08194, 1.06779, 1.06654, 1.06645, 1.09379, 1.37888, 1.07932, 1.07345, 1.07671, 1.17182, 1.27791, 1.0996, 1.10046, 1.07021, 1.07086, 1.07209, 1.07254, 1.07192, 1.07582, 1.07668, 1.0752, 1.07118, 1.06836, 1.07334, 1.0748, 1.08469, 1.07591, 1.07513, 1.06972, 1.067, 1.06681, 1.13707, 1.05082, 1.04959, 1.05295, 1.05707, 1.09442, 1.05996, 1.06048, 1.05974, 1.05673, 1.05328, 1.05936, 1.05947, 1.12599, 1.123, 1.0561, 1.08914, 1.13579, 1.03923, 1.0385, 1.03737, 1.03438, 1.03076, 1.02908, 1.02582, 1.02557, 1.08825, 1.24313, 1.15045, 1.06281, 1.04305, 1.03643, 1.04233, 1.04921, 1.05048, 1.05069, 1.11342, 1.1195, 1.05561, 1.05555
1.3124, 1.30912, 1.30694, 1.30892, 1.30329, 1.3046, 1.30534, 1.31116, 1.30351, 1.30149, 1.42644, 1.26722, 1.26767, 1.26518, 1.26421, 1.41678, 1.23386, 1.29413, 1.25064, 1.22282, 1.22075, 1.20853, 1.20476, 1.18823, 1.18478, 1.18451, 1.28359, 1.17675, 1.16976, 1.1641, 1.1851, 1.15438, 1.14805, 1.147, 1.1495, 1.14624, 1.14254, 1.27836, 1.13276, 1.13262, 1.13151, 1.13008, 1.12832, 1.12605, 1.12451, 1.12458, 1.11914, 1.11941, 1.34134, 1.16962, 1.16711, 1.15135, 1.09447, 1.09493, 1.09426, 1.09089, 1.09413, 1.09126, 1.09166, 1.08992, 1.09153, 1.09343, 1.1583, 1.2072, 1.23986, 1.1191, 1.11774, 1.20085, 1.11273, 1.09331, 1.09893, 1.09918, 1.08516, 1.08393, 1.08557, 1.08526, 1.08095, 1.4255, 1.07717, 1.08086, 1.06963, 1.066, 1.07901, 1.09747, 1.07778, 1.07881, 1.07541, 1.07702, 1.07838, 1.08932, 1.098, 1.09627, 1.094, 1.07127, 1.07411, 1.07404, 1.07364, 1.07377, 1.07565, 1.07586, 1.07265, 1.07025, 1.07369, 1.07349, 1.21487, 1.07437, 1.07395, 1.06838, 1.06595, 1.06109, 1.21723, 1.24594, 1.04194, 1.05224, 1.05338, 1.08276, 1.05879, 1.05965, 1.05957, 1.0598, 1.05463, 1.06033, 1.0592, 1.05953, 1.05683, 1.05607, 1.13438, 1.11205, 1.13217, 1.03783, 1.03796, 1.03095, 1.02734, 1.0275, 1.02643, 1.02516, 1.02387, 1.01117, 1.24425, 1.03353, 1.03313, 1.03881, 1.04142, 1.04311, 1.04978, 1.04952, 1.10705, 1.10935, 1.05362, 1.14666
1.3185, 1.31349, 1.30934, 1.30948, 1.30319, 1.29872, 1.30625, 1.31002, 1.30741, 1.29606, 1.28531, 1.26682, 1.26735, 1.26479, 1.26512, 1.34694, 1.23281, 1.25239, 1.25846, 1.22472, 1.22624, 1.21733, 1.19969, 1.1862, 1.1857, 1.18397, 1.23751, 1.27269, 1.17096, 1.1665, 1.18797, 1.14991, 1.14505, 1.14769, 1.15048, 1.14127, 1.14119, 1.14027, 1.15755, 1.13049, 1.13006, 1.12885, 1.12748, 1.12641, 1.1245, 1.12463, 1.1193, 1.11496, 1.11697, 1.39256, 1.1584, 1.23351, 1.09606, 1.09494, 1.09431, 1.09151, 1.09422, 1.09231, 1.08857, 1.08912, 1.09019, 1.09086, 1.15305, 1.1402, 1.13934, 1.21894, 1.12933, 1.11563, 1.19386, 1.0956, 1.0981, 1.09896, 1.09901, 1.08253, 1.08521, 1.08829, 1.08117, 1.08131, 1.07774, 1.07443, 1.07394, 1.0848, 1.08085, 1.40675, 1.09459, 1.07845, 1.07615, 1.07657, 1.08042, 1.08268, 1.09312, 1.09544, 1.09603, 1.0722, 1.07389, 1.07522, 1.07372, 1.07365, 1.07399, 1.07616, 1.07463, 1.07039, 1.07124, 1.07215, 1.07013, 1.07072, 1.06818, 1.0691, 1.06841, 1.06043, 1.05943, 1.05011, 1.04537, 1.0505, 1.46201, 1.07842, 1.08431, 1.05856, 1.05881, 1.05662, 1.0527, 1.05597, 1.05827, 1.05998, 1.05616, 1.05586, 1.05437, 1.13598, 1.10979, 1.13619, 1.06947, 1.05997, 1.02689, 1.026, 1.02481, 1.02452, 1.02248, 1.01135, 1.02322, 1.02314, 1.03171, 1.03729, 1.03962, 1.04468, 1.04834, 1.04873, 1.10767, 1.29561, 1.29403, 1.14272
1.31663, 1.31366, 1.31259, 1.30905, 1.31062, 1.29887, 1.30093, 1.30517, 1.51037, 1.51108, 1.28406, 1.44689, 1.27033, 1.26744, 1.26216, 1.23315, 1.31196, 1.26726, 1.23358, 1.22992, 1.22821, 1.21207, 1.27583, 1.18947, 1.18602, 1.18447, 1.18081, 1.34124, 1.17001, 1.16882, 1.17106, 1.45065, 1.14308, 1.14217, 1.14241, 1.13947, 1.13966, 1.13894, 1.13568, 1.12963, 1.12869, 1.12782, 1.12711, 1.12558, 1.12429, 1.12426, 1.12255, 1.11523, 1.11496, 1.12025, 1.26882, 1.15433, 1.0979, 1.09687, 1.09118, 1.0909, 1.092, 1.09072, 1.08882, 1.08875, 1.08848, 1.08845, 1.15451, 1.138, 1.13862, 1.13766, 1.19224, 1.12369, 1.10313, 1.09819, 1.09732, 1.09847, 1.10494, 1.09593, 1.08588, 1.09283, 1.09199, 1.08109, 1.0746, 1.07705, 1.08365, 1.07235, 1.07259, 1.0728, 1.0914, 1.07999, 1.07752, 1.0769, 1.07831, 1.08068, 1.08446, 1.09397, 1.09223, 1.07244, 1.07444, 1.07762, 1.07293, 1.07331, 1.07196, 1.07436, 1.0737, 1.0716, 1.06932, 1.06916, 1.06754, 1.06232, 1.06648, 1.06883, 1.06874, 1.06, 1.05754, 1.05262, 1.04364, 1.04731, 1.04776, 1.45394, 1.05585, 1.05665, 1.05685, 1.05389, 1.05248, 1.05174, 1.05665, 1.05328, 1.05145, 1.05494, 1.05335, 1.05305, 1.05205, 1.05219, 1.0389, 1.0383, 1.16795, 1.25442, 1.02934, 1.13332, 1.01995, 1.01847, 1.01832, 1.02557, 1.02671, 1.03408, 1.03991, 1.0435, 1.04561, 1.04451, 1.08742, 1.10066, 1.10109, 1.14209
1.31837, 1.31217, 1.31481, 1.3264, 1.30514, 1.29851, 1.299, 1.30211, 1.30258, 1.29102, 1.28472, 1.27613, 1.27257, 1.26766, 1.36087, 1.23246, 1.2737, 1.2634, 1.23384, 1.22925, 1.22771, 1.20997, 1.20982, 1.19367, 1.18564, 1.18617, 1.18196, 1.25735, 1.16835, 1.16709, 1.17064, 1.18791, 1.14092, 1.14238, 1.14386, 1.13876, 1.13911, 1.13781, 1.13349, 1.13096, 1.12857, 1.12772, 1.12781, 1.12984, 1.12448, 1.12379, 1.124, 1.1162, 1.11277, 1.10889, 1.10908, 1.14574, 1.09857, 1.09897, 1.09612, 1.0939, 1.09432, 1.0907, 1.08868, 1.08828, 1.08761, 1.08729, 1.20522, 1.20981, 1.13721, 1.13709, 1.1778, 1.1856, 1.10451, 1.0987, 1.09548, 1.09442, 1.09438, 1.10208, 1.08814, 1.09393, 1.09378, 1.08286, 1.07811, 1.07733, 1.08091, 1.08164, 1.08067, 1.07112, 1.0799, 1.08019, 1.07761, 1.0754, 1.07569, 1.07931, 1.07943, 1.0879, 1.09167, 1.19075, 1.07064, 1.07284, 1.0685, 1.07231, 1.07174, 1.28957, 1.07252, 1.07286, 1.06848, 1.06699, 1.22573, 1.06051, 1.05858, 1.05787, 1.16478, 1.05731, 1.05676, 1.04943, 1.04254, 1.04364, 1.04574, 1.04704, 1.04891, 1.05679, 1.05656, 1.05487, 1.05464, 1.0511, 1.05, 1.0497, 1.05292, 1.05365, 1.05438, 1.05251, 1.05191, 1.05137, 1.04013, 1.04972, 1.03575, 1.04373, 1.03037, 1.02617, 1.12954, 1.01826, 1.01809, 1.02022, 1.0271, 1.02946, 1.0425, 1.04225, 1.04499, 1.04368, 1.04656, 1.08768, 1.06318, 1.06431
1.32035, 1.31564, 1.31521, 1.31623, 1.3023, 1.29992, 1.29809, 1.2991, 1.29921, 1.28528, 1.27933, 1.27734, 1.27206, 1.27021, 1.36158, 1.23337, 1.26739, 1.24634, 1.23652, 1.23023, 1.22778, 1.20714, 1.20151, 1.19344, 1.1882, 1.1873, 1.18145, 1.1758, 1.16889, 1.16629, 1.17113, 1.1487, 1.14256, 1.1409, 1.14117, 1.14012, 1.13966, 1.13489, 1.13116, 1.13069, 1.12937, 1.12744, 1.1277, 1.12602, 1.1251, 1.12441, 1.12198, 1.11593, 1.11306, 1.11178, 1.10924, 1.11672, 1.10158, 1.10106, 1.10039, 1.09443, 1.09393, 1.08961, 1.08762, 1.08757, 1.08775, 1.08889, 1.21244, 1.20637, 1.12882, 1.15335, 1.13285, 1.12992, 1.1158, 1.12032, 1.09512, 1.09139, 1.09445, 1.09398, 1.08881, 1.09801, 1.08202, 1.08282, 1.08487, 1.08043, 1.08102, 1.08081, 1.08053, 1.07264, 1.0736, 1.08023, 1.08057, 1.07491, 1.0747, 1.0737, 1.08031, 1.08671, 1.08779, 1.17781, 1.06968, 1.07086, 1.0667, 1.0734, 1.07317, 1.2919, 1.07162, 1.07216, 1.07193, 1.06576, 1.05997, 1.05619, 1.05642, 1.05535, 1.05506, 1.05597, 1.05067, 1.0499, 1.04286, 1.04371, 1.04112, 1.04343, 1.04782, 1.05236, 1.05279, 1.05407, 1.05065, 1.05088, 1.04953, 1.0486, 1.04852, 1.05364, 1.0482, 1.04948, 1.05018, 1.04987, 1.04937, 1.15041, 1.04363, 1.03631, 1.03221, 1.03282, 1.12328, 1.12516, 1.01763, 1.02234, 1.02736, 1.03148, 1.04011, 1.04157, 1.04108, 1.04455, 1.07055, 1.08903, 1.06363, 1.06658
1.33133, 1.32314, 1.3089, 1.43973, 1.30034, 1.29971, 1.29709, 1.29537, 1.29584, 1.49692, 1.28417, 1.27613, 1.27249, 1.26714, 1.26151, 1.23358, 1.29899, 1.25126, 1.27466, 1.23224, 1.22821, 1.20456, 1.30214, 1.19493, 1.19083, 1.18777, 1.18111, 1.17093, 1.17013, 1.16732, 1.17389, 1.14758, 1.14744, 1.14006, 1.14111, 1.13967, 1.13912, 1.14626, 1.14302, 1.13063, 1.12917, 1.12819, 1.12764, 1.12669, 1.12564, 1.12275, 1.12181, 1.11368, 1.1132, 1.11406, 1.11465, 1.1153, 1.14475, 1.10366, 1.10177, 1.09865, 1.09402, 1.09186, 1.08715, 1.08701, 1.08733, 1.08755, 1.10466, 1.14099, 1.19791, 1.1585, 1.13136, 1.12105, 1.12105, 1.12995, 1.09476, 1.09062, 1.09424, 1.09173, 1.08804, 1.0979, 1.08116, 1.08424, 1.08407, 1.08495, 1.08428, 1.08082, 1.08025, 1.07488, 1.07682, 1.08118, 1.08164, 1.0817, 1.0743, 1.07456, 1.07695, 1.08459, 1.08477, 1.0888, 1.19071, 1.07098, 1.07394, 1.07041, 1.07178, 1.06312, 1.06764, 1.0715, 1.06797, 1.06662, 1.05956, 1.05602, 1.05464, 1.05453, 1.05467, 1.05364, 1.05117, 1.04972, 1.03936, 1.03589, 1.03609, 1.03577, 1.03635, 1.04557, 1.04732, 1.05273, 1.05236, 1.05379, 1.04932, 1.04979, 1.05001, 1.04937, 1.04903, 1.04782, 1.05018, 1.04831, 1.04977, 1.04575, 1.03866, 1.03567, 1.03408, 1.03219, 1.1459, 1.11767, 1.11524, 1.02493, 1.03009, 1.03737, 1.04144, 1.04201, 1.04274, 1.05202, 1.05279, 1.06208, 1.06409, 1.06695
1.33304, 1.3229, 1.36194, 1.29695, 1.29718, 1.3006, 1.29641, 1.29438, 1.29314, 1.59733, 1.28082, 1.27816, 1.27055, 1.26783, 1.35795, 1.23485, 1.30691, 1.24965, 1.29715, 1.22922, 1.22888, 1.28594, 1.19771, 1.1953, 1.19594, 1.18826, 1.1843, 1.17484, 1.16839, 1.16708, 1.16545, 1.17827, 1.14565, 1.1407, 1.13991, 1.13902, 1.13925, 1.17763, 1.12735, 1.13021, 1.13113, 1.12853, 1.12813, 1.12574, 1.12536, 1.12384, 1.12054, 1.11366, 1.11389, 1.11524, 1.11579, 1.11605, 1.13053, 1.10514, 1.10509, 1.09938, 1.09448, 1.09501, 1.08648, 1.08625, 1.0858, 1.08707, 1.09467, 1.0946, 1.17098, 1.15527, 1.12644, 1.1306, 1.12247, 1.12399, 1.09109, 1.09068, 1.09109, 1.09122, 1.08842, 1.0912, 1.11356, 1.08523, 1.08614, 1.085, 1.08534, 1.08388, 1.08269, 1.08118, 1.07817, 1.08149, 1.08214, 1.08178, 1.07418, 1.07372, 1.07678, 1.07538, 1.08059, 1.08659, 1.16851, 1.07383, 1.07475, 1.0695, 1.06962, 1.06786, 1.06881, 1.06908, 1.06986, 1.0596, 1.05372, 1.05168, 1.05257, 1.05371, 1.05279, 1.05264, 1.04926, 1.0493, 1.24041, 1.03619, 1.03424, 1.03439, 1.03612, 1.03767, 1.04634, 1.048, 1.05228, 1.05072, 1.04764, 1.05041, 1.04993, 1.05169, 1.05475, 1.05265, 1.0526, 1.0496, 1.0493, 1.05373, 1.03926, 1.03612, 1.03544, 1.03526, 1.06183, 1.08174, 1.08611, 1.09155, 1.09149, 1.03923, 1.04144, 1.04366, 1.04382, 1.05198, 1.05626, 1.05895, 1.0613, 1.06326
1.33013, 1.32612, 1.31878, 1.2952, 1.29601, 1.29981, 1.2954, 1.29206, 1.29136, 1.29092, 1.28721, 1.2771, 1.26903, 1.26835, 1.2664, 1.23362, 1.29216, 1.24931, 1.24437, 1.22884, 1.22869, 1.20248, 1.19769, 1.19507, 1.19522, 1.20013, 1.18054, 1.17444, 1.16766, 1.16686, 1.16744, 1.17158, 1.17964, 1.1442, 1.14349, 1.14286, 1.24262, 1.12694, 1.12672, 1.14386, 1.13027, 1.12683, 1.13015, 1.12959, 1.12553, 1.12429, 1.12198, 1.11941, 1.1137, 1.11619, 1.11675, 1.11838, 1.11985, 1.12308, 1.10683, 1.10226, 1.09782, 1.09398, 1.09107, 1.08838, 1.08729, 1.08757, 1.09105, 1.09436, 1.09399, 1.16717, 1.12111, 1.1327, 1.17078, 1.17125, 1.09106, 1.09101, 1.09067, 1.09086, 1.08994, 1.09137, 1.11291, 1.16458, 1.08644, 1.08574, 1.08546, 1.08558, 1.08398, 1.08143, 1.08057, 1.0814, 1.0838, 1.08215, 1.07161, 1.07409, 1.07491, 1.07639, 1.07417, 1.29604, 1.28796, 1.0735, 1.07267, 1.06773, 1.06769, 1.0673, 1.06687, 1.06754, 1.26347, 1.05855, 1.04941, 1.05104, 1.05051, 1.05308, 1.05233, 1.05265, 1.0511, 1.04288, 1.04672, 1.03331, 1.03384, 1.03299, 1.03415, 1.03863, 1.0478, 1.04895, 1.05188, 1.05399, 1.0508, 1.0504, 1.04507, 1.05566, 1.05623, 1.05302, 1.05288, 1.04974, 1.04986, 1.05239, 1.22653, 1.03646, 1.18136, 1.06964, 1.13714, 1.07385, 1.10658, 1.08956, 1.0927, 1.04082, 1.04242, 1.06957, 1.05432, 1.0534, 1.0562, 1.05706, 1.0571, 1.05949
