0.929602252671326,0.928491609537842,0.928832449087626,0.928800643509777,0.929676961141928,0.93065836406268,0.931710914899504,0.933312930604866,0.933597119763323,0.934411593783187,0.93533110865947,0.942531856268008,0.947164310718194,1.11958632212705,0.942284718402097,0.942920866501397,0.941628370274589,0.941654548056857,0.941205945025913,0.943014579873468,0.928138612615978,0.925277733347515,0.923785790860708,0.923714462405256,0.922944938639195,0.920589436821979,0.917852384949655,0.913317213885976,0.911734933240239,0.901504056414392,0.902299146294316,0.901582698485035,0.902427762981155,0.902478224858803,0.902409930970589,0.901742641605344,0.946364646970426,1.17806391649131,1.08112174785693,1.08231199674411,1.06917989914587,1.07158104480211,0.958482904149152,0.919315793637151,0.964490420939222,1.02978008897933,1.02017101417019,1.00117306412771,1.01097390642962,1.01409973473743,1.01194640019621,1.13678487751348,0.960008668063922,0.933658740011419,0.932317617397716,0.929251865289629,0.944632161451354,0.971641628363609,0.972287168550902,0.972687708856655,0.98774507652367,0.985791435926684,1.00373872751926,1.03795837866388,1.01613958565714,1.00050771371309,1.03763939949249,1.05623397804993,1.05459731506908,1.05520775369,1.05228977374155,1.04513697767919,1.05368094766474,1.05342647661691,1.05219926259518,1.05215560425005,1.05689804086744,1.05681318759383,1.06846896657777,1.07526467948747,1.07333466361527,1.07039341647516,1.08488720437864,1.09196198374163,1.09840445740231,1.10356932403732,1.10741503063921,1.10967836446704,1.11065919657001,1.11019300292073,1.10026581516174,1.09904269547201,1.09673153182473,1.06918085717176,1.0931538365334,1.09337478309454,1.11936458391624,1.17470417067889,1.14059058322777,1.14182625155572,1.13997059375943,1.17735289866607,1.13547067481397,1.13546777992144,1.13845900867287,1.13926999765734,1.16273803080175,1.17484113002094,1.16255180840063,1.16560354182202,1.15561977586922,1.15518409480228,1.1447019476259,1.14126623435203,1.13739725208918,1.16737325857025,1.12307324258558,1.1206968704684,1.12959879825338,1.14556047141621,1.13871929798298,1.14239117088162,1.13153869524657,1.10543583199711,1.10618224903676,1.10534755149385,1.11323244602377,1.11405589785742,1.14670083118388,1.16297545030239,1.15079484459899,1.15114907671938,1.14975243745651,1.1306584797401,1.1511253987206,1.15200960797813,1.1225599478994,1.09283485824931,1.08913007849895,1.08727800089172,1.08381954647257,1.10011681984017,1.08856258632671,1.04977174827978,1.04990317914226,1.05020843801914,1.05129190677595,1.04399223324292,1.05556806878299,1.04115311961604,1.04391780692743,1.00903446180398,1.02000631088404,1.02390598521905,1.0230608484748,1.02001515506134,1.02215380417021,1.00715660919328,1.00620791385521,0.968163596943943,0.969558088973167,0.972732705237707,0.969475895179606,0.965633966778835,0.952994776443765,0.943875936864415,0.944602614903082,0.937883203233987,0.948734143191657,0.973181369229291,0.960597308189355
0.939348870161665,0.928944409887083,0.929420425301673,0.929105420376799,0.930350829366183,0.930777204493082,0.932240183759628,0.933212161969531,0.934370436792473,0.934968986120525,0.93689037107398,0.940461752228712,0.940716369027767,0.940470939328019,0.941766224845359,0.941961517417688,0.941649087587873,0.940415778788316,0.941052391051864,0.9329933754568,0.932142398994224,0.929371708455212,0.925875349957987,0.92293753805579,0.923149265652601,0.921334471484037,0.925240808784455,1.13655223172418,0.968158622300862,1.11529529979115,0.903529996952046,0.901058569956625,0.902579161246843,0.903785482212295,0.903320224180214,0.903728550390713,0.962089810374241,1.14883265181074,1.08207101748613,1.08515224791584,1.0689575198915,1.07100458071037,0.988374921666381,0.920018383763683,0.983327186103225,0.991610070726661,1.02513453244008,1.0449380293872,1.01667214569826,1.02409083345262,1.00093294106737,0.988614852322863,0.955360406529412,0.93156432143189,0.931376235758558,0.931075080202287,0.950964919629633,0.977861203448998,0.971543780961472,0.963463273601426,0.98809215850966,1.0160090511319,1.01850748862444,1.06981936598016,1.06909952361606,1.06834364004095,1.05139481509429,1.03652481896321,1.06064502790176,1.06976973702357,1.06790254374494,1.10520731575428,1.05403137185076,1.05382207933255,1.05252780644967,1.05407835953696,1.05924272512117,1.06293543003406,1.07092134607995,1.07500681065899,1.07376194785839,1.07229605391086,1.09334068443364,1.13035342532556,1.10799273750545,1.10565282170944,1.10726715524674,1.10890771093252,1.11024808787681,1.11041966854925,1.10110232688489,1.0990510361727,1.09676662967275,1.09540438978084,1.11645896680276,1.13423255167284,1.13828186598808,1.16853079847783,1.13959436660257,1.13879822095227,1.13849272220851,1.13609816304962,1.1360640032225,1.13703307513402,1.13847489323485,1.13977807010689,1.15291886141245,1.16960001239771,1.1563823428204,1.15608946645372,1.15594189219546,1.15232238920928,1.14519975636606,1.12723138482018,1.11890466778759,1.10376216553627,1.12291283851531,1.14852057082556,1.1327514816074,1.13631294785073,1.13460742915705,1.13275753786162,1.12595268992947,1.09996467114999,1.10667231095852,1.11710747832723,1.11526006197337,1.11517553164408,1.14859035747486,1.15088152259608,1.15254315185358,1.15677421266209,1.15807923854122,1.15687024961224,1.1545236762928,1.15932210223406,1.12241376903038,1.0918185705675,1.08926711159954,1.08733040247676,1.08481658956125,1.10074936432926,1.09513928075921,1.11871066983502,1.06978608334974,1.05001347653874,1.05883808131157,1.07555819817454,1.05820675281799,1.02825178258279,1.04519528651568,1.04490829566746,1.04800361478584,1.13088258941127,1.05555897577968,1.0563207631689,1.03657347253608,1.02121339100558,1.01199653037178,0.993977832608156,0.982146010618807,0.977572296436903,0.973632307387388,0.965347544261938,0.953175202518587,0.945881249126754,0.945129315123844,0.935778610517378,0.948033673145736,0.949350617692807,0.951682174277974
0.95785511472466,0.957938517110168,0.937844232447283,0.930372701059334,0.930801943006283,0.931096293705053,0.93224538735519,0.933540712188357,0.934611516869009,0.936211294737761,0.937094724650824,0.938167177565494,0.939815752278312,0.940046210698343,0.940891330582978,0.941002562873032,0.940908014020075,0.940795928109913,0.939216781611808,0.93487261961697,0.935968306575399,0.935819797862348,0.93617619351221,0.935018361563675,0.932376676077904,0.932587146114154,0.928027041853116,0.916890112300869,0.916228100505903,0.916120015966967,0.919296298405645,1.05223967438137,0.952907460028442,0.909668442357941,0.959136125975323,1.01224899229179,0.979475898833707,0.922949361447642,1.03353149713762,1.00089955521565,1.05122962175031,1.18446864780833,1.0668658153898,1.06923389073333,1.04049791233169,1.04448794204016,1.02952597599389,1.03237401372675,0.99981649473373,0.966718822897804,0.982683277616482,0.943665599389485,0.950803453527016,0.932090912603984,0.931625283296805,0.93226328890034,0.955019785644749,0.978406753392154,0.971218707103876,0.972599534416901,0.988390989137804,0.983177105302387,1.02074214414269,1.07241053395637,1.06858917043948,1.0687606531504,1.0572671682813,1.04553339665383,1.0635940682153,1.08466436211029,1.06580106513812,1.05404421127888,1.05380007240802,1.05223392560214,1.05136237579211,1.06622998097157,1.06944596701475,1.08612860261716,1.08762454270858,1.08576945363655,1.08815981486791,1.08980433246196,1.10176694812725,1.11193759701614,1.11011197111777,1.16118035632993,1.13340711545443,1.17040339159588,1.11039051947416,1.11100314343082,1.1027024348234,1.10417280585785,1.10696632515658,1.1488089048866,1.14524447429262,1.14524719976064,1.14215891389203,1.12990971127415,1.13964980241006,1.13961442288829,1.13893653041357,1.13920638072261,1.13641512096725,1.14922539785629,1.13939074826451,1.14002816650342,1.14176509873118,1.14033662771191,1.153041686227,1.19158646574179,1.18018717280273,1.19658906355177,1.14552888910416,1.12196483449369,1.11492061825271,1.11400710917602,1.10245690739951,1.0981811644681,1.10120274160017,1.1071787667107,1.11554728512719,1.11467547411322,1.11491734417927,1.09977465542627,1.10826208840961,1.11790495195276,1.13887726845962,1.30795999864898,1.25863645826407,1.26565454033707,1.18250886487849,1.16052856307211,1.15984357303834,1.12764484961184,1.14429231821482,1.11016887235654,1.12286313275174,1.12473332969613,1.08922067510525,1.08832141500551,1.08757830559015,1.08726018033432,1.09000666896019,1.05770327208263,1.07533483270439,1.11122079786152,1.07029263754411,1.05202750582041,1.060295639479,1.08547265764662,1.04988626530257,1.01381758214835,1.05025188489357,1.05198101307079,1.05564775109404,1.05796306605089,1.05873927342324,1.05948052576812,1.02564565331114,1.02226930311544,1.01009825357797,1.00416258213672,0.978584635008647,0.957501080730803,0.95606308688233,0.959802178117276,0.953800576881388,0.937180311999478,0.954909604478893,0.958455902811787,0.954840759141015
0.958645900377112,0.958785259749827,0.945226139481793,0.931462808202032,0.941584106063463,0.970938919520414,0.950056962845016,0.933844807811442,0.934975789955326,0.935997309388812,0.937477934001326,0.93876043869669,0.940287835018084,0.940144640940359,0.94141271944665,0.94058413737313,0.9418316821498,0.940550504712112,0.940588729554211,0.940145938642423,0.938084768194488,0.936896865511117,0.936144889185659,0.934940294665315,0.931943032813514,1.09246154639734,0.929053125116259,0.91704021097286,0.916065262085803,0.91638982249982,0.917597429424125,0.914241291283639,0.981356956705622,1.14843326279594,1.0090145686763,1.10424031654426,1.00527339463295,1.08641945389352,1.04896916876624,1.16454727503607,1.03521438589907,0.99761645755701,1.05292564934694,1.05438658483268,1.03804900926268,1.03686046426946,0.999428305505454,0.97027302430841,0.98892969564318,1.01148936386547,0.995573985014882,1.0460606795524,1.0079285659976,1.01228300792627,0.99735122381101,1.03857290147672,0.96313314252252,0.963748568622023,0.960468820171245,0.956939607274212,0.992752463696155,0.991572242182218,1.02160434138068,1.06256431796117,1.05582957038625,1.04200568460388,1.06412590293422,1.07612253564112,1.06865780722707,1.06134485972089,1.06332080911638,1.05458015370608,1.05448609836228,1.04568571452877,1.04622641344014,1.04471588183908,1.07078240278779,1.07599193579728,1.09051040648401,1.08998584686805,1.09005599806873,1.14200721694782,1.10979473149097,1.10996798655023,1.1104509987385,1.11113573927987,1.11001989750941,1.10829465712608,1.1091092870051,1.10801080499521,1.10571950885866,1.10497842209286,1.10738242210734,1.15511671441957,1.15551605271588,1.15301463273398,1.1466642179034,1.13975784081764,1.13997190122693,1.14024090577686,1.13789522013015,1.14076458592261,1.13545801582574,1.12960840701711,1.14126810918958,1.14272528312668,1.14242624825973,1.14254456280479,1.15104946363441,1.19318937155592,1.17110894895494,1.14337207693072,1.1453304842276,1.11368415943404,1.1072812218401,1.10436997534055,1.09719508365998,1.0938589780125,1.09347916210989,1.09147022662707,1.11498193411893,1.11381614086603,1.11366535689472,1.10461463691163,1.10959010619678,1.10938992029163,1.15628527833312,1.26836809214877,1.25266578847172,1.227480349223,1.19929024972658,1.1822805855908,1.17323924833928,1.14603732978262,1.14758364586299,1.15071459622356,1.12139281315075,1.11728223287038,1.08967284588082,1.09137195690947,1.08895535900664,1.09808348418291,1.0941603397647,1.08856490930497,1.08774671026643,1.08749855361502,1.08337746239856,1.09879873991451,1.06323657152831,1.04679372550659,1.0542000574666,1.06542666901737,1.05400598483246,1.05104816013227,1.05592510833031,1.06039210690192,1.05917095432822,1.06713054815709,1.02798638579701,1.02252287198201,1.0123037382265,0.990676285272265,0.985295583394894,0.970756930190478,0.969519330947099,0.96842247356377,0.966012683679429,0.96476837202453,0.964520202242395,0.96460880299562,0.954382484936235
0.957143497692553,0.957859552495864,0.959556510739615,0.958763639712432,0.959858311624601,0.969171416864311,0.960098470501075,1.04759815770356,0.981539614296017,0.937039876104825,0.93765011844992,0.940170993952168,0.941101113545679,0.941489229681573,0.941927302501325,0.942182659791537,0.94245408253848,0.943455359329075,0.941698564598386,0.9409937097358,0.939977606587802,0.939653817898269,0.941753430439198,1.17890238188667,0.930577766802602,0.928327330895844,0.929289351786598,0.929582121735561,0.924555055289954,0.920608301809531,0.97432620115786,1.13418582956915,1.06197166628479,1.11325432274579,0.98491715126191,0.925347945486453,0.925785301781488,0.926389773163744,0.985102884018125,1.01059695461532,1.02500016330832,1.05824260127483,1.05481451272939,1.10256759040575,1.00181057783713,0.960523601580328,0.960365326214486,0.960755483655205,0.960366416035444,0.937923820380678,0.950010188311671,0.935644521651057,1.00546415836628,1.00542742613481,0.989327134870332,0.94341182964534,0.96030694127463,0.958278316065888,0.95874787944375,0.958443582713827,0.99462683997366,1.00032798784489,1.02133258005647,1.04998804930752,1.04848087771483,1.04692209581916,1.06921813089074,1.07525322388893,1.07588608571653,1.07580580862055,1.07552726686464,1.1028115547174,1.0660250895102,1.03905382892996,1.06008486605439,1.06792249909421,1.07429410582605,1.07706161874688,1.09219213604476,1.09143056215061,1.09151106459463,1.10828618977598,1.11068373662831,1.11020790100222,1.11023026023229,1.10942315624015,1.11037311604191,1.11014619316127,1.10917864552085,1.1072764496072,1.10739220428339,1.10664362140189,1.1107966388607,1.16139084313491,1.15636018147285,1.15682413426281,1.15449244523326,1.15413427139615,1.14714599369011,1.13235555305627,1.1331081839019,1.12217591429842,1.13110016314917,1.13839189312813,1.1411593328082,1.13971030412846,1.14531834777125,1.26586020801888,1.15005817355673,1.1425007833672,1.15828625881332,1.14363008128901,1.14631407871807,1.10007432173261,1.10150121890327,1.09307798002103,1.0935016117405,1.08901502543708,1.09546502561955,1.1045490136779,1.11449177035572,1.13750531639716,1.13643444997348,1.19352459935969,1.17136771981912,1.14322833893606,1.17031230025041,1.22004185771933,1.23245231128231,1.24088205884292,1.19989346469166,1.18129383670377,1.19692531592953,1.20224682850776,1.15361066617069,1.14885459613302,1.12401509894606,1.12480699016748,1.08755605384829,1.08610951301094,1.08768358062572,1.08653624700274,1.11075470170405,1.13723060330847,1.09366823670924,1.07671299783492,1.0750179062636,1.05251444206301,1.06753021449926,1.09239814349662,1.08316313054411,1.09156712812114,1.05663467924812,1.05415505078533,1.05561605853751,1.08382048827171,1.05782715127588,1.05090148393206,1.02854478438466,1.02082895293287,1.01578278874452,1.00237966855914,0.989781062374647,0.980006493368071,0.981648424277078,0.980895970393315,0.967469613686796,0.943732916551147,0.962480353715666,0.962093463053766,0.953406670412749
0.955253835826647,1.04488979074178,0.960302196982331,0.957177919025645,0.958019668126504,0.953315525553012,0.957344401282836,1.05390713242355,1.00960557880828,1.15461518614061,0.945115537954586,0.942693832936436,0.943031861761672,0.942957355331475,0.943727383118085,0.943534013106169,0.944099227925093,0.943341098418063,0.94330833521841,0.942181230454414,0.941896582946051,0.941248054325223,0.941759270790713,1.13473414675366,0.933284618696469,0.930299299717382,0.985393539631028,1.14959694610484,1.1267027916638,1.12708624832908,1.12071681486453,1.15547956626304,1.05851991916267,0.985012373134513,0.962500915314031,0.925573894691506,0.926002009290145,0.926050797862007,0.952340818306734,0.93434212283314,0.990159433415125,0.977783726887225,0.980475209299533,0.958802667195467,0.959080127550717,0.960152498850466,0.959993077345754,0.959494346688791,0.958511539645923,0.937737072397003,0.960156661655766,1.00539163457754,1.00327992574974,0.949614795114018,0.978088792108698,0.985036205487603,0.961691792817078,0.958248689098091,0.95830854798687,0.957860952972598,0.992670941646453,0.991591313032703,1.02196036108341,1.04538122913651,1.04986266934025,1.10603331159521,1.08973326408838,1.09556820065779,1.08280010485621,1.07181480115357,1.07656348352912,1.09664290534217,1.07021945917396,1.06754005736234,1.06781310628614,1.06841695055775,1.07784069478372,1.08623465528552,1.09325249914799,1.09328196049289,1.09198750679646,1.09016639736907,1.11450310105209,1.11978343050634,1.1130614756613,1.11014305304092,1.11158992971976,1.1103007541772,1.10996727444731,1.10870336955204,1.10940411526833,1.12312648839025,1.12295030727833,1.119951320429,1.12231060162221,1.12220334247376,1.16190340161348,1.19461337356953,1.15833829580597,1.1572956687194,1.14458677429655,1.10256106804996,1.10695042171531,1.11179544906259,1.1446937964133,1.15163784615212,1.15271458005652,1.15119800158672,1.15026022874186,1.140224401843,1.16638105754793,1.18254777044505,1.14914006875662,1.10333389354059,1.10298895062988,1.09485629119287,1.09422698024803,1.09240943679099,1.09962113682046,1.10175384460495,1.11339816360681,1.11136247686524,1.13606434289151,1.26889314694394,1.26636320562407,1.31300065252612,1.25759197711201,1.2208462005712,1.22915109357196,1.20452477117836,1.20212836077852,1.20274678246581,1.20033652485055,1.15827543719811,1.155719730687,1.11354221477617,1.11725034444432,1.08500764049547,1.08609713766842,1.08507795649201,1.10827381615781,1.11758094442411,1.13087909977295,1.13867796128519,1.10277941747943,1.07808389235811,1.07567771034551,1.10082478522225,1.0717057064051,1.07794044412024,1.07309538997319,1.06448691788556,1.05991903116067,1.10479468839582,1.05655204021908,1.05708623546753,1.0451586064934,1.03294563905761,1.03568712031743,1.03764394579433,1.02025838280451,1.00151241332578,0.994299561569669,0.982064773213378,0.983371981189953,0.967756935341112,0.968226851930009,0.956596231836626,0.958935706869358,0.955926300080718,0.951782255244926
0.949678440933042,0.946716325252153,0.945220995855266,0.944141692445575,0.943228507796982,0.942472891122751,0.943070550745282,0.942348277630669,0.984535292082906,1.14287400142048,0.945253401302586,0.944262694624718,0.944507978378952,0.945043937447268,0.945183525131738,0.946343236179091,0.945323643429445,0.945646674732797,0.944199527235777,0.943785651864447,0.942894473033592,0.942723970789861,0.941544483735633,0.94006676096121,0.938463109944382,1.15038715208353,1.13023462831173,1.15885835353366,1.12660014851905,1.12710555075496,1.11572769806195,1.03267791782773,1.05285341749712,0.931418243813307,0.932664660240065,0.926445375861547,0.92611609124472,0.925432362602204,0.960785901076586,0.994898141247673,0.997276206454943,1.02837025932367,0.981578761279797,0.958780495852884,0.958786434090391,0.95806232145572,0.959662048273152,0.958329478270568,0.955605550306309,0.952320052991157,0.973217067656576,0.995434773433269,0.995643697681207,0.967764726183328,0.97480330033916,0.971518914101047,0.96527670518299,0.958669758402564,0.967074853404246,0.985853068146721,0.997170928582116,0.997589886934869,1.02205440695005,1.04512858201531,1.05165253231339,1.10442977309127,1.08685554726802,1.07915894355032,1.08929574025432,1.09894673029718,1.07868057261409,1.06223399029905,1.07619825611088,1.08646179758135,1.08339175492325,1.08028893774691,1.09481902581822,1.110734037924,1.09973722906933,1.09004501443353,1.09165841581099,1.0909499304189,1.11740619024591,1.12772305375181,1.12531545984709,1.1599554238676,1.11398029965896,1.109970480716,1.11120244300688,1.10979864735426,1.11050976058066,1.10913734648406,1.12245051613639,1.12008154538238,1.12201964372152,1.12229585389927,1.16532149004713,1.18760579836457,1.15934626742897,1.14645254706846,1.14436860844238,1.103138811264,1.10352511607518,1.22913951091843,1.15147662706536,1.15249495721356,1.15324619654973,1.23196285486746,1.1665562996911,1.17710481574863,1.17100559490349,1.18171668870938,1.15133788103064,1.15346447704352,1.10438020043232,1.08594629067172,1.09663555793752,1.09998078551868,1.10196287647704,1.10082139090758,1.11408243114136,1.11379221721966,1.13667511435538,1.2524552351642,1.26768695268626,1.31093234600805,1.26383708987972,1.27342093818409,1.25985963029402,1.26073726949949,1.26656749057518,1.30064753679129,1.21236712167238,1.16419605556248,1.15654519419093,1.11430094862562,1.12058939510925,1.12682246466776,1.11049306058176,1.10409610427993,1.11769210484711,1.14107445045665,1.14697282113072,1.15244946582476,1.11351736036261,1.07280350976206,1.07400818046589,1.09025525204736,1.06737212226641,1.03635992259412,1.03590356405823,1.03459026473991,1.03397464599099,1.03345955421831,1.03358810473343,1.03381791122461,1.03601667161216,1.03523328038889,1.03361087112191,1.03572962530538,1.02423259318229,1.02171421695668,1.02013659203556,1.0324835204658,1.00038208542119,0.989453698797984,0.987339331647608,0.980944426130551,0.959857108599027,0.945704545471868,0.944829921759246
0.948138953249368,0.947253623934221,0.945689459956771,0.945144396148881,0.943924168025125,0.943955701981211,0.943885348000609,0.944535448276623,0.94557494247823,0.94637528515894,0.945969174103771,0.945205535662791,0.945592151310338,0.94570253676795,0.946004826356425,0.946430580020856,0.946097029039388,0.945954063162409,0.944792055891427,0.943682252767291,0.943583447620836,0.94271520379335,0.941817144583951,0.940861724768711,0.941343797465692,1.14014851133083,1.11825438898728,1.09033783443431,1.12245297852205,1.22613425993409,1.10647315967617,1.05892721326472,1.05750192915063,0.932769073624232,0.932224997706305,0.929909804917991,0.92984940915986,0.931265462893068,0.969671323440725,1.05687936797254,1.00349600184662,1.01517320519157,0.983143829227423,0.98133959074892,0.966594149021332,0.982453666804202,0.952267873890504,0.950314206844065,0.950295781192538,0.951603876759192,0.98587932771079,0.989983613470378,0.993716843900468,0.975581874705496,0.984332481442982,1.00268364502816,0.984998822644025,0.968670620790064,0.97240114296366,0.976756714812807,0.998917692689584,1.00310752470522,1.02356554629897,1.05160937311582,1.05222760494974,1.06441585788136,1.0828603347697,1.10636404689029,1.09381700948933,1.13533789341125,1.08060181420397,1.06086105029672,1.10387785569916,1.13852030268527,1.13187537856078,1.12812233842815,1.12702447093977,1.12681810534598,1.10563377417517,1.1029311561706,1.10160292449197,1.10219664702469,1.11935417709379,1.1197728256102,1.12097203709284,1.11567618380501,1.11692842810895,1.15375057703665,1.11431477922227,1.10110060877342,1.11289153991755,1.11581891559878,1.12515595397187,1.1723435836099,1.17274265175877,1.17238980865388,1.16556513965589,1.12620731701948,1.16031877424873,1.19675084613364,1.1575813732903,1.10141001141709,1.10150601675112,1.23028837901372,1.15253914037618,1.15285800102752,1.15469571849243,1.15532596271304,1.1603297453333,1.21860599519977,1.16915621563322,1.10519987060284,1.10885217464303,1.10543092264115,1.10464332292867,1.10285103908055,1.1049060582118,1.10696592198972,1.10631287836383,1.11496989119437,1.12493289936587,1.13475378952883,1.13810368803149,1.25141259146797,1.27296835042702,1.30958836644238,1.26488556993238,1.26958590789214,1.26380156113904,1.20254525910319,1.26774429756641,1.29965782709821,1.21490444026087,1.30494470062052,1.17608463911825,1.19027325805305,1.12322168006378,1.12590048597686,1.11311004231355,1.10124280183556,1.12921036925632,1.14034550498209,1.15056121775547,1.15381392539551,1.12427292752864,1.07220122164906,1.07306862340154,1.06585507720979,1.06352141705053,1.03896765662072,1.03639383403065,1.03529295951009,1.0341454212505,1.03382921547216,1.03349405663126,1.03335713601862,1.03606059862468,1.02626470280314,1.02771667188885,1.02662744053691,1.02507169274337,1.01844544452846,1.01821824714381,1.0080551956383,1.01392968133639,1.02202754922412,0.991637355743128,0.989080730182143,0.96018399870146,0.943022644728061,0.945610551762012
0.948880298169356,0.947704512372757,0.946793807846422,0.945083240292979,0.944868955268266,0.944089065694996,0.944573034077463,0.944699864085823,0.946111709357493,0.947184161887286,0.947189053488832,0.947149607339338,0.946755655352981,0.946116860085439,0.946412218342663,0.946086558173077,0.946145745992351,0.945926744772986,0.944216290343974,0.942179277243547,0.944302595924433,0.943078242461578,0.942228901408987,0.942349444278019,0.943184047198795,0.94255874222541,1.10877232201734,1.1105117070939,1.11757179023467,1.22016156092998,1.09437745416587,1.08892980753468,1.06045925547518,1.06493713542653,0.955203287161089,0.979118638338275,0.954645670705665,0.934655567231034,0.97864823954957,1.03582632375771,0.99921383190684,0.990377182258718,0.986696082183294,1.00249787034982,0.958416657712545,0.956672161119856,0.947653583088864,0.941266593480436,0.946715743829818,0.943573670170256,0.99296235937867,0.999404524019396,1.0124913422468,1.04369220817421,1.03807532463647,1.03017652714313,1.00717965251313,0.972537514681866,0.988552247457315,1.00471004356541,1.00393423211412,1.00346289466414,1.02634837774042,1.02905667785258,1.05322826001615,1.05312481962021,1.08158409514431,1.09817458719037,1.09004294536668,1.08141552204105,1.08372945752112,1.08802919220137,1.12709674772535,1.15503541535566,1.15477036240039,1.15404263122638,1.12627056964492,1.12615479023025,1.10841998993222,1.1035456930205,1.10196680957715,1.11351847374038,1.11948414463818,1.11985990535053,1.11888434711043,1.11610250218716,1.11788678260075,1.11844537401756,1.11692427659935,1.10367407337948,1.11723931644458,1.12211322606718,1.1305187076798,1.17313778939109,1.17325555149042,1.17317675322972,1.16766197760687,1.16310120226681,1.16139458152379,1.16310253215027,1.16109232476113,1.10087831998616,1.10058389466281,1.09474333844828,1.15485233253248,1.15830839317138,1.15709138940016,1.15782928651762,1.15777380944674,1.14514143620958,1.16376914387104,1.12080368721868,1.12255607853461,1.12261756513126,1.14188842223544,1.1606771582612,1.12692992144576,1.09152351902024,1.09373009784602,1.09136094828067,1.13304899955107,1.13785290249198,1.14059721776425,1.21154656820493,1.27500086817272,1.28125287826436,1.27260625233988,1.26944155312681,1.26790152145557,1.27045560548424,1.2694560133239,1.30081986700558,1.20207404137569,1.11708093180288,1.12552922178049,1.12499110427982,1.12255903728897,1.11987830613784,1.11993366280819,1.11728884849102,1.13805386208454,1.15509377104853,1.15045366260737,1.15937589527915,1.13250972675904,1.06759727804817,1.07192492230936,1.05972551783571,1.05769286047486,1.03283321387961,1.03458056941225,1.03555069173892,1.03416829486009,1.03367967386476,1.03287590510564,1.03065207625009,1.0353613899048,1.10786735326834,1.03885348442625,1.03640963891999,1.03533940574158,1.06216054866636,1.04289467832811,1.0515660034763,1.0240411430874,0.993324797666047,0.992555422207139,0.950977907320011,0.961278662892757,0.962137562573256,0.946580279967685
0.949385578414999,0.94954237783851,0.947545728737252,0.946500546954392,0.945301213380392,0.944799555737385,0.944575521351194,0.94493250003427,0.946266915928193,0.948229098163312,0.9478570678128,0.94796865966733,0.947546090519876,0.947502207654599,0.94691187043737,0.946653761504417,0.946210864981648,0.945852471401265,0.943807026894008,0.941392415708377,0.948391156979215,1.11384772599109,0.950334219157043,0.948254852624687,0.944899245899133,0.944229708578365,1.09773464574686,1.10038289210513,1.11472601637959,1.22003810956762,1.08483759312892,1.05460181462079,1.05799231388612,0.93698870449954,0.944387860804657,0.936665301630479,0.978599975478949,1.0058908783725,0.98535264445797,0.954285170827714,0.957600871092733,0.955747398657884,0.975636739928668,1.00238053429907,0.952324164229564,0.937249411241408,0.942967979827957,0.952985145094314,0.956674877643318,1.00907404936686,1.01887092734061,1.02133221185354,1.02332074305321,1.04193069316893,1.05070518210287,1.07679336519859,1.03002457577544,0.99111184215194,0.997154619083296,1.00290398436901,1.00344322858082,1.00301235052831,1.04071450626761,1.05391310767064,1.05339519821473,1.0532532160026,1.07939616762269,1.08316718154,1.0870143145942,1.13623025556799,1.12427362488134,1.18423981332674,1.18216982297559,1.18410476616913,1.1666327436345,1.31629264523171,1.12548025985078,1.11651757697231,1.11157700839761,1.10323730715891,1.10298928840206,1.09940621727725,1.1240449136953,1.12634022288699,1.12352507328503,1.12109544405766,1.12016186608836,1.1207816913569,1.11940693461213,1.11265674595526,1.11863927135321,1.14979939758531,1.13769644377844,1.13035403711965,1.17356809969779,1.17533727592669,1.1716552952613,1.17051811505887,1.17502699856529,1.17464812266325,1.16157257240456,1.14857627665247,1.14158936939435,1.12343182020476,1.15559165121472,1.15771353926665,1.15789811487994,1.15771155932464,1.15751164977274,1.26178459845085,1.18290939756904,1.31153633131722,1.16948265341579,1.31198438987438,1.1470138016408,1.15937889590786,1.15950034975085,1.16001910099993,1.14836049833117,1.13781209314904,1.14272105243313,1.14885271668437,1.14477508305654,1.14049375523698,1.27535247523801,1.27800740780402,1.27735009213349,1.27808834649534,1.27054058798227,1.32244483388197,1.21231214066077,1.17558067746052,1.17342957153299,1.11615542356027,1.12503822868693,1.12322448676574,1.12116195035753,1.11913842874517,1.12910438497496,1.1761330253588,1.14273327685521,1.13627032450836,1.14862939807178,1.16070069850167,1.14749310795416,1.16381162054972,1.07421330880361,1.05879912403019,1.04874639920603,1.03317872452118,1.03342074447389,1.03442310973544,1.04099334554358,1.04876019781411,1.04870027820237,1.04710041027068,1.03952095766583,1.02628873504891,1.03871413395005,1.03771949691003,1.03490892178913,1.0334450397773,1.03731991659643,1.03313721964927,1.03491512369733,1.03792348869493,0.994699616757221,0.982507608410145,0.962651290180736,0.962296202501591,0.945656916475778
0.950234519187097,0.94938989398846,0.948373959527519,0.946892383773038,0.946014725231816,0.944770354224489,0.944860880045151,0.944731670195452,0.946267160809403,0.947663535575946,0.948051592546232,1.00955977947505,0.948162242130294,0.947521613057201,0.947492878433961,0.946391660789531,0.94626666364977,0.945880713423652,0.943050245706643,0.941005535208325,0.950568480994389,0.953654048369629,0.951441476259957,0.949989127533049,0.951838866456814,1.08401881676309,1.09664589938056,1.12252919154078,1.11162263697459,1.06921614460999,1.07666096960376,1.21930520062765,1.06069324363615,1.06517716138725,1.04953583179952,1.05634475813528,0.992182410587862,0.985732331262046,0.993375645794806,0.997842084776372,0.961343210216837,0.944045702049665,0.949189269357667,0.943351745865824,0.935006746231448,0.931271067970209,0.93709192739681,0.925816565414569,0.96211064853689,1.0224682326625,1.02551269418711,1.02717217030752,1.02578683346383,1.01701206011241,1.05846765671322,1.07773230407876,1.05953798353512,1.04669514657346,1.04090113092288,1.03287535513114,1.02837857313144,1.02428674523575,1.04569981481524,1.05168085659683,1.05277670923799,1.05307432077455,1.07377327362111,1.06568138671459,1.07973968424861,1.09048011539656,1.12179338023257,1.15823661077809,1.17454127345852,1.18628205168605,1.15481562824643,1.13729160412624,1.12563342680327,1.1206370965782,1.11995077322287,1.15691421730265,1.1110760124232,1.10044130855522,1.12630217428698,1.12820745449644,1.12651028210666,1.16875657591574,1.16132628877738,1.16309806705884,1.12678971610596,1.11248421568277,1.1210567134027,1.13797466857983,1.14095427548654,1.29173271691986,1.17348273162387,1.16800299334833,1.17235425337362,1.17817629582698,1.17615006658829,1.1739822577768,1.17023684731511,1.16211071203694,1.1595123002436,1.18736749512612,1.1706653248922,1.21440240604203,1.15868987707505,1.15853381690906,1.15664866167462,1.15428753983297,1.15525313303754,1.15517055620713,1.14956007151049,1.12681775384074,1.13968148468604,1.15999208671387,1.15935570299092,1.15915254404018,1.15042573572716,1.1590024235626,1.14821827705306,1.21445068338061,1.21121870914122,1.27286242962346,1.27330419146125,1.27319948565476,1.27632748934371,1.27720541168649,1.22747520385879,1.19135861425701,1.18687679048254,1.16970973431524,1.17187583705788,1.1741014006005,1.15242512057352,1.11497745985408,1.11872145735014,1.11041410824059,1.14180345529586,1.15744924189951,1.15151113846043,1.14768350297857,1.14827832232567,1.17254794590818,1.14595849551446,1.08011180130695,1.07681858035237,1.05741779736159,1.03961079157066,1.03228627833324,1.04127336581646,1.04847689485177,1.05060129378124,1.09458089841052,1.05873272551505,1.05760064670967,1.0618289276759,1.07139276221064,1.03958970269956,1.036505214956,1.04030359779779,1.05239040565655,1.05162407313171,1.0535501921019,1.04499006280031,1.01810452899709,0.996705185968607,0.984311125993928,0.962918587132364,0.963290983640367,0.945295977782133
0.950829195369713,0.949796171441964,0.948974463422122,0.947798620472712,0.946463730325084,0.944705572909451,0.944743630792201,0.944261223924558,0.945858937405597,0.947236677258654,0.948166610491469,0.949536107085712,0.948901645873708,0.949175173315849,0.948234666394444,0.946164687478913,0.945562583396583,0.937030830514037,0.941560753798386,1.11098704322409,0.951703247711779,0.951497946299819,0.951260837305774,0.951532083817918,0.951989794176772,1.00407383499948,1.04661799581872,1.09513349900779,1.10820097856567,1.11964982524482,1.03374403560303,0.964004026642005,1.0204493630487,1.05917854714772,1.043023059516,0.976022377548842,0.995336416398273,1.0028401477537,0.996393163542154,1.2149797122489,0.965988696367581,0.943196236354168,0.959246558149914,0.990702587540136,0.931718295556032,0.919655975776136,0.944202226742473,0.967590391267547,0.969287142419862,1.00131699841077,1.03159188886212,1.06269791091806,1.05998400355941,1.08606018046643,1.06370329308583,1.06286288658299,1.06092785264631,1.09147388154573,1.05662340212918,1.0296879353546,1.05368983906402,1.08008362658172,1.06093920716387,1.06035173118264,1.06404184521657,1.09554130627156,1.08371636370011,1.06734776412424,1.07100577492306,1.06583711329731,1.11354901037988,1.11305160492849,1.13123776022247,1.1326522899504,1.13205100706169,1.12648705672414,1.12679693094482,1.1211352360248,1.12070280104685,1.10548833168107,1.11632615844569,1.13947193112276,1.13043887689176,1.13967780170388,1.12481069492065,1.11279393298879,1.15503958713855,1.18012857162302,1.13290055990112,1.1186515686711,1.12649785783299,1.13077474962014,1.14088851077204,1.29075617903887,1.17494527698611,1.17621402573061,1.17556535169822,1.17487924159042,1.17645471995533,1.17849201790623,1.17851088523469,1.17919293108753,1.15868954191909,1.14970578855547,1.15107554781219,1.15099229779209,1.15445980817067,1.15844712763878,1.15599013547198,1.15364432282425,1.15647468231097,1.15684449706255,1.14434390480318,1.12139701431939,1.1179094013118,1.11263871593139,1.14681597476937,1.16486624940894,1.14486926487156,1.13953456819841,1.14327937499103,1.2084663430233,1.20941838213439,1.20972922418361,1.20503782074733,1.12983979838731,1.22250144152859,1.27654050520894,1.21923467903224,1.19527143269042,1.18344134841264,1.17411420323875,1.17153766030412,1.1738076503112,1.17439332889069,1.2018281943195,1.15064186418214,1.11265629824995,1.14974366447796,1.15634590088397,1.15215795059883,1.13375937161193,1.14443035366317,1.16834361500547,1.14307470164002,1.08884750945965,1.07853717751332,1.02395524327962,1.03171101006691,1.02179962419419,1.04508920453928,1.04667721106531,1.05242991832425,1.05265317822088,1.06013127053584,1.09797388267809,1.06503154429957,1.07130269838428,1.04740041824841,1.03534123032836,1.04609185022968,1.05072726865698,1.05095868048734,1.05229482323091,1.04751184702494,1.10466117988482,0.998285507949867,0.961143896179609,0.962430466604366,0.962218291666811,0.946071215090143
0.951622007847216,0.950331292553335,0.949556684562365,0.948931175002938,0.947168320995492,0.94575218811431,0.944908531690781,0.944519682446391,0.945310865088697,0.945873010806104,0.947599777059507,0.949320272659461,0.949065613741895,0.949127359868551,0.949627233447247,0.95163075749913,0.942333542278079,0.937903269618299,0.939756531795135,1.18329717661593,0.952067400140586,0.94982295167365,0.950262075879082,0.95028312935197,0.951276245136741,1.11884530220559,1.03125580581278,1.00119510818889,1.00281205621322,0.972827070121941,1.00002315570768,0.963745388609025,0.999836732705984,0.964475628827305,1.03804717931104,1.11576059136974,1.05234281696956,1.1396197095386,0.980271223332639,0.97978655248796,0.971899266419608,0.981286705633589,0.970943835556724,0.976373410625027,0.932093823768623,0.919472019849546,0.951890025668316,0.979366918670304,0.979349524053391,0.991455298462102,1.03362590899209,1.04954594563484,1.05863569371661,1.08370471240323,1.06518380184008,1.0631129070037,1.06128362354091,1.060919145141,1.07174491918884,1.08068526296625,1.06986694367693,1.05142214337955,1.06199766760115,1.0647423620099,1.06750926941027,1.10930369151201,1.09649997410405,1.10987323645508,1.07641710040529,1.06676940323458,1.116315926611,1.11506982385235,1.12980759768578,1.13119069548735,1.13204562318797,1.1253635654195,1.1272050512526,1.12747569381937,1.12759256740371,1.1397977164312,1.11707445571134,1.11300944609872,1.12181838541365,1.12267616554875,1.12388137792454,1.12434895975187,1.14730737197169,1.15397133433029,1.13872860132752,1.12636442134184,1.12953664532155,1.13705155194989,1.14339655318764,1.17680362319644,1.17590905371888,1.17565418612553,1.17727835190154,1.17527192560708,1.17591886676529,1.17508832839912,1.17730042732393,1.1815457328803,1.15977396197563,1.16300958835663,1.14546610117805,1.13110970195582,1.13162174125038,1.13340421661038,1.1489468633875,1.16303004365495,1.16011705428066,1.17315112636127,1.13636851555081,1.11222811495963,1.1151565915822,1.11404053734256,1.13675769065427,1.1667966493531,1.14157105261762,1.14001753312822,1.1424764697588,1.16235301306296,1.18740489090046,1.20991652818202,1.20687799531873,1.29183037131283,1.20438728221465,1.18000634148417,1.18049315742834,1.17982280555392,1.18262138788679,1.18674082770908,1.17871689039918,1.19945475400385,1.17650736490629,1.18013938765251,1.17976460642813,1.18796010340798,1.17873409365207,1.15717104979537,1.15428846669593,1.14867266616999,1.14281973726626,1.13134497788934,1.12749458640008,1.08433714138873,1.07956829584242,1.05352019430275,1.04881271751939,1.042171094404,1.0469888791854,1.05263250225457,1.0523360708243,1.05756424883856,1.0591302735858,1.05943088565411,1.0594806845662,1.05519752443882,1.05427041814802,1.05436707771657,1.05151415602906,1.04894037448814,1.0564421837696,1.06836716015589,1.04382013324148,1.02726225994277,0.998622852262737,0.987272169600435,0.980156180577551,0.949686227486709,0.947690664820778
0.952860529892485,0.952106796038762,0.951257751096838,0.949325187713742,0.948765484614204,0.94525921306844,0.945322176151494,0.944448564224668,0.945659494427202,0.945649261866824,0.947141963358176,0.948415648169091,0.948379859049308,0.94922467814384,0.950623235092332,0.952528273944213,0.940110609273079,0.939140640242031,0.939905970805764,1.18974157689117,0.952101400932287,0.948544731738747,0.948876582726697,0.949546496675756,0.950604629331814,0.996027722732965,0.999035365747406,0.999359850951293,1.00220030914704,1.06236186138598,1.01677185404673,1.0408689735399,1.02077160473128,1.02643997902399,1.03556338303597,1.06192272975975,1.02402243776196,0.987758561567398,0.979906514657041,0.970428099875909,0.96598487238618,0.932217150798516,0.932735643665306,0.932229683011078,0.931138205547515,0.921178965786,0.957590834048994,0.964528356941094,0.980614495985754,0.979625530879361,1.03685050680639,1.0574726533105,1.05810165329344,1.05669188072119,1.06680848492243,1.07773741417055,1.07938432156937,1.09612119742507,1.09232890002222,1.08648852908274,1.07363389528962,1.05953457579794,1.06871587251761,1.08032534720708,1.07858333343352,1.07678704500254,1.08934453947874,1.08549961418226,1.08151422644656,1.06900820025451,1.1198340237721,1.12587937998819,1.1266960142647,1.15442272197418,1.14420676247519,1.15604001851734,1.12867159577301,1.12746577131954,1.12934071624729,1.13938260493302,1.12206304274099,1.1219191736875,1.1225914457608,1.12223539742503,1.12441788500123,1.12514076145171,1.13096735785336,1.13518295974964,1.14123971786483,1.18401868352117,1.17158979270502,1.14984828325279,1.14837569225321,1.15195308456675,1.16810661254858,1.18164749981873,1.1798745362645,1.18113377353979,1.17487494657763,1.17466996059487,1.17084226023988,1.16026389548246,1.15939015837837,1.12706623440188,1.12705715990167,1.12776715031083,1.12992693904393,1.13945675017266,1.14323354272613,1.14864582047288,1.13818960589435,1.12348223039796,1.12376866778154,1.11066195705309,1.11652776177977,1.11709777490976,1.12267139570532,1.12421090415233,1.12941992123607,1.13918182999439,1.13579659833365,1.1301849715983,1.17294106735289,1.21576664994952,1.2102430923133,1.22603730605131,1.19512752637756,1.18080109281234,1.17327733644472,1.15132674051814,1.14015639271141,1.131218756234,1.16131112389995,1.16491176803339,1.16369690092031,1.16127587751027,1.1796051692097,1.17808819132265,1.20830157833316,1.26663428022479,1.17661919191687,1.12776632707793,1.14201794409694,1.14085817370772,1.12806000072905,1.08381243575013,1.08103051964352,1.07045590486714,1.06494967330616,1.05994818080346,1.05469314895228,1.04816339290494,1.05275309904784,1.0517608115328,1.05908096823041,1.06147804137723,1.06196564720072,1.06573713297379,1.06631686466695,1.06402974289949,1.05450164748639,1.07403075842208,1.06023735777421,1.0677972238345,1.04013723986048,1.0269549195065,0.99962518968203,0.984677332708635,0.991799179377749,0.995394625365262,0.958238984466281
0.953436744330848,0.954010409334276,0.952119014126775,0.952732398460128,0.951536914974783,0.943926240392673,0.945552911318315,0.946285392526973,0.945691411336994,0.946182089357198,0.946254210324035,0.946574695373303,0.947195660703219,0.947446193675358,0.946895738933838,0.939612147885943,0.939608937969801,0.939138292517933,0.940159835650279,0.940161666177061,0.942232121317103,0.945244206790805,0.946864224972451,0.94846542474394,0.950169309163116,1.07813228907888,1.00089180982579,1.00176008969739,0.988543872838137,0.954805371580133,0.987793854737004,0.957531050199542,1.01428344927566,1.00550430806967,1.00087932565247,0.986059737280126,0.986908736507482,0.987924005771562,0.975575102312297,0.970549402976887,0.957186621777726,0.933087664676806,0.933523659298693,0.925487377930327,0.92768152499047,0.926586485257305,0.962120728357424,1.00386435186357,0.997814160158019,0.991393074745044,1.04248540670433,1.07781414101772,1.07188462878444,1.072815071357,1.07095847633787,1.07658052354568,1.0806053444342,1.10475166685233,1.10537796428346,1.17520593356992,1.10588810159547,1.10560656761427,1.10234880365816,1.10966477918824,1.077842092162,1.0749933138552,1.09070786515645,1.09152949656154,1.08582432495991,1.08159566267586,1.12045366312524,1.12271949932073,1.12436229969717,1.09716538625987,1.13713891562553,1.12044881893982,1.13128060319683,1.13328154682809,1.13269728933639,1.13411757213002,1.1251738950196,1.12194357055768,1.12407468801103,1.12837587364737,1.12623371097132,1.12648630065744,1.12761835780603,1.15072480296987,1.15276096221419,1.22531907269778,1.17596150952383,1.18995536027667,1.15662735073702,1.1386257295121,1.14867373812218,1.13829492267341,1.13943163954928,1.14325557825234,1.16405370839404,1.19316396914765,1.16466169544938,1.15990391287864,1.15912807390884,1.2100424516094,1.12608906605697,1.11801876981475,1.12729958678104,1.1387466645202,1.1381492009793,1.13712686420637,1.13232305020972,1.12673751422622,1.12565997284545,1.12946421693129,1.12262200235953,1.11894678633774,1.12058051368857,1.12119892327694,1.12663034613481,1.16832204928225,1.13381650657484,1.13091274804965,1.16649584139377,1.21513094060803,1.21228652144438,1.22383400759544,1.17674419346085,1.15776639540686,1.15119070822071,1.12973244786559,1.13251649443716,1.13108312874078,1.15910669383959,1.16286476209144,1.16427523695196,1.16811420923919,1.17941037602114,1.26573045576172,1.26556911099898,1.26546892318663,1.25894947162495,1.3897555788948,1.14111239212758,1.14017117626198,1.12779861126027,1.12241408103698,1.10700646675624,1.10087898613172,1.07480462974427,1.05976915375269,1.05925278309571,1.0564092428881,1.05394781727775,1.05374743163547,1.0587812746082,1.05934416726043,1.0614450574659,1.06552992689211,1.0658106594917,1.06540913704786,1.05092975847436,1.04512250740829,1.05642022240755,1.06813053647854,1.03702153617048,1.02626171300661,1.00241356126298,1.00481733877693,0.997378456161851,0.978774555769474,0.969374170545802
0.954966322772496,0.953763099674456,0.953390395841695,0.951614883364415,0.952517509740007,0.9521953467335,0.948199745782654,0.945884458742641,0.946510401143548,0.945377791713854,0.945831067325525,0.945595866781514,0.945823749200003,0.948280584396304,0.944023328591353,0.939290343025854,0.939199731315437,0.940118612963027,0.939497674132968,0.940195498390949,0.941139045993357,0.944769081527498,0.943783736285268,0.943681344395816,0.94302792311792,0.943322091109029,0.943714282053394,0.944520917060273,0.974391679888469,0.953242899268852,0.989182263476124,1.0316552911658,1.01651954589332,1.12959870757746,0.998712833373743,0.987657763334364,0.978727668190902,0.952397596200036,0.952880404525961,0.952706257745562,0.953243057766801,0.933825249144158,0.933324209789878,0.933349019036473,0.931775908400101,0.976015748537728,0.968124547202928,1.00353013310646,1.0059562784499,1.00905345978715,1.04757375454795,1.05902002639004,1.07139602084321,1.06702978559361,1.07512868515231,1.08942299448715,1.08805609057,1.08625160697803,1.10376417780395,1.10226169208731,1.10521745522216,1.09499194656256,1.09933082107003,1.0754400756217,1.07760048507728,1.07739396393456,1.09050060363271,1.09052973473919,1.09335288503137,1.09435467008359,1.11816222515814,1.13944265780463,1.1279605661117,1.17649271913201,1.15030553246044,1.14218762868635,1.15319467026658,1.16316645458471,1.14928414904222,1.15398305889098,1.12979956828967,1.12206501166053,1.12416939530521,1.12622552987291,1.12556003197918,1.12480778143428,1.1258655124985,1.15224414103875,1.15105169333589,1.16571356300882,1.16588026444071,1.1660968783303,1.16574680780451,1.16252933806361,1.16214891533193,1.16127120908315,1.1361240644506,1.11178887703286,1.15081353786304,1.19300341310042,1.16024228753431,1.1586178398189,1.15108120180248,1.1250160378199,1.12545087988344,1.11857144209465,1.11751188832414,1.1094305547506,1.12524713891739,1.13294428205589,1.1312967776008,1.10091439409415,1.12444255796779,1.14470479755951,1.12780783934168,1.11256458684752,1.11902426051917,1.1206914684211,1.12350622171021,1.11609846624814,1.12387517646062,1.11632229368224,1.14709869476398,1.15173922728995,1.1759269807598,1.22426178770118,1.15930648801811,1.12785776809117,1.12826917716952,1.12816881388216,1.13439019444813,1.13817585784293,1.17376881417173,1.18695983570955,1.15832494412702,1.15755043893035,1.17973256486013,1.2645009850342,1.26469753532986,1.26337588347279,1.25824831253048,1.38892264952571,1.13895333364606,1.13784247098416,1.12470524247175,1.10930324107451,1.10789036232594,1.11935300987252,1.08355589374502,1.07972995643805,1.0685373595696,1.06342547181907,1.05837872143169,1.04478812712084,1.05837134912656,1.05915196995104,1.05963503239542,1.07584912735882,1.05287217007771,1.04678286057383,1.04550437798029,1.04535819093007,1.05121255960247,1.07105096931376,1.03406844239953,1.00925391651876,1.0054257879099,1.00340834099747,1.00142742378251,0.972749232177869,0.967274430792501
0.956079165016623,0.95487556626404,0.953276669958672,0.954042714371293,0.9522257033201,0.952877043524894,0.949565499122347,0.948916531701002,0.946628777615323,0.946162562081393,0.945055998624661,0.944502795503344,0.944245152786793,0.94272757377617,0.9421961467734,0.937393624918967,0.939075883865308,0.938164688748642,0.938955295212324,0.937358212649246,0.939749905090767,0.93930182286001,0.941583462818141,0.941755364303045,0.94177479187953,0.941098461130976,0.942802238925927,1.06038204838319,1.00310926894076,0.987437070878535,0.991499353641385,1.07990671020995,1.00531211863739,0.995117938696996,0.995832248123818,0.994581316067221,0.976088256784283,0.973201104053824,0.953416657854601,0.955084062440447,0.952454904907135,0.917341126720593,0.931906912542247,0.929683508331709,0.930389822666649,0.929286554114287,0.964454125884415,0.96761605676225,1.01410694829044,1.04978514410829,1.05352961752462,1.07253441907809,1.07214264811756,1.06522771513913,1.07669613670814,1.11842234698113,1.08536845446037,1.08598338845685,1.10136309991834,1.10223851448474,1.10474199330805,1.22942098420664,1.11514180093823,1.1174284503971,1.11860847078971,1.11962217590421,1.10953044843004,1.09458591268722,1.09362565713367,1.09099058570107,1.11465685839491,1.11868007005263,1.11867155309524,1.12235969470941,1.15371555920018,1.15686572892484,1.15503991227053,1.19983532502688,1.14685744807101,1.13746139695094,1.13307411864489,1.12226893882754,1.12346365829237,1.12525993218074,1.12514948860304,1.12124171591163,1.1250705038347,1.15407564721625,1.14632356789527,1.1436581230341,1.15859433237051,1.26823836497612,1.18937555851766,1.21108300010739,1.16281599044379,1.16165785211718,1.13367828213268,1.11389749092111,1.12884976244397,1.12888008739242,1.12899891449284,1.12858155960422,1.12853838712932,1.12559442810106,1.12560422315373,1.11822903966944,1.11732078566511,1.10927070616607,1.11843466298924,1.10194939883503,1.12986729058726,1.12774931902612,1.12510645362929,1.14252115681909,1.13210894466114,1.1149080904356,1.11521202811539,1.11283976134613,1.14816333186699,1.17701582747816,1.17582780535853,1.17674915502501,1.14421973700067,1.12086534496374,1.14058278350148,1.15428097122559,1.14181897714764,1.12812541451193,1.12723530139595,1.12640139988908,1.14415130168325,1.17738323209219,1.17402931006759,1.14236766958528,1.1552121960215,1.15478288457813,1.18130870817398,1.18350112050223,1.18311652927658,1.17968261531301,1.1783371832689,1.13673048965321,1.13635205218874,1.13608055559551,1.12149663140518,1.1074248827681,1.10667949130197,1.08981729163028,1.09064733233492,1.09021733469977,1.07142676006914,1.07130719368624,1.06733954594307,1.0629347895832,1.06285247317128,1.0988027700223,1.0582770503891,1.05879362714547,1.04833181258137,1.02147061876941,1.04613582669484,1.04580788812683,1.04515057485654,1.02661816472531,1.02703687515457,1.03252903795905,1.02327559895253,1.01883750343084,1.00601012381561,0.961485093841051,0.963943720016668
0.958967341614727,0.954033824037185,0.95417292160112,0.953064816408999,0.953490016299578,0.951523055516653,0.951034174752332,0.948554993292506,0.947609237695292,0.945250642925856,0.944856384535973,0.94327250392938,0.942935026288483,0.942023733576037,0.940433435177522,0.939210100860995,0.938403288623566,0.938980274741954,0.937668493135696,0.937845414044332,0.937748770972305,0.938461698959567,0.939153305961878,0.940001928915196,0.939938805363473,0.941114707240541,0.942389260030641,0.941680870094255,1.01753628828645,1.05143592943115,1.00989062889248,1.00757367324245,0.999221342660911,0.995723139260499,0.996490287849402,1.04770499591951,0.965228637961845,0.961287074066328,0.953185669266169,0.955094727543068,0.950844699489208,0.9168690033759,0.937359616364939,0.984473839320485,0.970226291304777,0.954722065521538,0.960196350673507,0.955466483091755,1.02230178419073,1.04195104389881,1.05887764307247,1.07351665003567,1.07369028784934,1.05371388568575,1.07619744842283,1.07763006774481,1.08037189905773,1.07835715528911,1.09844504587929,1.10403162121801,1.10673800469142,1.0859186876313,1.11335275402661,1.13050749701139,1.12989822910168,1.13037655239526,1.11881053173941,1.10056005173754,1.10337281772736,1.12694370374011,1.11205838284988,1.11169811800376,1.11444071817797,1.1668525544181,1.15376036143083,1.15575723581204,1.15514476398217,1.16744574535246,1.14644428079683,1.13759131088987,1.13514259264578,1.12797840819206,1.13047945610374,1.17700087486461,1.12816708682189,1.12309730900158,1.12380431854077,1.12194405590766,1.14437529406227,1.142566715526,1.15098903909416,1.16182415506475,1.14821617506167,1.13469855287838,1.13019416020915,1.11268680621032,1.1340897286093,1.14468418610468,1.13022040000078,1.13042693720714,1.13013508118581,1.13000802191775,1.13157743266846,1.15442812578061,1.13957774416303,1.12802497077567,1.12706703278808,1.15043197592703,1.12317994473536,1.12719137571951,1.12934010388521,1.11705230246268,1.12266715054832,1.12197237752506,1.1358694553431,1.18252420630744,1.15522124316728,1.16052012930414,1.15539636510158,1.16999230197922,1.17187526661641,1.17859623225155,1.14418215891521,1.12221683922045,1.12384620257896,1.12218915072128,1.12162168057759,1.12395558048676,1.12558376936947,1.12547599512355,1.14761835067503,1.18272700483307,1.18504908388344,1.18651163531423,1.1787695594081,1.15288743287965,1.18180234437867,1.18325755591114,1.18289251337219,1.18148585553666,1.17684251293359,1.13746690553244,1.1331825010027,1.11704301153748,1.11753434990687,1.10750296405033,1.10630747984933,1.12022888584041,1.09790665930167,1.07052397083906,1.072631779413,1.07510577271406,1.07327532789542,1.1035651527386,1.06173297842251,1.03180610505485,1.03593875009225,1.03821648954292,1.03979404996222,1.02981671343161,1.04367509823369,1.04412185729291,1.04319322795837,1.04253561205032,1.02515084426719,1.02717215827696,1.02922313520763,1.02679503694511,1.00986404963988,0.992369315488982,0.984737949556059
0.960968603274799,0.954998225956788,0.953863293863826,0.955137716443724,0.953044873633696,0.954194678686442,0.95067614929869,0.949898399563423,0.947199041566808,0.945809466710409,0.944598570852831,0.943732428974392,0.942652775618803,0.940915800062937,0.940738920634242,0.939200069067936,0.939314234371519,0.937545819293547,0.937639222737276,0.934976210935692,0.9368909800705,0.936073271554564,0.937598364984511,0.936169215612785,0.937663211159312,0.934102644711051,0.943377756324709,0.941808237597778,1.02909952892722,1.09436579705144,1.00694053057076,1.0024219576783,0.994753858626512,0.985851958418877,0.977451949468944,0.968683675051234,0.955952445860855,0.934057278526347,0.929699620805947,0.903699575697185,0.948062540345271,0.946193797117591,0.945592483319531,0.944217700240562,0.975155811801276,0.982902438936529,0.98237088815462,0.98282401551839,1.02959875613418,1.03386252681815,1.06558134254332,1.07603551514693,1.07552141000691,1.0535435599541,1.07610620988048,1.07574278698659,1.08984466017369,1.09350435865236,1.09531607288049,1.11033294660888,1.11008923647428,1.10953123639124,1.11237634875657,1.26252385994366,1.1717020083242,1.15469795280948,1.12738042352346,1.0998376149577,1.10418047766392,1.10861914241669,1.11110939129525,1.11010484121903,1.11232647428281,1.11033894575418,1.15542641843387,1.15653156582349,1.15558153545269,1.14411143839298,1.14586369532815,1.14578419254727,1.14077178401333,1.13219827004117,1.13164838385998,1.13202795388024,1.1355718438878,1.15142096708074,1.14198752130878,1.14349961887557,1.14379564699725,1.14856252749363,1.14220786812847,1.13731301637041,1.13647642722201,1.13551740745537,1.12619090474007,1.11960834602263,1.12186972166876,1.12090796889324,1.1317747338992,1.12975995678339,1.13108675467886,1.14723745072199,1.13664623638697,1.15227631072444,1.14387602361439,1.14053891944015,1.12609650485027,1.11845176279167,1.12047823364657,1.15705823645184,1.13648046454318,1.1316745705561,1.1310828903154,1.12883243226173,1.13794092972525,1.14245841326455,1.15190257063808,1.17838805250315,1.15121983034042,1.147905246072,1.16875236708267,1.18852329797296,1.13817603520134,1.12371120350894,1.12433082294795,1.11548861781519,1.1170644015164,1.11575240692741,1.12511591696757,1.12567566105971,1.15285410447924,1.18384746633182,1.18570917850038,1.32606561194471,1.31999512036015,1.33526301710869,1.31633306047356,1.32026244793992,1.21294403826277,1.1713539617698,1.17294532723155,1.12891693631077,1.13058679748004,1.13038992753907,1.1138574298655,1.10910512867163,1.10676109419754,1.09317120649083,1.10353234961094,1.1172339800141,1.08397828957353,1.07440594919129,1.07283263604152,1.1037429827209,1.05950213128624,1.03296822407261,1.03409929500965,1.03818529079323,1.03931708054415,1.03876903029628,1.03951127850807,1.03723275408252,1.04113936067006,1.02051674425478,1.02255063128225,1.02066370811377,1.0320271987574,1.07155059925249,1.01430163351087,1.0115749336059,0.986547167183751
0.96434647547975,0.963570690066619,0.95452417463032,0.953836279425783,0.953255546961594,0.951126417482103,0.951226706229435,0.948919670832201,0.948155767616505,0.945425944033445,0.945357555142349,0.944169290390224,0.942931987931165,0.941573533165167,0.940802771311977,0.940530403812092,0.939276092557844,0.939467315717282,0.937102428402009,0.93604334126516,0.935935740976651,0.936557687379869,0.936439943429706,0.936716196189007,0.938734139054367,1.10815221240871,1.02421288858568,1.07143306141486,1.03910273246858,1.09512404966347,0.992016368261014,0.967046641539291,0.968633466414648,0.932875203824399,0.936795677480898,0.934843744662858,0.941426555029913,0.943216803864361,0.924181292464461,0.902644420529859,0.946100892561772,0.954608024368933,0.958181038913377,0.969426177452699,0.985517209976949,1.01794987276397,1.02777866819999,1.0633024255996,1.05088838164399,1.0334852647914,1.07017130650805,1.07326307230307,1.07762122061764,1.11889778644061,1.0948276683955,1.09544368170175,1.09489194643013,1.09427683959111,1.09382367680394,1.09506136412806,1.09489518124048,1.09543938667072,1.11262443766574,1.27384085415957,1.18207061909761,1.19918354696658,1.12815897595692,1.12482904007181,1.12803883241433,1.13035684357826,1.11939481934632,1.1100738092878,1.1270777824547,1.1902106021558,1.16834913010515,1.16748592006737,1.16891155487364,1.17119805513152,1.16929676172297,1.16733276966855,1.14579355042093,1.13365797015164,1.13213757149575,1.13043084262011,1.13681028792915,1.14182636985041,1.1410665924509,1.13937829331063,1.13623125435853,1.13338971608142,1.13281482542783,1.12863015185788,1.12826338454635,1.1174795961725,1.12309961785137,1.12041863697284,1.12253099836042,1.1250902796304,1.13391280791535,1.13703877175582,1.13103000319712,1.12528059272093,1.13191571079145,1.19001267958757,1.1572160232331,1.17394662120604,1.126303026657,1.11837552700267,1.12083159044222,1.14685185324657,1.14169005884793,1.14957416535018,1.13875383044392,1.18685970550849,1.15235948890837,1.15251339780211,1.15192028575599,1.14613276131874,1.15017641617035,1.1461290566048,1.16666149025602,1.17254922848211,1.13292926745984,1.12448517616457,1.12467829282418,1.13574872988047,1.12239551319179,1.11579003590004,1.13071709546284,1.16685377911073,1.15918362544472,1.19233492922641,1.18774782147663,1.29760870892537,1.28891003785769,1.29632468403051,1.31882578461748,1.3228153962431,1.2829568587047,1.2881544901887,1.17348558103928,1.14658237877529,1.13049063126497,1.12885787498417,1.11142589067368,1.10768995957366,1.10701036301418,1.12110915011155,1.10909951940585,1.11499792092624,1.09939974461481,1.1050252381934,1.0726205552792,1.07415877703664,1.05676625320887,1.05710502810483,1.03072209436092,1.0041972145448,1.02607319665109,1.03660811323447,1.03818753619053,1.04099809808887,1.04276761606064,1.05367303402525,1.0328459992455,1.01801500434326,1.03334285265929,1.03902619093196,1.02183588719223,1.00142041413069,0.989216756099219
0.965854984955253,0.96271064273503,0.95667149907093,0.952346188622821,0.951850269698359,0.9524143904858,0.950817846155409,0.950704387114329,0.948701051848649,0.948077852428277,0.945844075946221,0.944807486847038,0.943043401010871,0.941981304470699,0.941447994408616,0.940651652355406,0.940098783153902,0.938059535682843,0.937665755896705,0.935217513940331,0.936190081915886,0.936211003050336,0.936404445515787,0.935575528820335,0.942062940496598,0.942374325776081,0.996141465120914,1.00336147222375,1.00360744739381,1.00343521138784,0.990986618618389,0.967514804059169,0.969959571045653,0.945493177276457,0.94455880659094,0.984702490091826,0.92769170468368,0.908977337663535,0.91686207415117,0.904112957090711,0.943923658139196,0.941762107980948,0.964106080916479,0.974035325223972,0.996398314361123,1.00474178631123,1.04159917705956,1.08513750156892,1.06274871635299,1.06035068270271,1.07247238329784,1.0827135667326,1.08599413515518,1.09213094794125,1.09374374521706,1.09797971464496,1.09329882362908,1.09101268072965,1.09072509212579,1.08789551454212,1.09554159398197,1.095395764275,1.11389909522983,1.13497546601264,1.1618583956536,1.20538003441358,1.13297249891041,1.13654160013418,1.13922504237679,1.17077979816338,1.13054106935582,1.12902834616444,1.13207090045027,1.1585761125905,1.16960334788269,1.16960467487726,1.16973826606759,1.16937294970734,1.16996607004994,1.18835047137323,1.15401866500865,1.1340254055381,1.1321529419358,1.13716721705627,1.14157048109574,1.14975337078216,1.14093552564442,1.13866238830463,1.1297322447604,1.11914110375544,1.1227199420854,1.12605073851632,1.12680548474292,1.11853052315044,1.12702478767861,1.12798333771842,1.15275911247842,1.19661376418897,1.15595937834434,1.12800251491059,1.12896618241872,1.12497705935914,1.12839729280985,1.12236983088267,1.15068445561201,1.12985722602055,1.12817700662629,1.11774659458997,1.12322446276267,1.12546742196352,1.12492052938478,1.12770481919997,1.13156671423717,1.12751417851573,1.15221364262606,1.15305089856989,1.15299085642323,1.15385121106437,1.15650333059787,1.1658225909334,1.16471584359809,1.12922136389741,1.13021573449046,1.12410296547987,1.12724535032976,1.12706498289258,1.12483728485209,1.14175815389695,1.14153057059468,1.14146994150589,1.14241543742739,1.14275126223089,1.18568337638156,1.29376950578491,1.28625646226956,1.33484082340936,1.32098138429391,1.32293322278025,1.28089074623748,1.28019996920916,1.17397178151679,1.12530043300983,1.12346397703675,1.12210341327851,1.11084649291278,1.10683194616973,1.1070832516936,1.10799106821196,1.10732626457554,1.08633111046611,1.09466142757952,1.08753159604925,1.07241319721365,1.07497298690022,1.05535064003,1.05717481059683,1.02928117822436,1.01322783910143,1.0139628590761,1.01269166204883,1.01955163053789,1.01991886254477,1.04417312528829,1.04280355441442,1.04357521027321,1.04240614263391,1.03609686846187,1.0401748396046,1.02952544122726,1.06005025110702,0.991796741092961
0.968442894992318,0.960044485572941,0.959207335877621,0.951371296974766,0.952237029204302,0.951180927160683,0.951551429025298,0.950697667976437,0.950043566158472,0.948478712071194,0.946468386644373,0.943728334229528,0.943221023698204,0.942391740067562,0.942042892111812,0.941409894735398,0.940728100049682,0.939563014084696,0.937635465809705,0.936697404985369,0.935898548245715,0.936562183242164,0.93791338816375,0.941142317439962,0.943301591793526,0.944689291830051,0.991956228187749,1.0565272193019,0.989376797889973,0.970137870505616,0.976844993177208,0.990872251502659,0.972608155729117,0.945732494717039,0.943845855140315,0.984306049397733,0.923136092498321,0.908148642270935,0.937184150049939,0.967292513860814,0.967275858729056,0.96695910033092,0.989718209987847,1.00787351398636,1.02469610505775,1.05593697665066,1.06517560356709,1.06579842598852,1.06796062121199,1.07064954704957,1.07419411118424,1.08017563437963,1.08778512229223,1.09034120582169,1.09153421859488,1.09900212985983,1.0932321261576,1.09164290458093,1.0902685261831,1.08925651331388,1.09619606868345,1.09649501637433,1.11458945888237,1.11950538297407,1.14435083551658,1.2059509026234,1.12853859728448,1.12740239888682,1.14165536145236,1.15177208435878,1.13490608064143,1.13930432141987,1.13969623229865,1.14049414977118,1.17091435407349,1.1714519354583,1.17145821945354,1.1715019678154,1.17079826669285,1.1707489583813,1.16160345884376,1.12832262054567,1.13014275501189,1.15011181483895,1.14533029701969,1.14843369594892,1.13075070719253,1.11911126823898,1.11934639705027,1.11897233560024,1.11914031928167,1.13493343398661,1.12476456707938,1.11926660866911,1.12938959472595,1.21634112094181,1.16132553580328,1.16666545942787,1.16676452532728,1.1950342313695,1.18541808396134,1.21377837685439,1.16029730877285,1.12323944979001,1.16220082587379,1.17658977249745,1.1481245851643,1.12452971182588,1.12242409772393,1.11904902854241,1.12454448154925,1.15258243794137,1.14759103206283,1.14710645307482,1.15063669707403,1.1507382712374,1.16340089292276,1.23775314634609,1.18217059649003,1.16148300681881,1.16378570144536,1.13148741212744,1.13160143056645,1.13152126403749,1.13172441177762,1.12027455114896,1.12442363211911,1.13650425885099,1.14038986635413,1.14079140993069,1.14176018963466,1.14265608598897,1.18243983325117,1.29280053100488,1.29098161703076,1.29246937952477,1.30210837718712,1.30260479163048,1.28218917711423,1.28641682328214,1.17285723521121,1.11362184713827,1.1235159345375,1.18481285940932,1.11185465329635,1.11329489839816,1.10522353889644,1.10346399096338,1.10434116609301,1.10332374603914,1.09855640241778,1.08804790983734,1.07027739397088,1.05664040286701,1.05555863008018,1.0310087445811,1.02980959658065,1.01347184880406,1.01311509340646,1.0131356197046,1.01852383575608,1.04395910166538,1.04422024644916,1.05353715553337,1.04337993855794,1.04187333203817,1.030502113756,1.02453763659442,1.01325116103081,0.997095466701725,0.983603217850585
0.968140490958071,0.958921139387848,0.958977328336155,0.957297306210232,0.953914935196188,0.952331984993906,0.951358699152754,0.951326118422074,0.950598898267838,0.951081194627596,0.946107146023699,0.943886776472391,0.942458851563584,0.943032774264014,0.942434051489653,0.942947329449925,0.942322767690598,0.940572485155484,0.938069316048663,0.937049870037613,0.94043734742783,1.00699672500821,0.946315847876956,0.942159203449192,0.944745782609333,0.946098605818489,0.98748275793936,1.06419328487493,0.986943769288669,0.970961706294826,0.971531970708603,0.9714963355446,0.972985330236716,0.973062885523409,0.940994580304721,0.905975794174985,0.919372819237051,0.909856465092163,0.95304639004559,0.968183582154688,0.978064966525825,0.999403894515028,1.01196637789105,1.03275599605261,1.04371702736109,1.05477090469869,1.07231409257322,1.07864867078941,1.0865942811573,1.10298309823094,1.10290046623946,1.10186884690402,1.09628261612918,1.09039890785451,1.09315621673418,1.08176423251786,1.09426080180768,1.09038323385213,1.08927382939246,1.08756013769941,1.09428670999929,1.10640406012614,1.1139053879549,1.11405996186219,1.11407387960639,1.11450619090656,1.12590053309792,1.16455019296259,1.14592459380466,1.15374449705632,1.13229466535444,1.12070689515614,1.14022629016965,1.24735194300394,1.17714172188805,1.17666048473429,1.17314913235658,1.17215570819427,1.17303368319357,1.19860098230152,1.16178384289384,1.12718065110058,1.12908189675604,1.13010488756771,1.12421308958065,1.11928357958654,1.11961748926525,1.11935970165144,1.11962833974693,1.1193827908022,1.11840208850661,1.11425509952581,1.12464735984436,1.13475183408135,1.13261085497734,1.13595952327232,1.15862657352407,1.15376423776046,1.16891960698255,1.17549881246091,1.17420075500128,1.17755695988973,1.16961715299936,1.1709064166669,1.1756660531551,1.17680846719646,1.15845916435608,1.12362548469508,1.12335859446347,1.12432842231811,1.12620998395939,1.18901330930727,1.14829120092673,1.15092134700984,1.15179015856923,1.15030925560754,1.17364198651949,1.18814500810469,1.18920332274471,1.20481691104217,1.17669263628467,1.13121085897063,1.13221549404148,1.1328048542719,1.13249209773639,1.12144759553712,1.125050543082,1.12975006288105,1.14058490730287,1.14003217822843,1.14018124466445,1.15563832609435,1.16756087778155,1.30040025750067,1.29575173321051,1.29316887420991,1.30349262046885,1.32157106986263,1.28417393205242,1.25157315897006,1.16920450435011,1.13349498999958,1.12196590782883,1.1120220332657,1.10751122930628,1.0964027214678,1.09987309117374,1.10456556170729,1.10332273154362,1.10279707551153,1.09858076205436,1.11258246030368,1.0691562370636,1.05822593647889,1.05613128865115,1.08192562224023,1.04836833661502,1.01303622711299,1.01192722636481,1.01333351341771,1.01783018526457,1.02510353505014,1.02791438794242,1.05988735784158,1.02551946945789,1.01370605936881,1.01436485618126,1.01355006588907,1.00901321211154,0.98171117436671,0.981387838452185
0.967029780003781,0.976417332848711,0.960286640627,0.956433857880945,0.954783303660729,0.951960740710207,0.951577656348404,0.950557865724596,0.950821291573012,0.950750208503207,0.949218182635561,0.940372584671224,0.941333822964574,0.940380248575139,0.94293251688332,0.944326849186717,0.944391883651268,0.946109157450108,0.948192766776804,0.949409742949587,0.951006695959846,1.00429121745232,0.947238225545488,0.946283479113147,0.946116981375777,0.994603096345058,0.982339933020426,0.970261695753115,0.97093299745204,0.970955078687723,0.971458213569695,1.04618850280006,0.955801558136889,0.955224649990352,0.938158433989655,0.913547305867395,0.941046156182827,0.953675985220464,0.964804011547979,0.988247860427757,0.986546749953223,0.985818605242017,1.03450729684758,1.08260368030373,1.06516062405015,1.05429175858366,1.07788448042331,1.08803962764068,1.09082117925099,1.10118933906759,1.10353830143941,1.10648690090195,1.09962267239439,1.09348573488001,1.09472523779289,1.09517366992999,1.09671672810325,1.09580286343381,1.08842601622328,1.08435419865872,1.0924410149364,1.09501100311939,1.11387416065472,1.11352904530442,1.11380600035715,1.11390580216975,1.12457140833551,1.21690406570363,1.13931011412372,1.12950436029624,1.13078615473536,1.11925841658358,1.14162157279865,1.1725149369288,1.1774427225659,1.17843325436822,1.18018593304545,1.18573385570632,1.18667833218139,1.18367867780005,1.16349037651217,1.16346989202449,1.14145386562014,1.12854154925241,1.12078429971936,1.1184781924367,1.11873830835609,1.12026331580202,1.12041304990567,1.11951354738947,1.11767906901752,1.1157926697904,1.1245662696447,1.12547488375709,1.1305290773936,1.16328085788637,1.16717635038419,1.20584070719482,1.17190309074604,1.17258012158127,1.17233636314454,1.25590813814347,1.17200858038155,1.17530547126494,1.17749444432005,1.18201142974773,1.17081684137688,1.12942625476147,1.1302244719227,1.12952173246618,1.12861243167123,1.13053372476529,1.14656185031816,1.17209131497405,1.1535438158173,1.15204032228898,1.18411853092258,1.18709115111683,1.18825740957036,1.17439738462072,1.17655726276928,1.18916733177046,1.18495071058732,1.19369482610307,1.13153796781605,1.12165371917685,1.12768791777364,1.17853495569455,1.14008801827638,1.13906031437597,1.13901645111531,1.14685848553883,1.15702923936985,1.30054720940037,1.29886245537749,1.30160138337606,1.30818209755955,1.32187092390197,1.28961271135192,1.28271566027445,1.16454061977365,1.11712068808821,1.11916239240121,1.12927758913367,1.10222104493057,1.0912769625259,1.08986791643561,1.08919599242989,1.1038433334077,1.1035542670194,1.09469132624107,1.07226655466384,1.06991783457133,1.05855773131445,1.05672618585865,1.07260046115968,1.0560083736361,1.02540523124331,1.02023061806716,1.01927061577759,1.01896748348499,1.01888652751408,1.01864502746027,1.01476249768545,1.01430880722765,1.00843819137982,1.00811301169599,1.00671715356733,1.00496798723095,0.980589712285369,0.980271770999283
0.967395318067363,0.967235936879951,0.961984785052235,0.957360750270593,0.955925421186061,0.951911987907919,0.951641203339042,0.950802952849382,0.950568637849114,0.950185359958454,0.9508547479529,0.940329473966752,0.941442062567331,0.941718896767192,0.942675024939184,0.945238835090423,0.944485695127574,0.945805629011399,0.947290465109628,0.94850995098656,0.949807931607743,0.949377348865452,0.948518263765909,0.9471312681762,0.947759158421331,0.948141301909608,0.970306510138403,0.970137128290467,0.97064998359538,0.970678187340036,0.971204629059459,1.03588769955359,0.954569729760326,0.924042589336185,0.93657826735212,0.991608828640741,0.96046184391836,0.951037500545715,0.978356392638871,0.988603003598546,1.01458309799672,1.05360392236583,1.05697939598616,1.06068144055488,1.06828651870912,1.07685881677711,1.10123305420247,1.1238750820254,1.1360593559374,1.14248728107381,1.14079902713385,1.16365448066189,1.10794221966544,1.08511075162703,1.09538565384439,1.09526589141241,1.09853566493034,1.11957838730097,1.08826596362902,1.0820760208914,1.08965849038796,1.11573105614404,1.11462200275676,1.11328234710154,1.11282286474191,1.12852355178985,1.12519102795075,1.21695002042744,1.13476820596313,1.13090151097776,1.13085483355754,1.14912863973586,1.14448004879461,1.19045596059303,1.17676836402469,1.17887243934519,1.18142399848567,1.1838425585953,1.18561735642411,1.18492502452929,1.16657358222706,1.14984450106168,1.15380794103357,1.15736220077595,1.12030625383355,1.11842618103055,1.11689374949289,1.11417357733738,1.12337411807558,1.17855454633927,1.132430448525,1.13246223157763,1.12314085053584,1.1248531299164,1.12843736880054,1.12767517175984,1.1696841168276,1.1739203487502,1.17359699391575,1.17474262535476,1.17367760103577,1.17281205090671,1.17242782171622,1.17100143247506,1.17997051345579,1.18101907930989,1.18041928265702,1.17858208098041,1.16397090808468,1.15794827028333,1.14318085038995,1.14317897361671,1.1451839587326,1.1355547501823,1.14449493817167,1.1350592788908,1.1888776846422,1.19330715459982,1.18655979059664,1.18464046385753,1.18024699814774,1.17070505214562,1.16848189529051,1.13329318529716,1.13235064316138,1.18431826974607,1.12901429457742,1.11707723827523,1.13602390370203,1.13991789706611,1.13876549694867,1.13699975971977,1.15031133368753,1.16337620448564,1.18608886142148,1.31710133912752,1.31286329582362,1.32882967078589,1.18003983273967,1.15733822280088,1.16051391439293,1.181630844821,1.11322863474788,1.09539957238002,1.09827801186859,1.09330765405827,1.09088672456973,1.08892250972886,1.10532406263416,1.13385716103112,1.09323680876713,1.06618378811608,1.0688423752533,1.0636982498183,1.05904014952112,1.08696560280195,1.07083723325136,1.08570469863382,1.02122776027451,1.01999748640085,1.01972651755489,1.01878206729657,1.01760862546783,1.06258833310888,1.01306309466266,0.997779058438904,0.997413823970815,0.995060061894787,0.995788700307184,0.981166878722941,0.980259941577415
0.968318295817815,0.967658750887142,0.966449024583339,0.957794026743819,0.973352118396296,1.00777996683088,0.952169738154921,0.950551650406974,0.950418256087979,0.950312623443026,0.949894015672913,0.947434259304652,0.94455555246429,0.942176467419667,0.943231673962098,0.942459105963473,0.944224911427387,0.944308401151958,0.9467586092773,0.948138834888563,0.949251483529988,0.949664303405607,0.949003551977545,0.948297296990378,0.948492501594577,0.948748018329954,0.970167324488357,0.970199619895387,0.970553395762009,0.970473569629842,0.970978007936603,0.955197582582182,0.952600650923263,0.940490932800251,0.937519304973215,0.90900511976186,0.968173145658179,0.982356699775633,0.994640803131981,1.00915583747766,1.01944481571875,1.0811867481679,1.08101154605354,1.12444985872231,1.11321810610397,1.11456493925258,1.12090366279793,1.17371142028927,1.16528820292175,1.16993923833671,1.13947025110367,1.12419799222695,1.11800250032313,1.0840408953419,1.09427159068096,1.10325817933683,1.10184111037898,1.10159235403702,1.08893174550885,1.08852256254547,1.08873807415521,1.11845662833997,1.11551819505277,1.11122859530346,1.10961270092676,1.10847535187252,1.12133670093117,1.13132481261881,1.13209466926763,1.13283725203037,1.13108529756429,1.13740878995149,1.13898140376387,1.18992777643038,1.1762297934411,1.18062155875586,1.18153550513438,1.18176098141445,1.17824225665454,1.16670312709401,1.17108437350145,1.17766274846444,1.15631068792678,1.13713809744074,1.11230467790182,1.11187930784826,1.11461541528406,1.11523342025532,1.12532634288828,1.12830716151315,1.13072941792918,1.12864078589388,1.12092115867784,1.11625706732487,1.12702483588915,1.20129169494668,1.19840846737236,1.2024616973072,1.1806330107676,1.17693136226041,1.17525503649572,1.17374749029325,1.18655946469379,1.19166998830386,1.18864392714657,1.24112364124003,1.22398039928727,1.22438314470096,1.16721784785099,1.14540474430451,1.14432351145345,1.14496944235148,1.14539165929942,1.14616473964741,1.15841282599304,1.19359813724519,1.19359751097652,1.19327452043923,1.18704943176864,1.18436970497322,1.18595772700871,1.20598826152375,1.16401395890485,1.14565730079426,1.12951517208387,1.13018805552468,1.13044904598074,1.11875219316736,1.13055291542789,1.12959840974668,1.12881100413851,1.12922850545554,1.12944333187841,1.12543935512884,1.12571479735722,1.12456514159548,1.14787431808762,1.16129742612725,1.14790521432049,1.11627693534069,1.12222071545702,1.1046271832077,1.10890651710358,1.10271261540806,1.10076911938857,1.09123044764212,1.1000235397346,1.10898297743791,1.10714888847909,1.14004483958162,1.09144354942031,1.07219201921276,1.07378009421499,1.09461177557227,1.05824004472427,1.05831568925839,1.056070717513,1.02422990156983,1.02270843527588,1.02077933034003,1.02067682047639,1.01554075938369,1.01603623363604,1.00918260565755,1.01081851449642,0.998490697437883,0.998063255760776,0.998277228144013,0.997717593977377,0.971186956707445,0.982596234276072
0.96881454253926,0.968408071406601,0.96780147816124,1.00565187533224,0.984874125614497,1.00642422488625,0.953838901615235,0.949689606575321,0.95000828210367,0.950349920710285,0.949392461337705,0.949235670382582,0.945383376153454,0.944078588093017,0.942815601877311,0.942897708702029,0.943492712538559,0.945095840941015,0.946592510483586,0.948357054108127,0.949264130294829,0.949453960785654,0.949813092680892,0.949080740783018,0.948830650985386,0.949544681462136,0.970185674002632,0.97064983629741,0.970657112141576,0.970733999242245,0.970787680038676,0.949406299335949,0.950073389629303,0.949063494009888,0.937472873357622,0.908700625946815,0.975022918333266,0.987292714849948,1.00938166963542,1.02917107652087,1.02919145237717,1.02996418663874,1.08122976094588,1.09829646351134,1.11257492294498,1.111302997288,1.12492121888678,1.1324964258725,1.15054751370736,1.17924275306454,1.13897216090995,1.10072319527382,1.12447238445107,1.14277235826371,1.0956138192936,1.07719567844117,1.09286446386011,1.09605915973365,1.08892776204662,1.08635006395776,1.08915259185191,1.11850761970016,1.11826252751464,1.11856187831014,1.10574280749013,1.0875552163378,1.09291592092706,1.10159361643609,1.10770385496797,1.1191356148281,1.12103502348009,1.12239877364178,1.135788339166,1.15867888940058,1.17478977630152,1.2084364037528,1.18167675894328,1.18030158186568,1.1730575245139,1.15914719043754,1.17423258444673,1.17794009648021,1.15802640464432,1.10406000076499,1.11194669640848,1.11116360751946,1.11421678217505,1.11513284305346,1.12641560748528,1.12953253583839,1.1316755200234,1.13437241223318,1.12013163599492,1.11641438790792,1.12724112086242,1.14008153900982,1.19523667548721,1.20662810073076,1.18493864653374,1.19664896364571,1.18609951230959,1.26137962244727,1.19032590274422,1.19052211122491,1.18833926219597,1.24164637622339,1.21741329812467,1.1611020655642,1.16970159593616,1.18194016633405,1.17458074983758,1.17539358720137,1.14427995792407,1.14452001515418,1.16926428756012,1.19209568528598,1.19195175541976,1.18998097244165,1.18911924706875,1.18993164374149,1.18750555965085,1.19385036913011,1.16090309903491,1.14625670001418,1.12935482968985,1.13108633499844,1.13201648062652,1.12391323743053,1.13194244509362,1.13020323814434,1.12902875612036,1.13060182150036,1.13009425492212,1.12819686712722,1.12666397043145,1.14909075479022,1.13679895301919,1.11943694047536,1.1218260837452,1.10972972977125,1.12861944621633,1.13823938419355,1.1325925860696,1.13031700689904,1.1200702523819,1.1213674335161,1.1064505297102,1.09532424473671,1.10234597290393,1.12200398782903,1.08923192990578,1.07725105280481,1.07536538488693,1.05749934747653,1.05775678145825,1.05669622570647,1.05517578462208,1.04499068988401,1.03659054135602,1.03876579626584,1.03643498550704,1.09522568439595,1.02551630536878,1.00923761544377,1.00988526674485,1.0096074584924,1.0114377174065,1.0137694863789,1.00418210184664,0.971176744589624,0.984056427501138
0.969028638814781,0.968022292148509,0.967117978375924,0.96489479189109,0.965166239934722,0.953403246675292,0.954121555941759,0.94736143540931,0.948822623960541,0.949843015701973,0.948803560699321,0.948053785669417,0.946447315353429,0.944028285068676,0.943850999689382,0.94116211685528,0.94390911062618,0.944010423524601,0.946846089952907,0.948492538222617,0.949302877414632,0.950071963413971,0.950558917746506,0.950006745088584,0.950633177168809,0.960086823631197,0.974066136049902,1.00693512679398,0.974094572900223,0.967938767013087,0.970352157921927,0.94915319434554,0.938073067274344,0.928925140372341,0.934275830211072,0.947658455583592,0.980608675618341,1.02402551384306,1.03598146656881,1.04888986041108,1.0567667674188,1.0802628408178,1.08096451533278,1.11767930433941,1.11473742392499,1.13224386913602,1.13122490139184,1.13099586168654,1.13565270374223,1.1434259048298,1.1390474914934,1.13864446678512,1.13365173553343,1.13071048086428,1.0976671407212,1.07936545823977,1.09073648189212,1.08830794768762,1.08880027727253,1.08800615706872,1.0906264685658,1.09286796959402,1.10806110159734,1.10043504982671,1.10223335996075,1.08758920912925,1.08872790212866,1.08563147919494,1.09861042154552,1.10217839714719,1.11463780995062,1.1119643814053,1.11901205352146,1.12412247075376,1.12499700091902,1.12617579525542,1.14679534584842,1.15256360950936,1.16755476786566,1.29731007926213,1.29568370098123,1.29880502034101,1.15895842079006,1.13381233777432,1.11374033000671,1.10860438168765,1.11500884708165,1.11602979677401,1.12790954182684,1.12856018378749,1.13081838312019,1.11634932194377,1.11825154070146,1.11572869326028,1.12884068700194,1.13180851394193,1.19560173443503,1.20806752172309,1.18392437752918,1.16690883337379,1.1836579131689,1.19301385566184,1.19140504764365,1.24760182176588,1.18975317125893,1.19143036236426,1.18782734106401,1.18364504511795,1.17202161951405,1.17099450110234,1.17326002958719,1.15148372122756,1.14888368233858,1.17756832711594,1.17835713916973,1.17761816188645,1.19125942285791,1.19122593460358,1.18293916051459,1.16163119240117,1.18379231702786,1.22423939175867,1.15662955315549,1.15334745920678,1.13182666898721,1.13263656590821,1.1327613279477,1.13464790143913,1.13809509104475,1.14115732036212,1.14100439766084,1.14020007374829,1.13358714317697,1.12537075500136,1.12541304002566,1.12689159193959,1.12530753513253,1.12309471192861,1.12520665812158,1.15216910179353,1.14982249493187,1.15141622476971,1.13958678111388,1.11967855900334,1.11903126546799,1.11914901002474,1.1119064663283,1.09760873097268,1.09948468863321,1.08244224016017,1.08646862512382,1.07531556569903,1.094000518108,1.11729089914455,1.05848085091832,1.05722942273735,1.05458247714914,1.07372650958961,1.03317598892697,1.03110017999227,1.03415626916876,1.03634736444888,1.03459356408056,1.054416254855,1.04468180094785,1.0488558104954,1.03734910375822,1.04679492485527,1.00638747705974,0.990232906846631,0.983460056955616
1.00039487947591,0.968115660662303,0.966870162646784,0.965684764071004,0.964817874244144,0.962745954850545,0.958024807266191,0.946700361192578,0.947615787605339,0.946975260761942,0.947121642049527,0.946650834521082,0.945974185200898,0.946306420076444,0.944427148803831,0.94422259789667,0.944425962514674,0.945406164088322,0.947052602031542,0.948434383809527,0.949616948438168,0.950710890325458,0.952202504636497,0.954513746539564,0.952847369809696,0.956413627708284,0.979320374683764,1.01525507422114,0.978668961335815,0.977492801260074,0.971863230779597,0.9171561320033,0.930104531421146,0.906124156151113,0.912229000959061,0.901610746191218,0.985087895067838,1.04416888621996,1.05181703315242,1.05651982102213,1.0614154453468,1.07952399191816,1.08052525590178,1.09517741763732,1.11467393404127,1.13319367301548,1.13047241898264,1.12905835540479,1.13285072198884,1.16193997966908,1.13408215791494,1.09552962097771,1.14812459219701,1.14919506088987,1.09956174348499,1.07867259391488,1.09223310233044,1.10851342195382,1.10076012339344,1.12446033544423,1.12205916537525,1.11971732828671,1.13045409219358,1.14066251441124,1.1381021361514,1.14144891555169,1.09197414035269,1.0856328266038,1.09734109366649,1.1138776017307,1.11426649458578,1.11310572742733,1.11312521891039,1.11469909346622,1.12399666694351,1.13946790852584,1.14315611604008,1.15720138525326,1.16296906147706,1.29734860822279,1.29538256877427,1.29745866758628,1.15951807552556,1.12031349745819,1.11541699410735,1.10819550456632,1.11401360488528,1.15528245142222,1.12770643686002,1.13068108646271,1.13875646710283,1.1526176235939,1.13462480219247,1.11541650400644,1.14839564515798,1.18782233003356,1.18732938382349,1.18964425845525,1.18313965043706,1.16659749369268,1.15740859004881,1.15229057156812,1.18657412988238,1.19178592001421,1.19146594729946,1.19634074247515,1.18895429377543,1.18221636522013,1.17553785135694,1.21733850712789,1.1729519188141,1.15212457395006,1.15216602688764,1.17723706080079,1.17823402386503,1.18819509471727,1.19091086759403,1.20208996520916,1.17590432381904,1.16611624304232,1.15811824029837,1.14119614565293,1.14740697204995,1.15379720785897,1.13399402013688,1.13083204717333,1.13113511775465,1.13126402499151,1.14079750635229,1.14049170068658,1.13920971445004,1.13750213431284,1.1374185522016,1.13852921813405,1.12420251874673,1.12623953307111,1.12469056554869,1.1234669621588,1.13085606834691,1.1456729478855,1.1465317746984,1.1524837006953,1.17714814080916,1.23372923896002,1.17722018278393,1.1814727027385,1.14985704394292,1.15631877370845,1.09734922388462,1.08340231284719,1.08626439979283,1.1179720219148,1.10807387770676,1.11676231871105,1.05934138536502,1.05404577872394,1.05324469294932,1.03006218308849,1.03127187377077,1.03053181330958,1.03201245300933,1.03102727206575,1.03265080075697,1.03379711550705,1.04106918810392,1.04780788780723,1.02599314985733,1.01812516929632,1.00704374777045,1.00543344967962,0.994994853468733
1.01139395407614,0.967455927671481,0.966761918893204,0.962630451393669,0.964076972202033,0.963275888408904,0.965877956857491,1.00102178697969,0.965147539994123,0.946477081405492,0.94659351876521,0.945579168849489,0.946124196850006,0.945096407170844,0.94572020082229,0.944862335865178,0.946238849083114,0.946262848922401,0.947604614697069,0.94836059512465,0.949948227531008,0.952361910128985,0.953289402279507,0.954357891524469,0.961040439967999,0.970974854322509,0.986235594235494,1.0146488397271,0.983438501662812,0.973682752654384,0.973304946147363,0.976110495281827,0.943933421336915,0.927961338055281,0.918459097315233,0.903959980714255,0.99106894609277,1.01502119067201,1.05874304191138,1.07730742429397,1.06848818206619,1.05614105475256,1.0692225438306,1.05666464272628,1.11429980208167,1.14174476912372,1.12850310705894,1.12859661281086,1.13338220318041,1.12119662951081,1.12955295115548,1.1682809998564,1.15314710630369,1.16299073024314,1.10198395164173,1.07877038335322,1.09317732689933,1.0925992058551,1.09632761359865,1.09242600292442,1.13475213213602,1.21270320013748,1.15113618785209,1.14254608691831,1.1331168384168,1.09583551422436,1.09381596986936,1.09196049930535,1.09397051627746,1.09395094584429,1.09490420548545,1.09341547757212,1.11346945978854,1.11333564249467,1.12258751942434,1.12169790899948,1.13083956252934,1.13309103539441,1.16030446388381,1.18513443716091,1.20320226080595,1.20852322713639,1.16017349928711,1.161177974422,1.1168275079459,1.11979975071904,1.11402317309459,1.12698550657796,1.12614927451551,1.15405828825837,1.14370397702028,1.15497866971037,1.14565901124286,1.11536129956514,1.14860168539778,1.19666016775392,1.18916187455697,1.12740312781479,1.15223409438673,1.14827168626875,1.14744220619658,1.14770082348189,1.17145368959212,1.22116523259174,1.21559444105661,1.22566504294051,1.21724516141786,1.15562208341135,1.1727750978129,1.16820473541079,1.17049834833196,1.1531814696955,1.15411868848171,1.15459930129789,1.16919370340782,1.18192208119002,1.18176324874083,1.1819251079782,1.17087380308118,1.14746889978681,1.14565100756916,1.14490612027545,1.14009120733314,1.12507838630073,1.1342634788949,1.14295749828307,1.14141554286111,1.14555757524902,1.14766885956828,1.14764023215404,1.14248215241634,1.11975946959523,1.12531291169347,1.11886352068496,1.12570742868056,1.12557375045867,1.13583100007347,1.14360032290744,1.13781079011779,1.1239330941505,1.14739619748565,1.18579101244895,1.19197692075405,1.23462535607434,1.17634449536407,1.18231911962243,1.14263009885905,1.10486448122848,1.09691802479813,1.08917692065529,1.09037081544605,1.20205266844444,1.10311737173298,1.05961201768685,1.05853312269261,1.05661356003529,1.0641993932824,1.0745872525536,1.05893514570673,1.08118486380218,1.04070970174602,1.05737290022773,1.03948050092664,1.02747587072003,1.02574838127105,1.01274758025823,1.01413054553801,1.01455008107406,1.00956865665045,1.00603295335649,1.00035489816056
1.05621570754769,1.08378182775089,0.965356718410957,0.962139379461791,0.963721437502839,0.964150593658593,0.966033033438862,0.952962521233461,0.973528593338944,0.991430474835965,0.947029453400663,0.946068166513612,0.946030467696439,0.946186504293618,0.94609923980986,0.94662508084721,0.947504285915857,0.949273227934658,0.95056474020325,1.06248602271254,0.957809307936482,0.953095788895381,0.954037754103423,0.953542212861721,0.964879088788938,0.972374447215836,0.994248062186157,1.00365503331019,0.992437046423265,0.992498010766013,0.972279747264991,0.973625676866367,0.954293645699827,0.966970014417192,0.970840441106897,0.972597213586667,0.998565575543132,1.05662615375229,1.0629196008911,1.08170316381792,1.08071625782928,1.08236587803729,1.08810318253825,1.09512050742298,1.11330858423609,1.12775791333955,1.12695904786245,1.13695482437121,1.1359410072921,1.1374246524757,1.12252402730713,1.10606257751528,1.10773418365414,1.10638756986834,1.10568916756102,1.10917022370067,1.10398698991958,1.09774010643614,1.11819922494323,1.1283434976277,1.14857184747415,1.16764182554475,1.15777342168771,1.14073739746528,1.1295966661272,1.09353888862056,1.09467359199623,1.09563196859334,1.09473168234772,1.0947809715564,1.0953411926881,1.09522545603814,1.11436379673077,1.11556478356011,1.12181425455296,1.12196961271361,1.12908898757901,1.17720773806601,1.15655200564899,1.13676359078256,1.14823120501402,1.1523901040919,1.1467085838216,1.10602351692748,1.10620781642718,1.10603695984853,1.10968651599695,1.1267730020527,1.12623033273561,1.12731329377903,1.13455982235227,1.11997571313838,1.14812600680425,1.22572450111006,1.15031028697562,1.14856607012097,1.18226595326674,1.1963107474223,1.15750179668025,1.15286515044332,1.14490096909445,1.14299809058311,1.14338858865122,1.14252298914347,1.2034326424768,1.23277642495064,1.21756988826128,1.22130508860881,1.17182230663481,1.16772005830477,1.16851812400812,1.15554569472162,1.15563238574722,1.15587888177259,1.15986936942755,1.16588042566619,1.16681028171466,1.16634323782061,1.16265500679668,1.14773275872418,1.14428737530487,1.14299874038807,1.13773736073102,1.13413539109427,1.13536089715345,1.13542453324362,1.1379690287632,1.19065065845052,1.16364740101607,1.18186819193394,1.15411216853812,1.15378663334087,1.1301878922499,1.12885089492213,1.12886151212869,1.14794585531632,1.14400061773955,1.15105278564969,1.14211669427047,1.12508397114421,1.14899369707998,1.20815204641789,1.19762701372521,1.1752899049697,1.1732668430065,1.12410675597522,1.13307580278487,1.15737140547465,1.09862078795406,1.09714701014339,1.09849066116525,1.21453393021448,1.10197979513972,1.06121496738213,1.06134698737904,1.07544628164856,1.06845213778628,1.07879737208938,1.04694923843638,1.0251043137816,1.03513304130213,1.05386142627703,1.05588326555149,1.32092832799619,1.02265514606276,1.01454087636293,1.01421724454634,1.03057248940231,1.01764901548688,1.04075321882585,0.996655365154184
