0.921750231496565,0.902416384129632,0.902197331357911,0.901627075948936,0.90101013380633,0.897413527011263,0.895064584822982,0.904951187976048,0.905442754023952,0.905558905663946,0.886471494346316,0.88679928576602,0.886382462561034,0.887167540252381,0.884279683071628,0.882834944021999,0.882068809673307,0.881744947601086,0.880813335086782,0.879478479712787,0.879978365636406,0.879611242891767,0.88007357897352,0.879633193668908,0.880650354806602,0.88032741282169,0.880864651696467,0.880834112092585,0.881499572874165,0.881148115537248,0.878102614751512,0.875112816957162,0.875189583808254,0.873646244671568,0.875012275384287,0.874431910318506,0.87352031692066,0.873356082299278,0.873395929438037,0.874333499000416,0.8756245940584,0.875451554435391,0.877154732164882,0.877932095280622,0.876274972676382,0.878087961160016,0.878660197439227,0.879104188204118,0.879282718948136,0.881455423246555,0.881119287817104,0.874996683869244,0.87494634687366,0.874925625286751,0.874984979954651,0.877459082264829,0.879359543952174,0.88174285197904,0.883814127909234,0.884101803507216,0.885244861962523,0.959480915396386,0.93007216503554,0.968741761591741,0.887712831904122,0.886238437386755,0.886652814969177,0.885508693182942,0.88468252728309,0.88347978601514,0.879036623082916,0.878953311475056,0.878849885253556,0.878314330529769,0.878171450354121,0.874265449149102,0.873244454186025,0.891534467054371,0.915195232056709,0.870242010355363,0.870273150653723,0.872458997405251,0.872943937081888,0.873585037750388,0.929278160987661,0.968409958949212,0.879290054387423,0.878767521269452,0.878568121077928,0.868789253857862,0.869863496596517,0.871039181918012,0.873289340105356,0.874145783991269,0.876132780933556,0.877718845455273,0.8797011612392,0.880093876903161,0.880886750391325,0.881690907996258,0.881518909516184,0.882219101874967,0.882749174930625,0.883228333536106,0.885369494124395,0.886983390369655,0.887227289554775,0.887423173183264,0.886737906381133,0.97880507310182,0.894173893431699,0.89433100369852,0.896144811899255,0.895890577886787,0.900548557064894,0.910336177762069,0.907184979677207,0.9073194673507,0.907500524733207,0.907591697295633,0.908284541035235,0.910040621420329,0.909751400959068,0.911263910303766,1.11959772471098,0.942759859006691,0.914087337413223,0.914914219785381,0.914796114479085,0.920290279076398,0.925784879474933,0.931410151589491,0.93355537964749,0.934056338140045,0.935454078028107,0.944460928765054,0.944456638381977,0.988877916112742,0.989041320275077,0.995810919336189,1.01596569725816,1.04026855512904,1.0599742979992,1.20232968407067,1.0403965741969,1.03987093073087,1.04543801218435,1.0452590154583,1.04533617983231,1.05726825216077,1.09087513956829,1.08301317339364,1.08666581421873,1.08694044559762,1.08529886513589,1.08934001976801,1.08889811139707,1.15192468745112,1.14301359140649,1.10685562012068,1.11123132143734,1.11237312890528,1.11150775031063,1.22295520222553,1.18221102736233,1.13394417530509,1.13597268275151,1.14331973281846,1.14515041690334,1.14408572195648,1.14515561508851
0.902328860304919,0.902285490931131,0.903064399235098,0.902442794238318,0.901906708160249,0.900340866475643,0.900783258154347,0.906284876887724,0.910724403971537,1.25137902582988,0.908878516531052,0.887450522979782,0.887534009258667,0.887625507112827,0.886298423173318,0.883881931462601,0.882400214879854,0.882183448528799,0.881212985985043,0.88092965991057,0.880216607161466,0.879969702005392,0.879747226034004,0.879241118048237,0.880489706860436,0.880031935539796,0.880840777307348,0.881071335887527,0.881474555469405,0.881380797123488,0.880201574067166,0.878751729096683,0.877929981723973,0.878526690565424,0.877481719259761,0.876554209381375,0.873121247154019,0.874359992713795,0.873782887416154,0.877011536945302,0.878032083576279,0.880597582158621,0.879808277075988,0.880552419552886,0.881013802491559,0.880624780837455,0.88106966094382,0.880750339050309,0.881138639930615,0.881961454391612,0.882497565888984,0.876228872790023,0.875487073508251,0.874178383192585,0.875195680516055,0.877422326154564,0.879513734283179,0.880754830646072,0.881619381535181,0.883064611933097,0.884654849910689,0.885097011911305,0.912752197613169,1.08085322883824,0.887340907984605,0.887869303763901,0.886756969430313,0.886378170716024,0.885669008792706,0.884660598613518,0.882366932451205,0.879230066886393,0.878951271090709,0.878039366955757,0.877790084181818,0.877638356366532,1.0117029701239,0.93760669076346,1.00852585516909,0.997047129913607,0.872214849511288,0.872401445373344,0.872957297974538,0.872553850868887,0.934589986528334,1.11994265679086,0.98410858070605,0.893114282206479,0.895268693453131,0.871123419706188,0.872116466680555,0.872469729983997,0.87401540358274,0.874947397649636,0.876182574832799,0.877201032118813,0.878215962617109,0.879222423423177,0.879824666091493,0.881117471213198,0.881609608640975,0.882224983715459,0.882627307802815,0.88282695462209,0.884621231576044,0.886658553555751,0.887314984871205,0.887109830803753,0.886267580080009,0.886776525852808,0.893275703634321,0.894336711154279,0.89541332280863,0.896279977434156,0.898478616436112,0.959972219653985,0.906571742719194,0.907079086957087,0.906952166305223,0.906584262900148,0.907960297404698,0.909966092788889,0.910419114656908,0.911447586623864,0.931777447760554,1.09379680513581,1.04225536248639,0.916588470304128,0.917249762718559,0.919523759249691,0.929299777379066,0.930332808274083,0.932784977169015,1.03117441942019,1.12835037623798,0.944192190453809,0.943993418206742,1.011435401766,1.18628171905416,1.02317840597941,1.02164323663085,1.09700936061582,1.07889715334182,1.07627108610134,1.03983810149086,1.03906053016924,1.04592449560596,1.04549857414805,1.04440069449279,1.05255020245784,1.05615735629557,1.09130178593347,1.09050085379631,1.09000414344102,1.07790973878436,1.22521051313397,1.218210951539,1.16104061828786,1.14422885385355,1.12724687305545,1.10546605761504,1.10609807845659,1.10654436213769,1.22162582831306,1.21548652614776,1.21743423789015,1.20825922020619,1.14060750947134,1.13961575461498,1.14536606834558,1.14351670285979
0.91404769055308,0.910655931266407,0.906021707400511,0.90408049930891,0.903236355806192,0.902392143260339,0.901906801929186,0.907871407563689,0.913448568635438,0.913462657862496,0.911691909536052,0.888476095765427,0.888459047384689,0.888112147821557,0.88723475031673,0.885762752328621,0.884325999095011,0.883294232040088,0.881988244799963,0.881448980968383,0.880662523924524,0.879915828337543,0.879472978940453,0.879456181668004,0.87996161361939,0.88046155024219,0.880691953240963,0.881079079291485,0.881255760509554,0.881233213227672,0.880925793658089,0.880071552481163,0.87970102370042,0.879361586967188,0.878436720607694,0.877601024773724,0.877521182426284,0.876728023118452,0.877867836895854,0.878029463600325,0.878799042460212,0.880188617571697,0.880719611492611,0.881128911172324,0.881624441722966,0.881719059763133,0.881699460368104,0.881686541533774,0.881652653746986,0.88121556906559,0.880363938511291,0.877625683857275,0.87657781192714,0.875961543043379,0.876071852218499,0.877535499064679,0.878971487666245,0.880044570224825,0.881106477924018,0.882057013808415,0.883153943389948,0.883796563310735,0.884337481811491,0.885255936938407,0.886973475525848,0.887861236643472,0.887766113390438,0.88702594129121,0.886066015427648,0.884616512649851,0.882870334184821,0.880874508426999,0.879788228145032,0.878803772658997,0.878366398383709,0.877771148488249,0.877068731706784,0.876855418809001,0.876135108213487,0.875281093223822,0.873868782988716,0.873495129764118,0.873257716077851,0.872970921261125,0.90935107165749,0.935714037845859,0.950731384656451,0.895193314790078,0.894937168472711,0.887403376763666,0.873625529569634,0.874134989663802,0.874648734178746,0.875215713662855,0.876130266042486,0.877359330551325,0.878117611395452,0.878819665603974,0.879363557660894,0.880311510920877,0.881172929297978,0.881918988509163,0.882556133203805,0.88341732445366,0.884336157092105,0.885951913352829,0.886708251054861,0.886975881442769,0.886578395364539,0.886253641567025,0.895064327400111,0.894748380059352,0.895547132584532,0.896341659232614,0.897655535728722,0.898765129017307,0.907432335304938,0.907125695462074,0.906262169396487,0.906484742312461,0.907803676853174,0.909553320305312,0.91052378849658,0.911202214253965,0.918178317977607,0.95800273030559,0.982425439075858,0.917854306571677,0.918313159210042,0.919207750760593,0.930657793834345,0.931258575644006,0.932698349874986,0.977611866995991,1.00032582461521,0.985499476324631,1.01251548071029,1.01472785717105,1.02092840734629,1.02179247302131,1.02157506760377,1.08377775772952,1.08066830204466,1.06643243348049,1.04139009138137,1.04038726106428,1.04468098210097,1.0447442884513,1.04363333716067,1.05026172820064,1.05356347194096,1.09363004451557,1.09276489836796,1.09209829820947,1.15714195411088,1.19538656197405,1.18442266475308,1.17342193779207,1.15549723639861,1.14615207603035,1.10604896368933,1.10517974544436,1.10338423194776,1.15744258501185,1.17611249909295,1.2144611046868,1.20135611329338,1.13832709718452,1.13994441932736,1.14211841506957,1.14298195704148
0.914587734826052,0.912417650502129,0.911549973345267,1.05351736150759,0.904566598654757,0.903270643338307,0.901747037691604,0.908256201733161,1.00005288912589,0.915783317976109,0.914114799466041,0.889189493651014,0.889157350621613,0.888629763149428,0.889203562677874,0.88684575696865,0.886627182839857,0.884136729081134,0.882928859731601,0.881067018543888,0.881648745920201,0.879045718254983,0.878546953843952,0.87850024520596,0.87986710927615,0.880588492159098,0.880734640255427,0.881232287864515,0.881163985406248,0.881644751167841,0.881899079468183,0.88148799104715,0.881321571617516,0.881029383405101,0.879187691888773,0.878650270897758,0.878851750675304,0.878116773833396,0.886716296260604,0.879530936221662,0.879129323424881,0.880712166395558,0.881378219988082,0.881777307046654,0.883185619770118,0.883023849050616,0.882113092751964,0.882838461953613,0.881737650810105,0.881769387753858,0.878816308912203,0.878226391987084,0.877195512568091,0.876600251633844,0.876380209489412,0.876841787256669,0.87923494403479,0.879332312609027,0.880134538308584,0.881258789876255,0.881487150558371,0.882124097632359,0.882996816420342,0.882837157940372,0.888041806134311,0.888679476396866,0.889258442956328,0.888002822010943,0.886769965494247,0.885079117745067,0.883543671941892,0.881561856558419,0.880376569719234,0.879097797296071,0.878788054524399,0.877763076320337,0.875649262777506,0.875913457922887,0.874868563819823,0.874300249042139,0.874177406717083,0.873194696443986,0.87329937533244,0.872628579361684,0.872921479946718,0.92287958094261,0.985661053635343,0.899001426374345,0.89716765959432,0.940329932491895,0.874529261485817,0.875220372966635,0.874939752937892,0.874555611035887,0.876030405760827,0.877378198073287,0.878414083522421,0.878449888597257,0.878562252612689,0.879569768862378,0.880929712492509,0.881593264227518,0.882595701705815,0.882893790834412,0.884693760172971,0.884609879333482,0.886974742698349,0.886619799460985,0.887047412524112,0.886583564795287,0.926350099558085,0.894328645655474,0.895269716497859,0.895934087441435,0.89744192774772,0.897453514831207,0.953591023075886,0.930280091116953,0.903968801529924,0.905424079283495,0.906395907077363,0.910371037551745,0.910403950424739,0.911006744411751,0.911272955895656,0.909643875205559,1.03407191910231,0.918763169579291,0.917642854945581,0.918873699467083,1.13569742953947,0.930191823592991,0.931550566320908,0.931800353163157,1.03108019155149,0.952555350242392,1.13155690164876,1.06635531635535,1.02172350525643,1.16166257108903,1.0187896503959,1.11839955507267,1.08118192979569,1.05473461713594,1.0428998052342,1.03690879362422,1.04552775353024,1.04361289992892,1.04348776910739,1.03941233174369,1.05045580418677,1.22773396514092,1.15223717275893,1.09279235882623,1.19742200738289,1.22620963588259,1.08720873586553,1.18652916767659,1.21063162236679,1.21868209522435,1.09710011149267,1.10240700369703,1.10149354478958,1.10294304835065,1.10842237181414,1.22213472987462,1.19516562543328,1.13432596617774,1.13277215577063,1.37388165399996,1.13789117711744
0.907340400277268,0.909094157264378,0.909621600833187,0.909488600719427,0.907611641248957,0.908909637566019,1.01595425800844,0.913167962000986,0.91368879227955,0.915018848646539,0.915511930847111,1.08444052246901,0.896305752508522,0.890429773421183,0.88992816187379,0.890502199838492,0.8866976287483,0.885235542442662,0.882573733396929,0.884285352386091,0.882192146700993,0.876029002183937,0.876586848876886,0.876380715132001,0.876851351078665,0.882084224450337,0.882315788091794,0.882245189551467,0.881126376929171,0.882116101904987,0.883008940378361,0.883645976479137,0.883413699047353,0.883314463777713,0.880872409212383,0.87941464392036,0.879272517544961,0.880400647184364,0.881670680415883,0.881021424238491,0.880996123285912,0.881480784995501,0.882737211601574,0.881952486852966,0.88413782334419,0.885937608248583,0.887198825719184,0.885026372605688,0.884648625036436,0.881557474793044,0.880936776821537,0.87802954070416,0.877912479291083,0.877157632183148,0.87614101246918,0.876310941503154,0.878596769383893,0.87795384733422,0.879103724125663,0.878727585958246,0.878798949576596,0.880900194007771,0.881219603794895,0.881341421755301,0.88507494424778,0.890065509937267,0.889728218637268,0.889103578553979,0.888424643754849,0.885338105684608,0.885080994500646,0.880998443339208,0.8809586306594,0.880264598558458,0.879165424857622,0.878065403729589,0.875850864625121,0.875327838428937,0.874581177608023,0.874540547047099,0.874311828396463,0.87440573749864,0.873406919701438,0.872576285575316,0.872484857483475,0.908820814796305,0.908412961444501,0.903888560238906,1.0141604124417,0.928747144931626,0.929486625286819,0.875705350828589,0.875023645888742,0.874535399710921,0.875981196696065,0.878006172375047,0.877871573614607,0.87837910912157,0.877750323442265,0.87797831357112,0.880056650291776,0.881325392350876,0.882325076045065,0.884056110052942,0.883424490918073,0.885576322281939,0.886054153830723,0.886796768841534,0.888535735765665,0.88957849290098,0.995611888575906,0.894971124429486,0.895418585230012,0.896350140595319,0.897601262486262,0.897909112266794,1.0130223353055,0.939945456375432,0.902823966177768,0.903862577378045,0.906091472636754,0.908749086756263,0.910001807062913,0.910949308758669,0.911638461058928,0.929772058247216,0.937192412279813,0.919261675649323,0.918880773848706,0.918372066056343,0.92027614227467,0.928954627847189,0.930704564214844,0.932140433312582,0.933048132443338,1.03591723551856,1.12958503500271,1.08776250122695,1.1348780213471,1.13261992978527,1.01458128853361,1.07917237909508,1.08044361922735,1.08555314668245,1.0941859392368,1.2904943236885,1.03790084785366,1.03954250034049,1.04524768784659,1.04532324515803,1.05209087107161,1.27173001854292,1.17504794846462,1.17377392713594,1.21142564364515,1.20955859760238,1.21818313975435,1.19463439184866,1.15113513658006,1.1525493862118,1.17476633091985,1.19580109155836,1.13423118232841,1.10339317227048,1.10635749775029,1.21255259890079,1.21164823360702,1.13129456234875,1.13189598432591,1.13211218985087,1.1319566017392
0.907949601962208,0.909271288370173,0.909846481965553,0.908892866282331,0.91121935337563,0.908077978439702,0.909518448173693,0.910963379310512,1.01265153334357,0.915022876598157,0.916036454386982,0.915268738060288,0.903875024557037,0.891041843943928,0.891367774492386,0.890543885238621,0.892876155356443,0.885382452601684,0.885070977814852,0.88323914982715,0.883341339862966,1.07455821838039,0.878454316267902,0.876033921873569,0.982280330483867,1.12960075502755,0.884140164789651,0.884050578003666,0.88385588308823,0.884084115263053,0.884065550283174,0.885035965390817,0.885248279589984,0.886151472203452,0.886333267611467,0.88333089694106,0.881744588027255,0.88199106456516,0.881806770281055,0.882590498186214,0.886760068957327,0.886784909094096,0.885413208112405,0.88710096053948,0.886339678928394,0.88674849266632,0.886364902806599,0.886310439679468,0.886358848557692,0.881167531488485,0.88000246576758,0.879908504184528,0.878747092454272,0.878897013803675,0.876887353996368,0.87422035323244,0.873811512484168,0.875802363175737,0.874804666747986,0.877862353097936,0.878321899503174,0.87859363038785,0.879648559239637,0.879482833818054,0.897779704123847,0.890248613476121,0.890718350804474,0.890202129159551,0.890465381987726,0.887030707832844,0.884689191040277,0.882314415213355,0.881459990220917,0.880170075987358,0.879383938341629,0.877147711195547,0.875687270970381,0.874564838010432,0.873532283478774,0.873383009405178,0.874182414241828,0.874535245505716,0.87389845570239,0.873445099409975,0.873662886448856,0.898407583953357,0.899046941495037,0.903538548694805,1.0017397326501,1.01489858613698,1.00527886512442,0.920858147625462,0.913240074719256,0.907189380130539,0.876590757315287,0.877796977051853,0.878705948896717,0.878958652663912,0.879206007060638,0.877974133308154,0.880864725551145,0.881267089067515,0.882704925808935,0.883139850222114,0.884730311853024,0.884042333915628,0.898911802351928,0.894408508029161,0.88988361592012,0.89021501769058,0.893133119665382,0.89369451961385,0.894892618930073,0.896169367683469,0.897263425126024,0.898201564888382,0.957238612305566,0.957894265292715,0.957590477974604,1.03681405892626,1.17219117282767,0.908695878988507,0.909842991310865,0.910914720887318,0.9115523164642,1.33096347996065,0.917553915672533,0.919262896057663,0.919078814231126,0.921512185521052,0.921066572755726,0.927084645020824,0.928777203203599,0.932732573781007,0.932836810001614,0.962301287206528,0.953141112300892,1.02836075835719,1.04061268287594,1.13705881424215,0.977322827307005,0.978182306008579,1.05632799184484,1.08676129738104,1.04492776589409,1.09320206691286,1.03403565659082,1.03787506857746,1.11989095000706,1.1676654726568,1.16822311312364,1.17973305482692,1.17655922315403,1.17521339317354,1.44803342787259,1.21242637362072,1.22660610638108,1.21035172035761,1.22949719955575,1.21674826929977,1.23089904400858,1.09346923217475,1.15163060527497,1.16364773383516,1.1704062982212,1.17121450178364,1.20999988595391,1.12820999794244,1.12143364237719,1.12789912914086,1.12946569162317
0.908605264186417,0.909927490262974,0.910008655136788,0.911352386042714,0.909449288637545,0.911484034731711,0.90956955736534,0.910325439161304,0.908532039778019,1.09579741119912,0.91003853491265,0.909750908531429,0.910430834746357,0.965092571534139,0.958204779989249,0.891408200344155,0.890297683328059,0.888514449733836,0.88638658526218,0.886954882168048,0.886262579536476,0.88718913518965,0.889861088310331,0.927324603651481,1.12572889243088,0.885879077635233,0.886573863340879,0.886076619255705,0.886432358223147,0.886413893072387,0.886121678320479,0.886310698411806,0.886512092658339,0.887091148161635,0.886954153717887,0.906555700684644,0.883986822390776,0.883842546284729,0.883965543777023,0.8839644200491,0.885693544215291,0.885457522214423,0.885884468381435,0.886048342087441,0.886732374677663,0.885613527477422,0.886369928443861,0.886479222831517,0.886835906981746,0.961153335115126,0.880550992003185,0.879011172457471,0.878899214458926,0.879049701192527,0.878980338234864,0.874662880832812,0.873795044387868,0.875384340331486,0.875654530232567,0.878566187381333,0.878258094597132,0.878415020224011,0.878993807280512,0.878800549275957,0.936594638385171,0.890612492631375,0.89100818331076,0.890791174496614,0.891036540489883,0.890126716386338,0.884497884505459,0.882399902556275,0.882154755248591,0.881344425558041,1.14235463537467,1.14263058103857,0.874172334973687,0.873679325605867,0.872683128708351,0.872586828803959,0.872373450807837,0.873556102567798,0.873833323552755,0.874755715673879,1.00435591682241,0.92884865642577,0.903440233574053,0.904362124547272,0.904605704823262,1.03159052592568,1.03660288994737,1.03572159419246,0.934835280076623,0.908832215113473,0.888441569909047,0.87883922950048,0.879313143953334,0.880037729443525,0.880038922324634,0.881677979605263,0.881763798086655,0.881931519393837,0.882755775489789,0.883660353690035,0.883589687102652,0.884517113947673,1.05239633224797,0.950645482825426,0.988153329713079,0.892038832887205,0.892531084589926,0.893578717660375,0.893885329509767,0.892810656139452,0.896934605264212,0.934978350490325,0.957574174208714,0.957922724373541,0.959871142495349,0.960500421822129,1.20799529763298,1.10324797751152,0.93643503300951,0.91082914667726,0.912279751431325,0.914496686903628,0.917574977679118,0.918743912487322,0.920252479784418,0.920340945481762,0.92335751989768,0.923947372011907,0.92701077027268,0.926703031054231,0.931752843923909,1.07830075242215,1.12028760128265,1.0166300839918,0.987304649703948,0.967997230151724,1.01144291376317,0.978956286870155,1.04347266921528,1.1981301359981,1.08357891896223,1.04289549923073,1.03115919576018,1.03048464274564,1.03012067262078,1.10848968540961,1.03742641421735,1.44492903915365,1.17656005769878,1.1761678281629,1.17699978289913,1.20115928680321,1.17699446233275,1.19496098250937,1.1839777261364,1.36448225482318,1.21543140393062,1.19139130756906,1.17198754276977,1.27538629858967,1.17958124476636,1.17311737160096,1.1039718938736,1.12709432118263,1.10607758695143,1.16853639736391,1.1567221322743
0.909424613500098,0.91030217729917,0.910634786162663,0.910564262670412,0.911040771124894,0.910613793246635,0.910818101401454,0.910521871147228,0.909908682609659,0.909596442379899,0.910137877898016,0.909898812400573,0.910054086548847,0.939034396997774,0.924848144519263,0.891281047466179,0.890976848543388,0.890222874031174,0.889602408467102,0.889093389577641,0.889179817814708,0.889512779733858,0.890704073898051,0.890739330038802,0.889198514977818,0.887718726975,0.887204767031571,0.887235258339512,0.887242725825795,0.887077653086013,0.88703740230524,0.887309581504774,0.887519688862298,0.887893832533509,0.888337952508935,0.888943357883391,0.887308072586079,0.885664934957019,0.884769037972106,0.885217110015899,0.885521793030856,0.885983244120593,0.885807972313483,0.886042835923758,0.885882663753658,0.886027223350507,0.886335895906399,0.886701738048327,0.886744307304353,0.893272695421523,0.888157606315784,0.885297421590886,0.883833184458243,0.882928286926996,0.882327804069877,0.874875921481784,0.875010794750273,0.875795732839152,0.876376734418529,0.877620821934022,0.878192970282369,0.878438047652769,0.878929739676304,0.879056922758994,0.883095326382796,0.892271935775835,0.891449153789667,0.890946947247496,0.89047653138242,0.889470538297354,0.886484679205296,0.884383043918403,0.882954133631944,0.881391020099552,0.879212838585287,0.876274477656845,0.873741613902492,0.873129280089095,0.872523785004996,0.872210112913398,0.872610155231578,0.873024596003715,0.873737822560364,0.904870377677972,0.907597485366215,0.913864779471275,0.906673678487355,0.90596441848748,0.905902781162318,0.957364054162686,1.02853773438341,1.03191801508263,0.950643157564757,0.916167808701774,0.887189711349281,0.885039966629701,0.881249533678129,0.881518934297671,0.88133338301769,0.881775777338452,0.882266957530591,0.882862691484193,0.883413379279629,0.883784496198714,0.884411637401987,0.884708452011663,0.918130703377287,0.934613930343268,0.950646246558335,0.893489269173895,0.893564471362855,0.893597072920927,0.894195535889793,0.894382541701632,0.895306967912329,0.915177986814084,0.930718538964193,0.946208174115709,0.961261150744735,0.9613018994098,0.988590996392067,1.00802044748755,0.950329881402194,0.911358738537364,0.912804038466974,0.914570305218931,0.917473526384162,0.919010216104379,0.919885475706288,0.921633184742191,0.922912198783325,0.925904508777188,0.927048762970944,0.927793146167006,0.929729253533543,0.970588784256399,0.976982056782266,0.977838941955973,0.980758451713211,0.978441329673826,0.977134602732388,0.97706149339024,1.03202189988255,1.03331958803348,1.04226706535655,1.04269349312963,1.0342566811033,1.03097181222684,1.03122470712432,1.12357048993374,1.13678326813809,1.18071864003652,1.17765742358506,1.17662257767527,1.19196057568349,1.20436602526933,1.20738782302947,1.20869886875318,1.20993078648321,1.21060600989738,1.2019144878148,1.17504730973305,1.17078255504592,1.16774787878143,1.1671103494198,1.16776678766832,1.16803552861313,1.16699545554301,1.164481290207,1.16130104530661,1.15867954873968
0.910702139291811,0.910687017248934,0.911197356753006,0.910949547219834,0.910752362361963,0.91108655327828,0.910523116158496,0.910801111025789,0.909920318881404,0.908742777528094,1.07488590385628,0.908691148508637,0.90935474613334,1.07768847700532,0.902269223108493,0.892163940174389,0.89169540736646,0.891503625739565,0.891369850585408,0.892147247863282,0.890740436406771,0.889896538510653,0.890941258269221,0.890597064196525,0.889108755306324,0.886756823791246,0.887771181098297,0.887913006761987,0.888274478733952,0.887299848397479,0.887896123759672,0.888303081288678,0.888736015069681,0.88870515369406,0.889212251297457,0.890247731726859,0.889852388265507,0.886996241097959,0.885391955605188,0.885483070061614,0.886701400334809,0.885810185294334,0.885954426124812,0.885783032377341,0.885470287649426,0.885027622143747,0.887077091575245,0.886729353000383,0.886367984809402,0.900413849678582,1.09127594321214,1.09136792510011,0.947394834808015,1.07537743207011,0.959704492468642,0.874634513871379,0.875149867602252,0.875937942104379,0.875898666913718,0.877449774628634,0.878198718603895,0.878274499149155,0.878650747358434,0.878641242916367,0.881702496511434,0.928625888856352,0.890740401356514,0.890552909940453,0.890596871523808,0.889840423168665,0.887935270783797,0.885057024805192,0.883828915195224,0.881212009192175,0.873356026369832,0.871622567654366,0.872618363080062,0.872158829460254,0.871272980552116,0.872202685406587,0.872045914602078,0.873381634941144,0.874068966450827,1.10450694621614,0.899919341648505,0.965663308954141,0.907341107030594,0.906917555405631,0.907124525461248,0.915290083793299,1.02731867317537,1.26596965280889,0.962445640287035,0.92850781253275,0.887591915942449,0.889745462651991,0.881564215036745,0.88194651805679,0.882143642174302,0.881842362383549,0.883056317364547,0.883544120824433,0.884131567191172,0.883954888649792,0.885253438546364,0.88538967316188,0.885811927435447,0.918732163670517,1.2369953580988,0.895936498744172,0.893397977376889,0.894149899598572,0.894358379917127,0.894103385124171,0.894963289522422,0.893394342699035,0.891020990815276,0.938642302830036,1.00237345863942,0.961264019537144,0.961394168513263,1.03347218818975,0.963772183594208,0.906500404056928,0.91444416308204,0.913731916989467,0.919097541035816,0.919440307403406,0.920073020911482,0.921277495530672,0.922900451706662,0.927739681650783,0.927535637751411,0.92809679200839,0.929206485586626,0.933148417692883,0.967974395801202,0.977021948086117,1.03401166484077,1.13886218137239,0.973918244586985,0.974988242599407,1.02630417766267,1.02995575448127,1.03978448251088,1.08192299510618,1.03853573131221,1.02799303113037,1.02657958341285,1.16168948038195,1.17038817112102,1.18470541958931,1.13728184330598,1.03577074081018,1.25989888158645,1.46837579728363,1.277197225396,1.20758980479473,1.21255751119379,1.21285149052477,1.19100258494512,1.07879744929397,1.0873974904074,1.08592431742303,1.09344726581397,1.09496744641139,1.19883826105422,1.17751927189662,1.18618561753324,1.10796801438569,1.50349850631761
0.91100867045082,0.912793088427409,0.91208820201794,0.911842462580168,0.911372982112624,0.911414209656841,0.91138918572761,0.910827658724944,0.910491422144929,0.907987647259751,0.907722432414794,0.90440804389855,0.904199637010949,0.9024875561831,0.900178077623867,0.899347010413701,0.893129193129104,0.893218964166128,0.89292256971421,0.893255428603618,0.892444908174782,0.891391618039771,0.890736151195059,0.890878036008557,0.8905878542746,0.892011413610524,0.888107382294298,0.888831671647226,0.888747900669569,0.889833952539552,0.890108324113032,0.890500066805517,0.890382864646501,0.89098013644686,0.890623075802021,0.890846985414839,0.890061746133953,0.88830266877213,0.885546868883586,0.886087548280387,0.885988621725004,0.886999149496871,0.885169154618973,0.884820151005843,1.06130420321093,0.887067236196389,0.886630900598757,0.887039534004198,0.886893892954535,0.881909576468502,0.877033317213977,0.873082179862647,0.871921704508319,0.87105929175158,0.870631331092589,1.18640244528212,0.876256439061852,0.876341040252059,0.877514556288051,0.878398784816384,0.879401265065352,0.878219940663677,0.878442185672053,0.877800386164533,0.879377575532828,0.911657494185485,0.891393874853111,0.890011431262142,0.890030948179144,0.890258405222094,0.888544053635909,0.887267050927518,0.885189017987232,0.885285864348305,0.871716228784232,0.872361373421727,0.870407813794858,0.871722994672188,0.871370743329604,0.870761301164464,0.872379289117875,0.872611525159794,0.874365161294843,1.01203931282184,0.99699526713446,0.987706649532536,0.907068428521199,0.907234440384903,0.907719867728761,0.908015059541748,0.9739933707496,1.07247983632459,0.970432885540269,0.989545553945023,0.929691470360034,0.951292147650787,0.899543790400934,0.888010531194523,0.88305159425314,0.88336959239423,0.883729534464493,0.884599897050007,0.884970098617291,0.885335084558719,0.885015521079433,0.886066723740967,0.886180851231141,0.886557828977034,0.887154995051743,0.893682016148494,0.894767076649789,0.894316889044226,0.894783923656193,0.895700086634711,0.89487406399048,0.895122334475398,1.00356264112544,0.931311849037079,0.920820238379138,1.19812771496338,1.21594833234568,0.977070028466672,0.971444354312412,0.906734389621386,0.907914422565443,0.912857686138671,0.918476725254108,0.919782803223247,0.921028063548183,0.923260049158236,0.924801940786363,0.926729540590846,0.927204931638476,0.926851568036283,0.928842848415592,0.998147364574887,0.93529461213525,0.97561907067485,1.17762392384912,1.03315064287493,0.971056799713486,1.01420636699458,1.02022165375171,1.02463915865716,1.1718893675837,1.19575242106661,1.02432705648443,1.02549749571598,1.02425986811046,1.01827510669889,1.11069894882598,1.0987771081574,1.11839336673752,1.16945769653867,1.07473940784365,1.17349568325631,1.06076106875243,1.12436791146016,1.07627011272263,1.07593403539563,1.07805515518839,1.07880678554373,1.08700549707302,1.08513448234093,1.17973459429924,1.09859798016136,1.17967221376673,1.16814245652314,1.15791183618428,1.13862432078376,1.11065978572691
0.913161449559767,0.912820037777251,0.913430606575384,0.913338662634723,0.913391386552684,0.913012173565278,0.911931079937872,0.911490176615461,0.91023494585437,0.910750335340763,0.907318104193433,0.906177129189075,0.904919750834706,0.904418161099581,0.90035454416141,0.899343058110298,0.895033233870142,0.894269097636854,0.893641464047337,0.893132884032102,0.893677049878289,0.892728010807969,0.895256290839806,1.08813129572375,0.892367559663792,0.891308439777175,0.890460201229213,0.889680192181317,0.890997877453301,0.892050843540278,0.892140024905791,0.892071795584108,0.891777630539497,0.892177949540409,0.891802436871321,0.89123417521673,0.89079660027481,0.89031331306138,0.890585352752647,0.966094359252456,0.885657247273392,0.885478202424716,0.88403733309699,0.88050807033067,0.903570895738602,0.886435968088213,0.88689959992074,0.886418632816891,0.886080776282784,0.884902139570035,0.877621269615132,0.872148368306214,0.871919820368892,0.871769410758004,0.871842756194298,0.955582587501003,1.04448014101468,0.881943284872444,0.880439894668535,0.880233275956134,0.87928207990021,0.878794906607465,0.878523528246488,0.878073570447178,0.879029014266493,0.88710628982203,0.886939072586304,0.887989931408833,0.88810623539914,0.985521221545944,0.984549662624005,1.081534469696,0.934890237034878,1.08056003657034,0.87216693126616,0.870123677231066,0.871566984152324,0.871588409885806,0.870853724805548,0.871603809877617,0.871667569810448,0.873357641587887,0.874236790590575,0.983985506461175,0.998195508050994,0.979915718399234,0.907471386105077,0.907408230883728,0.907369163072711,0.907516197915225,1.08853635952557,1.11089731082336,0.96091747513178,0.931722810071356,0.983617126188159,1.03603584846377,0.929335575089446,0.914284004256703,0.89900421897698,0.890243762370029,0.889559497753986,0.887079086582557,0.886643858606401,0.885466539111778,0.886024549980728,0.885504793287468,0.886282585081798,0.886764435686026,0.886968040895211,0.892466807205167,0.892468985310098,0.894399163815243,0.894447860758162,0.894907650542482,0.897395476484891,0.89705660450537,0.920188986611592,0.922148927427128,0.922150850573149,0.887259910371939,0.961872311097683,1.17975417014009,1.00204530018761,0.905510968983103,0.906542712649599,1.02844942260217,0.973194662741265,0.980469026167516,0.992274169638518,1.00986203618676,0.925557850668493,0.92597719244439,0.926361020468619,0.927712250775958,0.926998470442395,0.929316715974923,0.937125406266602,0.937295161365088,0.937497490574204,1.03339784419885,1.13404175555604,1.00264252609446,1.00762391437904,0.973199746379439,1.12269106413204,1.21511589670417,1.08331124097189,1.02904622017894,1.02447456477494,1.01958830277186,1.01936716003536,1.05689538429687,1.04570626136299,1.03396684617382,1.03554777407379,1.17436932443439,1.17536587546951,1.17517340878686,1.17383537019399,1.07442273353053,1.07118875599451,1.14644204056003,1.17147039287563,1.21230384764724,1.14177034306766,1.19842366124971,1.17175417780559,1.16379558398952,1.15802428299442,1.12400557065948,1.12867396678496
0.913976519385251,0.914529263870017,0.914360319683488,0.914658066126247,0.914444598614719,0.91354101640957,0.912605662193236,0.91152934777861,0.91130116246579,0.909297333142486,0.909447704773854,0.906731182249108,0.905803581880964,0.904830479540088,0.902426900916444,0.902278900762305,0.896084353401567,0.895596456979943,0.895019093121011,0.894411482069787,0.895431920519167,0.897969755862301,0.897368949044238,0.897542519560527,1.06290797893497,1.08665508336538,1.08231241981391,0.896297070682265,0.894015366039367,0.893536400892601,0.892955517026255,0.892412741099509,0.892162614325773,0.892499220867213,0.892435096008547,0.892616415796536,0.891702319602168,0.891717129953289,0.890633131345672,1.13710302776499,0.947608042857607,0.938922703482696,0.883201068255313,0.881594080832719,0.881157845556674,0.886942914083089,0.88607599048267,0.886490639188582,0.886359542784919,0.886756522036953,0.911478516423024,0.872563623653433,0.872494219726089,0.872479774807563,0.873007733000512,0.929484477762425,0.882948645111857,0.883008352180763,0.883292726925295,0.882514863326016,0.880725101109482,0.879555534733715,0.879157632842812,0.879016116566536,0.878721466025909,1.09256367295023,0.886166283109087,0.886463695845382,0.886430446501445,0.885864176959893,0.886446759040561,0.887728226749064,0.887541722336295,0.876054790102439,0.871617977769547,0.87189282378939,0.871004101909191,0.872634202490915,1.14924321645331,1.14778875284981,0.872101483104946,0.87298413379097,0.874063806681443,0.874122885172571,0.980922545339051,0.969221573868496,0.907600470677771,0.907230895460753,0.906956005736369,0.9059571814337,0.905230207225649,1.03081224073631,0.954188216230984,0.931321522381943,0.931727676544843,1.01271344921385,1.03269444497994,0.928184134257293,0.944090647942499,0.898942270458769,0.88945169412797,0.888902622140862,0.888178634007468,0.887607062834281,0.887886925922163,0.88624936590591,0.885832545554337,0.886703532125737,0.887163037255114,0.888051078260821,0.891467968744467,0.892343694837352,0.89368514518054,0.894645253630801,0.896718768982003,0.897572225851035,1.00443375366713,0.922774841850692,0.925300913531458,1.29382291825936,0.964837673532584,1.15652244655159,1.03084969863366,1.20028596149737,0.905507619957601,0.906129732665195,0.913895877304374,0.985296069153928,0.99337434215379,0.977820556509829,0.92378983488402,0.925149998584567,0.925829113838174,0.925468742511605,0.92631644933658,0.930660429396614,0.935873289632134,0.936889838729392,0.936591935495485,1.18542801215645,1.02695592042942,1.00847066221805,1.00676030942725,1.38853264409295,1.12209644687245,1.1693888007086,1.04171880294612,1.03290934437588,1.0223465242981,1.02063020824402,1.01937548891718,1.02038469285042,1.03857767107373,1.17463062724436,1.30136834089373,1.40847834161212,1.14166191079058,1.17610914136689,1.17476255581506,1.18907460027798,1.23810751537863,1.23643946158152,1.22806071577012,1.21858803377807,1.2627451817933,1.23434362001708,1.12894139516287,1.1461557705694,1.12210643982817,1.20859219326345,1.19876967422385
0.915848848790108,0.915510583520463,0.915503445347124,0.915162268614516,0.914764707711392,0.913812273503142,0.912348248277951,0.91157156317683,0.910599544759511,0.910035520343552,0.908594679821994,0.907486533480979,0.906414819743726,0.905013026568185,0.903690999952894,0.901464005708997,0.897907503618977,0.896137373920508,0.895530830031127,0.895296495092947,0.896682732101291,0.898157830092063,0.89870039044538,0.89888363148028,0.942748933284521,0.968767020795418,0.943052178573462,0.896855757302646,0.89561480426264,0.89423838239441,0.893156143223628,0.89248539182643,0.892164243717991,0.892009461746847,0.892325766011446,0.892597510526622,0.89291245773579,0.893131063180415,0.904868196939311,0.913982454928951,0.923402156522471,0.931823899285211,0.883037383922232,0.882479987550277,0.882915699636617,0.884952515408763,0.885902536568792,0.886377501404189,0.886877977438178,0.887923449659223,0.877665007689831,0.873217249557868,0.873138069240584,0.873004497597332,0.887541163168463,0.905780450139147,0.88405784310721,0.883990332526255,0.883446843112139,0.882298828972236,0.879606783982064,0.878908330058551,0.879089187025231,0.879261841042463,0.879338541065272,0.880927848902628,0.884316499181645,0.885369137597827,0.885446015842007,0.885415264161007,0.885704675171765,0.887211070422467,0.885823215326254,0.876848427324061,0.873005018851939,0.872473679333287,0.872713022966622,0.873534659438786,0.927714949011967,0.955577408222954,0.924843564034589,0.873619833954029,0.874143383030454,0.874220999171386,0.897991189052898,0.89892823705133,0.907873004108223,0.906948956186713,0.90634174600789,0.905490392703299,0.904640245866485,0.921926804712893,0.923758933446406,0.928859756688978,0.931188836452166,1.013632356067,1.01802322223857,0.919713258142727,0.917366561788284,0.899453940733354,0.892435176816694,0.890707750748396,0.889625287832233,0.888467714502838,0.888112935490743,0.8873623755979,0.887151735506247,0.887203144813264,0.887194163560487,0.888454636520418,0.89009735996978,0.89210007746424,0.893057850466114,0.893961944934138,0.895332726631318,0.896011240735121,0.960093167317157,0.920885172341205,0.923322992208737,0.950012528692097,0.964776615874402,0.984079971640589,1.00579391723446,1.0306519688004,0.905749702707073,0.906292182172273,0.956050715533433,0.98888352151566,0.991363177549577,0.979904922341327,0.923370094170861,0.924366142748661,0.924988608636246,0.925527928660297,0.925297431467375,0.929471838440437,0.93667701317442,0.937269979230276,0.99187907049446,1.03018783934196,1.02557078066249,1.00702897015492,1.00699786444854,1.13163971797767,1.12855759448805,1.09756826798786,1.06943132350264,1.05939801871571,1.04657580761554,1.02847996960919,1.02112065577281,1.02110255461998,1.03449143635289,1.17494736358884,1.17556873714964,1.16879440343,1.16005129532533,1.17834053515196,1.18244875214502,1.18591162896479,1.20648785399615,1.23566379482849,1.23484348229913,1.23408617538086,1.23449246977328,1.23537260015145,1.21751143970122,1.21536460871793,1.21210419746102,1.2078913210976,1.20321942287259
0.916881547004077,0.916834373933587,0.916644028516184,0.915741114081398,0.915668004426087,0.91498968674415,0.910932421662373,0.911316237743482,0.910379182045471,0.910272649488411,0.908644895704152,0.907476065582324,0.907018207442558,0.906780056334204,0.90329173654836,0.902476129154909,0.897325324424334,0.896068839423671,0.894849351511965,0.895322178044505,0.896514527549508,0.899325484164252,0.900218380508678,0.9000687356994,0.901907544524751,1.0188087010123,0.898751135165616,0.897857513279611,0.898133965404016,0.892966542470145,0.893554194308315,0.891555104485168,0.892057710069186,0.891355370330575,0.891767929359782,0.89270474485378,0.893037223147661,0.893416552192762,1.07615354594332,0.897634137191431,0.87571567943993,1.04603233537415,0.882414989927076,0.88164214578731,0.882131000852136,0.884515837975173,0.885354547419749,0.886551406890649,0.885376054547207,1.04229847899638,0.872837585016392,0.873242226369321,0.873312785562097,0.873130472878996,0.901868617434764,1.05710465513836,0.884813908735587,0.884987108424745,0.883745333424088,0.882885612847324,0.876941002107443,0.877546917944802,0.878713123175719,0.87915828219861,0.878775998028247,0.87937501677611,0.884614396053114,0.884677039582809,0.885166636045244,0.883979427879579,0.883971276553918,1.0255721686663,0.883671934298173,0.877517379459626,0.873287065294206,0.872198104910412,0.871854235988432,0.873691246252798,0.861232154569602,1.14756313880864,1.09354675043056,0.873423674563312,0.874281202625967,0.874565334510317,0.875546925955427,0.886585624384236,0.96213697074932,0.905781856386382,0.905887170722603,0.905127159043689,0.903252351449508,0.919570874189711,0.921998958623637,0.991473350026246,0.93229141978475,1.02622573859643,1.02388559648225,0.912973878769378,0.908982487080947,0.898261774122477,0.896748235670571,0.891984369962882,0.890723098158627,0.888377469434829,0.888398850737512,0.888309659932801,0.887831355067535,0.887570093784149,0.886389149981621,0.887366474618313,0.889480553356565,0.891857985167501,0.892735492778204,0.892791061339095,0.894991806053778,0.89552816514625,1.11129348488782,0.917562881203259,0.880869947888278,0.882684243444787,0.965290506581647,0.914578295347455,0.980489189997784,1.20439927654996,0.906027527419524,0.906952133862192,1.0337769018147,1.01553443583349,1.02783022608724,0.982906396522868,0.922824981955926,0.923839235984005,0.924454593759771,0.924257731383618,0.92465679181962,0.929073728084503,0.934429109265834,0.936909873890426,1.12630665362151,1.03641161707498,1.024403414921,0.959549199981927,1.00987437196034,1.13821089575533,1.1470030017424,1.01012482994235,1.08657978064943,1.08501541309301,1.09867683905918,1.03956376414288,1.02148154725569,1.0160039644639,1.03245417371571,1.17473423117602,1.17664393983442,1.08402957866256,1.08238540218367,1.17888571503924,1.18790072875831,1.16605375755425,1.18444565667498,1.23620352171806,1.23465162201895,1.24228712696369,1.21543440109136,1.3169397570465,1.30956271165787,1.21527470172454,1.31430326050235,1.09722600559432,1.24666211302445
0.920101429198547,0.919411562940805,0.918785966355874,0.917199631270002,0.916740732971711,0.914591380309409,0.913092583889257,0.911713854769613,0.911247099978804,0.910711532147666,0.908987318764591,0.90872162693868,0.90845603869865,0.906894639902051,0.907124063041483,0.906021125513883,0.897916785378852,0.896315681485875,0.893709223903841,0.893702263006843,0.899623794875334,0.900775586060092,0.90238611800669,0.902910012077061,0.902240059914677,0.904432543955447,0.898970556414516,0.898974717629613,0.897980189750765,0.895025991900781,0.893893173188323,0.89288356490755,0.892660390760124,0.891967843977048,0.892176669804269,0.891611831239289,0.892126467488733,0.892675040520557,1.07801617917468,0.900428088075882,0.874834566103604,0.893229081385024,0.882225502453911,0.881698453356821,0.882282762863944,0.884198597934479,0.885574032006074,0.887325107623621,0.89023616698867,1.10546413273781,0.873940960778482,0.874002968604609,0.88916701349951,0.906422583313605,0.903291595272272,0.90226183394881,0.88723602524555,0.886799447815563,0.884062967639639,0.884388217862231,0.884542349534953,0.877054231702829,0.879328861316511,0.87995673813512,0.879712738503125,0.881104462278438,0.883289841595715,0.883925514673606,0.883673500819576,0.884400307968255,1.05701852855722,1.01470091062279,0.88129197341155,0.878299238132724,0.875719400136215,0.87342562223813,1.09608198016502,0.922312172633648,0.862728538166983,0.862816772060852,1.14604137924475,0.874387755602547,0.875318472382878,0.874933130345751,0.87561161022274,1.20180366264885,0.908651058832676,0.904238229876878,1.19812151269611,0.903372625382288,0.903160932929769,0.90425774369911,0.90878593102842,0.920365192688883,1.00754088081099,0.982717153345769,0.902700622459743,0.903795949421505,0.903638193710371,0.899456195114578,0.898049718987573,0.893543227695837,0.891762930308092,0.890481299827838,0.887550776660624,0.887600643977198,0.889150989406,0.888801513875543,0.888832081130866,0.887651475254439,0.885990933173067,0.891348921578249,0.892202752689082,0.893327915088904,0.893678917900349,0.895871521048905,0.896925773934798,0.897332312573849,0.881917487241353,0.881850402984445,0.916889915288946,0.973507724952157,0.970909694996634,0.967703613796104,0.968031793880312,0.910932431073036,1.03420143555046,1.00317155755526,0.976727957407711,0.914075704068632,0.93215372959201,0.924215943679907,0.924131323663548,0.9241337409833,0.924201311208451,0.92818644906624,0.940874766547023,0.938945814246832,0.936364191764427,1.06603701553555,0.95214191544616,1.01786059490713,1.0144148536749,1.12576456251302,1.01369815612236,1.05413842141547,1.07737837578287,1.08182358933184,1.11389818950406,1.14952077693695,1.04933805948611,1.01188308648681,1.01312293746426,1.01212313581817,1.01232472604418,1.01287784279412,1.32202973909171,1.1778692195476,1.17781982184977,1.17764686481624,1.23255480471037,1.17389821111691,1.19914851128576,1.21847700130241,1.24934993360517,1.14000982163646,1.21560117283611,1.20593911171063,1.12453909814651,1.09776640655998,1.33474910953735
0.922243543973489,0.922077030891277,0.921982739162401,0.923796842844814,0.917020543910466,0.914817479124538,0.91273845941566,0.911651480751713,0.912982200729052,0.913773335307373,0.910996598080823,0.910305236246874,0.909918015587856,0.909085655342787,0.907491586540334,0.907452368691797,1.22671638211832,0.903495965917837,0.899975348728824,0.901128998053597,0.903794363281877,0.905664159852027,0.905000982546828,0.905887716498248,0.906251751395696,0.903607319733579,0.902709708280368,0.900791311836218,0.89606952938399,0.895139238746962,0.896479220493537,0.894720163698922,0.894454623428907,0.893723212639065,0.892024980858632,0.892309957997835,0.891494187827459,0.891723742437892,0.992542059860355,1.29507329704893,0.873610991618506,0.873163098573701,0.873484313262216,0.873826682656675,0.875502268255835,1.06911690650865,1.11143533493072,0.878167514144468,0.873679310057197,0.874159487483999,0.874621606184667,0.875024869761047,0.895033290256526,0.90751514053064,1.05116306449998,0.891307786479812,0.890538436324217,0.889502660886866,0.889030684027078,0.883817664034379,0.883771195242276,0.882805814844935,0.881247448654508,0.88122023291265,0.880652668139609,0.880733581842282,0.882461970827182,0.882590106288018,0.883279846194103,0.882629670342912,0.883617974037955,0.882429105972407,0.881360774992314,0.879507356722003,0.87700105785392,0.876139721810551,1.04579091630518,0.949785452434156,1.08802210073387,1.08755069332776,1.15232720186791,0.876357378012037,0.87652341424771,0.878206058526786,0.876377992685362,0.878668869792791,0.879736626442884,0.898733273591421,0.961254785310645,0.900746903312885,0.90202060129305,0.90398940317212,0.902939279052156,0.903301335950262,0.902638242098296,0.904748772523593,0.904695679478814,0.905442317043805,0.904542786899198,0.983996300843179,0.89787493339728,0.89280771126564,0.892684909274492,0.890937738854507,0.890396139992431,0.888771851509769,0.889802411463961,0.889430238723109,0.889499637844023,0.886640774807039,0.887589505228973,0.890035487070705,0.892096130744428,0.893019896397725,0.895122065789894,1.01922648221172,0.994745632425207,0.898483740511764,0.883414255085377,0.883019754426757,0.883716513459176,0.884345818190884,0.925916324814078,0.92634519269252,0.922893403627673,0.920353792783943,1.04418402953154,0.992849030865364,0.976598260645284,0.9836578648644,0.932310009149132,0.92418341457861,0.924479148082501,0.924462306017654,0.925612582239459,0.926297362982974,0.941737285731976,0.941510992769908,1.13768941230079,1.03900017258933,1.02206800489445,0.953625096981107,1.01593923698688,1.01760941171117,1.0150598253186,1.13308460245104,1.06165053983532,1.06814767751419,1.07065623468991,1.08511408038859,1.0618877565995,1.01592926651072,1.01430171552691,1.01218470575003,1.0121012623541,1.01262801788301,1.02022395153619,1.17707289318666,1.35517771196836,1.2033473805505,1.24840387439034,1.17478922556219,1.16273650298663,1.14673063937607,1.1855229161022,1.13984043529543,1.1375470070557,1.20159335178882,1.18820272408272,1.1255221370619,1.2134710236378
0.924144428713297,0.923821269044848,0.922935123647419,0.923291244056942,0.922846525656889,0.94357046184057,0.923298543051425,0.919688465227966,0.910923993152551,0.913931721023903,0.913406453036506,0.913364913891089,0.912842345359398,0.91415159763721,0.909540682548465,0.909216303172754,0.909292063322256,0.909369578780665,0.907656736726513,0.909571452133264,0.908276504561545,0.907057966528805,0.906348885712903,0.907519384798263,0.905154276216919,0.905349410220257,0.903745469434769,0.905528092976508,1.00793470333041,0.896079489847203,0.89625779237884,0.89678433983029,0.895821368772166,0.895612403903122,0.89493089432075,0.891843637323721,0.890407680625537,0.890107375250507,0.887944974078314,0.887539894382004,1.07242826278712,0.873845267282704,0.873237210225968,0.873453472330028,0.873216799515092,1.07599819859851,1.10452056868398,0.878313521736271,0.875157914286585,0.87430744583426,0.875117730553192,1.27799915909477,0.950229356078788,0.908158351579051,1.04477350223194,0.892782919317457,0.892522370558856,0.892487050751735,0.893580149775022,0.883841360450801,0.882426938305593,0.882207101826992,0.882043761493917,0.881647585973136,0.881739871502364,0.881484344374302,0.881581259379258,0.881950279017534,0.881286225078836,0.882314121880871,0.881711252994114,0.882442951602449,0.881815396021365,0.881951464503339,0.877914867828643,0.876634352509885,0.877016480877428,0.877484296713376,0.87715123418006,0.877256289059581,0.877732642894694,0.877107802199659,0.877408169957675,0.876613668433989,0.878069349121861,0.877714400937186,0.879267848354925,0.894873956617269,0.967760302931318,0.992611533791309,0.898847783808567,0.897544431090991,0.900380563696038,0.901128539015779,0.903566675434498,0.904368210197495,0.907218868688937,0.908142977821804,0.912481463446734,0.913753170081443,1.09910013586399,0.895245491306145,0.894472403385085,0.888859440883865,0.889797571109125,0.890463083795375,0.890068346167563,0.889911217084629,0.890425405957265,0.885718881929283,0.887437854172895,0.889619847902883,0.891768839158056,0.894016724196892,0.894723238801386,0.895344273401069,1.15652270386234,0.900964516200703,0.906333245345927,0.917522130300888,0.884055197144199,1.1803057707702,0.924567577102652,0.88681995249597,1.08130164054208,0.971159550153703,1.04018199877515,0.987215476973101,0.918390352764651,1.01817173504821,1.01595265399748,0.923949463879491,0.924420117382446,0.924734773964295,0.925234143461055,0.925853783608714,0.926055355667141,0.930049524483083,0.948398725499568,0.946646037245519,1.0664667425811,1.0736483396272,1.04200223271557,1.01918806082344,1.31017269884576,1.13277416334939,1.06417018822203,1.0660452871343,1.07724294680257,1.0624507351638,1.0622623053022,1.05192479378061,1.03799467104359,1.0142981396261,1.01353689642846,1.01285986943095,1.17734318421482,1.17624981301059,1.17445955671679,1.03104113850054,1.03423694127977,1.03670142711596,1.04277257030632,1.04250403807922,1.22419770552335,1.2399526825887,1.30127345118481,1.20541276549031,1.2172985686754,1.2157406411251,1.12176746427635
0.924196043685384,0.923309051898135,0.922762632163003,0.922914124125507,0.922863362328328,0.935979564897783,0.927950993415943,0.919051812731382,0.917348549553643,0.914516091512915,0.9147139147154,0.914304790193638,0.913991394903658,0.913388828207839,0.911506730666326,0.910737440849858,0.910064672349859,0.90975493454994,0.909081285420909,0.909252423372947,0.90877988319344,0.907410022159093,0.906728100416054,0.906145041759655,0.90582520742717,0.904986047892682,0.905183444731982,0.905623179546635,0.957122010594474,0.903948759691305,0.897023650964199,0.897017502843618,0.896674738883048,0.895924207483111,0.89504549338385,0.893581849952103,0.890981797695599,0.889881234135095,0.888625792922796,0.887483915837029,0.886585853954604,0.87955729832837,0.872792597581401,0.873024130712239,0.871421097176712,0.870634380041806,0.870103174934572,0.870999075435483,0.873473841926368,0.873160854232399,0.919986327567083,1.0021047280014,0.976377954946279,0.953217064121034,0.930321353116662,0.892961446796743,0.89302235188231,0.893336903067468,0.894317608779709,0.884172112081544,0.883541174052035,0.883018440230289,0.882793476301324,0.882405027970192,0.882051939849589,0.881520472014867,0.881477144382498,0.881354599298742,0.881301327288026,0.880811270875859,0.88120343067392,0.881731164213383,0.881853406858823,0.881521193903016,0.88011791106213,0.878915574060255,0.878337905086276,0.878221867557822,0.877762139169099,0.877881327683781,0.877899857336294,0.877865618443497,0.877762029493988,0.877968397123183,0.877361225372715,0.878236982822671,0.878313379610341,0.894261952410177,0.931216495983746,0.949495226335323,0.897166369245647,0.89760500948962,0.899651456179404,0.901204029964903,0.902380556789,0.903864666398346,0.905223022752472,0.910803577599413,0.912461311002699,0.914392729635965,0.916406089404425,0.901372189096529,0.898208127258693,0.892716344353055,0.890713792386954,0.890357138782213,0.890351809983401,0.88998340435972,0.88980130383458,0.889296270117361,0.888924806709359,0.890448553907929,0.892175708860518,0.893654572790816,0.894663205250129,0.895402122361722,0.896849375431815,0.899464818788842,0.903209676990923,0.897867289657186,0.891482899176389,0.907492326927701,0.922658315725959,0.924349139915267,0.951360187749065,0.970334440414205,0.977980757012255,0.984346654567147,0.991282550089136,0.999225234066981,1.00440958520315,0.924676731924882,0.924748808394999,0.924681295039409,0.924807389903784,0.924990929727139,0.925081480633552,0.9265646507538,0.935789802645317,0.988794345556499,1.01879939377358,1.07674608585391,1.07769335965341,1.07688031799707,1.07615940971329,1.07293308449637,1.06606246922373,1.06453008489158,1.06281281291493,1.06212829121745,1.06159987651195,1.05564296534563,1.04790142415715,1.0368372915888,1.01366813562102,1.01367211675804,1.02393969778017,1.0272926568249,1.03394050071559,1.03239841985253,1.03483684710558,1.03760320917441,1.04100783603737,1.04198877303455,1.2325293710098,1.23389074849075,1.16538625457508,1.14861119137131,1.13638045807728,1.12884505888509,1.12010898630064
0.924894448943558,0.922895569247404,0.922304168584348,0.922407047287718,0.921162351572829,0.943148133013669,0.941390401132801,0.921321818499134,0.925619654534195,0.9155031973001,0.915646311659958,0.915036761011843,0.915405661035287,0.914145238643982,0.911727387201875,0.911161104146705,0.910877174516434,0.910664866855974,0.909189532615741,0.910608696407367,0.909665978939986,0.907076075011483,0.906714259713603,0.905848250363663,0.905304315627594,0.904666065726971,0.904368221064333,0.904899637534325,1.01414337021623,0.911116866044791,0.899353591835736,0.898955540913698,0.897263328119242,0.895813526662925,0.895901558124056,0.895632153800667,0.88982073649516,0.890183777207495,0.888260084948289,0.888846880567349,0.883043059244111,0.89676892299536,0.87349544134168,0.875409712955208,0.86946496967106,0.867453097508112,0.867197872961796,0.868201730681708,0.866799647735416,0.871741965079309,1.02773372192336,1.07524808254015,1.00210687398835,1.07576548065998,0.89288195922211,0.892538861337575,0.893272116940657,0.892494218861866,1.03326984841852,0.885914026281116,0.884181307015476,0.884033884576169,0.883329451554901,0.883379057173834,0.881829090310576,0.881748060216334,0.880806549763564,0.881115088577552,0.880756283157699,0.879542387596341,0.879722133911259,0.881752538126124,0.882072381472146,0.882417512207376,0.881662013903032,0.880293484073265,0.879114059205553,0.879122833613574,0.87721415206904,0.878279828543328,0.878491226435491,0.877873944057594,0.878444218356834,0.877339423905803,0.878458557327111,0.877147811958502,0.87837029398673,0.896824344670767,0.882175254762635,1.0038299440503,0.895599765217863,0.895927847485765,0.899586654394873,0.899840077064052,0.902821532987777,0.900822362919129,0.902849720503573,0.911773618936853,0.912877675696091,0.913536010784984,0.914664632186546,0.993076686892635,0.950944077173756,0.894905913041042,0.88973901176156,0.89098243016816,0.889971732919726,0.890385391331163,0.890290089052378,0.891239278947415,0.90188867408502,0.892077351057317,0.892766172356481,0.894173347453936,0.89410506358937,0.894871689102625,0.895941517654284,0.897083725409353,1.15903208474348,0.885059703219941,0.884769740429373,0.893824384913234,0.919680138964809,0.925698495470246,0.925655968991183,0.971662716114511,0.924404927536812,0.977958726813499,1.06509848947658,0.918919548092567,1.09885006010608,0.925357721694475,0.924901553317931,0.924627642606834,0.92381069286854,0.924551312759232,0.924059197250198,0.924434783864753,0.924530963107745,1.04065148772248,0.939478288052696,1.12625491375231,1.07734080557372,1.07552414556792,1.07569294935132,1.01844418604955,1.00720414504289,1.06274934648854,1.06161774317106,1.08142363894598,1.07152100975329,1.0879653776049,1.07887567465105,1.10458899866368,1.01356728463014,1.01471067547265,1.01990507013175,1.02436460234285,1.04415169744178,1.03120604954246,1.03396624888331,1.03690718938174,1.04082209808963,1.04166376196632,1.33780269216728,1.34612252231019,1.05605280785608,1.05713444595868,1.05682204053803,1.0626522716485,1.06588248600255
0.924649910256583,0.921759625914533,0.921917808675925,0.921612555035046,0.919727652250362,0.919238411270969,0.91984033952977,0.920315198567007,0.932144561529345,1.00966787087233,0.918340289160674,0.919616409277751,0.918617201648062,0.919011558596381,0.916535358660558,0.914019947205219,0.911770816152469,0.912106752061718,0.911776535367786,0.910335573713206,0.910859665017062,0.931430012979935,0.913169086052198,0.905629241702239,0.904916542713773,0.903707619114819,0.90385627685607,0.903551175833466,0.901294124811499,0.90047409914031,0.899911932287528,0.898518861054126,0.897496932190127,0.89529415782705,0.894608664664362,0.895016522297887,0.893040546409225,0.891311506711811,0.890156034697875,0.888055048197868,0.884446046075536,0.872109777976482,0.872815383094541,0.870728386727457,0.86938899626786,0.86794529622603,0.866902040550541,0.867884420249127,0.867870908115504,0.870809670964852,0.87162045578944,0.882384961325367,0.887569595620752,0.887429993226145,0.892471416033417,0.891704359590356,0.890557324985729,0.890689115055361,0.889605484497101,0.888241762630285,0.887648444898174,0.884329431143681,0.883900417025424,0.883082648322908,0.882926493997396,0.880665331138183,0.881306092963037,0.880785520646601,0.880667956190279,0.878813644473386,0.879715702383312,0.881196255118945,0.882234735063261,0.882271755887902,0.88274589738564,0.882920374446893,0.881236068856609,0.881241944308611,0.881405898067433,0.880833251152705,0.880485180105032,0.877964104226132,0.878618815127676,0.878487557538668,0.877082511592944,0.878358885298286,1.01891205059343,0.933179023133529,0.983151344826398,0.879465511791703,0.986057269984675,0.919692702774484,0.900710195782845,0.901871765932934,0.900075714522249,0.897860633789001,1.04536834112038,0.911809213312491,0.913482732972359,0.913560869347936,0.914971652058733,1.08698021212109,1.01603929555798,0.97878789319156,0.891148820373104,0.889910527592154,0.890531731935869,0.890166746984966,0.891059243954161,0.891226362638409,0.892388881562512,0.892788519192568,0.893189391196561,0.894124016078757,0.894199206927593,0.894404539290802,0.895313509106777,0.896159711678421,0.896399559283668,0.898974756324782,0.897385315624512,0.894982240075753,0.91879713502925,1.03403732229626,0.923680111700772,0.97429217537386,0.92514652842553,0.972196766463272,1.25273288424342,0.920660821912546,0.923891259797407,0.925073338523333,0.92482045201141,0.92470223923395,0.923991999404692,0.9240660289978,0.924501431315117,0.924766082756477,0.92461310025917,0.933975179039858,0.936393685166705,0.938553589740787,1.01496165507068,1.07548521383409,1.02393547984313,1.01879523429783,1.13294690489985,1.09539686449467,1.13196421272938,1.10574484587588,1.07078035113982,1.06945192737451,1.07285950992145,1.08772462939091,1.01349688175075,1.01320396836884,1.01823875948385,1.02235727318346,1.17109714997818,1.15798759151345,1.03752758809855,1.03643713696464,1.04156625592455,1.04163152834758,1.31507058999228,1.04920143182631,1.05557435565678,1.05824772508064,1.1359131332079,1.06318565350001,1.06404927769741
0.922357181539397,0.921988552746151,0.921695618340585,0.921337849586615,0.919719949149233,0.919982514485002,0.91971403625246,0.920147149543548,0.919814313649744,0.920725596159509,0.920228686908521,0.921668489483841,0.91977271544566,0.919578583853703,0.918382750213092,0.916781076965906,0.916570799261726,0.915059129689182,0.913051091336015,0.914445298273944,1.03191599000498,0.920238302940642,0.919364647567,0.951590529848228,1.01252403982522,1.119545984899,1.00721582352063,1.00632754615202,1.00631337516595,0.901262808193654,0.900399466274832,0.900162313691235,0.898311486369911,0.895679986683077,0.89543015188581,0.894399695133327,0.894299263541544,0.893050469367754,0.89205876826169,0.88512826507062,0.880348074993352,0.873352838069651,0.873891305924873,0.87239573894232,0.872285931576736,0.869027362392176,0.867687395972197,0.867755893271589,0.867634130527875,0.871162372000325,0.957039858764605,0.884368946527201,0.886160537122502,0.886989966871762,0.890329603401529,0.889621322357389,0.88947253094962,0.889405588116982,0.888492397374141,0.888689878294416,0.887888257926318,0.884799802318655,0.883644739191186,0.882688511511925,0.881200971889297,0.881543056000506,0.880054063284377,0.880919117683435,0.880777891677472,0.88102720663461,0.881480686296763,0.882893870791617,0.883272653302976,0.883750561070315,0.88429950681371,0.884452565497198,0.884496142803519,0.883429097054405,0.883375321500743,0.882392253719384,0.883275440402538,0.883690729777162,0.883660458474295,0.884106741684543,0.878063813199973,0.877532164603088,0.869099156902058,0.871778334662564,0.869824190037549,0.878862112737835,0.878264866213485,0.980788457842787,0.901531546900059,0.900860060805715,0.902867085671199,0.902336824783424,0.902461318194353,0.909623168131545,0.914701635531608,0.97801179603928,1.01236455218559,1.08789427513147,1.04930030823139,1.10090609241957,0.981737152108942,0.889072361515875,0.888949442535419,0.890028137725619,0.889625994786641,0.891295797381743,0.89208367856824,0.892876326412951,0.892949912364407,0.893350300607492,0.89372930063669,0.893786543857945,0.894559964406594,0.895472291461669,0.896525528176208,0.89726668476584,0.896859153959195,0.996388075805025,0.919244737143167,0.918468622450128,1.08081496709602,1.06996172292624,1.0361537818651,0.970994482325018,0.921723575706424,0.921715086179223,0.923773165302565,0.924490938424997,0.924398798885288,0.924437733157791,0.923836293475294,0.924139902286012,0.925365998797158,0.925770182595584,1.08742418495999,0.933461317408977,0.934761055254306,0.93717345399363,0.98711381535238,1.12613418898157,1.06316248282644,1.12347829145582,1.04387245267357,1.08140499779928,1.07822945489895,1.08764435201385,1.07779520137146,1.06682354465991,1.06882842809894,1.06572861822827,1.01403042418636,1.01399817062242,1.01417931361035,1.01402611968227,1.0191206640135,1.18135197369354,1.18081031955254,1.19794019740681,1.14847089877701,1.20792917274843,1.21530485463973,1.13931065984686,1.05567657566325,1.05951188299605,1.06026465904952,1.06267620240753,1.06396814078627
0.921983160400329,0.922790653996706,0.921992877904186,0.920769270337398,0.920393118355848,0.920153405035061,0.92047087877981,0.920281982566797,0.920403695233424,0.919180626092405,0.921953452079847,0.920731635660507,0.920491337929769,0.919801398112819,0.919235442018707,0.918036300778227,0.917198206660022,0.917030082314122,0.918352639779298,0.918224911043726,0.91748924810837,0.915951745240245,0.917246995758221,0.915800810530904,1.00245177628939,0.99342890921937,1.00597972592002,1.00579340251509,1.1110520324319,0.901109701321909,0.900844017653839,0.900927179171194,0.899777016391565,0.898876559155695,0.895954171486566,0.895349711032898,0.894721965639382,0.893676875642709,0.892621216332528,0.966456504469366,0.879802599781943,1.06903068180028,0.875757420222184,0.874004337669803,0.872975157806456,0.873430795687209,0.958773542960681,0.933582710836925,0.965991363890655,0.878688150775033,0.879859237718391,0.884253462069797,0.885537667290854,0.886678249679509,0.887333658948307,0.889319382001076,0.889144431450341,0.889369287653792,0.888938543503235,0.888812612256573,1.02233550148626,0.936413414828424,0.916342040001254,0.940889717895929,0.881554651745624,0.88051716559084,0.880834499980863,0.881011950672133,0.880946437885611,0.882297360754648,0.883123781008222,0.88376154144032,0.884354108490872,0.884746869497186,0.88590417775535,0.886073083218175,0.884855648481853,0.884600563178113,0.884128467184115,0.884222574729022,0.884264617380646,0.884634273282407,0.884543761713539,0.884474140562697,1.20057053046327,0.878659240223042,0.87890847369673,0.879127374729903,1.0166699920742,0.878163113428967,0.878434324659745,0.878756924691043,0.896347202519681,0.914505471185806,0.901877547533366,0.902576897180195,0.90167630541171,0.906929633710965,0.917139065697829,1.02211563421028,1.02156544173849,1.00897976162026,1.03154022049869,1.0806081600352,0.935852121363712,0.889579524762122,0.889503453344495,0.889861459796149,0.889991453729978,0.890159557560717,0.891768759240827,0.892363983655033,0.892585105923867,0.892812044602917,0.892898064355061,0.893123468092489,0.893835461394955,0.895065419888989,0.895643947700595,0.896374782432671,0.896256384809211,0.896188614910869,0.910460697500919,1.07979277621948,1.08008118213738,0.907456571510774,1.06035183636461,0.969169784632934,0.965841725407723,0.921070905796836,0.92295322591098,0.923891813751718,0.923804075438555,0.923855068933877,0.923434397658807,0.92299119434778,0.927099401872601,0.927327711858211,0.929154372746999,0.931667671484912,0.933660942685712,0.939297784934502,0.939887629767839,0.940661952271623,1.07321739496415,1.06864615865843,1.0362656785371,1.08349562191007,1.14352740857222,1.01712716091228,1.09924280713348,1.07216547053368,1.07091886132887,1.07244088136581,1.15766097955328,1.01337618871785,1.01261244453242,1.01124000215477,1.26057148245221,1.26050249603624,1.18687867576089,1.04797220384175,1.04664125378479,1.04967910986603,1.09744291079796,1.26785717301956,1.27662907039087,1.0669779521272,1.06431576176496,1.0690594247502,1.10210225750266
0.923061397994512,0.922748029977611,0.922657782933963,0.922134509154887,0.922005919555067,0.921580593282238,0.921310037238148,0.920980799321391,0.920746243019611,0.920692260222764,0.920826980262586,0.921032438138581,0.920539931695,0.920054633735995,0.919450942120843,0.918913647898369,0.918509430239253,0.918658051163049,0.918620387905094,0.919099290388081,0.918387027482325,0.918014906821731,0.917496174166191,0.916670173238479,0.950192455953616,0.962018797018072,0.978746743705061,0.977887311891338,0.976940711346666,0.949792410919123,0.901422896880599,0.901366062815555,0.90075496741096,0.899861316801031,0.89850770156998,0.895679238369116,0.894822845324025,0.893895407931573,0.892451838000601,0.890181045564554,0.880301252477875,0.880402910113272,0.878196312474154,0.877622270744082,0.874672378217555,0.874000561108214,0.899447459622162,0.915259209382271,0.929779491348477,0.881324467805163,0.882319261254479,0.884655394442922,0.886337215271891,0.887371902285804,0.888173491762258,0.888997347063769,0.889524728205902,0.889695333850881,0.889666586211956,0.889925848190936,0.893074093322329,0.886962674244728,0.884279624528142,0.881915643229523,0.881661665498426,0.881416939340099,0.881441174596441,0.881892318762306,0.882415606964901,0.883893419246406,0.884430013964933,0.885060578779852,0.885438768671519,0.885847844112186,0.886397926825734,0.886995419664035,0.886622342242734,0.886061574885355,0.885182083918976,0.885253988499365,0.885615226410414,0.885622421576789,0.885742388533832,0.88569487458625,0.915311251653195,0.903810234320658,0.879735342901607,0.879842983952233,0.879789321854325,0.878928366142404,0.879002576122885,0.878775323471037,0.888583887433168,0.895512939864472,0.902336914699941,0.901792752520879,0.90183077230914,0.90330457481534,0.907683836713041,1.01016164262606,1.00051622598626,0.987273350772304,0.974188274262849,0.965204011584266,0.960177554971822,0.929085775038134,0.890086440616829,0.890205070584804,0.889893262968153,0.890295007255086,0.890808640337714,0.891619171043877,0.892055547849552,0.892469169017312,0.892620142128485,0.892910013280441,0.893746603364329,0.894628046430809,0.895434528542056,0.895709778420923,0.895988379373948,0.896389941250561,0.898198432940954,0.900667271388421,0.902833204073601,0.905662169057045,0.938605632425078,0.94556718922823,0.949854504432307,0.94413141115856,0.939855249463031,0.922956494889934,0.922754177498637,0.922993161125761,0.923357548799045,0.924508735309054,0.926458482170276,0.927924002908793,0.929478626302538,0.93151541545093,0.933364534248828,0.937678209161475,0.938919026166816,0.940060203256561,1.06024525034622,1.07521126885143,1.07877004730099,1.08420993043306,1.08588033529769,1.08697622526465,1.08742853587748,1.08488431151723,1.08123515062661,1.08032016770153,1.08234153050877,1.05740346638042,1.01076520330964,1.0098671828232,1.05105421084266,1.04709130080023,1.04526661085629,1.04549915714867,1.04607240439741,1.04840558015167,1.08365155408148,1.14454900544413,1.1263211547957,1.06956098896463,1.06959504147448,1.06902984002387,1.06908545008478
0.922825263394279,0.923562586455735,0.923282392305672,0.922922328617421,0.923328935519709,0.923191402810485,0.921974627058548,0.921590868229116,0.921211954984106,0.921363318998009,0.920150425823165,0.921667702897401,0.920730667167748,0.920292249541102,0.919859689653557,0.91943165971567,0.919569384962575,0.919986501599563,0.920772066430794,0.919100643517646,0.920397592619301,0.919108237755925,0.918334093178641,0.916392803881487,0.915947091780382,0.937573606376976,0.979774080800029,0.977790334037929,0.975536714094256,1.11234552773146,0.902413441273736,0.902131803695361,0.90149198105198,0.90192399337455,0.901008211718403,0.894455317774428,0.894094023811703,0.893765934045692,0.892267021355094,0.886495605299177,0.881420619727552,0.881445959295982,0.880635335929536,0.880664778422114,0.874423744248997,0.873823579850735,0.87646913155799,0.898655640056301,1.01647165612827,0.880498119903122,0.90244436129386,0.885389485474531,0.887787099497516,0.888565169154502,0.888732785723621,0.889168159023065,0.89005146368802,0.890115982598176,0.890245689291715,0.890500804421745,0.902745878592726,0.874111290723671,0.8823558993404,0.873290662123001,0.873802811218826,0.880417997951005,0.88168306835942,0.882205320318838,0.883076663746508,0.885903059813235,0.886180505468866,0.886073213516527,0.886694201585566,0.886551044504928,0.887171908190172,0.888576636903048,0.888817260500663,0.887658196603734,0.885605125828334,0.886349837674985,0.886608297174402,0.88662273791576,0.886853081708918,0.886847143320841,0.932254246803104,1.0138011772475,0.878893102167188,0.879832789692756,0.878561786806308,0.879275642189237,0.877659145919553,0.878449034763101,0.877801256088945,0.877836605527467,1.1315065047689,0.901132449020639,0.90004294707551,0.900836266725785,0.899934411622898,1.03933521987213,0.943972688805422,0.94413889598031,0.944148049994346,0.944329879124503,1.07787818964925,0.957425359351703,0.890267072352675,0.889990634132423,0.889252738476,0.889081719671502,0.890365746546447,0.890543068054015,0.891650465020312,0.892488971018188,0.891955163404645,0.89243389733665,0.893247743116795,0.894279753058002,0.895154079858476,0.895446671794459,0.895513972577053,0.895934458753563,0.897674818861286,0.900380750931417,0.901359239111934,0.90546962053789,0.90880697116314,0.939713228158115,1.19301651791385,0.965102866799709,1.03876289177944,0.922159048257305,0.921373534031177,0.921401001939819,0.923202161887709,0.923578916420526,0.927251836056861,0.928017987206707,0.92888861294743,0.930798496843577,0.933212736558949,0.935535157340803,0.937850695847719,0.939951360154436,1.03874350970783,1.09700443121547,1.08721999041897,1.08340514783749,1.04600622319506,1.09294184998792,1.09226907191831,1.1921541875813,1.08270445907384,1.07505087679454,1.08396703513915,1.09272295309517,1.01082124587376,1.01001215392772,1.01017879936406,1.02030026439824,1.0118018103132,1.18663568354215,1.12615871899162,1.05064284835654,1.05756707890986,1.18457472172531,1.08573093563019,1.0750344220562,1.06876977232397,1.06840701383986,1.06710278317574
0.924248044119265,0.923576177207796,0.924937890261688,0.926427115693639,0.927002256147092,0.923454541405032,0.922799382143886,0.921771701565521,0.921558933159486,0.920685235206233,0.921035146469256,0.920945119513541,0.921256221228025,0.920951482876904,0.920446282665939,0.921027313426535,0.921837784483985,0.922381450195945,0.922290788560041,0.924418457051998,0.922330817318837,0.920749402121494,0.919153171885942,0.918368149647929,0.917931892650716,0.918139711171131,0.916024283842797,0.916677264159364,0.914141535344571,0.914712044882217,1.10483011759564,0.901841926743974,0.901790491296849,0.901464432700961,0.901273296637431,1.0213524450586,0.895033855183545,0.89406605752112,0.892957250743477,1.11124174507584,0.882030601417779,0.881004297059788,0.881790007849035,0.881000817728277,0.880981731950456,0.879842228228829,0.879239546240926,0.880138881745971,0.880605716759615,0.882169246454841,0.884474164877701,0.891361486042563,0.889698764664313,0.889511524749438,0.888840863327609,0.890296783468902,0.890470801803448,0.890993869840991,0.890692131481118,0.891070761737631,1.02649193304884,0.904231582961784,0.896615683863952,0.874695922811308,0.875079833902523,0.876911523333585,0.878915539702565,0.910572940999174,0.944415541012866,0.886877981497271,0.886856888377125,0.888704044656557,0.888122359820302,0.88764091738992,0.887783667770553,0.889527206802916,0.890158697046051,0.890627188447312,0.891882738419998,0.89174764973987,0.890667040526058,0.88915730142062,0.88854215815664,0.887120806713144,0.887555558536878,1.02617019291053,1.09650597587335,0.936155042702757,0.878393439228787,0.877260011340593,0.878848472211212,0.876207394506736,0.877370570578436,0.876032829164165,0.876369089170601,1.10168712646311,0.899855071358657,0.900611271452207,0.900135587415657,1.03593973678362,1.02657826861109,0.944432638383228,0.943962717692334,0.943351258067142,0.943290975116261,0.950434617523271,0.951296666224689,0.911715413245568,0.888240321047579,0.88918338746909,0.888433848524931,0.890461201408314,0.8909724158141,0.891632315981543,0.89177333957345,0.892462626717797,0.89318595823547,0.893828984492097,0.894003925779423,0.894773802506402,0.894947068697633,0.895411580967722,0.897000030533724,0.898365496969721,0.900647247870952,0.903523064114343,0.906185926769029,0.906722649113708,0.907946377207606,1.08995081244512,0.917977670904406,1.23008809319917,0.918929211363827,0.920713339302438,0.921726694606723,0.925124072803756,0.926578331345374,0.928186522652407,0.929200075883053,0.930061105764192,0.932368006027296,0.934737674707196,0.936563591453647,0.9379536928054,1.13415385726859,1.07122708893358,1.08295566811608,1.08231977975566,1.02151103324335,1.01948993984356,1.0896711665737,1.10689048885928,1.08933174743131,1.17963315339392,1.0402379400821,1.04202392914527,1.17929684443655,1.05118106203346,1.00912928141718,1.00267415405107,1.01214246776069,1.18774281779717,1.18801019181547,1.22088993138916,1.05571651973523,1.07471376757779,1.14670343620341,1.11465788358655,1.25609597202227,1.06884653216265,1.25954529282109
0.922947517530313,0.925032751112302,0.924825606165425,0.926432299337164,0.925829600107197,0.926132531585511,1.00517555811679,0.98412140470214,1.17299321067671,0.915689199113964,0.920511832491062,0.921620769718952,0.920971464999448,0.920716902497002,0.921242516586244,0.922532593476466,0.923683653117746,0.923578645071619,0.925248802063481,0.924509971747576,0.926950724455384,0.927093951121702,0.927252607375652,0.925977953274116,0.968871279091859,0.989411950974005,0.919486746283335,0.918342132848236,0.91308344302997,0.913479961719338,1.0992081629713,0.902885505058414,0.901832451005507,0.901584179714153,0.90027134464502,0.899648630660214,0.991464080336825,0.907847884713344,0.910197493585038,0.892033823734707,1.02424125122761,0.884756227434037,0.883508115255077,0.88239195479023,0.881268491088323,0.881006842580994,0.88151825812515,0.881431425549255,0.881548202121917,0.884257452387987,0.884519695682537,0.900314884021972,0.890431482968293,0.890286841365375,0.890719310472916,0.89027024533332,0.891506395120566,0.891918291767451,0.892116378379573,0.891976341752905,0.924752805858076,0.903718392766457,0.902884644890533,0.915068090298114,0.875735007942653,0.906265603042078,0.938762815207348,0.92013134890921,1.04536834112038,0.892905792848606,0.892174340618597,0.890166293138082,0.890201551627871,0.890260157483595,0.889791013883323,0.89047041081989,0.891809665248225,0.892253772367121,0.893066375210533,0.893042893744375,0.892402759548096,0.891505114831895,0.889748336528995,0.888607841812805,0.88721991934993,0.889145316835186,1.09699462965319,0.973838214647118,1.09657013391649,0.877536513827041,0.875998576597461,0.878032616165159,0.877159169508954,0.877156744481043,0.877540597514073,0.899962239199188,0.900833467587046,0.901827772255885,0.900225440914915,1.07548046268947,1.05952854465787,0.99844503669985,0.981449050915154,0.941208055523357,1.00163958817253,0.956161004712222,0.941097063390955,0.914269234493899,0.889780769137908,0.888571387576302,0.888805491038795,0.889229174462368,0.890647682988838,0.891465239128131,0.891734997083129,0.892500863829494,0.893100044344861,0.893850499258043,0.893546931064085,0.89509509001086,0.894543698229796,0.894973914545408,0.89666830734198,0.897041016080157,0.898555658517959,0.903412688215231,0.904922598329764,0.906359275025764,0.90751604118796,0.909149870531281,0.90989741278545,0.914357851384225,0.914739855623163,1.16161278000095,0.921255825576547,0.922623524741329,0.928546521637209,0.928760043298119,0.929060670824359,0.93054365721867,0.931371724775472,0.933299418306,0.935107447675227,0.936349599777535,0.938016881618141,1.07307285665057,1.08172536739056,1.08183694537933,1.07389339063375,1.0217800751316,1.20070850329522,1.0324981656441,1.04221720648798,1.03953770999788,1.04175238818788,1.04208908616304,1.09466828868637,1.05362458006102,1.0094903079317,1.00408432962232,1.00439848921875,1.19359535003854,1.19029535394152,1.21925722217737,1.20256407556033,1.2061455852857,1.05512130381983,1.10194281617874,1.05829288769121,1.06079319250282,1.06246546540792
0.922582390210764,0.922642950611309,0.92467305629379,0.925132876487795,0.925598333015655,0.924673592693876,1.16879366260414,0.971486559575883,0.910673564343002,0.911977860793067,0.913363453420667,0.920476215325512,0.921113990095001,0.921322085104648,0.921892029694302,0.923350411033347,0.924805046072737,0.92438143334221,0.923680868637355,0.924325361771711,1.02466379303626,0.940988037892172,0.932933865522813,0.931646963166138,0.933321036807112,1.09660306909537,1.11646380866247,1.02567429586043,1.1040499775781,1.06158058514716,0.937913508489527,1.09203765152841,1.02102273750378,1.0721524093916,0.899260574206719,0.899545750836775,0.900672121716153,0.905881442808111,1.00679631128758,0.904902481697986,0.908798693336422,0.88783122428299,0.884708417980024,0.883514126724139,0.881750612507828,0.881796451950087,0.882219622199783,0.882492282062324,0.88373931818326,0.883744212349892,0.885991673351566,0.893540735330469,0.89318345182532,0.893692050269799,0.892618583169242,0.892872532516739,0.892951336358773,0.893810385124632,0.894489210553375,0.894709839569285,0.89431400062088,0.903302736564705,0.90274510760111,0.905633366665867,0.905627267563907,0.906168142995681,0.905640874817478,0.906231105765854,0.90564489350794,0.891065963580024,0.891580598174641,0.892021830913938,0.891479355037037,0.891714851263252,0.891482944252532,0.892268272659617,0.893498173693108,0.893758602445592,0.894970258209133,0.895090624360714,0.894409333283187,0.891717302395562,0.891555098193552,0.890593888904436,0.88935353491604,0.888480362796943,0.889692003673671,0.946336849139006,1.10352729763779,0.877036462217248,0.877472638568933,0.87661319565348,0.877731171002837,0.877574262219411,0.878150983790676,0.878117202379929,0.907301365406575,0.905679965874299,0.907456796762281,1.01864523602374,0.982623784766539,1.00996704232734,1.01000143334915,1.04879234921539,1.01104761018213,1.08990085515167,1.08291244888395,0.916517076723232,0.91760464668451,0.888689766185479,0.888020568747399,0.889026225611781,0.890127085293412,0.890737624434462,0.892583634747696,0.893663008580943,0.895057582689762,0.894713654467591,0.894182766193991,0.894910875484415,0.894846603321628,0.89529593861151,0.897047734917185,0.896503111503295,0.901850997068101,0.902524740065332,0.905206482799515,0.905936175345332,0.907177844725994,0.906785214054781,0.910898260302782,0.911081481578935,0.911004928161395,1.14246429394638,1.17984032278719,1.03900881864632,1.23737478338667,0.964180799705858,0.929379490757995,0.929320198490042,0.931118963433234,0.932224993106913,0.934136926835048,0.935049584431652,0.939637753765399,0.942266615017203,1.08024065874981,1.08056117532779,1.08125610534069,0.981414995722565,0.983231633594848,1.02755684844916,1.04308642004697,1.04230122961378,1.09424240157419,1.06078766220977,1.06082582336549,1.05927449782689,1.230588244715,1.00421199369037,1.00353908484464,1.00887477543573,1.01017246965274,1.01074008173794,1.00946617776463,1.16448885499875,1.25134453262189,1.1979238052745,1.23152867999545,1.18243637630622,1.07575058928933
0.923442725338658,0.924124506400487,0.924875342950112,0.925063247121552,0.924732766879137,0.92404399559069,0.973521578270925,0.961969896839108,0.91216424782952,0.913254492718042,0.915166527994645,0.919644458660391,0.920768743788393,0.921538096639242,0.922289897539952,0.923396320204541,0.924380653184017,0.924547853786842,0.924585405898411,0.924650662327512,0.944489515191205,0.943868688067174,0.933583186252309,0.9333801532972,0.933711719450429,0.96492597638649,0.981374673557533,0.998635227351591,1.01877327850066,1.03881504704485,1.02644030129855,1.0157236938198,1.01194466700571,1.00751615805182,0.902589979489336,0.901840572117876,0.90240972636377,0.903962441946352,0.903909776328063,0.904298457460197,0.903811020032479,0.900165297921847,0.898587277637834,0.897730340770983,0.880867585110716,0.881497466669123,0.882515915741272,0.883555403325706,0.885097573120319,0.887661096935858,0.890899713926131,0.894122807540726,0.894362637444956,0.894551702336318,0.894262112612422,0.894041893855327,0.894822316296768,0.895307639192074,0.895953934335978,0.895890710143885,0.896107822094257,0.897156927058336,0.899848422248414,0.902371508285182,0.904915325113296,0.905194019557819,0.905647814138637,0.906102998874426,0.905790030342661,0.892250537999488,0.892406231696899,0.892301377831217,0.89239792341617,0.892480565548045,0.892558579963497,0.89287925169473,0.893628106087623,0.894119416389831,0.89480380293261,0.895039597001774,0.894600037757145,0.893722490007249,0.892791414619546,0.891739002546878,0.889996696637266,0.889856027555156,0.892416263170675,0.90260993957103,0.905823035274503,0.89608824042453,0.877393901687399,0.877836044102215,0.878194565660655,0.878430837247536,0.878462837523518,0.878588206603775,0.905699182037077,0.905325666750831,0.906170774060348,0.949768390162905,0.992090153903515,1.00901749963694,1.00839369679871,1.00659043167736,0.988792145327169,0.973949293130975,0.959179493098866,0.918239917848963,0.916996812351125,0.915574467091283,0.888527665209525,0.889069409771154,0.890127796780273,0.891014643715481,0.892241629607407,0.893939933120951,0.895197676305153,0.895551337452482,0.895515261826218,0.895499739226573,0.896062311448333,0.897079427021878,0.8985159038754,0.899696895129342,0.902236250372735,0.903831321318307,0.904806214886416,0.905486851795164,0.905599695185015,0.906353481690215,0.908665340920785,0.909018821365789,0.907451670706843,1.1089688752273,1.08349018130376,1.02568237498314,1.0156778155559,0.979859237814193,0.963824305182181,0.929896873866272,0.930903461864669,0.932398438754462,0.934034398562188,0.935441115340014,0.93737403231104,0.992090644830855,1.07903465969379,1.07977598876582,1.08095879820058,1.00620811697487,1.01523227067915,1.05339132382384,1.05657424432149,1.06434554522678,1.07617090467493,1.06127123173663,1.060489542959,1.05924109948712,1.13148088166973,1.05801919324769,1.00601188304661,1.00855447169356,1.00981599517239,1.00980404455102,1.00884129545286,1.16101080597746,1.17012709891744,1.1852733300391,1.19632739208436,1.18008180186236,1.17023844462881
0.923784417096345,0.925322482334873,0.925331577885402,0.925746676087202,0.924156420566277,0.923180882650882,1.00305430204377,0.948556954932635,0.912989754858322,0.913468452459444,0.915472574147601,0.92136217325132,0.920912809916138,0.921414726076918,0.922246091177833,0.923471215623679,0.924529990812887,0.924777672753931,0.925131287745171,0.925411439461177,0.944373665930678,1.22985526404525,0.934993256477577,0.934172470728672,0.933386774370897,0.932474337832858,0.932448040263959,0.957309522475923,0.959943361789348,1.09984380905708,1.08189461254549,0.929074069682751,0.971110836968889,0.998867499291772,0.903715528792704,0.902784547965796,0.902907615200497,0.903479838264968,0.903046620457062,1.01245126988219,1.00817699460103,1.17614071590563,1.09527952888339,1.17714101893729,0.876632836483314,0.876381264490812,1.21764466841743,0.946908487625225,1.08215538082674,1.19616402314278,0.895951690653347,0.895330300418318,0.895608758773798,0.895805914165076,0.895085930474904,0.894867717676839,0.8964034373757,0.896888317765097,0.897722963949936,0.896955225750791,0.896186056951161,0.896231301374797,0.895835855293746,0.895101220918106,0.895861307737512,0.90340858408184,1.10836156220882,0.96867105322485,1.08463885841494,0.8939166487794,0.892636941699685,0.893157161812328,0.892934639635755,0.893373371405645,0.893124140346307,0.893245734020144,0.893859827563183,0.894298905264006,0.895071942023363,0.895488490635308,0.895367425200511,0.895198992822576,0.894238079651816,0.892771874377781,1.32226256824563,0.888343432476014,0.896309892608748,0.899078983808656,0.906016507092656,0.923942293852569,0.877681690681473,0.878213315644485,0.878862030440065,0.878562247837418,0.878396424013669,0.878416660324842,0.903790585247194,0.904109401961044,0.90237719424271,0.901262251452831,1.12335100260804,1.10993751833289,1.00671570047544,1.00345114722953,0.927176671983603,0.922762660327272,0.922865290931134,0.921702045486469,1.07924067136479,0.976839026923729,0.888055025310872,0.888822959802871,0.88994444287686,0.89043838548522,0.891576177556125,0.894048795607581,0.896158927270291,0.896552018200206,0.895663519184382,0.8955432946639,0.895812623215605,1.00081918457887,0.988236112934746,1.13897428429835,0.903196379650025,0.90421421076834,0.905280137260326,0.904873092198697,0.903787246479251,0.903450403567342,0.908858579763038,0.909847284165981,0.906112742004384,1.18163375927775,1.05950190396508,0.989259770566287,1.00386624038125,1.00351502873453,1.00111469597248,0.929266489136638,0.930302398661494,0.932308629228849,0.933830906960207,0.935783305194973,0.936897102777489,1.14339828412493,1.07804725879468,1.07984349274565,1.08249519448763,0.971113031682546,1.03067815315661,1.16117337409215,1.15088661128641,1.15270670012307,1.0873826204059,1.06189015687283,1.06133868733051,1.06038744141725,1.18951558010757,1.1869285827729,1.00516945279623,1.00892583331636,1.00983288760743,1.00940299437868,1.00704134408744,1.14772069939531,1.15913009127327,1.17429461644086,1.24307490033574,1.17755337508859,1.16526532154837
0.925945169174668,0.925895004795447,0.926486837741786,0.925029416367502,0.925165534281982,0.921170217864041,0.920528329786428,0.934465396997441,1.13186861506578,1.16747443108716,1.12794508251645,0.9205018167088,0.920509718700118,0.920431810207934,0.920552982868349,0.921438152240399,0.924944513801114,0.925047434185516,0.926056434875534,0.927243737947371,0.977424857731835,0.944304432519634,0.936423893333974,0.935264601140251,0.935186650505131,0.934769882802241,0.933902836124981,0.954489143505667,0.952116883885031,0.941535845573326,0.94099680426793,0.930324820418908,0.941615048125758,0.929427267285682,1.06646093780516,0.911061107613554,0.903212677225714,0.903644685111637,0.903829348230418,0.903317936539325,1.01525705375795,1.02186978846891,1.0441133313567,1.02293900387679,0.877626530460747,0.877754057731256,0.87864871653354,0.904379448677205,0.903869615891573,0.903508707795179,0.894846666521978,0.89611943289751,0.896216112007141,0.896352053072553,0.896776795303524,0.896642952654105,0.897563999774307,0.897616578325598,0.898385410045542,0.898096200348798,0.89730266237773,0.896779943818893,0.894473849529663,0.894895158006962,0.895557212384209,0.896029697757597,0.895384989893069,0.895296243968656,0.895974641171406,0.894585018574517,0.894773105899627,0.892916625142862,0.893284971311161,0.893022387417093,0.893498933104755,0.893769058267841,0.891582162351336,0.894176624350562,0.89542507736676,0.895726287886713,0.895545436120607,0.896242577982898,0.895915885839972,0.896142151194432,0.897426180821673,0.896276022695216,0.897639486980798,0.898175963194532,0.898663342433525,0.924189565636766,0.95807498234955,0.880067160427143,0.879987495315483,0.880045519138074,0.8797445799969,0.880039945724009,0.880913650330888,0.895736467936138,0.897825323960117,0.897119416206255,0.89659474914915,0.895903042897724,0.908257013665191,0.918407147509829,1.01322949825645,0.922969803765142,0.923720252687964,0.925098247160416,0.937845378201181,1.32887664087736,0.98322037987914,0.890438331958289,0.890205465711859,0.890461630771279,0.891241152242486,0.893048522127472,1.08256064263365,0.898172019699803,0.901265702260189,0.895486039233559,0.896315530406841,1.20869368094449,0.978018980505469,0.965992669602268,1.20470971542185,0.905598627851952,0.905103274475949,0.905607415853546,0.905340524557885,0.904847412041145,0.909858555819472,0.908809615214058,0.908456942031528,0.908293346954244,0.907989526691289,1.13497307217172,0.987370289597667,1.00530818959074,1.00548247419218,0.92931431913663,0.930252611977881,0.93194557644288,0.933659425760696,0.934666892185716,0.937199198411366,1.11714849439495,1.01688566075217,1.07988759348414,1.08086271138631,1.08175793439211,1.03164410836082,1.03058634923338,1.14964333484275,1.17186101545765,1.14164890338229,1.13483832918401,1.13182725602116,1.05189798284476,1.01867300577603,1.15868389345444,1.15835617836792,1.01074910600334,1.0106782581033,1.01069086995024,1.00455390140286,1.00495594045739,1.14667841774654,1.10085590841702,1.03298698020556,1.0404299866503,1.04486568152022
0.928715394031111,0.929076175181601,0.927493611002772,0.925859965759435,0.92543057319774,0.921723482670516,0.920920733195784,0.921945636259178,0.920449590343213,0.919855495409648,0.920327071754123,0.919956610581871,0.920319604988907,0.920016110836449,0.919939944811821,0.920748415945257,0.922793610407207,0.924159788539658,0.925714037858292,0.927359046947585,0.931473108161945,0.989533216802368,0.9372823975564,0.938298541651368,0.9377046544632,0.937205682579498,0.938395077536155,0.953877000785318,0.959884682455132,1.17395039719838,0.958203712492176,0.998389689561455,0.94519450462552,0.945318312360052,0.91891257980441,0.980133094902676,1.09475402504443,0.910936514566282,0.905851694540423,0.904768479184345,0.994223358126291,1.09022786991624,1.0644991802082,1.17023664516512,0.912860577325807,1.17466613126413,0.903414186330079,0.904771680942024,0.904856160284631,0.903452286520529,0.896485462884576,0.896089197660272,0.89724737828224,0.897570087489999,0.898270672812667,0.898537969343846,0.8978094780204,0.898004838515311,0.898332951821541,0.898596435145601,0.898235574508663,0.889399965392148,0.890134738271832,0.888827630620815,0.919330007105684,0.896199826572459,0.895873774057803,0.895242065180377,0.895317624910451,0.895875122873564,0.89404879461915,0.893882119100881,0.893379816343279,0.893429327906441,0.893792316859064,0.894886987300546,0.895333156287749,0.894928919200238,0.895595700287239,0.895455049017691,0.89539638737022,0.896714511377466,0.896392781469045,0.897554211340537,0.896540624684591,0.898463932514718,0.897887342766484,0.898749213825821,0.899152551539214,0.902031715917301,0.902976004491296,0.879667826389386,0.880648180307555,0.880704386253268,0.880993883389366,0.881155356260506,0.881391119803179,0.89249408209703,0.8979413521371,0.896592685643509,0.896097740298531,0.895552453605172,0.903922281342974,0.96499924472563,0.98108172612922,0.92528425791439,0.931060947306051,0.929418399475988,0.931571076228251,0.933137352934415,0.939047620808039,1.11119862856585,0.934129523415478,0.890427014853631,0.891243245267635,0.892936022712881,0.897620132736504,0.897999016658852,0.899151302404247,0.896940053268544,0.896310761630795,0.897236905858715,0.898341687762136,0.90018060829973,0.903303795024045,0.904538100295867,0.906423128453602,0.90581636202867,0.906111108415052,0.907259522993148,0.909213521762453,0.910198220205791,0.909866607651814,0.908301249344022,0.908515640939312,0.919354456173228,1.11019115614267,1.01482030835841,1.03643850653793,0.929439933243682,0.930655960618398,0.931639705383089,0.93318767110047,0.935028247388008,0.936095955201737,0.937780381064642,1.25487146313869,1.08983183842911,1.0813598712349,0.988780218448691,0.977128681744023,1.14996933557073,1.14956256227244,1.1498990848364,1.0456099271241,1.15769104703208,1.03004940265681,1.032210543572,1.02947615286441,1.11060362546527,1.14722980455514,1.14709691771561,1.14595582000374,1.15646929164452,1.01026861104168,1.01154396664568,1.1412903116648,1.07408402356902,1.04054839333902,1.04060420346617,1.04594409594985
