1.03619, 1.03548, 1.03488, 1.0356, 1.11338, 1.11061, 1.09253, 1.09534, 1.13234, 1.13465, 1.14537, 1.0671, 1.07312, 1.07373, 1.07851, 1.07844, 1.0798, 1.08239, 1.08444, 1.08862, 1.09392, 1.09377, 1.0953, 1.10003, 1.10053, 1.10071, 1.10113, 1.2402, 1.2228, 1.25445, 1.24301, 1.10718, 1.10814, 1.10954, 1.21481, 1.11124, 1.11132, 1.11199, 1.11258, 1.11293, 1.11314, 1.11306, 1.11296, 1.11247, 1.11334, 1.11378, 1.11501, 1.11171, 1.11203, 1.11066, 1.11238, 1.10652, 1.10535, 1.10466, 1.10225, 1.10581, 1.41849, 1.364, 1.09112, 1.08065, 1.08015, 1.45776, 1.52747, 1.53006, 1.46819, 1.52508, 1.06746, 1.48546, 1.5333, 1.13673, 1.09067, 1.05136, 1.0118, 1.00625, 1.00441, 1.00226, 1.00369, 1.00199, 1.18759, 1.00127, 1.0007, 0.998262, 0.996414, 0.994536, 0.993913, 0.994084, 0.991803, 0.992398, 0.994006, 0.994821, 0.994601, 0.992456, 0.990682, 0.990372, 0.99074, 0.992093, 1.00095, 0.998299, 1.08295, 0.994639, 0.990471, 0.989401, 0.989693, 0.994041, 0.994668, 0.981158, 0.980956, 0.966942, 0.969212, 0.970782, 0.977686, 0.980979, 0.98035, 0.979383, 0.982312, 0.984825, 0.99105, 0.990845, 0.984306, 0.985352, 0.985483, 1.02427, 1.07943, 0.980033, 0.979878, 0.974232, 0.974185, 0.976696, 0.984202, 0.984229, 0.999214, 1.0041, 1.00183, 1.04217, 1.04214, 1.00136, 1.00159, 1.00127, 0.965168, 0.955752, 0.959653, 0.9548, 0.953793, 0.954009, 0.987666, 0.957967, 0.952997, 0.949221, 0.945457, 0.948827, 0.958648, 0.956596, 0.95613, 0.957221, 0.942634, 0.935575, 0.928609, 0.921308, 0.921413, 1.04621, 0.937439, 0.939183, 0.940236, 0.939762, 0.939606, 0.943376, 0.973206, 0.947654, 1.07166, 0.960777, 0.990917, 1.0031, 1.01686, 0.939052, 1.08525, 1.10969, 1.13277, 0.899942, 0.899013, 0.89667, 0.894557, 0.894181, 0.89355, 0.892599, 0.891555, 0.890215, 0.889781, 0.885725, 0.886817, 0.886153, 0.886685, 0.887519, 0.888539, 0.885852, 0.883209, 0.882967, 0.88351, 0.884048, 0.885935, 0.886704, 0.895467, 0.887808, 0.888996, 0.888928, 0.882817, 0.880131, 0.881392, 0.892728, 0.901454, 0.891337, 0.892173, 0.894074, 0.895204, 0.894889, 0.895868, 0.894765, 0.895288, 0.895313, 0.893609, 0.894011, 0.901426, 0.900636, 0.886818, 0.884943, 0.892113, 0.883477, 0.881171, 0.880975, 0.880815, 0.883747, 0.886492, 0.889168, 0.891252, 0.89179, 0.919801, 0.89729, 0.900915, 0.901328, 0.90217, 0.9045, 0.908145, 0.908816, 0.944165, 0.952115, 0.914186, 0.915828, 0.921018, 0.928312, 0.928012, 0.929522, 0.994424, 0.935297, 0.935833, 0.935308, 0.938172, 0.937162, 0.935585, 0.957878, 0.922815, 0.923157, 0.920224, 0.920152, 1.11138, 1.12641, 1.01324, 0.890875, 0.891894, 0.89067, 0.883219, 0.883919
1.03612, 1.03545, 1.03519, 1.03581, 1.10908, 1.12957, 1.09196, 1.13725, 1.13915, 1.13279, 1.0602, 1.06618, 1.09236, 1.0737, 1.07716, 1.07853, 1.084, 1.08392, 1.08321, 1.08814, 1.08919, 1.09403, 1.09772, 1.10091, 1.10119, 1.10141, 1.10188, 1.24978, 1.22278, 1.22343, 1.26731, 1.24428, 1.10792, 1.10941, 1.10988, 1.11108, 1.1115, 1.11183, 1.1125, 1.11293, 1.11319, 1.11328, 1.11328, 1.11327, 1.11345, 1.11442, 1.11406, 1.11409, 1.11273, 1.11169, 1.11145, 1.11154, 1.10564, 1.10559, 1.35042, 1.35076, 1.22223, 1.08781, 1.31797, 1.08085, 1.08176, 1.31181, 1.49949, 1.53982, 1.49559, 1.52373, 1.0627, 1.57845, 1.05259, 1.07643, 1.07765, 1.14944, 1.01372, 1.00416, 1.00396, 1.00141, 1.00137, 0.998518, 0.995487, 0.995638, 0.996636, 0.99808, 0.998363, 0.994783, 0.995978, 0.992124, 0.990768, 0.990896, 0.992892, 0.995713, 0.99529, 0.991498, 0.991807, 0.989781, 0.989616, 0.990147, 0.990379, 0.989893, 0.990909, 0.995001, 1.10059, 0.989598, 0.989406, 0.994891, 0.995727, 0.990232, 0.986173, 1.09599, 0.972725, 0.969086, 0.979101, 0.978367, 0.980394, 0.980706, 0.988416, 0.987997, 1.00676, 1.20178, 0.987064, 0.985686, 0.986275, 0.990554, 0.993516, 0.978228, 0.972685, 0.971094, 0.971794, 0.974992, 0.980418, 0.983968, 1.18096, 1.01658, 1.00957, 1.00917, 1.00936, 0.985142, 0.985369, 1.01311, 0.993906, 0.960412, 0.959637, 0.955968, 0.955248, 0.969776, 0.970074, 1.05787, 0.95455, 0.945074, 0.945615, 0.945748, 0.953223, 0.958334, 0.956673, 0.956984, 0.937262, 0.935687, 0.935825, 0.922844, 0.926749, 0.932822, 0.982222, 0.940331, 0.942131, 0.94298, 0.942009, 0.944109, 0.94548, 0.948446, 0.955463, 0.95577, 1.02539, 1.00486, 0.940705, 0.938329, 1.13798, 1.02836, 0.902741, 0.89896, 0.901153, 0.894186, 0.893916, 0.894431, 0.893559, 0.892385, 0.890587, 0.888893, 0.88759, 0.887885, 0.884762, 0.885877, 0.886659, 0.887792, 0.887917, 0.886722, 0.883754, 0.883978, 0.883701, 0.88467, 0.886819, 0.887563, 0.886738, 0.88866, 0.889549, 0.886155, 0.886434, 0.879831, 0.904596, 0.888543, 0.887753, 0.890434, 0.890699, 0.893379, 0.894114, 0.894619, 0.896252, 0.897425, 0.895716, 0.89559, 0.895139, 0.97637, 0.880315, 0.881441, 0.90492, 0.883725, 0.883077, 0.88355, 0.881185, 0.879848, 0.881397, 0.882713, 0.977121, 0.888833, 0.89074, 0.891204, 0.891148, 0.921427, 0.900074, 0.900502, 0.90262, 0.904422, 0.906788, 0.908836, 0.910688, 0.910361, 0.91143, 0.965059, 0.919297, 0.919067, 0.925007, 0.925397, 0.929155, 0.990495, 0.929216, 0.930035, 1.02722, 0.958082, 0.998844, 0.984415, 0.923058, 0.922837, 0.918473, 0.918166, 1.04931, 0.995243, 1.16716, 0.895646, 0.891612, 0.889771, 0.887425, 0.886037
1.03465, 1.03531, 1.0354, 1.03647, 1.03662, 1.06568, 1.12601, 1.13451, 1.09765, 1.12275, 1.06347, 1.06622, 1.06886, 1.0716, 1.0755, 1.08107, 1.08262, 1.08385, 1.08349, 1.08565, 1.08994, 1.09607, 1.09748, 1.10122, 1.10175, 1.10194, 1.10107, 1.1364, 1.24614, 1.22675, 1.10515, 1.14023, 1.23239, 1.15648, 1.27774, 1.11088, 1.11136, 1.11168, 1.11244, 1.11296, 1.11325, 1.1135, 1.11364, 1.11376, 1.11402, 1.11417, 1.1142, 1.11378, 1.11373, 1.11523, 1.11388, 1.11133, 1.10534, 1.10643, 1.11674, 1.32523, 1.32561, 1.08998, 1.0896, 1.08231, 1.4368, 1.38197, 1.41334, 1.41621, 1.27845, 1.47582, 1.48814, 1.05726, 1.05404, 1.5062, 1.0206, 1.03277, 1.01052, 1.00277, 1.00027, 0.999738, 0.999394, 0.997466, 0.997378, 0.996453, 0.994981, 0.998274, 0.999179, 0.992428, 0.992441, 0.991834, 0.991129, 0.990564, 0.990913, 0.99166, 0.996073, 0.99595, 0.995894, 0.98907, 0.988169, 0.988, 0.989315, 0.989403, 0.990735, 1.08141, 0.98441, 0.985332, 1.05888, 0.988267, 0.989834, 0.988802, 0.983944, 0.983432, 0.979438, 0.97731, 0.979564, 0.979436, 0.978174, 0.97837, 0.984119, 0.985192, 1.05065, 1.01452, 0.985683, 0.985639, 0.986746, 1.09279, 1.16692, 0.974208, 0.973616, 0.972884, 0.975836, 0.979707, 0.9801, 1.13234, 1.00518, 1.01709, 1.01784, 1.022, 1.02238, 1.01933, 1.04714, 0.973838, 0.97288, 0.966854, 0.963387, 0.957582, 0.959129, 0.960383, 0.971038, 0.961813, 1.06899, 1.07045, 1.11482, 0.951461, 0.953719, 0.954024, 0.954109, 1.05657, 0.937934, 0.938464, 0.935906, 0.926436, 0.927226, 0.928242, 0.979938, 1.01267, 1.011, 1.01045, 0.944631, 0.944589, 0.944779, 0.991561, 0.953243, 0.953543, 0.954195, 0.943458, 0.942544, 0.938282, 0.940684, 1.0294, 0.90281, 0.901365, 0.901194, 0.894506, 0.894022, 0.893164, 0.892789, 0.890458, 0.890422, 0.887851, 0.887591, 0.883456, 0.883328, 0.883832, 0.886401, 0.885731, 0.886754, 0.87722, 0.882278, 0.882931, 0.883075, 0.883432, 0.886553, 0.887986, 0.887213, 0.889899, 0.890468, 0.887657, 0.887378, 0.880022, 0.881273, 0.968529, 0.890347, 0.890478, 0.892581, 0.892514, 0.893797, 0.895803, 0.897222, 0.897583, 0.897936, 0.896513, 0.909067, 0.909295, 0.880255, 0.878739, 0.879342, 0.880167, 0.882077, 0.882493, 0.882026, 0.880499, 0.881471, 0.883466, 0.884406, 0.88719, 0.888796, 0.932376, 0.922628, 0.896359, 0.898629, 0.899286, 0.902453, 0.90411, 0.904346, 0.90418, 0.907892, 0.909186, 0.910628, 0.944073, 0.917124, 0.955558, 0.922619, 0.923779, 0.927366, 0.929047, 0.929045, 0.929194, 0.922244, 0.922655, 0.999215, 0.985003, 0.922308, 0.921718, 0.956307, 1.10585, 0.90782, 0.901284, 0.898854, 0.895503, 0.891971, 0.890303, 0.886054, 0.88478
1.03523, 1.03541, 1.03585, 1.12197, 1.1092, 1.10448, 1.10485, 1.09347, 1.09381, 1.11864, 1.12957, 1.06624, 1.06832, 1.07144, 1.07736, 1.07951, 1.08311, 1.08298, 1.0847, 1.08844, 1.08935, 1.09844, 1.09865, 1.2233, 1.10148, 1.10237, 1.09823, 1.1952, 1.24347, 1.22452, 1.22045, 1.23648, 1.20685, 1.17952, 1.10955, 1.11057, 1.11136, 1.11168, 1.11242, 1.11303, 1.1134, 1.11371, 1.11398, 1.11419, 1.11443, 1.11458, 1.11466, 1.11475, 1.11473, 1.11489, 1.11416, 1.11323, 1.26023, 1.32634, 1.31502, 1.3153, 1.09212, 1.08816, 1.37083, 1.30201, 1.34557, 1.06979, 1.06882, 1.4401, 1.06795, 1.05275, 1.05729, 1.06056, 1.53034, 1.06333, 1.06887, 1.50617, 1.00485, 1.00006, 1.00064, 1.00123, 0.998986, 0.995963, 0.99666, 0.995251, 0.995555, 0.994393, 0.993305, 0.99299, 0.990679, 0.991073, 0.99223, 0.990833, 0.991249, 0.99064, 0.99016, 0.995178, 0.993841, 0.993671, 0.990889, 0.988828, 0.98689, 0.987612, 0.989566, 0.985632, 0.983479, 0.984251, 0.986898, 0.98667, 0.986812, 0.986062, 0.983248, 0.983522, 0.979927, 0.978969, 0.976716, 0.972193, 0.972993, 0.976062, 0.976566, 1.0811, 1.20516, 1.11644, 1.0158, 1.1067, 0.983548, 0.98419, 0.9838, 0.97768, 0.977747, 0.977343, 0.983013, 0.981132, 0.981167, 1.11314, 1.00354, 1.01183, 1.01318, 1.12675, 1.12718, 1.0057, 1.00273, 0.969881, 0.96982, 0.969728, 0.959602, 0.959011, 0.95896, 0.970033, 0.96968, 0.966716, 0.964271, 0.96253, 0.962183, 1.05401, 0.958117, 0.95915, 0.951249, 0.942014, 0.939834, 0.937398, 0.929327, 0.928498, 0.928477, 0.930761, 0.935644, 0.937319, 0.942415, 0.943612, 0.944568, 0.943274, 0.943567, 0.944826, 1.00303, 0.954044, 1.00582, 1.0344, 0.936273, 1.06435, 0.934489, 1.03107, 0.921902, 0.970446, 0.890424, 0.890513, 0.892142, 0.891288, 0.890772, 0.890298, 0.88846, 0.887696, 0.887236, 0.884205, 0.881502, 0.882586, 0.885085, 0.886017, 0.886008, 0.878304, 0.878977, 0.882245, 0.882469, 0.883341, 0.884718, 0.885436, 0.886625, 0.889419, 0.888861, 0.887255, 0.887557, 0.884386, 0.883459, 0.89818, 0.887501, 0.889344, 0.890678, 0.89033, 0.893269, 0.89578, 0.896478, 0.89716, 0.897206, 0.892329, 0.901352, 0.903208, 0.879718, 0.879869, 0.879844, 0.88047, 0.88048, 0.880807, 0.881403, 0.882385, 0.883623, 0.882759, 0.882479, 0.884461, 1.14642, 0.914577, 0.88872, 0.890293, 0.932325, 0.898014, 0.900741, 0.90202, 0.904125, 0.905289, 0.905504, 0.906601, 0.906002, 0.910117, 0.914011, 0.916652, 0.919745, 0.92223, 0.975443, 0.926008, 0.92818, 0.928351, 0.922182, 0.923165, 0.925597, 1.00087, 0.980249, 0.983885, 0.999451, 0.907508, 0.907023, 1.00185, 0.900925, 1.15371, 0.88471, 0.885906, 0.887236, 0.885886
1.03492, 1.03514, 1.03517, 1.09284, 1.10361, 1.0819, 1.10027, 1.0637, 1.11003, 1.10159, 1.06402, 1.06488, 1.06887, 1.07143, 1.07717, 1.08003, 1.08283, 1.08342, 1.08306, 1.09105, 1.09419, 1.09652, 1.09937, 1.10048, 1.10074, 1.10011, 1.09786, 1.22258, 1.2235, 1.12916, 1.14907, 1.28101, 1.19578, 1.27799, 1.25671, 1.11063, 1.11143, 1.11185, 1.11262, 1.11326, 1.11373, 1.11411, 1.11442, 1.11461, 1.11472, 1.11477, 1.11478, 1.11474, 1.11483, 1.11544, 1.11526, 1.11502, 1.2601, 1.1329, 1.32033, 1.31161, 1.32091, 1.32033, 1.36404, 1.36984, 1.42225, 1.42252, 1.06817, 1.06745, 1.0959, 1.05213, 1.06039, 1.4612, 1.53106, 1.0708, 1.04938, 1.07044, 1.00502, 1.00342, 1.00059, 1.00063, 1.00027, 0.994404, 0.994073, 0.994316, 0.993504, 0.993908, 0.993467, 0.988663, 0.988841, 0.991456, 0.990434, 0.990954, 0.991349, 0.990718, 0.98872, 0.988342, 0.993791, 0.994029, 0.988055, 0.987934, 0.987476, 0.985856, 0.984691, 0.986557, 0.985592, 0.98695, 0.986612, 0.986217, 0.984159, 0.984556, 0.984269, 0.983328, 0.980834, 0.980679, 0.971487, 0.970669, 0.972027, 0.973577, 0.976454, 0.977745, 0.978515, 1.02664, 1.05917, 0.982053, 0.983461, 0.984801, 0.984341, 0.980543, 0.977322, 0.978102, 0.981227, 0.990529, 0.994293, 0.994791, 1.01417, 1.11553, 1.11841, 1.12501, 1.09424, 1.11302, 1.21269, 0.969496, 0.97383, 1.09056, 0.96244, 0.961077, 1.09591, 1.00866, 0.967461, 0.967549, 0.964302, 0.96248, 0.961864, 0.961962, 0.959675, 0.960172, 0.950288, 1.04881, 0.943538, 0.933841, 0.932371, 0.932513, 0.934327, 0.937278, 0.937323, 0.936477, 0.93702, 1.14738, 0.945511, 0.943322, 0.94493, 0.945823, 0.945927, 1.00505, 1.01301, 1.03587, 1.0621, 1.06367, 1.102, 1.0313, 0.897446, 0.89773, 0.890143, 0.890512, 0.89103, 0.888204, 0.888082, 0.887582, 0.887565, 0.886961, 0.881127, 0.881804, 0.881218, 0.882397, 0.885613, 0.885599, 0.88489, 0.880281, 0.880224, 0.88196, 0.882214, 0.882025, 0.883898, 0.883664, 0.885441, 0.88693, 0.889078, 0.887866, 0.886619, 0.88702, 0.886155, 0.900612, 0.88826, 0.890743, 0.890631, 0.891288, 0.891905, 0.893111, 0.893968, 0.894323, 0.894613, 0.922548, 0.922025, 0.900729, 0.882758, 0.882495, 0.881766, 0.882803, 0.883594, 0.931688, 0.880719, 0.880763, 0.882382, 0.882943, 0.88343, 0.882285, 0.885494, 0.886041, 0.887304, 0.88745, 0.920095, 0.932228, 0.936522, 0.900732, 0.903287, 0.904391, 0.904557, 0.905295, 0.906729, 0.910574, 0.911143, 0.914754, 0.91837, 0.976112, 0.924662, 0.925757, 0.928644, 0.927399, 0.925093, 0.924834, 0.924936, 0.925249, 1.00496, 0.913489, 0.908216, 0.907556, 1.02336, 1.00576, 0.898297, 0.891348, 0.89046, 0.887752, 0.887546, 0.886344
1.03457, 1.03544, 1.08884, 1.06342, 1.12139, 1.08539, 1.12918, 1.12659, 1.13345, 1.11357, 1.13576, 1.06693, 1.06896, 1.06887, 1.15505, 1.07904, 1.08172, 1.08183, 1.08364, 1.08902, 1.09406, 1.09779, 1.09928, 1.10097, 1.09916, 1.09909, 1.09818, 1.21568, 1.16945, 1.2161, 1.17066, 1.1603, 1.17129, 1.2231, 1.27856, 1.27676, 1.1115, 1.11224, 1.11304, 1.11369, 1.11418, 1.11457, 1.11473, 1.11478, 1.11479, 1.11469, 1.11465, 1.1147, 1.11482, 1.11507, 1.11564, 1.11615, 1.26354, 1.26917, 1.13996, 1.12699, 1.31373, 1.43686, 1.08053, 1.36852, 1.07389, 1.06773, 1.42329, 1.4306, 1.32747, 1.45577, 1.31164, 1.0595, 1.05852, 1.14118, 1.04647, 1.00683, 1.0029, 1.00194, 1.0002, 0.997907, 0.99488, 0.993263, 0.992465, 0.993749, 0.993909, 0.994143, 0.992634, 0.988472, 0.987639, 0.988216, 0.991074, 0.990511, 0.990589, 0.991363, 0.987221, 0.987151, 0.987161, 0.98784, 0.988634, 0.988227, 0.988427, 0.984001, 0.984142, 0.986089, 0.986205, 0.987404, 0.987187, 0.985492, 0.984001, 0.985254, 0.984739, 0.983608, 0.983989, 0.977688, 0.972261, 0.971503, 0.97229, 0.973077, 0.97367, 0.977141, 0.977911, 1.04812, 1.15961, 1.06658, 1.11825, 0.982771, 0.982473, 0.981641, 0.979309, 0.980353, 0.985655, 0.990265, 0.993626, 0.993959, 1.12635, 1.11297, 1.00649, 1.08184, 1.10111, 1.10133, 1.08876, 1.0803, 0.958678, 0.956551, 1.37177, 1.00951, 1.01562, 1.08834, 0.963372, 0.96112, 0.96461, 0.960666, 0.962576, 0.962808, 0.962861, 0.971272, 0.952654, 0.952638, 0.938485, 0.936109, 0.933695, 0.933125, 0.936123, 0.937515, 0.937047, 0.935168, 0.937258, 0.94117, 0.943388, 0.944337, 0.945743, 0.94636, 0.94653, 1.01636, 1.01252, 1.04696, 1.05003, 0.922536, 0.920674, 0.908597, 0.897433, 0.898381, 0.890182, 0.891699, 0.891182, 0.887819, 0.887634, 0.886554, 0.886853, 0.884553, 0.883388, 0.879117, 0.879048, 0.880046, 0.880226, 0.883369, 0.880175, 0.880081, 0.880168, 0.880491, 0.881466, 0.88256, 0.882785, 0.884059, 1.03256, 0.887273, 0.889475, 0.89306, 0.894433, 0.894144, 0.897734, 0.903796, 0.891544, 0.890644, 0.892402, 0.892735, 0.892931, 0.89217, 0.892999, 0.894573, 0.894984, 0.892218, 0.891815, 0.88684, 0.882776, 0.882298, 0.882558, 0.885395, 0.884596, 0.887217, 0.887805, 0.887676, 0.882275, 0.881467, 0.880112, 0.880078, 0.906348, 0.885543, 0.888125, 0.887841, 0.931699, 0.930731, 0.938753, 0.898797, 0.900863, 0.90122, 0.903321, 0.904702, 0.907665, 0.907598, 0.910861, 0.912838, 0.915002, 0.971953, 1.03255, 0.983959, 0.925304, 0.923796, 0.924562, 0.926164, 0.928705, 0.982314, 0.91621, 0.909011, 0.909753, 1.08756, 0.901917, 1.15418, 1.02216, 0.896202, 0.890131, 0.888345, 0.887478, 0.887055
1.03531, 1.12023, 1.08776, 1.06068, 1.06003, 1.06233, 1.07449, 1.11957, 1.13239, 1.13016, 1.06436, 1.06714, 1.06885, 1.06957, 1.15548, 1.08016, 1.08095, 1.0828, 1.08446, 1.08851, 1.09401, 1.09427, 1.22012, 1.10072, 1.09977, 1.09815, 1.09483, 1.16687, 1.22717, 1.1296, 1.21367, 1.24326, 1.26511, 1.22787, 1.13114, 1.25401, 1.11173, 1.11279, 1.11358, 1.1142, 1.11469, 1.11479, 1.11473, 1.11474, 1.11499, 1.11504, 1.11512, 1.11502, 1.11526, 1.11564, 1.1152, 1.11554, 1.2267, 1.11926, 1.11242, 1.33919, 1.33276, 1.35431, 1.50238, 1.08204, 1.4124, 1.41388, 1.42977, 1.32756, 1.29507, 1.47229, 1.45909, 1.06425, 1.34836, 1.13661, 1.04884, 1.00592, 1.00472, 0.999961, 0.998859, 0.99824, 0.996184, 0.992792, 0.992516, 0.993847, 0.99348, 0.99543, 0.994965, 0.987592, 0.988884, 0.98999, 0.99131, 0.990493, 0.98983, 0.99087, 0.986443, 0.98626, 0.986333, 0.985393, 0.984861, 0.984322, 0.985074, 0.98118, 0.980931, 0.980429, 0.982795, 0.98461, 0.981754, 0.979317, 0.98051, 0.98117, 0.984458, 0.983548, 0.984077, 0.985988, 0.970565, 0.972142, 0.971478, 0.973097, 0.974988, 0.977204, 0.977418, 0.97815, 1.00478, 1.01654, 1.01639, 0.982603, 0.982084, 0.980582, 0.980943, 0.981039, 0.98776, 0.991103, 0.991438, 0.997445, 1.0021, 1.00168, 1.02994, 1.08756, 1.09389, 1.0235, 1.09426, 1.30947, 0.956285, 1.00256, 1.10477, 1.01555, 1.01889, 1.01613, 0.981662, 0.961189, 0.98408, 0.959721, 0.961352, 0.960407, 0.956652, 0.95404, 0.953522, 0.952998, 0.937822, 0.934171, 0.933178, 0.934713, 0.937686, 0.936561, 0.936638, 0.936609, 0.938925, 0.938465, 0.942155, 0.94299, 0.945014, 1.0196, 1.0078, 1.0127, 1.01203, 1.00864, 1.04469, 0.921798, 0.921774, 0.922625, 0.897298, 0.895669, 0.892212, 0.892492, 0.891224, 0.887572, 0.887229, 0.885394, 0.884585, 0.884465, 0.883097, 0.880876, 0.880884, 0.88068, 0.881219, 0.881184, 0.880217, 0.879663, 0.879721, 0.881189, 0.880862, 0.883931, 0.88488, 0.886559, 0.925019, 0.890753, 0.892457, 0.894089, 0.893961, 0.893555, 0.891876, 0.890468, 0.891998, 0.893296, 0.892838, 0.892175, 0.891482, 0.89171, 0.893676, 0.893223, 0.89371, 0.893788, 0.890769, 0.884903, 0.883619, 0.883296, 0.88269, 0.885487, 0.88735, 0.888448, 0.889035, 0.887629, 0.883355, 0.882357, 0.881328, 0.881692, 0.885087, 0.885725, 0.886851, 0.886657, 1.18696, 0.932162, 0.892816, 0.894524, 0.899813, 0.901363, 0.904182, 0.903403, 0.90604, 0.907573, 0.907646, 0.908659, 0.91435, 0.915557, 0.958047, 0.952551, 0.917282, 0.92089, 0.924106, 0.925255, 0.925823, 0.961625, 0.913791, 0.907994, 0.909148, 0.986624, 0.900603, 0.895764, 0.897036, 0.897168, 0.893686, 0.890647, 0.889759, 0.885118
1.0373, 1.09879, 1.08729, 1.07797, 1.1164, 1.06124, 1.10303, 1.11723, 1.13074, 1.06295, 1.06439, 1.06863, 1.07071, 1.07215, 1.07484, 1.07821, 1.07897, 1.08241, 1.08408, 1.08756, 1.09153, 1.09254, 1.20159, 1.18027, 1.09862, 1.09868, 1.098, 1.24439, 1.20417, 1.21997, 1.14853, 1.24259, 1.2569, 1.24709, 1.17765, 1.23791, 1.11221, 1.11338, 1.11418, 1.11473, 1.11481, 1.11484, 1.11505, 1.11536, 1.11549, 1.11568, 1.11585, 1.11592, 1.11621, 1.11626, 1.1171, 1.21768, 1.21773, 1.29964, 1.12431, 1.11845, 1.50978, 1.08736, 1.30014, 1.07822, 1.43728, 1.06275, 1.0575, 1.05585, 1.51385, 1.55925, 1.4609, 1.44578, 1.41911, 1.14104, 1.14222, 1.00746, 1.00004, 0.999878, 0.997447, 0.995152, 0.995091, 0.993807, 0.99386, 0.99402, 0.994667, 0.994351, 0.987911, 0.987191, 0.988262, 0.988786, 0.993934, 0.993405, 0.990765, 1.04333, 1.0288, 1.04414, 0.984081, 0.98493, 0.983308, 0.983084, 0.98402, 0.984562, 0.981526, 0.97998, 0.980431, 0.980675, 0.978923, 0.977473, 0.975899, 0.97619, 0.974179, 0.985332, 0.985634, 0.969632, 0.96973, 0.970049, 0.972618, 0.974393, 0.975211, 0.974933, 0.976867, 0.979305, 0.979216, 1.07162, 0.979931, 0.980137, 0.979974, 0.977221, 0.97866, 0.983854, 0.98405, 0.988562, 0.991543, 0.988135, 1.06274, 1.10345, 1.13362, 1.05696, 1.00615, 1.09933, 1.00238, 0.958351, 0.953549, 1.00658, 1.01173, 1.01135, 0.947778, 0.95309, 0.972123, 0.984227, 1.08545, 0.989578, 0.986687, 0.956146, 0.955846, 0.955907, 0.954122, 0.967807, 0.956684, 0.934202, 0.93494, 0.934989, 0.935388, 0.938943, 0.937543, 0.931869, 0.93667, 0.93869, 0.939231, 1.02819, 1.02842, 1.03654, 1.02916, 1.03911, 1.04283, 1.04047, 0.926681, 0.926133, 0.915869, 0.910458, 0.903668, 0.89368, 0.89406, 0.890064, 0.890183, 0.884824, 0.885146, 0.884469, 0.883607, 0.884194, 0.88295, 0.880269, 0.881237, 0.882004, 0.881064, 0.880005, 0.878577, 0.876571, 0.876687, 0.881605, 0.883709, 0.885182, 0.88648, 0.88772, 0.88831, 0.89047, 0.89319, 0.893697, 0.893802, 0.893755, 0.89363, 0.893313, 0.892636, 0.892601, 0.892314, 0.891604, 0.891682, 0.891743, 0.890658, 0.892761, 0.892967, 0.893681, 0.894248, 0.884531, 0.885015, 0.881526, 0.882647, 0.882483, 0.885493, 0.888696, 0.890253, 0.890185, 0.969271, 0.882269, 0.881738, 0.881555, 0.884521, 0.886239, 0.886186, 0.88727, 0.888338, 0.890818, 0.893474, 0.89486, 0.896343, 0.932295, 0.918472, 0.900346, 0.905299, 0.9047, 0.906593, 0.90804, 0.910676, 0.914839, 0.91312, 0.915735, 0.918156, 0.920768, 0.920141, 1.01341, 1.04393, 0.909658, 0.911232, 0.909437, 1.10094, 1.08288, 1.11593, 0.896852, 0.896946, 0.896479, 0.891879, 0.89172, 0.890557, 0.887224
1.11627, 1.11502, 1.11255, 1.08629, 1.08584, 1.11447, 1.05941, 1.05793, 1.06114, 1.06309, 1.06372, 1.06842, 1.07173, 1.07345, 1.07687, 1.07964, 1.08173, 1.08344, 1.08457, 1.16367, 1.09183, 1.19216, 1.21872, 1.18772, 1.09892, 1.09928, 1.09757, 1.17129, 1.24664, 1.14388, 1.24416, 1.241, 1.22332, 1.23308, 1.23405, 1.25103, 1.11259, 1.11398, 1.11472, 1.11484, 1.11496, 1.11531, 1.11551, 1.1158, 1.11595, 1.11616, 1.11639, 1.11664, 1.11689, 1.11817, 1.11771, 1.11766, 1.36865, 1.36143, 1.12745, 1.10937, 1.17792, 1.40545, 1.50602, 1.20346, 1.38248, 1.37444, 1.37601, 1.05757, 1.05004, 1.39964, 1.04347, 1.47284, 1.50535, 1.16041, 1.13967, 1.16402, 0.997981, 0.997797, 0.99771, 0.99719, 0.994276, 0.993422, 0.99267, 0.994288, 0.995522, 0.994136, 0.985869, 0.988006, 0.98826, 0.987672, 0.990921, 0.991221, 1.05685, 1.03433, 1.10113, 1.12815, 1.1423, 1.0237, 0.981894, 0.982172, 0.983908, 0.982621, 0.982328, 0.981765, 0.979904, 0.979473, 0.977544, 0.97552, 0.974374, 0.973377, 0.97286, 1.13376, 1.02215, 0.968326, 0.969587, 0.970238, 0.970378, 0.973006, 0.973561, 0.97441, 0.974673, 0.978129, 0.978047, 0.974101, 0.980559, 0.979147, 0.975852, 0.976919, 0.978205, 0.983963, 0.984214, 0.987465, 0.989044, 0.982642, 0.982762, 1.03197, 1.03923, 1.02948, 1.10124, 0.964467, 0.963346, 0.94335, 0.942652, 1.1129, 0.940897, 1.01683, 0.992869, 0.995706, 0.972255, 1.07116, 0.985671, 0.986325, 0.990409, 0.987086, 0.987233, 0.953273, 0.952748, 0.94934, 0.956614, 0.932008, 0.934229, 0.935118, 0.935323, 0.934713, 0.931823, 0.931782, 0.931894, 1.07164, 0.933434, 1.04298, 1.0362, 1.03611, 1.03423, 1.03892, 1.03812, 1.0398, 0.926135, 0.92572, 0.929993, 0.930754, 1.20822, 0.891155, 0.888112, 0.887006, 0.885677, 0.885717, 0.885663, 0.885128, 0.883531, 0.883816, 0.880382, 0.880621, 0.880118, 0.88185, 0.883959, 0.877452, 0.875822, 0.877167, 0.877736, 0.891378, 0.884784, 0.885013, 0.885546, 0.886882, 0.888361, 0.888679, 0.889604, 0.891995, 0.891693, 0.893381, 0.893982, 0.895756, 0.895427, 0.895441, 0.893535, 0.893942, 0.894046, 0.89165, 0.89044, 0.891526, 0.892757, 0.894247, 0.894239, 0.884695, 0.885063, 0.880076, 0.8801, 0.880022, 0.89133, 0.888477, 0.889737, 0.889763, 0.887182, 0.891571, 0.879996, 0.880923, 0.882746, 0.885937, 0.887516, 1.01004, 0.889915, 0.891757, 0.892452, 0.893889, 0.935356, 0.930529, 0.934959, 0.899654, 0.901886, 0.902576, 0.905333, 0.906705, 0.907964, 0.911315, 0.913223, 0.916233, 0.91759, 0.918587, 0.920047, 1.00676, 0.986218, 0.91457, 0.908649, 0.908227, 0.963171, 0.9004, 0.897025, 0.896881, 0.896748, 0.896307, 0.892548, 0.893075, 1.21212, 0.88682
1.04149, 1.04216, 1.04616, 1.04902, 1.05033, 1.05318, 1.05282, 1.05757, 1.05987, 1.06318, 1.06508, 1.06917, 1.0718, 1.07618, 1.07716, 1.07893, 1.082, 1.08467, 1.08508, 1.08993, 1.15403, 1.16077, 1.21679, 1.23024, 1.09784, 1.09764, 1.09769, 1.21747, 1.12717, 1.1541, 1.12377, 1.15021, 1.23422, 1.25713, 1.18114, 1.23092, 1.11327, 1.11486, 1.115, 1.11525, 1.11567, 1.11604, 1.1163, 1.11646, 1.11661, 1.11675, 1.117, 1.11727, 1.11764, 1.11735, 1.11751, 1.11801, 1.22901, 1.44337, 1.22016, 1.13252, 1.36359, 1.34174, 1.11862, 1.07344, 1.07179, 1.37676, 1.05821, 1.05536, 1.39212, 1.5474, 1.47031, 1.4711, 1.51173, 1.14245, 1.13774, 1.12813, 0.997812, 0.996013, 0.995934, 0.997938, 0.995241, 0.991945, 0.992062, 0.992167, 0.989427, 0.991607, 0.990282, 0.986212, 0.985753, 0.985978, 0.98763, 0.984064, 0.99164, 1.04882, 1.04368, 1.0439, 1.14408, 0.972745, 0.973964, 1.12951, 0.981503, 0.981123, 0.982189, 0.9765, 0.975958, 0.976649, 0.977033, 0.974467, 0.973645, 0.973094, 0.973303, 0.973689, 0.97773, 0.977183, 0.969968, 0.968786, 0.969902, 0.971097, 0.972369, 0.972572, 0.975256, 0.975379, 0.973815, 0.973659, 0.974761, 0.97687, 0.97351, 0.973637, 0.977751, 0.978809, 0.984492, 0.983479, 0.983872, 1.06521, 0.977161, 0.977118, 1.09927, 1.12588, 1.02435, 0.964382, 1.02212, 0.940022, 0.940605, 1.04738, 1.04352, 1.04404, 1.02908, 0.996684, 0.9869, 0.987253, 0.991269, 1.18247, 0.991872, 1.00235, 0.949904, 0.949907, 1.07499, 1.07125, 0.939307, 0.930621, 0.931291, 0.931464, 0.930327, 1.14742, 0.964893, 0.93188, 0.932917, 0.92922, 0.932488, 1.04277, 0.97366, 1.04155, 1.05069, 1.028, 1.0259, 0.985166, 0.911971, 1.10486, 0.937127, 0.949661, 1.06703, 0.894174, 0.888001, 0.887466, 0.88681, 0.886034, 0.885279, 0.882176, 0.883581, 0.884922, 0.880536, 0.880987, 0.881562, 0.880666, 0.888625, 0.863454, 0.864401, 0.88613, 0.884482, 0.876869, 0.877123, 0.880791, 0.883422, 0.883542, 0.887411, 0.890479, 0.89072, 0.891207, 0.890592, 0.891903, 0.894914, 0.895702, 0.896234, 0.897117, 0.895741, 0.894291, 0.894067, 0.889617, 0.890534, 0.891083, 0.892693, 0.893769, 0.894899, 0.894193, 0.880462, 0.881875, 0.881683, 0.881785, 0.882005, 0.888917, 0.888032, 0.886614, 0.884239, 0.88453, 0.881466, 0.882159, 0.882847, 0.884753, 0.887044, 1.00969, 0.88989, 0.892859, 0.892038, 0.8925, 0.894567, 1.01569, 0.899302, 0.900248, 0.901479, 0.90309, 0.904517, 0.906735, 0.907544, 0.925347, 0.910092, 0.914948, 0.91465, 0.912915, 0.914703, 1.01268, 1.01652, 0.907908, 0.908994, 0.908907, 0.967758, 0.898285, 0.898473, 0.897725, 0.89758, 0.893894, 0.892118, 0.892849, 0.888694, 0.889962
1.03952, 1.11693, 1.04691, 1.04842, 1.04995, 1.0526, 1.05642, 1.057, 1.06045, 1.06267, 1.0647, 1.06869, 1.0721, 1.07585, 1.07668, 1.08032, 1.08256, 1.08483, 1.0873, 1.08822, 1.15587, 1.11166, 1.16909, 1.11208, 1.18905, 1.21453, 1.21521, 1.19176, 1.26994, 1.12689, 1.2373, 1.21259, 1.12589, 1.17139, 1.11806, 1.11846, 1.11527, 1.11552, 1.116, 1.11627, 1.11659, 1.11678, 1.11693, 1.11705, 1.11711, 1.1172, 1.11738, 1.11767, 1.11794, 1.11819, 1.11829, 1.11817, 1.21645, 1.21525, 1.25433, 1.13727, 1.15015, 1.15723, 1.3185, 1.15279, 1.51225, 1.45332, 1.05751, 1.05627, 1.04828, 1.46175, 1.03626, 1.03494, 1.4548, 1.3232, 1.08469, 1.08433, 1.00049, 0.997653, 0.99502, 0.994112, 0.994412, 0.993829, 0.992819, 0.988338, 0.988644, 0.989719, 0.989817, 0.985991, 0.985751, 0.986784, 0.983847, 0.983333, 0.979896, 0.977078, 1.15333, 1.14218, 1.14786, 0.973292, 0.973058, 0.97693, 0.979906, 0.980101, 0.979633, 0.9766, 0.976874, 0.976403, 0.973654, 0.97437, 0.973236, 0.972891, 0.973399, 0.975084, 0.977101, 0.966681, 0.967292, 0.967372, 0.969242, 0.968555, 0.969483, 0.970882, 0.974623, 0.974646, 0.973133, 0.974792, 0.97408, 0.976625, 0.975756, 0.974836, 0.976084, 0.977554, 0.981848, 0.981681, 0.977141, 0.976456, 0.973868, 0.974185, 0.985239, 1.08494, 0.962807, 1.03683, 0.941434, 0.941805, 0.942403, 0.930745, 0.932051, 0.940427, 1.00314, 0.981507, 0.99586, 0.994718, 0.99347, 1.18488, 1.00352, 1.00458, 1.12567, 1.00206, 0.994778, 0.943545, 0.938424, 0.931241, 0.93108, 0.930817, 0.930027, 0.930764, 0.928103, 0.923442, 0.929139, 0.924634, 0.926257, 1.06978, 1.04994, 0.943628, 1.05373, 1.05871, 1.06052, 1.04901, 1.05524, 0.917661, 0.957322, 0.922993, 0.923055, 0.891701, 0.885246, 0.884703, 0.886565, 0.886165, 0.885726, 0.883499, 0.88351, 0.88213, 0.88223, 0.880007, 0.8798, 0.873602, 0.869542, 0.86797, 0.865764, 0.868072, 0.875865, 0.875383, 0.87974, 0.880698, 0.88259, 0.883681, 0.885408, 0.890951, 0.892133, 0.891878, 0.891165, 0.891875, 0.891685, 0.895286, 0.89757, 0.897332, 0.896269, 0.896509, 0.893823, 0.891622, 0.89166, 0.891662, 0.893421, 0.893607, 0.893658, 0.894164, 0.88014, 0.88112, 0.881438, 0.881084, 0.88037, 0.880284, 0.884185, 0.886042, 0.883685, 0.884763, 0.881939, 0.881412, 0.88142, 0.887052, 0.886847, 0.888663, 0.891493, 0.894028, 0.894569, 0.894472, 0.894354, 0.896273, 0.899273, 0.900429, 0.899244, 0.899889, 0.901752, 0.904962, 0.906532, 0.907745, 0.911195, 0.912375, 0.911884, 0.912089, 0.912869, 0.912866, 0.932577, 0.908534, 0.906936, 0.90571, 0.967146, 0.899029, 0.898841, 1.07209, 0.890378, 0.88903, 0.889072, 0.890154, 0.887616, 0.889553
1.03881, 1.03909, 1.11628, 1.04844, 1.04919, 1.05245, 1.05329, 1.05613, 1.06002, 1.06117, 1.07078, 1.07071, 1.07159, 1.07394, 1.07864, 1.07931, 1.08383, 1.08568, 1.0868, 1.08528, 1.08487, 1.18887, 1.21895, 1.11958, 1.16603, 1.21527, 1.21513, 1.13228, 1.15267, 1.15464, 1.21283, 1.21558, 1.12363, 1.11973, 1.11996, 1.11897, 1.116, 1.11651, 1.1169, 1.11695, 1.11728, 1.11733, 1.11741, 1.11754, 1.11756, 1.1175, 1.1175, 1.1176, 1.1176, 1.11733, 1.11868, 1.11374, 1.20468, 1.28472, 1.28535, 1.25132, 1.09906, 1.29536, 1.31157, 1.17109, 1.16081, 1.18056, 1.39445, 1.39585, 1.45691, 1.03992, 1.31549, 1.14078, 1.42699, 1.09063, 1.14431, 1.16034, 1.16008, 1.00846, 0.996076, 0.995353, 0.994928, 0.992971, 0.990499, 0.990408, 0.990171, 0.98927, 0.987791, 0.987029, 0.984681, 0.984859, 0.98368, 0.981773, 0.979414, 1.13667, 1.17198, 1.05291, 1.05652, 1.04453, 0.970415, 0.974003, 0.975299, 0.978692, 0.975005, 0.976413, 0.973796, 0.974165, 0.973732, 0.973626, 0.973669, 0.973224, 0.975646, 0.976384, 0.976543, 0.976142, 0.96725, 0.964615, 0.969012, 0.969622, 0.969777, 0.969981, 0.969926, 0.969002, 0.974198, 0.973654, 0.971733, 0.974732, 0.975867, 0.974688, 0.973884, 0.975851, 0.980025, 0.979626, 0.977596, 0.975735, 0.974749, 0.975522, 0.975827, 1.1251, 1.03613, 0.949329, 0.940542, 0.942239, 0.930729, 0.93096, 0.931407, 0.930533, 0.961788, 1.00492, 1.13332, 0.944046, 0.991098, 1.33793, 0.9452, 0.945345, 1.03218, 0.944738, 0.9441, 1.07141, 0.994226, 0.932183, 0.930851, 0.929886, 0.924906, 0.924501, 0.923188, 0.92269, 0.929118, 1.09011, 0.936751, 0.981632, 0.916399, 1.05758, 1.05107, 0.959866, 1.02112, 1.06767, 0.915216, 1.06431, 0.926212, 0.92284, 0.890656, 0.890108, 0.887543, 0.88678, 0.886957, 0.886209, 0.884803, 0.883885, 0.883372, 0.881257, 0.883295, 0.880626, 0.875035, 0.873013, 0.86873, 0.868844, 0.866787, 0.870158, 0.876326, 0.876059, 0.876606, 0.881277, 0.882413, 0.883359, 0.90775, 0.889863, 0.891328, 0.890589, 0.89061, 0.891179, 0.892831, 0.89334, 0.896522, 0.897372, 0.896853, 0.897182, 0.895144, 0.891729, 0.892207, 0.892218, 0.891898, 0.888802, 0.891054, 0.891182, 0.87825, 0.879203, 0.879974, 0.882185, 0.880005, 0.88026, 0.881373, 0.881305, 0.882042, 0.881818, 0.879442, 0.880391, 0.882365, 0.883028, 0.884887, 0.887839, 0.890504, 0.893664, 0.895351, 0.89466, 0.895462, 0.897185, 0.899182, 0.900893, 0.900828, 0.900711, 0.899616, 0.900978, 0.905243, 0.906617, 0.907161, 0.972447, 0.910793, 0.911103, 0.988308, 0.946345, 1.00858, 0.907047, 0.905399, 0.905581, 1.01914, 1.10012, 1.09301, 0.893052, 0.891, 0.890224, 0.88892, 0.886994, 0.884965, 0.886075
1.05098, 1.04029, 1.04423, 1.04577, 1.04724, 1.04947, 1.05374, 1.05717, 1.05991, 1.06061, 1.06468, 1.0712, 1.07322, 1.07335, 1.0777, 1.07947, 1.0845, 1.08553, 1.08399, 1.08503, 1.16154, 1.14421, 1.11385, 1.18256, 1.18868, 1.16883, 1.16686, 1.19171, 1.21193, 1.15451, 1.20511, 1.20581, 1.22955, 1.12094, 1.12042, 1.11882, 1.11853, 1.11828, 1.11817, 1.11792, 1.1179, 1.11804, 1.11813, 1.11812, 1.11806, 1.11791, 1.11759, 1.11734, 1.11687, 1.11615, 1.1156, 1.21485, 1.24422, 1.3228, 1.10612, 1.15669, 1.15693, 1.17163, 1.5209, 1.09306, 1.22186, 1.16722, 1.0602, 1.10194, 1.54524, 1.39919, 1.14711, 1.02945, 1.02823, 1.42244, 1.15434, 1.19064, 1.18097, 1.02115, 0.996949, 0.996664, 0.995754, 0.995073, 0.990784, 0.99025, 0.990494, 0.990434, 0.990327, 0.987031, 0.985771, 0.98264, 0.981494, 0.97963, 0.978357, 1.05376, 1.03666, 1.0353, 1.02839, 1.01277, 1.01251, 0.973366, 0.973046, 0.970341, 0.975774, 0.973913, 0.973801, 0.973859, 0.973646, 0.973384, 0.972154, 0.972828, 0.976158, 0.9765, 0.975532, 0.973382, 0.966941, 0.966814, 0.970055, 0.969627, 0.96906, 0.968596, 0.968148, 0.968785, 0.969816, 0.972261, 0.971673, 0.972943, 0.973527, 0.97359, 0.974699, 0.974749, 0.977697, 0.980057, 0.980554, 0.97714, 0.974892, 0.975432, 0.975926, 1.05141, 1.21643, 1.21669, 1.02646, 0.939488, 1.02232, 0.930425, 0.929314, 0.929928, 0.964112, 0.940092, 1.00229, 1.13663, 0.941441, 0.942004, 0.942583, 1.01622, 1.04008, 1.04441, 1.09963, 0.93281, 0.932268, 0.997444, 0.926978, 0.926112, 0.922326, 0.92042, 0.921167, 0.921295, 1.09333, 0.915035, 0.915072, 0.912458, 1.06085, 1.06128, 1.05038, 1.05018, 1.01132, 1.04197, 1.06885, 0.919739, 0.927612, 0.948461, 0.890166, 0.890158, 0.890053, 0.886453, 0.88686, 0.88526, 0.885711, 0.883399, 0.883439, 0.883718, 0.884256, 0.883992, 0.881272, 0.875233, 0.870591, 0.871734, 0.873333, 1.23378, 0.876665, 0.875605, 0.87784, 0.88089, 0.881018, 0.879295, 0.88001, 0.883351, 0.89868, 1.09285, 0.893757, 0.890829, 0.888703, 0.893516, 0.896276, 0.898197, 0.897507, 0.897432, 0.894504, 0.892683, 0.891329, 0.887829, 0.88986, 0.890253, 0.890618, 0.890977, 0.87694, 0.87684, 0.875411, 0.876879, 0.875467, 0.876335, 0.876479, 0.879693, 0.880548, 0.879758, 0.878095, 0.877905, 0.880852, 0.883138, 0.883762, 0.887764, 0.889022, 0.893843, 0.894433, 0.894733, 0.896153, 0.896209, 0.897832, 0.898301, 0.898103, 0.899226, 0.899899, 0.899781, 0.901134, 0.902139, 0.90444, 0.906267, 0.906109, 0.904776, 0.90472, 0.898372, 0.905169, 0.904155, 0.904119, 0.903895, 1.07832, 1.08708, 0.892688, 1.12262, 0.888534, 0.889465, 0.889983, 0.890511, 0.88602, 0.887398
1.03724, 1.04079, 1.04234, 1.04274, 1.04654, 1.04977, 1.05009, 1.05644, 1.06086, 1.06271, 1.06505, 1.13971, 1.07254, 1.07355, 1.07669, 1.07847, 1.08343, 1.08398, 1.08395, 1.0854, 1.13322, 1.1772, 1.09575, 1.09825, 1.09919, 1.10407, 1.1038, 1.10723, 1.10857, 1.21241, 1.19902, 1.22123, 1.20223, 1.12057, 1.11933, 1.1194, 1.11851, 1.11851, 1.11831, 1.11824, 1.11822, 1.11832, 1.11836, 1.11827, 1.11823, 1.11801, 1.11755, 1.11701, 1.11618, 1.11584, 1.11422, 1.11384, 1.23027, 1.30847, 1.29697, 1.25038, 1.10099, 1.10131, 1.16395, 1.15084, 1.159, 1.53402, 1.06951, 1.45451, 1.3884, 1.46101, 1.47628, 1.02793, 1.02746, 1.02756, 1.37162, 1.19084, 1.20418, 1.01861, 0.997169, 0.996034, 0.994285, 0.990477, 0.990101, 0.990085, 0.990101, 0.991045, 0.988289, 0.986791, 0.985862, 0.982586, 0.980993, 0.980586, 0.976868, 1.06385, 1.02943, 1.0345, 1.16878, 1.01928, 1.02031, 0.97005, 0.969664, 0.970172, 0.971083, 0.972123, 0.972029, 0.973711, 0.9733, 0.973186, 0.972026, 0.973054, 0.974255, 0.973488, 0.973873, 0.972889, 0.967349, 0.964227, 0.967607, 0.967966, 0.967866, 0.968334, 0.967946, 0.968917, 0.971875, 0.973044, 0.969869, 0.972978, 0.973138, 0.973232, 0.975299, 0.975387, 0.978288, 0.980725, 0.980225, 0.976512, 0.97636, 0.975558, 1.08975, 1.07696, 1.08076, 1.03906, 1.03245, 1.02267, 1.12887, 0.92825, 0.928809, 0.929211, 1.01504, 0.939652, 0.940332, 1.13314, 0.941057, 0.942188, 1.00901, 1.02922, 1.02993, 0.932406, 0.927338, 0.930615, 1.06636, 0.993601, 0.997224, 0.932312, 1.12698, 0.919875, 0.919093, 0.91803, 0.917907, 0.914528, 0.911422, 0.909972, 0.907628, 0.905854, 0.901487, 0.89873, 0.891334, 0.888433, 0.887547, 0.88725, 0.888138, 0.890611, 0.887968, 0.888946, 0.888232, 0.886003, 0.886547, 0.88645, 0.885772, 0.882166, 0.883259, 0.883541, 0.883846, 0.883339, 0.880823, 0.873562, 0.873052, 0.874024, 0.874922, 0.876722, 0.874231, 0.875741, 0.876659, 0.879361, 0.877588, 0.878767, 0.880688, 0.880588, 0.881213, 0.897157, 0.897753, 0.88692, 0.888516, 0.889524, 0.942673, 0.896464, 0.920437, 0.922428, 0.894078, 0.891724, 0.890356, 0.890588, 0.889744, 0.890403, 0.887007, 0.887036, 0.873896, 0.876827, 0.876452, 0.87617, 0.875596, 0.877249, 0.876455, 0.877445, 0.879626, 0.880033, 0.876356, 0.876397, 0.876875, 0.88163, 0.8826, 0.888149, 0.891135, 0.893265, 0.893997, 0.894597, 0.896232, 0.897158, 0.897202, 0.898373, 0.896402, 0.896798, 0.897028, 0.896208, 0.897408, 0.898274, 0.90057, 0.903318, 0.905418, 0.907258, 0.905091, 0.904435, 0.90155, 0.902997, 0.902919, 0.892998, 0.894507, 0.893866, 0.887855, 0.882549, 0.886925, 0.886869, 0.88651, 0.887623, 0.88682, 0.886193
1.03547, 1.04008, 1.04046, 1.0409, 1.04891, 1.04972, 1.05199, 1.05644, 1.06244, 1.0628, 1.06289, 1.12572, 1.07041, 1.07196, 1.07603, 1.08001, 1.15935, 1.14813, 1.15764, 1.14683, 1.08905, 1.0942, 1.09502, 1.09725, 1.09943, 1.1012, 1.10307, 1.10743, 1.10839, 1.23795, 1.20177, 1.1222, 1.11993, 1.11889, 1.11856, 1.12013, 1.12063, 1.11958, 1.11927, 1.11846, 1.11856, 1.1186, 1.11848, 1.11832, 1.11832, 1.11824, 1.11783, 1.11688, 1.11592, 1.11563, 1.11529, 1.2745, 1.30023, 1.24509, 1.25172, 1.24996, 1.25034, 1.34299, 1.30213, 1.51663, 1.26821, 1.2898, 1.38759, 1.08105, 1.08709, 1.05951, 1.16297, 1.02882, 1.02844, 1.02842, 1.37122, 1.13921, 1.1409, 1.48601, 0.993937, 0.993637, 0.993225, 0.990643, 0.990729, 0.990564, 0.989733, 0.989573, 0.988044, 0.985413, 0.986369, 0.985283, 0.985538, 0.980419, 0.977611, 1.02783, 0.966351, 0.96593, 1.0315, 1.01903, 1.02747, 0.970563, 0.971291, 0.971851, 0.970436, 0.972177, 0.972045, 0.972956, 0.972966, 0.973005, 0.971787, 0.972354, 0.973244, 0.974062, 0.974885, 0.972756, 0.967108, 0.965668, 0.966567, 0.967262, 0.966693, 0.964943, 0.970041, 0.969615, 0.970833, 0.97127, 0.970562, 0.973214, 0.973936, 0.97324, 0.974316, 0.976364, 0.976641, 0.975871, 1.08067, 0.974144, 0.995527, 1.06108, 1.07447, 0.955502, 0.955245, 1.04315, 1.03955, 0.940581, 0.940202, 0.927223, 0.928381, 0.927546, 0.927315, 0.937479, 0.939048, 0.939909, 0.984782, 0.986242, 1.02337, 0.9385, 1.06831, 0.928631, 0.927987, 0.928048, 0.918482, 0.919096, 0.918927, 0.913416, 0.913559, 0.916155, 0.917256, 0.916752, 0.915859, 0.912913, 0.910208, 0.908321, 0.906517, 0.905647, 1.05603, 1.02869, 0.889035, 0.889331, 0.88597, 0.885871, 0.886087, 0.888582, 0.888176, 0.888331, 0.888043, 0.889488, 0.88723, 0.886777, 0.882227, 0.882347, 0.882314, 0.88332, 0.880257, 0.881561, 0.882193, 0.874495, 0.872099, 0.977206, 0.878258, 0.87699, 0.87737, 0.878137, 0.876533, 0.875073, 0.87598, 0.878374, 0.88106, 0.881645, 0.881341, 0.880488, 0.880143, 0.887053, 0.888025, 0.888967, 0.88919, 0.895627, 0.893816, 0.894379, 0.8919, 0.890323, 0.888428, 0.888205, 0.886567, 0.886246, 0.886277, 0.885174, 0.884879, 0.881029, 0.880981, 0.880041, 0.878966, 0.877214, 0.877627, 0.878069, 0.880042, 0.880034, 0.874679, 0.875101, 0.875408, 0.880619, 0.882696, 0.91102, 0.92056, 0.930278, 0.934097, 0.892372, 0.893816, 0.993861, 0.896081, 0.897082, 0.894644, 0.894776, 0.894964, 0.896343, 0.896407, 0.898159, 0.898715, 0.903408, 0.904838, 0.904938, 0.90175, 0.90331, 0.901378, 0.903192, 0.903776, 0.90396, 0.894623, 0.89503, 0.880508, 0.881536, 0.882483, 0.884288, 0.885898, 0.889428, 0.891177, 0.89138
1.03778, 1.03796, 1.04017, 1.04079, 1.04611, 1.08378, 1.05331, 1.05734, 1.05916, 1.06081, 1.13895, 1.14432, 1.06855, 1.07326, 1.16004, 1.13107, 1.09148, 1.12608, 1.17099, 1.08744, 1.08885, 1.09134, 1.09278, 1.09492, 1.09699, 1.10004, 1.10221, 1.10592, 1.20249, 1.16846, 1.21743, 1.19975, 1.11895, 1.11919, 1.11851, 1.12174, 1.12199, 1.11946, 1.11884, 1.11896, 1.11891, 1.11889, 1.11896, 1.11854, 1.11849, 1.11834, 1.11791, 1.11658, 1.11587, 1.11582, 1.11507, 1.11475, 1.11284, 1.2082, 1.1087, 1.21869, 1.24348, 1.15828, 1.28394, 1.30503, 1.4002, 1.34356, 1.07371, 1.07093, 1.40465, 1.47197, 1.03539, 1.03544, 1.03549, 1.02901, 1.10379, 1.13022, 1.13252, 1.14065, 0.997645, 0.992552, 0.99061, 0.990416, 0.993862, 0.992093, 0.991957, 0.989854, 0.989362, 0.989294, 0.984229, 0.98405, 0.982555, 0.979297, 0.978967, 1.08729, 1.03605, 1.0281, 0.960686, 1.05119, 1.03808, 1.18919, 0.97322, 0.9706, 0.969689, 0.970845, 0.973038, 0.973644, 0.973728, 0.973147, 0.971721, 0.972068, 0.97321, 0.975111, 0.975439, 0.974347, 0.966348, 0.966284, 0.966783, 0.966329, 0.966424, 0.966438, 0.966764, 0.968132, 0.96924, 0.970913, 0.970941, 0.974098, 0.975771, 0.973467, 0.974275, 0.973987, 0.9754, 0.974147, 1.0809, 1.08343, 1.16748, 1.09774, 1.11476, 1.23056, 0.956757, 1.0325, 0.939822, 0.940043, 0.939908, 0.942456, 0.9254, 0.926948, 0.927188, 0.935597, 0.937367, 0.937718, 0.938404, 0.938614, 0.938561, 0.937071, 0.933218, 0.928336, 0.928226, 0.923041, 0.918416, 0.919028, 0.919283, 0.918215, 0.916891, 0.917012, 0.916901, 0.917284, 0.916002, 0.912402, 0.910294, 0.908223, 0.906623, 0.90641, 1.04362, 1.06929, 0.88999, 0.887444, 0.885511, 0.88468, 0.884269, 0.885931, 0.886872, 0.887805, 0.889844, 0.890293, 0.887282, 0.886726, 0.884466, 0.881618, 0.882868, 0.883531, 0.882316, 0.882909, 0.882155, 0.881528, 0.88003, 0.879366, 0.879657, 0.879635, 0.877136, 0.877164, 0.877724, 0.876352, 0.876754, 0.877407, 0.878455, 0.881065, 0.881934, 0.880937, 0.880933, 0.88485, 0.88717, 0.887993, 0.889373, 0.946933, 0.891743, 0.890399, 0.88794, 0.887148, 0.885969, 0.882921, 0.884801, 0.88422, 0.884852, 0.884585, 0.884656, 0.882441, 0.883069, 0.881599, 0.879772, 0.877103, 0.878087, 0.878839, 0.880033, 0.879803, 0.875099, 0.873776, 0.872441, 0.887297, 0.893557, 0.911597, 0.914042, 1.01106, 0.933723, 0.935978, 0.935993, 0.934101, 0.938425, 0.892521, 0.893548, 0.894205, 0.89292, 0.89488, 0.895141, 0.898254, 0.899009, 0.902012, 0.904364, 0.902094, 0.901442, 0.898244, 0.900813, 0.901953, 0.903785, 0.897847, 0.897297, 1.08685, 0.887672, 0.881924, 0.88369, 0.881813, 0.889525, 0.890658, 0.892588, 0.892842
1.03408, 1.03718, 1.03722, 1.04451, 1.04711, 1.05026, 1.05217, 1.05418, 1.05959, 1.06077, 1.1166, 1.1163, 1.06839, 1.07039, 1.07245, 1.15547, 1.15019, 1.13904, 1.1775, 1.08435, 1.08386, 1.0886, 1.08986, 1.09158, 1.16792, 1.09656, 1.17253, 1.10445, 1.1094, 1.10947, 1.114, 1.11595, 1.11842, 1.11909, 1.12151, 1.12171, 1.12338, 1.12282, 1.12342, 1.11954, 1.11942, 1.1194, 1.11902, 1.11907, 1.11858, 1.11829, 1.1181, 1.11659, 1.11673, 1.11575, 1.11563, 1.11473, 1.20316, 1.21117, 1.21289, 1.21604, 1.1581, 1.23579, 1.29671, 1.29142, 1.29181, 1.07804, 1.17268, 1.24157, 1.40177, 1.39761, 1.03537, 1.03546, 1.0357, 1.02975, 1.1333, 1.11011, 1.12212, 1.45864, 1.01866, 0.994523, 0.9953, 0.994981, 0.996147, 0.992691, 0.992412, 0.992177, 0.992386, 0.992676, 0.983795, 0.982597, 0.981567, 0.98071, 0.977342, 1.08701, 1.15427, 1.09097, 0.960089, 0.960143, 0.95991, 0.963207, 0.978584, 1.43182, 0.969199, 0.971002, 0.972386, 0.973855, 0.975359, 0.97167, 0.97136, 0.971911, 0.973057, 0.975792, 0.976417, 0.977269, 0.965747, 0.966907, 0.9655, 0.965526, 0.964039, 0.965332, 0.966385, 0.966189, 0.966437, 0.964882, 0.966819, 0.97442, 0.974798, 0.973372, 0.973525, 0.973251, 0.973608, 0.973237, 1.08721, 1.08865, 1.05648, 1.09941, 1.0542, 0.957288, 1.05461, 0.966555, 0.940489, 0.940608, 0.940517, 0.932897, 0.932143, 0.927293, 0.927677, 0.934241, 0.93653, 0.937735, 0.938628, 0.938646, 0.938575, 0.937035, 0.935481, 0.924938, 0.925121, 0.921039, 0.920661, 0.919092, 0.919062, 0.918553, 0.917574, 0.91811, 0.918096, 0.915074, 0.913229, 0.910861, 0.909584, 0.906814, 0.906624, 0.906364, 1.07037, 0.893, 0.888811, 0.885911, 0.883776, 0.882538, 0.882467, 0.883799, 0.8858, 0.887246, 0.889974, 0.890098, 0.88834, 0.886875, 0.883325, 0.883919, 0.882222, 0.877456, 0.878712, 0.88073, 0.881773, 0.881648, 0.88057, 0.880864, 0.880369, 0.87979, 0.877852, 0.877953, 0.877192, 0.876601, 0.877777, 0.877971, 0.87861, 0.879598, 0.879852, 0.879274, 0.882622, 0.884838, 0.886977, 0.888184, 0.889182, 0.898648, 0.948817, 0.911677, 0.885667, 0.885617, 0.884296, 0.883654, 0.883452, 0.881163, 0.884576, 0.88368, 0.883307, 0.883455, 0.883181, 0.883124, 0.881131, 0.877386, 0.877711, 0.880129, 0.878198, 0.875766, 0.875782, 0.872024, 0.872763, 0.870204, 0.87648, 1.22523, 0.915645, 0.93164, 0.933476, 0.892217, 0.936232, 0.939395, 0.937011, 0.891938, 0.893619, 0.893203, 0.894011, 0.894208, 0.893946, 0.894355, 0.898165, 0.981864, 0.984214, 0.900786, 0.90098, 0.899253, 0.898853, 0.901231, 0.90127, 0.899702, 1.07244, 1.08056, 0.880695, 0.875498, 0.877146, 0.879983, 1.15967, 0.890938, 0.892538, 0.963292
1.03883, 1.0374, 1.03868, 1.04309, 1.04791, 1.04986, 1.05361, 1.05598, 1.12236, 1.10233, 1.13274, 1.0656, 1.06542, 1.07016, 1.07025, 1.13893, 1.10013, 1.09856, 1.07887, 1.07936, 1.08224, 1.08301, 1.20327, 1.09106, 1.0916, 1.09411, 1.10164, 1.10306, 1.10755, 1.10895, 1.11131, 1.11476, 1.11761, 1.11991, 1.11927, 1.12183, 1.12427, 1.12405, 1.12421, 1.12548, 1.1209, 1.11975, 1.11994, 1.12084, 1.11941, 1.1184, 1.1182, 1.11691, 1.1164, 1.11591, 1.21287, 1.21178, 1.11438, 1.11226, 1.20047, 1.30248, 1.35434, 1.26227, 1.38288, 1.14652, 1.31305, 1.32217, 1.36754, 1.06657, 1.34312, 1.43074, 1.40914, 1.03352, 1.02982, 1.02965, 1.02967, 1.12853, 1.11948, 1.45785, 1.33982, 1.34086, 0.995005, 0.995264, 0.996425, 0.995317, 0.994213, 0.99386, 0.992612, 0.991939, 0.98495, 0.98385, 0.981187, 0.980045, 0.977062, 1.00521, 0.968605, 1.05344, 0.961619, 0.959503, 0.959838, 0.959997, 0.982819, 0.976242, 0.975745, 0.972618, 0.973118, 0.972819, 0.972879, 0.970346, 0.971274, 1.2549, 0.974545, 0.97531, 0.976826, 0.976866, 0.969756, 0.963033, 0.96322, 0.964018, 0.964694, 0.965114, 0.968063, 0.968323, 0.965021, 0.964209, 1.04827, 0.971228, 0.973139, 0.973263, 0.971642, 0.972025, 0.971714, 0.971051, 1.09302, 1.18275, 1.01996, 1.08001, 1.05008, 1.05636, 0.951313, 0.96478, 0.939632, 0.940331, 0.932162, 0.932124, 0.932615, 0.928571, 0.928418, 0.928255, 1.04195, 0.938445, 0.939321, 0.93855, 0.933917, 0.934672, 0.93115, 0.926636, 0.928286, 0.918933, 0.919787, 0.91789, 0.917752, 0.917787, 0.916494, 0.918863, 0.915068, 0.913448, 0.913783, 0.914194, 0.910961, 0.908639, 0.905506, 0.910631, 1.07043, 0.88843, 0.887967, 0.887529, 0.88028, 0.880301, 0.88016, 0.880662, 0.881116, 0.888092, 0.888562, 0.889271, 0.884092, 0.881913, 0.882982, 0.884659, 0.884185, 0.877927, 0.879174, 0.879659, 0.879656, 0.880136, 0.880507, 0.880187, 0.880778, 0.880495, 0.879829, 0.879753, 0.878918, 0.879408, 0.879175, 0.878671, 0.879183, 0.880084, 0.879827, 0.883305, 0.883623, 0.886909, 0.887108, 0.88661, 0.885895, 0.881979, 0.883926, 0.886565, 0.886408, 0.934036, 0.880562, 0.880263, 0.879977, 0.882678, 0.881529, 0.882635, 0.883338, 0.883259, 0.88346, 0.882966, 0.879337, 0.878379, 0.87811, 0.880389, 0.87813, 0.876966, 0.875044, 0.871797, 0.869955, 0.870839, 0.875488, 0.878586, 0.883908, 0.927893, 0.930315, 0.889203, 0.890172, 0.892046, 0.892985, 0.89192, 0.893856, 0.894155, 0.894817, 0.895415, 0.895967, 0.895514, 0.898255, 0.899968, 0.898036, 0.898619, 0.899509, 0.897926, 0.899483, 0.900678, 0.900893, 1.05346, 1.05376, 1.07614, 0.879896, 0.878289, 0.878538, 0.878948, 1.09066, 0.904173, 0.961535, 0.959819
1.03627, 1.03795, 1.03938, 1.11125, 1.04833, 1.04861, 1.05345, 1.10156, 1.09536, 1.11192, 1.13676, 1.06319, 1.06378, 1.06676, 1.15792, 1.15517, 1.10197, 1.16518, 1.07716, 1.07877, 1.08044, 1.08128, 1.08604, 1.08803, 1.09079, 1.09235, 1.09743, 1.10191, 1.1041, 1.11176, 1.11094, 1.11197, 1.11842, 1.11829, 1.11858, 1.11968, 1.12365, 1.125, 1.12507, 1.12496, 1.12424, 1.12516, 1.12346, 1.12067, 1.12048, 1.11866, 1.1187, 1.11726, 1.11835, 1.1163, 1.11615, 1.11544, 1.11459, 1.11375, 1.23952, 1.30143, 1.11117, 1.22295, 1.30279, 1.29586, 1.39219, 1.08474, 1.36721, 1.36802, 1.39572, 1.05516, 1.37917, 1.03644, 1.03251, 1.03109, 1.02885, 1.11832, 1.09202, 1.02417, 1.0318, 0.99456, 0.996418, 0.997043, 0.995313, 0.996454, 0.994255, 0.993891, 0.992855, 0.990733, 0.990626, 0.982673, 0.982006, 0.979347, 0.977374, 0.976936, 0.981191, 0.961409, 0.961235, 0.959123, 0.958273, 0.95842, 0.960578, 0.984614, 1.08407, 0.969921, 0.970652, 0.974131, 0.974505, 0.990511, 1.18528, 1.18394, 0.975187, 0.976042, 0.976785, 0.976906, 0.962974, 0.963339, 0.962767, 0.962665, 0.96552, 0.965049, 0.970177, 0.967304, 0.967301, 0.966474, 0.965669, 0.972116, 0.971679, 0.971817, 0.971862, 0.970622, 0.970118, 1.09251, 1.06454, 1.0945, 1.01956, 1.06849, 1.1831, 0.956589, 1.0505, 1.0232, 1.04724, 0.935683, 0.934675, 0.932008, 0.931951, 0.927315, 0.92727, 0.928234, 1.04515, 0.939669, 0.940277, 0.939774, 0.936271, 0.926872, 0.925867, 0.925519, 0.915517, 0.91625, 0.919905, 0.918328, 0.91787, 0.918248, 0.917822, 0.915255, 0.914816, 0.914073, 0.914109, 0.913697, 0.909135, 0.90585, 0.90585, 0.905489, 0.897369, 0.890226, 0.889309, 1.10436, 0.880053, 0.879046, 0.877735, 0.878895, 0.878271, 0.877405, 0.884563, 0.884364, 0.882174, 0.881271, 0.880099, 0.880859, 0.881003, 0.880314, 0.880419, 0.880507, 0.879818, 0.880058, 0.879697, 0.875012, 0.879694, 0.87978, 0.879729, 0.881528, 0.881799, 0.881093, 0.880178, 0.880576, 0.878869, 0.879037, 0.879943, 0.879898, 0.890665, 0.885272, 0.886948, 0.887266, 0.8833, 0.88246, 0.882377, 0.88304, 0.882504, 0.880819, 0.880373, 0.880337, 0.87905, 0.879358, 0.879564, 0.880867, 0.883568, 0.882292, 0.8843, 0.878593, 0.878683, 0.877864, 0.879765, 0.879989, 0.875322, 0.87421, 0.873035, 0.8726, 0.870122, 0.873063, 0.876031, 0.879658, 0.883904, 1.22911, 0.935903, 0.888379, 0.890186, 0.891204, 0.89242, 0.892904, 0.893038, 0.892621, 0.893636, 0.894505, 0.894877, 0.895915, 0.898007, 0.89754, 0.897833, 0.897857, 0.898295, 0.89771, 0.89886, 0.900985, 0.901272, 0.900896, 1.05455, 0.890721, 0.879352, 0.875124, 0.878061, 0.877491, 1.0935, 0.88747, 0.960146, 0.878882
1.03554, 1.0362, 1.03671, 1.04137, 1.04979, 1.0492, 1.10852, 1.10988, 1.11927, 1.11834, 1.1071, 1.06353, 1.06397, 1.06662, 1.15609, 1.13602, 1.07269, 1.07183, 1.0755, 1.07822, 1.08018, 1.08085, 1.08147, 1.08488, 1.17471, 1.09315, 1.09462, 1.19162, 1.18577, 1.10894, 1.10982, 1.11094, 1.11418, 1.11498, 1.11829, 1.11833, 1.12055, 1.12323, 1.12278, 1.12322, 1.12498, 1.12506, 1.12339, 1.1224, 1.12213, 1.12209, 1.11903, 1.11841, 1.11736, 1.11677, 1.1167, 1.11472, 1.1149, 1.1142, 1.11498, 1.27262, 1.11315, 1.2394, 1.35827, 1.35765, 1.0985, 1.4188, 1.22023, 1.37734, 1.37516, 1.20836, 1.05982, 1.04641, 1.03351, 1.02953, 1.02916, 1.09385, 1.09369, 1.04243, 1.03936, 1.00508, 0.995552, 0.99582, 0.994408, 0.995683, 0.993966, 0.993982, 0.989562, 0.988962, 0.985857, 0.982011, 0.9807, 0.980754, 0.977777, 0.978982, 0.980849, 0.980266, 0.962277, 0.958396, 0.957132, 0.958145, 0.986424, 0.962745, 0.966627, 0.966789, 0.966066, 0.96659, 0.967681, 0.99072, 0.97552, 0.978678, 0.976902, 0.975168, 0.97705, 0.980461, 0.989066, 0.964258, 0.963349, 0.963745, 0.963167, 0.964612, 0.966153, 0.966774, 0.966996, 0.966338, 0.966279, 0.97046, 0.971096, 0.972585, 0.973144, 0.969755, 0.969991, 1.24701, 1.09601, 1.098, 1.07466, 1.10929, 1.10727, 1.04397, 1.04775, 1.05301, 0.938564, 0.938169, 0.937413, 0.930698, 0.93193, 0.931941, 0.928334, 0.929033, 1.0472, 0.938803, 0.939944, 1.0235, 0.928838, 0.928495, 0.92606, 0.924836, 0.919948, 0.919479, 0.919308, 0.91808, 0.917832, 0.916988, 0.916758, 0.912277, 0.912939, 0.912254, 0.908825, 0.91074, 0.910985, 0.90637, 0.905837, 0.894097, 0.893825, 0.893287, 1.04361, 1.10444, 1.0453, 0.877228, 0.877014, 0.877222, 0.878169, 0.878772, 0.877898, 0.879012, 0.880416, 0.879892, 0.88034, 0.880934, 0.88079, 0.879968, 0.879808, 0.879828, 0.879928, 0.876821, 0.876314, 0.876808, 0.879591, 0.879642, 0.880327, 0.88335, 0.883422, 0.883485, 0.884715, 0.877756, 0.877034, 0.877218, 0.877355, 0.877571, 0.935879, 0.884985, 0.885885, 0.921707, 0.882546, 0.881742, 0.88224, 0.882284, 0.878885, 0.879001, 0.879341, 0.87901, 0.878605, 0.878162, 0.882233, 0.883005, 0.883573, 0.885932, 0.88594, 0.882625, 0.88038, 0.880366, 0.879192, 0.877766, 0.877457, 0.875367, 0.873115, 0.873101, 0.871123, 0.871211, 0.879664, 1.2808, 0.884169, 0.963641, 0.969731, 0.887372, 0.887643, 0.889975, 0.891241, 0.893493, 0.893435, 0.893919, 0.894171, 0.895255, 0.894461, 0.895237, 0.898283, 0.898562, 0.896447, 0.900242, 0.898873, 0.899998, 0.901397, 0.901143, 0.901288, 1.0539, 0.884273, 0.883616, 0.879439, 0.877339, 0.877138, 0.877295, 1.14697, 0.882803, 0.881385, 0.87842
1.033, 1.0368, 1.0374, 1.04183, 1.04291, 1.04639, 1.10703, 1.09605, 1.1198, 1.05119, 1.05398, 1.05971, 1.0601, 1.06573, 1.15321, 1.07247, 1.07144, 1.0732, 1.07339, 1.07264, 1.07884, 1.07866, 1.08068, 1.08176, 1.08623, 1.09306, 1.0944, 1.09605, 1.18944, 1.10847, 1.10795, 1.1085, 1.1121, 1.11272, 1.11629, 1.11819, 1.11725, 1.11938, 1.12175, 1.12214, 1.12328, 1.12415, 1.12373, 1.12257, 1.12178, 1.12231, 1.11953, 1.11943, 1.11799, 1.11676, 1.11637, 1.11483, 1.11411, 1.11356, 1.11385, 1.11464, 1.11433, 1.11388, 1.36033, 1.25199, 1.28176, 1.26449, 1.27809, 1.4384, 1.10618, 1.32748, 1.04668, 1.046, 1.37076, 1.03037, 1.03163, 1.11752, 1.09938, 1.03927, 1.03849, 1.00947, 1.00104, 1.00101, 0.994963, 0.995489, 0.994388, 0.99061, 0.990286, 0.988083, 0.983904, 0.983523, 0.980791, 0.980983, 0.978021, 0.978336, 0.980922, 1.03512, 0.961301, 0.957316, 0.958205, 0.959104, 1.22614, 1.0032, 0.966157, 0.965812, 0.965647, 0.966677, 0.967582, 0.984673, 1.25205, 0.975205, 0.977712, 0.977933, 1.0049, 1.1156, 0.963886, 0.963652, 0.96373, 0.963865, 0.9646, 0.964844, 0.964553, 1.10612, 1.1737, 0.964596, 0.965238, 0.968071, 0.969662, 0.972452, 0.974531, 1.08405, 1.22893, 1.01028, 1.08488, 1.15717, 1.0549, 1.10478, 1.17042, 0.976525, 1.05448, 0.955451, 1.06255, 0.939165, 0.932066, 0.930065, 0.931686, 0.932013, 0.920201, 1.05332, 1.04731, 1.04362, 0.937016, 1.01209, 0.928256, 0.928239, 0.926808, 0.925744, 0.920071, 0.91991, 0.919403, 0.918017, 0.916909, 0.916257, 0.917524, 0.914093, 0.910925, 0.91085, 0.909315, 0.910745, 0.910249, 0.907261, 0.90299, 0.894166, 0.894979, 1.10102, 1.0429, 1.04409, 0.873862, 0.87526, 0.876021, 0.876377, 0.8768, 0.877322, 0.878077, 0.878391, 0.880315, 0.879901, 0.879903, 0.876225, 0.869308, 0.866782, 0.877162, 0.875473, 0.87773, 0.87895, 0.878508, 0.877801, 0.879757, 0.879676, 0.881154, 0.881722, 0.882455, 0.885718, 0.883754, 0.881327, 0.878394, 0.878891, 0.876189, 0.874436, 0.875128, 0.882504, 0.883311, 0.901665, 0.902468, 0.879092, 0.878733, 0.878036, 0.878966, 0.878396, 0.879737, 0.879542, 0.880375, 0.88331, 0.88302, 0.883615, 0.884879, 0.887099, 0.886766, 0.886931, 0.881481, 0.881509, 0.88212, 0.882051, 0.87383, 0.87496, 0.874069, 0.870828, 0.870005, 0.873346, 0.874781, 0.881675, 0.891014, 0.886541, 0.886818, 0.886863, 0.889072, 0.891076, 0.891678, 0.891524, 0.890881, 0.893266, 0.894661, 0.894803, 0.894722, 0.894269, 0.896159, 0.898778, 0.899986, 0.900139, 0.90149, 0.901224, 0.903451, 0.902353, 0.902059, 0.976196, 1.07159, 0.878808, 0.874409, 0.876435, 0.87642, 0.875533, 0.878483, 0.882363, 0.883624, 0.878968
1.06894, 1.03784, 1.03798, 1.04091, 1.0428, 1.043, 1.07996, 1.11491, 1.11455, 1.04961, 1.05223, 1.05951, 1.06058, 1.06492, 1.06723, 1.07366, 1.07257, 1.07306, 1.07329, 1.07309, 1.07437, 1.07703, 1.08025, 1.0821, 1.08562, 1.08894, 1.13802, 1.0955, 1.22557, 1.10571, 1.10646, 1.10662, 1.10566, 1.11042, 1.11261, 1.11824, 1.11521, 1.1199, 1.12207, 1.12183, 1.12181, 1.12321, 1.1244, 1.12367, 1.12304, 1.12174, 1.12179, 1.12145, 1.11825, 1.11874, 1.11684, 1.11538, 1.11502, 1.1149, 1.11484, 1.11465, 1.11477, 1.11522, 1.10953, 1.10896, 1.11054, 1.28893, 1.11209, 1.41098, 1.38475, 1.40191, 1.21165, 1.32292, 1.36822, 1.03216, 1.03227, 1.1105, 1.11943, 1.04039, 1.0227, 1.00889, 1.00171, 1.00234, 0.999433, 1.00813, 1.00973, 0.990525, 0.988748, 0.98476, 0.984213, 0.982477, 0.981388, 0.980511, 0.98072, 0.971052, 0.968494, 0.966538, 1.11554, 0.957867, 0.957265, 0.960493, 0.962985, 0.964132, 0.965743, 0.966562, 0.966987, 0.966348, 0.966278, 0.96553, 0.964908, 1.31704, 0.983647, 1.31717, 1.0966, 1.01171, 0.962716, 0.963493, 0.963014, 0.963485, 0.965165, 0.965068, 0.963088, 0.962865, 0.963709, 0.965635, 0.965831, 0.967233, 0.967655, 0.96795, 0.969774, 0.968114, 1.24075, 1.01803, 1.09755, 1.11619, 1.16358, 1.03675, 1.03503, 0.950026, 0.933305, 0.933738, 0.933377, 0.931277, 0.931569, 0.93144, 0.931056, 0.931845, 0.920949, 1.06373, 1.06804, 1.0678, 0.935995, 1.1746, 0.92709, 0.926911, 0.927477, 0.923952, 0.924036, 0.919234, 0.919118, 0.919154, 0.916418, 0.916005, 0.912961, 0.911377, 0.910727, 0.911277, 0.911379, 0.909849, 0.909326, 0.905358, 0.903859, 0.900439, 0.892328, 1.05311, 1.10106, 1.10446, 0.873255, 0.874099, 0.874858, 0.873941, 0.873554, 0.877847, 0.877613, 0.876814, 0.876052, 0.874788, 0.885278, 0.869593, 0.869577, 0.869324, 0.873401, 0.87508, 0.875786, 0.876123, 0.876546, 0.877277, 0.879663, 0.879218, 0.88109, 0.882426, 0.882202, 0.881568, 0.882298, 0.878967, 0.877531, 0.876692, 0.876586, 0.876198, 0.887961, 0.890689, 0.891414, 0.890523, 0.879033, 0.878405, 0.878082, 0.87883, 0.877996, 0.878357, 0.878971, 0.880782, 0.882212, 0.883377, 0.884037, 0.884897, 0.886055, 0.886755, 0.886885, 0.885257, 0.884753, 0.883666, 0.883643, 0.88154, 0.879773, 0.878205, 0.873517, 0.873041, 0.872745, 0.873005, 0.873101, 0.889458, 0.880054, 0.881969, 0.887981, 0.887623, 0.887164, 0.889779, 0.890492, 0.890797, 0.890245, 0.892246, 0.894127, 0.895, 0.896091, 0.895511, 0.897979, 0.899624, 0.901457, 0.901889, 0.900171, 0.901566, 0.90117, 0.902165, 0.902161, 0.930518, 0.932072, 0.876383, 0.876383, 0.876496, 0.87595, 0.87657, 1.07798, 1.09423, 0.893095, 0.891784
1.03361, 1.03521, 1.03632, 1.04017, 1.04316, 1.09718, 1.08394, 1.04526, 1.04492, 1.04611, 1.05663, 1.06048, 1.06209, 1.06433, 1.06766, 1.06966, 1.07011, 1.07108, 1.07396, 1.07548, 1.07692, 1.07893, 1.08041, 1.08271, 1.08487, 1.08775, 1.09121, 1.09168, 1.09956, 1.10102, 1.1034, 1.105, 1.10506, 1.1088, 1.10884, 1.11474, 1.1153, 1.11581, 1.11768, 1.11935, 1.1217, 1.1217, 1.12191, 1.1242, 1.12211, 1.12044, 1.1219, 1.26075, 1.12007, 1.11796, 1.11632, 1.11577, 1.11529, 1.11496, 1.11503, 1.11526, 1.11499, 1.11537, 1.10947, 1.10778, 1.10691, 1.2879, 1.11169, 1.40024, 1.40939, 1.21979, 1.31883, 1.23284, 1.0367, 1.03263, 1.032, 1.10915, 1.14921, 1.02987, 1.03083, 1.00646, 1.0041, 0.997593, 0.997902, 1.00594, 0.989192, 0.989782, 0.98898, 0.983166, 0.982878, 0.982018, 0.981094, 0.981038, 0.980684, 0.974792, 0.973334, 1.00853, 1.08406, 0.959511, 0.961389, 1.05682, 0.964111, 0.964219, 0.965183, 0.96633, 0.966407, 0.966406, 0.966368, 0.964565, 0.963767, 0.963482, 0.984222, 0.991147, 1.12324, 0.963364, 0.963273, 0.961112, 0.962759, 0.964003, 0.964655, 0.965672, 0.961998, 0.962595, 0.963791, 0.965447, 0.966233, 0.967916, 0.96752, 0.968686, 0.969668, 0.969401, 1.01242, 1.02249, 0.995255, 1.05764, 0.954023, 0.953926, 0.955786, 0.931672, 0.933269, 0.933116, 0.932329, 0.931767, 0.931688, 0.931706, 0.931995, 0.932218, 1.13287, 1.06102, 0.93463, 0.934532, 0.934459, 0.934904, 0.926649, 0.926396, 0.926613, 0.92542, 0.922042, 0.918505, 0.917779, 0.918185, 0.91363, 0.914464, 0.913827, 0.912656, 0.910664, 0.909749, 0.909147, 0.908858, 0.906277, 0.90429, 0.903045, 0.901345, 0.89422, 1.0785, 1.08194, 1.09896, 0.872119, 0.876598, 0.874965, 0.874714, 0.873037, 0.873923, 0.874842, 0.875193, 0.875853, 0.876264, 0.873507, 0.867593, 0.869151, 0.871767, 0.874287, 0.875362, 0.875589, 0.87514, 0.876808, 0.878004, 0.878606, 0.880673, 0.880454, 0.880636, 0.880443, 0.880716, 0.882523, 0.884191, 0.878104, 0.876503, 0.874657, 0.876277, 0.87483, 0.877232, 0.879786, 0.874974, 0.875516, 0.878117, 0.878302, 0.877815, 0.878735, 0.878428, 0.880205, 0.881882, 0.882475, 0.88409, 0.884072, 0.883896, 0.883944, 0.883753, 0.883995, 0.884866, 0.886199, 0.886792, 0.884737, 0.884002, 0.88107, 0.87799, 0.876024, 0.872817, 0.872709, 0.872516, 0.873075, 0.881041, 0.880276, 0.884468, 0.886831, 0.8868, 0.888378, 0.89006, 0.889112, 0.888812, 0.890728, 0.891776, 0.892861, 0.894332, 0.895571, 0.894294, 0.894973, 0.940202, 0.90058, 0.899835, 0.901511, 0.901514, 0.900874, 0.901006, 0.946267, 0.909315, 0.987838, 1.09642, 0.873885, 0.8716, 0.872953, 1.071, 1.0712, 1.06374, 0.892491, 0.892518
1.0322, 1.03395, 1.03591, 1.04013, 1.03991, 1.09359, 1.09505, 1.04297, 1.04335, 1.10701, 1.11254, 1.06002, 1.06059, 1.06155, 1.06543, 1.0665, 1.0696, 1.06989, 1.07324, 1.07359, 1.0783, 1.07937, 1.08254, 1.08392, 1.08603, 1.0879, 1.09165, 1.09196, 1.09719, 1.10019, 1.1013, 1.10377, 1.10445, 1.10116, 1.17592, 1.11279, 1.11445, 1.11493, 1.11588, 1.11772, 1.11835, 1.12003, 1.12335, 1.12603, 1.12514, 1.12521, 1.12428, 1.25972, 1.26081, 1.11869, 1.11785, 1.11587, 1.11521, 1.11474, 1.11487, 1.11486, 1.11466, 1.11424, 1.11307, 1.34343, 1.1124, 1.34735, 1.11206, 1.11602, 1.11672, 1.31555, 1.31676, 1.31561, 1.36112, 1.36191, 1.03151, 1.1083, 1.08511, 1.08567, 1.05252, 1.00522, 1.02865, 0.998476, 0.994988, 0.98719, 0.988751, 0.990047, 0.987624, 0.986551, 0.98291, 0.982156, 0.980652, 0.981263, 0.974869, 0.974487, 0.972226, 0.970265, 0.972797, 1.06407, 1.0713, 0.963412, 0.963735, 0.96629, 0.966031, 0.966206, 0.966332, 0.966994, 0.968182, 0.964724, 0.963127, 0.96276, 0.962683, 0.961823, 0.96279, 0.96279, 0.962833, 0.962776, 0.963109, 0.964014, 0.963081, 0.962698, 0.96256, 0.963789, 0.966106, 0.965449, 0.966621, 0.966531, 0.966739, 0.968423, 0.969646, 0.969433, 1.01875, 0.993889, 1.05496, 1.00087, 1.00436, 1.01941, 0.944807, 0.93352, 0.933413, 0.93362, 0.930252, 0.930221, 0.930014, 0.93177, 0.93203, 0.931724, 1.06358, 0.932307, 0.933753, 0.935154, 0.935024, 0.93388, 0.928628, 0.928528, 0.926981, 0.923866, 0.920382, 0.919829, 0.918527, 0.917902, 0.916617, 0.913466, 0.912101, 0.910794, 0.908995, 0.90745, 0.906763, 0.907998, 0.908306, 0.905277, 0.903478, 0.900612, 0.90154, 0.911938, 0.980104, 0.980374, 0.910656, 0.877589, 0.8754, 0.876256, 0.87508, 0.874173, 0.873749, 0.873545, 0.873299, 0.8749, 0.869638, 0.868413, 0.868625, 0.877988, 0.874389, 0.874825, 0.874871, 0.87767, 0.876793, 0.878178, 0.879232, 0.879958, 0.880189, 0.880921, 0.877334, 0.876773, 1.02657, 0.891489, 0.892107, 0.875159, 0.870795, 0.872019, 0.873501, 0.875293, 0.87214, 0.87439, 0.876532, 0.876465, 0.87696, 0.878266, 0.878688, 0.879741, 0.879842, 0.897462, 0.882453, 0.883464, 0.885881, 0.885406, 0.883895, 0.883441, 0.881211, 0.882767, 0.885481, 0.884046, 0.883362, 0.88338, 0.883356, 0.879868, 0.874811, 0.871374, 0.871075, 0.871203, 0.871321, 0.87511, 0.878043, 0.87876, 0.885667, 0.886538, 0.887736, 0.888507, 0.888727, 0.890329, 0.89058, 0.891105, 0.974332, 0.980603, 0.891617, 0.891931, 0.89106, 0.89257, 0.894585, 0.89627, 0.899714, 0.901085, 0.90121, 0.900661, 0.895262, 0.894055, 0.987187, 0.872775, 0.870928, 0.872142, 0.872952, 0.869562, 1.15309, 1.0846, 1.00268, 0.892499
1.0304, 1.03228, 1.03638, 1.03896, 1.03889, 1.0417, 1.04227, 1.04282, 1.04716, 1.04809, 1.12267, 1.11531, 1.06015, 1.05945, 1.063, 1.06519, 1.0673, 1.06935, 1.07074, 1.16061, 1.07881, 1.07935, 1.08289, 1.08327, 1.08682, 1.09055, 1.0907, 1.09395, 1.09737, 1.09848, 1.09921, 1.10437, 1.10219, 1.10128, 1.10713, 1.10858, 1.11209, 1.11172, 1.11516, 1.1173, 1.11859, 1.12022, 1.12274, 1.12578, 1.12857, 1.12544, 1.12452, 1.12449, 1.21624, 1.11868, 1.1186, 1.1167, 1.11477, 1.11481, 1.11486, 1.11462, 1.11387, 1.11412, 1.11374, 1.11182, 1.25715, 1.1233, 1.37073, 1.41358, 1.41684, 1.22219, 1.31173, 1.36205, 1.36362, 1.10891, 1.03062, 1.02775, 1.04071, 1.08722, 1.2084, 1.00632, 0.997142, 0.995941, 0.992139, 0.989748, 0.990144, 0.989094, 0.987957, 0.981808, 0.982349, 0.98249, 0.980517, 0.980461, 0.974926, 0.974952, 0.972441, 0.971294, 0.969542, 1.06549, 1.07997, 0.964743, 0.966962, 0.966763, 0.966135, 0.96673, 0.966061, 0.968719, 0.968762, 0.96736, 0.96284, 0.962575, 0.962557, 0.962784, 0.963713, 0.963647, 0.965258, 0.964439, 0.963878, 0.963291, 0.962633, 0.962709, 0.962998, 0.96555, 0.96611, 0.966673, 0.967211, 0.967013, 0.967075, 0.969797, 0.969778, 0.967768, 0.965077, 0.988011, 0.960069, 0.958691, 0.954297, 1.05768, 1.08523, 0.937111, 0.938872, 0.938729, 0.92548, 0.928103, 0.929168, 0.929501, 0.927591, 0.931583, 1.10986, 0.932749, 0.934072, 0.934958, 0.934572, 0.933089, 0.928458, 0.927504, 0.923944, 0.923064, 0.921869, 0.916942, 0.91869, 0.917396, 0.916193, 0.914509, 0.913195, 0.907892, 0.907207, 0.90774, 0.908072, 0.907778, 0.908691, 0.908777, 0.908227, 0.901146, 0.898312, 0.89657, 1.08838, 1.08834, 0.885402, 0.88079, 0.87832, 0.877078, 0.87534, 0.872971, 0.871686, 0.871386, 0.873135, 0.876271, 0.873052, 0.873941, 0.878176, 0.880121, 0.872518, 0.873376, 0.876818, 0.876885, 0.877259, 0.878158, 0.880063, 0.880927, 0.880632, 0.880824, 0.974902, 1.24289, 0.887381, 1.32052, 0.887311, 0.871024, 0.873181, 0.873108, 0.872913, 0.874068, 0.873049, 0.873035, 0.871785, 0.876225, 0.877809, 0.880094, 0.879481, 0.879937, 0.891911, 0.898888, 0.88337, 0.883597, 0.884007, 0.883952, 0.884994, 0.883526, 0.883106, 0.882391, 0.884844, 0.887024, 0.881397, 0.882769, 0.883421, 0.883161, 0.876349, 0.872832, 0.86988, 0.870281, 0.871408, 0.875635, 0.877201, 0.894063, 0.883671, 0.885744, 0.88704, 0.889452, 0.890676, 0.890953, 0.889098, 0.890184, 0.891205, 0.888911, 0.888372, 0.892047, 0.893677, 0.893812, 0.896545, 0.897447, 0.89847, 0.900948, 0.901349, 0.900847, 0.894387, 0.894358, 0.962314, 1.09106, 0.87066, 0.870961, 0.870012, 0.870872, 0.872964, 0.873868, 1.19869, 1.1823
1.02907, 1.03251, 1.03987, 1.03883, 1.03903, 1.0397, 1.04259, 1.04594, 1.04781, 1.04814, 1.12298, 1.12592, 1.05829, 1.05754, 1.06362, 1.06672, 1.06801, 1.07135, 1.07215, 1.15667, 1.07777, 1.07978, 1.08058, 1.08121, 1.08652, 1.0885, 1.09041, 1.09132, 1.09474, 1.09744, 1.09774, 1.10436, 1.10346, 1.10407, 1.10753, 1.11108, 1.1113, 1.11156, 1.11509, 1.11596, 1.11875, 1.11884, 1.2637, 1.12615, 1.12597, 1.12578, 1.12653, 1.12385, 1.24859, 1.11908, 1.11817, 1.11426, 1.11396, 1.11407, 1.11289, 1.11198, 1.11172, 1.11217, 1.11214, 1.11199, 1.25773, 1.11949, 1.39158, 1.36125, 1.14757, 1.22426, 1.19659, 1.36214, 1.29957, 1.14974, 1.15016, 1.02439, 1.02306, 1.07569, 1.06418, 0.997253, 0.99709, 0.99544, 0.990548, 0.988732, 0.98795, 0.985955, 0.985298, 0.984935, 0.984586, 0.98206, 0.980725, 0.976621, 0.974733, 0.973826, 0.973944, 0.976436, 0.977873, 0.970983, 0.970408, 0.968578, 0.96631, 0.966431, 0.964855, 0.965212, 0.96683, 0.968672, 0.967842, 0.967119, 0.966408, 0.963292, 0.961272, 0.960918, 0.960769, 0.962436, 0.963471, 0.963498, 0.962763, 0.963116, 0.962728, 0.963028, 0.966236, 0.967845, 0.969369, 0.966979, 0.966003, 0.966888, 0.967392, 0.969848, 0.969958, 0.965194, 0.964889, 0.965141, 1.06131, 1.06365, 0.990778, 1.02634, 1.01403, 0.93466, 0.933584, 0.924548, 0.924865, 0.927096, 0.928946, 0.928049, 0.92825, 1.11874, 1.11861, 0.9334, 0.934805, 0.93505, 0.934364, 0.93214, 0.927316, 0.92741, 0.925134, 0.924899, 0.917738, 0.916292, 0.91616, 0.915991, 0.915879, 0.915743, 0.913197, 0.907611, 0.907707, 0.907697, 0.906603, 0.907649, 0.909019, 0.907843, 0.907525, 0.899995, 0.899439, 0.897767, 0.960329, 0.885473, 0.884889, 0.883645, 0.878698, 0.877359, 0.879361, 0.863454, 0.881273, 0.870749, 0.876837, 0.877691, 0.878894, 0.88411, 0.877528, 0.877378, 0.875456, 0.875808, 0.876876, 0.876967, 0.879805, 0.87808, 0.877858, 0.877391, 0.878965, 1.02658, 0.895342, 0.891508, 0.86667, 1.15808, 0.884329, 0.867581, 0.867093, 0.86776, 0.872649, 0.874089, 0.870137, 0.871767, 0.872706, 0.873738, 0.876058, 0.878084, 0.878704, 0.964753, 0.905816, 0.878789, 0.890198, 0.882217, 0.883242, 0.883265, 0.884161, 0.883881, 0.884223, 0.88218, 0.882572, 0.887028, 0.888083, 0.884383, 0.883126, 0.883462, 0.874747, 0.874537, 0.87246, 0.871294, 0.872764, 0.874693, 0.875756, 0.882528, 0.881847, 0.882042, 0.885247, 0.886566, 0.890561, 0.88539, 0.889613, 0.890314, 0.891107, 0.890779, 0.887384, 0.890077, 0.888825, 0.976936, 0.895419, 0.897394, 0.898068, 0.899885, 0.900608, 0.900179, 0.939863, 0.893553, 1.02067, 0.879182, 0.879636, 0.876418, 0.873548, 0.873217, 0.873386, 0.874361, 0.873805, 1.13975
1.02899, 1.0306, 1.06871, 1.08093, 1.03778, 1.04015, 1.04308, 1.04712, 1.04674, 1.1206, 1.12931, 1.11673, 1.05822, 1.05877, 1.05919, 1.06728, 1.06954, 1.0703, 1.0734, 1.07385, 1.07859, 1.0792, 1.08109, 1.083, 1.08582, 1.08512, 1.09042, 1.09087, 1.09371, 1.09496, 1.10024, 1.10223, 1.1033, 1.10352, 1.1052, 1.1097, 1.10866, 1.11274, 1.11445, 1.11473, 1.11713, 1.11914, 1.1218, 1.12181, 1.12624, 1.12709, 1.12655, 1.12542, 1.26345, 1.1192, 1.18504, 1.1165, 1.11507, 1.11348, 1.11164, 1.11145, 1.20982, 1.26074, 1.2409, 1.11066, 1.10914, 1.25712, 1.48936, 1.2991, 1.40085, 1.40086, 1.38876, 1.40316, 1.30145, 1.04156, 1.18509, 1.10599, 1.01793, 1.01827, 1.07801, 0.999099, 0.998368, 0.99894, 0.990813, 0.986979, 0.984935, 0.984712, 0.984481, 0.984357, 0.985972, 0.986901, 0.979609, 0.975296, 0.974644, 0.975492, 0.974849, 0.976411, 0.976027, 0.971353, 0.970487, 0.970133, 0.966506, 0.965766, 0.965768, 0.966963, 0.96741, 0.967453, 0.964869, 0.966279, 0.965338, 0.9643, 0.960432, 0.960743, 0.960237, 0.962167, 0.962567, 0.962181, 0.962974, 0.963134, 0.963216, 0.962443, 0.964643, 0.965204, 0.970376, 0.970396, 0.968682, 0.966405, 0.967176, 0.969897, 0.968487, 0.967268, 0.967807, 0.984428, 1.14011, 0.953727, 1.01178, 1.01434, 0.935915, 0.934388, 0.933656, 0.929828, 0.928396, 0.927772, 0.928428, 0.926897, 1.05693, 1.1194, 0.933132, 0.934086, 0.935166, 0.935137, 0.93445, 1.07109, 0.924832, 0.925132, 0.925344, 0.92507, 0.918639, 0.91933, 0.915023, 0.915445, 0.91595, 0.915967, 0.911594, 0.906067, 0.905896, 0.906712, 0.90599, 0.908587, 0.912142, 0.912754, 0.905685, 0.903756, 0.897513, 0.897911, 1.07333, 0.884409, 0.886794, 0.88449, 0.884648, 0.876559, 0.863015, 0.864098, 0.865481, 0.879047, 0.878046, 0.878077, 0.881587, 0.882485, 0.880337, 0.875653, 0.874418, 0.876661, 0.876615, 0.879285, 0.879, 0.878912, 0.879168, 0.877978, 0.878513, 0.87869, 1.07766, 0.867502, 0.866117, 0.866485, 0.86703, 0.866433, 0.867692, 0.868764, 0.868261, 0.868968, 0.871127, 0.870403, 0.870882, 0.872816, 0.875121, 0.875523, 0.873828, 0.874839, 0.875698, 0.87959, 0.880129, 0.877953, 0.879247, 0.880108, 0.88397, 0.885126, 0.884599, 0.883101, 0.883672, 0.889651, 0.890696, 0.887699, 1.12958, 1.1303, 0.888943, 0.873557, 0.871981, 0.871535, 0.87295, 0.875817, 0.876843, 0.878547, 0.88168, 0.882184, 0.884346, 0.885638, 0.885017, 0.886129, 0.891146, 0.891966, 0.891865, 0.888985, 0.887862, 0.888108, 0.888404, 0.890606, 0.976807, 0.896282, 0.897927, 0.899633, 0.90043, 0.899687, 0.929652, 1.04667, 1.02185, 0.88003, 0.879983, 1.11158, 0.874513, 0.874487, 0.873303, 0.872291, 0.871424, 0.869991
1.02567, 1.02865, 1.0301, 1.03187, 1.03613, 1.04028, 1.04488, 1.04702, 1.04594, 1.11868, 1.10898, 1.05297, 1.05647, 1.05909, 1.05945, 1.06649, 1.06659, 1.1179, 1.07358, 1.07405, 1.07739, 1.07888, 1.08062, 1.08194, 1.08672, 1.08478, 1.08949, 1.09079, 1.09415, 1.09575, 1.09814, 1.10149, 1.10157, 1.10254, 1.10447, 1.10835, 1.11009, 1.11048, 1.11532, 1.11591, 1.12015, 1.12322, 1.12459, 1.1248, 1.12497, 1.12542, 1.12484, 1.12207, 1.25005, 1.18179, 1.17282, 1.20914, 1.25652, 1.23878, 1.20332, 1.27278, 1.27481, 1.30681, 1.27499, 1.10715, 1.1072, 1.23995, 1.29393, 1.30651, 1.40252, 1.24358, 1.40046, 1.05251, 1.04422, 1.04328, 1.13698, 1.12668, 1.15802, 1.06845, 1.04039, 1.00489, 0.998501, 0.990952, 0.987832, 0.987051, 0.984553, 0.984909, 0.985323, 0.986725, 0.986973, 0.985219, 0.976957, 0.97634, 0.975578, 0.976277, 0.977271, 0.977486, 0.977616, 0.970367, 0.970515, 0.969814, 0.968559, 0.967057, 0.96779, 0.966328, 0.96634, 0.96558, 0.962941, 0.964053, 0.9661, 0.965718, 0.962975, 0.963755, 0.963197, 0.96288, 0.962302, 0.960582, 0.960404, 0.962183, 0.96107, 0.961105, 0.961628, 0.962133, 0.969651, 0.968478, 0.968683, 0.968044, 0.966925, 0.966559, 0.96692, 0.968262, 0.96803, 0.974299, 1.14528, 1.14361, 0.951062, 1.32744, 1.0191, 0.932546, 0.932109, 0.929187, 0.930182, 0.928567, 0.928935, 0.92972, 1.05793, 1.11309, 0.936244, 0.934989, 0.935451, 0.935125, 1.0736, 1.07282, 0.924971, 0.925384, 1.18445, 0.918209, 0.918989, 0.92072, 0.916622, 0.915433, 0.917582, 0.917963, 0.911755, 0.905854, 0.905351, 0.905957, 0.906208, 0.909301, 0.913926, 0.915095, 1.13232, 0.902503, 0.900995, 0.900372, 0.899633, 1.10602, 0.887351, 0.884706, 0.886479, 0.877477, 0.862792, 0.862787, 0.889106, 0.89396, 0.879168, 0.884166, 0.884112, 0.883839, 0.882761, 0.882102, 0.876604, 0.874528, 0.876892, 0.878853, 0.879927, 0.878861, 0.879023, 0.878886, 0.878413, 0.878213, 0.911174, 0.865329, 0.86597, 0.86677, 0.869791, 0.867795, 0.869147, 0.869729, 0.866252, 0.867184, 0.870062, 0.870556, 0.870486, 0.87006, 0.873698, 0.873524, 0.874285, 0.87447, 0.875349, 0.877713, 0.879022, 0.879556, 0.879154, 0.880003, 0.883162, 0.884554, 0.884533, 0.883224, 0.884821, 0.888391, 0.890309, 0.891834, 1.08466, 1.08389, 0.918986, 0.883917, 0.870711, 0.871471, 0.8744, 0.875327, 0.876181, 0.87815, 0.879712, 0.882484, 0.880772, 0.881014, 0.884564, 0.886033, 0.89022, 0.890744, 0.889027, 0.888347, 0.888598, 0.888235, 0.889045, 0.889457, 0.89557, 0.89648, 0.898112, 0.899625, 0.900013, 0.899357, 0.97674, 0.99103, 1.0637, 0.88113, 0.903261, 1.13082, 0.874211, 0.871401, 0.87164, 0.871956, 0.870246, 0.871159
1.0272, 1.02722, 1.02884, 1.03046, 1.03505, 1.03946, 1.04251, 1.04463, 1.04521, 1.14662, 1.06374, 1.0916, 1.05624, 1.05731, 1.12556, 1.06679, 1.06542, 1.06781, 1.07244, 1.07356, 1.07517, 1.07751, 1.08031, 1.11706, 1.08573, 1.08608, 1.09086, 1.09195, 1.09338, 1.09556, 1.09599, 1.16275, 1.09927, 1.10025, 1.10456, 1.10786, 1.11027, 1.10966, 1.11036, 1.11676, 1.12093, 1.12013, 1.23393, 1.12364, 1.12601, 1.30852, 1.12214, 1.15048, 1.25386, 1.24819, 1.11629, 1.20836, 1.32259, 1.2436, 1.20057, 1.20497, 1.21038, 1.21321, 1.21273, 1.36186, 1.36214, 1.23415, 1.45807, 1.30194, 1.37057, 1.08117, 1.34393, 1.05318, 1.04483, 1.04438, 1.18326, 1.38468, 1.12034, 1.06706, 1.01432, 1.04577, 0.994995, 0.995676, 0.987772, 0.985296, 0.98537, 0.984697, 0.984892, 0.985894, 0.985431, 0.983576, 0.98355, 0.975391, 0.974998, 0.976036, 0.977654, 0.977652, 0.976559, 0.975141, 0.973047, 0.972042, 0.968076, 0.967906, 0.967734, 0.967982, 0.968512, 0.967507, 0.967346, 0.966845, 0.966418, 0.96559, 0.965008, 0.964408, 0.965944, 0.96323, 0.961102, 0.960847, 0.960302, 0.959933, 0.957286, 0.95861, 0.960003, 0.960837, 0.991433, 0.967511, 0.96771, 0.966743, 0.966623, 0.9681, 0.966575, 0.966856, 0.969843, 1.11254, 1.14646, 0.998354, 0.949244, 1.0168, 0.932326, 0.932931, 0.932503, 0.92947, 0.930796, 0.929816, 0.928124, 0.929171, 1.0609, 1.03589, 0.93702, 0.935415, 0.977583, 1.18495, 1.18549, 1.06691, 0.926186, 0.929443, 0.916629, 0.917277, 0.918001, 0.919101, 0.919297, 0.91801, 0.918409, 0.917825, 0.914957, 0.915529, 0.904903, 0.906615, 0.907727, 0.910347, 0.913547, 0.913955, 0.942563, 0.902279, 0.900748, 0.899421, 0.898514, 0.897093, 0.897785, 1.15301, 0.880651, 0.876541, 0.876294, 0.886969, 0.886782, 0.882136, 0.883901, 0.884696, 0.885882, 0.884904, 0.881429, 0.880896, 0.877643, 0.877386, 0.878597, 0.880201, 0.880962, 0.880205, 0.880744, 0.880446, 0.878688, 0.878375, 0.946637, 0.888397, 0.991065, 0.868673, 0.869367, 0.868871, 0.869566, 0.869522, 0.887368, 0.86614, 0.867206, 0.867838, 0.869714, 0.869501, 0.8733, 0.873183, 0.874499, 0.876704, 0.876644, 0.878264, 0.879622, 0.880141, 0.879863, 0.88026, 0.880307, 0.882083, 0.883216, 0.883569, 0.885033, 0.886896, 0.889, 0.89441, 0.894723, 0.893755, 0.89477, 1.024, 0.871462, 0.872067, 0.872927, 0.873895, 0.875886, 0.878137, 0.879924, 0.882307, 0.881481, 0.882592, 0.882213, 0.885914, 0.88585, 0.888546, 0.890719, 0.883603, 0.883304, 0.886091, 0.88928, 0.890634, 0.895248, 0.896497, 0.897829, 0.899164, 0.899408, 0.898317, 0.898529, 0.893936, 0.994629, 0.887344, 0.886405, 1.10844, 1.07438, 0.869555, 0.868906, 0.870225, 0.87185, 0.870376
1.05081, 1.02562, 1.02701, 1.03099, 1.03527, 1.03965, 1.04003, 1.04379, 1.04444, 1.04567, 1.12627, 1.12649, 1.05667, 1.05756, 1.13269, 1.13099, 1.06574, 1.06761, 1.07068, 1.07141, 1.07323, 1.07841, 1.08028, 1.08084, 1.08541, 1.08771, 1.09057, 1.09151, 1.09299, 1.09285, 1.09478, 1.19915, 1.10082, 1.10349, 1.10525, 1.10676, 1.11158, 1.11144, 1.114, 1.11852, 1.11914, 1.11864, 1.1217, 1.12215, 1.12194, 1.12185, 1.27762, 1.14969, 1.28215, 1.26693, 1.19527, 1.21161, 1.11195, 1.11171, 1.11101, 1.20168, 1.10799, 1.21791, 1.21911, 1.34105, 1.34193, 1.23183, 1.24001, 1.35768, 1.30946, 1.24689, 1.34318, 1.44348, 1.44403, 1.04756, 1.4138, 1.03198, 1.05636, 1.06642, 1.06442, 1.09828, 1.0131, 1.07777, 0.988847, 0.987464, 0.986741, 0.986629, 0.986213, 0.98623, 0.983695, 0.983626, 0.982058, 0.977495, 0.977153, 0.977672, 0.977622, 0.976506, 0.97467, 0.974811, 0.974222, 0.974044, 0.969013, 0.968679, 0.96824, 0.968297, 0.967971, 0.968062, 0.967164, 0.967222, 0.966697, 0.966073, 0.967388, 0.966273, 0.96638, 0.963846, 0.961469, 0.960013, 0.959496, 0.959412, 0.959716, 0.959352, 0.959312, 0.960286, 1.03391, 0.980199, 0.97421, 1.25672, 0.963945, 0.964944, 0.965471, 0.963511, 0.960453, 0.966943, 0.954846, 0.953742, 1.08004, 0.94263, 0.933246, 0.932771, 0.933224, 0.930803, 0.930716, 0.930283, 0.929865, 0.929351, 1.11193, 0.954475, 0.936708, 0.936891, 0.968951, 1.08884, 1.08627, 1.08213, 0.926003, 0.929444, 0.915396, 0.9167, 0.917755, 0.919101, 0.918617, 0.917936, 0.918045, 0.918265, 0.917202, 0.916061, 0.910863, 0.90762, 0.907878, 0.909714, 0.914557, 0.91514, 0.915329, 0.900261, 0.899876, 0.899346, 0.896768, 0.897047, 0.895906, 1.05234, 0.880738, 0.880659, 0.879854, 0.880871, 0.88334, 0.88468, 0.887622, 0.885742, 0.88329, 0.884415, 0.882521, 0.877847, 0.8767, 0.88027, 0.878804, 0.87751, 0.874716, 0.880044, 0.880377, 0.882035, 0.881061, 0.879125, 0.87345, 0.919393, 1.05509, 0.87317, 0.8709, 0.869462, 0.869605, 0.862959, 0.86367, 0.864833, 0.867685, 0.869322, 0.869053, 0.870184, 0.872066, 0.872969, 0.873253, 0.873905, 0.877181, 0.880559, 0.879285, 0.880497, 0.879694, 0.881237, 0.881128, 0.881869, 0.882987, 0.885321, 0.886924, 0.884085, 0.88533, 0.892516, 0.895819, 0.897278, 0.894525, 0.890339, 0.881014, 0.874542, 0.873547, 0.875437, 0.876269, 0.877241, 0.879548, 0.881183, 0.881508, 0.881759, 0.883688, 0.885548, 0.885357, 0.886929, 0.878982, 0.880968, 0.88444, 0.885949, 0.88978, 0.891007, 0.894954, 0.89714, 0.897492, 0.898437, 0.898193, 0.897224, 0.89718, 0.895364, 0.894746, 1.07031, 1.07072, 0.879903, 0.88014, 0.872348, 0.87291, 0.87229, 0.871147, 0.869769
1.01748, 1.02645, 1.02668, 1.02936, 1.03442, 1.0365, 1.04292, 1.04437, 1.04472, 1.04543, 1.04636, 1.11524, 1.05973, 1.05994, 1.05999, 1.06299, 1.06335, 1.0649, 1.07016, 1.07083, 1.07489, 1.07586, 1.0795, 1.0801, 1.08566, 1.08576, 1.09061, 1.09084, 1.0922, 1.09242, 1.19781, 1.22202, 1.10148, 1.10293, 1.10829, 1.10754, 1.11091, 1.11033, 1.11593, 1.11824, 1.1192, 1.12259, 1.12191, 1.12287, 1.20973, 1.27852, 1.23967, 1.19583, 1.27119, 1.30496, 1.11432, 1.20131, 1.21426, 1.21409, 1.10871, 1.22264, 1.20663, 1.30861, 1.27467, 1.30218, 1.25506, 1.26934, 1.23278, 1.35524, 1.37829, 1.38563, 1.06027, 1.34105, 1.0997, 1.20932, 1.41611, 1.16623, 1.16612, 1.06679, 1.08218, 1.05409, 1.00044, 1.00001, 0.990842, 0.989233, 0.986915, 0.98706, 0.98697, 0.984526, 0.983181, 0.98251, 0.982835, 0.997785, 0.976954, 0.989236, 1.16836, 0.975326, 0.974881, 0.974179, 0.974051, 0.971791, 0.968808, 0.968349, 0.96886, 0.966918, 0.966227, 0.966284, 0.966073, 0.967113, 0.966735, 0.966142, 0.965955, 0.966956, 0.966378, 0.961776, 0.962033, 0.961038, 0.960901, 0.960254, 0.959779, 0.960383, 0.960201, 0.95858, 0.966795, 1.00976, 0.974181, 0.97484, 0.96117, 1.01786, 0.961497, 0.960923, 0.960262, 0.960152, 0.954352, 0.953061, 1.04218, 0.94486, 0.944524, 0.933396, 0.933867, 0.933532, 0.92994, 0.930729, 0.929523, 0.930666, 1.10808, 1.02324, 0.938844, 0.968084, 0.969689, 1.08777, 1.19899, 0.925246, 0.926238, 0.92505, 0.919388, 0.9195, 0.918006, 0.916324, 0.916482, 0.916024, 0.916241, 0.915187, 0.915756, 0.916001, 0.911895, 0.908944, 0.909485, 0.910686, 0.914614, 0.915863, 0.91613, 0.897943, 0.899355, 0.89894, 0.896134, 0.894596, 0.894073, 0.889711, 0.963682, 0.883965, 0.880616, 0.881568, 0.882412, 0.884036, 0.885834, 0.886573, 0.879759, 0.879975, 0.879734, 0.877334, 0.876944, 0.877597, 0.878983, 0.877554, 0.874038, 0.876884, 0.877299, 0.880169, 0.880619, 0.878882, 0.874217, 0.874342, 0.87717, 0.873096, 0.873299, 0.869767, 0.869854, 0.862913, 0.863338, 0.869025, 0.869343, 0.870556, 0.869338, 0.869667, 0.870137, 0.872939, 0.872876, 0.873048, 0.874371, 0.87918, 0.880207, 0.881304, 0.880725, 0.881501, 0.88173, 0.882199, 0.883821, 0.886696, 0.886788, 0.885712, 0.88469, 0.895618, 0.897274, 0.897513, 0.911135, 0.919048, 0.879626, 0.877667, 0.876879, 0.876167, 0.878209, 0.879004, 0.879059, 0.879451, 0.88062, 0.879215, 0.881083, 0.88482, 0.887509, 0.887191, 0.877367, 0.88376, 0.879696, 0.930383, 0.889399, 0.893583, 0.894986, 0.897213, 0.898631, 0.898683, 0.896728, 0.89704, 0.895166, 0.895569, 0.894964, 0.892707, 1.07095, 0.880765, 0.880467, 0.878537, 0.87041, 0.873025, 0.872385, 0.868628
1.01885, 1.02018, 1.02805, 1.0645, 1.03184, 1.03862, 1.04364, 1.04558, 1.0455, 1.04541, 1.04623, 1.12926, 1.06329, 1.06003, 1.0602, 1.06104, 1.06246, 1.06497, 1.07018, 1.07164, 1.07402, 1.0779, 1.07909, 1.08196, 1.08419, 1.08559, 1.08539, 1.091, 1.09133, 1.09172, 1.20017, 1.20632, 1.10246, 1.10283, 1.10599, 1.10847, 1.11146, 1.11469, 1.11609, 1.11878, 1.12242, 1.12376, 1.12178, 1.26045, 1.2615, 1.29469, 1.2911, 1.29094, 1.30009, 1.302, 1.11289, 1.34145, 1.11073, 1.10929, 1.21153, 1.2097, 1.2094, 1.10337, 1.10121, 1.25221, 1.09593, 1.24965, 1.31781, 1.38811, 1.26263, 1.35417, 1.27806, 1.3888, 1.20806, 1.39213, 1.18118, 1.18175, 1.17311, 1.08204, 1.08955, 1.0126, 1.01236, 1.00257, 1.53658, 0.991147, 0.988575, 0.987422, 0.982307, 0.983203, 0.983598, 0.983144, 0.97829, 0.977649, 0.989105, 0.989789, 0.970302, 0.971188, 0.973926, 0.973201, 0.971088, 0.969465, 0.969527, 0.967912, 0.968787, 0.966572, 0.966466, 0.96655, 0.965514, 0.964586, 0.963516, 0.964339, 0.964532, 0.96472, 0.964822, 0.961114, 0.960485, 0.96164, 0.96259, 0.962853, 0.962012, 0.960345, 0.959735, 0.955017, 0.956856, 0.958963, 0.959557, 0.960947, 0.95998, 0.96064, 0.961598, 0.96183, 0.961345, 0.958528, 0.953087, 0.952338, 0.949037, 0.945564, 1.1117, 0.938403, 0.933994, 0.933074, 0.927251, 0.92826, 0.930138, 0.932595, 0.943313, 0.941084, 0.941433, 0.942437, 0.943668, 0.974764, 0.960991, 0.923852, 0.924969, 0.924445, 0.921629, 0.9211, 0.921042, 0.919093, 0.917675, 0.916371, 0.914656, 0.913843, 0.913639, 0.912857, 0.908984, 0.905193, 0.905375, 0.911426, 0.911645, 0.912627, 0.928899, 0.918353, 0.900669, 0.897153, 0.897039, 0.894858, 0.893998, 0.890289, 0.890109, 0.886927, 0.881947, 0.881441, 0.88266, 0.883506, 0.887131, 0.88556, 0.881912, 0.878863, 0.878471, 0.877671, 0.878215, 0.877891, 0.882492, 0.883162, 0.878972, 0.878424, 0.878574, 0.878507, 0.880105, 0.879853, 0.875433, 0.876568, 0.876723, 0.877376, 0.874556, 0.873646, 0.869678, 0.888298, 1.14051, 0.900734, 0.869517, 0.871859, 0.871633, 0.869922, 0.873034, 0.874211, 0.874457, 0.875021, 0.876868, 0.878561, 0.880304, 0.88076, 0.881305, 0.882665, 0.883478, 0.88315, 0.882475, 0.887341, 0.887537, 0.886794, 0.886799, 0.888569, 0.893434, 0.893905, 0.893771, 1.00795, 0.880125, 0.880091, 0.877513, 0.877835, 0.877946, 0.878705, 0.876698, 0.905685, 0.878281, 0.879849, 0.88119, 0.883677, 0.884695, 0.884351, 0.879034, 0.879463, 0.88007, 0.890639, 0.892528, 0.974287, 0.897071, 0.898512, 0.89934, 0.898174, 0.889201, 0.891122, 0.893799, 0.895138, 0.895916, 0.883798, 0.883813, 0.880835, 0.880151, 0.880487, 0.911466, 0.997788, 1.13229, 0.86808
1.0189, 1.01989, 1.02397, 1.02894, 1.02878, 1.03676, 1.03874, 1.04317, 1.04478, 1.04443, 1.12117, 1.12944, 1.07564, 1.05714, 1.05976, 1.06135, 1.06431, 1.06569, 1.06806, 1.07094, 1.07328, 1.07745, 1.07887, 1.08202, 1.08567, 1.08565, 1.0872, 1.09079, 1.09068, 1.09047, 1.18802, 1.2138, 1.1013, 1.10423, 1.10479, 1.10833, 1.11317, 1.1138, 1.1168, 1.11977, 1.12224, 1.22213, 1.26033, 1.26804, 1.26806, 1.28859, 1.25632, 1.28224, 1.27285, 1.30173, 1.11293, 1.11116, 1.11032, 1.10805, 1.21891, 1.10498, 1.24573, 1.24986, 1.09966, 1.09886, 1.25354, 1.24487, 1.24534, 1.40813, 1.2359, 1.24487, 1.25049, 1.36129, 1.35405, 1.35507, 1.36232, 1.04478, 1.07427, 1.10155, 1.44295, 1.01632, 1.19621, 1.0022, 0.997777, 0.992597, 0.99063, 0.982428, 0.9819, 0.981959, 0.982835, 0.982714, 0.982118, 0.978602, 0.985129, 0.968978, 0.970313, 0.971305, 0.972586, 0.971067, 0.970585, 0.970125, 0.96784, 0.966547, 0.965944, 0.96343, 0.962926, 0.967333, 0.967091, 0.963349, 0.96206, 0.962939, 0.963783, 0.964446, 0.962162, 0.962399, 0.959541, 0.959718, 0.96277, 0.964059, 0.962833, 0.961138, 0.958928, 0.958434, 0.958201, 0.959365, 0.959391, 0.958998, 0.958262, 0.96298, 0.961142, 0.963686, 0.957563, 0.966079, 0.952423, 0.951201, 0.949407, 1.12936, 1.11223, 1.11296, 0.935983, 0.929747, 0.92706, 0.927675, 0.929212, 0.932185, 0.950655, 1.16188, 0.942283, 0.944029, 0.944107, 0.974095, 1.09263, 1.09603, 0.92253, 0.923145, 0.923486, 0.922366, 0.922, 0.920724, 0.91753, 0.91547, 0.915079, 0.914445, 0.911742, 0.911064, 0.908475, 0.907301, 0.905475, 0.905353, 0.904354, 0.905311, 0.978261, 0.904836, 0.898629, 0.897696, 0.897642, 0.897636, 0.894824, 0.88986, 0.890378, 0.89932, 0.88779, 0.881611, 0.883288, 0.883397, 0.883271, 0.88182, 0.881857, 0.88063, 0.879576, 0.879824, 0.879676, 0.880157, 0.883269, 0.883571, 0.881914, 0.883824, 0.881693, 0.880257, 0.878557, 0.878857, 0.876518, 0.877201, 0.878827, 0.87827, 0.876458, 0.874528, 0.881922, 0.883379, 0.881537, 0.894318, 0.887983, 0.879706, 0.872387, 0.874289, 0.874457, 0.875161, 0.87601, 0.876424, 0.879337, 0.878651, 0.879157, 0.879439, 0.882955, 0.880391, 0.881175, 0.881836, 0.881111, 0.886942, 0.887343, 0.887287, 0.888085, 0.891643, 0.892769, 0.892003, 0.888972, 0.883515, 0.878287, 0.879194, 0.878273, 0.876593, 0.87638, 0.875434, 0.87506, 0.905371, 0.889953, 0.898159, 0.925141, 0.928163, 0.881337, 0.88249, 0.881154, 0.882154, 0.928742, 0.892761, 0.893971, 0.894729, 0.897034, 0.899754, 0.900339, 0.894699, 0.887174, 0.888771, 0.894999, 0.897878, 0.897351, 0.977788, 0.894004, 1.13312, 1.12713, 1.06767, 0.884997, 1.10153, 0.885212, 0.865925
1.0137, 1.01946, 1.02, 1.0814, 1.03271, 1.08779, 1.08534, 1.04188, 1.04346, 1.04367, 1.11634, 1.11702, 1.12719, 1.05368, 1.05581, 1.05988, 1.06054, 1.06445, 1.06657, 1.07128, 1.07345, 1.07672, 1.08054, 1.08361, 1.08403, 1.08505, 1.09076, 1.09137, 1.09294, 1.09102, 1.17201, 1.20348, 1.10071, 1.10427, 1.10458, 1.11032, 1.11132, 1.11409, 1.11536, 1.11743, 1.1186, 1.20915, 1.20809, 1.26225, 1.2614, 1.269, 1.27094, 1.16116, 1.1128, 1.19161, 1.11139, 1.10962, 1.10904, 1.10774, 1.21891, 1.20305, 1.21563, 1.10164, 1.09918, 1.33801, 1.29846, 1.24736, 1.37452, 1.24115, 1.23357, 1.30984, 1.30358, 1.06632, 1.35239, 1.35125, 1.04448, 1.04385, 1.03556, 1.12337, 1.44769, 1.09266, 1.01352, 0.996866, 0.996008, 0.996111, 0.988885, 0.98776, 0.982665, 0.983701, 0.984345, 0.982671, 0.980284, 0.980204, 0.978804, 0.975412, 0.974854, 0.973653, 0.971611, 0.971452, 0.970445, 0.968238, 0.968552, 0.967027, 0.963958, 0.962951, 0.964638, 0.966249, 0.963119, 0.962941, 0.960142, 0.959704, 0.960316, 0.962713, 0.961569, 0.960536, 0.960015, 0.958183, 0.959992, 0.961256, 0.961024, 0.959343, 0.957101, 0.957826, 0.958906, 0.959645, 0.959467, 0.95891, 0.954985, 0.956923, 0.958196, 1.17768, 0.954495, 0.982049, 0.948591, 0.948884, 0.948556, 1.13482, 0.939253, 0.934738, 0.933814, 0.92763, 0.927003, 0.928444, 0.928879, 0.929763, 0.936534, 1.11732, 0.944159, 0.944429, 0.943911, 0.95677, 0.928593, 0.925762, 0.922051, 0.922862, 0.923476, 0.923044, 0.923529, 0.925181, 0.921815, 0.918476, 0.910987, 0.909218, 0.908679, 0.907831, 0.907777, 0.907865, 0.907606, 0.904995, 0.904688, 0.903841, 0.902653, 0.903858, 0.903607, 0.898161, 0.897436, 0.896554, 0.89628, 0.896044, 0.895831, 0.890382, 0.888458, 0.88815, 0.885317, 0.883154, 0.878692, 0.880173, 0.882071, 0.883365, 0.882733, 0.881863, 0.8802, 0.880536, 0.880983, 0.883253, 0.88318, 0.881922, 0.88361, 0.882178, 0.878084, 0.876554, 0.877494, 0.877593, 0.877829, 0.878865, 0.878864, 0.8798, 0.877036, 0.87916, 0.878232, 0.87907, 0.878502, 0.878862, 0.878377, 0.879106, 0.876866, 0.877397, 0.87692, 0.879974, 0.877859, 0.87838, 0.879593, 0.879046, 0.879935, 0.884072, 0.884784, 0.883196, 0.882459, 0.886429, 0.885014, 1.13709, 0.89175, 0.892019, 0.892998, 0.893307, 0.920121, 0.883692, 0.878736, 0.87951, 0.874038, 0.874196, 0.874559, 0.872779, 0.873322, 0.905421, 0.907736, 1.03418, 0.925426, 0.932723, 0.881797, 0.881479, 0.883758, 0.883789, 0.931933, 0.893871, 0.895405, 0.895987, 0.897558, 0.899511, 0.899711, 0.894196, 0.891215, 0.891208, 0.896054, 0.898589, 0.897713, 0.894972, 0.894858, 0.893072, 0.892165, 0.891589, 1.19105, 0.883171, 1.04722, 0.867005
1.01464, 1.01477, 1.01991, 1.02564, 1.02656, 1.07752, 1.03984, 1.03966, 1.04608, 1.04344, 1.04424, 1.09839, 1.15795, 1.05258, 1.05436, 1.05754, 1.05879, 1.06309, 1.06642, 1.07118, 1.07333, 1.07686, 1.08104, 1.08358, 1.08474, 1.08703, 1.08909, 1.09083, 1.09522, 1.09282, 1.09441, 1.09984, 1.10111, 1.10403, 1.10383, 1.10945, 1.11067, 1.11312, 1.11431, 1.21213, 1.15557, 1.22731, 1.24028, 1.11636, 1.1879, 1.1137, 1.199, 1.30932, 1.11196, 1.11154, 1.11032, 1.10928, 1.10872, 1.10672, 1.36107, 1.10439, 1.10211, 1.18813, 1.09773, 1.22643, 1.22901, 1.2957, 1.14038, 1.32987, 1.24249, 1.0839, 1.30571, 1.27058, 1.27057, 1.19504, 1.19453, 1.04213, 1.08111, 1.11213, 1.53319, 1.11525, 0.999501, 0.998347, 0.995994, 0.997163, 0.988847, 0.988578, 0.983488, 0.982625, 0.982889, 0.982608, 0.981789, 0.979838, 0.978672, 0.976757, 0.975076, 0.974292, 0.972448, 0.971979, 0.968602, 0.968939, 0.968103, 0.966613, 0.962765, 0.962922, 0.963845, 0.963156, 0.995415, 0.962354, 0.959468, 0.959602, 0.959534, 0.962787, 0.962894, 0.962662, 0.957192, 0.957462, 0.958046, 0.960615, 0.960685, 0.957752, 0.958275, 0.959285, 0.958623, 0.958408, 0.959089, 0.958869, 0.955829, 0.955801, 0.957323, 0.956153, 0.953505, 0.945091, 0.945799, 0.947118, 0.947312, 0.946697, 0.938594, 0.936617, 0.936062, 0.928737, 0.927904, 0.928499, 0.928867, 0.933564, 0.936482, 0.944427, 0.944208, 0.9446, 0.949742, 0.944331, 0.92656, 0.926532, 0.926408, 0.924796, 0.924121, 0.923378, 0.923154, 0.92425, 0.925981, 0.918665, 0.909408, 0.909275, 0.910374, 0.90865, 0.907437, 0.907484, 0.907529, 0.906538, 0.904768, 0.899529, 0.899504, 0.902895, 0.902743, 0.899582, 0.899137, 0.897342, 0.897113, 0.895907, 0.895659, 0.895305, 0.890623, 0.889058, 0.888479, 0.882386, 0.880199, 0.881155, 0.883273, 0.883381, 0.883439, 0.884338, 0.882601, 0.881244, 0.879956, 0.88022, 0.882554, 0.883597, 0.88359, 0.883168, 0.883325, 0.883701, 0.878979, 0.878951, 0.878134, 0.879012, 0.880058, 0.880414, 0.87801, 0.877236, 0.878833, 0.879986, 0.882556, 0.883637, 0.880587, 0.880764, 0.880385, 0.878804, 0.878439, 0.879965, 0.879495, 0.879047, 0.880082, 0.880111, 0.880642, 0.883383, 0.885725, 0.884939, 1.03301, 1.04447, 1.00871, 0.892267, 0.892271, 0.893453, 0.893224, 0.887034, 0.887987, 0.913222, 0.872992, 0.874428, 0.874592, 0.874044, 0.874848, 0.872994, 0.872341, 0.896165, 0.876153, 0.876877, 0.878732, 0.939551, 0.95107, 0.949514, 0.950303, 0.936768, 0.892794, 0.893377, 0.896526, 0.895631, 0.89754, 0.899367, 0.896445, 0.896316, 0.896989, 1.01952, 0.895811, 0.896593, 0.890368, 0.890434, 0.894203, 0.892645, 0.893694, 0.894106, 1.11181, 1.17077, 1.01484, 0.864284
1.01122, 1.01507, 1.01707, 1.02117, 1.0781, 1.02612, 1.03194, 1.03993, 1.04436, 1.04402, 1.04464, 1.04603, 1.05085, 1.05105, 1.05459, 1.05684, 1.06039, 1.14599, 1.0672, 1.06894, 1.07335, 1.07634, 1.14664, 1.08067, 1.08456, 1.08574, 1.0887, 1.09018, 1.09414, 1.09393, 1.09539, 1.10118, 1.10199, 1.10375, 1.10233, 1.10988, 1.11064, 1.11283, 1.11375, 1.24609, 1.24174, 1.24341, 1.21246, 1.11353, 1.11331, 1.11223, 1.11177, 1.11116, 1.1093, 1.10935, 1.10913, 1.10861, 1.10777, 1.10519, 1.1046, 1.10349, 1.10237, 1.22971, 1.23364, 1.09608, 1.09528, 1.25044, 1.32674, 1.32511, 1.08392, 1.08349, 1.30815, 1.27029, 1.36843, 1.36829, 1.36488, 1.10928, 1.44658, 1.06571, 1.53311, 1.0982, 0.998398, 0.998019, 0.99617, 0.990563, 0.990458, 0.986037, 0.984268, 0.983222, 0.981974, 0.980591, 0.980239, 0.979254, 0.979484, 0.980275, 0.975885, 0.973821, 0.972342, 0.971419, 0.967009, 0.967479, 0.966631, 0.966232, 0.963561, 0.963406, 0.963472, 0.963529, 0.957355, 0.95728, 0.958557, 0.958552, 0.956855, 0.959363, 0.960695, 0.960807, 0.957175, 0.956877, 0.9576, 0.959536, 0.959684, 0.959341, 0.959525, 0.95795, 0.956824, 0.954804, 0.958155, 0.959353, 0.957177, 0.956291, 0.956186, 0.956984, 0.947423, 0.945788, 0.946261, 0.94614, 0.944818, 0.944816, 0.93593, 0.937012, 0.937981, 0.93362, 0.932946, 0.930651, 0.92942, 0.932693, 1.02119, 1.04074, 0.942329, 0.951342, 1.10002, 1.01867, 0.927998, 0.928312, 0.926106, 0.923756, 0.92477, 0.924525, 0.924036, 0.924376, 0.9257, 0.927892, 0.957304, 0.908354, 0.909028, 0.909024, 0.908761, 0.908371, 0.907195, 0.904584, 0.904101, 0.902002, 0.901409, 0.904502, 0.90429, 0.900522, 0.900739, 0.89922, 0.899261, 0.897251, 0.89711, 0.89692, 0.889554, 0.887063, 0.887331, 0.885796, 0.885336, 0.882054, 0.885438, 0.883341, 0.884791, 0.884987, 0.88362, 0.881308, 0.880503, 0.881914, 0.883405, 0.883891, 0.882469, 0.880484, 0.883729, 0.88368, 0.8779, 0.879348, 0.878875, 0.880105, 0.880385, 0.881119, 0.882291, 0.879594, 0.879948, 0.880663, 0.883406, 0.883653, 0.882763, 0.882097, 0.882149, 0.882283, 0.880838, 0.880204, 0.87978, 0.879327, 0.878849, 0.878124, 0.883645, 0.882657, 0.888937, 0.889163, 0.891742, 0.896444, 0.897252, 0.897538, 0.896801, 0.892078, 0.891022, 0.888933, 0.88901, 0.923464, 0.877167, 0.873605, 0.873385, 0.872702, 0.871232, 0.87081, 0.870477, 0.874058, 0.918402, 0.923251, 0.936287, 0.88044, 0.883226, 0.885383, 0.887198, 0.940293, 0.966698, 0.892892, 0.893908, 0.896985, 0.897085, 0.897111, 0.895771, 0.897148, 1.01622, 0.902055, 0.901414, 0.890403, 0.890041, 0.891138, 0.890196, 0.892222, 0.894001, 0.894151, 0.892813, 1.17374, 1.17202, 0.868051
1.00783, 1.01476, 1.01792, 1.01852, 1.02562, 1.02585, 1.02969, 1.0369, 1.08165, 1.0471, 1.04678, 1.04682, 1.04854, 1.0517, 1.05396, 1.05546, 1.05718, 1.05899, 1.13004, 1.06797, 1.11215, 1.14641, 1.13246, 1.09551, 1.08435, 1.08618, 1.08702, 1.09085, 1.09336, 1.09351, 1.09486, 1.21128, 1.09923, 1.1022, 1.10635, 1.10885, 1.11067, 1.11198, 1.23173, 1.14629, 1.25404, 1.24628, 1.24784, 1.11205, 1.11187, 1.11156, 1.11126, 1.1103, 1.1095, 1.10796, 1.31566, 1.31599, 1.20608, 1.24835, 1.22774, 1.10283, 1.25153, 1.09987, 1.09746, 1.21961, 1.23215, 1.24661, 1.24386, 1.24031, 1.27579, 1.08296, 1.0815, 1.34604, 1.26506, 1.36751, 1.36596, 1.09474, 1.09522, 1.06942, 1.47365, 1.00098, 1.00062, 0.998193, 0.99799, 0.989604, 0.990232, 0.984945, 0.984373, 0.983519, 0.981056, 0.981441, 0.980769, 0.981534, 0.980326, 0.975773, 0.974772, 0.973583, 0.970606, 0.973551, 0.96216, 0.962604, 0.963341, 0.964069, 0.963733, 0.962702, 0.961865, 0.962, 0.956033, 0.956797, 0.955184, 0.955155, 0.955911, 0.956319, 1.05696, 1.05699, 0.955829, 0.955987, 0.956795, 0.95954, 0.959302, 0.960083, 0.95897, 0.957844, 0.954384, 0.953743, 0.9566, 0.958216, 1.06108, 0.955023, 0.978561, 0.951599, 0.948423, 0.948566, 0.946566, 0.945925, 0.943903, 0.944788, 0.936777, 0.936881, 0.936034, 0.932235, 0.932612, 0.931803, 0.932412, 0.933192, 1.09217, 1.07703, 1.01435, 1.01258, 0.93606, 1.11186, 0.928123, 0.927407, 0.928201, 0.924961, 0.923863, 0.923511, 0.924995, 0.924929, 0.926173, 0.927333, 0.918065, 0.918411, 0.90824, 0.908985, 0.909267, 0.909151, 0.9093, 0.902914, 0.903832, 0.899716, 0.902092, 0.901962, 0.90099, 0.900607, 0.9005, 0.900473, 0.898707, 0.897246, 0.897371, 0.896917, 0.894108, 0.88717, 0.885069, 0.885728, 0.88762, 0.889056, 0.884866, 0.883854, 0.885458, 0.886929, 0.886702, 0.883811, 0.882131, 0.883768, 0.883668, 0.883622, 0.883421, 0.880298, 0.881139, 0.881517, 0.880876, 0.880754, 0.880142, 0.880273, 0.882248, 0.882868, 0.881977, 0.880023, 0.879526, 0.877685, 0.879861, 0.88338, 0.884415, 0.884612, 0.884104, 0.883426, 0.884666, 0.876461, 0.876633, 0.878878, 0.879211, 0.880005, 0.880624, 0.880771, 0.880092, 1.05992, 0.894962, 0.896309, 0.899248, 0.896284, 0.896502, 0.896123, 0.890744, 0.88827, 0.888012, 0.911966, 0.870705, 0.871501, 0.872498, 0.873439, 0.876849, 0.875849, 0.870626, 0.871386, 0.925369, 0.923074, 0.877607, 0.880238, 0.933497, 0.887271, 0.888747, 0.89058, 0.891352, 0.892363, 0.893506, 0.89452, 0.895361, 0.897037, 0.896229, 1.02934, 0.904479, 0.904917, 1.03272, 0.995425, 1.01454, 0.885487, 0.885444, 0.89099, 0.892429, 0.893799, 1.1673, 0.98717, 1.01527, 1.0776
