1.12601, 1.10189, 1.06428, 1.08042, 1.12534, 1.07208, 1.07524, 1.10511, 1.0858, 1.1325, 1.10201, 1.15038, 1.15714, 1.07596, 1.07607, 1.14125, 1.08223, 1.08489, 1.08804, 1.0908, 1.09107, 1.09207, 1.09413, 1.09596, 1.09831, 1.10083, 1.09921, 1.10349, 1.10388, 1.10106, 1.25432, 1.15751, 1.24344, 1.27728, 1.24566, 1.10854, 1.10914, 1.11003, 1.11062, 1.11125, 1.11133, 1.1113, 1.11169, 1.11182, 1.11199, 1.11206, 1.11217, 1.11205, 1.11199, 1.10859, 1.10675, 1.107, 1.10785, 1.10776, 1.10505, 1.1069, 1.25022, 1.09817, 1.09776, 1.09093, 1.08944, 1.08865, 1.08523, 1.08417, 1.54797, 1.50723, 1.07187, 0.0032691, 1.06138, 1.06071, 1.06143, 1.54454, 1.48216, 1.51166, 1.47423, 1.47482, 1.07369, 1.47823, 1.02404, 1.02424, 1.02087, 1.01857, 1.01823, 1.01109, 1.01127, 1.01051, 1.00344, 1.00319, 1.00353, 0.00331128, 0.994149, 0.993983, 0.993626, 0.991585, 0.992594, 0.990923, 0.994016, 0.994255, 0.994308, 0.994423, 0.995473, 0.995938, 0.994102, 0.995463, 0.997353, 0.997905, 0.998278, 0.995229, 0.995969, 0.995101, 0.994633, 0.996259, 0.996189, 0.982388, 0.981716, 0.981736, 0.974336, 0.971187, 0.972922, 0.978898, 0.979296, 0.970978, 1.01965, 0.980345, 0.979731, 0.980986, 1.01667, 0.97927, 0.980087, 0.995038, 0.98794, 0.980411, 0.97405, 1.03591, 1.01712, 1.02477, 1.01641, 0.969758, 0.97114, 1.011, 1.01127, 1.01112, 0.996368, 0.972294, 0.972755, 0.994768, 1.04907, 1.03644, 1.03667, 0.97294, 0.962513, 0.962739, 0.963694, 0.985133, 0.949748, 0.950624, 0.954815, 0.945859, 0.946715, 0.925143, 0.951676, 1.04705, 0.933059, 0.967946, 0.940604, 0.942083, 0.983306, 0.932584, 0.94693, 0.95022, 0.913469, 0.929448, 0.927811, 0.928605, 0.914612, 0.915379, 0.931031, 0.947514, 0.94799, 0.928571, 0.929377, 0.93568, 0.939055, 0.939832, 0.949987, 0.949733, 0.951412, 0.95689, 0.957735, 0.959843, 0.962809, 0.963114, 1.03384, 1.11652, 0.926505, 1.11744, 0.930404, 0.893094, 0.89625, 0.897226, 0.896722, 0.897198, 0.890637, 0.888942, 0.885972, 0.883495, 0.883765, 0.874214, 0.876465, 0.877617, 0.877633, 0.878821, 0.880768, 0.882179, 0.882991, 0.886193, 0.893688, 0.878691, 0.879546, 0.879911, 0.880202, 0.875428, 0.876492, 0.876593, 0.88168, 0.88198, 0.881507, 0.878252, 0.8777, 0.877108, 1.15712, 0.882516, 0.885387, 0.886803, 0.887923, 0.892361, 0.890185, 0.890154, 0.889153, 0.88812, 0.884988, 0.884232, 0.885076, 0.885417, 0.888118, 0.889097, 0.88904, 0.890196, 0.890519, 0.889683, 0.898561, 0.898466, 0.884745, 0.883974, 0.882989, 0.883601, 0.884062, 0.884573, 0.908373, 0.888869, 0.890254, 0.893376, 0.94188, 0.943336, 0.946258, 0.997832, 0.929761, 0.912929, 0.938314, 0.916541, 0.918407, 0.919597, 0.92067, 0.979086, 0.952403, 0.982754, 0.987976, 0.937855, 0.985522, 0.988693, 1.02566, 1.01032, 1.01443, 1.04687, 1.02145, 0.982178, 0.994619, 0.932543, 1.06467, 0.910576, 0.910984, 0.911048, 1.12712, 1.06837, 0.888188, 0.888421, 0.888486, 1.11277, 1.12565, 1.13396
1.03408, 1.14752, 1.12876, 1.12893, 1.14102, 1.12882, 1.13659, 1.14771, 1.13358, 1.10424, 1.12568, 1.15025, 1.06729, 1.08775, 1.10836, 1.16188, 1.08142, 1.08309, 1.08826, 1.08957, 1.09119, 1.09268, 1.09288, 1.09564, 1.09846, 1.09923, 1.10021, 1.10145, 1.10176, 1.09965, 1.20519, 1.25992, 1.23329, 1.25131, 1.18488, 1.10831, 1.10813, 1.10932, 1.1103, 1.11104, 1.11132, 1.11136, 1.11149, 1.1117, 1.11163, 1.11183, 1.1117, 1.11144, 1.11135, 1.10782, 1.10703, 1.10653, 1.10776, 1.10832, 1.10812, 1.16425, 1.1388, 1.30392, 1.09801, 1.32008, 1.09027, 1.08989, 1.08795, 1.39839, 1.14433, 1.07078, 1.0708, 1.08733, 1.44054, 1.07092, 1.05781, 1.43905, 1.43349, 1.03885, 1.50283, 1.0703, 1.06947, 1.0772, 1.10714, 1.11224, 0.00328956, 1.43084, 1.01838, 1.01673, 0.00350738, 1.00318, 1.00184, 1.00025, 1.00001, 0.996464, 0.99485, 0.994423, 0.993816, 0.990856, 0.991153, 0.992169, 0.991839, 0.992135, 0.992328, 0.993754, 0.99485, 0.991944, 0.99341, 0.991854, 0.995446, 0.995442, 0.995549, 0.995889, 0.995299, 1.00179, 0.995641, 0.996059, 0.988072, 0.980645, 0.980476, 0.980848, 0.97348, 0.972806, 0.973438, 0.976448, 0.976505, 0.969527, 0.969968, 0.98109, 0.980159, 0.98028, 0.981542, 0.982514, 0.984913, 0.987518, 0.989724, 0.978213, 0.978131, 1.00532, 1.00735, 1.02886, 1.02931, 1.01144, 0.960771, 0.986921, 0.986926, 0.982958, 0.98357, 0.987674, 0.987899, 0.988653, 0.994456, 0.994167, 0.987792, 0.981713, 1.00711, 1.00517, 0.984326, 0.93538, 0.953643, 0.953941, 0.953016, 0.949108, 0.935788, 0.938676, 0.916359, 0.961933, 0.945747, 0.945523, 0.942936, 0.942415, 0.925724, 0.961723, 0.961083, 0.941237, 0.917296, 0.918593, 0.926944, 0.925809, 0.92512, 0.928973, 0.930027, 0.915693, 0.928187, 0.922757, 0.931159, 0.931699, 0.932202, 0.939658, 0.94851, 0.956841, 0.949252, 0.960061, 0.960631, 0.962922, 0.962796, 0.96292, 1.03956, 0.934466, 1.11731, 1.11754, 0.90342, 0.904164, 0.895591, 0.895752, 0.894967, 0.894759, 0.888974, 0.888842, 0.887646, 0.887632, 0.882159, 0.8739, 0.874411, 0.877799, 0.879207, 0.879481, 0.881887, 0.883198, 0.882508, 0.895039, 0.895215, 0.878023, 0.87903, 0.880008, 0.880102, 0.87648, 0.876465, 0.876873, 0.880284, 0.881907, 0.882001, 0.877332, 0.876771, 0.876507, 0.897577, 0.884826, 0.886654, 0.886936, 0.888224, 0.890279, 0.890209, 0.890909, 0.890456, 0.890848, 0.886734, 0.885728, 0.886388, 0.887094, 0.88642, 0.886983, 0.887575, 0.888404, 0.897656, 0.894916, 0.891873, 0.897657, 0.880214, 0.881311, 0.883075, 0.88273, 0.883713, 0.884774, 0.921171, 0.887906, 0.889541, 0.892673, 0.893676, 0.893654, 0.94354, 0.942415, 0.930268, 0.93919, 0.93875, 0.953243, 0.916586, 0.919651, 0.921747, 0.922996, 0.994949, 0.99205, 0.984565, 0.997782, 0.992639, 1.00457, 1.00695, 1.02852, 0.932751, 0.933272, 1.03662, 0.997286, 1.02205, 0.973004, 1.0575, 0.933964, 0.915362, 1.07517, 1.11862, 0.894344, 0.886681, 0.887492, 0.881344, 0.880876, 0.881263, 0.880831
1.03453, 1.03477, 1.03561, 1.14574, 1.12884, 1.14009, 1.0683, 1.12767, 1.13274, 1.10433, 1.10451, 1.14715, 1.15326, 1.06957, 1.1093, 1.07807, 1.0803, 1.08176, 1.08607, 1.08924, 1.08826, 1.09207, 1.09407, 1.09304, 1.09572, 1.09608, 1.0966, 1.09902, 1.09838, 1.09909, 1.23235, 1.22882, 1.24267, 1.2703, 1.10758, 1.108, 1.10869, 1.10918, 1.11007, 1.11092, 1.11136, 1.11136, 1.11142, 1.11173, 1.11182, 1.11169, 1.11148, 1.11148, 1.11206, 1.1063, 1.10623, 1.10704, 1.10839, 1.10929, 1.10927, 1.10777, 1.10344, 1.10351, 1.09903, 1.40165, 1.22829, 1.09062, 1.08951, 1.10582, 1.58925, 1.07383, 1.07378, 1.44407, 1.4422, 1.06561, 1.06522, 1.076, 1.54525, 1.06492, 1.0649, 1.06572, 1.48161, 1.48176, 1.0931, 0.0033873, 1.18464, 1.02835, 1.01756, 0.00330512, 0.00385268, 1.00119, 1.00095, 0.997085, 0.994788, 0.991887, 0.992284, 0.994428, 0.991278, 0.99044, 0.990196, 0.991064, 0.99064, 0.991792, 0.993045, 0.991393, 0.99149, 0.991671, 0.991339, 0.990846, 0.98961, 0.993604, 0.995053, 1.01432, 1.0011, 1.00126, 0.995459, 1.09106, 0.987389, 0.983179, 0.983381, 0.986188, 0.974512, 0.973966, 0.974215, 0.978089, 0.971403, 0.96963, 0.969638, 0.980454, 0.980987, 0.980632, 0.981431, 0.982607, 0.98654, 0.987665, 0.991563, 0.982482, 0.982724, 0.984397, 1.00323, 1.00473, 1.01228, 0.966934, 0.99046, 0.98984, 0.987477, 0.982199, 0.983372, 0.987126, 0.989216, 0.994757, 0.997489, 0.995407, 0.98197, 0.982683, 1.0187, 1.01641, 0.997355, 0.997408, 0.973666, 0.952862, 0.950512, 0.948914, 0.94357, 0.934552, 0.935075, 0.963247, 0.938907, 0.942445, 0.966466, 0.966554, 0.928173, 0.928676, 0.976831, 0.995743, 0.948215, 0.919253, 0.922358, 0.919635, 0.92192, 0.920257, 0.929526, 0.927684, 0.933172, 0.934325, 0.936538, 0.931621, 0.932059, 0.935126, 0.939056, 0.964561, 1.00297, 0.960163, 0.961411, 0.962482, 0.962032, 1.02196, 1.12743, 0.930022, 1.15371, 1.16524, 0.902478, 0.89674, 0.896182, 0.896731, 0.88785, 0.890151, 0.888846, 0.888141, 0.887016, 0.886681, 0.883804, 0.873763, 0.875141, 0.879487, 0.879858, 0.880241, 0.883197, 0.883416, 0.883347, 0.896375, 0.871271, 0.871884, 0.877411, 0.878664, 0.877328, 0.876135, 0.876658, 0.898453, 0.880953, 0.882073, 0.881647, 0.876771, 0.87645, 0.876521, 0.897541, 0.900209, 0.885864, 0.887268, 0.888442, 0.889292, 0.890306, 0.888934, 0.891526, 0.891675, 0.889185, 0.886815, 0.886883, 0.887004, 0.888618, 0.887398, 0.897627, 0.899774, 0.902515, 0.903217, 0.902336, 0.900871, 0.879243, 0.881343, 0.881682, 0.882541, 0.883503, 0.885455, 0.887103, 0.88901, 0.890413, 0.891855, 0.89252, 0.894875, 0.944062, 0.944249, 0.925773, 0.942739, 0.91484, 0.935949, 0.918861, 0.9184, 0.91903, 0.921857, 0.98254, 0.968216, 0.98938, 0.949276, 0.940192, 0.981004, 1.0009, 0.933879, 0.934146, 0.933858, 0.934125, 1.05323, 0.984506, 0.916712, 0.917185, 0.91897, 1.10289, 1.073, 1.03372, 1.07809, 0.888025, 0.887072, 0.88189, 0.882582, 0.882157, 0.881388
1.03306, 1.03393, 1.03494, 1.0359, 1.14549, 1.1328, 1.14014, 1.07048, 1.06754, 1.11574, 1.14377, 1.12974, 1.06543, 1.06854, 1.15075, 1.17744, 1.07949, 1.08016, 1.08047, 1.08428, 1.19455, 1.09064, 1.0908, 1.09454, 1.09572, 1.09665, 1.09782, 1.09908, 1.09902, 1.10016, 1.22188, 1.22099, 1.10464, 1.10494, 1.24818, 1.27724, 1.27719, 1.10861, 1.10968, 1.1108, 1.11133, 1.1114, 1.11137, 1.11168, 1.1118, 1.11152, 1.11135, 1.11135, 1.11158, 1.10581, 1.2515, 1.18086, 1.11017, 1.11056, 1.11008, 1.10844, 1.10609, 1.10241, 1.10029, 1.40675, 1.09737, 1.10374, 1.39295, 1.08802, 1.21612, 1.07356, 1.07407, 1.44364, 1.44016, 0.0108951, 0.00354722, 1.35051, 0.00322531, 1.06518, 1.06525, 1.06504, 1.1262, 1.07206, 1.11083, 1.18203, 0.00348481, 1.05326, 1.00352, 1.61723, 0.00345889, 1.00043, 0.999683, 0.995076, 0.994702, 0.994273, 0.993589, 0.990984, 0.99057, 0.990443, 0.988737, 0.987788, 0.987881, 0.989621, 0.989114, 0.990817, 0.99078, 0.990728, 0.990048, 0.989388, 1.11177, 0.990455, 1.20244, 1.01248, 1.00106, 0.998945, 1.05694, 1.09507, 0.985284, 0.984683, 0.984144, 0.987123, 1.17115, 0.974891, 0.977294, 0.965387, 0.966448, 0.968182, 0.970072, 0.980164, 0.980813, 0.981811, 0.982014, 0.981374, 0.986834, 0.989752, 0.994071, 0.983443, 0.983536, 0.983639, 1.00951, 1.00666, 1.00714, 0.970218, 0.974211, 0.988676, 0.97602, 0.977104, 0.982389, 0.983477, 0.998617, 0.998605, 1.03245, 0.997592, 1.0314, 1.01145, 1.00655, 1.00521, 1.00069, 1.00051, 0.949676, 0.951775, 0.951732, 0.94668, 0.946962, 0.950405, 0.952617, 0.952748, 0.946372, 0.943342, 0.942377, 0.942566, 0.946909, 0.95695, 0.956943, 0.953685, 0.949786, 0.949279, 0.933157, 0.919818, 0.917039, 0.916694, 0.926229, 0.928672, 0.934909, 0.934841, 0.935277, 0.935299, 0.935714, 0.935375, 0.937604, 0.938823, 1.18765, 0.957843, 0.96193, 0.98076, 1.00137, 1.02546, 0.00354015, 1.0856, 1.0768, 1.12025, 0.947772, 0.898654, 0.893598, 0.890554, 0.88956, 0.889372, 0.889109, 0.888607, 0.885767, 0.885135, 0.884766, 0.87835, 0.88009, 0.879975, 0.880162, 0.88035, 0.881959, 0.883184, 0.883397, 0.896016, 0.896141, 0.873195, 0.878741, 0.879603, 0.879711, 0.877805, 0.897891, 1.16104, 0.882078, 0.88283, 0.881736, 0.878701, 0.876235, 0.876543, 0.897569, 0.887008, 0.887903, 0.887944, 0.888852, 0.889724, 0.890204, 0.890632, 0.890278, 0.890678, 0.890477, 0.889807, 0.887199, 0.88768, 0.887599, 0.887329, 0.886619, 0.900847, 0.904139, 0.909536, 0.89476, 0.898141, 0.880602, 0.881626, 0.881692, 0.882047, 0.883826, 0.886401, 0.887756, 0.888507, 0.890774, 0.893607, 0.89464, 0.896471, 0.945101, 0.900491, 0.902752, 0.903989, 0.936595, 0.928259, 0.914877, 0.916223, 0.917827, 0.939842, 0.920427, 0.984522, 0.926037, 1.00074, 0.984196, 0.959963, 1.01606, 0.934905, 0.935087, 0.935176, 0.934223, 0.928438, 0.928513, 0.918253, 0.918016, 0.915793, 0.911126, 0.910282, 1.03711, 0.893795, 0.888668, 0.887728, 0.886003, 0.884625, 0.883995, 0.877396
1.0349, 1.03398, 1.03426, 1.03545, 1.14384, 1.11243, 1.09209, 1.09408, 1.06902, 1.13414, 1.14258, 1.14628, 1.06556, 1.06848, 1.07257, 1.07619, 1.07783, 1.079, 1.08023, 1.08211, 1.08384, 1.08912, 1.09153, 1.09375, 1.0952, 1.09628, 1.09878, 1.10023, 1.09936, 1.10054, 1.22212, 1.25139, 1.24402, 1.24596, 1.10622, 1.1077, 1.10797, 1.10912, 1.1095, 1.11046, 1.11125, 1.11138, 1.11139, 1.11156, 1.11178, 1.11145, 1.11129, 1.11131, 1.1114, 1.11215, 1.11329, 1.11209, 1.11097, 1.11153, 1.10858, 1.11121, 1.11117, 1.10362, 1.10315, 1.10199, 1.16776, 0.00339143, 1.42266, 1.36737, 1.08801, 1.07761, 1.28582, 1.44414, 1.53235, 1.53281, 0.00354096, 1.07408, 1.51023, 1.0641, 1.06518, 1.5363, 1.5443, 1.07044, 1.04726, 0.00339994, 1.00851, 1.00285, 1.00078, 0.999172, 0.999985, 0.998548, 1.18463, 0.996663, 0.995888, 0.994373, 0.994085, 0.991996, 0.990709, 0.990159, 0.990018, 0.987281, 0.98719, 0.98888, 0.990486, 0.990464, 0.990521, 0.987825, 0.986955, 0.986045, 0.986006, 0.988021, 0.00355422, 0.99375, 0.995482, 0.00323678, 1.30124, 0.985234, 0.985482, 0.986079, 0.987604, 0.991667, 0.990767, 0.977847, 0.977039, 0.965482, 0.966085, 0.968174, 0.97501, 0.980323, 0.97944, 0.976799, 0.977642, 0.980914, 0.988684, 0.988943, 0.989199, 0.983241, 0.983664, 0.983944, 1.02638, 1.02461, 1.07575, 0.978079, 0.97454, 0.972667, 0.972543, 0.973972, 0.982742, 0.98361, 0.997633, 1.00273, 1.0027, 0.999161, 1.0405, 1.01186, 1.06915, 0.999923, 1.00092, 0.946228, 0.953713, 0.953592, 0.953091, 0.952444, 0.953021, 0.978946, 0.955713, 0.95562, 0.949922, 0.947712, 0.943086, 0.943681, 0.948763, 0.954725, 0.953687, 0.953812, 0.954485, 0.946835, 0.933151, 0.931651, 0.917306, 0.917382, 0.918173, 1.04228, 0.934182, 0.936897, 0.936698, 0.93657, 0.936384, 0.938804, 0.940257, 0.96954, 0.946025, 0.957678, 0.956897, 1.09132, 1.00583, 1.01274, 1.08078, 0.934467, 1.10855, 0.915025, 0.893729, 0.894734, 0.893114, 0.891539, 0.889248, 0.890507, 0.888535, 0.887921, 0.88649, 0.885064, 0.884225, 0.880208, 0.880192, 0.880811, 0.880826, 0.881037, 0.882322, 0.883378, 0.883035, 0.876569, 0.877608, 0.877335, 0.877982, 0.879829, 0.880493, 0.880844, 0.891599, 0.882543, 0.883457, 0.883989, 0.878919, 0.878223, 0.876076, 0.87675, 0.957914, 0.88766, 0.886772, 0.887737, 0.89077, 0.890113, 0.890479, 0.890741, 0.890781, 0.890519, 0.890916, 0.890867, 0.889285, 0.887816, 0.890248, 0.901027, 0.901658, 0.904678, 0.881151, 0.911184, 0.905077, 0.877633, 0.876793, 0.876706, 0.879435, 0.881673, 0.883563, 0.886623, 0.887594, 0.888284, 0.889155, 0.893868, 0.896439, 0.897594, 0.898177, 0.900206, 0.903858, 0.904682, 0.93327, 0.938775, 0.949299, 0.913207, 0.912445, 0.916622, 0.949647, 0.924896, 0.925342, 0.927096, 0.991185, 0.931843, 0.93201, 0.931742, 0.932785, 0.933357, 0.931208, 1.01466, 1.04996, 0.91996, 0.91681, 0.91496, 0.918394, 0.911889, 1.01981, 1.03555, 0.887301, 0.88725, 0.886906, 0.885808, 0.879042, 0.881346
1.03634, 1.03537, 1.03456, 1.03557, 1.10836, 1.1469, 1.06211, 1.13243, 1.1317, 1.13568, 1.08924, 1.14543, 1.06394, 1.06736, 1.15457, 1.07649, 1.07707, 1.0783, 1.08125, 1.08344, 1.08399, 1.08797, 1.08835, 1.09404, 1.09506, 1.09873, 1.10009, 1.10167, 1.10023, 1.10051, 1.21487, 1.1571, 1.2291, 1.10567, 1.10657, 1.10733, 1.23368, 1.10844, 1.10929, 1.11019, 1.11093, 1.11134, 1.11137, 1.11141, 1.11168, 1.11151, 1.11151, 1.11146, 1.11162, 1.11241, 1.11255, 1.11242, 1.11203, 1.11142, 1.10942, 1.10942, 1.10935, 1.10417, 1.10363, 1.10259, 1.35317, 1.31843, 1.18222, 1.08521, 1.33972, 1.07742, 0.00346232, 1.31367, 1.06749, 1.44354, 0.00348597, 1.48036, 1.52834, 1.52923, 1.58184, 1.05062, 1.06425, 1.05386, 1.13789, 1.1377, 1.00596, 1.00018, 0.999065, 0.998002, 1.00046, 0.998853, 0.990799, 0.990375, 0.992588, 0.993212, 0.99399, 0.992032, 0.990608, 0.990503, 0.990542, 0.987129, 0.986952, 0.987589, 0.988386, 0.990931, 0.9912, 0.987234, 0.987141, 0.986705, 0.98588, 0.987684, 0.986325, 1.08936, 0.986474, 1.06471, 0.988089, 0.986983, 0.985006, 0.98557, 1.31866, 0.991319, 0.991414, 0.981591, 0.98202, 0.964976, 0.965555, 0.966267, 0.974983, 0.975441, 0.976628, 0.976954, 0.978018, 0.984224, 0.986699, 1.00776, 0.984916, 0.982474, 0.983606, 0.983981, 0.990641, 0.990262, 1.11279, 0.971795, 0.970783, 0.969612, 0.970022, 0.973853, 0.978029, 0.982982, 1.17106, 1.00258, 1.00568, 1.00809, 1.00768, 1.00611, 0.984165, 0.98401, 1.00584, 1.07872, 0.983731, 0.957005, 0.95403, 0.953748, 0.952457, 0.9679, 0.968365, 1.05696, 0.952241, 0.952432, 0.94273, 0.942655, 0.950462, 0.955532, 0.955216, 0.954437, 0.95473, 0.934401, 0.931976, 0.932206, 0.919768, 0.919608, 0.925533, 0.928765, 0.937544, 0.938243, 0.937771, 0.938984, 0.938618, 0.939866, 0.940757, 0.942988, 0.946362, 0.952252, 0.951902, 0.999753, 1.0155, 1.03229, 1.07341, 1.13696, 1.02807, 1.03024, 0.894346, 0.895936, 0.893447, 0.889049, 0.888564, 0.888736, 0.887743, 0.887071, 0.887136, 0.885284, 0.882623, 0.88143, 0.881555, 0.880069, 0.880058, 0.880859, 0.882055, 0.883392, 0.882261, 0.87709, 0.878243, 0.879014, 0.878744, 0.879291, 0.881364, 0.882857, 0.881632, 0.882933, 0.883552, 0.886222, 0.880957, 0.875898, 0.876405, 1.06643, 0.897964, 0.883925, 0.887692, 0.886378, 0.887891, 0.890166, 0.891467, 0.89064, 0.891518, 0.891214, 0.890941, 0.890949, 0.890818, 0.897892, 0.897799, 0.901279, 0.898785, 0.901178, 0.879952, 0.879319, 0.878863, 0.877679, 0.875342, 0.876338, 0.878046, 0.880268, 0.884282, 0.885281, 0.887027, 0.887054, 0.887964, 0.912855, 0.895636, 0.897885, 0.900874, 0.900312, 0.900978, 0.904717, 0.905863, 0.909384, 0.908184, 0.908745, 0.932529, 0.914614, 0.918726, 0.923805, 0.922988, 0.924681, 0.983645, 0.99743, 0.925714, 0.932269, 1.07382, 1.01908, 1.02291, 0.999115, 0.00365347, 0.918649, 0.915777, 0.914439, 0.911152, 0.0037028, 0.991334, 1.02594, 0.890691, 0.890213, 0.886836, 0.886711, 0.882823, 0.882764
1.03469, 1.03444, 1.03532, 1.0358, 1.12734, 1.12845, 1.06529, 1.06851, 1.06375, 1.06316, 1.14683, 1.12205, 1.06348, 1.06673, 1.13994, 1.07476, 1.07819, 1.08023, 1.08221, 1.08268, 1.08414, 1.08627, 1.08969, 1.09527, 1.09576, 1.09809, 1.10069, 1.10095, 1.1011, 1.10098, 1.1021, 1.10255, 1.22908, 1.15982, 1.10598, 1.23598, 1.23567, 1.10827, 1.10907, 1.10985, 1.11074, 1.11131, 1.11134, 1.11139, 1.11166, 1.11182, 1.11183, 1.11194, 1.11224, 1.11254, 1.11258, 1.11234, 1.11181, 1.11204, 1.11336, 1.22602, 1.10996, 1.1051, 1.10354, 1.10467, 1.37778, 1.32778, 1.32808, 1.0872, 1.08512, 1.08071, 1.17131, 1.57838, 1.38813, 1.06093, 1.06105, 1.0595, 1.53008, 1.49201, 1.05698, 1.05055, 1.06708, 1.06658, 1.13979, 1.14413, 0.00351545, 0.998771, 0.995669, 0.995634, 0.995141, 0.99419, 0.993398, 0.992677, 0.990671, 0.991521, 0.994462, 0.994335, 0.990488, 0.99027, 0.987637, 0.987316, 0.986906, 0.98703, 0.986834, 0.990296, 0.991387, 0.991565, 0.990321, 0.984782, 0.984568, 0.984458, 0.985465, 0.985517, 0.985696, 0.985464, 1.02944, 1.09827, 1.04468, 1.07337, 0.986323, 0.00331091, 0.984521, 0.984869, 0.980527, 0.980459, 0.968426, 0.970506, 0.975477, 0.975685, 0.977019, 0.978312, 0.97859, 0.981359, 0.982015, 1.01683, 1.24252, 0.984775, 0.983641, 0.983834, 1.20511, 1.0884, 0.977036, 0.973301, 0.971687, 0.970147, 0.971905, 0.975201, 0.979751, 1.28917, 1.09753, 1.01493, 1.01546, 1.03661, 1.02021, 1.0868, 1.01542, 0.983751, 0.967167, 0.966743, 0.963293, 0.963275, 0.95618, 0.958914, 0.957785, 0.968017, 0.969807, 0.959597, 1.0668, 1.10747, 1.0721, 0.94602, 0.953075, 0.949985, 0.950459, 0.955038, 1.03349, 0.934694, 0.934145, 0.933621, 0.922375, 0.924061, 0.924748, 0.924849, 0.991464, 0.935853, 1.00712, 1.00749, 0.940548, 0.940132, 0.941804, 0.943092, 0.949028, 0.94849, 0.950417, 0.950216, 1.01567, 0.938677, 0.932513, 0.936554, 1.02519, 1.02162, 0.896285, 0.895226, 0.894033, 0.889387, 0.888833, 0.888363, 0.886974, 0.885701, 0.885219, 0.883952, 0.882347, 0.882463, 0.88061, 0.879447, 0.878851, 0.87905, 0.88085, 0.883342, 0.879573, 0.877676, 0.877224, 0.87713, 0.877741, 0.879047, 0.881566, 0.883548, 0.882753, 0.883604, 0.88553, 0.885696, 0.882286, 0.890702, 0.874945, 0.877485, 0.965542, 0.885003, 0.885943, 0.886496, 0.889012, 0.889566, 0.891007, 0.891877, 0.892904, 0.893623, 0.892431, 0.891585, 0.897751, 0.899632, 0.876108, 0.876294, 0.875042, 0.875793, 0.878005, 0.878591, 0.878197, 0.877319, 0.876772, 0.876406, 0.879341, 0.879312, 0.893596, 0.884622, 0.885882, 0.887369, 0.888474, 0.893686, 0.894741, 0.910744, 0.899312, 0.900607, 0.900695, 0.903227, 0.904741, 0.906409, 0.906694, 0.907403, 0.949113, 0.93363, 0.915958, 0.919884, 0.920288, 0.920967, 0.991959, 0.926138, 0.925656, 0.92611, 1.01468, 0.919183, 0.967504, 0.999241, 1.00887, 0.918817, 0.913098, 0.914066, 1.10069, 1.05486, 1.0568, 1.13679, 0.890997, 0.887695, 0.887467, 0.884011, 0.882201, 0.8818
1.03431, 1.03521, 1.03544, 1.03499, 1.1253, 1.12402, 1.06652, 1.06614, 1.0953, 1.09326, 1.11942, 1.12754, 1.06492, 1.06486, 1.07076, 1.07351, 1.0776, 1.08042, 1.08238, 1.08272, 1.08288, 1.08726, 1.09059, 1.09521, 1.09703, 1.18513, 1.10211, 1.10117, 1.10142, 1.10043, 1.13639, 1.24656, 1.10364, 1.10463, 1.24102, 1.13679, 1.29315, 1.29338, 1.10875, 1.10986, 1.11058, 1.1113, 1.11135, 1.11142, 1.11169, 1.11205, 1.11219, 1.1123, 1.11251, 1.11265, 1.11276, 1.11274, 1.11273, 1.11305, 1.11317, 1.11362, 1.2533, 1.10845, 1.11865, 1.13036, 1.40406, 1.40565, 1.09072, 1.08768, 0.00341568, 1.37142, 1.35479, 1.46058, 1.38472, 1.32225, 0.00334232, 1.31073, 1.05081, 1.05165, 1.05451, 1.06728, 1.06207, 1.07245, 1.51714, 1.00857, 0.998377, 0.997717, 0.995772, 0.996089, 0.995731, 0.993597, 0.993249, 0.992421, 0.990835, 0.990859, 0.991104, 0.989507, 0.987479, 0.987394, 0.987074, 0.987068, 0.98761, 0.987112, 0.987274, 0.987299, 0.99158, 0.992062, 0.991247, 0.985434, 0.984899, 0.9836, 0.983859, 0.985153, 0.985994, 0.984969, 0.983438, 0.980478, 0.980603, 0.983493, 0.983633, 0.982428, 0.982131, 0.981272, 0.979488, 0.979558, 0.975249, 0.973385, 0.973705, 0.976672, 0.973613, 0.974566, 0.973661, 0.973824, 0.976556, 1.01821, 1.01672, 1.03544, 1.10623, 1.1061, 0.981522, 0.982104, 0.981963, 0.974343, 0.971869, 0.97217, 0.984428, 0.978056, 0.979033, 1.1322, 1.00248, 1.00916, 1.01132, 1.0189, 1.12655, 1.126, 1.07151, 1.07157, 0.968533, 0.968259, 0.968047, 0.961218, 0.956741, 0.955902, 0.957342, 0.958414, 0.966172, 0.961648, 0.959523, 1.10283, 1.14288, 0.980779, 1.08966, 0.956665, 1.01596, 0.947656, 0.938841, 0.936655, 0.933783, 0.928441, 0.925721, 0.924972, 0.925412, 0.9316, 1.03947, 0.946314, 1.00548, 0.939336, 0.941983, 0.940904, 0.940749, 0.939807, 0.949351, 0.949384, 0.950235, 0.950466, 1.01633, 0.930739, 1.06094, 0.93101, 1.02828, 1.03329, 0.898526, 0.911901, 1.2006, 0.890498, 0.888607, 0.887231, 0.885807, 0.884937, 0.883408, 0.881963, 0.882658, 0.879005, 0.878249, 0.88027, 0.877099, 0.880878, 0.879921, 0.880485, 0.872172, 0.873036, 0.877189, 0.877459, 0.87879, 0.879241, 0.881596, 0.881693, 0.881953, 0.884438, 0.886446, 0.883797, 0.882788, 0.883021, 0.878274, 0.878185, 0.898296, 0.883729, 0.88521, 0.886116, 0.886984, 0.888867, 0.89072, 0.891652, 0.893336, 0.893694, 0.892985, 0.89216, 0.907294, 0.897954, 0.874482, 0.875308, 0.875966, 0.875415, 0.875243, 0.87739, 0.879403, 0.878848, 0.876658, 0.877474, 0.879167, 0.87974, 0.880119, 0.882707, 0.91167, 0.908192, 0.885745, 0.900669, 0.922794, 0.894979, 0.895569, 0.897031, 0.900572, 0.900774, 0.90134, 0.90234, 0.903812, 0.904448, 0.953421, 0.938245, 0.913383, 0.918698, 0.919805, 0.921536, 0.984358, 0.922924, 0.924353, 0.925263, 0.918417, 0.919006, 0.920244, 0.98206, 0.984593, 1.00129, 0.994435, 0.992754, 0.903105, 0.9012, 1.00004, 1.1376, 0.893516, 0.891293, 0.881317, 0.883293, 0.883565, 0.881306
1.03488, 1.03535, 1.03442, 1.1224, 1.03656, 1.10845, 1.06528, 1.10112, 1.06448, 1.13141, 1.09174, 1.07825, 1.06407, 1.06868, 1.06962, 1.14233, 1.07817, 1.08039, 1.08208, 1.08287, 1.08241, 1.08895, 1.09293, 1.09568, 1.09861, 1.22672, 1.10075, 1.10084, 1.09866, 1.09807, 1.21229, 1.20604, 1.22939, 1.272, 1.28495, 1.28433, 1.22233, 1.18068, 1.22157, 1.10992, 1.11071, 1.11132, 1.11129, 1.11168, 1.11207, 1.11233, 1.11263, 1.11279, 1.11299, 1.11314, 1.11325, 1.11334, 1.11352, 1.11354, 1.11303, 1.11258, 1.11223, 1.23633, 1.3314, 1.10341, 1.3827, 1.31675, 1.29893, 1.29907, 1.53713, 1.3717, 1.43685, 1.46107, 1.06643, 1.06529, 1.09428, 0.00345005, 1.05082, 1.05544, 1.05666, 1.40704, 1.15266, 1.06654, 1.07807, 1.00881, 0.998486, 0.997325, 0.997348, 0.996202, 0.994461, 0.993296, 0.992543, 0.991561, 0.991197, 0.989594, 0.990412, 0.988993, 0.989046, 0.986905, 0.987199, 0.987309, 0.986959, 0.987322, 0.986877, 0.986894, 0.985702, 0.988832, 0.990146, 0.989639, 0.98499, 0.984253, 0.983577, 0.983684, 0.981317, 0.982337, 0.983153, 0.980369, 0.981394, 0.983296, 0.981721, 0.983313, 0.981554, 0.980695, 0.980086, 0.97988, 0.97667, 0.976802, 0.968904, 0.968159, 0.967189, 0.970687, 0.972071, 0.974139, 0.974687, 0.9759, 1.09636, 1.1023, 1.05457, 1.09048, 0.981521, 0.98158, 0.981046, 0.976672, 0.975644, 0.977018, 0.981437, 0.983119, 0.991972, 1.11268, 1.0009, 1.07522, 1.11161, 1.12552, 1.18499, 1.1055, 1.09625, 1.00128, 0.970129, 0.969338, 0.967867, 0.957297, 0.956913, 0.955791, 0.959068, 0.967829, 0.96643, 0.965026, 0.96298, 0.958435, 0.958846, 0.959835, 0.954477, 0.955935, 0.95606, 1.04682, 0.941675, 0.938982, 0.935328, 0.928707, 0.92806, 0.926004, 0.927355, 0.932151, 0.933056, 0.932636, 0.932463, 0.93955, 0.941815, 0.939982, 0.939746, 0.942208, 0.942166, 1.01145, 1.01177, 1.00511, 1.01933, 1.05656, 0.929596, 1.08734, 1.0284, 0.91595, 0.89271, 1.13331, 0.88493, 0.885554, 0.8852, 0.884893, 0.883699, 0.88436, 0.881879, 0.883821, 0.882721, 0.877946, 0.877117, 0.876541, 0.876515, 0.880579, 0.881205, 0.879865, 0.879852, 0.874578, 0.876437, 0.876974, 0.878089, 0.878753, 0.880059, 0.880219, 0.939065, 0.882303, 0.883523, 0.883505, 0.883183, 0.881834, 0.880424, 0.880325, 0.895243, 0.883917, 0.885742, 0.886537, 0.887153, 0.887324, 0.888095, 0.891159, 0.89126, 0.893055, 0.894431, 0.88778, 0.917858, 0.897009, 0.89899, 0.877023, 0.876119, 0.876377, 0.87619, 0.877818, 0.927735, 0.878407, 0.877196, 0.877846, 0.878708, 0.878822, 0.879679, 0.902791, 1.14674, 0.881507, 0.884865, 0.886349, 0.922074, 0.929947, 0.89546, 0.899326, 0.899908, 0.90144, 0.90191, 0.901418, 0.903566, 0.904655, 0.90513, 0.907928, 0.911286, 0.915548, 0.918748, 0.922037, 0.922668, 0.923178, 0.925231, 0.92466, 0.920009, 0.920047, 0.921036, 0.921411, 0.998826, 0.999698, 0.906798, 0.978173, 0.902574, 0.90313, 1.0013, 0.931757, 1.01079, 0.887143, 0.881716, 0.883954, 0.884449, 0.881861
1.03405, 1.03402, 1.12561, 1.12547, 1.03653, 1.08615, 1.1246, 1.14232, 1.10263, 1.10206, 1.10154, 1.13314, 1.06464, 1.06628, 1.06797, 1.14008, 1.08028, 1.0798, 1.08181, 1.08229, 1.08338, 1.1627, 1.09422, 1.09514, 1.0989, 1.22256, 1.10036, 1.10037, 1.1024, 1.0988, 1.21947, 1.21826, 1.13064, 1.15071, 1.24582, 1.14644, 1.16912, 1.2811, 1.10913, 1.10981, 1.11075, 1.11134, 1.11147, 1.1118, 1.11228, 1.11257, 1.1128, 1.11312, 1.11327, 1.11346, 1.11364, 1.1136, 1.11363, 1.11377, 1.11404, 1.11386, 1.11383, 1.12062, 1.2724, 1.27486, 1.10123, 1.32232, 1.08705, 1.0872, 1.0866, 1.33859, 1.37643, 1.06641, 1.06665, 1.56086, 1.09158, 1.09483, 1.46066, 1.06084, 1.46369, 1.56538, 0.00350623, 1.04826, 1.34625, 1.00486, 1.0008, 0.996712, 0.996517, 0.996436, 0.994559, 0.990986, 0.990549, 0.990498, 0.989223, 0.989166, 0.989295, 0.988682, 0.983569, 0.983743, 0.984823, 0.986957, 0.986938, 0.987491, 0.985972, 0.984905, 0.984559, 0.983831, 0.986205, 0.990293, 0.984485, 0.983694, 0.983564, 0.98396, 0.981557, 0.98151, 0.981911, 0.981936, 0.983422, 0.982913, 0.98231, 0.981744, 0.980919, 0.980966, 0.980603, 0.979388, 0.978087, 1.17394, 0.968164, 0.967458, 0.968328, 0.970287, 0.971061, 0.973026, 0.97458, 0.97713, 1.0233, 1.05661, 1.10807, 0.979463, 0.980243, 0.979561, 0.978903, 0.977657, 0.976369, 0.976681, 1.14169, 0.987798, 0.991026, 0.992296, 1.11738, 1.11359, 1.0161, 1.01659, 1.04643, 1.09892, 1.11101, 1.31748, 1.00276, 0.991711, 1.08828, 0.993959, 0.958956, 1.00624, 1.00862, 0.967577, 0.964244, 0.964806, 0.962501, 0.959982, 0.958331, 0.959191, 0.959127, 0.959123, 0.947033, 0.947967, 0.946109, 0.940044, 0.930851, 0.928741, 0.929163, 0.929895, 0.931929, 0.933425, 0.932936, 0.933783, 0.934034, 0.939432, 0.942634, 0.940016, 0.940927, 0.942253, 0.942067, 0.94233, 1.00678, 1.02278, 1.04737, 1.05161, 1.06227, 1.1565, 0.00326201, 0.917987, 0.893541, 0.884256, 0.886435, 0.88537, 0.886424, 0.883405, 0.882622, 0.88208, 0.882584, 0.882182, 0.876892, 0.876365, 0.876201, 0.874233, 0.874576, 0.877916, 0.879834, 0.879916, 0.879591, 0.875526, 0.875534, 0.877356, 0.87751, 0.877495, 0.878179, 0.879525, 1.1719, 0.882723, 0.8834, 0.884216, 0.968516, 0.883964, 0.880975, 0.892859, 0.897128, 0.89728, 0.886146, 0.886975, 0.887986, 0.888401, 0.8887, 0.890205, 0.890049, 0.891215, 0.89053, 0.89034, 0.887423, 0.882141, 0.878325, 0.878906, 0.877569, 0.877612, 0.87921, 0.879852, 0.881529, 0.888339, 0.877766, 0.877985, 0.87879, 0.877662, 0.877713, 0.880206, 0.882021, 0.883191, 0.884207, 0.884547, 1.13125, 0.929541, 0.931625, 0.925197, 0.897428, 0.89864, 0.898109, 0.900588, 0.90177, 0.904138, 0.905978, 0.907731, 0.90857, 0.910967, 0.962721, 0.964901, 0.921735, 0.922301, 0.92388, 0.921601, 0.920513, 0.920887, 0.921542, 0.921551, 1.00259, 0.999617, 0.904197, 0.901919, 0.994178, 0.896843, 0.897237, 1.01621, 0.891318, 0.886841, 0.884412, 0.88354, 0.88327, 0.883368
1.03398, 1.08928, 1.09427, 1.08649, 1.08554, 1.10273, 1.06599, 1.11301, 1.13184, 1.12155, 1.11962, 1.06297, 1.06504, 1.06776, 1.06744, 1.13969, 1.07697, 1.07709, 1.08122, 1.08202, 1.08443, 1.11831, 1.09294, 1.09593, 1.09855, 1.10018, 1.10012, 1.09917, 1.10079, 1.09581, 1.219, 1.22709, 1.17433, 1.17351, 1.21562, 1.16213, 1.22468, 1.22894, 1.10993, 1.11042, 1.11117, 1.11135, 1.11171, 1.11222, 1.11269, 1.1131, 1.11336, 1.1134, 1.11381, 1.11394, 1.114, 1.1139, 1.11378, 1.11351, 1.11388, 1.11454, 1.1146, 1.11491, 1.11472, 1.12572, 1.12632, 0.00338505, 1.08802, 1.44162, 1.30049, 1.08435, 1.34084, 1.42042, 1.06396, 1.0929, 1.32903, 1.333, 0.0106488, 0.00345331, 1.06384, 1.06372, 0.00389483, 0.00331873, 1.00617, 1.00309, 0.998699, 0.99768, 0.997403, 0.995345, 0.991184, 0.989166, 0.988146, 0.988166, 0.98884, 0.989578, 0.990303, 0.986326, 0.984267, 0.984036, 0.984103, 0.987056, 0.986103, 0.986418, 0.986987, 0.986957, 0.983167, 0.982878, 0.983448, 0.983838, 0.983279, 0.984333, 0.983831, 0.985218, 0.980379, 0.980522, 0.982304, 0.982599, 0.983753, 0.978525, 0.978836, 0.979553, 0.980296, 0.980834, 0.980182, 0.98036, 0.98006, 0.967549, 0.967661, 0.968292, 0.96905, 0.969255, 0.97003, 0.970492, 0.97512, 0.974304, 1.02834, 1.2034, 1.11542, 1.0677, 0.98013, 0.979808, 0.979917, 0.978303, 0.975504, 0.979634, 0.984234, 0.989161, 0.990711, 0.991497, 0.992597, 0.0035764, 1.00335, 1.1304, 1.07757, 1.09568, 1.02143, 1.08573, 1.08864, 1.08806, 0.953991, 0.00348056, 1.01151, 1.01959, 0.980972, 1.01224, 0.958512, 0.958926, 0.960194, 0.957063, 0.958344, 0.959844, 0.95918, 0.95501, 0.949251, 0.948966, 0.949647, 0.934012, 0.932779, 0.931475, 0.930746, 0.931852, 0.933038, 0.933161, 0.931985, 0.931582, 0.933488, 0.93758, 0.938699, 0.939474, 0.940558, 0.942435, 0.942657, 0.944118, 1.01506, 1.02437, 1.02372, 0.00365186, 0.00333468, 0.00340275, 0.915615, 0.898292, 0.89338, 0.893522, 0.887043, 0.887224, 0.886876, 0.881813, 0.883316, 0.88099, 0.881252, 0.879373, 0.879661, 0.87606, 0.873975, 0.873545, 0.875125, 0.875377, 0.88304, 0.875201, 0.875, 0.875011, 0.87486, 0.876353, 0.876757, 0.877063, 0.87861, 0.878413, 0.922018, 0.00342748, 0.885406, 0.888209, 0.889337, 0.889496, 0.888746, 0.893282, 1.18927, 0.887379, 0.888391, 0.887605, 0.88883, 0.888633, 0.888261, 0.88899, 0.889711, 0.890268, 0.890488, 0.888405, 0.887663, 0.895666, 0.878709, 0.87977, 0.879263, 0.878701, 0.881292, 0.881664, 0.882563, 0.88348, 0.882226, 0.876673, 0.877601, 0.876972, 0.875964, 0.8775, 1.16705, 0.883105, 0.883595, 0.884121, 0.885083, 0.927199, 0.926014, 0.891327, 0.89603, 0.897262, 0.898734, 0.900637, 0.902217, 0.904211, 0.904265, 0.906189, 0.906849, 0.910952, 0.955965, 0.95301, 0.958244, 0.959593, 0.920111, 0.919447, 0.920045, 0.921973, 0.92288, 0.964562, 0.911007, 0.903028, 0.90405, 0.98021, 0.897891, 1.11269, 1.13603, 0.892888, 0.892264, 0.885983, 0.886704, 0.883001, 0.883589, 0.882298
1.03594, 1.12112, 1.08756, 1.08865, 1.11532, 1.06102, 1.10412, 1.11954, 1.13621, 1.132, 1.132, 1.06391, 1.06576, 1.06782, 1.06862, 1.0742, 1.07406, 1.07873, 1.08064, 1.08226, 1.08494, 1.08975, 1.09378, 1.09402, 1.11564, 1.10125, 1.10078, 1.09959, 1.09896, 1.09493, 1.17021, 1.22919, 1.24456, 1.21668, 1.24353, 1.23652, 1.1095, 1.13733, 1.16611, 1.11083, 1.11132, 1.11161, 1.11225, 1.1128, 1.11305, 1.11354, 1.11364, 1.11417, 1.11429, 1.11449, 1.11453, 1.11463, 1.11455, 1.11401, 1.1153, 1.11452, 1.11414, 1.22962, 1.10839, 1.10792, 1.30886, 1.28515, 1.2867, 1.35784, 1.19605, 1.36428, 1.37713, 1.37654, 1.41781, 1.09553, 1.434, 1.05256, 1.47567, 1.06319, 1.47598, 1.35056, 0.0038721, 0.00381426, 1.0466, 1.00117, 0.995928, 0.995392, 0.995274, 0.994759, 0.991683, 0.990748, 0.988784, 0.989062, 0.989657, 0.990922, 0.990544, 0.990704, 0.983968, 0.984867, 0.985866, 0.986926, 0.988614, 0.986133, 0.98538, 0.98491, 0.981159, 0.982003, 0.98127, 0.980975, 0.980641, 0.980879, 0.980838, 0.9803, 0.976836, 0.976969, 0.976742, 0.978362, 0.981595, 0.979924, 0.975406, 0.974393, 0.976618, 0.97981, 0.980163, 0.980226, 0.980575, 0.0104907, 0.9668, 0.967133, 0.968441, 0.968832, 0.969888, 0.97206, 0.974056, 0.974145, 0.975058, 1.00156, 1.06752, 1.06973, 0.978122, 0.9792, 0.979427, 0.978741, 0.978874, 0.978946, 0.989153, 0.988724, 0.989189, 0.990872, 0.0035121, 0.00335495, 0.00362851, 1.03936, 1.05422, 1.09442, 1.02473, 1.09268, 1.09483, 1.33905, 0.00321592, 1.10273, 0.971543, 1.02924, 1.01503, 1.12364, 0.980086, 0.980303, 0.979899, 0.981774, 0.981556, 0.950882, 0.952318, 0.953359, 0.95153, 0.950768, 0.949887, 0.935097, 0.932405, 0.929832, 0.930702, 0.931757, 0.93322, 0.932753, 0.932566, 0.932549, 0.935694, 0.934393, 0.935484, 0.939025, 0.00342101, 0.955586, 1.01464, 1.01184, 1.00836, 1.01305, 0.00341422, 1.04342, 1.07703, 0.918396, 0.912418, 0.904831, 0.891421, 0.889137, 0.88673, 0.887743, 0.885394, 0.883284, 0.881365, 0.880356, 0.879106, 0.87903, 0.878982, 0.875727, 0.875547, 0.874857, 0.876015, 0.876525, 0.876435, 0.874536, 0.874936, 0.874586, 0.874318, 0.875464, 0.878377, 0.879977, 0.880357, 0.881484, 0.920271, 0.8852, 0.888075, 0.889132, 0.89036, 0.88945, 0.8899, 0.897574, 0.891291, 0.887753, 0.88886, 0.889505, 0.888025, 0.887693, 0.88764, 0.888919, 0.888894, 0.890017, 0.889924, 0.889806, 0.890412, 0.882598, 0.879902, 0.879904, 0.878182, 0.879363, 0.881731, 0.881322, 0.884297, 0.884233, 0.884788, 0.876818, 0.877355, 0.877826, 0.877606, 0.900903, 0.880992, 0.882445, 0.883503, 0.883038, 1.18743, 0.931796, 0.889795, 0.890208, 0.892002, 0.897419, 0.945992, 0.900558, 0.901146, 0.903024, 0.9043, 0.904456, 0.905223, 0.906474, 0.91216, 0.966835, 0.959659, 0.913844, 0.914155, 0.91568, 0.918061, 0.920746, 1.0434, 1.0022, 0.956098, 0.901573, 0.902467, 1.1086, 0.931761, 0.932095, 0.891848, 0.891818, 0.892585, 0.890444, 0.889119, 0.886829, 0.885598, 0.883515
1.08896, 1.09841, 1.11655, 1.05595, 1.05917, 1.05995, 1.1055, 1.10086, 1.07507, 1.06131, 1.0625, 1.06449, 1.06701, 1.06916, 1.07158, 1.07342, 1.07492, 1.07835, 1.0796, 1.08117, 1.16481, 1.08723, 1.09188, 1.09221, 1.19339, 1.19481, 1.09873, 1.09925, 1.09913, 1.09784, 1.21024, 1.17512, 1.22079, 1.22517, 1.19787, 1.24386, 1.14068, 1.25066, 1.31181, 1.24011, 1.11193, 1.11186, 1.1128, 1.11336, 1.11379, 1.11397, 1.11428, 1.1146, 1.1147, 1.11476, 1.1148, 1.11479, 1.11479, 1.11474, 1.11484, 1.11526, 1.11457, 1.2189, 1.34943, 1.10656, 1.1203, 1.11567, 1.28873, 1.08521, 1.30153, 1.3021, 1.3742, 1.3749, 1.05748, 1.05269, 1.05265, 1.05025, 1.55451, 1.46293, 1.03918, 1.42013, 1.42108, 1.14345, 0.00391741, 0.998399, 0.996042, 0.996077, 0.993253, 0.991447, 0.99146, 0.990408, 0.990378, 0.98963, 0.990673, 0.990625, 0.990544, 0.983645, 0.983564, 0.984014, 0.984453, 0.984591, 0.989515, 0.986269, 0.986755, 1.04231, 1.10196, 1.03447, 0.980121, 0.98067, 0.98098, 0.978631, 0.980031, 0.980348, 0.977746, 0.976781, 0.976495, 0.976648, 0.977533, 0.973866, 0.973441, 0.972145, 0.972561, 0.971331, 0.969756, 0.981784, 0.982097, 0.965516, 0.966217, 0.966448, 0.967084, 0.969905, 0.971264, 0.971637, 0.971727, 0.973459, 0.975976, 0.975525, 1.06802, 0.976017, 0.97669, 0.977475, 0.973984, 0.974909, 0.975881, 0.981213, 0.981547, 0.985454, 0.990108, 0.986282, 0.984012, 1.06027, 0.997605, 1.13318, 1.08133, 1.00307, 0.00324243, 1.00079, 0.955045, 1.11092, 1.00435, 1.00544, 1.00904, 1.04372, 0.945548, 0.950579, 0.970374, 0.970309, 0.985347, 0.987135, 0.985678, 0.97922, 0.952564, 0.952477, 0.952334, 0.949208, 0.964485, 0.953236, 0.932373, 0.931668, 0.93113, 0.931718, 0.931421, 0.933842, 0.93344, 0.927632, 1.07034, 0.934095, 0.935143, 1.08446, 1.02506, 1.02578, 1.02514, 1.03048, 1.03688, 1.03943, 1.05309, 0.915427, 0.915128, 0.0034799, 0.920277, 0.904107, 0.888882, 0.888967, 0.883706, 0.884845, 0.884817, 0.879795, 0.879895, 0.880154, 0.878772, 0.878931, 0.880033, 0.875172, 0.8754, 0.876489, 0.87648, 0.87623, 0.874679, 0.873686, 0.871419, 0.871481, 0.872401, 0.877639, 0.879424, 0.880217, 0.881655, 0.882584, 0.884138, 0.884736, 0.891697, 0.888743, 0.890467, 0.890025, 0.889803, 0.889924, 0.889628, 0.890786, 0.888952, 0.888324, 0.888282, 0.887701, 0.888453, 0.888423, 0.887124, 0.88798, 0.889111, 0.889977, 0.890369, 0.879887, 0.881149, 0.877632, 0.878253, 0.879402, 0.876813, 0.881125, 0.884085, 0.885507, 0.886145, 0.88721, 0.878101, 0.87818, 0.878042, 0.879734, 0.880851, 0.881959, 0.882455, 0.883927, 0.884958, 0.887083, 0.889502, 0.89067, 0.89226, 0.999679, 0.929009, 0.949352, 0.897765, 0.902211, 0.899541, 0.903552, 0.903999, 0.90717, 0.907848, 0.94694, 0.949269, 0.913656, 0.91485, 0.915428, 0.916353, 1.01158, 0.984577, 0.904886, 0.906467, 0.908282, 0.901996, 1.09942, 1.08436, 0.89281, 0.893359, 0.891875, 0.892273, 0.891854, 0.888683, 0.888163, 0.886895, 0.883504
1.1171, 1.11642, 1.11256, 1.0803, 1.11428, 1.07126, 1.11295, 1.05807, 1.05854, 1.06194, 1.06283, 1.06497, 1.06762, 1.06958, 1.07099, 1.07578, 1.07769, 1.079, 1.08152, 1.08331, 1.08556, 1.08759, 1.09185, 1.1085, 1.21903, 1.20522, 1.0982, 1.10011, 1.09876, 1.09834, 1.12611, 1.12886, 1.12385, 1.15164, 1.2434, 1.26483, 1.23563, 1.2356, 1.23598, 1.22417, 1.11233, 1.11272, 1.11339, 1.11387, 1.11447, 1.11465, 1.11479, 1.1148, 1.11482, 1.11478, 1.11477, 1.11484, 1.11503, 1.11519, 1.11595, 1.11592, 1.116, 1.22219, 1.35165, 1.1074, 1.12709, 1.10792, 1.17994, 1.3719, 1.45431, 1.08161, 1.38791, 1.37613, 1.37773, 1.39548, 1.04958, 1.04791, 1.40295, 1.31294, 0.00338152, 1.50921, 1.16005, 1.13895, 1.14267, 0.995477, 0.994272, 0.993937, 0.993979, 0.993642, 0.990489, 0.990422, 0.989303, 0.989466, 0.990674, 0.990692, 0.990583, 0.981847, 0.983897, 0.984734, 0.984071, 0.98478, 0.987666, 0.00348687, 1.05266, 1.04351, 1.09891, 1.12769, 0.00358782, 0.00354284, 0.978035, 0.978247, 0.979958, 0.980635, 0.97848, 0.978225, 0.976975, 0.97595, 0.975475, 0.973918, 0.973425, 0.971164, 0.970638, 0.969407, 0.969514, 1.23214, 0.00337902, 0.96542, 0.965246, 0.966313, 0.966468, 0.967664, 0.970505, 0.970062, 0.970927, 0.971308, 0.974232, 0.974785, 0.970139, 0.976756, 0.976348, 0.972355, 0.973723, 0.974168, 0.97553, 0.980714, 0.981583, 0.984964, 0.986493, 0.986913, 0.979882, 1.06594, 1.03014, 1.07695, 0.00352866, 1.10125, 0.959888, 0.950121, 0.952236, 0.939117, 0.937458, 0.937479, 1.04194, 0.991367, 0.988751, 0.948956, 0.968586, 1.06887, 0.986442, 0.986665, 0.987887, 0.983364, 0.982734, 0.949855, 0.949019, 0.94659, 0.946066, 0.952701, 0.933648, 0.92932, 0.930669, 0.931514, 0.931249, 0.929969, 0.927935, 0.928027, 0.928158, 1.07104, 0.928669, 1.03902, 1.02727, 0.972645, 0.997996, 1.03773, 1.03662, 1.03676, 1.04603, 0.921948, 0.920432, 0.919442, 0.925804, 1.05645, 0.889545, 0.885256, 0.882681, 0.882442, 0.880324, 0.880445, 0.880071, 0.879885, 0.87789, 0.878616, 0.878838, 0.875166, 0.876517, 0.875232, 0.876573, 0.874773, 0.879871, 0.870727, 0.870866, 0.873436, 0.872944, 0.878556, 0.880135, 0.879853, 0.881347, 0.882504, 0.883436, 0.883981, 0.884274, 0.887655, 0.88701, 0.887979, 0.8892, 0.890377, 0.889546, 0.891188, 0.891064, 0.89049, 0.889527, 0.890517, 0.888545, 0.887744, 0.887, 0.888091, 0.889077, 0.890453, 0.890348, 0.890168, 0.880003, 0.879187, 0.875391, 0.875479, 0.876605, 0.907631, 0.8837, 0.884901, 0.885697, 0.967347, 0.8754, 0.875852, 0.876504, 0.878451, 0.880634, 0.882281, 0.884039, 0.883935, 0.886123, 0.887744, 0.888821, 0.889955, 0.890523, 0.92755, 1.00064, 0.932046, 0.896974, 0.89878, 0.89996, 0.902147, 0.902868, 0.904671, 0.960977, 0.909244, 0.911086, 0.912664, 0.913733, 0.915213, 0.917004, 1.01092, 1.00626, 0.905733, 0.907359, 0.903396, 0.902538, 0.894105, 0.895856, 0.893464, 0.891574, 0.891935, 0.892383, 0.89122, 0.889985, 0.887999, 0.884171, 0.882975
1.03912, 1.03928, 1.04433, 1.04657, 1.04811, 1.11258, 1.05248, 1.05467, 1.05771, 1.06204, 1.06353, 1.06424, 1.13327, 1.07038, 1.07174, 1.07444, 1.07753, 1.08002, 1.08127, 1.08373, 1.08581, 1.15808, 1.15384, 1.16719, 1.22451, 1.24347, 1.18414, 1.1, 1.09907, 1.0989, 1.18451, 1.19523, 1.13188, 1.25362, 1.15091, 1.22861, 1.17472, 1.17583, 1.15413, 1.23229, 1.11507, 1.11269, 1.11388, 1.11444, 1.11479, 1.11483, 1.11487, 1.11503, 1.11497, 1.11501, 1.11505, 1.11532, 1.11555, 1.11584, 1.11549, 1.11538, 1.11577, 1.19335, 1.23356, 1.22664, 1.11416, 1.10883, 1.31296, 1.34472, 1.1163, 1.0714, 1.0688, 1.37961, 1.05565, 1.05584, 1.5247, 0.00320611, 1.55128, 1.04212, 1.47249, 0.00329001, 1.51934, 1.13785, 1.1428, 1.08552, 0.993674, 0.992464, 0.992282, 0.994997, 0.991329, 0.9886, 0.988209, 0.988508, 0.997567, 0.985898, 0.987771, 0.985735, 0.982849, 0.982891, 0.983202, 0.982996, 0.982911, 0.00356487, 0.988943, 1.03681, 1.04105, 1.04169, 1.14259, 0.968953, 0.969876, 1.12733, 0.988482, 0.977614, 0.977609, 0.978564, 0.972273, 0.972168, 0.973148, 0.973237, 0.971394, 0.970278, 0.969443, 0.969555, 0.969972, 0.970538, 1.0223, 1.01141, 0.964078, 0.966251, 0.966284, 0.967852, 0.968965, 0.969064, 0.970549, 0.971962, 0.97055, 0.970286, 0.969931, 0.971643, 0.973436, 0.972533, 0.970817, 0.971501, 0.97488, 0.975648, 0.982424, 0.980637, 0.980491, 1.06273, 1.04408, 0.975249, 1.06637, 1.05298, 1.09589, 0.00343825, 0.964143, 1.01867, 0.936196, 0.936484, 0.933229, 0.930225, 1.04081, 1.01821, 0.992012, 0.991943, 0.983652, 0.983906, 0.985776, 0.987114, 0.984154, 0.984524, 1.00809, 1.11643, 0.977446, 1.07207, 1.07024, 1.03185, 0.927678, 0.927096, 0.927044, 0.931626, 1.14714, 1.14666, 0.925853, 0.927434, 1.08215, 0.92578, 0.927181, 0.927956, 1.0412, 1.04089, 1.03956, 1.04655, 1.02522, 1.04712, 0.978337, 0.932829, 0.908683, 0.00350355, 0.928879, 0.00369457, 0.00377551, 0.885539, 0.883246, 0.882978, 0.881256, 0.881034, 0.879895, 0.879955, 0.878005, 0.878939, 0.879696, 0.875698, 0.876375, 0.874261, 0.87478, 0.884917, 0.871043, 0.883219, 0.88466, 0.884878, 0.873684, 1.14632, 1.14944, 0.880418, 0.878976, 0.879335, 0.883401, 0.885426, 0.884951, 0.887617, 0.887288, 0.886954, 0.887653, 0.890654, 0.891209, 0.892054, 0.89204, 0.891741, 0.891519, 0.890284, 0.890581, 0.886746, 0.887141, 0.887363, 0.888433, 0.890021, 0.890416, 0.897591, 0.887874, 0.87784, 0.878061, 0.877004, 0.877346, 0.877778, 0.884443, 0.88806, 0.88173, 0.879804, 0.880027, 0.876599, 0.877788, 0.878298, 0.884349, 0.884468, 0.88377, 1.00798, 0.911863, 0.888093, 0.888572, 0.888337, 0.890482, 0.931047, 0.93452, 0.895523, 0.897478, 0.898425, 0.899862, 0.901282, 0.903261, 0.904097, 0.90567, 0.906364, 0.910695, 0.91164, 0.912953, 0.909725, 0.910881, 1.01278, 0.987569, 0.90173, 0.902382, 0.903431, 0.964965, 0.89432, 0.894088, 0.894347, 0.892025, 0.892895, 0.89247, 0.888249, 0.888879, 0.889015, 0.886257, 0.883917
1.03776, 1.11733, 1.11726, 1.0474, 1.04779, 1.04804, 1.05376, 1.05531, 1.05733, 1.05945, 1.06133, 1.06654, 1.0674, 1.07081, 1.07258, 1.07574, 1.07839, 1.08039, 1.08366, 1.08481, 1.14987, 1.08841, 1.12326, 1.17791, 1.2131, 1.18551, 1.2098, 1.12495, 1.10014, 1.25209, 1.21218, 1.21562, 1.13348, 1.23976, 1.23819, 1.21586, 1.25008, 1.23251, 1.11717, 1.11793, 1.11729, 1.11492, 1.11489, 1.1147, 1.11495, 1.11503, 1.11524, 1.11538, 1.11545, 1.11547, 1.11558, 1.11572, 1.11599, 1.11627, 1.11661, 1.11651, 1.11642, 1.20214, 1.2252, 1.14628, 1.1468, 1.1151, 0.00368668, 1.10529, 1.155, 1.15215, 1.51682, 1.38149, 1.45751, 1.57843, 1.48563, 1.11633, 0.00350741, 1.47522, 1.03206, 0.0112803, 1.32614, 0.0108827, 1.11943, 1.09896, 0.993828, 0.992428, 0.991241, 0.99072, 0.991411, 0.990039, 0.989146, 0.98833, 0.984866, 0.985261, 0.986607, 0.985931, 0.98182, 0.982171, 0.982053, 0.981596, 0.98036, 0.978872, 0.00334176, 1.10441, 1.04205, 1.14052, 1.14634, 0.969316, 0.969598, 0.973304, 0.974818, 0.976436, 0.976535, 0.976456, 0.972486, 0.973039, 0.972998, 0.970752, 0.970473, 0.969613, 0.969789, 0.968953, 0.970027, 0.973176, 0.97335, 0.962105, 0.96354, 0.963335, 0.965405, 0.965157, 0.966592, 0.967684, 0.97026, 0.971493, 0.970457, 0.969246, 0.970064, 0.970503, 0.972333, 0.972242, 0.971505, 0.971826, 0.973617, 0.978199, 0.978689, 0.97825, 0.974924, 0.974286, 0.971187, 0.97086, 0.971511, 1.10183, 1.08924, 0.954285, 0.951194, 0.937597, 0.93765, 0.938746, 0.92547, 0.927411, 1.04032, 0.956634, 0.941741, 0.98635, 0.98969, 0.988149, 0.989282, 0.990832, 0.988755, 1.00071, 1.11688, 0.944833, 0.998348, 0.990768, 0.98443, 0.934644, 0.927251, 0.927068, 0.927306, 0.925697, 0.925702, 1.09217, 1.00819, 0.920388, 0.924568, 1.08553, 0.923011, 1.06778, 0.956209, 1.04973, 1.05146, 1.04985, 0.972058, 1.0592, 1.05577, 0.00363486, 0.00344972, 0.928493, 1.07024, 1.0687, 0.983458, 0.883778, 0.881338, 0.879956, 0.880527, 0.880971, 0.880707, 0.877855, 0.877549, 0.879208, 0.876655, 0.876716, 0.875172, 0.874313, 0.873051, 0.864257, 0.863054, 0.86031, 0.862769, 0.871203, 0.870722, 0.871938, 0.874837, 0.876355, 0.87837, 0.87933, 0.881163, 0.884717, 0.886832, 0.887268, 0.887205, 0.886787, 0.887629, 0.888154, 0.8911, 0.893241, 0.89373, 0.893517, 0.892509, 0.891424, 0.890213, 0.887572, 0.887585, 0.887775, 0.888758, 0.889429, 0.888894, 0.888549, 0.895206, 0.877769, 0.878032, 0.877079, 0.877263, 0.876619, 0.876485, 0.88779, 0.882969, 0.880332, 0.879847, 0.87737, 0.877374, 0.878396, 0.879963, 0.88328, 0.883282, 0.884097, 0.88789, 0.889643, 0.890879, 0.890488, 0.89156, 0.891754, 0.89561, 0.896185, 0.897144, 0.895458, 0.898572, 0.899725, 0.902074, 0.903251, 0.907559, 0.967209, 0.908299, 0.908332, 0.908199, 0.908698, 0.90784, 0.908924, 0.908674, 0.901991, 0.904281, 0.901054, 0.901449, 0.971183, 0.895054, 0.894495, 0.893513, 0.89143, 0.886688, 0.885692, 0.887699, 0.883743, 0.886599, 0.886571
1.03655, 1.11644, 1.11902, 1.04609, 1.04578, 1.04654, 1.05137, 1.0531, 1.05657, 1.05931, 1.05918, 1.06511, 1.06827, 1.07098, 1.07278, 1.07463, 1.07896, 1.08203, 1.08452, 1.0855, 1.08709, 1.0864, 1.12095, 1.11557, 1.11527, 1.19477, 1.16703, 1.12513, 1.21707, 1.18866, 1.1985, 1.21608, 1.21737, 1.18755, 1.21632, 1.12489, 1.23664, 1.11827, 1.11841, 1.11967, 1.11537, 1.1159, 1.11569, 1.11576, 1.11568, 1.11578, 1.11552, 1.11598, 1.11615, 1.11611, 1.11609, 1.11605, 1.11613, 1.11636, 1.11621, 1.11598, 1.34551, 1.21892, 1.28868, 1.32446, 1.25449, 1.25337, 1.09847, 1.10284, 1.5098, 1.15445, 1.14989, 1.37988, 1.53024, 1.0526, 1.04837, 1.38452, 1.40474, 1.50655, 1.32002, 0.00360965, 1.05149, 1.0839, 1.16108, 1.1594, 0.998565, 0.994755, 0.992927, 0.991071, 0.990454, 0.990354, 0.989917, 0.987133, 0.986868, 0.985599, 0.985942, 0.984387, 0.982735, 0.981217, 0.98248, 0.978685, 0.978398, 0.978596, 0.974051, 0.00378245, 1.03632, 1.04846, 0.966929, 0.00336857, 0.967275, 1.00513, 1.3265, 0.974602, 0.973519, 0.980351, 0.971481, 0.970572, 0.971829, 0.968936, 0.97003, 0.970246, 0.969694, 0.969601, 0.97254, 0.972109, 0.97218, 0.971763, 0.963945, 0.963087, 0.96471, 0.965259, 0.966025, 0.966346, 0.966347, 0.966397, 0.968815, 0.969984, 0.969665, 0.96961, 0.96974, 0.973357, 0.972914, 0.970393, 0.970782, 0.974181, 0.976681, 0.977249, 0.974954, 0.974454, 0.971937, 0.972455, 0.973362, 1.08642, 1.08649, 0.953629, 1.03368, 0.936191, 0.938932, 0.939045, 0.927246, 0.927871, 0.928414, 0.935474, 0.957569, 1.00151, 0.939923, 0.988874, 0.991582, 0.998333, 0.940449, 0.941767, 1.11876, 0.940913, 0.941075, 0.991996, 0.991874, 1.02317, 0.927549, 0.926392, 0.926015, 0.925446, 0.922795, 0.920105, 0.918449, 1.09204, 1.09006, 1.08615, 1.08076, 0.00346444, 0.911577, 1.05327, 1.01286, 0.953444, 0.983511, 1.02033, 1.06052, 0.00343826, 0.914659, 1.11573, 0.917987, 0.918573, 0.919028, 0.884017, 0.88087, 0.881423, 0.882073, 0.880524, 0.880161, 0.879211, 0.878528, 0.877001, 0.876652, 0.87577, 0.873669, 0.881657, 0.867913, 0.864135, 0.863282, 0.861241, 0.862666, 0.870253, 0.871145, 0.871614, 0.873262, 0.876769, 0.878226, 0.880171, 0.880582, 0.885157, 0.886495, 0.886749, 0.886082, 0.885969, 0.887501, 0.88846, 0.890415, 0.89238, 0.893737, 0.892865, 0.893241, 0.891383, 0.890895, 0.888255, 0.888869, 0.890184, 0.888447, 0.887519, 0.889048, 0.885773, 0.892851, 0.873576, 0.876518, 0.875978, 0.875944, 0.876725, 0.877256, 0.879187, 0.877179, 0.877668, 0.87706, 0.875033, 0.876451, 0.877563, 0.87868, 0.879845, 0.881618, 0.885464, 0.889724, 0.890257, 0.890851, 0.892816, 0.891529, 0.892293, 0.894217, 0.89643, 0.896455, 0.897696, 0.897923, 0.896884, 0.897137, 0.899106, 0.903829, 0.903971, 0.903962, 0.973515, 0.90626, 0.907262, 0.907715, 0.985558, 0.995866, 0.977353, 0.899981, 0.900675, 0.900965, 1.04313, 0.895476, 1.09441, 1.07514, 0.887008, 0.887569, 0.886604, 0.886099, 0.881316, 0.882948, 0.885935
1.03418, 1.06355, 1.07702, 1.04539, 1.04545, 1.05155, 1.05178, 1.05295, 1.05687, 1.05828, 1.05969, 1.06678, 1.06879, 1.07047, 1.07272, 1.07453, 1.07718, 1.08119, 1.08384, 1.08701, 1.08652, 1.0864, 1.16794, 1.15817, 1.17013, 1.12967, 1.20099, 1.19112, 1.19094, 1.2218, 1.19139, 1.15709, 1.15719, 1.12942, 1.20349, 1.20362, 1.20209, 1.1186, 1.11866, 1.11877, 1.1163, 1.11624, 1.11569, 1.11627, 1.11642, 1.11637, 1.11658, 1.1165, 1.11649, 1.1164, 1.11622, 1.11609, 1.11591, 1.11568, 1.11542, 1.11504, 1.11297, 1.23709, 1.32563, 1.32008, 1.2502, 1.15716, 0.00378499, 0.00361569, 0.00345366, 1.17932, 1.22437, 1.20413, 1.05933, 1.39837, 1.49638, 1.38582, 1.13951, 1.31705, 1.02829, 1.02835, 1.42507, 1.19949, 0.00376816, 1.15425, 1.00934, 0.999162, 0.992463, 0.992809, 0.991699, 0.990781, 0.987076, 0.987116, 0.987226, 0.987032, 0.986099, 0.984788, 0.98368, 0.98088, 0.982307, 0.980622, 0.977181, 0.975888, 0.974819, 0.00335762, 0.00364015, 0.963768, 1.15343, 0.00381769, 0.966439, 1.00628, 0.97061, 0.970737, 0.976229, 0.97111, 0.971195, 0.970294, 0.970535, 0.970307, 0.971891, 0.969992, 0.968979, 0.969551, 0.973212, 0.972928, 0.970443, 0.968176, 0.962759, 0.962184, 0.964525, 0.966362, 0.966291, 0.966593, 0.966687, 0.966198, 0.96497, 0.965601, 0.968991, 0.967391, 0.96755, 0.972031, 0.973475, 0.970281, 0.970216, 0.972283, 0.976358, 0.976767, 0.975773, 0.972751, 0.971868, 0.972416, 0.972794, 1.10871, 1.1089, 1.21614, 1.21601, 0.93576, 0.934719, 1.01829, 0.928416, 0.928105, 0.926598, 0.926188, 0.936432, 1.00519, 1.00447, 0.939083, 0.938438, 0.938767, 0.939224, 1.01413, 1.0225, 1.02521, 0.00344754, 0.0108812, 1.04291, 0.989128, 0.92707, 0.925044, 1.10004, 0.919348, 0.918291, 0.916062, 0.917139, 0.916383, 0.914953, 0.91038, 0.911334, 0.914724, 0.910414, 1.00041, 1.04952, 1.04823, 0.908508, 1.0604, 1.04326, 0.00345864, 0.00373906, 0.919058, 0.942818, 0.88465, 0.884863, 0.884605, 0.881735, 0.880945, 0.880658, 0.880332, 0.880562, 0.877914, 0.877982, 0.87685, 0.878228, 0.879024, 0.877161, 0.866967, 0.868041, 0.866271, 0.865364, 0.860981, 0.865395, 0.87034, 0.869699, 0.871427, 0.873034, 0.876534, 0.876366, 0.876081, 0.876502, 0.00379711, 0.0037253, 0.904819, 1.20901, 0.886685, 0.886977, 0.886703, 0.889357, 0.892227, 0.894281, 0.893829, 0.893562, 0.892807, 0.889587, 0.887833, 0.888545, 0.887944, 0.887159, 0.88655, 0.886977, 0.886832, 0.87579, 0.87561, 0.875605, 0.876793, 0.872584, 0.868823, 0.872191, 0.872205, 0.876529, 0.875752, 0.876624, 0.873236, 0.87469, 0.877218, 0.877773, 0.880456, 0.881879, 0.883889, 0.885015, 0.889637, 0.891441, 0.892448, 0.892326, 0.893914, 0.893864, 0.894218, 0.895362, 0.89674, 0.897391, 0.897655, 0.897909, 0.897578, 0.898201, 0.904325, 0.901745, 0.902882, 0.905824, 0.906742, 0.893562, 0.950211, 0.991326, 0.900054, 0.900596, 0.900681, 0.896837, 1.0446, 0.891047, 1.09486, 1.11793, 0.884827, 0.885347, 0.885394, 0.886753, 0.884253, 0.883699, 0.8832
1.07438, 1.03836, 1.03979, 1.04175, 1.04397, 1.04787, 1.04872, 1.05395, 1.0554, 1.05961, 1.06124, 1.06401, 1.13831, 1.13631, 1.0729, 1.074, 1.07734, 1.08043, 1.08341, 1.0846, 1.08449, 1.08775, 1.17038, 1.15122, 1.18579, 1.16682, 1.12411, 1.17133, 1.21061, 1.22046, 1.10638, 1.10757, 1.15747, 1.22971, 1.22317, 1.19665, 1.1186, 1.11901, 1.11902, 1.11884, 1.11846, 1.11813, 1.1177, 1.11766, 1.11664, 1.11714, 1.11708, 1.11683, 1.11674, 1.11673, 1.11659, 1.11616, 1.11573, 1.115, 1.11515, 1.11371, 1.23324, 1.23909, 1.24826, 1.25382, 1.10466, 1.15665, 1.26382, 1.1691, 0.00350684, 1.09067, 1.32547, 1.16173, 1.16704, 1.39762, 1.09956, 1.38583, 1.55509, 0.0033904, 1.02613, 1.02559, 1.02554, 0.00338947, 1.13667, 0.00340624, 0.00364206, 0.99698, 0.994281, 0.993451, 0.992247, 0.992056, 0.985997, 0.984665, 0.986313, 0.986393, 0.986995, 0.98492, 0.983602, 0.983506, 0.979009, 0.978387, 0.977052, 0.974013, 0.00347436, 0.00344044, 1.02937, 1.03261, 1.01814, 1.79651, 1.01431, 1.01485, 0.966034, 0.966621, 0.966298, 0.96885, 0.968914, 0.968462, 0.969727, 0.969681, 0.969725, 0.969707, 0.968653, 0.969522, 0.970768, 0.969935, 0.969494, 0.969114, 0.963533, 0.963198, 0.963951, 0.965308, 0.964586, 0.965655, 0.964982, 0.963872, 0.96558, 0.968652, 0.968999, 0.967757, 0.968581, 0.970726, 0.970283, 0.97042, 0.970437, 0.973792, 0.974712, 0.976983, 0.977247, 0.973525, 0.972552, 0.972363, 0.972447, 0.971381, 1.04633, 1.2163, 1.21544, 1.21592, 1.01547, 1.02115, 0.92596, 0.924623, 0.924825, 0.925218, 1.01282, 0.936757, 0.936231, 0.936455, 0.936339, 0.936203, 0.93742, 0.937268, 1.03298, 0.00317457, 1.04743, 0.928445, 0.928742, 0.927853, 0.990701, 0.995051, 0.928255, 0.982455, 0.916035, 0.916121, 0.916006, 0.91492, 0.911397, 0.910412, 0.910346, 0.907426, 0.907155, 0.901729, 0.901348, 1.04963, 1.04768, 0.965058, 1.06971, 1.06624, 0.882583, 0.942689, 0.943568, 0.884756, 0.883389, 0.883732, 0.883107, 0.881551, 0.881007, 0.88037, 0.880722, 0.880074, 0.878493, 0.877585, 0.879223, 0.879735, 0.876886, 0.876092, 0.87387, 0.86722, 0.867861, 0.869828, 1.23275, 0.876846, 0.870637, 0.871213, 0.874602, 0.876238, 0.875908, 0.874724, 0.875185, 0.876867, 0.0109538, 1.2045, 1.20921, 1.20818, 0.883972, 0.886925, 0.886904, 0.891314, 0.893174, 0.893651, 0.89289, 0.890699, 0.89059, 0.888928, 0.887016, 0.886144, 0.886324, 0.885836, 0.884144, 0.884166, 0.872788, 0.869703, 0.871279, 0.872493, 0.872796, 0.871342, 0.872253, 0.872493, 0.873782, 0.876388, 0.876319, 0.872329, 0.873056, 0.873728, 0.875408, 0.878177, 0.882427, 0.884493, 0.886775, 0.889925, 0.890719, 0.891984, 0.892205, 0.892264, 0.893863, 0.894854, 0.895486, 0.894356, 0.893928, 0.893863, 0.896301, 0.898167, 0.899077, 0.896969, 0.898487, 0.900674, 0.901354, 0.901549, 0.901793, 0.897804, 0.898589, 0.90038, 0.900486, 0.899316, 0.898469, 1.07554, 1.09126, 0.883789, 1.09881, 0.883642, 0.883759, 0.883384, 0.886522, 0.885273, 0.883748, 0.883326
1.0363, 1.03736, 1.03875, 1.03986, 1.04376, 1.04727, 1.04932, 1.12534, 1.05456, 1.06061, 1.06096, 1.0908, 1.13879, 1.16097, 1.07356, 1.07719, 1.07686, 1.15523, 1.15392, 1.09812, 1.14269, 1.15422, 1.18025, 1.09317, 1.09433, 1.09529, 1.09829, 1.10016, 1.10241, 1.10437, 1.10475, 1.10612, 1.21265, 1.21648, 1.22558, 1.21492, 1.11847, 1.11822, 1.11918, 1.11952, 1.1198, 1.11853, 1.11852, 1.11822, 1.11769, 1.11791, 1.11766, 1.11735, 1.11743, 1.11727, 1.1168, 1.11622, 1.11552, 1.11505, 1.11417, 1.11389, 1.1129, 1.21123, 1.10944, 1.23712, 1.10546, 1.24628, 1.15307, 1.3103, 1.27806, 1.3826, 1.27265, 1.16063, 1.06723, 1.07496, 1.38608, 1.27156, 1.30262, 0.0108622, 1.02496, 1.02529, 1.02592, 1.37404, 1.15771, 1.15767, 0.00348276, 1.53489, 0.993808, 0.98977, 0.990684, 0.987164, 0.987137, 0.986125, 0.986033, 0.986615, 0.986996, 0.984422, 0.982717, 0.982427, 0.981916, 0.979112, 0.977436, 0.97483, 0.00347327, 0.0106906, 1.02943, 1.03117, 1.16927, 1.01847, 1.01852, 0.964371, 0.967029, 0.966775, 0.967536, 0.969071, 0.969144, 0.969956, 0.969829, 0.970146, 0.969875, 0.967965, 0.96816, 0.968998, 0.970302, 0.96967, 0.969795, 0.968501, 0.961318, 0.960961, 0.964576, 0.964416, 0.964447, 0.963698, 0.964588, 0.96497, 0.965457, 0.968805, 0.969662, 0.967028, 0.968092, 0.968913, 0.96963, 0.9694, 0.970552, 0.973104, 0.975852, 0.976902, 0.97831, 0.973307, 0.973776, 0.973149, 1.07003, 1.05488, 0.953329, 0.948033, 1.04671, 1.03509, 1.02078, 1.12747, 0.924051, 0.925071, 0.925079, 0.925452, 0.00345455, 0.934918, 0.935645, 0.935611, 0.935434, 0.936648, 1.01257, 1.02513, 1.02606, 0.0035511, 0.924149, 0.92282, 0.92331, 1.06347, 0.92596, 0.995533, 0.93011, 0.908941, 0.909401, 0.914663, 0.914243, 0.913406, 0.912063, 0.910205, 0.906362, 0.9054, 0.903943, 0.901242, 0.900782, 1.06023, 1.04036, 0.886983, 0.883717, 0.882789, 0.882999, 0.880394, 0.883087, 0.883165, 0.883445, 0.883429, 0.882347, 0.881835, 0.881615, 0.881986, 0.880818, 0.876838, 0.879271, 0.87818, 0.879225, 0.878784, 0.878101, 0.876272, 0.868292, 0.868385, 0.868036, 0.872085, 0.872128, 0.871767, 0.871751, 0.871131, 0.87323, 0.873118, 0.87309, 0.874709, 0.877407, 0.875741, 0.877196, 0.87671, 0.89384, 0.89345, 0.88319, 0.884541, 0.884881, 0.886482, 0.892123, 0.891402, 0.890042, 0.89051, 0.887766, 0.884221, 0.883812, 0.884378, 0.884618, 0.883106, 0.88305, 0.882933, 0.880795, 0.871075, 0.871714, 0.872287, 0.874515, 0.8745, 0.872154, 0.873005, 0.873667, 0.875563, 0.876258, 0.873785, 0.873231, 0.873143, 0.874429, 0.890545, 0.880258, 0.91036, 0.914657, 0.887642, 0.928748, 0.89083, 0.891513, 0.892312, 0.893185, 0.89407, 0.894439, 0.892836, 0.892722, 0.894061, 0.89435, 0.894012, 0.894168, 0.89473, 0.897686, 0.900833, 0.902499, 0.901039, 0.900374, 0.899637, 0.900123, 0.897651, 0.898291, 0.897269, 0.89012, 0.890534, 0.89012, 0.883729, 0.87769, 0.881221, 0.88315, 0.882778, 0.884262, 0.883261, 0.882502, 0.883409
1.03391, 1.03741, 1.03874, 1.03891, 1.11979, 1.04835, 1.04994, 1.05304, 1.05677, 1.0583, 1.06331, 1.12365, 1.10596, 1.07002, 1.07058, 1.0746, 1.07757, 1.12352, 1.09168, 1.14164, 1.1477, 1.15803, 1.08868, 1.0924, 1.0933, 1.09552, 1.09673, 1.09883, 1.16676, 1.13585, 1.10611, 1.10676, 1.16448, 1.16028, 1.15235, 1.13629, 1.11897, 1.11846, 1.1188, 1.12103, 1.12072, 1.11949, 1.11957, 1.11847, 1.11825, 1.11824, 1.11826, 1.11824, 1.11795, 1.11732, 1.117, 1.11615, 1.11588, 1.11488, 1.11523, 1.11476, 1.11399, 1.16361, 1.2122, 1.23981, 1.25092, 1.25378, 1.11956, 1.34779, 1.37956, 0.00347997, 1.39655, 1.44379, 1.35146, 1.39161, 1.39538, 1.08543, 1.0553, 0.00339447, 1.03209, 1.02532, 1.02524, 0.00365879, 1.12302, 1.15334, 0.00351202, 1.48723, 0.990473, 0.990475, 0.990279, 0.987313, 0.987178, 0.987556, 0.987292, 0.986909, 0.986242, 0.985234, 0.981961, 0.983068, 0.982311, 0.982256, 0.978219, 0.97681, 0.0037586, 0.00344783, 1.02979, 0.961567, 0.959981, 0.960013, 0.0033764, 0.00347324, 0.966096, 0.967617, 0.967622, 0.967836, 0.968862, 0.968667, 0.970031, 0.969346, 0.969579, 0.968699, 0.968027, 0.969889, 0.970149, 0.970019, 0.971819, 0.963822, 0.963966, 0.961079, 0.962855, 0.964553, 0.963629, 0.963364, 0.961038, 0.964892, 0.965982, 0.966305, 0.967089, 0.966648, 0.969535, 0.970844, 0.970636, 0.970265, 0.971924, 0.973398, 0.973124, 0.974481, 1.07913, 1.00331, 0.971344, 1.0543, 1.07253, 1.07398, 0.95236, 1.04338, 1.04038, 1.03394, 0.936846, 0.93618, 0.936318, 0.925172, 0.923491, 0.923112, 1.01184, 0.934064, 0.934496, 0.935424, 0.979005, 0.933093, 0.934504, 0.934463, 0.0110163, 0.924715, 0.924947, 0.923439, 0.923492, 0.914036, 0.91477, 0.914937, 0.914803, 0.909559, 0.910265, 0.91227, 0.913209, 0.911486, 0.911072, 0.908368, 0.907044, 0.904083, 0.90295, 0.901232, 0.901029, 1.02864, 0.887925, 0.883501, 0.883747, 0.880807, 0.881057, 0.880301, 0.881789, 0.88312, 0.883183, 0.883103, 0.883467, 0.88367, 0.883475, 0.882241, 0.881032, 0.877387, 0.878338, 0.878469, 0.875839, 0.875752, 0.87723, 0.87696, 0.87039, 0.867702, 0.974108, 0.874943, 0.874056, 0.872915, 0.873305, 0.873749, 0.871441, 0.873254, 0.872231, 0.87392, 0.875734, 0.877203, 0.877308, 0.876457, 0.876018, 0.876904, 0.882924, 0.883958, 0.885501, 0.885427, 0.894497, 0.88957, 0.889935, 0.889998, 0.886602, 0.887017, 0.883695, 0.883115, 0.883173, 0.882656, 0.881157, 0.880851, 0.880321, 0.880223, 0.876936, 0.875247, 0.875573, 0.874938, 0.874221, 0.873381, 0.874735, 0.876384, 0.87659, 0.874512, 0.871554, 0.871049, 0.870453, 0.894338, 0.00388696, 0.00323888, 0.909436, 0.928898, 0.89034, 0.936648, 0.93331, 0.934121, 0.892518, 0.892518, 0.89336, 0.891679, 0.891769, 0.89103, 0.894038, 0.893827, 0.894497, 0.895391, 0.901443, 0.899991, 0.901696, 0.90169, 0.898122, 0.898307, 0.895481, 0.898717, 0.898228, 0.899401, 0.891419, 0.891399, 1.11462, 1.11441, 0.877682, 0.879367, 1.14943, 0.881414, 0.885068, 0.885993, 0.887487, 0.888798
1.03495, 1.03552, 1.03893, 1.03893, 1.04403, 1.04388, 1.04966, 1.05387, 1.05691, 1.05751, 1.05734, 1.13908, 1.13965, 1.06722, 1.07196, 1.07404, 1.12209, 1.08704, 1.12252, 1.16528, 1.1791, 1.08583, 1.1559, 1.16798, 1.09161, 1.1673, 1.16651, 1.0965, 1.09999, 1.10348, 1.10473, 1.20467, 1.14973, 1.21905, 1.20916, 1.11829, 1.11842, 1.11815, 1.11937, 1.12095, 1.12168, 1.11991, 1.11916, 1.11859, 1.11848, 1.11836, 1.11844, 1.11936, 1.11818, 1.11778, 1.11705, 1.11632, 1.11548, 1.11489, 1.11518, 1.11502, 1.11367, 1.11257, 1.1105, 1.25165, 1.10788, 1.24634, 1.15943, 1.15976, 1.29862, 1.09194, 1.40167, 1.40862, 1.07581, 1.4444, 1.06788, 1.40707, 1.47596, 1.03248, 1.03255, 1.03306, 0.00337463, 1.10262, 0.00357777, 0.0109438, 0.00368879, 1.14057, 0.99081, 0.989926, 0.987534, 0.98872, 0.987894, 0.989158, 0.9886, 0.987647, 0.986676, 0.986096, 0.985828, 0.979293, 0.98033, 0.97835, 0.978163, 0.97541, 1.0846, 1.08411, 1.03183, 0.961982, 0.956547, 1.04242, 1.03498, 0.959414, 0.970046, 0.97349, 0.966421, 0.966558, 0.968814, 0.969463, 0.970456, 0.970664, 0.970039, 0.970056, 0.968361, 0.968868, 0.969753, 0.970995, 0.971583, 0.971028, 0.962531, 0.962714, 0.963587, 0.963455, 0.963494, 0.962706, 0.963172, 0.963368, 0.9635, 0.966255, 0.965642, 0.967542, 0.967809, 0.972571, 0.971094, 0.969943, 0.971432, 0.971853, 0.971017, 0.972255, 1.07902, 1.08137, 1.02223, 1.09445, 1.11212, 0.976847, 1.22804, 0.953469, 0.966217, 1.03286, 0.936177, 0.935908, 0.936168, 0.994565, 0.921893, 0.922671, 0.92262, 0.985904, 0.932398, 0.932498, 0.933184, 0.9331, 0.933556, 0.00380803, 1.0395, 0.927873, 0.924961, 0.924634, 0.918435, 0.913408, 0.914999, 0.914942, 0.915149, 0.913425, 0.912662, 0.912965, 0.912686, 0.911746, 0.909696, 0.907366, 0.904893, 0.903797, 0.901281, 0.900951, 0.901123, 1.03173, 0.973683, 0.882476, 0.880942, 0.880104, 0.879803, 0.877872, 0.879236, 0.880112, 0.882051, 0.883087, 0.884664, 0.884217, 0.884059, 0.88207, 0.87956, 0.880315, 0.877136, 0.8782, 0.874708, 0.874747, 0.878517, 0.876825, 0.876955, 0.875332, 0.874956, 0.875538, 0.876693, 0.872812, 0.874093, 0.872978, 0.872965, 0.871683, 0.872265, 0.87315, 0.873772, 0.876066, 0.876644, 0.87701, 0.87649, 1.09173, 0.880655, 0.883554, 0.884165, 0.885164, 0.897061, 0.941271, 0.884608, 0.88506, 0.884087, 0.88311, 0.883032, 0.878611, 0.879254, 0.880689, 0.880445, 0.881032, 0.880565, 0.878581, 0.878202, 0.878564, 0.878336, 0.87552, 0.872899, 0.873756, 0.874584, 0.87613, 0.876439, 0.873006, 0.872972, 0.868563, 0.868842, 0.894178, 0.00361937, 1.22664, 0.911082, 0.885924, 0.929522, 0.933292, 0.934015, 0.933435, 0.934443, 0.935342, 0.887189, 0.889246, 0.890878, 0.893732, 0.890984, 0.89298, 0.893571, 0.894175, 0.894884, 0.981285, 0.96848, 0.967378, 0.897375, 0.894151, 0.894905, 0.896151, 0.899314, 0.8993, 0.894279, 0.890501, 1.08277, 0.875148, 0.878447, 0.878398, 0.874565, 1.17117, 0.886249, 0.887806, 0.888743, 0.888224
1.03342, 1.03306, 1.03354, 1.0401, 1.04306, 1.04683, 1.05024, 1.05115, 1.05694, 1.05708, 1.08907, 1.13749, 1.06444, 1.06774, 1.0697, 1.07275, 1.16138, 1.15551, 1.10086, 1.14158, 1.16173, 1.08249, 1.08235, 1.08516, 1.08856, 1.14879, 1.09287, 1.09315, 1.09586, 1.17417, 1.10372, 1.10733, 1.10804, 1.10929, 1.1142, 1.11607, 1.11779, 1.12009, 1.12136, 1.1219, 1.1222, 1.12211, 1.12258, 1.2773, 1.11873, 1.11859, 1.11921, 1.12095, 1.11841, 1.11812, 1.11748, 1.11767, 1.11722, 1.2256, 1.22652, 1.11511, 1.11415, 1.1129, 1.2411, 1.21259, 1.24735, 1.24543, 1.24439, 1.23969, 1.29927, 1.29642, 1.2947, 1.25282, 1.07666, 1.37462, 1.05857, 1.40283, 1.38868, 1.03229, 1.03273, 1.03293, 1.02783, 1.02767, 1.13335, 1.13002, 0.00351535, 0.00355124, 1.15041, 1.14827, 0.991249, 0.991269, 0.993185, 0.991814, 0.989013, 0.988782, 0.989952, 0.989099, 0.989236, 0.980397, 0.980087, 0.97832, 0.978493, 0.00351769, 0.973919, 0.00328598, 0.00360897, 0.00315539, 0.956368, 0.956323, 0.956699, 0.00342585, 1.19862, 0.977624, 1.43302, 0.96764, 0.968056, 0.96924, 0.970775, 0.971929, 0.97131, 0.967922, 0.967912, 0.968773, 0.969482, 0.97131, 0.971833, 1.00957, 0.962368, 0.963184, 0.962718, 0.962477, 0.962039, 0.960106, 0.960759, 0.962799, 0.962748, 0.963016, 0.961546, 0.964016, 1.18068, 0.971959, 0.970811, 0.970674, 0.970353, 0.970333, 0.970854, 0.970548, 0.970269, 0.0036043, 1.01651, 1.01592, 1.08456, 1.05057, 0.950942, 1.04805, 0.962431, 0.93667, 0.936667, 0.93659, 1.03361, 0.928756, 0.924507, 0.923057, 0.923322, 0.93178, 0.931865, 0.932754, 0.933612, 0.934105, 0.933841, 0.935719, 0.930154, 0.920677, 0.921081, 0.921538, 0.916547, 0.916263, 0.914901, 0.914938, 0.914501, 0.914362, 0.912989, 0.914031, 0.912421, 0.909787, 0.908831, 0.906383, 0.904514, 0.903554, 0.901495, 0.901137, 0.901042, 1.06806, 1.07836, 1.07845, 0.884328, 0.878857, 0.876847, 0.876689, 0.877863, 0.879909, 0.881997, 0.882701, 0.884718, 0.88453, 0.883727, 0.881339, 0.877427, 0.879629, 0.877439, 0.876832, 0.872839, 0.874322, 0.875841, 0.876846, 0.877029, 0.876298, 0.876327, 0.876621, 0.875335, 0.874879, 0.87308, 0.873412, 0.872688, 0.87273, 0.87384, 0.873518, 0.873874, 0.875405, 0.876242, 0.877075, 1.09971, 0.879466, 0.881397, 0.882895, 0.884343, 0.891021, 0.892997, 0.884367, 0.884251, 0.88785, 0.882044, 0.881394, 0.920238, 0.88017, 0.879938, 0.877237, 0.878479, 0.879412, 0.878963, 0.8801, 0.878056, 0.879147, 0.87838, 0.87075, 0.8734, 0.873468, 0.875545, 0.874237, 0.873317, 0.871689, 0.870882, 0.867743, 0.866554, 0.867526, 0.873221, 1.22546, 0.911309, 0.887952, 0.888353, 0.888518, 0.889459, 0.933087, 0.933849, 0.8872, 0.889198, 0.890347, 0.890067, 0.890112, 0.891114, 0.890773, 0.891544, 0.892289, 0.894898, 0.981546, 0.962998, 0.896404, 0.89379, 0.892384, 0.895347, 0.895734, 0.897923, 0.898585, 1.022, 1.08175, 1.08177, 0.880893, 0.87485, 0.875138, 0.875843, 0.876703, 0.886103, 0.887264, 0.888226, 0.878689
1.03493, 1.03516, 1.03647, 1.04071, 1.04456, 1.04761, 1.05024, 1.05196, 1.05303, 1.08711, 1.10938, 1.13393, 1.06416, 1.06381, 1.14579, 1.07052, 1.15872, 1.08445, 1.17503, 1.16015, 1.07717, 1.18839, 1.08032, 1.0805, 1.08369, 1.08584, 1.08932, 1.09106, 1.09303, 1.09798, 1.10384, 1.10546, 1.10817, 1.10828, 1.11381, 1.11392, 1.11757, 1.11907, 1.11851, 1.12138, 1.12316, 1.12317, 1.12372, 1.12573, 1.12409, 1.11864, 1.11892, 1.12092, 1.11915, 1.11831, 1.11827, 1.11674, 1.11811, 1.11691, 1.1172, 1.23685, 1.11497, 1.1134, 1.24363, 1.2554, 1.20161, 1.22047, 1.15917, 1.26281, 1.30353, 1.14693, 1.16176, 1.3156, 1.37076, 1.42384, 1.43936, 1.34657, 1.43386, 1.41292, 1.41245, 1.02775, 1.02719, 1.02734, 0.00341625, 1.11392, 0.00356048, 1.34091, 1.34294, 1.34299, 0.991893, 0.991521, 0.993707, 0.992708, 0.991934, 0.990705, 0.990594, 0.988882, 0.988901, 0.981441, 0.980735, 0.978244, 0.977619, 0.97572, 0.973901, 0.977794, 0.964018, 0.95822, 0.959402, 0.956064, 0.956803, 0.955771, 0.980071, 0.980837, 0.973492, 0.973702, 0.969616, 0.969733, 0.969676, 0.969736, 0.967087, 0.967735, 0.96885, 0.969039, 0.970641, 0.97296, 0.973063, 0.973081, 1.04271, 0.960221, 0.959759, 0.960724, 0.962137, 0.961008, 0.961606, 0.965307, 0.964786, 0.962098, 0.960713, 0.962624, 1.0459, 0.968642, 0.970006, 0.969719, 0.969031, 0.969888, 0.968644, 0.967992, 0.00352856, 0.00356824, 1.01831, 1.04545, 1.08779, 1.0889, 0.949954, 1.02833, 0.960392, 0.93603, 0.936405, 0.936226, 0.928349, 0.928288, 0.922801, 0.924801, 0.924052, 0.928866, 1.03913, 0.933891, 0.935225, 0.934586, 0.933051, 0.929294, 0.924889, 0.921961, 0.921451, 0.92158, 0.914679, 0.915374, 0.914193, 0.913338, 0.913918, 0.91287, 0.912957, 0.914549, 0.909804, 0.908775, 0.909141, 0.90871, 0.905443, 0.903082, 0.9025, 0.900604, 1.08893, 1.06868, 0.883724, 0.883033, 0.8822, 0.874962, 0.875389, 0.875271, 0.874312, 0.875516, 0.00383715, 0.88191, 0.883654, 0.884057, 0.881935, 0.876618, 0.8774, 0.879972, 0.87999, 0.873504, 0.87353, 0.874854, 0.874632, 0.874718, 0.875917, 0.876514, 0.875758, 0.875365, 0.876806, 0.876503, 0.87511, 0.873819, 0.87444, 0.8748, 0.874465, 0.874279, 0.874593, 0.876632, 0.875586, 0.875303, 0.878092, 0.883212, 0.882831, 0.883311, 0.882509, 0.882031, 0.946489, 0.879768, 0.947365, 0.882738, 0.930699, 1.13543, 0.876164, 0.876624, 0.875709, 0.878256, 0.879021, 0.877436, 0.878998, 0.878391, 0.877655, 0.879127, 0.877778, 0.874855, 0.874873, 0.873871, 0.876241, 0.873989, 0.874267, 0.870735, 0.870165, 0.866668, 0.866888, 0.867656, 0.872349, 0.875213, 0.880874, 0.883841, 0.927156, 0.940084, 0.887046, 0.887165, 0.889557, 0.889863, 0.888724, 0.890497, 0.891149, 0.89138, 0.892502, 0.892417, 0.892626, 0.892859, 0.895655, 0.896312, 0.894198, 0.894906, 0.896336, 0.8947, 0.894326, 0.896111, 0.964875, 0.964114, 0.981923, 1.00195, 0.883302, 0.876139, 0.874618, 0.874875, 0.875011, 1.09099, 0.88517, 0.898676, 0.00361504, 0.877623
1.03423, 1.03714, 1.03681, 1.11189, 1.04547, 1.04598, 1.05039, 1.05202, 1.10211, 1.11232, 1.10446, 1.1259, 1.06093, 1.0635, 1.06427, 1.14389, 1.13992, 1.12883, 1.09976, 1.17778, 1.07517, 1.07681, 1.07782, 1.07877, 1.08194, 1.12929, 1.08743, 1.09074, 1.09318, 1.09739, 1.20912, 1.19471, 1.10771, 1.10786, 1.11145, 1.11333, 1.11697, 1.11803, 1.11819, 1.11984, 1.12414, 1.12473, 1.12531, 1.12508, 1.12479, 1.12416, 1.12382, 1.12495, 1.12195, 1.12255, 1.11854, 1.11822, 1.11749, 1.11785, 1.11691, 1.11664, 1.11514, 1.11473, 1.22612, 1.24589, 1.41653, 1.21628, 1.22602, 1.24026, 1.24032, 1.29835, 1.09613, 0.00357213, 1.37071, 1.37054, 1.37313, 1.39852, 1.39816, 1.38218, 1.03263, 1.02998, 1.02816, 1.02828, 1.096, 0.00370924, 0.0107254, 1.02193, 1.00281, 0.991757, 0.99358, 0.993813, 0.993852, 0.993761, 0.992544, 0.990728, 0.990967, 0.989727, 0.987543, 0.986847, 0.978892, 0.979801, 0.977526, 0.975271, 0.97361, 0.972879, 0.964013, 0.959358, 0.956416, 0.955739, 0.9551, 0.954348, 0.956929, 0.957443, 0.976145, 0.974148, 0.967922, 0.968791, 0.970141, 0.970365, 0.966302, 0.988349, 1.18374, 0.970428, 0.970929, 0.972993, 0.973139, 0.972848, 0.984317, 0.960829, 0.959718, 0.95963, 0.960841, 0.962379, 0.961679, 0.966202, 0.965249, 0.96406, 0.963781, 0.962828, 0.968835, 0.968493, 0.97001, 0.968973, 0.970036, 0.967128, 0.967763, 1.09114, 1.06328, 1.09432, 1.09381, 1.08217, 1.18834, 0.953043, 0.95017, 0.00353438, 1.04424, 1.04339, 0.932881, 0.931808, 0.931607, 0.928375, 0.927731, 0.922679, 0.923142, 1.02326, 1.0405, 0.935009, 0.935363, 0.935196, 0.934932, 0.931543, 0.922111, 0.921584, 0.921854, 0.911408, 0.912358, 0.915537, 0.914446, 0.913696, 0.91441, 0.913307, 0.913286, 0.911256, 0.909662, 0.909845, 0.909159, 0.908815, 0.905688, 0.902072, 0.901027, 0.90091, 1.09089, 0.893367, 0.883844, 0.883528, 1.08894, 0.874979, 0.874424, 0.871916, 0.874205, 0.873108, 0.873711, 0.87824, 0.879758, 0.879685, 0.8781, 0.876702, 0.875684, 0.874996, 0.87669, 0.876165, 0.875262, 0.875746, 0.875852, 0.875022, 0.876475, 0.875679, 0.871204, 0.875324, 0.874086, 0.87348, 0.877234, 0.877326, 0.876876, 0.876568, 0.875957, 0.874447, 0.874799, 0.875024, 0.875675, 0.876113, 0.00383303, 0.882378, 0.881545, 0.883321, 0.882807, 0.880165, 0.878461, 0.879568, 0.879542, 0.878264, 0.877595, 0.877433, 0.876437, 0.876677, 0.874714, 0.874388, 0.874993, 0.876676, 0.878669, 0.880306, 0.881011, 0.87857, 0.873958, 0.874716, 0.873959, 0.875612, 0.87636, 0.876042, 0.871012, 0.869766, 0.869562, 0.866661, 0.866881, 0.86821, 0.873174, 0.87646, 0.880451, 0.00359836, 0.929893, 0.885522, 0.885835, 0.887355, 0.888951, 0.890005, 0.889385, 0.889736, 0.889244, 0.890673, 0.891676, 0.892063, 0.892411, 0.893629, 0.895595, 0.894813, 0.894602, 0.894818, 0.895672, 0.893905, 0.894406, 0.896459, 0.897245, 0.896157, 0.894371, 0.982391, 0.00375092, 0.876844, 0.873667, 0.873791, 0.874514, 1.14367, 0.0109777, 0.00348771, 0.874717, 0.876999
1.03542, 1.03648, 1.03666, 1.03853, 1.04264, 1.04681, 1.04849, 1.10237, 1.11229, 1.12258, 1.13599, 1.10701, 1.06124, 1.06213, 1.06486, 1.15778, 1.13363, 1.15829, 1.0712, 1.07099, 1.07464, 1.07656, 1.07709, 1.07765, 1.17435, 1.16731, 1.18989, 1.08854, 1.09257, 1.09321, 1.19247, 1.19279, 1.10643, 1.10669, 1.10892, 1.11173, 1.11422, 1.11461, 1.11804, 1.11824, 1.11864, 1.12356, 1.12224, 1.12249, 1.12473, 1.12467, 1.12462, 1.12415, 1.12206, 1.12197, 1.12145, 1.26728, 1.11852, 1.11821, 1.11723, 1.11623, 1.11565, 1.11515, 1.1141, 1.24661, 1.24109, 1.11164, 1.11192, 1.24341, 1.31612, 1.09816, 1.10191, 0.011013, 1.14297, 1.2258, 1.07554, 1.23698, 1.09472, 1.26098, 1.03653, 1.44149, 1.02737, 1.02743, 1.02689, 1.2843, 1.12315, 1.02956, 0.00355879, 1.00384, 0.992929, 0.992142, 0.991886, 0.991988, 0.991516, 0.990542, 0.990474, 0.986474, 0.985782, 0.983787, 0.980112, 0.979377, 0.977666, 0.97402, 0.974842, 1.01474, 0.977925, 0.957678, 0.957887, 0.95487, 0.954402, 0.955247, 0.957859, 0.983701, 0.974899, 0.963896, 0.965291, 0.967665, 0.96452, 0.964653, 0.988008, 0.980928, 0.0035197, 0.97138, 0.971194, 0.971868, 0.972974, 0.976754, 0.961255, 0.961895, 0.96062, 0.959832, 0.960237, 0.960123, 0.963532, 0.964655, 0.96381, 0.964687, 0.962916, 0.962745, 0.964036, 0.970669, 0.970034, 0.969662, 0.96927, 0.966639, 0.966674, 1.09544, 1.09442, 1.09601, 1.09672, 1.10198, 1.10086, 1.18468, 0.963374, 1.04356, 0.953927, 1.05184, 0.9343, 0.933572, 0.927541, 0.92831, 0.928204, 0.923293, 0.924003, 1.0447, 1.04529, 0.934768, 0.935276, 0.935919, 0.00334671, 0.925691, 0.922572, 0.921701, 0.921024, 0.915192, 0.915452, 0.915145, 0.914375, 0.914566, 0.914169, 0.912365, 0.914989, 0.907719, 0.90863, 0.907972, 0.905691, 0.906272, 0.907114, 0.902051, 0.901526, 0.900651, 0.890052, 1.09705, 0.888685, 1.0402, 1.09048, 0.872629, 0.872305, 0.872202, 0.871937, 0.872754, 0.873089, 0.87311, 0.873084, 0.874029, 0.875009, 0.875202, 0.876198, 0.877104, 0.876443, 0.876144, 0.875368, 0.875386, 0.875976, 0.875815, 0.873889, 0.870659, 0.869965, 0.873771, 0.874494, 0.875035, 0.876594, 0.878756, 0.879373, 0.880149, 0.87727, 0.876407, 0.87328, 0.873088, 0.873942, 0.873694, 0.933214, 0.880219, 0.881002, 0.881751, 0.88161, 0.879031, 0.879678, 0.878956, 0.878274, 0.87755, 0.874176, 0.876447, 0.87639, 0.876506, 0.876675, 0.873603, 0.874896, 0.878411, 0.88414, 0.880573, 0.880952, 0.88079, 0.87633, 0.876321, 0.876382, 0.876748, 0.875754, 0.873713, 0.873171, 0.870282, 0.869554, 0.869734, 0.867952, 0.867958, 0.967767, 0.877334, 0.880379, 0.00390504, 0.00346725, 0.883487, 0.884241, 0.886159, 0.88692, 0.888427, 0.889371, 0.88938, 0.890508, 0.891117, 0.890688, 0.89124, 0.892265, 0.892926, 0.894942, 0.893921, 0.893328, 0.895783, 0.893712, 0.894185, 0.896099, 0.896285, 0.897214, 0.895899, 1.05635, 0.881072, 0.880595, 0.873873, 0.874061, 0.872987, 0.873488, 1.15037, 0.00339569, 1.13272, 0.875841, 0.876169
1.03177, 1.03557, 1.03549, 1.03754, 1.04233, 1.04556, 1.04566, 1.09445, 1.11191, 1.10555, 1.11922, 1.05316, 1.05989, 1.06352, 1.12897, 1.13777, 1.15439, 1.06984, 1.06975, 1.07103, 1.07147, 1.07115, 1.07685, 1.07743, 1.07802, 1.08077, 1.08282, 1.08844, 1.09352, 1.09419, 1.09558, 1.20062, 1.22877, 1.1067, 1.10791, 1.11101, 1.11179, 1.11513, 1.11583, 1.11594, 1.11752, 1.11842, 1.12208, 1.12215, 1.12309, 1.12373, 1.12415, 1.12398, 1.12392, 1.12204, 1.12212, 1.11996, 1.17947, 1.1187, 1.11699, 1.11714, 1.11543, 1.11392, 1.11224, 1.11204, 1.30102, 1.11607, 1.11515, 1.24361, 1.24264, 1.35874, 1.28673, 1.26778, 1.30193, 0.00362332, 1.44117, 1.08056, 1.14985, 1.04422, 1.04339, 0.00370061, 1.02814, 1.02822, 1.02828, 1.09133, 1.11663, 1.0367, 1.03773, 1.0295, 0.99932, 0.99865, 0.992206, 0.992066, 0.992251, 0.990378, 0.98734, 0.985911, 0.984437, 0.982526, 0.981696, 0.977376, 0.977569, 0.977616, 0.975228, 0.977261, 0.977291, 0.977607, 0.958712, 0.955887, 0.955693, 0.954029, 0.956757, 1.09891, 0.96092, 0.96328, 0.962542, 0.962826, 0.963744, 0.964327, 0.985958, 0.975243, 0.973312, 1.01176, 0.97299, 0.00332175, 1.00452, 1.00568, 0.976623, 0.960804, 0.961094, 0.961074, 0.960563, 0.962417, 0.962311, 0.961739, 1.14053, 1.04802, 0.96203, 0.963476, 0.963345, 0.967377, 0.970728, 0.970795, 0.970326, 0.967786, 1.09488, 1.0953, 1.01264, 1.09795, 1.10026, 1.09314, 1.17398, 1.10372, 0.973638, 1.0523, 0.952185, 0.00350566, 0.935234, 0.929359, 0.925961, 0.92642, 0.928295, 1.0488, 1.0613, 1.04587, 0.00352443, 0.93246, 1.04193, 1.04704, 0.925512, 0.925066, 0.921811, 0.921936, 0.922045, 0.915807, 0.915707, 0.91455, 0.91455, 0.914521, 0.913262, 0.912722, 0.912432, 0.908569, 0.907567, 0.905044, 0.904415, 0.906749, 0.906686, 0.902633, 0.901345, 0.00350467, 0.889561, 0.889425, 1.10173, 1.04116, 1.04193, 1.04205, 0.871312, 0.871742, 0.87155, 0.872938, 0.873021, 0.871089, 0.873797, 0.874044, 0.876442, 0.875278, 0.875662, 0.874866, 0.874391, 0.922025, 0.873105, 0.874146, 0.873051, 0.874093, 0.873491, 0.873339, 0.873583, 0.873713, 0.875004, 0.874894, 0.876743, 0.880078, 0.880505, 0.880203, 0.879819, 0.879465, 0.873486, 0.873661, 0.87351, 0.872579, 0.870576, 0.00331871, 0.888467, 0.895694, 0.878513, 0.877477, 0.877006, 0.876263, 0.875733, 0.875085, 0.876161, 0.874549, 0.875189, 0.877259, 0.876671, 0.87562, 0.87818, 0.879567, 0.879245, 0.881218, 0.882542, 0.882352, 0.878847, 0.878119, 0.878352, 0.877535, 0.874416, 0.871625, 0.871971, 0.872061, 0.866303, 0.867801, 0.868347, 0.86904, 0.984347, 0.88137, 0.885629, 0.901014, 0.969658, 0.00357718, 0.884734, 0.886033, 0.888041, 0.888497, 0.887474, 0.888307, 0.890499, 0.890945, 0.892696, 0.891861, 0.891536, 0.892227, 0.894837, 0.896792, 0.89435, 0.895609, 0.897336, 0.896483, 0.897665, 0.898158, 0.897529, 0.00363094, 0.92638, 0.880575, 0.876705, 0.876385, 0.873403, 0.873785, 0.87386, 1.14693, 0.877407, 0.878728, 0.875211, 0.875172
1.0665, 1.03565, 1.0353, 1.03611, 1.03926, 1.0405, 1.10094, 1.11275, 1.11456, 1.10278, 1.04854, 1.05051, 1.05718, 1.05832, 1.06315, 1.141, 1.0678, 1.06983, 1.06995, 1.07113, 1.07006, 1.06982, 1.07039, 1.07463, 1.07772, 1.07818, 1.19183, 1.0845, 1.13589, 1.13827, 1.09429, 1.22693, 1.09951, 1.10495, 1.10547, 1.10556, 1.21349, 1.19976, 1.11376, 1.11536, 1.22011, 1.11818, 1.121, 1.12138, 1.12208, 1.12295, 1.12378, 1.12434, 1.12434, 1.1236, 1.12176, 1.12194, 1.12101, 1.11941, 1.11802, 1.11673, 1.11527, 1.11436, 1.11414, 1.1141, 1.11458, 1.11486, 1.11501, 1.11558, 1.22226, 1.31256, 1.10972, 1.11154, 0.00329826, 1.10238, 1.38146, 1.32969, 1.32933, 1.28195, 1.29322, 1.36727, 1.03099, 1.03055, 1.05671, 1.10893, 0.003473, 1.0203, 1.01941, 1.01603, 0.998171, 0.998047, 0.998337, 0.99098, 1.23344, 0.987843, 0.98703, 0.987396, 0.982383, 0.982033, 0.982171, 0.977849, 0.976754, 0.977571, 0.977651, 0.97816, 0.0033336, 0.961766, 1.12546, 0.957175, 0.956226, 0.956534, 0.957298, 0.990606, 0.962041, 0.962893, 0.96275, 0.9621, 0.963158, 0.963048, 0.963121, 0.97278, 0.971684, 0.977515, 0.980808, 1.31885, 1.09307, 1.08515, 0.961083, 0.96087, 0.960492, 0.960419, 0.959577, 0.962009, 0.961942, 0.960124, 0.959002, 1.17406, 0.962822, 0.962828, 0.963071, 0.965465, 0.965389, 0.965509, 0.00339169, 0.0108256, 1.097, 1.00919, 0.00359239, 1.04755, 1.07156, 1.10099, 1.1683, 1.05642, 0.98501, 1.05959, 1.05899, 0.929585, 0.928355, 0.926964, 0.926215, 0.927168, 0.927814, 0.915631, 0.915937, 1.13318, 1.06728, 1.0429, 0.932341, 0.933767, 0.925058, 0.924114, 0.92268, 0.923194, 0.919389, 0.918781, 0.914856, 0.915533, 0.914621, 0.912814, 0.911529, 0.911265, 0.908506, 0.907386, 0.907778, 0.906189, 0.905603, 0.907007, 0.905283, 0.90413, 0.899558, 1.03367, 0.888785, 0.887279, 1.06333, 1.103, 0.887214, 0.868741, 0.869026, 0.868953, 0.870322, 0.868734, 0.873022, 0.873165, 0.872877, 0.873124, 0.874682, 0.873959, 0.873426, 0.871796, 0.864199, 0.865084, 0.862387, 0.871013, 0.870435, 0.873278, 0.87469, 0.872256, 0.874103, 0.875445, 0.874332, 0.875836, 0.876647, 0.878419, 0.878589, 0.879975, 0.878531, 0.877939, 0.875104, 0.873103, 0.872839, 0.871454, 0.871303, 0.884982, 0.887742, 0.878796, 0.885549, 0.877558, 0.876797, 0.874553, 0.874898, 0.87554, 0.87421, 0.875116, 0.875387, 0.876366, 0.877504, 0.879626, 0.87974, 0.880218, 0.880834, 0.881611, 0.883073, 0.88255, 0.880948, 0.877977, 0.880119, 0.880256, 0.877884, 0.876349, 0.874192, 0.871272, 0.866107, 0.867878, 0.868488, 0.869434, 0.869822, 0.884188, 0.876716, 0.878128, 0.884239, 0.885071, 0.883813, 0.885303, 0.88614, 0.888687, 0.888522, 0.887936, 0.888657, 0.889936, 0.892059, 0.891721, 0.893575, 0.89317, 0.894694, 0.896033, 0.897314, 0.897708, 0.897643, 0.897287, 0.898682, 0.897752, 0.89754, 0.972065, 0.927373, 1.0375, 1.04999, 0.872403, 0.872733, 0.870901, 0.872778, 0.873574, 0.87727, 0.880133, 0.879927, 0.875489
1.06877, 1.03525, 1.0353, 1.03726, 1.04006, 1.0409, 1.09975, 1.08784, 1.11554, 1.04402, 1.04765, 1.05417, 1.0579, 1.06057, 1.06336, 1.06535, 1.06788, 1.06838, 1.07079, 1.07051, 1.0712, 1.07111, 1.07429, 1.07528, 1.11163, 1.08084, 1.08336, 1.08364, 1.10779, 1.13031, 1.09471, 1.09673, 1.09779, 1.10295, 1.10465, 1.103, 1.10602, 1.10804, 1.10937, 1.11351, 1.11446, 1.11542, 1.11851, 1.12068, 1.12113, 1.12169, 1.1255, 1.12393, 1.12388, 1.12325, 1.12267, 1.12178, 1.19627, 1.28885, 1.1193, 1.11754, 1.11633, 1.1153, 1.11494, 1.11488, 1.11484, 1.11477, 1.11482, 1.11552, 1.10846, 1.10742, 1.27088, 1.29131, 1.11044, 1.389, 1.41417, 1.33406, 1.40203, 1.21226, 1.21295, 1.46474, 1.0309, 1.02998, 1.03038, 1.1097, 1.13035, 1.03667, 1.02814, 1.00799, 0.997311, 0.997204, 0.997441, 1.00477, 1.00744, 0.987935, 0.986825, 0.985969, 0.981026, 0.980762, 0.978999, 0.978547, 0.977982, 0.977957, 0.978011, 1.1047, 0.965948, 1.11628, 1.11578, 0.954731, 0.954826, 0.00353717, 0.986545, 0.960063, 0.962137, 0.962807, 0.963505, 0.963894, 0.963579, 0.962954, 0.962151, 0.961849, 0.961351, 0.979321, 0.981128, 0.987539, 1.00688, 0.00338055, 0.961812, 0.959636, 0.959905, 0.960887, 0.961936, 0.962021, 0.962459, 0.959523, 0.959415, 0.95993, 0.963564, 0.963741, 0.964101, 0.965086, 0.965477, 0.966347, 0.967822, 0.966769, 1.01224, 1.09879, 0.992848, 1.0517, 1.10055, 0.950331, 1.05948, 0.00314425, 0.927796, 0.929713, 0.929736, 0.929801, 0.927237, 0.927725, 0.927288, 0.927647, 0.928295, 1.1301, 1.06977, 1.07101, 1.06732, 1.06828, 0.931662, 1.06697, 0.921462, 0.923247, 0.922732, 0.922962, 0.920497, 0.920898, 0.915445, 0.916512, 0.915472, 0.91276, 0.911515, 0.909141, 0.907871, 0.907713, 0.907437, 0.905116, 0.904836, 0.904716, 0.902022, 0.90083, 0.897761, 0.90172, 1.09028, 1.09096, 1.05069, 1.09853, 1.10476, 0.867535, 0.868912, 0.869234, 0.86981, 0.869338, 0.869092, 0.87303, 0.869713, 0.870997, 0.870616, 0.872979, 0.870242, 0.865847, 0.866072, 0.863962, 0.86714, 0.871348, 0.871102, 0.871274, 0.871697, 0.872933, 0.873639, 0.873653, 0.876802, 0.876452, 0.876459, 0.878403, 0.877267, 0.876963, 0.877165, 0.879472, 0.874896, 0.873685, 0.872957, 0.872972, 0.872648, 0.00370162, 0.88833, 0.887979, 0.872854, 0.874495, 0.874629, 0.874205, 0.874437, 0.874311, 0.874048, 0.874289, 0.876508, 0.87751, 0.878563, 0.879809, 0.879867, 0.880949, 0.883639, 0.881313, 0.881505, 0.880595, 0.880967, 0.881585, 0.880725, 0.880238, 0.880048, 0.877444, 0.874092, 0.873361, 0.870849, 0.869561, 0.870086, 0.87006, 0.870297, 0.886782, 0.877555, 0.878438, 0.882375, 0.8837, 0.884469, 0.885534, 0.886855, 0.88716, 0.886954, 0.887566, 0.888831, 0.890229, 0.89188, 0.893202, 0.893725, 0.891902, 0.894197, 0.897009, 0.899074, 0.89864, 0.897132, 0.897569, 0.897483, 0.897106, 0.897193, 0.90533, 0.00327814, 0.00358759, 0.873111, 0.86979, 0.870812, 0.872368, 0.872788, 1.16424, 0.890869, 0.890312, 0.886761, 0.886487
1.03229, 1.03223, 1.03322, 1.03578, 1.17884, 1.09049, 1.07939, 1.04244, 1.04283, 1.0444, 1.04642, 1.148, 1.14805, 1.06047, 1.06045, 1.06067, 1.06481, 1.06667, 1.06735, 1.06743, 1.07229, 1.07381, 1.07509, 1.07684, 1.07911, 1.08073, 1.08211, 1.08469, 1.0855, 1.08963, 1.09047, 1.09531, 1.0994, 1.1, 1.10326, 1.10307, 1.20527, 1.18044, 1.22207, 1.11186, 1.11319, 1.11333, 1.11683, 1.11728, 1.11959, 1.11991, 1.12028, 1.12227, 1.12313, 1.12348, 1.12411, 1.317, 1.25712, 1.11957, 1.11894, 1.11896, 1.11642, 1.11571, 1.11523, 1.11513, 1.11547, 1.11571, 1.11536, 1.11514, 1.10923, 1.10807, 1.31719, 1.29124, 1.11162, 1.11208, 1.40757, 1.21991, 1.22627, 0.0036433, 0.00389888, 1.36688, 1.03408, 1.03073, 1.02994, 1.15282, 1.09493, 0.00369142, 1.0358, 0.00356567, 1.00036, 0.995179, 0.994912, 1.00496, 0.985947, 0.985768, 0.986927, 0.985913, 0.980217, 0.98007, 0.979411, 0.978551, 0.978656, 0.978294, 0.978057, 0.970479, 0.970475, 0.965185, 0.961041, 0.960172, 0.959491, 0.959375, 0.960798, 0.961537, 0.961435, 0.963186, 0.964135, 0.964082, 0.963679, 0.964541, 0.961502, 0.961095, 0.960392, 0.960125, 1.31987, 0.986871, 1.00208, 0.960317, 0.961093, 0.962525, 0.958377, 0.960037, 0.960907, 0.96179, 0.961527, 0.95867, 0.95973, 0.961327, 0.962879, 0.963639, 0.964168, 0.965895, 0.966171, 0.966545, 0.966616, 0.966869, 1.01986, 1.02853, 1.10276, 0.95613, 0.950604, 0.950766, 0.95026, 0.954318, 0.928565, 0.929363, 0.929932, 0.928183, 0.927204, 0.927926, 0.927451, 0.928562, 0.928135, 0.927491, 1.13233, 1.07101, 0.929961, 0.931756, 0.931105, 0.930307, 0.922295, 0.923989, 0.925397, 0.92364, 0.918483, 0.917054, 0.915483, 0.913441, 0.914724, 0.91052, 0.909557, 0.90941, 0.906934, 0.908263, 0.906158, 0.903574, 0.904353, 0.904092, 0.902339, 0.901077, 0.898335, 0.897539, 0.893728, 0.890559, 0.00337392, 1.10438, 1.09931, 0.873834, 0.871803, 0.870958, 0.870351, 0.870456, 0.869801, 0.870164, 0.869331, 0.867309, 0.870552, 0.870537, 0.864171, 0.862984, 0.864187, 0.865156, 0.868524, 0.869554, 0.870734, 0.871045, 0.870897, 0.873261, 0.874534, 0.873752, 0.876115, 0.875807, 0.877044, 0.876729, 0.873328, 0.873566, 1.04962, 0.883877, 0.873376, 0.873572, 0.871091, 0.86739, 0.868698, 0.871708, 0.874156, 0.873136, 0.871797, 0.87301, 0.873443, 0.874792, 0.874003, 0.874133, 0.874222, 0.875153, 0.87669, 0.878238, 0.877876, 0.879936, 0.880461, 0.880473, 0.879951, 0.879829, 0.879652, 0.880186, 0.880867, 0.882468, 0.883096, 0.881056, 0.881267, 0.880569, 0.874816, 0.872389, 0.871679, 0.869572, 0.868893, 0.868762, 0.870798, 0.871911, 0.874604, 0.875487, 0.882657, 0.882589, 0.8839, 0.886874, 0.88567, 0.88715, 0.886542, 0.888188, 0.888233, 0.890484, 0.889149, 0.892323, 0.890429, 0.891718, 0.892323, 0.894823, 0.897731, 0.895461, 0.897269, 0.897805, 0.897114, 0.897382, 0.897063, 0.890743, 0.905545, 1.00943, 0.867832, 0.86853, 0.868565, 0.869363, 1.14222, 1.16066, 1.16494, 1.09514, 0.887554, 0.887712
1.02945, 1.03206, 1.03296, 1.03795, 1.03766, 1.08488, 1.09159, 1.04081, 1.0419, 1.04314, 1.11017, 1.10323, 1.11654, 1.05858, 1.05949, 1.13999, 1.06434, 1.0651, 1.06687, 1.06713, 1.07304, 1.07233, 1.07675, 1.07685, 1.08071, 1.08152, 1.0835, 1.08506, 1.08845, 1.0885, 1.091, 1.18368, 1.09923, 1.09999, 1.1022, 1.10236, 1.0993, 1.09931, 1.2298, 1.22396, 1.11189, 1.11303, 1.11384, 1.11714, 1.11788, 1.11956, 1.12002, 1.12259, 1.12323, 1.12508, 1.12448, 1.12401, 1.26229, 1.12164, 1.11912, 1.1188, 1.11708, 1.11582, 1.11508, 1.11483, 1.11499, 1.11486, 1.11466, 1.11368, 1.11364, 1.34421, 0.00361842, 1.28924, 1.39896, 1.11543, 1.11575, 1.11674, 1.22557, 0.00351537, 1.31721, 1.36492, 1.36434, 0.00301781, 1.02772, 1.03784, 1.03662, 0.00317257, 1.04675, 1.00294, 1.02939, 0.995936, 1.00784, 1.0026, 0.984909, 0.98695, 0.986176, 0.985091, 0.981784, 0.980057, 0.97975, 0.97773, 0.978255, 0.978428, 0.971813, 0.97157, 0.96811, 0.984487, 0.96683, 0.0032188, 1.0795, 0.961386, 0.961415, 0.963804, 0.963682, 0.963656, 0.963688, 0.963906, 0.964623, 0.965475, 0.964014, 0.959894, 0.959978, 0.959231, 0.95955, 0.95991, 0.959176, 0.959715, 0.960145, 0.960448, 0.960833, 0.961449, 0.960763, 0.959461, 0.959745, 0.95988, 0.961597, 0.963175, 0.963905, 0.965136, 0.963381, 0.964355, 0.965124, 0.966858, 0.966797, 0.966666, 0.98413, 0.984065, 1.05177, 0.998622, 0.999066, 0.00339659, 1.0079, 0.937691, 0.929687, 0.9299, 0.929793, 0.926889, 0.926821, 0.926434, 0.927341, 0.927641, 0.927878, 0.928655, 1.0608, 0.928094, 0.929271, 0.930668, 0.930548, 0.929864, 0.925261, 0.924832, 0.923877, 0.919669, 0.920173, 0.915817, 0.915908, 0.914568, 0.914377, 0.912519, 0.911757, 0.909763, 0.907835, 0.904821, 0.904111, 0.903485, 0.903824, 0.903511, 0.90446, 0.903919, 0.901892, 0.943343, 0.946515, 0.892272, 0.892315, 0.977403, 0.97787, 0.901215, 0.873713, 0.873535, 0.871244, 0.872269, 0.869657, 0.869501, 0.866953, 0.867392, 0.868557, 0.871994, 0.868335, 0.86509, 0.864227, 0.873898, 0.87361, 0.870584, 0.871136, 0.871869, 0.874065, 0.873623, 0.874245, 0.874732, 0.876561, 0.87643, 0.876508, 0.876094, 0.87349, 1.05465, 0.882746, 0.888899, 0.890576, 0.00355414, 0.868024, 0.867553, 0.869152, 0.870904, 0.881198, 0.868875, 0.870322, 0.872585, 0.874004, 0.873027, 0.874079, 0.87495, 0.875812, 0.875758, 0.87558, 0.877605, 0.879211, 0.880589, 0.881349, 0.881865, 0.879951, 0.879872, 0.877706, 0.87778, 0.880335, 0.882562, 0.881895, 0.878052, 0.879733, 0.879976, 0.880918, 0.880958, 0.870605, 0.867832, 0.867071, 0.867287, 0.868612, 0.871469, 0.875429, 0.876235, 0.881607, 0.882814, 0.884214, 0.886003, 0.885187, 0.886649, 0.887947, 0.886957, 0.887613, 0.88779, 0.886911, 0.946721, 0.889676, 0.888291, 0.888516, 0.890076, 0.893876, 0.893823, 0.895391, 0.897167, 0.897813, 0.897127, 0.897237, 0.891272, 0.890657, 0.00332645, 0.868346, 0.867716, 0.867963, 0.866223, 0.86615, 1.16054, 1.08576, 1.08721, 1.00135, 0.887079
1.03235, 1.02885, 1.03013, 1.03706, 1.03725, 1.03902, 1.03883, 1.04188, 1.04563, 1.04597, 1.12578, 1.14512, 1.14374, 1.05695, 1.0571, 1.0592, 1.06313, 1.06498, 1.06728, 1.06834, 1.07123, 1.16106, 1.07741, 1.07801, 1.08117, 1.08152, 1.08381, 1.08505, 1.08894, 1.08958, 1.08937, 1.09538, 1.09756, 1.0975, 1.09985, 1.1014, 1.09934, 1.10182, 1.10488, 1.10784, 1.11099, 1.11136, 1.11398, 1.11575, 1.11717, 1.11862, 1.1193, 1.122, 1.15963, 1.12527, 1.12575, 1.12481, 1.12381, 1.12247, 1.24373, 1.24283, 1.11739, 1.11534, 1.11483, 1.11481, 1.11477, 1.11415, 1.11392, 1.11418, 1.11415, 1.11184, 1.26014, 1.26039, 1.37461, 1.11356, 1.37079, 1.41986, 1.38947, 1.3154, 0.00319772, 1.36713, 1.10799, 1.14344, 1.1031, 1.02239, 0.00372617, 1.04961, 1.04379, 0.995218, 0.994042, 0.993472, 0.991521, 0.988216, 0.987016, 0.987102, 0.985699, 0.98577, 0.979031, 0.979606, 0.979894, 0.978258, 0.977833, 0.972156, 0.972084, 0.971244, 0.969619, 0.968813, 0.974617, 0.00373042, 1.07969, 0.963491, 0.964178, 0.964533, 0.964286, 0.962418, 0.963444, 0.963054, 0.96606, 0.966179, 0.964825, 0.96373, 0.959078, 0.959351, 0.959357, 0.959395, 0.959207, 0.960325, 0.961278, 0.961428, 0.961434, 0.96097, 0.960796, 0.95977, 0.96007, 0.960432, 0.962738, 0.963006, 0.963994, 0.964921, 0.965507, 0.964276, 0.965924, 0.966623, 0.966759, 0.962428, 0.962209, 0.961828, 0.956846, 0.956095, 0.950705, 1.05697, 1.02203, 0.932957, 0.932183, 1.08824, 0.921908, 0.921371, 0.924308, 0.92484, 0.925906, 0.923304, 0.924013, 0.927845, 0.928023, 0.928724, 0.929486, 0.930226, 0.930092, 0.928985, 0.928338, 0.922925, 0.923417, 0.919167, 0.91884, 0.914579, 0.91243, 0.913507, 0.914522, 0.911926, 0.910857, 0.909578, 0.908231, 0.904314, 0.904191, 0.90319, 0.90417, 0.903464, 0.904091, 0.903764, 0.904106, 0.90038, 0.894642, 0.893975, 0.890744, 1.08903, 1.08841, 0.880819, 0.875365, 0.873791, 0.873206, 0.870642, 0.876414, 0.874497, 0.866844, 0.867608, 0.869546, 0.871874, 0.870257, 0.870811, 0.873909, 0.874059, 0.867781, 0.868683, 0.869931, 0.872701, 0.87328, 0.87324, 0.873784, 0.876698, 0.876624, 0.876426, 0.877057, 0.0110259, 0.00337231, 1.27244, 0.887852, 1.0704, 0.00331176, 0.86703, 0.866991, 0.869765, 0.868845, 0.869409, 0.870043, 0.869565, 0.86776, 0.867923, 0.871285, 0.8725, 0.873648, 0.875333, 0.875543, 0.875236, 0.889131, 0.884456, 0.878727, 0.87981, 0.880218, 0.879995, 0.880347, 0.880165, 0.878413, 0.878756, 0.877084, 0.880904, 0.882246, 0.878331, 0.879682, 0.879945, 0.879518, 0.873817, 0.869634, 0.867341, 0.866514, 0.867446, 0.868292, 0.871416, 0.874973, 0.893015, 0.880788, 0.880602, 0.909217, 0.885354, 0.886647, 0.88867, 0.887672, 0.886315, 0.887035, 0.888369, 0.88822, 0.884173, 0.886222, 0.889271, 0.890197, 0.891327, 0.893774, 0.893927, 0.894004, 0.896372, 0.897428, 0.897189, 0.894726, 0.89085, 0.956171, 1.01558, 1.02684, 0.867222, 0.867214, 0.866542, 0.866902, 0.868126, 0.87004, 0.870564, 1.19128, 1.19257
1.02869, 1.0295, 1.07815, 1.03657, 1.03769, 1.03735, 1.03836, 1.04248, 1.04596, 1.04598, 1.12145, 1.1243, 1.12703, 1.05611, 1.05628, 1.05772, 1.06555, 1.06644, 1.06694, 1.0702, 1.07275, 1.16002, 1.07616, 1.07842, 1.08052, 1.08086, 1.08686, 1.08572, 1.09011, 1.09073, 1.09048, 1.09361, 1.09599, 1.09684, 1.0987, 1.10147, 1.10105, 1.10148, 1.10696, 1.11094, 1.11013, 1.1112, 1.11459, 1.11508, 1.11688, 1.11887, 1.26888, 1.26052, 1.12416, 1.12463, 1.12543, 1.12524, 1.12481, 1.1221, 1.12007, 1.11874, 1.1163, 1.11485, 1.1142, 1.11398, 1.11326, 1.11175, 1.11164, 1.25715, 1.11209, 1.11211, 1.11272, 1.2619, 1.39467, 1.36062, 1.39774, 1.14751, 1.30892, 0.00333217, 0.00352285, 1.42238, 0.00341065, 1.13711, 1.02914, 0.00350141, 0.0106244, 1.04901, 1.49986, 0.994197, 0.994431, 0.993439, 0.988986, 0.987603, 0.986233, 0.984205, 0.983371, 0.982862, 0.982291, 0.981591, 0.980003, 0.978823, 0.978063, 0.972195, 0.96991, 0.969764, 0.970241, 0.971016, 0.973633, 1.05283, 0.966389, 0.967375, 0.964395, 0.964366, 0.963547, 0.9619, 0.963618, 0.964339, 0.966148, 0.966382, 0.964755, 0.963758, 0.963466, 0.959284, 0.958475, 0.958097, 0.958265, 0.959681, 0.961172, 0.96147, 0.960879, 0.960618, 0.960261, 0.961338, 0.961484, 0.964642, 0.965739, 0.966879, 0.964821, 0.964211, 0.964389, 0.96454, 0.966695, 0.966987, 0.965963, 0.962276, 0.962537, 0.962465, 0.984942, 0.98882, 0.987499, 0.987995, 1.01258, 0.932265, 0.930639, 0.928699, 0.920923, 0.921389, 0.923092, 0.924823, 0.924733, 0.92428, 0.924391, 0.975827, 0.92789, 0.928966, 0.930363, 0.930668, 0.930099, 0.928674, 0.923321, 0.923772, 0.922734, 0.921444, 0.919817, 0.913918, 0.912492, 0.912378, 0.912088, 0.912217, 0.912424, 0.910769, 0.904707, 0.904122, 0.904008, 0.904206, 0.902904, 0.904332, 0.906963, 0.90317, 0.903745, 1.13345, 0.895539, 0.89421, 0.893894, 0.957028, 0.880772, 0.880654, 0.880272, 0.873692, 0.874167, 0.875273, 0.856974, 0.873392, 0.860372, 0.867059, 0.87233, 0.873556, 0.874019, 0.876922, 0.873199, 0.873506, 0.870874, 0.871492, 0.87207, 0.873164, 0.873104, 0.872113, 0.873785, 0.874619, 0.872166, 0.874992, 0.874845, 1.02216, 0.892411, 0.919542, 0.862281, 1.03678, 1.03673, 0.864468, 0.863061, 0.863303, 0.864313, 0.869851, 0.870576, 0.866533, 0.8682, 0.869377, 0.870045, 0.872344, 0.873599, 0.874513, 0.874624, 0.96471, 0.967163, 0.875072, 0.885349, 0.877848, 0.879915, 0.878811, 0.880359, 0.879412, 0.879975, 0.879481, 0.8787, 0.878039, 0.88318, 0.884217, 0.88065, 0.879857, 0.879975, 0.879099, 0.871703, 0.869946, 0.868771, 0.868183, 0.869637, 0.871412, 0.873077, 0.886953, 0.878975, 0.879827, 0.88038, 0.883335, 0.883631, 0.882101, 0.882396, 0.886591, 0.887328, 0.888463, 0.888199, 0.885439, 0.884758, 0.885734, 0.885477, 0.923735, 0.893646, 0.89447, 0.894093, 0.894729, 0.896173, 1.00134, 0.893622, 0.892172, 0.985626, 0.875196, 0.875345, 0.874829, 1.14608, 0.871271, 0.870332, 0.8697, 0.870766, 0.873357, 1.11237, 0.003635
