1.03036041084647,1.0319233881168,1.03729923350523,1.03763771265932,1.04011657469954,1.04139084916198,1.09937033720312,1.05804601459688,1.05985787359816,1.06467622390927,1.06590072202553,1.0710774620292,1.07712031045657,1.07939011184279,1.08348172749954,1.08898699138806,1.09569684285436,1.09822548124077,1.09779740466354,1.10438779289899,1.10905681417153,1.11243165044316,1.11334753521304,1.1171006717157,1.12045559744885,1.12020671571791,1.20368164827714,1.11467158602167,1.11329775886685,1.11020167013388,1.1097835488259,1.10988310151827,1.10960435397961,1.10756352378586,1.28862000541433,1.11135648136547,1.11216285817374,1.21642439290156,1.35259256553664,1.02798110149862,1.03625393023526,1.04693593412746,1.00420791855868,0.994271564332397,0.987252103992801,0.988389991266685,0.986428803226832,0.981508909169495,0.979596501948907,0.974362021383655,0.974172871268136,0.96980051701888,0.969515796318678,0.962954278364022,0.965321641388779,0.965519751246612,0.965975702577704,0.966930412897613,0.962210619751956,0.961697923386208,0.960629722996988,0.961830328467071,0.962175776309624,0.962039389121065,0.961842274790156,0.962504300194472,0.965032938580882,0.96557450522742,0.965585456023581,0.968882641195152,0.967922953240625,0.986061453791956,0.955858162451295,0.954163775627016,0.931783334853444,0.934309982186006,0.929742504659688,0.930826633479688,0.931949587849716,0.933298526831442,0.934243281882112,0.935041694474986,0.934893360963343,0.927958520412268,0.9247827895254,0.920588634595501,0.918834516155794,0.916814592027438,0.913077383955556,0.90842628216764,0.907417813393848,0.90807087905585,0.910429282338292,0.901899607655317,0.897882656517851,1.08556237877025,0.904727899645785,0.879585867185638,0.87635239573719,0.875735169044445,0.872689852184592,0.87601292105618,0.87144743458371,0.879676460135703,0.875831735156052,0.879589849293334,0.878374310919394,0.879196616158439,0.880944761436603,0.880817333990358,0.886423146098182,0.890500824377998,0.884802428266263,0.872551473942186,0.87484715902843,0.873410613677411,0.876654040395097,0.877873560876731,0.879597813508724,0.879547041635611,0.898302768879688,0.885566992943728,0.886195170432636,0.884000033565693,0.882802414676382,0.886445047690505,0.883334026053682,0.883600827269256,0.87817321448079,0.869851604924885,0.870991483252617,0.879364860208559,0.878426078319431,0.885581925847585,0.889680510192801,0.889383843169513,0.889781058412103,0.890435119601029,0.891741250925032,0.892210144106134,0.89533510311989,0.897691515348485,0.901257492789477,0.903449643075647,0.896265920793627,0.985987784799596,0.872799360146208,0.872353364084353,1.11679205836933,1.07974850153535
1.02667696122847,1.03070884526979,1.03673178315868,1.03710012812048,1.03928033208356,1.04477564070285,1.10624942824646,1.05604500548007,1.06037554759853,1.06312320190817,1.06780217844995,1.07060956437502,1.07609491772507,1.07972859099688,1.08485555465436,1.08685656377117,1.09255097777521,1.09500992927695,1.1006545669348,1.10213790205124,1.10715535774711,1.10887761932525,1.11303892186667,1.11742919560055,1.12349195456639,1.12159049814197,1.12023658152562,1.24935642354031,1.1133375799438,1.11011207271074,1.10976363828742,1.10921609847934,1.10913645632544,1.10709562613168,1.24868942050138,1.31138770616125,1.11077907574968,1.21573747932415,1.35260252080588,1.10468645097613,1.02281431676419,1.06670709883379,0.996353211130028,0.995087896409899,0.988953459505547,0.989242162313444,0.984358107225363,0.981122644723067,0.97964727382202,0.974610903114601,0.972885654955684,0.970172844088375,1.06288427544646,0.965200187104077,0.96609018817394,0.963325609906593,0.96623752615866,0.967920962186777,0.962373886167457,0.961419175847548,0.961759646055482,0.961893046663269,0.961912957201745,0.96206427729416,0.96195377380562,0.964073250626355,0.965384359584977,0.965273856096437,0.965475948061965,0.968689508971938,0.964758173149918,0.961467956666814,0.958340011072287,1.05646312678806,0.936840611626263,0.936670376522296,0.926889324496125,0.929486654240276,0.927591170977392,0.932700215150248,0.934406548297613,0.934898338597962,0.933112363296695,0.927133228592452,0.923968448501745,0.917992300378274,0.917637892793407,0.91556520573809,0.914320797083361,0.907405867070762,0.907883719994178,0.908626383079321,0.909070388087328,0.900103677084812,0.899816965330762,1.08543296027016,0.886671032302204,0.879734200697282,0.881383788809991,0.872596272653756,0.87305521056562,0.877451457461047,0.87635239573719,0.879754111235758,0.873311060985032,0.878023885442222,0.878772521688908,0.880474872728577,0.88207568002202,1.02141062380165,1.17593631291129,1.03314788623306,0.872431015184408,0.872753565907714,0.874586330974399,0.87258930396529,0.872508666284463,0.876953693999155,0.879308115173903,0.963457019460533,0.894587462400129,0.884584407869954,0.886524689844408,0.88508316685877,0.883470413242241,0.884971667843306,0.881727245598696,0.884252897404334,0.876666982245106,0.87031850705214,0.871117915171938,0.874262784724169,0.884249910823563,0.882986587157282,0.885761120693866,0.890617301028081,0.888753674626759,0.890233027635501,0.8866332022791,0.891737268817337,0.894170336619064,0.897710430360037,0.901452616066538,0.904358559157062,0.900022043877062,0.966198700608632,0.871072120933444,0.871077098568063,0.872640075838403,0.874865078513058
1.0266072743438,1.02858837292213,1.03631366185069,1.03751824942847,1.04143067023894,1.04553224116492,1.1178373616393,1.05625406613407,1.05649299259578,1.06503461360184,1.06922578195096,1.07075889341359,1.0761546493405,1.07659268118696,1.08501483896217,1.08725477454068,1.09279985950615,1.09418364193021,1.10064461166557,1.10250624701304,1.10658790740055,1.1075734790551,1.11212303709679,1.11322807198219,1.12174978244977,1.12219776956547,1.11947998106354,1.1154680075607,1.11290950336658,1.11047046240331,1.10885770878678,1.10772280809366,1.10716531301635,1.10749383690119,1.11084876263434,1.3195311163978,1.14236714504132,1.2190924050573,1.2926917105326,1.14546323377429,1.02204776103287,1.07183406249128,0.996442808553168,0.995925134552801,0.987447227269862,0.985281956210634,0.98398378910202,0.983455164305492,0.980608952830395,0.974565108876107,0.974574068618421,0.975870244673187,0.970117094580643,0.967653165444279,0.965237021600257,0.964367926595795,0.966662616155115,0.966723343297466,0.965654147381322,0.960400751804518,0.960008514196548,0.961712856290065,0.962075228090322,0.961960742494087,0.961779556593958,0.966485412362682,0.968093188344592,0.965792525623728,0.965978689158476,0.969142473722259,0.964389828188118,0.982566158762553,1.058971854636,0.952207565221782,0.934562846024647,0.934435418578402,0.925278561933444,0.928354740127934,0.928147670527787,0.933290562616052,0.934851548832544,0.935184054825087,0.93156929656483,0.927449806154215,0.925075474440992,0.917972389839798,0.91670707511967,0.916909167085198,0.914499991929642,0.907701538567126,0.907241605128338,0.907299345689918,0.912642338689862,0.900635288462112,0.900077793384794,0.893883624865014,0.886288749963471,0.882668018541671,0.880306628678457,0.866826198603508,0.873810815500772,0.879109009789146,0.881989069179651,0.878718763235023,0.876081612413921,0.877978091203728,0.879443506835537,0.879030363162167,0.879222499858457,1.02324239334141,0.867257261761506,0.867712217565675,0.868219936296805,0.868368269808448,0.87461818783596,0.871763016618549,0.873094036115648,0.87647086344112,0.878590340261855,0.963575487164463,0.879190642996896,0.883056274041947,0.885489341843673,0.884851209085528,0.884139407335023,0.886451020852048,0.888565520038164,0.883566979353848,0.883174741745877,0.870311538363673,0.871366796902883,0.874312561070358,0.880497769847824,0.881845713302627,0.886162318044151,0.884399239862131,0.890371405877907,0.890992614678347,0.889343026565638,0.887498315175868,0.974822950349367,0.898277880706593,0.904043972649146,0.904720930957319,0.898241046210413,0.880137389101414,0.879599804562571,0.875837708317594,0.873382738923545,0.873773981004592
1.02613937668962,1.02896667315317,1.03509911900367,1.03636343819688,1.0433420819326,1.04484532758751,1.11688165579247,1.05872297290505,1.05652285840349,1.06440743163985,1.06924569248944,1.0698927849899,1.07575643857098,1.07846427180367,1.08252602165271,1.08682669796345,1.08991283142718,1.09720008850927,1.10066452220404,1.10202839408962,1.10455703247603,1.1087581560944,1.10871833501745,1.11739932979284,1.11717035860037,1.12323311756621,1.12141130329568,1.21306946716841,1.11274026378953,1.11051028348026,1.10678701278531,1.10686665493921,1.24875910738604,1.10619965190028,1.1044176587067,1.3722641775506,1.41712262073627,1.41698324696694,1.29249260514784,1.14532386000496,1.01619406272103,1.01614428637484,0.997746948823324,0.997269095899908,0.986060458265032,0.983637345732544,0.983339683182333,0.985000222091203,0.980905619853683,0.973953855344904,0.975330669080496,0.975395378330542,0.970520282984775,0.967331610247897,0.965213128954087,0.965391328273444,0.96627436065484,0.963802467303086,0.964235521514931,0.959708860592489,0.959686959000166,0.961067754843453,0.961249936270505,0.962154870244224,0.961636200716933,0.96347195236439,0.969408279410909,0.966609853228155,0.966524237912709,0.967600402517319,0.966659629574344,1.12005738667934,0.953547544461194,0.951086601905602,0.934626559747769,0.93431097771293,0.927798240577539,0.929177045366979,1.10735446313186,0.933507587485436,0.935241795386667,0.93545583367528,1.17957994145234,0.924934109617815,0.92561704108753,0.919457716010083,0.915385015364885,0.916290944865528,0.917443765043269,0.906118650758311,0.906469076235482,0.908937983006465,0.913791176759908,0.904537754003343,0.898863250537778,1.07028104049017,0.887162822602553,0.884698893466189,0.86522937341776,0.866526544999449,0.880318575001543,0.879797914420404,0.883116005657374,0.880978609352011,0.875918345998421,0.87758386254191,0.879942265824353,0.879471381589403,0.879187656416125,1.02031554418549,0.866394139918586,0.867348850238494,0.86896857254349,0.86919754373596,0.868724668447163,0.872543509726795,0.871870533526318,0.875844677006061,0.874658008912911,0.875994006044628,0.879575911916401,0.879271280677723,0.880563474624793,0.886099599847953,0.884004015673389,0.884546577846851,0.890073743327695,1.12466667633646,1.12533367937539,0.87291583679629,0.872138330268816,0.876248860937117,0.877640607576566,0.881211562652176,0.883418645842204,0.885319106739706,0.891414718094031,0.891744237505804,0.887306178479578,0.887600854449017,0.890974695193719,0.971221133939119,0.905340148703912,0.906601481316345,1.0348701478112,0.880447993501635,0.881515198363931,0.875711276398274,0.874393198751185,0.872319516168944
1.02245592707163,1.03441220542626,1.02996220007695,1.03798614708265,1.04408872712544,1.12423859975923,1.13590617530597,1.05665227690358,1.0561047370955,1.06346168106226,1.06811079179633,1.06961403745124,1.0755772437247,1.07910140903489,1.08064447576676,1.0858909026551,1.09061965554307,1.1548610079348,1.1012319725506,1.10289450251332,1.10613992028485,1.11024149121084,1.11257102421249,1.11742919560055,1.12065470283361,1.12080403187218,1.12006734194858,1.17227277383177,1.17239223706263,1.24496614980643,1.10782236078604,1.19255165726924,1.20141184689091,1.10266553132085,1.1027053523978,1.25817679208503,1.38855099802369,1.39023343852489,1.04858850882094,1.04165964143141,1.1167323267539,1.06924569248944,0.997109811592103,0.989061971940239,0.986086341965051,0.983432267186244,0.985081855298954,0.985787683887916,0.983269996297668,0.975079796295703,0.975796575680827,0.976606934596786,0.970106143784481,0.967842315559798,0.966271374074068,0.965669080285179,0.965387346165749,0.962000563571038,0.964987144342388,0.963358462295078,0.96128278865899,0.961748695259321,0.959605325792415,0.961392296620606,0.95959337946933,0.96093534976259,0.967122549593903,0.966571027678127,0.96683484231293,0.965757682181396,0.968023501459927,0.973572568533095,1.13860405326942,0.950474352847475,0.932309968596125,0.930863467975868,0.929616072740368,0.928525970758825,1.05532822609495,0.935880923671736,0.935527511613793,0.93561113587539,1.07050005641341,0.924704142898421,0.918065969370634,0.92014363406057,0.915805127726722,0.916286962757833,0.91296787599394,0.905432732707824,0.906296850077668,0.913599040063618,0.913151052947916,0.903389911460221,0.901032503704702,1.07119692526006,0.887037386210156,0.885707362239982,0.887338035341139,0.890046864100753,0.894184273995996,0.884799441685491,0.884521689673756,0.882603309291626,0.875581857898182,0.878066693099945,0.879687410931864,0.879238428289238,0.879553014797153,0.9104840363191,0.865942170695188,0.866913804972801,0.869100977624353,0.870051705836566,0.866870001788154,0.870019848975005,0.871575857556878,0.873806833393076,0.874700816570634,0.875490269421194,0.879324043604683,0.879400699177815,0.879630665897209,0.88515683585113,0.884076689138825,0.886021948747897,0.892176296190726,0.890394302997153,0.893480436460882,0.871270230791277,0.872579348696051,0.875000470174693,0.877586849122682,0.881697379790983,0.880640130197925,0.884597349719964,0.890509784120312,0.889105095630854,0.8877382371645,0.88874869699214,0.973420252913756,0.97328187467135,0.90683941225113,0.90703154894742,0.910440233134454,0.88296767214573,1.10223745474362,0.875760057217539,0.871766003199321,0.873032313446373
1.02373020153407,1.02566152376621,1.02878747830689,1.03859341850615,1.04013648523802,1.04298369224004,1.11752874829293,1.08636875557851,1.05425305701726,1.06280463329256,1.06362096537006,1.06961403745124,1.07285945522277,1.07617455987897,1.08289436661451,1.08853900427236,1.09008207100422,1.09195366162094,1.09614482997006,1.10070434328099,1.10674719170836,1.10472627205308,1.11644362394601,1.11777763002388,1.12161040868044,1.11868355952452,1.11705089536951,1.23612587072323,1.19781799469605,1.10955457763343,1.10776262917062,1.1058910385539,1.20263634500716,1.31963066909017,1.1031533395135,1.30460816781028,1.39752069560698,1.05177419497704,1.04189856789311,1.042396331355,1.11551778390689,1.06774244683453,1.04205785220092,0.993332782443269,0.984713510337153,0.984260545586832,0.983511909340147,0.984533319963949,0.982448686585547,0.974876708803251,0.976561140358292,0.976375972350469,0.974298307660533,0.97080301263113,0.966640714562792,0.966644696670487,0.967205178328577,0.966470479458825,0.965379381950358,0.964156874887953,0.96309066555258,0.961011009808797,0.959198155280588,0.958905470364996,0.958326073695354,0.960564018220019,0.967260927836309,0.965514773611993,0.966118062927806,0.965973711523857,0.9663062175164,0.966929417370689,0.997816635707989,1.01592527045161,0.93284556208112,0.931165112633774,0.931557350241745,0.928301977200974,1.05658259001892,0.935801281517833,0.936086997744959,1.17886316206722,0.926982904026961,0.926982904026961,0.917208820689256,0.91854382229405,0.918994795990524,0.91782803843585,0.91529143583405,0.904945920042094,0.906905117028099,0.913930550529238,0.914065942190872,0.90040830832349,0.900175355023324,0.899388888753535,0.896176323370487,0.882835267064867,0.877447475353352,0.890171304966226,0.8837491607809,0.886043850340221,0.885226522735794,0.881114001013646,0.878575407357998,0.880189156501451,0.881371842486906,0.880982591459706,0.879766057558843,0.879334994400845,0.887135943375611,0.869859569140276,0.869371760947622,0.870066638740423,0.867041232419045,0.868281658966079,0.869227409543673,0.873591799577539,0.875266275863343,0.87649176950652,0.879415632081671,0.880203093878384,0.880609268863288,0.885811892566979,0.883518198534582,0.885547082405253,0.891674550621139,0.894003088095868,0.89426690273067,0.87093175163719,0.872407122538237,0.874660995493682,0.878227968461598,0.880867110336548,0.881067211248228,0.884323579815923,0.886219063078806,0.889542131950395,0.883255379426704,0.88867502799978,0.890220085785492,0.904441187891736,0.906156480781414,0.906947924685822,0.903657708202718,0.96543513145809,0.887471435948926,1.06980318756676,0.869096995516658,0.87179487348011
1.02154999757098,1.02361073830321,1.03097763753921,1.03612451173517,1.04253570512433,1.04203794166244,1.04257552620129,1.05474086520992,1.05490014951772,1.06151044829164,1.06429792367824,1.06828003137337,1.07543786995537,1.07599536503269,1.08301382984536,1.08916618623434,1.08918609677282,1.17829571172066,1.0969711173168,1.1008636275888,1.10701598397778,1.10695625236235,1.11484082559871,1.11177460267346,1.11873333587071,1.11670246094619,1.27814706217613,1.25173573288815,1.30695761135041,1.1974098286573,1.10685669966997,1.19458253219376,1.27251237978751,1.27242278236437,1.22399039752231,1.30437919661781,1.11771789840845,1.27602658982847,1.04791155051276,1.40299609368779,1.02886712046079,1.06233673563838,1.0536059645168,1.08058474415133,0.98789919649326,0.985409383656878,0.984604002375537,0.983507927232452,0.982582087193334,0.975971788419412,0.976640782512195,0.976204741719578,0.973570577479247,0.972980230013444,0.967967751952195,0.967112594324665,0.966723343297466,0.96584827513146,0.965421194081157,0.965596406819743,0.965414225392691,0.960938336343361,0.959065750199725,0.958462460883912,0.95772776201416,0.958090133814417,0.9903621301027,1.10776262917062,0.963184245083416,0.964523228795905,0.962428640148265,0.956180713174601,0.952919366972287,0.949421085362112,0.933378168985345,0.932046153961323,0.930864463502792,0.930111845148412,1.10961430924885,0.936984963030211,0.937095466518751,1.08318306942241,0.931961534172801,0.915191883141671,0.917061482704536,0.918546808874821,0.918161539955317,0.917666763074197,0.916038081026887,0.91738602448169,0.907235631966795,0.914273011791019,0.915315328480221,0.899880679053884,0.899779135307659,0.897221626640459,0.896450093274527,0.881752133771791,0.880264816547659,0.887190697356419,0.884211085273536,0.886144398559523,0.884044832277264,0.880934806167365,0.878405172254031,0.879435542620147,0.879721258847273,0.881806887752599,0.88284124022641,0.873956162431644,0.887015484617833,0.872156249753444,0.869873506517209,0.864184070147787,0.865210458406208,0.869265239566777,0.869244333501378,0.871523094629918,0.873303096769642,0.876084598994692,0.880919873263508,0.880689906544114,0.881695388737135,0.883003511114986,0.885632697720698,0.886124488021047,0.884605313935354,0.895815942624077,0.894809464904132,0.887098113352507,0.872053710480294,0.875666477686703,0.877139857533903,0.880649089940239,0.880978609352011,0.885278290135831,0.886223045186502,0.887863673556896,0.883889530077154,0.889655622019706,0.890607345758843,0.980745340018953,0.904777675991974,0.915132151526244,1.00151004059523,0.895352027077594,0.890463989881818,1.05619433451864,0.869211481112893,0.872591295019137
1.05202307670799,1.02473568372709,1.02636834788209,1.03358591807952,1.04338190300955,1.04197821004702,1.0434217240865,1.05393448840165,1.05597531859541,1.0606841609449,1.10733455259339,1.06812074706557,1.07238160229936,1.07572657276327,1.08142098676731,1.08724481927144,1.08738419304077,1.08951462065767,1.09703084893223,1.09976854797264,1.10676710224683,1.10840972167107,1.1145222569831,1.11700111902332,1.11674228202314,1.28723622299027,1.26904794609275,1.25271134927346,1.10987314624904,1.10798164509385,1.20061542535188,1.2728508589416,1.20784295081855,1.37121887428062,1.30075547861524,1.30321443011699,1.23157631268154,1.33326938794601,1.20156117592948,1.42726704008962,1.18340276483967,1.07145576226024,1.0213708027247,0.999130731247383,0.986821040834803,0.98604154325348,0.98536259389146,0.981709010081176,0.981517868911809,0.976901610566226,0.976819977358476,0.974772178476254,0.973413284225289,0.973394369213738,0.967766655513591,0.967854261882884,0.966366944658752,0.967339574463288,0.966350020701047,0.965631250262076,0.965615321831295,0.960652620116235,0.958846734276492,0.959672026096309,0.959423144365363,0.958727271045638,0.960063268177356,0.972229602712911,0.995775805514234,0.960994085851093,0.959285761649881,0.95373072141517,0.953405184111093,0.944614681374087,0.932060091338256,0.93395059696652,0.93104564940292,0.930695223925749,1.10429819547585,0.938423499435078,0.966413734424169,1.08403922257686,0.923141165628081,0.923754410213132,0.917286471789312,0.917354167620129,0.918628442082571,0.917288462843159,0.915980340465308,0.916286962757833,0.908096762755868,0.911047504557962,0.917081393243012,0.899228608918806,0.90008476207326,0.897387879636731,0.894859241250322,0.882840244699486,0.882580412172378,0.883044327718861,0.88651473457517,0.886481882186685,0.87987058788584,0.878443997804059,0.878492778623324,0.879622701681818,0.874439988516602,0.879794927839633,0.881274280848375,0.875249351905638,0.875856623329146,0.874335458189605,0.872141316849587,0.863260221162516,0.865373724821708,0.869961112886501,0.869579826074693,0.870630106979284,0.873552974027512,0.873301105715795,0.880526640128614,0.881857659625712,0.882495792383857,0.882884047884132,0.886677005463747,0.886408213194325,0.88561477823607,0.897123069475005,0.897183796617355,0.880118474089863,0.877594813338072,0.876208044333242,0.87809158127304,0.879379793112415,0.879737187278053,0.88250972976079,0.886645148602186,0.880327534743857,0.880207075986079,0.889822870542902,0.893604877326355,0.958925380903471,0.946245354475244,0.913873805494582,0.897308237482829,0.898326661525859,1.09311842812176,0.880485823524738,0.876717754118219,0.872587312911442
1.01538768591276,1.02158981864793,1.03011152911552,1.03396421831056,1.04275472104757,1.04188861262388,1.0428940948169,1.05574634740294,1.05645317151882,1.05874288344353,1.06524367425583,1.06869815268136,1.07379525053113,1.07585599126336,1.08235678207567,1.08669727946336,1.08672714527107,1.19061037976786,1.0976281650865,1.10087358285804,1.10493533270707,1.10991296732599,1.11429328579063,1.11798669067787,1.11683187944628,1.26198966020312,1.26830130089991,1.25482186635188,1.28463789771919,1.10785222659376,1.20128242839082,1.19962985369734,1.09966899528026,1.29206452857062,1.25542913777539,1.26019771174031,1.3687400122404,1.43382756251736,1.43807846248191,1.04802105847438,1.18695679595758,1.06131134290689,1.00893667144665,1.00184851974931,0.989723001817631,0.986323277372911,0.982993239812856,0.982439726843232,0.980835932969018,0.987052003081121,0.987865348577851,0.973154447225106,0.973337624179082,0.969495885780202,0.967634250432728,0.96611408082011,0.965455041996566,0.964088183530211,0.96446150612663,0.9652429947618,0.963589424541396,0.961054812993444,0.960952273720294,0.960821859693278,0.959115526545914,0.958415671118494,0.959899006234931,0.959200146334435,0.960268346723655,0.959250918207548,0.959199150807512,0.95468841831585,0.951913884779266,0.944561918447126,0.937406070918972,0.934825665132526,0.929937627936749,0.930775861606575,0.985101765837429,0.942495204553352,0.944613685847163,1.08340208534564,0.924084925151828,0.924133705971093,0.921476644611515,0.918103799393738,0.916778753058182,0.916949983689073,0.91633076594248,0.916526884746465,0.910120668991919,0.909566160495372,0.914922095345326,0.939753523405253,0.898094703752617,0.896367464539853,0.891113073436125,0.890712871612764,0.882117492152819,0.883208589661286,0.884912931754803,0.887070238598641,0.879984077955152,0.879580889551019,0.878681928738843,0.880825298205749,0.875246365324867,0.878864110165895,0.879880543155078,0.876024867379266,0.87675757519517,0.875033322563177,0.873154763257998,0.869949166563416,0.897480463640643,0.870817266040955,0.871290141329752,0.871719213433903,0.874753579497594,0.874535559101286,0.879769044139615,0.882028890256603,0.883195647811276,0.883641643873131,0.887523203348963,0.888591403738182,0.886676009936823,0.895136993262057,0.894347540411497,0.879279244893113,0.877783963453591,0.876714767537447,0.878459926234839,0.87736285556483,0.879544055054839,0.880223999943784,0.885224531681947,0.882877079195666,0.879453462104775,0.938859540227695,0.896764679782443,0.967560581440367,0.984010668328963,0.901060378458568,0.897956325510211,0.894959789469624,0.880726741040294,0.879332007820074,0.879852668401212,0.871436483787548
1.01606464422094,1.02072371022424,1.02664709542075,1.02905627057631,1.03911109250652,1.0431330212786,1.04279454212452,1.06432778948595,1.0560250949416,1.05851391225106,1.0617891958303,1.06925564775868,1.0721028547607,1.08002724907401,1.08051505726667,1.08620947127071,1.08615969492452,1.20171050496804,1.09774762831736,1.10019662454986,1.10535345401506,1.1099428331337,1.11595581575335,1.11672237148467,1.2528009466966,1.26448843278182,1.27920232071534,1.25148685115721,1.10834999005565,1.10671732590064,1.20177023658347,1.20423914335445,1.20582203116327,1.21273098801433,1.237748579609,1.0838401171921,1.22852004502553,1.35782903715574,1.27275130624922,1.38157235428797,1.15244187751001,1.09079885038935,1.00901631360055,0.999728047401653,0.991288965668742,0.990446749891222,0.980676648661212,0.982373026539339,0.981375508561708,0.98491261572191,0.968813949837411,0.97103994803899,0.970391860011607,0.969454073649403,0.967229070974748,0.964996104084702,0.96584031091607,0.965442100146557,0.962309176917411,0.962763137194656,0.963599379810634,0.95874618605719,0.958992081207365,0.962349993521286,0.960762128077852,0.955768565028154,0.957270815156143,0.958510246176254,0.958587897276309,0.962073237036474,0.961238985474344,0.951761569159927,0.951654052252158,1.01794619010689,0.937585265765253,0.935844089175556,0.928107849450836,0.9287509598436,1.11051028348026,0.941795349125932,0.943148270215354,0.962077219144169,0.923306423097429,0.922487104439155,0.921126219134344,0.919404953083122,0.917505487712544,0.914379533171864,0.913355135967291,0.910389461261341,0.905472553784775,0.905803068723471,0.919677727460239,1.15988841889991,0.898056873729514,0.8971061455173,0.893873669595776,0.89006976122,0.881740187448705,0.884040850169569,0.884001029092617,0.88272277252248,0.881711317167916,0.877892475888283,0.880374324509275,0.883418645842204,0.880277758397668,0.880519671440147,0.879431560512452,0.876500729248834,0.876668973298953,0.876613223791221,0.873379752342773,0.885359923343581,0.965178285511754,0.871850622987842,0.872867055977025,0.873692347796841,0.874559451747457,0.875596790802039,0.881244415040661,0.880830275840368,0.883760111577062,0.883410681626814,0.885865651020863,0.88717775550641,0.888213103507144,0.894021007580496,0.893272371333811,0.879614737466428,0.877774008184353,0.877863605607493,0.877046278003067,0.903685582956584,0.878092576799963,0.882687929080147,0.885299196201231,0.880216035728393,0.879945252405124,0.89230372363697,0.977216197074142,0.900390388838861,0.990987321010836,0.889609827781212,0.898015061598715,0.899174850464922,0.885076198170303,0.878649076350358,0.881273285321451,0.878538572861818
1.01485010137392,1.0190810908,1.0277123092292,1.03377506819504,1.03895180819871,1.04167955196988,1.04128134120037,1.11305883240514,1.05376524882461,1.0581057462123,1.06286436490799,1.06690620421855,1.07225218379927,1.07804615049568,1.08167982376749,1.08326271157631,1.08631897923232,1.21327852782241,1.09925087397227,1.09981832431882,1.10455703247603,1.10798164509385,1.11424350944444,1.19735009704187,1.25637488835298,1.27936160502314,1.11005234109532,1.10966408559504,1.10763321067052,1.10643857836198,1.20327348223838,1.20398030635427,1.20683746862553,1.24395071234417,1.23705171076235,1.23716121872397,1.46148330046006,1.36958621012562,1.35159703861286,1.34281649114509,1.04397921916382,1.44063696667603,1.44190128586924,1.48522661759229,0.992113261961635,0.986434776388375,0.981161470273095,0.981965856027512,0.981461123877154,0.981413338584812,0.967938881671405,0.970800026050358,0.970754231811864,0.969812463341965,0.966898556036052,0.962450541740588,0.963432131287438,0.963936863437796,0.96086964498562,0.962811918013921,0.961112553555023,0.959884073331075,0.958227516529899,0.960746199647071,0.959902988342626,0.957325569136952,0.957992572175886,0.958269328660698,0.958065245641322,0.963604357445253,1.06816056814252,0.955538598308761,0.949052740400312,0.949469866181378,1.1087581560944,0.928767883801304,0.926807691288375,0.929661866978862,0.940175626820937,0.94379735376966,0.944671426408742,0.959925885461873,0.923057541366483,0.921846980627163,0.922414430973719,0.922066992077319,0.918504996744022,0.91458361619124,0.910687123811552,0.909624896583875,0.907292377001451,0.905278426034638,0.904794599949679,0.904078816091479,0.898665140679945,0.898218149091166,0.89540080789686,0.897174836875042,0.890059805950762,0.884468926746795,0.884327561923618,0.881317088506098,0.882532626880037,0.881314101925326,0.880460935351644,0.884143389442718,0.882897985261065,0.881863632787255,0.880613250970983,0.876504711356529,0.877668482330432,0.878546537077209,0.885546086878329,0.883250401792085,0.882698879876309,0.877352900295593,0.879119960585308,0.875492260475041,0.876583357983508,0.876761557302865,0.880279749451515,0.878284713496254,0.881555019440882,0.882696888822461,0.883493310361488,0.888545609499688,0.891004561001433,0.891896553125143,0.890507793066465,0.877167732287769,0.878361369069385,0.875864587544536,0.876007943421561,0.903239586894729,0.91887533275967,0.928477189939559,0.881734214287163,0.882064729225859,0.924011256159468,0.893961275965069,0.895804991827916,0.899760220296107,0.894123546853646,0.88837238781495,0.898355531806648,0.899548173061341,0.896413258778347,0.89217231408303,0.884093613096529,0.883473399823012
1.01342649787291,1.01839417722259,1.07518898822443,1.07908149849642,1.0376576231978,1.03972831919927,1.04075371193076,1.11805637756253,1.05216245047732,1.0576577590966,1.05981805252121,1.06743383348815,1.07235173649164,1.07944984345822,1.0789719905348,1.08626920288613,1.08701584807897,1.08825030146446,1.09751865712489,1.09957939785712,1.10655804159284,1.10880793244059,1.11110759963453,1.2684307194,1.23479186464536,1.10989305678751,1.10863869286354,1.10817079520937,1.1065480863236,1.10476609313003,1.20684742389477,1.100286221973,1.24477699969091,1.33553918933223,1.23801737187842,1.08357132492268,1.23512038853021,1.07481068799339,1.06275485694637,1.34817242599504,1.04168950723912,1.08085353642075,1.08911640988815,1.01194316275647,0.994055534989936,0.986978334088761,0.981830464365877,0.981470083619468,0.98083394191517,0.977987730440074,0.973943900075666,0.971504859112397,0.971711928712544,0.967576509871148,0.966343052012581,0.962157856824996,0.963044871314087,0.961996581463343,0.959619263169348,0.958725279991791,0.961094634070395,0.962151883663453,0.955681954185785,0.959403233826887,0.957127459279119,0.956122972613021,0.95911453101899,0.9585749554263,0.954820823396713,0.956438554647861,1.17201393683159,0.945275711251479,0.947862090199468,0.938017324450175,0.937629068949899,0.92826414717787,0.928140701839321,0.928522984178053,1.10087358285804,0.945129368793682,0.944907366289679,0.943896906462039,0.925058550483288,0.922742954858568,0.922731008535482,0.923483626889862,0.923773325224683,0.909957402576419,0.908526830386942,0.90726052013989,0.907808059947971,0.904654230653425,0.902632315471222,0.903428737010248,0.899572065707512,0.897406794648283,0.896518784632268,0.895206680146722,0.89005383278922,0.889565029069642,0.883224518092066,0.881092099421322,0.883226509145914,0.883575939096162,0.881231473190652,0.881701361898678,0.882039841052764,0.882641139314729,0.883149853572783,0.878168236846171,0.878114478392287,0.879424591823986,0.878692879535005,0.87723642364551,0.879444502362461,0.881463430963894,0.879300150958513,0.878295664292415,0.877013425614582,0.882601318237778,0.879584871658715,0.87967845118955,0.885629711139927,0.885473413412893,0.88439127564674,1.11977863914068,0.892498846914031,0.893090189906759,0.888060787887806,0.877856636919027,0.874075625662498,0.874158254397172,0.87264206689225,0.903520325487236,0.920731990472525,0.912691119509128,0.882192156672103,0.883279272072874,0.935459815782975,0.896140484401231,0.897199725048136,0.900058878373242,0.893955302803526,0.893620805757135,0.89810864112955,0.896422218520661,0.896148448616621,0.893328120841543,1.1894356579978,1.0434217240865
1.01383466391166,1.01415323252727,1.02104227883985,1.02529317880441,1.037289278236,1.04277463158604,1.04100259366171,1.11468154129091,1.05039041255298,1.05482050736382,1.0594198417517,1.06719490702645,1.07060956437502,1.07617455987897,1.08194861603691,1.08545287080863,1.08858878061855,1.0890765888112,1.09670232504738,1.09944002408779,1.10482582474545,1.10817079520937,1.10939529332562,1.24670832192305,1.25474222419798,1.1094152038641,1.10827034790175,1.10664763901598,1.17613541829605,1.10447739032213,1.35119882784334,1.09970881635721,1.24092431049587,1.09199348269789,1.27835612283012,1.31936187682075,1.07969872518916,1.29814719807493,1.26329380047328,1.14463694642755,1.08687647430964,1.52266838519578,1.38574361209862,0.997279051169146,0.994599092690322,0.987871321739394,0.982468597124022,0.981974815769826,0.980327218710965,0.977509877516658,0.974685567633884,0.972842847297962,0.970492408230909,0.967766655513591,0.966889596293738,0.961713851816988,0.963010027871754,0.959323591672985,0.958209597045271,0.958700391818696,0.961427140062939,0.961664075470799,0.956442536755556,0.958744195003343,0.958058276952856,0.955886037205161,0.95677006511348,0.957420144194711,0.955002009296841,0.955556517793389,0.954503250308026,0.945723698367181,0.946265265013719,0.947110467372011,0.936378687133627,0.935673854071589,0.927783307673682,0.928167581066263,0.934579769982351,0.94437077727776,0.944802835962681,0.927093407515501,0.926245218576437,0.924033157751791,0.922835538862479,0.92285943150865,0.927190969154031,0.909450679372213,0.908766752375574,0.907719458051754,0.907020598151258,0.905703516031093,0.900506865488944,0.903667663471956,0.901415781570358,0.897979222629459,0.897494401017576,0.896491905405326,0.89380896034573,0.889516248250377,0.880685924436419,0.882676978283985,0.883513220899964,0.884702875573884,0.88214138479899,0.879853663928136,0.883618746753884,0.884385302485198,0.88329918261135,0.879498260816345,0.879038327377557,0.879466403954784,0.880779503967255,0.878331503261671,0.879627679316437,0.88322551361899,0.880569447786336,0.881245410567585,0.878207062396199,0.88064411230562,0.879713294631883,0.879873574466612,0.883494305888412,0.885826825470836,0.985992762434215,0.898188283283453,0.89343265116854,0.893284317656896,0.888245955895629,0.873044259769459,0.874414104816584,0.874454921420459,0.872530567876786,0.871613687579982,0.876195102483233,0.922946042351019,0.94859678906922,0.883838758204041,0.892463007944775,0.894707921157907,0.89605885119348,0.899585007557521,0.896335607678292,1.02205771630211,0.897949356821745,0.890568520208816,0.89379303191495,0.894052864442057,0.894960784996547,0.998632967785491
1.01005166160129,1.01404372456566,1.02101241303214,1.02406868068815,1.03135593777025,1.04108223581561,1.0422370470472,1.04769253458953,1.05000215705271,1.05406390690174,1.05916100475152,1.06666727775684,1.07162500183728,1.07587590180184,1.0817594659214,1.08493519680826,1.08908654408044,1.08953453119614,1.09802637585601,1.09705075947071,1.10483578001469,1.10769294228595,1.20274585296878,1.20416945646979,1.10894730620992,1.10833007951717,1.1072847762472,1.10626933878494,1.10488555636088,1.28719640191332,1.24771380411607,1.2064093920483,1.24286558799725,1.09352659416051,1.27312960648026,1.08573161834729,1.07886248257319,1.07917109591956,1.35842635331001,1.33810764879559,1.38206016248062,1.06619938010266,1.45751114803416,0.996412942745455,0.993520937031864,0.985171452722094,0.982870790001231,0.980440708780276,0.979208246448632,0.977959855686208,0.974702491591589,0.972200732432121,0.969933917626667,0.965994617589256,0.964695454953719,0.962247454248136,0.962462488063673,0.956233476101561,0.95695423759438,0.956858667009697,0.959578446565473,0.959109553384371,0.956041339405271,0.958411689010799,0.958430604022351,0.958027415618219,0.95373072141517,0.958699396291772,0.95721207906764,0.955270801566263,0.949044776184922,0.945375263943857,0.945411102913113,0.944344893577741,0.936508105633719,0.937596216561414,0.931791299068834,0.929745491240459,1.01686106575996,1.01432247210432,0.947722716430138,0.926061046095537,0.927477680908081,0.923453761082149,0.923880842132452,0.923406971316731,0.925252678233425,0.907515375032378,0.90852882144079,0.908828475044849,0.907859827348008,0.904584543768761,0.902398366644132,0.903770202745106,0.900421250173499,0.900279885350322,0.89880053234158,0.89728235378281,0.89645606643607,0.887907476741543,0.886458985067438,0.885897507882424,0.883764093684757,0.885759129640019,0.884070715977282,0.881293195859927,0.883747169727053,0.882415154703031,0.882968667672654,0.882990569264977,0.879732209643435,0.879681437770322,0.881498274406226,0.880069693270597,0.880144357789881,0.884288736373591,0.883501274576878,0.881559001548577,0.883102068280441,0.880024894559027,0.879340967562388,0.878076648369183,0.881999024448889,0.890157367589293,0.897485441275262,0.897776135137007,0.897169859240423,0.890972704139872,0.889360946050266,0.873346899954288,0.872895926257815,0.872635098203783,0.870403126840661,0.870607209860037,0.876116455856254,0.934856526467163,0.883678478369311,0.887686469764463,0.893189742599137,0.893558087560937,0.896278862643637,0.896432173789899,0.896586480463086,0.901892638966851,0.90258453017888,0.891370914909385,0.891216608236199,0.894623301369385,0.894915986284977,1.14342240358053
1.0079510997921,1.01419305360422,1.01846386410725,1.02379988841873,1.03438233961855,1.04236646554729,1.04394935335611,1.04486523812599,1.04946457251387,1.05165473174619,1.13903212984665,1.06429792367824,1.06956426110505,1.12810124422351,1.08297400876841,1.08428810430781,1.08869828858017,1.08948475484995,1.09456194216125,1.10004729551129,1.10428824020661,1.10667750482369,1.24525485261433,1.24502588142186,1.10837985586336,1.10792191347842,1.1068367891315,1.10582135166924,1.103969671591,1.10308365262883,1.10052514843471,1.19782794996529,1.09551764800808,1.09290936746777,1.08926573892672,1.31815728924298,1.08067434157447,1.07810588211111,1.25778853658476,1.35606695450064,1.14789231946832,1.11379552232874,0.999459255132231,0.996651869207163,0.988056489747218,0.98613611831124,0.983131618055262,0.980414825080257,0.980438717726428,0.9795208419027,0.97421866550663,0.970435663196254,0.97090057426966,0.961719824978531,0.962858707779339,0.962221570548118,0.961328582897484,0.955554526739541,0.955645119689605,0.955003004823765,0.956623722655684,0.956174740013058,0.955019928781469,0.958170771495243,0.958634687041726,0.957238958294582,0.952562968333572,0.954793944169771,1.06166973259945,0.954590856677319,0.948789921292434,0.948118936145804,0.945302590478421,0.944326974093113,0.937858040142369,0.933736558677907,0.931752473518807,0.931447842280129,0.93372162577405,1.01057929087089,0.944300094866171,0.929556341124941,0.9263985297227,0.924536894375225,0.923172026962718,0.924105831217227,0.926623518807475,0.917495532443306,0.907746337278696,0.909165958672011,0.909605981572323,0.903826947779761,0.900477995208154,0.902398366644132,0.900846340169954,0.900247032961837,0.897685542186942,0.897728349844665,0.897136011325014,0.887299209791111,0.887219567637209,0.889923418762204,0.885879588397796,0.886536636167493,0.885961221605546,0.88430964243899,0.88403587253495,0.883367873969091,0.88214934901438,0.881624706325547,0.880584380690193,0.881787972741047,0.883117001184298,0.880832266894215,0.878767544054288,0.880018921397484,0.884799441685491,0.88415434023888,0.884395257754435,0.877056233272305,0.87960478219719,0.879999010859008,0.882068711333554,1.05608482655703,0.89678757690169,0.900354549869605,0.896373437701396,0.890232032108577,0.888275821703343,0.870491728736878,0.872999461057888,0.872913845742443,0.876805360487512,0.870604223279265,0.920364641037649,0.878867096746667,0.886459980594362,0.888659099568999,0.965561563377411,0.893376901660808,0.89553520403157,0.896896089336382,0.896561592289991,0.905650753104132,0.903886679395188,0.884577439181488,0.886394275817392,0.893109104918311,0.893438624330083,0.975440177042112
1.01034036440918,1.00945434544702,1.01953903318494,1.02408859122663,1.03217226984775,1.03868301592929,1.04238637608577,1.0449747460876,1.04838940343618,1.05224209263122,1.05537800244114,1.06434770002443,1.0700520692977,1.14767330354509,1.08115219449789,1.08378038557668,1.0889173045034,1.08915623096511,1.09692134097062,1.10281486035941,1.10484573528393,1.11751879302369,1.2221984490595,1.10711553667016,1.10752370270891,1.10716531301635,1.10643857836198,1.10512448282259,1.10370087932158,1.10191888612801,1.09999751916511,1.19643421227199,1.22169073032837,1.27864482563802,1.27916249963838,1.08696607173278,1.08213776615243,1.07665241280239,1.24929669192489,1.35523071188467,1.36196047388944,1.06422823679357,1.09728968593242,0.998314399169881,0.990321313498825,0.984851888579559,0.982754313351148,0.979780674429807,0.980530306203416,0.981409356477117,0.974172871268136,0.970106143784481,0.959295716919119,0.962063281767236,0.962007532259504,0.96199857251719,0.96120115545124,0.958655593107126,0.954652579346593,0.954463429231075,1.09965904001102,1.06353136794692,0.95422549829629,0.955448005358696,0.958047326156695,0.957583410610211,0.952566950441267,0.9524176214027,1.01063902248632,0.950929308651644,0.948377773145987,0.948631632511552,0.947615199522369,0.943291626092378,0.936417512683655,0.931422954107034,0.931069542049091,0.931499609680165,1.08855891481084,0.936791830806997,0.934727107967071,0.931433904903196,0.927575242546612,0.9307350450027,0.925463729941267,0.925738495372232,0.927451797208063,0.917735454431938,0.918711070817245,0.909992246018751,0.910503946857576,0.920418399491534,0.899885656688503,0.902066856178513,0.902160435709348,0.900217167154123,0.898860263957007,0.899548173061341,0.895764175224041,0.888509770530432,0.888260888799486,0.889985141431479,0.886028917436364,0.887223549744904,0.887263370821855,0.885595863224518,0.883592863053866,0.883698388907787,0.883568970407695,0.880007970601322,0.883629697550046,0.883210580715133,0.882233968802902,0.881164772886759,0.879774021774233,0.881047300709752,0.886724790756088,0.884684956089256,0.886649130709881,0.876289677540992,0.879361873627787,0.878824289088944,0.879278249366189,0.977162438620257,0.897342085398237,0.896899075917153,0.896777621632452,0.888876124438384,0.888961739753829,0.871116919645014,0.870261762017484,0.873037291080992,0.875802864875262,0.87461818783596,0.877266289453223,0.880166259382204,0.881754124825638,0.887363919041157,0.891213621655427,0.89454565026933,0.89630872845135,0.897806996471644,0.99648262963012,0.907885711048026,1.05546759986428,0.884737719016217,0.885535136082167,1.11779754056235,1.11393489609807,0.888463976291938
1.00770221806116,1.011923252218,1.02081330764738,1.02599004765106,1.02904631530707,1.03506925319596,1.04078357773848,1.04398917443306,1.0503406362068,1.05126647624591,1.05179410551552,1.06493506090946,1.0706294749135,1.07261057349183,1.08060465468981,1.08319302469164,1.08887748342645,1.08784213542571,1.09675210139357,1.09996765335739,1.10521408024573,1.2171710380944,1.10628924932342,1.10651822051589,1.10690647601616,1.10657795213131,1.10634898093884,1.10459685355298,1.10326284747511,1.10268544185932,1.10060479058861,1.19792750265767,1.23457284872213,1.2785353176764,1.27847558606097,1.08674705580955,1.08097299965161,1.08038563876658,1.25746996796915,1.33712207714105,1.35159703861286,1.03797619181341,0.997806680438751,0.994646877982663,0.992964437481469,0.984847906471864,0.985071900029715,0.979052944248522,0.983262032082278,0.978954387083067,0.972673607720918,0.969021019437557,0.96878209297585,0.962818886702388,0.96235098904821,0.962530183894491,0.961983639613334,0.954905443185234,0.954136896400074,0.953192141349403,1.10897717201763,0.947001954937319,0.952003482202406,0.9554858353818,0.955630186785749,0.95678300696349,0.951700842017576,0.953460933618825,0.946364817706098,0.948111967457337,0.945501695863177,0.948378768672911,0.945690845978696,0.94143695943337,0.935437914190652,0.931648938718733,0.930073019598384,1.11326789305914,0.993117748627732,0.934277129797521,0.934750005086318,0.934117845489716,0.929179036420827,0.930296017629311,0.927627009946648,0.927248709715611,0.930434395871717,0.918186428128412,0.917287467316235,0.914744891552893,0.914659276237447,0.920931095857282,0.899658676549881,0.903120123663875,0.901862773159137,0.900750769585271,0.89961885547293,0.899670622872966,0.896573538613077,0.889614805415831,0.890095644920018,0.889828843704445,0.887123001525602,0.888441079172691,0.888789513596015,0.887197666044885,0.88516480006652,0.884897998850946,0.883565983826924,0.879634648004904,0.8853649009782,0.887122005998678,0.886453011905895,0.882465926576143,0.881055264925143,0.882336508076052,0.886157340409532,0.88766456817214,0.88790150358,0.881981104964261,0.880155308586042,0.876235919087108,0.880115487509091,0.898327657052783,0.90001905729629,0.897689524294637,0.89990058959236,0.890191215504702,0.879519166881745,0.873857605266189,0.870242847005932,0.874873042728448,0.875685392698256,0.876260807260202,0.878055742303784,0.880041818516731,0.883473399823012,0.888548596080459,0.891060310509164,0.893463512503177,0.895665618058586,0.989517923271332,1.00361060240441,0.910641329573058,1.05607487128779,1.01572616506685,0.886087653524867,0.881864628314178,1.01722941072176,0.888685978795941
1.01023085644757,1.01341654260367,1.01579585195152,1.02419809918825,1.03068893473131,1.03276958600202,1.04119174377723,1.04385975593297,1.04846904559008,1.05067911536088,1.05732923521175,1.06228695929219,1.07186392829899,1.07194357045289,1.07900185634252,1.08004715961249,1.08996260777337,1.09069929769697,1.10025635616529,1.10156049643545,1.10308365262883,1.10496519851478,1.10598063597704,1.10634898093884,1.10627929405418,1.10638880201579,1.10599059124628,1.10420859805271,1.1030736973596,1.10180937816639,1.10022649035758,1.24962521580973,1.23070024898861,1.09154549558219,1.2279326841405,1.22779331037117,1.08243642422957,1.0799973832663,1.31923245832066,1.33803796191093,1.03885225550634,1.07258070768411,1.10185915451258,0.99540646502551,0.993002267504573,0.986152046742021,0.992932580619909,0.970559108534803,0.975210210322718,0.978394900951901,0.972219647443673,0.967837337925179,0.964782065796088,0.962037398067218,0.96193784537484,0.962538148109881,0.962741235602333,0.95567797207809,0.952861626410707,0.953183181607089,0.946941227794968,0.946200555763673,0.952525138310469,0.95488055501214,0.954450487381065,0.954635655388889,0.952576905710505,0.948368813403673,0.945228921486061,0.945321505489973,0.945458888205455,0.946720220817888,0.94594171876349,0.941162194002406,0.937353307992011,0.93084554849124,0.92954041269416,0.931123300502975,1.09858387093333,0.935089479767328,0.934766929044022,0.934235317666722,0.92990079344057,0.932128782695996,0.932156657449862,0.930283075779302,0.931030716499064,0.919679718514086,0.919768320410303,0.917590107501065,0.914174454625565,0.911687628369954,0.903800068552819,0.904306791757025,0.904244073560827,0.903187819494693,0.902132560955482,0.897865732560147,0.896990664394142,0.893342058218476,0.89144060179405,1.12502506602902,0.887715340045253,0.886157340409532,0.8864490297982,0.886238973617282,0.886244946778825,0.883333030526759,0.887474422529697,0.885169777701139,0.887463471733536,0.888520721326593,0.886905976656217,0.88166253634865,0.881712312694839,0.883437560853756,0.886286758909624,0.887858695922277,0.888733764088283,0.883306151299816,0.88280440573023,0.875987037356162,0.879997019805161,0.889694447569734,0.897317197225142,0.899021539318659,0.900541708931276,0.892347526821616,0.88077054422494,0.873686374635299,0.872375265676676,0.873868556062351,0.874948702774656,0.877411636384096,0.878988551031368,0.879789950205014,0.883167773057411,0.889376874481047,0.891783063055831,0.89401403889203,0.895826893420239,0.95462271353888,0.913064442105547,1.03194329865528,1.04329230558641,1.03001197642314,0.883168768584334,0.882757615964812,0.880417132166997,0.88512000135495
1.01140557821763,1.01261016579541,1.01522840160496,1.07158518076033,1.02979296049991,1.02892685207622,1.03925046627585,1.03852373162149,1.04677664981965,1.04959399101396,1.05756816167346,1.06282454383104,1.06743383348815,1.07146571752948,1.07878284041928,1.08041550457429,1.0881009724259,1.09107759792801,1.09637380116253,1.09995769808815,1.1028646367056,1.10370087932158,1.10511452755335,1.10602045705399,1.10630915986189,1.10624942824646,1.10534349874582,1.10382034255243,1.10280490509017,1.10222749947438,1.09996765335739,1.09740914916327,1.0937057890068,1.26817188239982,1.26825152455372,1.22888838998733,1.08246629003728,1.08058474415133,1.35011370349642,1.32723649478788,1.03631366185069,1.0566821427113,1.53012488185491,0.995007258729073,0.991393495995739,0.985753835972507,0.990091346779431,0.969630281914913,0.976281397292709,0.973983721152617,0.967002090836125,0.968430671971754,0.965881127519945,0.96019865983899,0.96184327031708,0.96196173802101,0.957012973682884,0.955834269805124,0.953763573803655,0.952695373414435,0.95141512579045,0.946594784425492,0.952524142783545,0.956174740013058,0.956739203778843,0.952634646272085,0.951941759533132,0.948194596192011,0.945496718228558,0.946026338552011,0.945404134224647,0.946641574190909,0.940016342513131,0.93837670966966,0.960999063485712,0.931898815976603,0.929363208901727,0.928128755516235,0.931796276703453,0.934603662628522,0.93533736597135,0.936051158775703,0.937319460076603,0.934051145185822,0.932363727050009,0.931594184737925,0.930797763198898,0.920920145061121,0.921547327023104,0.918508978851717,0.914046031652397,0.910788667557778,0.904962843999798,0.905256524442314,0.904359554683986,0.904013111314509,0.903430728064096,0.900812492254546,0.900331652750358,0.894679050877117,0.897582007386869,0.897895598367861,0.900159426592544,0.88512796557034,0.883353936592158,0.884687942670028,0.886274812586538,0.886131456709513,0.887014489090909,0.885387798097447,0.88961181883506,0.88992242323528,0.887384825106557,0.886136434344132,0.882688924607071,0.883284249707493,0.887143907591001,0.887409713279651,0.889756170239009,0.883727259188577,0.882814360999468,0.874406140601194,0.879956203201286,0.883893512184849,1.0943130604303,0.899595958353683,0.898711930445363,0.893503333580129,0.881318084033021,0.878437029115593,0.872987514734803,0.87657340271427,0.87780486951899,0.879072175292966,0.87863912108112,0.880582389636345,0.884403221969826,0.890328598220184,0.892287795206189,0.893495369364739,0.900649225839045,0.905397889265491,0.994209841663122,1.03034050030799,1.03207271715537,1.0417890599315,0.882711821726318,0.882817347580239,0.882970658726502,0.88048881010551
1.0101611695629,1.01017112483214,1.01256038944922,1.02451666780386,1.02665705068999,1.03214240404004,1.03429274219541,1.03559688246556,1.04604991516529,1.04916591443673,1.05496983640239,1.06237655671534,1.06958417164353,1.11776767475464,1.07716013153352,1.08453698603875,1.08945488904224,1.09217267754417,1.09709058054766,1.09832503393315,1.10296418939798,1.10324293693664,1.10438779289899,1.1053634092843,1.1058113964,1.10574170951534,1.10492537743783,1.10353163974454,1.10216776785895,1.10038577466538,1.0997585927034,1.09716026743232,1.19805692115776,1.0905499686584,1.08946484431148,1.22740505487089,1.08235678207567,1.26161135997208,1.2415116713809,1.32353313463141,1.03877261335243,1.04967363316786,1.48352426655262,0.994619998755721,0.991746908053682,0.985323768341433,0.991127690307089,0.969042921029881,0.973464056098402,0.972907556548007,0.965709896889055,0.965160366027126,0.960924398966428,0.955889023785932,0.956247413478494,0.960031411315795,0.956415657528614,0.956036361770652,0.953888014669128,0.95216774414483,0.949973602804812,0.948991017731038,0.951691882275262,0.958616767557099,0.957615267471773,0.951749622836841,0.951648079090615,0.948253332280514,0.94733645198371,0.946697323698641,0.94561020829787,0.946262278432948,0.937904829907787,0.937912794123178,0.968767160071993,0.929439864474858,0.929600144309587,0.928187491604739,1.15986850836143,0.935797299410138,0.936939168791717,0.938616631658292,0.939536498535868,0.939959597478476,0.931244754787677,0.931948592322792,0.93097198041056,0.922634442423875,0.924089902786446,0.914784712629844,0.913333234374968,0.910793645192397,0.910935010015574,0.905529298819431,0.905711480246483,0.904447161053278,0.901709462012874,0.901630815385896,0.9003794380427,0.898098685860312,0.899127065172581,0.900410299377337,0.901030512650854,0.892205166471515,0.888028931026244,0.886534645113646,0.885984118724794,0.887697420560625,0.88801200706854,0.887013493563986,0.889813910800588,0.891208644020808,0.891924427879008,0.886430114786648,0.88185965067956,0.882953734768797,0.886217072024959,0.887575966275923,0.886558537759817,0.883521185115354,0.882558510580055,0.881414650144628,0.880922859844279,0.884055783073425,0.886206121228797,0.898567579041414,0.910951933973278,0.901628824332048,0.876760561775942,0.87829964640011,0.875612719232819,0.87731805685326,0.880189156501451,0.879731214116511,0.88131509745225,0.881356909583049,0.885425628120551,0.891380870178623,0.893323143206924,0.893164854426043,0.938438432338935,0.970438649777025,1.01327716883434,0.918390511147787,0.993276037408614,1.02182874510964,0.882573443483912,0.884240951081249,0.882614260087787,0.8797809904627
1.00847872906171,1.00981273513958,1.03807574450579,1.02293377999504,1.02672673757466,1.03045996353884,1.03130616142406,1.03420314477227,1.04317284235556,1.04686624724279,1.05487028371001,1.05962890240569,1.06819043395023,1.07550755684004,1.0774986106876,1.08192870549844,1.0892060073113,1.08977345765785,1.09595567985455,1.09626429320092,1.09878297631809,1.10290445778255,1.10358141609073,1.10469640624536,1.10526385659192,1.10523399078421,1.10449730086061,1.10326284747511,1.10214785732048,1.10017671401139,1.09840467608705,1.0969711173168,1.09548778220037,1.2198290949809,1.08921596258053,1.08586103684738,1.08045532565124,1.29023275903085,1.06401917613958,1.3457931166472,1.22542395629256,1.06845922621965,1.12095336091074,0.993779774032048,0.993625467358861,0.989483079828999,0.982604984312581,0.997965964746557,0.97613704588876,0.967995626706061,0.965647178692856,0.965328610077245,0.96065660222393,0.955274783673958,0.956394751463214,0.959033893338164,0.958378836622314,0.954818832342865,0.953048785472379,0.951695864382957,0.950223480062682,0.950010437300992,0.948943232438696,0.956258364274656,0.956860658063545,0.952590843087438,0.952478348545051,0.947635110060845,0.947367313318347,0.946328978736841,0.945837188436492,0.943321491900092,0.937101439680294,0.937023788580239,0.93447424412843,0.929505569251828,0.929447828690248,0.930103880933021,1.17983877845253,0.936121841187291,0.937417021715133,0.939469798231974,0.94026323319023,0.940379709840312,1.15326816485675,0.931144206568375,0.931184027645326,0.923653861993829,0.923692687543857,0.917166013031534,0.912803614051515,0.909368050637539,0.90979712274169,0.906745832720294,0.905184846503802,0.904587530349532,0.902385424794123,0.901820961028338,0.900991687100827,0.898981718241708,0.900155444484849,0.899891629850046,0.903647752933481,0.893297259506906,0.891041395497613,0.88782783458764,0.887094131244812,0.888798473338329,0.889119033007787,0.887612800772103,0.89047494067798,0.892820402110413,0.892122537736841,0.885200639035776,0.894731813804077,1.02509407341965,0.885362909924353,0.887201648152581,0.885969185820937,0.882848208914876,0.883067224838109,0.882946766080331,0.883022426126538,0.884486846231423,0.886317620244261,0.907058428174362,0.913100281074803,0.89126439352854,0.879333998873921,0.879611750885657,0.874858109824592,0.878045787034545,0.879890498424316,0.88157293892551,0.881894494121892,0.882551541891589,0.884754642973921,0.891537167905657,0.893163858899119,0.89321164419146,0.984543275233187,0.968047394106097,0.917958452462865,0.919253632990707,0.932745013861818,1.02738378534435,0.884801432739339,0.884333535085161,0.884137416281175,0.879178696673811
1.05877274925124,1.00694561759908,1.05843427009715,1.02098254722443,1.02640816895905,1.03062920311589,1.02860828346061,1.03004184223085,1.04485528285675,1.04545259901102,1.05295887201635,1.05597531859541,1.06603014052562,1.07237164703012,1.07556728845546,1.08305365092231,1.08803128554123,1.08950466538843,1.09261070939063,1.0972598201247,1.0982055707023,1.19016239265216,1.10314338424426,1.1042583743989,1.10486564582241,1.10487560109164,1.10418868751423,1.10312347370579,1.10195870720496,1.10031608778072,1.09845445243324,1.09704080420147,1.09456194216125,1.22023726101965,1.08911640988815,1.08570175253958,1.08156036053664,1.08170968957521,1.30937674177521,1.22570270383122,1.31462316866354,1.05555719728742,1.00119147197961,0.992299425496382,0.992940544835299,0.986871812707916,0.982205778016143,0.98053926594573,0.975544707369109,0.973438172398384,0.965411238811919,0.965560567850487,0.961038884562663,0.959589397361635,0.958568982264757,0.959366399330707,0.957973657164334,0.95512545463539,0.955078664869973,0.952404679552691,0.950911389167016,0.949730694235409,0.948174685653536,0.948630636984628,0.955597334397264,0.953443014134197,0.951714779394509,0.946626641287053,0.946697323698641,0.945583329070928,0.945350375770762,0.94153949870652,0.937560377592158,0.935268674613609,0.934543931013095,0.928668331108926,0.929537426113389,0.930885369568191,0.931073524156786,0.939156207250983,0.938803790719964,0.939830178978384,0.941535516598825,0.939125345916345,0.938149729531038,0.938240322481102,0.932470248430854,0.92414863887495,0.91777029787427,0.917588116447218,0.912484049908981,0.911142079615721,0.910416340488283,0.909280444268246,0.904602463253389,0.902239082336327,0.902949888559908,0.902846353759835,0.902096721986226,0.897773148556235,0.897486436802186,0.898981718241708,0.907065396862828,1.13755874999945,1.15100831873976,0.889549100638861,0.88977508525056,0.889393798438751,0.890101618081561,0.889355968415648,0.892035926894472,0.893602886272507,0.893732304772599,0.89529030440832,0.87626279831405,0.877372810834068,0.885628715613003,0.886736737079174,0.887547095995133,0.883378824765253,0.885232495897337,0.885540113716786,0.885084162385693,0.885852709170854,1.14455730427365,0.893931410157355,0.91784396686663,0.885132943204959,0.878703830331166,0.87484715902843,0.876334476252562,0.876553492175795,0.881067211248228,0.881218531340643,0.88237035599146,0.882470904210762,0.885307160416621,0.892153399071479,0.893462516976254,0.895169845650542,0.974500399626061,0.984133118140588,0.918375578243931,0.920754887591772,0.93919503280101,1.0443674746641,0.883956230381047,0.884257875038953,0.883678478369311,0.87805474677686
1.00431742652029,1.00666687006042,1.01860323787658,1.01950916737723,1.02677651392085,1.02960381038439,1.02740369588283,1.02727427738274,1.04187865735464,1.04583089924206,1.05240137693903,1.05725954832709,1.06406895248577,1.07233182595317,1.07281963414582,1.07953944088136,1.13413413738163,1.15716067512874,1.0938650733146,1.09782727047126,1.09856396039486,1.23018257498825,1.10296418939798,1.10378052147548,1.10450725612984,1.10461676409146,1.10387011889862,1.10305378682112,1.10188902032029,1.10015680347291,1.09841463135629,1.32397116647787,1.09459180796896,1.21840549147989,1.08857882534931,1.08556237877025,1.08226718465253,1.2134079463225,1.22931646656455,1.22759420498641,1.33694288229477,1.06339199417759,1.0010023218641,0.993296943474013,0.993691172135831,0.984676675840974,0.982987266651313,0.979850361314472,0.975636295846098,0.977779665313003,0.963910979737778,0.963952791868577,0.964644683080606,0.961213101774325,0.959810404338714,0.959046835188173,0.958150860956768,0.954185677219339,0.954003495792287,0.953239926641745,0.950273256408871,0.951473861878953,0.94930460871203,0.948409630007548,0.954927344777558,0.95490942529293,0.951563459302094,0.95063363715528,0.947037793906575,0.944934245516621,0.943418058011699,0.939840134247622,0.937679840823012,0.93799243627708,0.983421316390083,0.927970466735354,0.928091921020055,0.926486136091993,1.02731409845969,0.940351835086446,0.939014842427806,0.939796331062975,0.938946151070065,0.939603198839762,0.938992940835482,0.938592739012121,0.966702437232066,0.921642897607787,0.911048500084885,0.911873791904702,0.913073401847861,0.913844935213793,0.911514406685216,0.912427304874325,0.938939182381598,0.901251519627934,0.902409317440294,0.90169253805517,0.901931464516878,0.902565615167328,0.89511409614281,0.897966280779449,0.903282394552452,0.91301267470551,1.10025635616529,0.893224586041469,0.891070265778403,0.891777089894288,0.890977681774491,0.886805428436915,0.888611314276658,0.894061824184371,0.894600404250138,0.963883104983912,0.875978077613848,0.903458602817962,0.884999542597172,0.888121515030156,0.885787004393885,0.882979618468816,0.885217562993481,0.886341512890432,0.887999065218531,0.88728825899495,0.887535149672048,0.893814933507273,1.13098827230248,0.904439196837888,0.87748132326876,0.876287686487144,0.875881511502241,0.876800382852893,0.880744660524922,0.881750142717943,0.882750647276345,0.883285245234417,0.922272070623618,0.891765143571203,0.894702943523288,0.895926446112617,0.906804568808797,0.9137364227791,0.993358666143288,0.919829047552654,1.02600000292029,1.04746356339706,0.884110537054233,0.883900480873315,0.884895012270175,0.876506702410377
1.0042676501741,1.00678633329128,1.01598500206703,1.01919059876162,1.06358114429311,1.02751320384444,1.02663714015152,1.02821007269109,1.03861332904463,1.04347150043269,1.05194343455409,1.05626402140331,1.06292409652342,1.06977332175905,1.07228204960698,1.16161068047805,1.15480127631938,1.15332789647218,1.09287950166006,1.09699102785528,1.09748879131717,1.18600109011074,1.10290445778255,1.10347190812911,1.10418868751423,1.10427828493737,1.10367101351387,1.10300401047493,1.10186910978182,1.10006720604977,1.09815579435611,1.26533463066703,1.09456194216125,1.26416986416621,1.08889739396492,1.08584112630891,1.08256584272966,1.34419031829991,1.28270657548705,1.22556333006189,1.33700261391019,1.0293947497304,1.00138062209513,0.997657351400184,0.996671779745638,0.987504967831442,0.982569145343324,0.982328227827769,0.977040984335556,0.977014105108614,0.964445577695849,0.964562054345932,0.964060308776345,0.962038393594142,0.962371895113609,0.960694432247034,0.95752766110248,0.954245408834766,0.953580396849679,0.953772533545969,0.950923335490101,0.951944746113903,0.951536580075152,0.948227448580496,0.949290671335097,0.955100566462296,0.95051516945135,0.95148083056742,0.971312722416107,0.944691336947218,0.945484771905473,0.938787862289183,0.937108408368761,0.937743554546134,0.938369740981194,1.17432355929477,0.92734328477337,0.926609581430542,1.0343425185416,0.940072092020864,0.941614163225804,0.941700774068173,0.939127336970193,0.939588265935905,0.938914294208503,0.938578801635188,0.976862785016198,0.930115827256107,0.911767270523857,0.908917076941065,0.913660762732893,0.913006701543967,0.915730463207438,0.919604058467879,0.969384386764738,0.916078897630762,0.902071833813131,0.902431219032617,0.901798063909091,0.901303287027971,0.897329143548228,0.898138506937264,0.902269943670964,0.912775739297649,0.914189387529422,0.893567047303251,0.889430632934931,0.893259429483802,0.894874174154178,0.886241960198054,0.893124037822167,0.893966253599688,0.890322625058641,0.927419940346502,0.903736354829697,0.903766220637411,0.886445047690505,0.887316133748815,0.885968190294013,0.886704880217613,0.885985114251717,0.886569488555978,0.890719840301231,0.890670063955042,0.889912467966042,0.89254065904483,0.914830506868338,0.878030854130689,0.876991524022259,0.875794900659872,0.876136366394729,0.875900426513793,0.880824302678825,0.881032367805896,0.883592863053866,0.884564497331479,0.889910476912195,0.892250960710009,0.895078257173554,0.89844015159517,0.907906617113425,0.909670690822369,1.0068460649067,0.946468352506171,1.01512884891258,1.05609478182626,0.887059287802479,0.886548582490579,0.886802441856143,0.87604179133697
1.00349113917355,1.00479527944371,1.01540759645124,1.017448426645,1.07469122476253,1.02537282095831,1.02379988841873,1.03537786654233,1.0376576231978,1.04448693789495,1.05096781816878,1.11802651175482,1.12698625406887,1.11095827059596,1.07258070768411,1.16053551140037,1.15237219062534,1.16247678890174,1.09273017262149,1.09789695735592,1.09778744939431,1.18805187557374,1.10275512874399,1.10319316059045,1.103969671591,1.10402940320643,1.10347190812911,1.10298409993646,1.10186910978182,1.09990792174197,1.09832503393315,1.09661272762424,1.27316942755721,1.2758772607899,1.20432874077759,1.17889302787493,1.08232691626795,1.27913263383067,1.31449375016345,1.2975598371899,1.3970527979528,1.15466190255005,1.004556352982,0.996193926822222,0.996512495437833,0.990921616233866,0.982905633443563,0.978283401936437,0.976715447031479,0.973131550105859,0.966228566416346,0.967311699709422,0.961562531724573,0.962394792232856,0.962946314148632,0.960613794566208,0.959202137388283,0.954386773657943,0.953011950976199,0.953547544461194,0.951503727686667,0.952414634821929,0.952522151729697,0.950240404020386,0.948514160334546,0.951466893190487,0.950686400082241,0.949711779223857,0.97379755761787,0.94487351837427,0.943733640046538,0.9381606803272,0.937469784642094,0.937824192226961,0.937847089346208,0.935452847094509,0.930937136968228,0.927467725638843,0.938904338939266,0.939032761912434,0.941627105075813,0.942302072330138,0.940047203847769,0.938865513389238,0.936846584787805,0.934169612889752,0.93441650356685,0.955995545166777,0.921680727630891,0.9126522939591,0.912656276066795,0.913420840744261,0.917775275508889,0.930644452052636,0.925726549049146,0.927859963246814,0.90441331313787,0.904849353930487,0.900724885885253,0.900400344108099,0.898384402087438,0.89883736683776,0.90105042318933,0.915105272299302,0.913896702613829,0.907015620516639,0.894556601065492,0.89382986641113,0.896384388497558,0.894569542915501,0.896021021170377,0.896789567955537,0.890139448104665,0.892052850852177,0.905662699427218,0.903753278787402,0.890670063955042,0.887207621314123,0.887484377798935,0.885990091886336,0.886471926917447,0.886836289771552,0.892210144106134,0.890318642950946,0.890571506789587,0.892154394598403,0.891830848348173,0.881439538317723,0.877955194084481,0.873246351734986,0.873716240443012,0.874934765397723,0.879475363697098,0.881584885248595,0.883153835680478,0.886304678394252,0.889571002231185,1.01759775568356,0.895631770143177,0.898263943329661,0.908702043125528,0.910485031846024,0.966843802055244,0.986711532873187,1.04785181889734,1.03440225015702,0.883721286027034,0.883743187619357,0.886029912963288,0.87731805685326
1.0034513180966,1.01055938033242,1.01401385875794,1.01759775568356,1.01859328260735,1.02263512191791,1.02363064884169,1.024606265227,1.03699062015886,1.04253570512433,1.08731450615611,1.12517439506759,1.06877779483526,1.07108741729844,1.06767275994986,1.13738951042241,1.15144635058623,1.13587630949826,1.09108755319725,1.09840467608705,1.09797659950983,1.16048573505418,1.102337007436,1.10301396574417,1.10362123716768,1.10377056620624,1.10325289220588,1.10297414466722,1.10182928870487,1.09981832431882,1.0993902477416,1.09625433793168,1.1929896891157,1.2140649940922,1.23408504052948,1.20359205085399,1.08298396403765,1.27942133663857,1.28314460733352,1.06645821710285,1.1664389860584,1.34825206814894,1.06661750141065,0.996253658437649,0.996422898014692,0.98805449869337,0.9831415733245,0.981294870880882,0.976281397292709,0.973683072021635,0.966331105689495,0.966361967024132,0.963170307706483,0.962989121806355,0.962392801179009,0.960948291612599,0.958555044887824,0.953965665769183,0.953931817853774,0.953642119518953,0.947309572756768,0.950864599401598,0.949901924866299,0.949988535708669,0.949537562012195,0.95208611093708,0.953324546430267,0.949814318497007,1.09472122646905,0.946309068198366,0.944287153016162,0.938275165923435,0.937118363637998,0.936571819356841,0.937903834380863,0.935000877871111,0.933114354350542,0.929491631874895,0.938271183815739,0.94003426199776,0.941435963906446,0.940821723794472,0.940015346986208,0.938057145527126,0.935299535948246,0.934444378320716,0.93424527293596,0.927120286742443,0.921451756438421,0.917213798323875,0.913870818913811,0.911224708350395,0.912742886909165,0.92098584983809,0.922109799735041,0.92374345941697,0.907922545544206,0.90450291056101,0.899526271469018,0.900367491719614,0.899307255545785,0.899260465780368,0.901515334262737,0.981028069665308,0.907522343720845,0.897760206706226,0.896628292593885,0.897031480998017,0.89689808039023,0.896442129059137,0.896509824889954,0.896817442709403,0.897116100786538,1.15952007393811,0.902378456105657,0.904734868334252,0.895537195085418,0.888565520038164,0.888656112988228,0.888781549380625,0.887568997587457,0.886266848371148,0.887580943910542,0.891689483524996,0.890867178285951,0.891097145005345,0.889293250219449,0.882703857510928,0.87948631449326,0.872708767196143,0.873609719062167,0.874508679874344,0.878311592723196,0.883632684130818,0.883797941600166,0.885125974516492,0.887354959298843,0.907735386482535,0.897019534674931,0.901539226908907,0.909903644122535,0.911112213808008,0.904456120795592,0.985223220122131,0.977453132482002,1.04503447770303,0.884263848200496,0.884736723489293,0.887152867333315,0.878535586281047
1.00319248109642,1.0090561346775,1.01479036975849,1.01845390883802,1.01890189595372,1.02204776103287,1.02337181184151,1.02485514695794,1.03521858223453,1.04134107281579,1.0421574048933,1.06527354006354,1.06993260606685,1.13135661726428,1.15569725055078,1.13519935119008,1.16105318540073,1.08956439700386,1.08924582838825,1.09596563512378,1.15591626647401,1.20254674758402,1.10203834935886,1.10295423412874,1.10343208705216,1.1036013266292,1.10318320532121,1.10298409993646,1.10194875193572,1.1001269376652,1.09964908474178,1.09691138570138,1.19645412281047,1.20352236396933,1.22029699263508,1.08543296027016,1.0828645008068,1.21039149974343,1.31308010193168,1.28639002510505,1.28624069606648,1.34405094453058,1.12428837610542,0.995264104675409,0.997000303630487,0.989630417813719,0.984604002375537,0.981972824715978,0.978099229455537,0.97349491743304,0.96882689168742,0.966504327374233,0.963762646226134,0.962010518840276,0.962074232563398,0.961273828916676,0.960078201081212,0.954354916796382,0.952471379856584,0.953084624441635,0.948243377011277,0.949960660954803,0.950082115239504,0.950092070508742,0.950163748447254,0.951638123821378,0.953638137411258,0.95433600178483,0.988398951008999,0.996821108784206,0.944067141566006,0.939756509986024,0.93601631533337,0.936443396383673,0.939228880716419,0.93456384155157,0.934594702886208,0.980617912572709,0.938388655992746,0.941300572244812,0.941578324256548,0.939646006497484,0.939664921509036,0.939177113316382,0.934744031924775,0.934235317666722,0.93439261092068,0.926456270284279,0.925108326829477,0.924469198544408,0.912844430655391,0.911970358016309,0.911041531396419,0.921145134145895,0.922767843031662,0.92143582800764,0.913663749313664,0.902826443221359,0.900080779965565,0.900860277546887,0.898328652579706,0.899747278446098,0.900685064808301,0.907701538567126,0.902374473997962,0.90181896997449,0.897260452190487,0.898793563653113,0.898930946368595,0.899379929011221,0.898060855837209,0.899969280950101,0.900340612492672,0.898325665998935,0.893315178991534,0.905011624819064,0.895644711993187,0.894410258607695,0.892666095437227,0.890816406412838,0.890076729908467,0.886326579986575,0.887727286368338,0.890431137493333,0.89156703371337,0.892066788229109,0.882066720279706,0.882943779499559,0.88289400315337,0.873089058481029,0.872644057946098,0.872676910334582,0.894423200457705,0.882549550837741,0.883265334695941,0.884189183681212,0.885642652989936,0.923543358505289,0.895124051412048,0.897883652044775,0.951988549298549,0.908679146006281,0.905208739149973,0.948213511203563,1.03486019254197,1.06295396233113,0.879814838378108,0.885579934793738,0.887327084544977,0.878267789538549
1.00241597009587,1.00814024990762,1.01336676625748,1.01485010137392,1.01745838191423,1.02097259195519,1.02237628491772,1.02911600219174,1.03424296584922,1.04124152012342,1.04238637608577,1.06745374402663,1.12479609483655,1.13800673711515,1.13308883411166,1.08565197619339,1.16155094886263,1.08769280638714,1.09102782158182,1.09300892016015,1.17579693914197,1.1002065798191,1.10180937816639,1.10296418939798,1.10317325005197,1.10346195285987,1.10311351843655,1.10299405520569,1.10208812570505,1.09969886108797,1.09926082924151,1.19381597646244,1.19617537527181,1.21010279693554,1.28306496517961,1.18350231753205,1.0822074530371,1.26542422809017,1.32080539086024,1.31772921266575,1.16514480105748,1.11214294763526,1.11267057690487,1.00331194432727,1.00331194432727,0.989661279148356,0.986147069107401,0.98090761090753,0.978605952659743,0.97070843757337,0.968582987591093,0.967522751417264,0.964035420603251,0.962910475179376,0.962892555694748,0.960772083347089,0.960447541569936,0.95533053318169,0.954020419749991,0.953777511180588,0.950413625705124,0.950145828962627,0.949883009854748,0.950202573997282,0.950107003412599,0.951808358925345,0.954982098758366,0.95455700876191,0.948522124549936,0.948118936145804,0.943865049600478,0.940715202413627,0.936399593199027,0.938598712173664,0.938960088446998,0.933438896127695,0.933542430927769,0.942269219941653,0.942867531622847,0.941540494233444,0.938057145527126,0.938641519831387,0.938117872669477,0.934564837078494,0.934250250570579,0.931570292091754,0.927503564608099,0.925763383545326,0.925893797572342,0.919866877575758,0.913611981913627,0.91152336642753,0.910863332077062,0.923183973285804,0.922921154177925,0.924751928190762,0.934676336093958,0.924918181187034,0.899986204907805,0.902309764747916,0.899682569196052,0.898467030822112,0.898777635222333,0.900940915227714,0.900724885885253,0.901195770120202,0.900474013100459,0.900583521062076,0.902034003790028,0.901865759739908,0.899123083064885,0.901912549505326,0.90195037952843,0.899792077157668,0.891851754413572,0.893008556699008,0.897133024744243,0.895796032085602,0.893177796276052,0.891189729009256,0.890397289577925,0.888525698961212,0.885359923343581,0.887213594475666,0.892373410521635,0.889919436654509,0.883366878442167,0.883279272072874,0.883732236823196,0.873486273723618,0.871779940576254,0.872590299492213,0.873135848246446,0.880882043240404,0.882516698449256,0.879087108196823,0.885820852309293,0.891766139098127,0.894320661184555,0.899554146222884,0.900354549869605,0.984231675306043,0.903955370752929,0.959744699561745,0.88976712103517,0.89047494067798,0.881238441879119,0.88410954152731,0.886586412513683,0.878279735861635
1.00555187990579,1.00780177075354,1.01019103537062,1.01554697022057,1.01508902783563,1.01877247745363,1.02487505749642,1.02874765722994,1.03616433281212,1.04085326462314,1.12546309787548,1.06693607002626,1.0696837243359,1.13966926707787,1.14514466515868,1.14196893427181,1.13165527534141,1.0858909026551,1.09098800050487,1.09463162904591,1.096602772355,1.10045546155005,1.10169987020478,1.10292436832103,1.10305378682112,1.10322302639816,1.1030736973596,1.10300401047493,1.10230714162828,1.09909158966446,1.29296050280202,1.18099358968411,1.20057560427493,1.19656363077208,1.21480168401579,1.09618465104702,1.08293418769146,1.33381692775409,1.30457830200257,1.29896353015243,1.29024271430009,1.17038127267658,1.01793623483765,1.00323230217337,1.00336172067346,0.993120735208503,0.985742885176346,0.982940476885896,0.979220192771718,0.976108175607971,0.971107643869807,0.968337092440918,0.964403765565051,0.962456514902131,0.961781547647806,0.961889064555574,0.958859676126502,0.958202628356805,0.955016942200698,0.953658047949734,0.951377295767346,0.951420103425069,0.951624186444445,0.951499745578972,0.948616699607695,0.952288202902608,0.953365363034142,0.952121949906336,0.951582374313646,0.986588087534637,0.943614176815684,0.93962111832439,0.936241304418145,0.939200010435629,0.939449887693499,0.934853539886392,0.933629041770138,0.944085061050634,0.944029311542902,0.941394151775648,0.937622100261433,0.936041203506465,0.93377438870101,0.934251246097502,0.93148766335708,0.931166108160698,0.921718557653995,0.925840039118458,0.925982399468559,0.92117798653438,0.914618459633572,0.912801622997668,0.911704552327659,0.921791231119431,0.923996323255611,0.925149143433352,0.928417458324132,0.919575188187089,0.925181000294913,0.90498972322674,0.904390416018623,0.897870710194766,0.898743787306924,0.900592480804389,0.900476004154307,0.903309273779394,0.902038981424647,0.902683087344334,0.903936455741378,0.902375469524885,0.904374487587842,0.903545213660331,0.903689565064279,0.90231872449023,0.893754206364922,0.895646703047034,0.900033990200147,0.897904558110175,0.896383392970634,0.890027949089201,0.89033556690865,0.89026189791629,0.886106568536419,0.887135943375611,0.890205152881635,0.888964726334601,0.880441024813168,0.882611273507016,0.884840258289367,0.889836807919835,0.87245789441135,0.872759539069256,0.87357885772753,0.897220631113536,0.883362896334472,0.880376315563122,0.886561524340588,0.890945824912929,0.894629274530928,0.898627310656841,0.901010602112378,0.986053489576566,0.902144507278568,0.995300939171589,1.0440787718562,1.03784677331332,0.880830275840368,1.03988760350707,0.878358382488614,0.878222990826979
1.0030033309809,1.00777190494582,1.00910591102369,1.01210244706428,1.01544741752819,1.02013634933921,1.02479541534252,1.03001197642314,1.03574621150413,1.04122160958494,1.12341231241249,1.06645821710285,1.12418882341304,1.13369610553517,1.13479118515133,1.08343195115335,1.08154044999816,1.08492524153903,1.08919605204206,1.09336730985271,1.09990792174197,1.10043555101157,1.10180937816639,1.1028646367056,1.10298409993646,1.10305378682112,1.10332257909054,1.10300401047493,1.10235691797447,1.10287459197484,1.28462794244995,1.2808250296011,1.20378120096951,1.19487123500165,1.21700179851736,1.17706125833517,1.28928700845326,1.20720581358733,1.3036922830404,1.2982965271135,1.22044632167365,1.36606204481543,1.07547769103232,1.00347122863508,1.0022666410573,0.996841019322682,0.987390482235207,0.984109225494417,0.980011636676125,0.976449641342829,0.972629804536272,0.969287820653132,0.966226575362498,0.962645665017649,0.961879109286336,0.962792007475446,0.959489844669256,0.958631700460955,0.955275779200882,0.954108026119284,0.951793426021488,0.952001491148558,0.953396224368779,0.952760082664481,0.951879041336933,0.953554513149661,0.951870081594619,0.951669980682939,0.951693873329109,0.982345151785473,0.978934476544592,0.9401238594209,0.937230858180386,0.938357794658109,0.938070087377135,0.936628564391497,0.935303518055941,0.944361817535446,0.944401638612397,0.941079565267732,0.935881919198659,0.934824669605602,0.935082511078862,0.933730585516364,0.93195854759203,0.930722103152691,0.921436823534564,0.925669804014491,0.925491604695133,0.922403480177558,0.910540781353756,0.91136010001203,0.912007192512489,0.912763792974564,0.923536389816823,0.925046604160202,0.9256618397991,0.921005760376566,0.932435404988522,0.907738373063306,0.906565642347089,0.903978267872176,0.900063856007861,0.900031003619376,0.901078297943196,0.903236600313958,0.903673636633499,0.904047954756841,0.909250578460533,0.907472567374656,0.905426759546281,0.904386433910928,0.903579061575739,0.898286840448907,0.894586466873205,0.89630076423596,0.900024034930909,0.899859772988485,0.896876178797906,0.890999583366814,0.890266875550909,0.891318151982424,0.886100595374876,0.888256906691791,0.890428150912562,0.889601863565822,0.880471886147805,0.882884047884132,0.884548568900698,0.886094622213334,0.884196152369679,0.873151776677227,0.873272235435005,0.958895515095758,0.880808374248044,0.882762593599431,0.886493828509771,0.887703393722167,0.890328598220184,0.896172341262792,0.897802018837025,0.932953078988889,0.902807528209807,0.903172886590836,1.04488514866446,1.04364074000973,0.872350377503581,0.873306083350413,0.877592822284224,0.877220495214729
1.00319248109642,1.00445680028962,1.00700534921451,1.01197302856419,1.01395412714252,1.01424282995041,1.02425783080367,1.0274236064213,1.03548737450395,1.03960885596841,1.10056496951166,1.11363623802094,1.06930542410487,1.13864387434637,1.14262598204151,1.13507988795923,1.07599536503269,1.08647826354013,1.08763307477172,1.09373565481451,1.0998382348573,1.10088353812727,1.10170982547401,1.10266553132085,1.1029442788595,1.10326284747511,1.10327280274435,1.10295423412874,1.10226732055133,1.10200848355115,1.10232705216676,1.2074347847798,1.25384624996658,1.23818661145546,1.17935097025987,1.08268530596051,1.28613118810487,1.21019239435868,1.28113364294748,1.29607650207346,1.28623074079725,1.06254579629238,1.14210830804114,1.01009148267824,1.00434729232801,0.997956009477319,1.00695557286832,0.98515452876439,0.984752335887181,0.975218174538109,0.974197759441231,0.970149946969128,0.968822909579725,0.963637209833738,0.962252431882755,0.962940340987089,0.96121708388202,0.958623736245565,0.956608789751828,0.953873081765271,0.950914375747787,0.953200105564794,0.954507232415721,0.951966647706226,0.952047285387052,0.955234962597007,0.953110508141653,0.951518660590524,0.951618213282902,0.952218516017943,0.946304090563747,0.945682881763306,0.936639515187659,0.939130323550964,0.939994440920808,0.935381169155997,0.93462158211315,0.945042757951313,0.944736135658788,0.942399633968669,0.935708697513921,0.934141738135886,0.932683291192544,0.932906289223471,0.930272124983141,0.92768275945438,0.922762865397043,0.925501559964371,0.924830574817741,0.922697160620074,0.909605981572323,0.911840939516217,0.914143593290928,0.912536812835942,0.925154121067971,0.926587679838219,0.925349244345032,0.923678750166924,0.915159030753187,0.908265006805987,0.906237118462241,0.905119141726832,0.901914540559174,0.899729358961469,0.899141998076437,0.904218189860808,0.904803559691993,0.905553191465602,0.90822618125596,0.907841907863379,0.907012633935868,0.906470071762406,0.900907067312305,0.897138002378862,0.896722867651644,0.894567551861653,0.899940410669312,0.899054391707144,0.898144480098806,0.89012750178158,0.890277826347071,0.890161349696988,0.885908458678586,0.888651135353609,0.890036908831515,0.889524212465767,0.881439538317723,0.88233352149528,0.88583578521315,0.886675014409899,0.880894985090413,0.877223481795501,0.87317367826955,0.902202247840147,0.881598822625528,0.882248901706759,0.887350977191148,0.88833555331877,0.891815915444316,0.893771130322627,0.897815956213958,0.945905879794233,0.938485222104353,1.01982773599284,0.876641098545087,0.879646594327989,0.873089058481029,0.874051733016327,0.882978622941892,0.877288191045547
1.00129102467199,1.00327212325032,1.00450657663581,1.01168432575629,1.01405367983489,1.01308801871882,1.02401890434197,1.02867797034527,1.03448189231093,1.09395467073774,1.11752874829293,1.11423355417521,1.12261589087346,1.13034117980202,1.129335697609,1.06763293887291,1.07619447041745,1.07941002238127,1.17794727729734,1.09412391031478,1.09760825454803,1.10052514843471,1.10129170416602,1.10190893085877,1.10293432359027,1.10310356316731,1.10332257909054,1.1029442788595,1.10248633647456,1.10154058589697,1.1019686624742,1.18315388310872,1.09737928335556,1.24107363953444,1.20728545574123,1.41650539404353,1.20396039581579,1.09152558504371,1.26454816439725,1.28625065133572,1.31462316866354,1.16565251978861,1.13747910784555,1.01012134848595,0.997856456784941,0.997736993554087,0.996671779745638,0.985006195252746,0.984677671367897,0.974982234657172,0.974576059672268,0.97331074495214,0.967588456194233,0.96504289385012,0.962937354406318,0.963341538337374,0.963093652133352,0.957836274448852,0.955966674885987,0.955470902477943,0.955187177304665,0.955021919835317,0.955341483977851,0.952152811240974,0.953976616565344,0.954818832342865,0.953853171226795,0.951955696910064,0.952109008056327,0.951697855436805,0.990814099326098,0.945690845978696,0.941903861560625,0.938933209220055,0.938119863723324,0.934433427524555,0.935425967867567,0.946468352506171,0.94532349654382,0.940756019017503,0.937583274711405,0.935843093648632,0.929707661217355,0.931232808464592,0.930435391398641,0.928897302301396,0.924255160255794,0.926339793634197,0.924162576251883,0.924687218940716,0.917323306285492,0.911521375373682,0.907192824309073,0.912785694566887,0.913795158867603,0.925094389452544,0.924454265640551,0.923810159720863,0.912751846651479,0.90989966201484,0.908763765794803,0.906891179651167,0.904812519434307,0.901126083235537,0.903128087879266,0.906666190566391,0.907937478448063,0.90718685114753,0.909630869745418,0.908325733948338,0.907200788524463,0.90691308124349,0.901938433205345,0.898189278810377,0.899436674045877,0.896474981447622,0.901093230847053,0.90001905729629,0.899480477230524,0.891209639547732,0.890767625593572,0.891470467601763,0.892429160029367,0.889180755677062,0.888018975757007,0.889226549915556,0.886843258460019,0.886966703798568,0.884373356162112,0.885911445259357,0.881267312159908,0.878859132531277,0.873185624592636,0.902512852240368,0.881289213752232,0.881768062202571,0.886393280290468,0.88658840356753,0.883241442049771,0.897455575467548,0.892321643121598,0.953324546430267,0.993932089651387,1.00317257055794,0.876833235241378,1.00820993679229,0.87380782892,0.874879015889991,0.874344417931919,0.875392707782663
1.00044482678678,1.00240601482663,1.00413823167401,1.01196307329495,1.01225177610285,1.01836431141488,1.0217391476865,1.0311070560393,1.09976854797264,1.08613978438604,1.03287909396364,1.06280463329256,1.11433310686759,1.12345213348944,1.10977359355666,1.06648808291056,1.07225218379927,1.07919100645804,1.0808137153438,1.0920233485056,1.09633398008558,1.09968890581873,1.11659295298457,1.12507484237521,1.10310356316731,1.10342213178292,1.10388007416786,1.10319316059045,1.10300401047493,1.10429819547585,1.10314338424426,1.26661886039871,1.18336294376272,1.190699977191,1.17627479206538,1.10038577466538,1.09611496416235,1.2071460819719,1.28204952771736,1.28560355883526,1.27804750948375,1.03875270281396,1.11670246094619,1.01039014075537,1.01080826206336,0.999429389324518,0.995536879052525,0.986641845988522,0.983853375075005,0.975702996149991,0.975295825638164,0.973588496963875,0.966220602200955,0.96642966285495,0.96499809513855,0.965372413261892,0.963276829087328,0.958447527980055,0.957800435479596,0.956788980125032,0.955475880112562,0.955569459643398,0.957003018413646,0.952954210414619,0.955128441216162,0.954945264262186,0.954035352653848,0.950902429424702,0.951457933448173,0.951542553236694,0.952079142248614,0.946685377375556,0.943285652930836,0.938099953184849,0.934971012063398,0.935475744213756,0.936773911322369,0.94797060263416,0.947787425680184,0.940267215297925,0.936137769618072,0.934422476728393,0.930640469944941,0.9285667873627,0.929787303371258,0.929664853559633,0.921957484115703,0.924051077236419,0.926035162395519,0.924570742290634,0.916893238654417,0.917221762539266,0.908103731444335,0.913859868117649,0.914475103756547,0.924219321286538,0.923215830147365,0.922856444927879,0.95279393057989,0.911127146711864,0.910503946857576,0.911131128819559,0.910182391661194,0.907153003232121,0.906524825743214,0.90652383021629,0.909118173379669,0.907867791563398,0.909772234568595,0.907899648424959,0.907235631966795,0.906817510658807,0.904315751499339,0.900197256615648,0.899787099523049,0.899262456834215,0.900073811277098,0.899606909149844,0.893178791802975,0.893041409087493,0.893581980207108,0.892889093468154,0.893359977703104,0.890847267747475,0.888908976826869,0.890210130516254,0.889867669254472,0.887371883256547,0.882745669641727,0.884848222504757,0.883532135911515,0.878787454592764,0.874166218612562,0.876313570187163,0.881573934452434,0.881767066675648,0.884953748358678,0.887695429506777,0.88743559697967,0.891545132121047,0.893638725241763,0.96334054281045,0.974354057168265,1.0048450557899,0.873735155454564,0.873550982973664,0.873624651966024,0.873794887069991,0.874480805120478,0.874407136128118
1.00046473732525,1.00334181013499,1.00434729232801,1.01220199975666,1.01632348122112,1.01780681633756,1.02372024626483,1.02551219472764,1.03026085815409,1.03234150942479,1.03158490896272,1.12114251102626,1.12732473322296,1.09622447212397,1.0529986930933,1.0662093353719,1.07008193510542,1.07947970926593,1.08309347199927,1.08664750311717,1.09486060023838,1.15149612693242,1.172700850409,1.10329271328283,1.10336240016749,1.169017400791,1.10370087932158,1.10337235543673,1.10512448282259,1.10421855332195,1.26218876558788,1.22386097902222,1.22559319586961,1.29332884776382,1.25152667223416,1.19411463453958,1.09810601800992,1.27810724109917,1.28293554667952,1.2812730167168,1.27985936848503,1.02684620080551,1.09634393535482,1.01186352060257,1.01139562294839,0.997189453746006,0.99827457809293,0.993088878346942,0.985570659018531,0.97617885801956,0.975579550811442,0.974432703795243,0.967807472117466,0.967466006382608,0.966770133062884,0.966859730486024,0.963718843041488,0.959347484319155,0.956944282325143,0.9562225253054,0.955353430300937,0.955336506343233,0.957816363910377,0.955251886554711,0.953564468418898,0.955407188754821,0.954177713003949,0.951552508505932,0.951848180002296,0.951241904105712,0.9522334489218,1.01684115522149,0.936707211018476,0.936552904345289,0.934705206374748,0.936694269168467,0.937448878576694,0.948511173753774,0.948436509234491,0.938270188288816,0.936396606618255,0.93491625808259,0.930968993829789,0.927913721700698,0.929231799347787,0.930815682683526,0.92296993499719,0.923562273516841,0.925119277625638,0.924977912802461,0.916300900134766,0.916701101958127,0.91164979834685,0.91533623454562,0.914774757360606,0.918681205009532,0.922428368350652,0.924236245244243,0.924285026063508,0.912049004643288,0.911091307742608,0.910794640719321,0.911513411158292,0.922765851977815,0.911546263546777,0.907934491867291,0.908859336379486,0.914514924833499,0.911987281974013,0.913389979409624,0.910804595988559,0.906869278058843,0.904058905553003,0.901751274143673,0.899514325145932,0.89997425858472,0.900739818789109,0.901472526605014,0.900552659727438,0.895020516611974,0.895426691596878,0.890432133020257,0.891353990951681,0.891016507324518,0.894510806826997,0.891319147509348,0.890677032643508,0.890139448104665,0.883423623476823,0.886325584459651,0.882761598072507,0.881178710263692,0.875927305740735,0.876603268521984,0.881064224667457,0.883242437576694,0.88619118832494,0.88494379308944,0.887115037310211,0.890628251824243,0.894281835634527,0.949041789604151,0.895407776585326,0.893614832595592,0.957829305760386,0.874130379643306,0.8740129074663,0.871671428141561,0.874716745001414,0.875624665555905
1.00058420055611,1.0021869989034,1.00459617405895,1.01095759110193,1.01674160252911,1.01557683602828,1.020713754955,1.02654754272838,1.0964434880472,1.03101745861616,1.03418323423379,1.10334248962902,1.12151085598806,1.09419359719945,1.1174690166775,1.06845922621965,1.07237164703012,1.07768776080312,1.08248620057576,1.08385007246134,1.09332748877576,1.15529903978127,1.18506529480239,1.10316329478274,1.1049950643225,1.19238241769219,1.10645848890046,1.10435792709128,1.27868464671497,1.10584126220771,1.10553264886134,1.18929628422847,1.22201925421322,1.27331875659578,1.19152626453774,1.18599113484151,1.20700670820257,1.20666822904848,1.26371192178127,1.27924214179229,1.2800086975236,1.026238929382,1.0232125275337,1.02567147903545,1.15971917932287,0.998294488631405,0.9985035492854,1.10097313555041,0.984177916852158,0.98217591220843,0.976133063781065,0.972301280651424,0.970916502700441,0.966365949131828,0.968654665529605,0.967950827994491,0.965542648365859,0.963828351003104,0.957360412579284,0.956518196801763,0.956118990505326,0.955793453201249,0.957815368383453,0.956315109309312,0.955134414377704,0.956162793689973,0.954050285557704,0.952329019506483,0.950753100386134,0.951307608882682,0.951856144217686,0.972804021747934,0.935688786975446,0.936754000783894,0.937478744384408,0.93771866637304,0.937968543630909,0.948313063895941,0.948358858134435,0.936971025653278,0.935727612525473,0.936191528071956,0.931209911345345,0.929788298898182,0.930836588748926,0.930720112098843,0.924253169201947,0.925127241841029,0.926064032676309,0.924899266175482,0.918294940563104,0.915375060095648,0.912637361055244,0.915410899064904,0.916082879738457,0.914676200195152,0.925533416825932,0.925655866637558,0.9249460559409,0.913374050978843,0.91369958828292,0.911240636781176,0.911847908204683,0.921605067584683,0.914176445679413,0.911201811231148,0.910134606368852,0.916931068677521,0.915100294664683,0.914713034691332,0.91349152315585,0.907204770632158,0.906505910731662,0.903865773329789,0.900546686565896,0.90012159656944,0.903289363240919,0.902918031698347,0.89705338259034,0.896368460066777,0.897034467578788,0.893692483695648,0.891179773740018,0.893006565645161,0.894259934042204,0.894240023503728,0.89063820709348,0.890492860162608,0.884795459577796,0.884230000285087,0.883431587692213,0.882597336130083,0.880508720643985,0.880655063101782,0.885949275282461,0.883457471392232,0.886766602886887,0.885440561024408,0.887327084544977,0.890502815431846,0.896856268259431,0.966890591820661,0.889880611104481,0.890211126043177,0.883727259188577,0.87629963281023,0.873304092296566,0.871622647322296,0.872614192138384,0.876237910140955
1.00117156144114,1.00157972747989,1.00583062744444,1.01111687540973,1.01223186556437,1.01088790421726,1.01857337206887,1.02651767692066,1.06975341122057,1.03600504850432,1.04037541169972,1.04496479081837,1.12392998641286,1.04731423435849,1.04832967182075,1.06955430583581,1.07581617018641,1.07843440599596,1.08011684649715,1.08292423242222,1.08811092769513,1.15571716108926,1.15461212620386,1.12102304779541,1.1502815840854,1.10678701278531,1.15516962128118,1.10988310151827,1.11347695371313,1.1148906019449,1.10842963220955,1.2246972216382,1.28864987122204,1.1912773828068,1.190909037845,1.08643844246318,1.07766785026465,1.20683746862553,1.30661913219633,1.28204952771736,1.30668881908099,1.02605973453572,1.02558188161231,1.02079339710891,1.02360078303398,1.00330198905804,1.01148522037153,1.08984314454252,0.981331705377062,0.980217710749348,0.977051935131717,0.976109171134895,0.970441636357796,0.96568500871596,0.96770592837124,0.967775615255905,0.965650165273627,0.963791516506924,0.960168794031277,0.956670512421102,0.956442536755556,0.957890032902737,0.957893019483508,0.95877505633798,0.95578847556663,0.955885041678237,0.953934804434546,0.952017419579339,0.951656043306006,0.950538066570597,0.950453446782076,0.972584010297778,0.937527525203673,0.937539471526759,0.938464316038953,0.938926240531589,0.937151216026483,0.947273733787512,0.948104998768871,0.941852094160588,0.936896361133995,0.935105408198109,0.932327888080753,0.931001846218274,0.930259183133132,0.930842561910468,0.923857945013205,0.924735004233058,0.926781807588357,0.926250196211056,0.92607498347247,0.915803136672874,0.913525371071258,0.915458684357245,0.914896211645308,0.914708057056713,0.915835989061359,0.924173527048044,0.922502037343012,0.918503005690175,0.914529857737356,0.913354140440367,0.921275548172911,0.921156084942057,0.914486054552709,0.916201347442388,0.913804118609918,0.914933046141488,0.916291940392452,0.916816583081286,0.916227231142406,0.907082320820533,0.905605954392562,0.903821970145142,0.902004137982314,0.899828911653848,0.898354536279725,0.903588021318053,0.898243037264261,0.897657667433077,0.895540181666189,0.89391946383427,0.892249965183086,0.891691474578843,0.894286813269146,0.896533717536125,0.890984650462957,0.884052796492654,0.885038368147199,0.883487337199945,0.884208098692764,0.883281263126722,0.882111518991276,0.884466935692948,0.885392775732066,0.885018457608724,0.883472404296088,0.885807910459284,0.89001699829304,0.892997605902847,0.893710403180276,0.952018415106263,0.889867669254472,0.891502324463324,0.883722281553958,0.876292664121763,0.873333958104279,0.872385220945914,0.870608205386961,0.876068670563912
