1.03338565841424,1.03231641823466,1.03019792367326,1.02920862668468,1.02794952142649,1.02750983387601,1.02701018893228,1.02892882551619,1.02458191450577,1.02350268142732,1.02303301518021,1.02142415846141,1.02198376079838,1.02495165176412,1.0266504445728,1.02470182929226,1.02607085643807,1.02737992619064,1.02881890362857,1.03254625490878,1.15895642567175,1.06196534919543,1.03849202973913,1.03906162497498,1.04029075153655,1.03531428789702,1.03568402515538,1.04165977868236,1.04205949463734,1.0451772790862,1.04595672519841,1.131455967969,1.07066916411516,1.0780339305857,1.2522801082611,1.1594460777166,1.19419138710338,1.18889515069988,1.20142624588855,1.07676483242863,1.07475625975485,1.07600537211416,1.07590544312542,1.07140863863187,1.07163847530599,1.07378694856402,1.07539580528282,1.07996256006848,1.09236374757179,1.0938127179086,1.11222963053438,1.11082063179307,1.11101049687169,1.08516886038212,1.09802972123366,1.10322602864842,1.07591543602429,1.08470918703389,1.08460925804515,1.09474205750393,1.06772125894717,1.07572557094568,1.18414852373447,1.16693075897363,1.18538764319491,1.10723318109711,1.16942898369227,1.09674063727884,1.17605427564609,1.13985999592249,1.13180571942961,1.17659389218531,1.16447250585049,1.17964172634205,1.22973612840013,1.20982028094317,1.18035122216214,1.1729864556916,1.23014583725399,1.15686790980697,1.16982869964725,1.17786299034238,1.1834290350155,1.28512676686173,1.23280394835462,1.2938505675792,1.2467840138801,1.24562483761066,1.19111357425002,1.16620127735579,1.24567480210503,1.16400283960339,1.1954005278672,1.16277371304182,1.16816987843407,1.19028416364344,1.1775432175784,1.19929775842828,1.19837841173182,1.18443831780183,1.17328624265784,1.13207552769922,1.15984579367158,1.16045536050293,1.1095915052315,1.1009176690084,1.14439677201154,1.14695495412342,1.09890909633462,1.07339722550791,1.06449355261069,1.01175103235085,1.00126848143146,1.02094449931543,1.02216363297813,1.02130424367492,0.984227590980699,1.02776964924674,1.04728578074873,1.00705436987982,0.956463320747669,0.962841788099289,0.962598960656638,0.963245501213821,0.949699127499491,0.985189907142317,0.984390475232354,0.965605823927988,0.963472340018273,0.950943243409371,0.932097635421871,0.930914476195125,0.957311717862117,0.957109861304852,0.961795531587125,0.952551100838285,0.95287886792137,0.951869585135041,0.950676433009421,0.951244029665495,0.952421193152916,0.950363655274648,0.949280425036647,0.962984686553195,0.966128452539127,0.955895724091595,0.956190514608394,0.957922283983352,0.957661469322726,0.993799788812624,0.95342847735947,0.954449751624448,0.984691261488478,0.960657340405314,0.962533007524066,0.962555991191478,0.96349332510591,1.00054899271249,1.00889306327273,0.955280161520923,0.956888018949837,0.955912712019681,0.954280871633469,0.956943979183534,0.962810810112778,1.02599091324708,0.967685346183781,0.972138181922277,0.973799001715226,0.990870870152495,1.05319158398358,1.00710433437419,1.00524565518353
1.03275610578514,1.03246631171778,1.02827928708935,1.02842918057247,1.0282992728871,1.02781961374112,1.02618077832569,1.02650055108968,1.02651054398855,1.0261008351347,1.02557121149435,1.02421217724741,1.02506157365174,1.02961833553854,1.0315569579202,1.02664045167392,1.03032783135863,1.06786115953141,1.03472470686343,1.03512442281841,1.03534426659365,1.03594384052612,1.0364634712676,1.03883178830086,1.04020081544668,1.04159982128911,1.04308876322142,1.07397681364263,1.16721056014212,1.11146017732104,1.28672563068165,1.13621258783329,1.13519331214808,1.18368885038624,1.16586151879405,1.11230957372538,1.15616840688575,1.35628619974735,1.08825666613435,1.08742725552777,1.07019949786805,1.07089900078927,1.07938297193376,1.07995256716961,1.06784117373366,1.07588545732767,1.07553570586706,1.10911184608552,1.205293497753,1.10847230055755,1.1188549224882,1.11172998559066,1.12465080383544,1.08316028770834,1.08809677975236,1.09072491215637,1.10652368527702,1.10661362136689,1.08360996815769,1.09801972833478,1.07728446317011,1.06274479530765,1.15325048041438,1.16282367753619,1.16281368463732,1.23441280507342,1.14976295870717,1.17102784751219,1.17199715870302,1.17260672553437,1.16328335088442,1.23251415428726,1.19034412103668,1.19075382989054,1.19266247357558,1.19834843303519,1.19042406422768,1.19024419204794,1.2342229399948,1.21211864768431,1.19790874548471,1.22724789658037,1.22905661127666,1.22625859959179,1.24711377954296,1.22789743500722,1.22824718646783,1.24612448255438,1.23969904857805,1.21745485568332,1.19219280732848,1.19507076220434,1.19724921415899,1.1812305972631,1.20567322791023,1.20542340543837,1.21139915896535,1.20132631689981,1.25791610322634,1.19641980355241,1.19514071249647,1.17379588050044,1.14597565003371,1.12849806990214,1.14950314333643,1.14886359780846,1.14216835556251,1.12028390702726,1.12151303358883,1.08881626847133,1.11545733687086,1.10066784653654,1.14517621812375,1.02706015342665,1.03466474947018,1.07397681364263,1.02440204232602,1.02622074992119,1.02989813670702,1.02409226246091,0.977835133570654,0.963964989932788,0.963747144737323,1.0091828573401,1.0209944638098,0.937363893128755,0.993202213459926,0.967735310678153,0.955958679354504,0.944566774637525,0.943761346988237,0.935707070495356,0.93660043565474,0.939058688777877,0.940744490818013,0.9418287203459,0.956135553664584,0.947570640039213,0.950026894582576,0.957401653951988,0.958389951650681,0.950428609117332,0.948412042124449,0.949366363966968,0.95030769504095,0.951628756272165,0.951481860658709,0.953508420550466,0.95928131823029,0.952431186051791,0.952400208065279,0.952570087346147,0.985356788553522,0.99108471818841,0.986015320589355,0.984900113074956,0.979668830514132,0.993346111203719,0.95791129179459,0.956945977763309,0.957897301736166,0.956485305125193,0.955212209808576,0.956184518869069,0.976799869247251,0.989864585235829,1.02835923028034,0.969932749140665,1.01490878839521,0.993089293702644,1.04186962955873,1.05298173310722,0.997105439760323
1.03006801598789,1.02767971315687,1.0243320920339,1.02678035225817,1.02951840654979,1.03002804439239,1.02781961374112,1.02761975576363,1.02609084223582,1.02375250389918,1.02398234057329,1.02409226246091,1.02772967765125,1.02901876160606,1.03183675908868,1.03305589275138,1.03463477077356,1.03510443702066,1.03456482048143,1.03602378371712,1.03468473526793,1.03564405355988,1.03589387603175,1.03677325113271,1.03861194452562,1.06391396447597,1.04215942362609,1.05316160528696,1.07353712609215,1.05962701085879,1.0702994268568,1.07668488923763,1.07790402290033,1.10622389831078,1.10970142711912,1.10768286154647,1.12956731008171,1.21505655995343,1.08799685076362,1.08635801534819,1.08029232573134,1.07874342640579,1.0818412250569,1.06840077607064,1.06749142227305,1.0829404439331,1.08428948528116,1.08761712060638,1.25607740983343,1.12475073282418,1.12294201812789,1.09633092842498,1.0806220913942,1.07985263818086,1.0883965667186,1.07874342640579,1.11468788365752,1.07401678523813,1.0731274172383,1.07618524429391,1.07703464069824,1.10274636950244,1.12484066891406,1.23131500642231,1.15392999753785,1.16812990683858,1.15624835007674,1.17434548993854,1.26222304264127,1.26356209109046,1.26016450547312,1.21494663806581,1.20917074251632,1.19835842593407,1.21181886071808,1.23170472947842,1.25650710448503,1.26316237513548,1.27841153881803,1.28020026771658,1.30399335993686,1.25613736722668,1.24179755734171,1.25372907859791,1.25698676363101,1.24094816093737,1.240898196443,1.24012874322966,1.27436441477384,1.28384767580578,1.2282971509622,1.22573896885032,1.2325741116805,1.24044851599364,1.24936218178974,1.21839418817753,1.22360048849116,1.25819590439483,1.3108484885648,1.23868976579172,1.23824008534237,1.18828558386853,1.18002145649928,1.17989154881391,1.16566166081656,1.16589149749068,1.17002855762474,1.18970457550871,1.19482093973248,1.13844100428231,1.09304326469526,1.08299040842747,1.08365993265206,1.07497610353009,1.05668909858967,1.04634644825452,1.04342852178315,1.03928146875022,1.03758267594155,1.02794952142649,1.00798370947515,1.01594804987816,0.973855961238811,0.974872239054352,0.967717323460179,0.968854515352102,0.9560546111837,0.927804686065367,0.948884706241215,0.950998204353181,0.938069391789297,0.937812574288222,0.93816632290838,0.935444257254955,0.934861671250569,0.936503504535657,0.956432342761158,0.938108364094908,0.963348428072229,0.964455641267528,0.958565826670873,0.95490043136369,0.947596621576287,0.947918392920047,0.949742096964651,0.949734102645551,0.967727316359054,0.96327348133067,0.94927542858721,0.949259439949011,0.976739911854004,0.982808599340514,0.954399787130076,0.955365101161356,0.956588231983601,0.987061577101519,0.990860877253621,0.955955681484842,1.00538555576777,0.956347403120724,0.955801790842174,0.953134686132558,0.953795216748166,0.95512027513893,0.954689581197437,0.983922807565025,0.966831952619894,0.9686236793881,1.02180388861864,1.02258333473086,1.01101155783414,1.02471182219113,0.993313134637433
1.03357552349285,1.02940848466217,1.02737992619064,1.02687028834804,1.02851911666234,1.02924859828018,1.02860905275221,1.0276297486625,1.02538134641573,1.02531139612361,1.02393237607892,1.02424215594403,1.02909870479706,1.03384533176247,1.03392527495346,1.03446489149269,1.03470472106568,1.03552413877339,1.03594384052612,1.03282605607726,1.0303378242575,1.03222648214479,1.03250628331328,1.03276609868402,1.03447488439156,1.03764263333479,1.04283894074956,1.04313872771579,1.0436083939629,1.05583970218534,1.23950918349944,1.08409962020254,1.07981266658536,1.08069204168632,1.17051820966959,1.10479491377172,1.10457506999648,1.1037056877944,1.09801972833478,1.0839597196183,1.08038226182121,1.08204108303439,1.08267063566348,1.07251785040695,1.07319736753042,1.07316738883379,1.09031520330251,1.09760002658205,1.09817961471677,1.12887780005937,1.12154301228546,1.08720741175253,1.08726736914577,1.11205975125352,1.13887069893391,1.09681058757096,1.13940032257426,1.12688921318334,1.10140732105325,1.10627386280515,1.14872369722421,1.12572004401502,1.15218124023481,1.23596170439897,1.15926620553686,1.16186435924424,1.15028258944864,1.17981160562292,1.18739621586869,1.23302379212986,1.22561905406382,1.20600299357309,1.20633275923595,1.35852460909524,1.22788744210834,1.24319656318414,1.29779776263465,1.28046008308731,1.28408750537877,1.34910130545655,1.35663595120795,1.35575657610699,1.40055474176157,1.2638219064612,1.24797316884617,1.24829294161016,1.24558486601516,1.23522222988226,1.23457269145541,1.27006746825779,1.29133235706282,1.27560353423429,1.27614315077351,1.24253703185842,1.24248706736405,1.31337669198006,1.29929669746583,1.27625307266113,1.26661991814607,1.32244025125927,1.22497950853585,1.22684818062539,1.21558618359378,1.22632854988391,1.19012427726144,1.2167553527621,1.18212995816181,1.19800867447346,1.19879811348455,1.28058999077268,1.15052241902163,1.13595277246255,1.19240265820484,1.12999700473332,1.09955863476146,1.10020817318831,1.07868346901254,1.079522872518,1.04112016214313,1.10610398352429,1.0642537230377,1.02542131801123,1.00706436277869,1.01602799306916,0.988607478557411,0.966150436916651,0.930327893031189,0.939727213712584,0.939121644040787,0.982666700176495,1.00051901401587,0.965732733743695,0.938741913883554,0.941008303348301,0.944304960687012,0.93441398938099,0.937684665182627,0.938613005488072,0.945350217909289,0.946256573837211,0.950673435139758,0.9541349753099,0.948037308416654,0.948482991706459,0.948532956200831,0.948318108875029,0.948929674286151,0.961623653726483,0.946031733612533,0.945140367032924,0.945653002745188,0.947586628677412,0.953610348118987,0.955474023759089,0.955177234662515,0.988196770413667,0.95195652335525,0.951619762663178,0.999123006043093,0.991939111042184,0.952306274815859,0.952402206645054,0.955757822087126,0.955734838419715,0.976043406802448,0.983594041192053,0.965712747945946,0.968013113266866,1.01479886650759,0.976224278272077,1.04860484340017,1.05613948915157,0.988547521164164
1.03397523944784,1.02900876870719,1.02805944331411,1.02777964214562,1.02777964214562,1.02955837814529,1.02698021023566,1.02689027414579,1.02565115468534,1.0248417298765,1.0244919784159,1.0243720636294,1.02875894623532,1.03188672358306,1.03298594245926,1.03872186641324,1.03779252681791,1.03593384762725,1.03521435890828,1.02680033805591,1.02542131801123,1.04152987099699,1.13386425659777,1.03327573652662,1.0369731091102,1.0456069737378,1.04516728618732,1.08665780231443,1.05719873643227,1.05762843108388,1.32559800730362,1.07043932744104,1.33915837107638,1.16074515457029,1.16754032580498,1.27816171634617,1.17021842270336,1.29684843724156,1.23907948884783,1.0839597196183,1.08468920123614,1.08488905921363,1.08453930775302,1.0736770266764,1.07204818415985,1.07591543602429,1.08681768869642,1.12216257201568,1.10556436698506,1.13706198423762,1.13804128832733,1.08951577139255,1.08922597732518,1.12635958954299,1.09970852824458,1.32842599768512,1.21649553739136,1.14738464877502,1.1462554512022,1.14200846918052,1.12921755862111,1.16090504095228,1.15031256814527,1.15125190063947,1.15205133254944,1.18316921964476,1.26631013828096,1.2582858404847,1.25677691275465,1.20887095555009,1.2185240958629,1.23028573783823,1.24667409199248,1.24668408489136,1.23961910538706,1.26015451257424,1.25919519428229,1.26177336219192,1.26934797953882,1.29732809638754,1.30768073962157,1.30608187580164,1.30617181189151,1.30343375759989,1.29405042555669,1.23933930421857,1.2785814180989,1.25467840399099,1.28925383409691,1.24498529208269,1.3179534396646,1.35381795372533,1.24932221019424,1.24387608030761,1.24663412039699,1.24933220309311,1.32799630303351,1.29375063859046,1.31234742339598,1.33199346258333,1.24652419850937,1.21486669487481,1.21449695761646,1.20567322791023,1.20268535114675,1.21293806539203,1.21452693631308,1.20439413685429,1.20496373209014,1.36297144909441,1.29344085872534,1.20666252489881,1.20633275923595,1.15736755475069,1.15679795951484,1.17658389928644,1.18598721712738,1.08984553705541,1.134323929946,1.06210524977967,1.05602956726395,1.10033808087368,1.10046798855905,1.02890883971844,1.02442202812377,1.02498163046075,0.95915940486402,0.978597591754781,0.938946768310482,0.96949506016996,0.946790194637111,0.946285553243947,0.948629887319915,0.962163270265708,0.937372886737742,0.939677249218211,0.945565065235092,0.949431317809653,0.953665309062797,0.945746935994609,0.948573927086217,0.950804342115015,0.946990052614602,0.946257573127098,0.945443151868823,0.945035441594741,0.964110886256356,0.968417825671285,0.941806735968376,0.944795612021752,0.944810601370064,0.957312717152005,0.978913367359217,0.953705280658295,0.954780516577196,0.953253601629165,0.951767657566521,0.951530825863194,0.948409044254787,0.94900462102771,0.97654505032595,0.952904849458444,0.954647611022164,0.955864746105083,0.968154013140996,0.962429081375771,0.964932302543844,1.0041964008017,1.0157381990018,0.975008142479046,0.976370174595646,0.974884230533001,0.989317973667391
1.03527431630153,1.03472470686343,1.03491457194204,1.03564405355988,1.03565404645876,1.03134710704383,1.02839920187584,1.02786957823549,1.02692025284241,1.02580104816846,1.02654052268518,1.02795951432536,1.02998807279689,1.03443491279607,1.03787247000891,1.03861194452562,1.03745276825618,1.03653342155972,1.03407516843658,1.03680322982933,1.02385243288792,1.03959124861533,1.14750456356152,1.03674327243608,1.1058241823558,1.14869371852759,1.06138576106071,1.14622547250558,1.0566791056908,1.05837789849947,1.06335436213899,1.3479821007826,1.28212889719936,1.10953154783826,1.17041828068085,1.28653576560304,1.24526509325117,1.13661230378827,1.12946738109297,1.08574844851684,1.08548863314611,1.09510180186342,1.10538449480532,1.07618524429391,1.10058790334554,1.09095474883048,1.10851227215305,1.09474205750393,1.12090346675749,1.11972430469029,1.12179283475732,1.09075489085299,1.08909606963982,1.12547022154315,1.27109673684187,1.26989758897692,1.26830871805587,1.2671195630898,1.18227985164493,1.26909815706696,1.15380008985248,1.18081089551037,1.18450826809395,1.17757319627502,1.1714575421638,1.18704646440809,1.18092081739799,1.21433707123446,1.22254124121046,1.35913417592659,1.26349214079834,1.3014251849261,1.24324652767852,1.31443593926076,1.28754504838936,1.25303956857557,1.25644714709179,1.26063417172022,1.26385188515782,1.29202186708516,1.29815750699413,1.29420031903981,1.30986918447509,1.52826398937823,1.42569687532992,1.27774201459344,1.27951075769423,1.27949077189648,1.25316947626094,1.27293543023478,1.29418033324206,1.31267718905884,1.3633711650494,1.29370067409608,1.25638718969854,1.29374064569158,1.27973060146947,1.28195901791849,1.27541366915567,1.27327518879652,1.28529664614259,1.25636720390079,1.22002303069408,1.2069023544718,1.20662255330332,1.21260829972917,1.20480384570815,1.20844126089848,1.21498660966131,1.20602297937084,1.20074672876508,1.23503236480364,1.23417297550043,1.16183438054761,1.2156561338859,1.12612975286887,1.12903768644136,1.15351029578512,1.12079354486987,1.07954285831575,1.08663781651668,1.05877761445445,1.09693050235746,1.0446276696481,1.03196666677405,1.03420507612195,1.01208079801371,1.01077172826115,0.946093689585556,0.959579106616751,0.928488200348386,0.969404124790202,0.939350481425014,0.956159536621883,0.918063608242462,0.911714120297578,0.909280849421627,0.910592917043854,0.946219600111375,0.946758217360713,0.947049010717962,0.946998046933702,0.946339514897869,0.942913949163676,0.942475260903084,0.94206055559979,0.929528461121226,0.931095347664754,0.940659551177579,0.943982190053365,0.94506342171159,0.96349332510591,0.951972511993449,0.952951816083154,0.953061737970774,0.953930120882972,0.997900874510736,0.967765289374777,0.944826590008263,0.946724241504539,0.949520254609636,0.978230852366086,0.951890570222678,0.953300568253876,0.95659222914315,0.957833347183369,1.00822353904814,0.969019398183532,0.998760263813947,1.02338276664082,0.99410757009796,1.03794242030103,0.98629212388818
1.03628359908786,1.03687318012145,1.0336354808861,1.03468473526793,1.04098026155889,1.04107019764876,1.03019792367326,1.02882889652745,1.02941847756104,1.02835923028034,1.0291986337858,1.02913867639256,1.03027786686426,1.0320665957628,1.03969117760407,1.04040067342417,1.03820223567177,1.03268615549302,1.03448487729044,1.03476467845893,1.03264618389752,1.03247630461665,1.03318580043675,1.03388530335797,1.03402520394221,1.04241923899683,1.04245921059232,1.12161296257758,1.25706670682201,1.05590965247746,1.0614657042517,1.06312452546488,1.19091371627253,1.19148331150838,1.1326751016317,1.13540316302445,1.13112620230614,1.1304366922838,1.3698865351156,1.09731023251469,1.09698046685183,1.0997784785367,1.09688053786308,1.12521040617241,1.10331596473829,1.11935456743193,1.10188698019923,1.13905057111366,1.09234376177404,1.09092477013386,1.09443227763882,1.09201399611118,1.09173419494269,1.16034543861531,1.14585573524722,1.27961068668298,1.21126925127998,1.21892381181788,1.27930090681787,1.26819879616825,1.25626727491204,1.22018291707607,1.24947210367736,1.25043142196931,1.23208445963565,1.21537633271741,1.21535634691967,1.22481962215386,1.2513407757669,1.28334803086206,1.35646607192709,1.26643005306746,1.37023628657621,1.29195191679304,1.32249021575364,1.28208892560386,1.28337800955868,1.27618312236901,1.27535371176242,1.27777199329006,1.31617470366493,1.27908106304263,1.35104992073708,1.31788348937248,1.40192376890738,1.33354236190889,1.27392472722336,1.24669407779023,1.25963488183277,1.30726103786884,1.30214467364507,1.30885990168876,1.30734098105983,1.29547941009575,1.31168789207026,1.30402333863349,1.33705986231272,1.30571213854328,1.44954992494345,1.47629092233173,1.40303298068246,1.28892406843405,1.27711246196434,1.22841706574869,1.21833423078428,1.2315548359953,1.25683687014789,1.26069412911347,1.26362204848371,1.23339352938822,1.20275530143887,1.20676245388756,1.17845257137598,1.18139048364509,1.14627543699995,1.14721476949416,1.11747590244352,1.18022131447677,1.1020968310756,1.13540316302445,1.13948026576526,1.09108465651585,1.08700755377504,1.05467053301701,1.06248497993691,1.043998117019,0.969133317230702,0.949918971274731,0.941686821181882,0.96485535722251,0.935258389335888,0.947940377297571,0.956567246895964,0.900296234043525,0.903671835283346,0.981175759664414,0.911914977564956,0.942740072723259,0.959837922697602,0.949311403023158,0.947757507248167,0.945770918951908,0.947120959589859,0.946955077468541,0.94452180659259,0.94506342171159,0.930715617507521,0.93106936612768,0.942940929990637,0.943533508893898,0.944742649657717,0.970760161167477,0.951509840775558,0.951768656856408,0.95206244808332,0.976639982865259,0.994765102843905,0.944812599949839,0.944877553792524,1.00429632979044,0.97397787460508,0.948453013009835,0.973300356061386,0.952438181081003,0.953134686132558,0.95671813966897,1.01116145131725,0.966400259388514,1.01737703441722,0.975112068627341,0.976422137669793,1.01925569940563,1.04262908987319
1.03710301679557,1.03682321562708,1.03708303099782,1.28489693018761,1.04526721517607,1.04212944492946,1.0325362620099,1.03119721356071,1.03103732717872,1.03108729167309,1.03107729877422,1.02796950722424,1.03067758281924,1.03078750470686,1.03205660286392,1.04169975027786,1.03585390443625,1.03408516133546,1.0348546145488,1.03651343576197,1.03707303809894,1.03834213625601,1.03488459324542,1.03307587854913,1.03250628331328,1.02958835684191,1.03614369850361,1.08870634658371,1.04578684591755,1.11234954532088,1.31085848146367,1.30939951822799,1.12765866639668,1.22924647635528,1.13963015924838,1.14666516005606,1.19935771582152,1.19480095393473,1.15755741982931,1.10259647601932,1.09402256878496,1.2469439002621,1.10775281183859,1.10104757669377,1.10035806667143,1.08443937876428,1.16865953047893,1.08656786622456,1.15012270306665,1.14874368302196,1.11613685399433,1.13041670648605,1.12527036356566,1.14927330666231,1.14467657318002,1.20332489667472,1.18772598153155,1.21234848435843,1.26469128866328,1.25716663581075,1.25862559904644,1.24296672651003,1.23341351518596,1.22792741370384,1.27566349162753,1.25252993073297,1.26396180704544,1.26678979742694,1.27487405261644,1.26995754637017,1.25639718259741,1.26294253136024,1.28765497027698,1.29760789755603,1.2955793390845,1.29435021252293,1.29111251328758,1.37133550545241,1.37114564037379,1.31282708254196,1.31644451193454,1.28773491346798,1.31574500901332,1.32816618231438,1.30575211013878,1.3059020036219,1.28805468623197,1.34113696505354,1.29539946690475,1.34208629044662,1.31678427049628,1.3069612509026,1.30503262141981,1.30515253620631,1.30774069701482,1.30741093135196,1.30749087454295,1.34342533889581,1.33965801602011,1.39392944980775,1.28427737045739,1.2839975692889,1.2774821992227,1.27439439347047,1.26625018088771,1.2703772481229,1.22576894754694,1.29705828811793,1.29463001369142,1.19606005919292,1.19768890170947,1.21445698602096,1.20682241128081,1.202585422158,1.18420848112772,1.16885938845642,1.14965303681955,1.17295647699498,1.17256675393887,1.12500055529605,1.09341300195362,1.202665365349,1.0489446019619,1.07001962568831,1.06469341058818,1.01041198390166,1.00832346803688,1.00181809086956,0.947757507248167,0.949071573450169,0.948376067688501,0.93692620415805,0.917921709078444,0.905640436361631,0.907104396046751,0.946834163392159,0.919277745455719,0.919172820017537,1.00107861635284,0.973360313454633,0.943083828444543,0.94249224883117,0.943789327105086,0.945373201576701,0.943105812822067,0.942577188471604,0.932533325812801,0.93265124201952,0.963762134085635,0.941642852426834,0.942098528615513,0.959321289825788,0.94906357913107,0.950024896002801,0.95139891959805,0.951668727867663,0.992923411581326,0.983805890648193,0.997104440470435,0.989183069532585,0.988564509092251,0.990474152067176,0.951099132631814,0.991920124534322,0.972686792070489,0.957239768990221,0.962694892485834,1.00768392250891,0.978052978766119,0.974308639557828,0.975950472842915,1.03070756151586,0.980038567772491
1.04164978578348,1.0391315752671,1.03996098587369,1.04833503513055,1.04660626362526,1.04379825904151,1.03428501931295,1.03138707863933,1.03114724906634,1.03119721356071,1.03125717095396,1.02432209913503,1.02510154524724,1.14815410198836,1.03457481338031,1.03466474947018,1.03383533886359,1.03456482048143,1.03480465005442,1.03607374821149,1.035793947043,1.03765262623367,1.03211656025717,1.03230642533579,1.03043775324625,1.03114724906634,1.03730287477306,1.03699309490795,1.03842207944701,1.0441180318055,1.11474784105077,1.13368438441803,1.13870081965305,1.15223120472918,1.11147017021992,1.10524459422108,1.10558435278281,1.1190148088702,1.14203844787714,1.25234006565435,1.15628832167224,1.1051946297267,1.10469498478298,1.11514755700575,1.11746590954464,1.1364823961029,1.08257070667474,1.21403728426823,1.25066125864343,1.19966749568663,1.22231140453635,1.15662808023398,1.15315055142564,1.15624835007674,1.15473942234669,1.15814700086291,1.19443121667637,1.27796185836868,1.26628015958434,1.2423871383753,1.24911235931787,1.28210891140161,1.33541103399843,1.32473861800041,1.32539814932613,1.31367647894629,1.27895115535726,1.29441016991618,1.2955793390845,1.27366491185262,1.29894694600522,1.29590910474736,1.30147514942048,1.29315106465798,1.29296119957937,1.30587202492528,1.31004905665484,1.30795054789118,1.3212910678887,1.31407619490128,1.31332672748569,1.31781353908035,1.31039880811544,1.30993913476721,1.31338668487893,1.31329674878906,1.33176362590922,1.29523958052276,1.29461002789367,1.314575839845,1.31184777845225,1.34171655318826,1.33632038779601,1.31830319112521,1.37022629367733,1.29560931778112,1.29551938169125,1.30842021413828,1.39668748989712,1.32016187031587,1.2987570809266,1.28777488506348,1.27805179445855,1.29406041845557,1.28823455841171,1.27801182286305,1.24951207527285,1.240738310061,1.22468971446849,1.22014294548057,1.20096657254032,1.20227564229289,1.21905371950325,1.18671669874523,1.15937612742448,1.16276372014295,1.22540920318746,1.22529928129984,1.12128319691472,1.11808546927486,1.15566876194202,1.16051531789617,1.15978583627833,1.08731733364015,1.08692761058404,1.0697098458232,1.0047859818353,0.976037411063124,0.965206107973006,0.965348007137025,0.965652790552698,0.970257518354088,0.967043802076035,0.937372886737742,0.927418960168809,0.967615395891659,0.991442463968119,0.972672802012065,0.993469023859876,0.957347692298066,0.955823775219698,0.94162886236841,0.940816439689909,0.941335071141498,0.941735786386367,0.941580896453812,0.933150886963247,0.933851389174353,0.938918788193634,0.939331494917152,0.939192593622796,0.965423953168472,0.948211184857071,0.951840605728305,0.950406624739808,0.977761186118982,0.976589019080998,0.974175734002796,0.991798211168053,0.933766449533919,0.934823698234846,0.973348321975984,0.970233535396789,0.963268484881232,0.955703860433203,0.983617024859464,0.987543234827272,0.979000305579426,1.01725711963073,0.974198717670208,0.975188014658787,0.97643512843833,0.977806154163918
1.04437784717624,1.04295885553605,1.04326863540116,1.04516728618732,1.04710590856899,1.04863482209679,1.0358339186385,1.03357552349285,1.03288601347051,1.03452484888594,1.17498503546651,1.05314161948921,1.03305589275138,1.03429501221182,1.03365546668385,1.03457481338031,1.03474469266118,1.03569401805426,1.0379923847954,1.03809231378415,1.03715298128994,1.03533427369477,1.03460479207693,1.03077751180798,1.03234639693129,1.03379536726809,1.03460479207693,1.03564405355988,1.10461504159198,1.14518621102262,1.05468052591589,1.05627938973582,1.08716744015703,1.14338748922521,1.21877391833476,1.11354869318582,1.11416825291604,1.1271790072507,1.12716901435182,1.11540737237649,1.11236953111863,1.1114002199278,1.11491772033163,1.11074068860208,1.11524748599449,1.11722607997165,1.09557146811052,1.21908369819987,1.19554042845145,1.19469103204711,1.1937516995529,1.20696231186505,1.22308085774969,1.17697362234255,1.1719671800064,1.18759607384619,1.1868066348351,1.22234138323297,1.25925515167553,1.25774622394548,1.3145358682495,1.26753926484253,1.31271716065434,1.3129669831262,1.32309978258499,1.32491849018015,1.33294278797641,1.32576788658449,1.31085848146367,1.3322033134597,1.32812621071888,1.33536106950405,1.33494136775132,1.31781353908035,1.34129685143553,1.32305981098949,1.32353947013547,1.31231744469936,1.31115826842991,1.33408197844811,1.355676632916,1.30993913476721,1.30842021413828,1.3140662020024,1.3141461451934,1.33345242581901,1.34855169601845,1.32675718357307,1.31742381602425,1.33339246842577,1.33511124703219,1.32818616811213,1.35029046042262,1.35204921062454,1.35976372855569,1.38683449160682,1.2992267471737,1.32553804991038,1.34920123444529,1.33248311462818,1.3228199814165,1.30462291256596,1.29525956632051,1.2769325897846,1.27000751086454,1.30135523463398,1.26286258816924,1.25357918511479,1.33033464137016,1.33048453485328,1.20252546476475,1.20418428597793,1.20615288705621,1.18979451159858,1.18626701829587,1.14828400967373,1.13735177830498,1.13833108239469,1.18581733784652,1.17166739304016,1.1469249754268,1.15246104140329,1.14283787978711,1.14602561452809,1.07636511647365,1.05366125023069,1.00852332601438,1.02979820771828,0.987061577101519,1.00464608125105,1.03843207234588,1.03821222857064,1.00825351774476,0.958984529133716,0.979384032896208,0.980126505282586,0.967192696269266,0.974167739683697,0.967680349734343,0.966577133698594,0.948908689198514,0.951266014043019,0.947018032731451,0.938044409542111,0.938525067977977,0.939965044705798,0.932574296698186,0.935255391466226,0.939518362126106,0.941247133631402,0.937965465641002,0.946676275589941,0.947993339661606,0.950327680838699,0.950681429458858,0.975391869795828,0.969276215684608,0.930482782963744,0.930337885930064,0.931259231206297,0.990477149936838,0.955743832028702,0.950562513962251,0.952488145575376,0.955680876765792,0.956148544433121,0.997107438340097,0.976906793265209,0.992201924282584,1.00197797725155,0.974733337759996,0.975167029571151,0.976162322299055
1.04501739270421,1.04709591567011,1.04768549670371,1.04933432501801,1.04948421850113,1.03822222146952,1.03459479917806,1.03538423818915,1.03662335764959,1.0380723279864,1.03668331504284,1.03673327953721,1.03440493409944,1.03232641113354,1.03410514713321,1.03796240609878,1.03975113499732,1.04153986389587,1.04050060241291,1.04144992780599,1.04123008403075,1.04085035387352,1.04153986389587,1.03460479207693,1.03466474947018,1.03518438021166,1.0346947281668,1.21344770323463,1.21385741208848,1.19554042845145,1.05309165499484,1.05628938263469,1.08475915152826,1.38993229025793,1.22610870610867,1.22213153235661,1.16433260526625,1.13063655026129,1.25348924902492,1.15947605641322,1.11375854406219,1.11404833812955,1.10655366397364,1.12762868770005,1.20231561388839,1.17157745695029,1.10834239287218,1.13316475367655,1.21287810799878,1.16669092940064,1.26305245324786,1.23610160498322,1.21502658125681,1.19765892301285,1.19955757379901,1.22070254781755,1.22190169568249,1.34216623363762,1.2147168013917,1.24979187644134,1.25039145037381,1.26325231122535,1.32132104658532,1.32849594797724,1.3277664663594,1.34334539570481,1.33611053691964,1.36300142779104,1.31468576173262,1.31549518654146,1.31446591795738,1.35870448127498,1.31458583274388,1.31055869449744,1.36039328118478,1.37177519300289,1.31581495930545,1.31264721036222,1.37702146491202,1.36767810446432,1.40778960054674,1.3600735084208,1.42422791919536,1.31935244550703,1.41609369951149,1.33074435022401,1.33896850599776,1.34029756154808,1.34080719939068,1.34337537440144,1.37073593151993,1.33477148847045,1.35612631336535,1.355596689725,1.328356047393,1.32908552901084,1.41414508423095,1.40171391803102,1.41864188872449,1.40454190841251,1.31233743049711,1.29852724425249,1.28122953630065,1.27910104884038,1.27597327149264,1.27384478403237,1.26735939266279,1.2555377932942,1.24982185513796,1.24890250844151,1.27619311526788,1.22578893334469,1.2708069427745,1.20314502449497,1.21296804408865,1.16421269047975,1.18614710350938,1.17037830908535,1.20439413685429,1.23246418979288,1.22504945882797,1.22520934520997,1.21737491249232,1.13490351808072,1.14296778747248,1.04734573814197,1.04374829454714,1.02920862668468,1.03356553059398,1.02976822902165,1.03666332924509,1.04014085805343,0.988755373460754,0.988418612768682,0.969888780385617,0.970635249931545,0.984673274270504,0.984108675484092,0.996848622259247,0.986704830611698,1.02489169437088,0.938404153901595,0.938603012589198,0.938251262548814,0.939299517640754,0.938191305155567,0.956392371165659,0.962143284467959,0.93845311910608,0.938720928795918,0.936503504535657,0.946981059005615,0.948661864596313,0.949340382429894,0.946284553954059,0.946691264938253,0.946182626385539,0.987345375429556,0.984139653470603,0.982812596500064,0.945907821666489,0.946475418322563,0.950100842034247,0.950612478456624,0.955351111102932,0.987546232696935,0.960680324072726,0.962295176530852,0.993705855563203,1.0058052575205,0.972037253643644,0.970169580843992,0.972150173400926
1.0456469453333,1.04506735719858,1.04955416879325,1.05102312492781,1.05033361490546,1.03668331504284,1.03557410326776,1.03402520394221,1.0401508509523,1.03750273275055,1.03778253391904,1.03437495540282,1.03338565841424,1.0324962904144,1.03247630461665,1.03925149005359,1.03821222857064,1.03755269724492,1.03762264753704,1.03838210785151,1.03779252681791,1.04035070892979,1.04203950883959,1.03625362039123,1.03527431630153,1.03669330794171,1.03910159657048,1.04017083675005,1.04867479369229,1.05115303261318,1.05079328825369,1.2321444170289,1.07129871674425,1.39793660225644,1.1708279895347,1.17835264238723,1.16992862863599,1.24029862251053,1.15256097039204,1.11954443251055,1.17626412652245,1.17013847951236,1.17602429694946,1.22260119860371,1.11133026963567,1.11160007790529,1.10783275502958,1.12338170567837,1.21172892462821,1.26591042232598,1.22198163887349,1.28026022510982,1.27975058726722,1.27962067958185,1.27327518879652,1.27354499706613,1.22294095716544,1.2429367478134,1.25645713999066,1.25445856021575,1.25763630205786,1.30482277054345,1.29438019121955,1.28483697279436,1.30820037036304,1.3004858524319,1.31479568362024,1.32279000271988,1.31437598186751,1.3129669831262,1.37669169924916,1.3840964373152,1.34606346419869,1.33732967058234,1.3327129513023,1.30838024254279,1.37958963992278,1.39036198490954,1.33931825745837,1.35810490734251,1.54322335899342,1.38792371758415,1.50856798569651,1.50959725428058,1.37261459650835,1.38237765870878,1.38565532953963,1.35721553934268,1.35886436765698,1.35640611453384,1.388413369629,1.37710140810302,1.3698865351156,1.36118272019587,1.37442331120464,1.38030912864175,1.61899951115908,1.34219621233424,1.34136680172765,1.32196059211329,1.31768363139499,1.30006615067917,1.27904109144713,1.32143096847294,1.27672273890823,1.27649290223412,1.24933220309311,1.24926225280099,1.24235715967868,1.24320655608302,1.23620153397196,1.21854408166064,1.22828715806332,1.22286101397445,1.20469392382053,1.19860824840593,1.19807862476558,1.24053845208351,1.17455534081491,1.1758544176686,1.17104783330994,1.22228142583972,1.21691523914409,1.1664311140299,1.10779278343409,1.09659074379572,1.06291467458851,1.02980820061715,1.02887886102182,1.07797397319245,1.01422927127174,1.01958546506849,1.00651475334059,0.998164687041024,0.954651608181714,0.950068864757849,0.981405596338528,0.981093817893642,0.976083378397946,0.978644558379492,0.971290784097716,0.942279400085142,0.938427137569006,0.939307511959853,0.940320791905732,0.940294810368658,0.924274194892991,0.924260204834567,0.939423429586798,0.940227857946199,0.937736628256775,0.947196905621305,0.948340093252553,0.948846733225492,0.945935801783338,0.94533023211154,0.9399330674294,0.94025883593271,0.940976326071902,0.941967621640257,0.945496114232858,0.946461428264139,0.948305118106492,0.94937335899618,0.971276794039291,1.04869477949004,0.956533271039791,0.95868474216748,0.994271453639502,1.00370674875685,0.967626388080421,0.969269220655396,0.972940611701903
1.0489845735574,1.04552703054681,1.04606664708603,1.05142284088279,1.05175260654565,1.03892172439073,1.03912158236823,1.04084036097465,1.04132002012063,1.03826219306502,1.03695312331245,1.03584391153738,1.03509444412179,1.03493455773979,1.03548416717789,1.04286891944618,1.03924149715472,1.03939139063784,1.0370130807057,1.0369331375147,1.03851201553688,1.17654392769094,1.04819513454631,1.04870477238891,1.03888175279524,1.03958125571645,1.0457268885243,1.04050060241291,1.0446276696481,1.04600668969279,1.40759973546812,1.40758974256925,1.17945186126343,1.17934193937581,1.15089215627999,1.16315344319905,1.14493638855076,1.1457458133596,1.12558014343077,1.1424881283265,1.16620127735579,1.17674378566843,1.17441544023066,1.17787298324126,1.14011981129323,1.15623835717787,1.13784143034984,1.13675220437251,1.22773754862522,1.21329780975151,1.23251415428726,1.22355052399679,1.27652288093074,1.30074566780264,1.28759501288374,1.27362494025713,1.30389343094812,1.24332647086951,1.30485274924007,1.25972481792264,1.25881546412505,1.24717373693621,1.28530663904147,1.28874419625431,1.31383636532829,1.28976347193951,1.30083560389251,1.34279578626671,1.38003932037213,1.402113633986,1.34672299552441,1.3945390166391,1.4227989346563,1.41778249942128,1.3534781951636,1.35330831588273,1.35491717260153,1.35437755606231,1.39469890302109,1.53476936654556,1.37459319048551,1.37407355974403,1.59810435961241,1.61561191844061,1.59585595736564,1.4249574008132,1.38469601124767,1.40167394643552,1.38182804927068,1.36750822518346,1.36881729493602,1.36789794823956,1.49432810480028,1.39722710643635,1.45984261078423,1.42859481600354,1.37481303426075,1.36043325278028,1.33356234770663,1.32315973997824,1.28418743436752,1.28358786043505,1.26989758897692,1.26997753216792,1.30090555418463,1.29998620748817,1.32703698474156,1.26724947077517,1.26083402969771,1.24720371563283,1.23716085226392,1.22964619231026,1.23773044749977,1.23902952435346,1.30609186870052,1.36506995785807,1.24704382925084,1.30341377180214,1.30289414106066,1.30904976676738,1.19957755959676,1.21114933649348,1.16314345030018,1.09080485534736,1.08053215530433,1.052202286995,1.05265196744436,1.08641797274144,1.03498452223416,1.03945134803109,1.05091320304019,1.04746565292847,1.00629490956535,1.00721425626181,0.936567459088454,0.971797424070655,0.942545211195205,0.976590018370886,0.954980374554687,0.953944110941396,0.95539907701753,0.944453854880243,1.05360129283744,0.936350613182876,0.938863827249824,0.9555129960647,0.91921878735236,0.920857622767785,0.924443074883971,0.939954052517036,0.937215998225412,0.946516389207949,0.94702602705055,0.94653137855626,0.94616663774734,0.940255838063047,0.941294100256112,0.938842842162187,0.939769183887857,0.941603880121223,0.944013168039876,0.94403115525785,0.945157354961011,0.94474564752738,0.956487303704968,0.96981683151372,0.994104572228297,1.03160692241457,0.960742280045748,0.96185648827026,0.9634223755239,1.00449618776793,0.962268195703891
1.04767550380483,1.04833503513055,1.05187252133214,1.05179257814115,1.04900455935515,1.63517801443696,1.03951130542433,1.03963122021083,1.03770259072804,1.03801237059315,1.0380323563909,1.03268615549302,1.03329572232437,1.03462477787468,1.03814227827852,1.04332859279441,1.04473759153572,1.0430188129293,1.04052058821066,1.03778253391904,1.03841208654813,1.04684609319825,1.04887465166978,1.04929435342251,1.04056055980616,1.04073043908703,1.04494744241208,1.04689605769262,1.04553702344568,1.04749563162509,1.05432078155641,1.06239504384704,1.08199111854002,1.19723922126012,1.20168606125929,1.16231403969359,1.17440544733179,1.12854803439651,1.12872790657625,1.1960700520918,1.26396180704544,1.22153195842413,1.17611423303934,1.1649022005021,1.15094212077436,1.1512019361451,1.14057948464146,1.18587729523976,1.17073805344483,1.17325626396122,1.26128371014707,1.24878259365501,1.2489824516325,1.2944401486128,1.355676632916,1.35823481502788,1.24550492282416,1.24831292740791,1.28938374178228,1.28315816578344,1.28347793854743,1.3643904407346,1.36673877197012,1.32451877422517,1.28956361396202,1.29709825971343,1.29379061018595,1.31419610968777,1.31612473917056,1.31798341836122,1.3502205101305,1.42053054661178,1.4200508874658,1.42753556872284,1.42166973708348,1.37268454680047,1.36033332379154,1.37015634338521,1.36803784882381,1.38445618167468,1.42902451065514,1.52731466398515,1.52612550901908,1.61629143556408,1.60395020545402,1.54448246425161,1.41944132063446,1.41574394805088,1.39731704252622,1.52930325086118,1.44442356782081,1.38026915704625,1.45097890948251,1.44926013087609,1.4468218635507,1.39825637502043,1.37358390769918,1.35597641988223,1.33053449934765,1.30960936910436,1.31320681269919,1.31470574753037,1.32586781557324,1.32102125961908,1.32460871031504,1.32221041458515,1.31778356038373,1.31175784236238,1.3244688097308,1.25529796372121,1.25285969639583,1.27075697828013,1.32150091876506,1.34564376244596,1.28444724973826,1.26624018798884,1.27543365495342,1.25431865963151,1.25367911410354,1.21578604157127,1.19429131609213,1.11778568230863,1.10492482145709,1.08096184995594,1.08288048653985,1.07427660060887,1.09830952240214,1.04858485760242,1.04515729328845,1.03205660286392,1.03132712124608,1.00392659253209,0.987942950782254,0.9732753738142,0.941977614539131,0.948514968982857,0.980225434981444,0.94161287373021,0.941805736678489,0.964298752755198,0.977792164105493,0.917838768017785,0.919072891028791,0.934151176140589,0.936631413641251,0.937004148769271,0.92992717778632,0.924053351827864,0.959320290535901,0.952205346537226,0.936190726800883,0.942395317712087,0.943314664408545,0.944080120462335,0.942385324813213,0.941637855977397,0.977225566739307,0.935863959007686,0.938426138279119,0.962975692944208,0.940667545496679,0.941190174107817,0.939690239986748,0.943317662278208,0.956729131857731,0.969260227046408,0.969322183019431,0.99043717834134,0.973058527908622,0.95873570595174,0.959733996549307,0.987930959303605,0.957195800235173
1.05443070344403,1.05033361490546,1.0521623153995,1.05264197454548,1.05171263495015,1.10596408294004,1.03626361329011,1.03781251261566,1.0375626901438,1.03827218596389,1.03926148295247,1.03762264753704,1.03783249841341,1.03718295998656,1.03912158236823,1.04005092196356,1.04171973607561,1.04157983549136,1.04011087935681,1.03988104268269,1.04233929580583,1.04476757023234,1.04644637724327,1.04357841526627,1.03907161787385,1.04022080124443,1.04633645535565,1.04555700924343,1.04607663998491,1.04782539728795,1.42592671200404,1.18317921254364,1.15327046621213,1.13540316302445,1.10840235026543,1.10922176797314,1.13781145165321,1.13709196293425,1.20413432148355,1.11521750729787,1.15436968508833,1.12782854567754,1.14877366171859,1.1397800527315,1.19368174926078,1.15784721389667,1.17443542602841,1.17285654800623,1.1801713499824,1.2287268456138,1.20418428597793,1.28761499868149,1.28473704380562,1.28966354295077,1.26039434214723,1.25342929163167,1.25326940524968,1.24510520686918,1.25554778619308,1.27136654511148,1.3289456284266,1.31568505162008,1.32228036487728,1.29739804667966,1.45021944916805,1.34842178833308,1.31193771454212,1.27768205720019,1.29066283283822,1.31933245970929,1.38779380989878,1.42047058921853,1.41927144135359,1.41689313142145,1.41653338706196,1.39105149493188,1.3710257255873,1.36640900630726,1.38187801376505,1.43032358750883,1.55990150721503,1.40398230607554,1.4814072865555,1.48176703091498,1.5432333518923,1.44493320566342,1.47001538183852,1.47030517590588,1.52228823585125,1.5228178594916,1.42543705995918,1.42696597348699,1.47349291064686,1.51199555001047,1.50248231028191,1.41983104369056,1.39011216243767,1.37514279992361,1.35595643408449,1.34347530339018,1.36344111534152,1.33176362590922,1.4316326572614,1.42926434022813,1.37713138679964,1.48336589473491,1.44409380215795,1.32480856829254,1.34334539570481,1.26589043652823,1.26795896659526,1.29183200200654,1.35712560325281,1.35255884846714,1.30969930519423,1.30822035616079,1.25091108111529,1.25191037100274,1.21523643213317,1.20277528723662,1.16705067376012,1.10961149102925,1.08654788042681,1.08677771710092,1.1003680595703,1.09364283862773,1.10762290415322,1.11357867188245,1.0702994268568,1.03225646084141,1.03494455063867,1.03586389733512,1.04913446704052,0.994473310196768,0.994096577909198,0.996567821800872,1.00405650021745,0.952111413287805,0.934907638585392,0.928487201058498,0.990645030637931,0.994122559446271,0.934655817533754,0.934551891385458,0.959082459542686,0.93455888641467,0.916802504404495,0.917446047092016,0.917362106741469,0.93965026839125,0.939407440948599,0.942134503051462,0.941699811950419,0.941743780705467,0.938192304445454,0.93822528101174,0.933676513444048,0.932189570091516,0.93353861143958,0.93621970620762,0.934320056131569,0.935576163520099,0.937703651690489,0.941861696912187,0.961729578454553,0.969468079342999,0.949309404443383,0.951419904685687,0.999429788038541,0.963932013366502,0.989322970116828,0.956151542302783,0.955737836289377
1.05651921930881,1.05581971638759,1.05469051881476,1.05425083126428,1.05235218047812,1.04920441733264,1.04844495701817,1.0461965547714,1.04691604349037,1.08698756797729,1.08492903080913,1.0391315752671,1.04067048169378,1.04091031126677,1.04221938101933,1.04990392025386,1.04857486470354,1.04516728618732,1.04420796789537,1.04508734299633,1.04616657607478,1.2003470128101,1.04849492151255,1.03974114209845,1.03901166048061,1.04024078704217,1.0468261074005,1.04804524106319,1.04863482209679,1.05229222308487,1.08468920123614,1.1058641539513,1.10604402613104,1.19111357425002,1.14548599798886,1.2741845425941,1.29906686079171,1.18311925515039,1.19012427726144,1.14656523106731,1.12876787817175,1.12685923448671,1.13490351808072,1.32978503193206,1.42129999982512,1.29823745018513,1.3048827279367,1.17975164822967,1.17292649829836,1.17697362234255,1.21485670197594,1.22077249810967,1.25209024318249,1.25481830457524,1.25926514457441,1.31270716775546,1.28078984875017,1.28014031032333,1.31696414267602,1.317363858631,1.32538815642726,1.33160373952722,1.30694126510485,1.44683185644958,1.3344017512121,1.33333251103252,1.35348818806247,1.2834079882553,1.28346794564855,1.31868292128244,1.32926540119058,1.37275449709259,1.49424816160929,1.49375850956443,1.47362281833223,1.39820641052605,1.37180517169951,1.39168104756098,1.43973689824865,1.42647632144214,1.4299838289471,1.43005377923922,1.48968140682362,1.48746298327347,1.45444644539198,1.47702040394957,1.44806098301115,1.43694887946266,1.4370488084514,1.43642924872118,1.42445775586948,1.4103577755575,1.48715320340836,1.47795973644378,1.48518460233008,1.41959121411758,1.40296303039034,1.38692442769669,1.37124556936254,1.37402359524966,1.4841153621505,1.4836456959034,1.52199844178389,1.48691337383537,1.48357574561127,1.46125160952554,1.35703566716294,1.31260723876672,1.26118378115832,1.26039434214723,1.287415140704,1.28398757639003,1.33408197844811,1.35279867804013,1.31828320532746,1.32566795759575,1.20579314269673,1.20642269532582,1.15304062953802,1.15978583627833,1.11566718774723,1.12255229507179,1.11672643502793,1.11432813929804,1.15532900338029,1.09565141130152,1.1217628560607,1.12412118019509,1.09427239125683,1.08274058595561,1.08250075638262,1.04625651216465,1.11983422657791,1.03047772484175,1.000349134735,1.02573109787634,1.02623074282007,0.993426054394716,0.9661704227144,0.962853779577939,0.982454850720355,0.942182468966059,0.942815019464818,0.969678929509252,0.953336542689824,1.07661493894551,0.928917894999991,0.917323134435859,0.917727846840278,0.941216155644891,0.939038702980128,0.940276823150684,0.939425428166573,0.939201587231783,0.932032681579186,0.9328281163296,0.932984005552043,0.92975829779534,0.983586046872953,0.931525042316359,0.933819411897954,0.93456288357422,0.969290205743032,0.965382982283086,0.951574794618242,0.94545214547781,0.946993050484264,0.948205189117746,0.948589915724416,0.987019606926246,1.05148279827604,1.00569533563288,1.01931565679888
1.05917733040943,1.05682899917392,1.05826797661185,1.05895748663419,1.04838499962493,1.04836501382718,1.0483550209283,1.04651632753539,1.04858485760242,1.04850491441142,1.0414099562105,1.04151987809812,1.04166977158123,1.04357841526627,1.04225935261483,1.04079039648027,1.04742568133297,1.04768549670371,1.04610661868153,1.04610661868153,1.04830505643393,1.22539921028858,1.04991391315273,1.04245921059232,1.04057055270503,1.04080038937915,1.04367834425502,1.04332859279441,1.04370832295164,1.07979268078762,1.14627543699995,1.08857643889834,1.08656786622456,1.11713614388178,1.2123185056618,1.26681977612356,1.31202765063199,1.18980450449746,1.23853987230861,1.21593593505439,1.16310347870468,1.17213705928727,1.17706355843242,1.33916836397525,1.41362545348947,1.41235635533241,1.30314396353253,1.2046639451239,1.1845682254872,1.20649264561795,1.19484092553023,1.24966196875597,1.26123374565269,1.24550492282416,1.24759343868894,1.26936796533657,1.32484853988803,1.33551096298717,1.29128239256844,1.36328122895953,1.30030598025216,1.33046454905553,1.36748823938571,1.36370093071226,1.34099706446929,1.32092133063034,1.38280735336038,1.31338668487893,1.35262879875926,1.30098549737562,1.32346951984335,1.34957097170365,1.4344206760474,1.43283180512634,1.40923857088355,1.39462895272897,1.39489876099858,1.42133997142062,1.43786822615911,1.50450087585457,1.42718581726223,1.43192245132876,1.43384108791267,1.47801969383703,1.45845359784067,1.4567148334365,1.46053212080658,1.42834499353167,1.45291753186418,1.45291753186418,1.47071488475974,1.41972112180294,1.45680476952637,1.43899742373194,1.43828792791185,1.42762550481271,1.39499868998732,1.38741407974155,1.45771412332396,1.47318313078175,1.47072487765861,1.52686498353579,1.48762286965546,1.48835235127331,1.50776855378654,1.46840652511972,1.46198109114339,1.45868343451479,1.29865715193786,1.29738805378079,1.2813294652894,1.34357523237893,1.28657573719853,1.29573922546649,1.2392493681287,1.22015293837945,1.19889804247329,1.19812858925995,1.23744065343241,1.13820117470932,1.14770442153901,1.11968433309479,1.14237820643888,1.1222325223078,1.12297199682452,1.13059657866579,1.12461083223994,1.16860956598455,1.1489235552017,1.11866505740959,1.04991391315273,1.01970537985499,1.01124139450825,1.01570822030517,1.02563116888759,1.02898878290944,0.976069388339522,0.979814726837701,1.01500871738395,0.962136289438747,0.961747565672527,0.947631596722348,0.952292284757435,0.947682560506608,0.948197194798647,0.986185199870222,0.941756771474004,0.918142552143571,0.918079596880662,0.941762767213329,0.938012432265713,0.937912503276967,0.93833520289936,0.95647831009598,0.931211265291699,0.929141735934781,0.928519178334897,0.92692031451497,0.924808814982779,0.931802844905071,0.932792141893651,0.933442679610384,0.934357029857405,0.965803683325704,0.956793086410529,0.944749644686929,0.946577345891083,0.946395475131567,0.947192908461755,0.949485279463575,0.980374329174675,0.996461897072802,1.00045905662262
1.06008668420702,1.06078618712823,1.06053636465637,1.05697889265703,1.06597250164412,1.04834502802943,1.04498741400758,1.04594673229954,1.04865480789454,1.04849492151255,1.04778542569245,1.04388819513138,1.04387820223251,1.04603666838941,1.0407404319859,1.04186962955873,1.04825509193956,1.04842497122043,1.04681611450162,1.05156274146703,1.05073333086044,1.05190250002877,1.0458068317153,1.04177969346885,1.03868189481775,1.03902165337948,1.04544708735581,1.04768549670371,1.04663624232188,1.04687607189487,1.05622942524144,1.14569584886523,1.1117499713884,1.11094054657957,1.14338748922521,1.2693180008422,1.17704357263467,1.17662387088194,1.18030125766777,1.17176732202891,1.17021842270336,1.15965592859296,1.18308927645377,1.1840985592401,1.43601953986732,1.39725708513297,1.24530506484667,1.22223146134535,1.21274820031341,1.20953048687581,1.27944080740211,1.27700254007672,1.29418033324206,1.37578234545158,1.36747824648683,1.37733124477713,1.29688840883706,1.39076170086452,1.28786482115335,1.35953389188157,1.34632327956943,1.34658309494016,1.3404074834357,1.34004773907621,1.34353526078343,1.34236609161511,1.32302983229287,1.30454296937496,1.36600929035228,1.34161662419952,1.33537106240293,1.37110566877829,1.41593381312949,1.47126449419784,1.42849488701479,1.43757843209175,1.41875181061211,1.4200508874658,1.41552410427564,1.55916203269832,1.42255910508331,1.4462722541126,1.44602243164074,1.4452929500229,1.46296039523309,1.45282759577431,1.45196820647109,1.4633501182892,1.45574552224567,1.49245943271074,1.47626094363511,1.41119717906296,1.40564112728871,1.43629934103581,1.437558446294,1.43533002984498,1.41309582984912,1.44962986813445,1.475791277388,1.48835235127331,1.48893193940803,1.48875206722829,1.48320600835292,1.47359283963561,1.47303323729863,1.47561140520826,1.47435229995007,1.45497606903233,1.35679583758995,1.34042746923345,1.34247601350273,1.34100705736817,1.3976368152902,1.38601507389911,1.34937111372616,1.34956097880478,1.21156903824621,1.20440412975317,1.18798579690229,1.16902926773728,1.1682398287262,1.15615841398687,1.15173155978545,1.17011849371461,1.24220726619556,1.12900770774474,1.12898772194699,1.15194141066182,1.15202135385281,1.06355422011648,1.08852647440397,1.05123297580417,1.05882757894882,0.977572320330253,0.983241291861782,1.04163979288461,1.02487170857313,0.95348343830328,0.951722689521585,0.945690975760911,0.952449173269765,0.936328628805352,0.952546104388848,0.937048117524319,0.964181835838366,0.965827666283003,1.04288890524393,0.945344222169965,0.949794060038799,0.949754088443301,0.949675144542192,0.964840367874198,0.929332600303284,0.93008406629865,0.926337728510584,0.926915318065533,0.925568275297244,0.92565221564779,0.925839082856744,0.925579267486006,0.969851806659781,0.932276508311725,0.935092507214571,0.936225701946944,0.942224439141332,0.944349928731948,0.945245292471107,0.945794901909207,0.948143233144724,0.983012454477555,0.982180046001305,1.07705462649599,1.03590386893062
1.065902551352,1.06392395737484,1.0620552852853,1.0620952568808,1.05194247162426,1.05235218047812,1.0458068317153,1.04554701634456,1.04799527656882,1.04879470847878,1.04999385634373,1.04845494991705,1.04646636304101,1.04829506353506,1.04849492151255,1.0435284507719,1.04611661158041,1.0424692034912,1.04384822353588,1.04503737850196,1.04519726488395,1.04654630623201,1.04755558901834,1.04030074443542,1.03975113499732,1.02713010371877,1.02858906695446,1.05270193193873,1.05535005014048,1.05569980160109,1.04539712286144,1.07977269498987,1.11045089453471,1.12546022864428,1.15130186513385,1.16729050333311,1.27444435796484,1.28440727814276,1.19117353164327,1.24982185513796,1.21307796597627,1.18032124346552,1.20052688498984,1.21817434440229,1.21631566521162,1.21554621199828,1.22292097136769,1.30777067571144,1.28368778942379,1.28047007598619,1.27652288093074,1.27625307266113,1.27058709899926,1.41205656836617,1.4113770512427,1.37872025772069,1.30367358717288,1.30302404874603,1.28979345063614,1.3397379592111,1.47074486345636,1.38186802086618,1.38357680657372,1.35753531210666,1.35933403390408,1.35605636307323,1.35598641278111,1.33082429341501,1.35364807444447,1.3688272878349,1.39847621879567,1.43824795631635,1.41979107209507,1.48008822390406,1.45688471271737,1.44983971901082,1.51141596187575,1.42235924710582,1.4217796589711,1.41795237870215,1.42759552611608,1.45075906570727,1.49656651414818,1.44984971190969,1.45119875325775,1.45470626076272,1.45354708449327,1.4621309846265,1.459542823818,1.46437938687328,1.43721868773227,1.44335432764124,1.40347266823294,1.49262931199161,1.44050635146199,1.44492321276454,1.51179569203298,1.43411089618229,1.44265482472002,1.4808976487129,1.49477778524964,1.44927012377497,1.47357285383786,1.44711165761807,1.46392970642392,1.51214544349359,1.47643082291598,1.34141676622203,1.34204631885112,1.35811490024139,1.32531820613514,1.32420899436006,1.40617075092906,1.3933198829764,1.34914127705205,1.34893142617568,1.24765339608219,1.19330201910355,1.19400152202477,1.20223567069739,1.21087952822387,1.2108295637295,1.18341904211663,1.18307928355489,1.14242817093325,1.12610976707112,1.11172998559066,1.09023526011151,1.07737439925998,1.07712457678811,1.06075620843161,1.05960702506104,0.998481461935347,1.01727710542847,1.01419929257512,0.983158350801123,0.973259385176001,1.00437627298144,0.941913659986334,0.953901141476236,0.954964385916487,0.928330312546168,0.962180258193795,0.953497428361704,0.955147255965891,0.957001937997007,0.962658918049885,0.940966333173027,0.925409388205139,0.927055218649776,0.92237854197649,0.923400815531356,0.924695895225497,0.925306461346731,0.966302328979544,0.967124744556919,0.96812903089381,0.978123928348128,0.922163694650687,0.923104026434782,0.930061082631239,0.932229541687015,0.932825118459937,0.933515627772168,0.939601303186765,0.942388322682875,0.944021162358975,0.945580054583404,0.955456036541115,0.970368439531595,0.986981633910523,1.08435943557328,0.943512523806261
1.06461346739718,1.06463345319493,1.06153565454383,1.06135578236408,1.05637931872456,1.05493034838775,1.05068336636607,1.11390843754531,1.09374276761648,1.04974403387186,1.05005381373698,1.05044353679308,1.04026077283992,1.04481753472672,1.0450973358952,1.04691604349037,1.04651632753539,1.04486749922109,1.04435786137849,1.04401810281675,1.03688317302033,1.04876472978216,1.04877472268103,1.04298883423267,1.04351845787302,1.04609662578266,1.04768549670371,1.07115881616001,1.07468630946272,1.07479623135034,1.09826955080665,1.05931723099368,1.1130090766466,1.1004080311658,1.10136734945775,1.14876366881971,1.28643583661429,1.21293806539203,1.26311241064111,1.25727655769837,1.2593450877654,1.19933773002377,1.18840549865502,1.19524064148521,1.20577315689898,1.22773754862522,1.23268403356812,1.2572665647995,1.30059577431952,1.30039591634203,1.34436467139002,1.26270270178725,1.26622020219109,1.26734939976391,1.3490013764678,1.34732256945688,1.30983920577847,1.29021315238887,1.30269428308317,1.46832658192872,1.46947576529929,1.38740408684267,1.38804363237064,1.3714154486434,1.42533713097044,1.41881176800536,1.47785980745504,1.47783982165729,1.38406645861857,1.3835468278771,1.41521432441053,1.41957122831983,1.41731283317418,1.59655546028686,1.50760866740455,1.47055499837774,1.49438806219353,1.45747429375097,1.51405408717863,1.43690890786716,1.42968404198086,1.54393285481351,1.45939293033488,1.45306742534729,1.49480776394626,1.50996699153894,1.47666065959009,1.46776697959175,1.45468627496497,1.55289648510398,1.44184539991118,1.44194532889993,1.44452349680956,1.44201527919205,1.49945446192292,1.50245233158529,1.46020235514372,1.47639085132048,1.43964696215878,1.44636219020248,1.41320575173674,1.43565979550784,1.43234215308149,1.44602243164074,1.49815538506923,1.45823375406543,1.43016370112684,1.42626647056577,1.34015766096383,1.32986497512305,1.3223902867649,1.32178071993355,1.32165081224818,1.38579523012387,1.47793975064603,1.35743538311792,1.25682687724902,1.21519646053767,1.21115932939236,1.19227275051947,1.22781749181622,1.19724921415899,1.19723922126012,1.14922334216794,1.17126767708518,1.12180282765619,1.10228669615421,1.0745763875751,1.10943161884951,1.09323312977388,1.05658916960093,1.09906898271661,1.04041066632304,1.04562695953555,0.991400493792846,0.990682004363766,1.03743278245843,0.997558118079339,0.935434264356081,0.936084802072813,0.938147336400519,0.947233879347141,0.938954762629582,0.979654840455708,0.941042279204474,0.941336070431386,0.956189515318506,0.928571141409044,0.928257364384384,0.930367864626687,0.924326157967138,0.924314166488489,0.933951318163098,0.965538871505529,0.913827618409544,0.91047300225736,0.911570222553784,0.972217125823386,1.2659803726181,0.93128920990292,0.930610692069339,0.930812548626604,0.931176290145638,0.931239245408547,0.938291234144312,0.938554047384713,0.937913502566855,0.940039991447357,0.949394344083817,0.977304510640415,0.987755084283413,0.991715270107394,1.00015926965638
1.06893039971099,1.06964988842995,1.06324444025137,1.53626830137674,1.05301171180384,1.05237216627587,1.04899456645627,1.04889463746753,1.04900455935515,1.05150278407378,1.05195246452314,1.08796687206699,1.05802814703886,1.04149989230037,1.04145992070487,1.04175970767111,1.04212944492946,1.04249918218782,1.03622364169461,1.03797239899765,1.03936141194121,1.04840498542268,1.04845494991705,1.04171973607561,1.04310874901917,1.04423794659199,1.07192826937335,1.0747762455526,1.07529587629407,1.0969904597507,1.09586126217788,1.0702594552613,1.12182281345394,1.18304930485827,1.14043958405722,1.1413089662593,1.18532768580166,1.48039800376917,1.22772755572635,1.22797737819821,1.24249706026292,1.21791452903155,1.20524353325863,1.21658547348123,1.22571898305257,1.24512519266693,1.24700385765534,1.26130369594481,1.27721239095309,1.31749376631637,1.30156508551035,1.26932799374107,1.28115958600853,1.29386056047808,1.29371066699496,1.31801339705785,1.30409328892561,1.32800629593239,1.30083560389251,1.46846648251296,1.46566847082809,1.40096445061543,1.36063311075777,1.36088293322964,1.37392366626091,1.377501124058,1.43224222409275,1.43223223119387,1.38903292935922,1.3851157130004,1.38486589052854,1.38154824810219,1.43307163469933,1.42967404908199,1.50843807801114,1.4644493371654,1.46036224152571,1.46214097752538,1.44983971901082,1.44942001725809,1.45513595541432,1.61211440383452,1.44818089779764,1.4398767988329,1.48207681078009,1.48078772682528,1.4801881528928,1.48478488637509,1.51809121832395,1.47164422435507,1.51179569203298,1.52236817904225,1.51855089167217,1.50091342515861,1.50094340385523,1.51522325634695,1.50898768744924,1.46150143199741,1.44387395838271,1.44308451937163,1.44983971901082,1.41900163308398,1.54456240744261,1.56818562038203,1.47064493446762,1.4703351546025,1.41457477888255,1.46081192197506,1.45976266759324,1.35645607902821,1.3245887245173,1.4020736623905,1.38822350455038,1.30435310429635,1.29056290384948,1.2774821992227,1.25267982421608,1.25483829037299,1.21166896723496,1.23525220857888,1.18520777101517,1.16585152589518,1.17339616454546,1.14724474819078,1.14825403097711,1.14832398126923,1.10151724294087,1.07639509517027,1.07660494604664,1.10226671035646,1.05909738721844,1.10662361426576,1.04745566002959,1.06771126604829,0.994178519679969,0.995328702340429,0.987515254710424,0.968607690749901,0.977862114397615,0.974053820636527,0.97376202798939,0.935634122333571,0.946436446016952,0.935416277138106,0.935712066944793,0.938972749847556,0.937283949937758,0.936574454117666,0.932393425228557,0.933900354378838,0.922344566120317,0.923314876601035,0.932952028275644,0.933693501372135,1.07259779359794,0.911077572639269,0.9136957121444,0.915722272036157,0.932470370549891,0.934624839547243,0.931263228365846,0.930865510990639,0.929959155062718,0.931236247538885,0.933450673929484,0.936459535780609,0.937974459249989,0.938528065847639,0.940031997128258,0.940450699591101,0.942023581873954,1.16987866414162,1.02250339153986
1.41117719326521,1.06112594568997,1.05921730200493,1.46014239775047,1.05222227279275,1.05252205975899,1.0512629545008,1.05085324564694,1.04892461616415,1.05190250002877,1.05257202425336,1.05895748663419,1.06310453966713,1.06431368043095,1.04295885553605,1.04294886263718,1.04161980708686,1.04211945203059,1.03681322272821,1.03808232088527,1.25511809154147,1.04711590146786,1.04739570263635,1.04215942362609,1.04194957274972,1.03945134803109,1.06972983162095,1.06667200456534,1.04103022605326,1.09136445768434,1.06720162820569,1.1270990640597,1.19007431276707,1.1478243363255,1.16367307394053,1.16238398998571,1.18191011438657,1.22429999141238,1.22525930970434,1.22689814511976,1.22674825163664,1.23610160498322,1.24901243032913,1.28337800955868,1.24172760704958,1.2327339980625,1.23327361460172,1.23746063923015,1.23649132803932,1.26263275149513,1.24410591698173,1.27246576398768,1.24091818224075,1.24269691824042,1.26553069216875,1.26930800794332,1.33115405907787,1.32056158627085,1.41528427470265,1.35650604352259,1.34364518267105,1.34367516136767,1.34319550222169,1.38375667875346,1.36741828909359,1.45031937815679,1.42948418400337,1.39643766742526,1.40070463524469,1.3823676658099,1.38376667165234,1.38475596864092,1.42044061052191,1.42037066022979,1.42207944593734,1.44222513006841,1.47453217212981,1.45382688566176,1.45085899469602,1.44935006696596,1.45165842660598,1.45325729042591,1.45157848341499,1.51265508133619,1.52612550901908,1.56368881588848,1.49377849536218,1.52260800861524,1.5202696702786,1.51961013895288,1.51936031648101,1.59642555260149,1.48887198201478,1.48786269922845,1.4955772171596,1.49546729527198,1.51273502452719,1.47002537473739,1.48371564619552,1.45937294453713,1.4195012780277,1.43740855281089,1.42735569654309,1.43021366562121,1.44609238193286,1.43714873744015,1.39178097654972,1.39013214823542,1.34800208658035,1.33679005404311,1.33665015345887,1.37442331120464,1.36578944657704,1.36572948918379,1.30259435409443,1.2687683914041,1.27179623976308,1.29237161854577,1.29236162564689,1.20583311429223,1.18573739465552,1.18377878647611,1.16789007726559,1.15624835007674,1.15897641146949,1.11482778424176,1.10108754828927,1.08289047943872,1.08287049364097,1.07914314236077,1.08083194227057,1.1483739457636,1.09397260429059,1.09146438667308,1.06129582497084,1.06092608771248,0.99782093131974,1.00823353194701,1.0009387157686,0.989949524876262,1.02176391702314,0.950651450762234,0.973092503764796,0.934506923340523,0.937392872535491,0.973563169301787,0.94856493347723,0.935489225299891,0.935162457506693,0.929630388689746,0.923857491009922,0.923963415737993,0.934205137794512,0.934811706756196,0.958036203030522,0.957849335821568,0.915056744971113,0.915263597977815,0.932343460734184,0.933393714405899,0.92810946948104,0.928485202478723,0.929888205480709,0.929240665633639,0.934932620832578,0.935887941964985,0.937833559375858,0.937845550854508,0.938353190117334,0.941048274943799,0.942255417127844,0.942361341855914,0.988527535366415
1.07043932744104,1.51518328475145,1.51788136744758,1.41258619200652,1.04942426110788,1.04992390605161,1.05244211656799,1.0529117828151,1.05270193193873,1.05214232960176,1.05742857310639,1.0570688287469,1.05368123602843,1.05284183252297,1.04434786847961,1.04376828034489,1.04225935261483,1.04163979288461,1.03781251261566,1.25184042071062,1.04173972187336,1.0423892603002,1.03940138353671,1.04073043908703,1.04474758443459,1.04097026866002,1.05201242191639,1.04773546119808,1.04162979998574,1.09516175925666,1.09666069408784,1.13488353228297,1.13621258783329,1.1605452965928,1.17112777650094,1.18470812607144,1.23635142745508,1.24243710286968,1.23132499932119,1.2298660360855,1.27449432245921,1.32305981098949,1.29774779814027,1.26265273729288,1.2457247665994,1.27042721261727,1.28171918834551,1.23872973738722,1.24901243032913,1.24121796920698,1.24097813963399,1.23854986520748,1.24505524237481,1.37063600253119,1.29104256299545,1.32044167148436,1.34494425952474,1.43529005824948,1.39202080612271,1.47592118507337,1.35661596541021,1.36850751507091,1.35979370725231,1.41571396935425,1.39487877520083,1.39399940009987,1.39454900953797,1.38999224765118,1.40556118409772,1.52590566524384,1.39844624009904,1.39754687920033,1.4397568840464,1.44086609582148,1.45432653060549,1.41831212306163,1.42192955245422,1.42270899856643,1.43355129384531,1.47369276862435,1.51931035198664,1.45379690696514,1.45499605483008,1.53062231351262,1.47221381959092,1.5637987377761,1.50828818452802,1.5256858214686,1.52541601319899,1.51462368241448,1.52160871872778,1.49664645733918,1.49717608097953,1.49170996529515,1.49039090264371,1.49382845985655,1.49284915576685,1.47468206561293,1.47623096493848,1.49201974516026,1.42311870742029,1.41543416818577,1.43960699056328,1.48053790435341,1.49364858767681,1.41936137744346,1.41877179640986,1.4217396873756,1.36259171893718,1.34173653898601,1.34253597089597,1.38870316369636,1.35612631336535,1.32770650896615,1.32866582725811,1.34057736271656,1.26560064246087,1.2315548359953,1.24789322565518,1.23143492120881,1.23005590116412,1.2331636927141,1.1954804710582,1.17180729362441,1.14486643825864,1.17258673973662,1.10187698730036,1.0871374614604,1.08727736204465,1.14246814252875,1.10937166145626,1.0933430516615,1.08179126056252,1.11031099395047,1.07209814865422,1.01391949140663,1.01464897302447,1.03452484888594,1.03409515423433,1.00794373787965,0.994098576488972,0.93981914838223,0.942840001712004,0.971994284178483,0.940649558278704,0.977155616447185,0.936991158000734,0.935453250863942,0.938764897550966,0.926973276879005,0.927499902649693,0.92691232019587,0.931989712114025,0.934796717407885,0.959360262131399,0.913817625510669,0.915046752072238,0.914444180270103,0.931387140311891,0.93264724485997,0.932042674478061,0.926699471449842,0.927938590910286,0.930984426487246,0.93506552638761,0.937271958459109,0.937943481263478,0.937784594171373,0.938286237694875,0.941233143572978,0.942370335464901,0.942980901586135,0.978215863017774
1.36263169053268,1.06140574685846,1.45123872485325,1.52038958506509,1.41445486409606,1.10135735655888,1.0566391340953,1.05594962407296,1.05614948205045,1.05727867962327,1.05882757894882,1.05583970218534,1.05316160528696,1.05186252843327,1.0501637356246,1.0461565831759,1.04530718677157,1.04151987809812,1.03866190902,1.07765420042846,1.04367834425502,1.04354843656965,1.03988104268269,1.0392115184581,1.04121009823301,1.03979110659282,1.04017083675005,1.05743856600526,1.0604464285665,1.14761448544914,1.17320629946684,1.12766865929555,1.14558592697761,1.17976164112854,1.18821563357641,1.25985472560801,1.23211443833227,1.22496951563698,1.22604874871543,1.28711535373776,1.31978214015864,1.31730390123775,1.29178203751217,1.28504682367073,1.42912443964389,1.32636746051696,1.30969930519423,1.279051084346,1.27501395320069,1.26502105432614,1.37044613745257,1.27467419463895,1.29115248488307,1.29023313818662,1.28838445189483,1.38162819129319,1.38716425726968,1.43478042040688,1.4339110382048,1.39410932198749,1.38377666455121,1.38165816998981,1.43188247973326,1.42220935362271,1.40063468495257,1.40565112018759,1.40797946562536,1.4223292684092,1.40365254041268,1.40747982068163,1.40685026805253,1.40663042427729,1.39426920836948,1.3934397977629,1.41164685951231,1.47111460071472,1.48230664745421,1.52503628304175,1.44602243164074,1.49827529985573,1.46099179415481,1.50306189841663,1.50299194812451,1.478579296174,1.52580573625509,1.5568936446538,1.52728468528852,1.52536604870461,1.57335194910017,1.67029306108211,1.53764732142143,1.52842387576022,1.64051422243597,1.50856798569651,1.47542154012965,1.47675059567996,1.52577575755847,1.4698654883554,1.47482196619717,1.51458371081898,1.40538131191797,1.39340981906627,1.39402937879649,1.39379954212238,1.46003247586285,1.46372984844643,1.39697728396448,1.41315578724237,1.41432495641069,1.45166841950486,1.3698065919246,1.36787796244182,1.35441752765781,1.40758974256925,1.40127423048054,1.28025023221095,1.28736517620962,1.35276869934351,1.35206919642229,1.2620931349559,1.25429867383376,1.23293385603999,1.21124926548223,1.28016029612108,1.15864664580663,1.11833529174673,1.14266800050624,1.08068204878745,1.07405675683363,1.10504473624359,1.06813096780102,1.05592963827521,1.05681900627504,1.05024367881559,1.11097052527619,1.022253569068,1.00867321949749,0.99912400533298,0.990125399896454,0.960035782095318,0.948102262259339,0.935929912140258,0.961059054940071,0.95332654979095,0.975285945067758,0.97508508780038,0.973507209068089,0.952344247831582,0.940387744328191,0.925139579935526,0.926698472159955,0.926969279719455,0.929048801975247,0.92970733401108,0.930018113166078,0.917717853941403,0.917691872404329,0.917663892287481,0.93363654184855,0.933450673929484,0.93226651541285,0.928009540492295,0.928188413382149,0.93259228391616,0.934019269875445,0.936230698396382,0.93687524037379,0.937259966980459,0.955888729062383,0.955866744684859,0.94238232694355,1.15596854890826,1.01121141581163
1.40040484827845,1.39934560099775,1.3988159773574,1.39780669457107,1.06297463198176,1.06329440474575,1.06269483081327,1.06259490182453,1.06120588888097,1.05914735171281,1.05851779908371,1.05498031288213,1.05375118632056,1.05314161948921,1.05281185382635,1.27373486214475,1.27397469171773,1.04145992070487,1.04269904016531,1.04859485050129,1.09017530271827,1.04817514874856,1.03820223567177,1.04277898335631,1.04390818092913,1.27796185836868,1.06234507935266,1.06375407809397,1.08373987584306,1.06184543440894,1.16713061695112,1.16810992104083,1.15109201425748,1.16630120634453,1.2834079882553,1.41228640504028,1.24849279958765,1.29096261980446,1.24543497253204,1.24510520686918,1.3430356158397,1.43592960377745,1.43618941914819,1.41918150526372,1.33376220568413,1.333852141774,1.40371249780593,1.40504155335624,1.38614498158448,1.45210810705534,1.37478305556412,1.33563087777367,1.31725393674338,1.37521275021573,1.37700147911427,1.43665908539529,1.40856904665895,1.41536421789364,1.40444197942377,1.42216938202721,1.41558406166888,1.41901162598285,1.38327701960749,1.47809963702802,1.41215649735491,1.41101730688322,1.39119139551612,1.41180674589431,1.42203947434184,1.45241788692045,1.4059609000527,1.48780274183521,1.41276606418626,1.41195663937742,1.46437938687328,1.4649190034125,1.47301325150088,1.44558274409026,1.48494477275709,1.4950276077215,1.48762286965546,1.49878493769833,1.4972260454739,1.49524745149674,1.49519748700237,1.49741591055252,1.49761576853001,1.50564006632626,1.50672929230359,1.5048806060118,1.50642950533735,1.48374562489214,1.45931298714388,1.46568845662584,1.46641793824368,1.48282627819568,1.4688861842657,1.47613103594974,1.588021524648,1.44053633015862,1.41529426760152,1.38537552837114,1.38992229735906,1.38055895111361,1.38040905763049,1.38728417205618,1.38379665034896,1.39169104045985,1.39147119668461,1.39910577142476,1.36318129997078,1.36395075318412,1.39028204171854,1.382917275248,1.4392872177993,1.50494056340505,1.2954194527025,1.35689576657869,1.30076565360038,1.29894694600522,1.25568768677732,1.25838576947345,1.21006011051616,1.18533767870054,1.28380770421029,1.32142097557406,1.08065207009083,1.08056213400096,1.08038226182121,1.1840985592401,1.18341904211663,1.15295069344814,1.0649232472623,1.04635644115339,1.04590676070404,1.02128425787717,0.984087690396455,0.979231141543427,0.980069545759002,0.927334020528376,0.940032996418145,0.960464477457036,0.91788773322227,0.918193515927832,0.953631333206623,0.955220204127676,0.966840946228882,0.938471106324054,0.947342801944873,0.926029947225248,0.924924732609724,0.925048644555768,0.926800399728475,0.925519310092759,0.924051353248089,0.918310432844664,0.917915713339119,0.91767988092568,0.935300359511162,0.936457537200834,0.93330677618569,0.928262360833821,0.929390559116757,0.932444389012817,0.932524332203814,0.933508632742956,0.934687794810152,0.935971882315531,0.937854544463495,0.943322658727645,0.973741042901754,0.978461688330088,1.00049902821812
1.07621522299053,1.36826768549792,1.07265775099119,1.36641899920613,1.56664671395535,1.06564273598126,1.06479333957693,1.06329440474575,1.0637041135996,1.06029653508338,1.05954706766779,1.05921730200493,1.0560095814662,1.05630936843244,1.0472957736476,1.04736572393972,1.04668620681626,1.04707592987236,1.0468261074005,1.05711879324128,1.05724870092665,1.04354843656965,1.03898168178398,1.04227933841258,1.04272901886194,1.05476046910689,1.05647924771331,1.04923439602926,1.07605533660854,1.07684477561963,1.14510626783163,1.19014426305919,1.16377300292927,1.16382296742365,1.19212285703635,1.191593233396,1.23372329505108,1.28983342223163,1.26661991814607,1.2664900104607,1.3064915846555,1.31176783526126,1.31362651445192,1.40879888333307,1.41617364270248,1.33084427921276,1.53276079387177,1.34058735561544,1.34419479210915,1.36309136388091,1.36363098042013,1.37026626527283,1.32386923579833,1.32331962636023,1.37042615165482,1.36378087390325,1.40257330733423,1.41048768324287,1.47556144071389,1.42952415559887,1.43176256494677,1.46658781752455,1.42341849438653,1.45476621815597,1.42250914058894,1.46173126867152,1.46096181545818,1.46767704350188,1.46598824359208,1.46161135388503,1.4595028522225,1.41960120701645,1.44650209078672,1.40536132612023,1.40469180189563,1.46703749797391,1.48794264241945,1.4387376083612,1.44271478211327,1.56359887979861,1.49605687630558,1.49615680529432,1.49030096655384,1.48569424017268,1.48951152754275,1.48722315370048,1.47871919675825,1.50129315531584,1.4994644548218,1.50027387963063,1.48630380700402,1.46759710031088,1.46193112664901,1.46058208530095,1.46874628368145,1.47355286804011,1.47359283963561,1.46480908152488,1.48393548997076,1.49416821841829,1.44221513716954,1.39534844144793,1.37324414913744,1.39078168666227,1.37347398581156,1.37556250167634,1.377581067249,1.38871315659524,1.37138546994678,1.36015345161179,1.54463235773473,1.54355312465628,1.42275896306081,1.39317998239216,1.39784666616657,1.39540839884118,1.33912839237976,1.29872710222998,1.27974059436835,1.28044009728956,1.2485527569809,1.21540631141404,1.22260119860371,1.27090687176325,1.25761631626011,1.2808597990423,1.14269797920286,1.14266800050624,1.07438652249649,1.18424845272321,1.14347742531508,1.08845652411184,1.06369412070073,1.06308455386938,1.05481043360126,1.01861615387766,1.00875316268849,1.03238636852678,1.03269614839189,0.974192721930883,0.947922390079597,0.921380251378923,0.920579820179072,0.923337860268446,1.02201373949501,1.01803656574294,0.942067550629002,0.943724373262401,0.944662706466721,0.927330023368826,0.927680774119323,0.924263202704229,0.924933726218711,0.950666440110546,0.921799953131654,0.916348826795591,0.917273169941486,0.927604828087876,0.932701206513893,0.933722480778871,0.93309092957,0.929709332590855,0.930638672186187,0.932139605597144,0.931686927278127,0.931792852006197,0.933124905426173,0.952006487849622,0.953507421260579,0.940797453182048,0.944895541010498,0.946616318196694,0.952246317422611
1.08152145229291,1.07599537921529,1.07542578397944,1.08326021669708,1.41999093007256,1.06408384375683,1.06487328276792,1.06482331827355,1.2037645842252,1.05569980160109,1.05658916960093,1.05958703926329,1.05763842398275,1.05320157688246,1.05070335216382,1.04665622811963,1.04689605769262,1.04862482919792,1.04897458065853,1.04848492861367,1.04549705185018,1.04428791108636,1.04406806731112,1.05740858730864,1.05738860151089,1.04154985679474,1.0665720755766,1.090435118089,1.09112462811135,1.08255072087699,1.12203266433031,1.1401697757876,1.18111068247661,1.17294648409611,1.17440544733179,1.17191721551203,1.199877346563,1.21862402485164,1.23625149846634,1.23900953855571,1.31980212595639,1.32196059211329,1.28076986295242,1.28305823679469,1.3081803845653,1.3287857420446,1.36059313916227,1.38918282284234,1.38597510230361,1.35099995624271,1.35070016927648,1.41773253492691,1.33058446384202,1.32148093296731,1.31739383732762,1.31781353908035,1.33536106950405,1.36961672684599,1.38006929906876,1.37845044945108,1.37654180576604,1.37383373017104,1.37664173475479,1.39299011731354,1.39672746149262,1.43964696215878,1.52161871162666,1.52178859090753,1.49888486668707,1.46258066507586,1.55035828878984,1.45244786561707,1.48134732916225,1.41935138454459,1.41883175380311,1.43614944755269,1.50093341095636,1.44921016638172,1.44892037231436,1.48945157014951,1.49477778524964,1.49373852376668,1.4857242188693,1.4830561148698,1.53664803153397,1.64872838531085,1.64658990495169,1.47336300296149,1.51677215567251,1.61139491511555,1.53011267567002,1.53011267567002,1.5119056139206,1.4633900898847,1.47850934588188,1.59791449453379,1.48052791145454,1.48806255720594,1.47790977194941,1.43350132935094,1.40137415946928,1.37038618005933,1.36391078158862,1.36368094491451,1.36318129997078,1.36588937556578,1.3670185731386,1.3808787238776,1.36203211660021,1.36261170473493,1.54299352231931,1.35299853601762,1.35102993493934,1.36322127156628,1.38386660064108,1.32256016604576,1.32269007373113,1.41267612809639,1.28731521171525,1.28675560937828,1.23518225828676,1.18493796274556,1.183469006611,1.18468814027369,1.15067231250475,1.12100339574623,1.11135025543342,1.11216967314114,1.21552622620053,1.08675773130317,1.07397681364263,1.11507760671363,1.07826376725981,1.0938127179086,1.07455640177736,1.03805234218865,1.02647057239305,0.993874735554183,0.987901979896868,0.983788902720106,0.94785443836725,0.972833687683945,0.928289341660782,0.92647263264539,0.939190595043021,0.939293521901429,0.944121091347721,0.938572034602687,0.938613005488072,0.943318661568095,0.927963573157472,0.925571273166907,0.921146417545259,0.919898304475828,0.921410230075547,0.914591075883559,0.952658024856243,0.928832955359557,0.928348299764142,0.931092349795092,0.93282411917005,0.933733472967633,0.931617976275892,0.932309484878011,0.933045961525065,0.935101500823558,0.935918919951496,0.937307932895057,0.938249263969039,0.939174606404822,0.941655843195371,0.948910687778289,0.984181623645876
1.51678214857138,1.07529587629407,1.07619523719278,1.08575844141572,1.08466921543839,1.320151877417,1.06697179153158,1.06644216789123,1.06507314074541,1.06486328986905,1.06148569004945,1.06119589598209,1.05657917670205,1.05446068214065,1.0555798868146,1.07989260977636,1.08238084159612,1.05112305391655,1.05123297580417,1.04407806021,1.04080038937915,1.04151987809812,1.04037069472754,1.05518017085962,1.04967408357974,1.046706192614,1.06286471009414,1.06363416330748,1.08268062856236,1.10391553867076,1.12551019313865,1.17083798243358,1.19669960472089,1.21108937910024,1.18116064697098,1.19748904373198,1.23018580884949,1.31265720326109,1.23673115761231,1.28716531823213,1.29088267661346,1.32636746051696,1.26790900210089,1.26913812866246,1.28417744146864,1.25933509486653,1.26771913702227,1.28743512650174,1.41037776135525,1.29488982906215,1.39391945690887,1.32503840496665,1.32957518105569,1.32441884523643,1.34390499804179,1.33559090617817,1.33480146716708,1.37810069799047,1.37669169924916,1.38753399452804,1.38706432828094,1.38392655803433,1.39844624009904,1.37380375147442,1.39705722715548,1.44768125285392,1.44608238903399,1.44266481761889,1.44213519397854,1.47859928197175,1.52786427342325,1.48835235127331,1.54888933265529,1.52856377634447,1.53546886946678,1.50028387252951,1.47777986426404,1.47739014120793,1.62508518657368,1.4918098942839,1.54754029130722,1.50032384412501,1.49817537086698,1.49753582533901,1.64989755447917,1.64939790953544,1.64740932265941,1.64440146009817,1.50794842596628,1.67830736597949,1.50553014443864,1.49745588214801,1.55364595251957,1.54062520528604,1.47661069509572,1.47952862156708,1.44272477501214,1.44329437024799,1.45445643829086,1.45681476242525,1.44736148008993,1.37392366626091,1.37343401421606,1.36608923354327,1.39075170796564,1.43070331766607,1.39884595605402,1.35981369305006,1.35649605062371,1.36690865125098,1.36672877907124,1.3873541223483,1.35730547543255,1.42150985070149,1.44009664260814,1.40137415946928,1.31950233899015,1.29580917575861,1.25826585468695,1.22298092876094,1.20801156624688,1.18849543474489,1.1762841123202,1.14918337057244,1.22920650475978,1.14187856149515,1.1201140277464,1.11492771323051,1.11550730136523,1.11666647763468,1.09328309426825,1.06661204717209,1.09635091422273,1.06673196195859,1.11600694630896,1.04469761994022,1.02888885392069,1.0396012415142,1.00115855954384,0.960357553439078,0.935880946935772,0.935322343888686,0.929501480294264,0.930153017300885,0.925923023207291,0.926234801652176,0.9322705125724,1.08974560806666,0.983922807565025,0.93321284293627,0.928509185436022,0.923497746650439,0.922682326102276,0.920781676736338,0.915602357249662,0.915629338076624,0.933653529776637,0.934817702495521,0.926913319485758,0.92659054885211,0.93118328517485,0.932393425228557,0.934720771376438,1.02163400933778,0.956615212810562,0.944283975599376,0.939257547465481,0.939826143411442,0.940025002099045,0.939123642620562,0.941498954683041,0.947028025630325,0.953752247283005
1.07256781490132,1.07356710478878,1.07532585499069,1.08140153750642,1.07624520168715,1.07665491054101,1.07700466200162,1.19844836202394,1.06574266497001,1.06490326146455,1.06485329697017,1.05455061823052,1.05782828906137,1.05617946074707,1.05413091647779,1.0539710300958,1.05449066083727,1.05552992232023,1.05537003593823,1.04696600798474,1.04666622101851,1.03238636852678,1.0315169863247,1.04338855018766,1.0691202647896,1.05082326695032,1.0512229829053,1.14953312203305,1.14371725488807,1.12854803439651,1.20111646602344,1.20029704831573,1.23499239320814,1.23056553900672,1.23346347968034,1.23254413298388,1.34200634725562,1.25766628075448,1.31785351067585,1.29615892721922,1.27016739724653,1.26519093360701,1.28119955760403,1.25212022187911,1.25179045621625,1.26301248165236,1.2494920894751,1.25057132255356,1.24897245873363,1.27687263239135,1.29057289674835,1.28581627688407,1.28643583661429,1.33902846339101,1.34004773907621,1.34009770357059,1.36045323857803,1.36080299003864,1.39762682239133,1.40864898984995,1.44027651478788,1.40079457133456,1.43977686984415,1.41483459425329,1.47264351424252,1.46661779622117,1.42720580305998,1.42097023416226,1.40284311560384,1.40085452872781,1.45445643829086,1.42026073834217,1.4519282348756,1.58482379700814,1.57431126739212,1.5403254183198,1.54007559584794,1.4965964928448,1.49980421338353,1.48808254300369,1.55408564007005,1.52605555872696,1.53027256205201,1.4989548169792,1.49800549158611,1.49033094525046,1.49416821841829,1.48831237967781,1.48896191810465,1.55586437606972,1.55987152851841,1.65136651061372,1.65159634728784,1.51357442803265,1.56830553516852,1.48582414785805,1.4552258915042,1.50275211855152,1.42357838076852,1.42345846598202,1.43181252944114,1.43068333186832,1.42957412009324,1.44278473240539,1.42320864351016,1.40448195101927,1.39104150203301,1.35968378536469,1.36068307525214,1.40822928809722,1.44650209078672,1.45948286642475,1.35981369305006,1.34376509745754,1.35439754186006,1.39078168666227,1.35350817386022,1.28914391220929,1.27351501836951,1.27405463490873,1.20286522332649,1.17806284831987,1.17737333829753,1.15811702216628,1.14597565003371,1.15314055852676,1.10057791044667,1.10639377759165,1.10563431727718,1.08569848402247,1.0757955212378,1.06167555512807,1.06629227440811,1.08381981903406,1.08334015988808,1.01757689239471,1.00444622327356,0.984459426234588,0.973490221140003,0.947661575418971,0.964299752045085,0.941096240858396,0.902448704461102,0.913770658885959,0.914649034697031,0.896325056030782,0.934089220167567,0.932772156095902,0.947176919823556,0.949430318519765,0.922886181239317,0.922467478776474,0.921242349374454,0.921374255639599,0.920617793194796,0.914687007712754,0.935760032859391,0.93610978432,0.931631966334317,0.929072784932547,0.93386038278334,0.934079227268692,0.935777020787477,0.959353267102186,0.943763345568012,0.945049431653166,0.945932803913675,0.938436131177993,0.938463112004954,0.938258257578026,0.939624286854176,0.971471655567345,0.962964700755446
1.0729675308563,1.07426660770999,1.07540579818169,1.07716454838361,1.07702464779937,1.07672486083313,1.0784236536418,1.07824378146206,1.06999963989056,1.06915024348623,1.06733153589106,1.1786024648591,1.05589965957858,1.0517725923434,1.05152276987153,1.05162269886028,1.05145281957941,1.05014374982685,1.05137287638842,1.04318869221016,1.04069046749153,1.04124007692963,1.03891173149186,1.04777543279358,1.04284893364843,1.0561294962527,1.08692761058404,1.12866794918301,1.15439966378495,1.15992573686258,1.23900953855571,1.23978898466792,1.28773491346798,1.2387397302861,1.24803312623942,1.24409592408285,1.32884569943785,1.2496120042616,1.27926093522237,1.27375484794249,1.27747220632383,1.27732231284071,1.26981764578593,1.27272557935842,1.26076407940559,1.3163445829458,1.24059840947676,1.25418875194614,1.25486826906961,1.25804601091171,1.29353079481522,1.31267718905884,1.36406067507174,1.38106858895621,1.40170392513214,1.39884595605402,1.52299773167135,1.41183672459093,1.40407224216541,1.39472888171771,1.41817222247739,1.41476464396117,1.42501735820645,1.43416086067666,1.43648920611443,1.43537999433935,1.43307163469933,1.43197241582313,1.40167394643552,1.4305734099807,1.42790530598119,1.42804520656544,1.4267661155095,1.54486219440885,1.49453795567665,1.46110171604243,1.51786138164983,1.53579863512964,1.48227666875758,1.48446511361111,1.44735148719106,1.47296328700651,1.53538892627578,1.4878826850262,1.51620256043666,1.51538314272894,1.5109662814264,1.55935189777693,1.55991150011391,1.70501838467115,1.68801047078667,1.65118663843398,1.65124659582723,1.52629538829995,1.53575866353414,1.46775698669287,1.45635508907702,1.45685473402075,1.48680345194775,1.49263930489048,1.4578140523127,1.47083479954623,1.47661069509572,1.44559273698914,1.45079903730277,1.44111591829334,1.43648920611443,1.41594380602837,1.36962671974486,1.39089160854989,1.43792818355236,1.40759973546812,1.37694152172103,1.40898874841168,1.38325703380974,1.38179807057405,1.41295592926488,1.31052871580081,1.29261144811876,1.29916678978046,1.27403464911098,1.22259120570483,1.25247996623859,1.17563457389336,1.15198138225731,1.09037516069576,1.09028522460589,1.09503185157129,1.08994546604415,1.09811965732353,1.05915734461168,1.05881758604995,1.04705594407461,1.10134736366001,1.02065470524807,1.01741700601272,0.991098708246835,0.974737334919546,0.974004855432041,0.946109678223755,0.960143705403163,0.901496381198358,0.930101054226737,0.91592113072376,0.949420325620891,0.932243531745439,0.925474342047823,0.951570797458692,0.950225753270179,0.949693131760166,0.920964546785742,0.921171399792445,0.922660341724752,0.92282222668652,0.913831615569094,0.913957526094913,0.934704782738239,0.933889362190076,0.93210562974097,0.929380566217882,0.929140736644893,0.932079648203896,0.93439800074279,0.957195800235173,0.94467869510492,0.945764923212583,0.946287551823722,0.954001070464981,0.937631702818593,0.938211290953316,0.967869215523072,1.0637840567906,0.980146491080336
1.07664491764213,1.07672486083313,1.07967276600112,1.0796827589,1.07926305714727,1.074106721328,1.07279765157544,1.07879339090016,1.06829085418302,1.06737150748656,1.0664921323856,1.06176549121794,1.05576975189321,1.04848492861367,1.04863482209679,1.05174261364677,1.04848492861367,1.04828507063618,1.04870477238891,1.04262908987319,1.04198954434522,1.03981109239057,1.04241923899683,1.04303879872705,1.07057922802529,1.04820512744519,1.1347536245976,1.10697336572637,1.08644795143806,1.12195272113931,1.12784853147529,1.1555588400544,1.18987445478958,1.20280526593324,1.23891960246584,1.25358917801367,1.22826717226558,1.21951339285148,1.26843862574124,1.2502415568907,1.30411327472336,1.26668986843819,1.26846860443786,1.26755925064028,1.2620931349559,1.30456295517271,1.31186776425,1.28449721423263,1.28118956470515,1.29172208011892,1.29435021252293,1.32270006663001,1.45002958408943,1.42256909798219,1.42151984360036,1.41570397645538,1.39033200621291,1.38649473304509,1.38119849664158,1.38199792855154,1.39843624720017,1.40449194391814,1.40766968576025,1.48689338803762,1.53561876294989,1.45258776620132,1.46200107694114,1.43537999433935,1.49062073931783,1.43308162759821,1.43013372243022,1.42403805411675,1.429354276318,1.45689470561624,1.49125029194692,1.49171995819403,1.51277499612269,1.49465787046314,1.47172416754607,1.4535770631899,1.45267770229119,1.47539156143302,1.55749321858627,1.53940607162335,1.55310633598034,1.59134915997322,1.53155165310795,1.53179148268094,1.5643483472142,1.56348895791099,1.65395467142223,1.66047004148843,1.65982050306159,1.73956383608044,1.48752294066672,1.46088187226719,1.4686863262882,1.46798682336699,1.45665487604325,1.46324019640158,1.45053922193203,1.44896034390986,1.42779538409357,1.43285179092409,1.42944421240787,1.42083033357802,1.42327859380228,1.3775410956535,1.37895009439481,1.38458608936005,1.38056894401248,1.35708563165731,1.33304271696516,1.32680714806744,1.37643188387842,1.3430356158397,1.34730258365913,1.27440438636934,1.26008456228212,1.26393182834882,1.24885254394713,1.24883255814938,1.21892381181788,1.1325152152497,1.10585416105242,1.10198690918798,1.09784984905391,1.07022947656468,1.07407674263138,1.06188540600443,1.06667200456534,1.1270590924642,1.06019660609464,1.0243720636294,1.0101621614298,1.01805655154069,1.00453615936343,0.980554201354417,0.956082591300549,0.999032070663334,0.962752851299306,0.934442968787726,0.92855315419107,0.904579190501154,0.936274667151429,0.959247342374116,0.920655766210519,0.96276684135773,0.933138895484598,0.932246529615101,0.942416302799724,0.918868036601863,0.958903586652832,0.942255417127844,0.912567513861464,0.93298100768238,0.933756456635045,0.932124616248832,0.929763294244777,0.930221968303119,0.929471501597641,0.929655370936932,0.935373307672946,0.946081698106906,0.944000177271339,0.945137369163262,0.945099396147538,0.938234274620728,0.937893516769105,0.938158328589281,0.969834818731695,0.944651714277959,1.06910027899185
1.0790931778664,1.07930302874276,1.07760423593409,1.08024236123697,1.07978268788874,1.07556568456368,1.07504605382221,1.07620523009165,1.07614527269841,1.06587257265538,1.05896747953307,1.05967697535316,1.05348137805094,1.05237216627587,1.04997387054598,1.04932433211913,1.04833503513055,1.04773546119808,1.04432788268186,1.04345850047978,1.04215942362609,1.05029364330996,1.04336856438991,1.0452572222772,1.03754270434605,1.09072491215637,1.07362706218202,1.11804549767937,1.08819670874111,1.13494348967622,1.16268377695195,1.21099944301036,1.19980739627088,1.18644689047561,1.18634696148687,1.21486669487481,1.2244498848955,1.23297382763548,1.26973770259493,1.29062286124272,1.26530085549463,1.28384767580578,1.33460160918959,1.28115958600853,1.28130947949165,1.3075108603407,1.34286573655883,1.32558801440475,1.35945394869058,1.3594839273872,1.35219910410766,1.46504891109787,1.46401964251379,1.42151984360036,1.43781826166474,1.40684027515366,1.39317998239216,1.40438202203052,1.3748330200585,1.37767100333887,1.3796196186194,1.39188090553847,1.42663620782413,1.42572685402654,1.45090895919039,1.47007533923177,1.47504180997241,1.46954571559142,1.44032647928225,1.48870210273391,1.42922436863263,1.43595958247408,1.43864767227133,1.42941423371125,1.44608238903399,1.50973715486483,1.4512187390555,1.45149854022399,1.46802679496249,1.47021523981601,1.46163133968278,1.46180121896364,1.53153166731021,1.51801127513295,1.48345583082478,1.48375561779102,1.52587568654721,1.54588147009405,1.53919622074698,1.53884646928637,1.68248439770905,1.65855140490452,1.65776196589343,1.65677266890485,1.46988547415315,1.47769992107304,1.49197977356476,1.48443513491448,1.45101888107801,1.4535370915944,1.45328726912253,1.45178833429135,1.43283180512634,1.43169261465465,1.43090317564356,1.46820666714223,1.41464472917468,1.40966826553515,1.38391656513546,1.38535554257339,1.36103282671275,1.3216408193493,1.31832317692296,1.32444882393305,1.29789769162339,1.29100259139996,1.28166922385113,1.27573344191965,1.27428447158285,1.26102389477633,1.26522091230364,1.27702252587447,1.22831713675995,1.14683503933692,1.12141310460009,1.1009176690084,1.08630805085382,1.08120167952893,1.07870345481029,1.06274479530765,1.04929435342251,1.03755269724492,1.02769969895462,1.00205792044255,1.00092872286972,0.983039435304516,0.98507498880526,0.963736152548561,0.956522278851029,0.957611504828354,0.976134342182207,0.928593125786568,0.943582474098383,0.938493090701578,0.937655685775891,0.936137764436848,0.975061104843081,0.939103656822813,0.942044566961591,0.920782676026225,0.914395215065618,0.914651033276806,0.933501637713744,0.91112054210443,0.910979642230299,0.931776863367998,0.931221258190573,0.930985425777134,0.93013103292336,0.927770710209193,0.933055954423939,0.934073231529368,0.932760164617253,0.936848259546828,0.943463558601776,0.945080409639677,0.945249289630657,0.939347483555352,0.939947057487824,0.941117225946033,0.941626863788635,0.939207582971108,0.96599354840432
