0.933635057282784,0.933576733608273,0.934767970409677,0.935342412623074,0.935319136191171,0.933719512552058,0.931555065813053,0.930833640067571,0.930762881852876,0.930190062204637,0.931802276500281,0.933331530494059,0.935581539879931,0.936402340273236,0.935939990674861,0.934692461724206,0.933954807685846,0.933165180941464,0.933745539649669,0.934239960273511,0.934858737481961,0.933734141760296,0.932980314037367,0.932739378785977,0.933626052312832,0.934328604029331,0.937552624246952,0.93770645461528,0.93672971748818,0.936454748467026,0.936647386219692,0.935854033526575,0.934880174459923,0.935152064101412,0.935472388616147,0.935827992884596,0.935517640247374,0.935351490231694,0.935074539745456,0.934732812527148,0.934153998283075,0.933559699760814,0.932471553132802,0.929462850271734,0.928000252584365,0.926311821027899,0.92589284045588,0.924099373806288,0.923980187522772,0.923499277281972,0.926916500092276,0.927457390314644,0.92847345401309,0.929139694659594,0.92970504584969,0.930203258680976,0.93088228804257,0.930965235016433,0.930152792651663,0.929531654588357,0.929663311045273,0.929260035027314,0.928037825818202,0.926917063105344,0.92636085818042,0.925100471629325,0.924191884274058,0.923579754929882,0.922889934076393,0.920778195540824,0.920130615711705,0.918833468817573,0.917372502018841,0.9164872276988,0.915330855560105,0.914913563113923,0.914433726986672,0.914282412506854,0.913226869267829,0.911417184902935,0.90977293103821,0.909014995575927,0.908232917782022,0.907285317527054,0.905610901414138,0.904494315998813,0.903778633652748,0.902975092072049,0.902517107962995,0.902860239202162,0.904045974192879,0.907791071534346,0.909345663958605,0.908778369379851,1.09016419048989,1.06453846295274,0.945938749238672,0.880784538309275,0.881700334109576,0.882167687096218,0.883369883416868,0.883869658862158,0.883952813453214,0.88399974316661,0.883487046743568,0.883097313447516,0.883310541656205,0.883910043374863,0.884149735964495,0.883426881363291,0.883099485486848,0.881789389174772,0.880842258316687,0.879332714594381,0.878282249668556,0.876963384011041,0.876509630356467,0.875619044789919,0.87551633879335,0.875727029667603,0.875231292875205,0.875971824904334,0.876907326322069,0.878199299737612,0.878075957660853,0.880052097324335,0.879541330205406,0.880520074923208,0.881974930618662,0.882393761605735,0.881896356784493,0.877107855397164,0.876797265199184,0.877807054040786,0.878192331622524,0.87880227201229,0.878879041500201,0.878974617349993,0.878427366831218,0.878087157180332,0.87778040362719,0.878089661425522,0.878826360862655,0.879888982787173,0.881193784560556,0.884020304935006,0.884919726441084,0.891876699418697,0.892834432954623,0.89415670375844,0.895448757865942,0.896649759550265,0.897438608099359,0.898353540528146,0.899882107255078,0.901026004604047,0.902522101174952,0.903395320281645,0.904743631605734,0.905215261407629,0.937128607596264,0.946667743374906,0.952055146664083,0.953527067516717,0.952450147108754,0.950036980929112,0.953908698788996,0.95546967093568,0.937992510177883
0.932959848802142,0.933615312246449,0.934260165988968,0.936610668698745,0.935964726412542,0.934233528693032,0.929053880397167,0.929543424698022,0.92999127292579,0.928619716451171,0.926794093782323,0.934796994292949,0.934200509201852,0.93777491425352,0.934903232153146,0.934640659281541,0.933331020442296,0.933567146618387,0.93287650100897,0.934530452642015,0.934721454089472,0.933587104260571,0.931817444978115,0.933003685459077,0.932922558140922,0.934325871356231,0.937649316996534,0.939077397827055,0.944651890162544,0.943979112606462,0.939949305460918,0.934737699486642,0.93472951738627,0.935540166668359,0.938745981963169,0.937994291982704,0.936155210429311,0.935728427077319,0.934837214772197,0.935603134301501,1.04716612949722,0.936224265549395,0.932902324528088,0.931246150840792,0.928835771663104,0.928161778741584,0.926777910042531,0.926325268770475,0.923321537756732,0.924680546462498,0.925566508445184,0.927284630640687,0.927632715287089,0.928931490141786,0.929724148517045,0.929985112725864,0.93061777424948,0.931020674611079,0.930101794313668,0.929844146752024,0.930088415788172,0.931005924954382,0.92861008362712,0.927817407649662,0.926120752243356,0.925852892974977,0.92441913359658,0.925267024121949,0.924172482171308,0.921179692992,0.920333941917787,0.919792641032006,0.916511283013198,0.916544364804194,0.915789631467072,0.914757645303117,0.914955973661962,0.9138219779064,0.916002092323764,0.908745451620921,0.910075784810604,0.908765061676616,0.909018229340453,0.907537482387942,0.905537885289921,0.904361110523461,0.903766614884735,0.902856130455711,0.901754989506231,0.90273451750193,0.902839961850307,1.06997027114189,1.06899936646799,0.901861023583427,1.14385908591168,1.04929511732593,1.04995091251425,0.881592973670755,0.881628898277867,0.881373098770512,0.883349654805922,0.883444244631142,0.883461461640579,0.883524479300733,0.882555412007909,0.881287316509202,0.880037989166072,0.883758567233855,0.883574829112932,0.88370724901963,0.882700156901733,0.882148411496415,0.87950962653302,0.879617959696097,0.877449097355995,0.876969853861874,0.876736376233609,0.875640116536772,0.874997007326027,0.874198573918928,0.874842128647211,0.875233728662152,0.876437740748051,0.877756048770978,0.878138945662789,0.880569223863388,0.881076914927615,0.880566401283863,0.88150261512243,0.881894721201069,0.882611465639283,0.872031208817155,0.874172858443345,0.875484368771198,0.877345549892092,0.878103875266995,0.879793527993699,0.880043785736584,0.879870539357771,0.87948341916827,0.879234376014201,0.879703603222386,0.880625446340102,0.881665757564886,0.883287027296208,0.885691831605833,0.887545390676491,0.88982752979405,0.892028375125033,0.89291545353443,0.895000593891925,0.895498956690119,0.896415542999376,0.898356887215235,0.899010130821846,0.928109132512516,0.902111036236704,0.903301321332392,0.904225810306948,0.905064053292946,0.927493580826272,0.940084953975568,0.952396807400632,0.915341309490931,0.916528301757067,0.918742439614555,0.9181302637734,0.974527299469815,0.933079091545838
0.932495247420887,0.932687034774088,0.933807391888919,0.934141982814389,0.934260278580689,0.933042369681679,0.931473383049868,0.930862828415195,0.930937746206671,0.930149845222393,0.931605918885212,0.933170899678484,0.935632802603947,0.936061206431832,0.935454890551135,0.934239171498489,0.933897458508924,0.933208920249093,0.933553884273979,0.933528089077638,0.933901352110795,0.932811785095534,0.932530220326137,0.932488030232184,0.933080372916956,0.933074119320919,0.939496236673874,0.940204632168679,0.94224174907385,0.943183437288605,0.937813248258362,0.936946138351207,0.936564733636712,0.937990255135297,0.938642611877289,0.937961124206289,0.936719845582928,0.936146577019253,0.935818255477321,0.936229551900352,0.937062444887968,0.936550630770891,0.933901893449804,0.931691637038928,0.930414466926295,0.929001727988368,0.928366893817776,0.926624642615171,0.924477217202332,0.924292170680305,0.926064148353304,0.926834002582054,0.92778372325572,0.928679897948733,0.929609754322362,0.93034319577453,0.931111406459226,0.931172360458465,0.930717075789005,0.930263197186474,0.93071210209079,0.930236030345804,0.929757896832327,0.926593919642288,0.926291058708073,0.925252150655574,0.925421258646517,0.925081517118174,0.924741105258121,0.921971418524437,0.921042792049731,0.91931147819105,0.917948720923438,0.917256808080434,0.916830014878996,0.916194528653825,0.914578547096292,0.914169144795686,0.914008106877541,0.912406084129718,0.910968803137795,0.910228062228738,0.90939605036277,0.908696320807174,0.906649607632996,0.905467143665086,0.903658736893632,0.903052878949312,0.902964919616607,0.903361126024083,0.903919059284823,0.904102494620499,0.903018200074639,0.901781121871966,0.901046664370063,0.890950096514845,0.89075054842717,0.884269681322343,0.882694691418222,0.882304809059376,0.882374669424274,0.882340867105144,0.881913832484867,0.88186272944607,0.881365908042112,0.880845992402569,0.881039766638959,0.882136144027598,0.882903939091875,0.882456171964195,0.882276687823562,0.881188356756337,0.880025262723079,0.878527071274878,0.87749371150026,0.876366961363476,0.875798780326362,0.875249937982361,0.874715106216231,0.874265186320816,0.874295219831624,0.875203807868584,0.875621090537671,0.876963257215287,0.877841495617153,0.880709880410759,0.880491632326345,0.88132134053612,0.882085454417621,0.882566330703352,0.882428397614195,0.880265525771104,0.876237658672408,0.876744241148005,0.877103341715445,0.878239945116784,0.880269588734383,0.880829106729663,0.880424401978541,0.879955924896741,0.879826964128068,0.879929874218641,0.880400284829669,0.881080171955927,0.882632049438511,0.885720046138529,0.88737262284392,0.889562436854282,0.8912143628007,0.892608623382294,0.893829414354394,0.894658614288286,0.895384750370761,0.896158558420901,0.905852917341326,0.910663272975174,0.901302511173941,0.902011086725334,0.903552309946916,0.904646797122589,0.906276362283139,0.907696339200106,0.909648842895352,0.912505152855436,0.914265033927085,0.916566874028634,0.91682693285317,0.927494901592324,0.92861652253342
0.930676280076402,0.932537412626041,0.932559264746996,0.933264560130793,0.932694702092791,0.933224771294136,0.932007868975698,0.932405581339357,0.931499945689225,0.932276426541075,0.932287565372757,0.933939226646724,0.936115751140234,0.937223302642194,0.934987761181427,0.934658417441715,0.933078005056942,0.933559648288013,0.93290092340423,0.933749332741053,0.932979513612333,0.932611566229595,0.931540649385044,0.93240414115768,0.933018784422343,0.932829818345543,1.00671578622108,0.940673593805626,0.952275253732367,1.00317447102497,0.938117248396771,0.937470064600337,0.937805316775367,0.939701971239279,0.941176950446031,0.937607280200632,0.936886758206165,0.93621786156124,0.935878144873897,0.936377458516695,0.938469640954191,0.93852490138292,0.934353870177534,0.931969103593057,0.930622901891992,0.930732963099189,0.929370327302189,0.928777025556698,0.923764731687552,0.93545795708309,0.926759486077115,0.927596915752224,0.92754324657187,0.928594219235317,0.929505111137036,0.930850638418926,0.931983842302007,0.932393349926841,0.930524819794024,0.930905933884022,0.930624788909038,0.932379965882891,0.929402632622227,0.926750385024926,0.924129587276372,0.925407400098442,0.925413712459488,0.92653878845087,0.925983175910935,0.922633889579564,0.921269366036819,0.919313957170739,0.918149763284992,0.917736833337708,0.917861784425612,0.918803399973899,0.923107223303838,0.92328115911668,0.915379910368262,0.913976194642727,0.913106159429366,0.910355305665841,0.910596846683002,0.910415991846343,0.955990114792097,0.906943685066524,0.901973196780788,0.902883628242719,0.903232504918928,0.903985310038182,0.904746944878176,0.904776314000405,0.902612139290452,0.899462975766903,0.898257932319553,0.889245889864854,0.888622715801168,0.887885914405157,0.88232548717926,0.882007558340937,0.882179160086493,0.880822897999842,0.880462877910843,0.880315283704794,0.880255378519117,0.879941312764288,0.880378174128489,0.881843520881596,0.882424020833791,0.882117266717401,0.881440183085084,0.881639244747957,0.879600581072216,0.878208519644266,0.876762014648438,0.87615179376274,0.874715364031253,0.875116928003724,0.875006400013162,0.873286270162116,0.874231366166911,0.874042655803058,0.875038892035075,0.873822491840872,0.87868947990853,0.879819689635116,0.880168569024552,0.858192986419218,0.887535322555374,0.882693599042405,0.883827304647173,1.01263226387728,0.875397582565118,0.876266807161476,0.87692093500551,0.877966182889867,0.881403442969133,0.882514988289733,0.881179048904397,0.88024414063044,0.880059092672026,0.880191763751862,0.880022546006264,0.879319971349155,0.881695585997826,0.886093974874834,0.887902006033725,0.889399727155276,0.891057851287345,0.892314101173708,0.893678665624826,0.894251509893365,0.895166423366897,0.896401363106673,0.912891608490942,0.921950762786209,0.900555605476144,0.901893085087594,0.903069442568428,0.905155469783263,0.906274454113121,0.908179457428843,0.9093040661225,0.911057914383841,0.911784407796429,0.917016547385497,0.916267144205812,0.925427508607835,0.926772513024437
0.931165617946708,0.931382258900905,0.932295578916341,0.932409812285376,0.932947015222054,0.932626651875509,0.932701413393653,0.932285777556313,0.932520586204036,0.932438772641657,0.933060805160912,0.93377996427833,0.935854626761532,0.936202758367081,0.935804953034549,0.934666311934811,0.934194792501724,0.933359707701597,0.933262145597558,0.932936896870683,0.932910754147433,0.932335602318686,0.932308680462753,0.932527041879396,0.933003631195848,0.933240233816441,0.93372804358345,0.934367901619784,0.934800055445483,0.935485064096668,0.936203134713554,0.936853641845485,0.937173632100517,0.9388003760434,0.939242005811581,0.938813884626819,0.937616574291367,0.937264292815284,0.936895703677116,0.937074416249024,0.937901596188932,0.93803840820537,0.935914532041533,0.93358760209593,0.932274129603816,0.931307571313476,0.930561063350316,0.929737850160541,0.92989171458419,0.931040094108504,0.929723001591172,0.929421944439451,0.930008756186262,0.930298008432871,0.930647185305723,0.930984444203057,0.931683113543218,0.93157246337714,0.93164810111078,0.931590429734011,0.932565659953578,0.931877842655265,0.930348420448374,0.9268957373328,0.926647270857479,0.925910899094759,0.926394756192615,0.926375999527427,0.92609779917198,0.924236850479732,0.921869578871404,0.920429996459918,0.920052614491788,0.919799993842296,0.920096350414124,0.920341919919437,0.921532672197097,0.921287543326474,0.916582059129202,0.915172181321113,0.914180734756774,0.914043439426008,0.915299586150989,0.917074572419195,0.918796324677883,0.908086180735737,0.905862946023997,0.904571696739629,0.905170660369767,0.906086281531452,0.906632745548692,0.906031302979676,0.904073341784083,0.902295812432453,0.901219555201666,0.889568053431751,0.888882651674448,0.887641161719273,0.885253001242548,0.884460191961011,0.883552479948817,0.881984519667168,0.881230695903349,0.881190662700424,0.881293580652632,0.881332369276556,0.881593336873578,0.88200293906586,0.882161519282108,0.880678426873745,0.880594735216761,0.880141252659835,0.879362660187247,0.878075234103866,0.876949115856889,0.875515214364873,0.874769087662216,0.874808917817104,0.874629170815538,0.874516027741985,0.874346481797934,0.875863036641335,0.875048572817804,0.873495343788115,0.870130501591047,0.866274744438593,0.86370493550469,0.86206789080346,0.872210142778146,0.882675976352887,0.882916617516845,0.883109623739907,0.876611920443724,0.878311011130203,0.878182115866386,0.878889817172436,0.881011271419636,0.881764171232449,0.881459364953298,0.880634730049627,0.880138731517943,0.879904571142103,0.879575793251619,0.879684702649045,0.880622341596632,0.88271074000743,0.888536296498958,0.889461238180577,0.890423006013853,0.891861628937869,0.892893233632337,0.893580709044716,0.894215056280587,0.894920326371155,0.895650286535726,0.896940265457333,0.899077582323892,0.900505106346572,0.902383906448108,0.90415484081396,0.906136164966165,0.907389444254193,0.908910845616734,0.910005084185037,0.911365948574692,0.914195898446783,0.916044079701985,0.924198740565305,0.925876623259763
0.93028424479854,0.931359742115971,0.931028419507721,0.93290063808032,0.932389069927571,0.933208512631558,0.932348952749069,0.933044753464416,0.932329481265181,0.933456634548906,0.932034916134139,0.933909895730831,0.935765070523212,0.937559247572654,0.935690088805415,0.935698383541288,0.934026395413346,0.933990643486793,0.932430186640521,0.933044164693487,0.932368611442651,0.932259616450508,0.93216333897929,0.932639386128955,0.933076117739906,0.933083877085451,0.934300066771408,0.934150764288978,0.935449805252585,0.934806790789382,0.935528068253431,0.935069176065496,0.937064922543606,0.937239815006402,0.939856686995837,0.939271773902673,0.938617202906529,0.937371719348698,0.938056151858611,0.93641653222199,0.938761085102943,0.93869524320293,0.93811186082279,0.934424625924034,0.933130485504904,0.932416304035823,0.931148208147758,0.930474162150893,0.929498406719982,0.930446067820336,0.930103229058546,0.931604694813516,0.931999930820381,0.932610667004871,0.931106270043456,0.93154375091083,0.931295683428594,0.931643102262837,0.931698082399045,0.932702769224833,0.934013765792742,0.935343435157989,0.928932254861034,0.928301080246564,0.926773697449953,0.926921579795419,0.92660332039653,0.927655662718982,0.926977020456164,0.927427654572955,0.928787246834969,0.920985252870586,0.921739534124092,0.921997309487697,0.921782772478916,0.921208655554562,0.921378648340574,0.920829096239672,0.917247957399057,0.915368163226104,0.915043673847529,0.914861102753473,1.09624536076309,0.918814371682455,0.919545068617729,1.08803516623072,1.08672444492095,0.90572130140943,0.906366544520701,0.90886129896105,0.90861585506406,0.908677428629679,1.07266131941225,1.03453232159335,1.00884587895537,0.889913126341614,0.889443072271873,0.888319986105163,0.886757345483941,0.886393820455569,0.885809603786632,0.882272005078085,0.881535219048054,0.881701918702101,0.882473035619878,0.882585678197041,0.882515061914094,0.882827121630344,0.882515338577403,0.878728499307959,0.879163701710018,0.879850059106077,0.878727493225164,0.878887282443599,0.876730761442259,0.875291145771324,0.873816535592633,0.900956188205613,0.90161643864126,0.874302682305244,0.874033369055893,0.881095572588938,0.881373826693199,0.862830112342115,0.864381173819965,0.864503359071287,0.865957677354367,0.861813619481198,0.861763856330742,0.880642684130771,0.882025124504385,0.881609272387546,0.87117917144376,0.881688388373056,0.879324251913895,0.879053378779861,0.881323084027532,0.881904625131965,0.88242606927153,0.880614996883381,0.88007578634301,0.879781995086033,0.879605292642465,0.87871775740536,0.880153971275893,0.880925952810948,0.917573484150598,0.888970689156928,0.889884618109655,0.891645314983187,0.89315078173597,0.893693917994382,0.894364188139102,0.895182749420494,0.896800456202614,0.898215078102785,0.898826242754733,0.900282659755592,0.901541097307453,0.904096018091673,0.906371771001513,0.907066713846405,0.943682062748387,0.908855207278865,0.909415673572024,0.913110637196719,0.917988310488234,0.921804289827013,0.923186868935364
0.930195195206271,0.930386230622768,0.931185931761079,0.931336256634205,0.932076172083993,0.932080666025728,0.932448695289485,0.932116351776494,0.932370028713603,0.932229325969546,0.932637659174956,0.933139453763597,0.935045352031093,0.936221707423876,0.936558702293119,0.935607874319002,0.935008189571876,0.933879282054207,0.933319310682839,0.932910954944928,0.932874674153288,0.932890825248056,0.932767839003222,0.933082699997752,0.933400411913207,0.93413570861282,0.934471591698343,0.935200898979315,0.935458671259195,0.936121502363051,0.936017551397166,0.936344066467516,0.936507692370035,0.937985325722242,0.939789696168151,0.940806133954621,0.940271175428802,0.940042474324521,0.939130995912738,0.939178162216364,0.939779349679776,0.939924225230859,0.938966664032936,0.936791261551002,0.933978185888121,0.932774740326458,0.93196113583039,0.931316785615016,0.93104715064097,0.931054533572294,0.93151370686692,0.931761472057652,0.932359571476936,0.932284506182414,0.931923033184932,0.931223951971611,0.931292920045121,0.931261332247803,0.931996643621241,0.932353859384738,0.934964472114537,0.934424917854276,0.931284292406375,0.929447508340294,0.928617019443304,0.927918746806095,0.927902249612017,0.927982925382671,0.928098449687121,0.927838232818005,0.926756283106785,0.923898046717434,0.922773001093131,0.923489659153781,0.923669367957765,0.923256330208023,0.921973386234343,0.919901966931642,0.917475900897316,0.916770336635133,0.916550955709661,0.916907897120671,0.918371305911067,0.919321910028595,0.919404630304173,0.963835069297061,0.993053938295201,0.907105158753237,0.907524535273036,0.908243062704065,0.908613187039098,0.908438483445024,0.907186219168709,0.904803275045615,0.899930969645915,0.896139731472996,0.894731546171942,0.894759970585196,0.887643928266042,0.887391986319339,0.886476277195203,0.88483836548194,0.884101667280181,0.883768824449037,0.883801729407414,0.883550702815717,0.883015226014609,0.882960486408525,0.882908636977849,0.881755122843392,0.879788555455731,0.879664276162949,0.879291439646907,0.878810581507243,0.877748137966862,0.875055465083613,0.874436268599148,0.87532719154687,0.877564781221801,0.8733166108992,0.871363494298617,0.867907899567609,0.865074523061892,0.864363149159425,0.864532591663039,0.866270574392614,0.86740531129916,0.873191786253693,0.875197787784095,0.880433411524676,0.879728333089294,0.87610008470759,0.873863759792308,0.875713016789161,0.878135616056006,0.879097757636621,0.88006504707963,0.881650918237594,0.88187696223105,0.881147582229803,0.879862259425257,0.879091790758177,0.878567397467153,0.878494745991358,0.879713787166466,0.882844978882141,0.885086390687356,0.887508139788809,0.888874768464149,0.890196513190894,0.890964229964738,0.891379459155827,0.892424237285426,0.893092846740299,0.894664079458439,0.896230533400146,0.897569613490756,0.898956338160855,0.901398277285255,0.903199539821046,0.904629459657529,0.905538989048386,0.906001065675212,0.90718757948297,0.907931609988502,0.915766264921305,0.917695259973022,0.919272140437622,0.921568113637613
0.929144432878197,0.930615505368052,0.930172249438335,0.930989353912664,0.930723278726945,0.932335111453588,0.93153348106268,0.932300911590186,0.93111569609718,0.932131426015677,0.93144420029442,0.932636795148787,0.933252590396298,0.937533440465932,0.9370664034306,0.936794684681259,0.935072969637077,0.934386086145599,0.933186043174468,0.932869638903507,0.93321011950296,0.933376811200854,0.933391552228532,0.932735659004179,0.934131957175874,0.934449955672098,0.935476322443234,0.93523197184319,0.936571310871606,0.936585119755372,0.937934931486725,0.935905302448952,0.936635968563638,0.936343517040225,0.942456783098202,0.942069497693021,0.943225865409332,0.94179126882764,0.940747589593766,0.940011020825596,0.942543252717351,0.940983873722236,0.941870176577792,0.939160400802081,0.933590380941994,0.932458853598128,0.932768544424559,0.932019741961303,0.932104043323942,0.931379693092322,0.932191540110023,0.932913883853215,0.932920209933385,0.93296912124516,0.932304562610139,0.931300891937232,0.930219401067696,0.931348403555547,0.930780760791622,0.933072078579016,0.935624648046326,0.937410038457262,0.93166961415136,0.930462943947037,0.92982511418236,0.928786737579708,0.928695201863615,0.928705477596284,0.92901637295681,0.929546995077673,0.956272574949651,0.956168467631192,0.956674438464267,0.927763164336872,0.926236207613254,0.925256922724585,0.92464179741289,0.917821581806819,0.917785444945246,0.917318128949169,0.917210748524744,0.918006565895209,0.918741277171763,0.919341469970735,0.919641670759632,0.920265741285648,1.09371494045673,0.908135975671663,0.907908842727966,0.908178708669648,0.90872144986085,0.909231032056393,0.908116123733815,0.907846588779409,0.90011241229413,1.14143797548891,1.21207125428279,1.09628180592104,0.888875126717168,0.888595610378077,0.887282556898572,0.887129064693945,0.885782420002094,0.885868705688493,0.885022952737323,0.88517512196843,0.882789348376858,0.883419788818873,0.88389966788176,0.88499164299945,0.888154294318144,0.880400091397779,0.879636148209608,0.880070726195086,0.880047504742287,0.872897478623648,0.873161064464985,0.874246647794131,0.878619599742093,0.861853727497078,0.863772930119545,0.862804987360389,0.864368525642196,0.864615320859043,0.86588265372256,0.866031472602445,0.867237312428602,1.02137040594242,0.87731727093591,0.878567750043,0.879710172845955,0.873743596307205,0.873386953071952,0.874279499210225,0.878233181260814,0.879617415727694,0.892675046274886,0.882254496000954,0.883968362599484,0.881334139631131,0.880254493094149,0.877906374731068,0.873737788561176,0.894624689612456,0.902681760335627,0.886582511916764,0.885418816352938,0.887156759156163,0.888698321380619,0.889416946892869,0.89032974298992,0.891021156339489,0.909652037090977,0.917781449784035,0.917773582142857,0.89634451608499,0.897105231480751,0.898485326857151,1.12722025393775,0.930274635994968,0.903531137600828,0.903970652773498,0.905491509050218,0.906690738484613,0.907784476531966,0.954019578730093,0.916250454242037,0.918100401715188,0.919009608563632
0.929602618282217,0.929935977967561,0.930802686038173,0.930848754121622,0.9312463273038,0.931521970506576,0.931762024355892,0.931322552555125,0.931440199568134,0.931296773008304,0.932127920861849,0.932793151048814,0.934779550054744,0.937083036449031,0.938115909598545,0.937142950922097,0.935583752398517,0.934472717519682,0.933925003550611,0.93352395199635,0.933440854967943,0.933662845334093,0.933362858923367,0.933783915210451,0.934241049988595,0.935286476296959,0.935557763310877,0.936542136386172,0.936540268494786,0.9371517394918,0.936982099764558,0.93690755822073,0.936712397763746,0.937972848604079,0.939934235781145,0.941942196211655,0.942716024798465,0.94330937946491,0.94255816276918,0.942420538036714,0.942244695322766,0.942073573701954,0.941437365593125,0.940242541044605,0.937931684918406,0.936777991123426,0.935363410661909,0.934548413934619,0.934157942801044,0.933926753582246,0.93244269600636,0.931184328740523,0.931238273454468,0.931498868045709,0.931914072542516,0.931668916264343,0.93169087410059,0.931725343955729,0.932335646534926,0.932952440541825,0.935778565739037,0.935969262802056,0.934259506675704,0.933135889106552,0.932087133623765,0.930982152440178,0.930274260834595,0.930192209738451,0.93087734658959,0.932615798013342,0.957422938986226,0.957802023801439,0.958225055526689,0.936703557396281,0.925037629676782,0.92489906829979,0.92407159549136,0.922850645244456,0.920862166344404,0.919591670312064,0.919244890379332,0.919462745174424,0.919959161367257,0.919935398032457,0.919857857392365,0.919229421237849,0.916599460136034,0.90944404760635,0.909599664012585,0.90963174535755,0.90944575743422,0.9093368352845,0.908528319095739,0.907097499814363,0.905007670443491,0.952695082967112,0.977034472780822,1.00266852611637,0.890232251242769,0.889821525348902,0.888727319521344,0.887985717524586,0.887432078403089,0.886996654695486,0.886866800768361,0.886322422657626,0.885535446797599,0.884935100909145,0.884911642689893,0.884992690539671,0.885073033737139,0.882498001274707,0.881175451936923,0.880123038756017,0.879091730933203,0.876761827131768,0.874696412364234,0.874736048164735,0.876944976277406,0.871450097026604,0.864816486779319,0.864937528446394,0.86571970421919,0.866690850103003,0.867432555376167,0.8682591149666,0.868593589377112,0.869811297465043,0.870237380039038,0.870688799140969,0.871114750460195,0.872447425773895,0.873551869374969,0.874659109346585,0.877436419310983,0.879163996026284,0.880328053828378,0.882492180440281,0.882851705182035,0.880624761898658,0.878114707165128,0.876322066059073,0.874018589690821,0.879332832761124,0.882386525214651,0.888114532649828,0.887639043809219,0.888127941985018,0.88966894586395,0.888947015942495,0.888897930540398,0.888907664546265,0.888513106800856,0.889146090400971,0.891015253447475,0.893904333461792,0.895241284226879,0.902601265071243,0.918818560760966,0.912735992375919,0.907772882609335,0.904272363149151,0.905110293451299,0.906244195008954,0.908055962769255,0.91173085746113,0.915244247757011,0.917067893078649,0.918857722265531
0.929150644903872,0.930445005977748,0.930518681542685,0.932082189974747,0.930192998888577,0.932418700473167,0.931020884221096,0.931429845142788,0.930376146956489,0.931143909258937,0.931257935760462,0.933475102279321,0.933601492850924,0.940288650406813,0.939505900884937,0.938953781723311,0.935090608925149,0.934595816751761,0.934201481964,0.933572039580721,0.93398794850259,0.933388410835837,0.933822588776341,0.933311016072946,0.93518924475122,0.935341256960432,0.93643136622221,0.937221806222925,0.937566474215676,0.936713174730654,0.93775026762901,0.936227555388386,0.937234279794036,0.936939258131457,0.93928648568538,0.941256889422904,0.943992617743069,0.944627327657933,0.945189487674605,0.94363733190834,0.943033743543178,0.942499097769464,0.942756497067259,0.941959993995481,0.939550927695472,0.938856309510567,0.937899502519011,0.936307624222655,0.93630139539652,0.936356236634781,0.971921881331852,0.94094890584367,0.94422419981164,0.945823708014292,0.932399330931809,0.932527397574982,0.932420809657513,0.932257101397479,0.932153582212803,0.933103613925281,0.935626910887106,0.936480031336799,0.936363758262882,0.934906590016028,0.934709821920762,0.933028892714839,0.93119084661016,1.09712827720092,0.972618560541868,0.935174547697238,0.957173072267171,0.957913635304224,1.17332305556268,1.0997315515905,0.923954675510685,0.924316048923477,0.924456864769953,0.924853104575173,0.922858478958454,0.921075971162138,0.920571910046599,0.920810645095262,0.92115982904987,0.921092611690668,0.919696765662108,0.919834990200181,0.912036004063372,0.911887326526596,0.911445023518093,0.911230928046181,0.910046556740654,0.909706981928759,0.909491425973854,1.08639674647717,0.903058521773491,0.902059219223886,0.909556409291579,1.06998542341108,0.891707016946759,0.891667841633778,0.889341677146704,0.88896837821129,0.887962904773864,0.888919681994939,0.888131989197166,0.888520617904806,0.887486928306675,0.886252014306777,0.885332470082609,0.884922683986208,0.884429267203745,0.88325162098199,0.88201192088339,0.880847529900752,0.879375816827973,0.879018035686938,0.874612338306465,0.883380787150632,0.88360037388212,1.02115195239079,0.867116991085093,0.867015943278428,0.867969928254703,0.868066988096259,0.870299476723563,0.870013849817997,0.869107366191371,0.869963389937101,0.869167829724106,0.870017365989311,0.870304572926701,0.872081411169937,0.873062582461628,0.87395799401583,0.877122691703113,0.878698543975771,0.88120097689385,0.882847458600676,0.886462439619302,0.877546297706011,0.878022582247073,0.874344744838166,0.873783319737267,0.87340770404909,0.877849282642921,0.893038777227636,0.893638785683474,0.917019364735122,0.894538426944229,0.887811421531763,0.888048809552779,0.889073790226729,0.889208363571445,0.890480125146067,0.891856232588372,0.895008272547192,0.896088695254194,0.910984517133617,0.925359758391971,0.906103217068339,0.929690839009237,0.903748591570642,0.905802615209931,0.946001238112681,0.946573018645452,0.913070589303657,0.915780788236474,0.917529327667357,0.918372595136706
0.929385187713486,0.929663764973131,0.930421679624641,0.930402278049545,0.930544007228465,0.930731981471541,0.93101790031593,0.930671093589131,0.931069554061657,0.931161087965571,0.932320576310083,0.9324303692877,0.933430804679396,0.94064443347064,0.94082508672802,0.93949657198246,0.937637479631569,0.936501215162819,0.936022869394059,0.935551892902903,0.935115439684543,0.934672978163593,0.934864452081541,0.935390609973755,0.935961490218528,0.936617663279569,0.936825530195697,0.937717749188049,0.937834660826449,0.938223265191619,0.937978382659837,0.938102284529795,0.938061450207603,0.939259207809905,0.940507919026375,0.942628880197133,0.944273611792072,0.945620024278772,0.945935739435175,0.945703142689673,0.944741663094975,0.944031422592337,0.943542502858609,0.942404410334384,0.940722757275386,0.939932707284973,0.939322727961886,0.938808772005706,0.938697567444234,0.939179021427155,0.940475377084847,0.94157115057715,0.942354633075189,0.943992869508855,0.937489861660044,0.93569206783207,0.933409959926889,0.932868208411498,0.933045133025043,0.934529814907971,0.936373306677335,0.937078779077862,0.937193260991335,0.936734028726325,0.936528820045198,0.937387076485126,0.937766860545723,0.938275516828703,0.938614880249337,0.93928315923774,0.958623103332588,0.95800517653607,0.960814556870894,0.963428471668318,0.958848123288376,0.957305289507348,0.949291831379166,0.928052685487991,0.925267984291572,0.923885324246231,0.922708005687885,0.922152501420129,0.921710028160648,0.92144145951571,0.920764333645808,0.918929043293961,0.916743676482629,0.913506858026371,0.912808067887396,0.912450502503649,0.911870852690027,0.911275461596238,0.91041643839666,0.908819756962933,0.904647197757959,0.903048047970856,0.904105401333286,0.901485370125522,0.89591649517348,0.892182200768233,0.889803628746619,0.888942454625006,0.889214020074028,0.88868636614664,0.888425428019652,0.888194838363505,0.887978819787916,0.887254704662759,0.886487504246749,0.885948596144712,0.885042824604644,0.883237286391334,0.882382216326192,0.881109705203625,0.879839010096161,0.879074741569467,0.878548698514786,0.881083235917738,0.882111625347015,0.882443773581929,0.866992553084713,0.867376043942373,0.867914459623136,0.868838092215611,0.869974543079826,0.870569188532672,0.87052219483427,0.870606643633689,0.870304711875489,0.87036769287341,0.870912717397109,0.871630561594545,0.872477868403362,0.873315610306264,0.874171639747897,0.874751831897014,0.875884240621124,0.875979766226496,0.875317965335328,0.876386116660193,0.875308377492085,0.875250497577918,0.872657433332091,0.872078918442103,0.881446303141206,0.882316554459165,0.884100575604951,0.886807492192749,0.888026920882307,0.887749841102863,0.887742831604718,0.888157799312854,0.888954193315533,0.889967320002442,0.891468043035836,0.892774982394934,0.898788038274381,0.909398712429814,0.908674766316424,0.907602543407697,0.929841273994411,0.934331783900638,0.935454181492503,0.935636809341404,0.934506534084671,0.914534900157335,0.915835116738014,0.916756533722749,0.917755217574925
0.928454047849532,0.930097139586263,0.929412741628164,0.93023274035608,0.929204669454365,0.930578196414809,0.930026702296783,0.930789716549484,0.930362665948573,0.931897748089479,0.931932838574213,0.933059768064926,0.93235469967691,0.942745262576994,0.941501614711151,0.941785115086729,0.938998025136736,0.938139319158209,0.937707341048124,0.937172611787174,0.936680832901988,1.00099015103628,0.936042463357565,0.936314891280319,0.937725445180538,0.937156216549948,0.937666023721994,0.937756124521311,0.939165101845732,0.938867373564824,0.939475330295017,0.938393165122898,0.939412844665868,0.939836068650358,0.9424486991365,0.94302706964713,0.946094153782872,0.946692277343898,0.947733632118618,0.94883389501295,0.946105231181198,0.945527411619546,0.944695308904578,0.943678326212039,0.940844961040848,0.941166857148451,0.940717044452548,0.940588442896228,0.940882662140037,0.940155839015379,0.940753490595826,0.940654945589841,0.941556623091523,1.02244447003492,0.955396855219721,1.00881717770232,0.932429731195373,0.932648554735154,0.93166488029842,1.22984791204656,1.03022351860069,1.0323080793066,0.941507095545081,0.937572131885723,0.93831507696951,0.937475430532906,0.939000020760798,0.938189327425775,0.938852208340678,0.940743743865136,0.959179496743637,0.95580474274321,0.959505094173005,0.976084993356298,1.01919447628127,1.10964384526297,1.01936333847732,0.930979119915392,0.925958347039252,0.926520630700879,0.924417631021804,0.923253196002216,0.921928687715127,0.922544425433833,0.921725830625836,0.920057418560921,0.91930129067756,0.914165966324328,0.913130299865729,0.914052068580088,0.913800467144451,0.913069704665824,0.912663539085218,0.912741333859889,1.1033175781897,1.11993722704905,1.12044062221308,0.900963176749571,0.900639771182533,0.958608600184362,0.918697458399554,0.918504883657881,0.891392863967392,0.888830675126214,0.888417967964228,0.887916213879818,0.888763670359072,0.888412371171119,0.887159031494747,0.887347072110303,0.886209776680171,0.882640381204267,0.882662796203457,0.882260461042005,0.878769804536068,0.879486667654601,0.878429901014201,0.879182529143898,0.880922629661064,0.880974216211394,0.866731430998384,0.867144367467581,0.86794296725439,0.868824400379539,0.870647706103827,0.871427953621479,0.871745659014497,0.871478415105957,0.870823997668909,0.871025252793135,0.870699883934371,0.871220993132649,0.871758527735541,0.872095411268996,0.871413742687741,0.872265707590441,0.870124429076934,0.870611356535098,0.874913704360634,0.875693306664543,0.887473268387659,0.878487136103726,0.870982319568664,0.871260556745143,0.891155410370176,0.882904736254247,0.883632510026166,0.883019459778838,0.883158849507826,1.01976841323048,0.904473627169958,0.888398089900148,0.888744658667767,0.890299121214278,0.890631429599871,0.892561597440844,0.901344489290471,0.920234408540163,0.911605493274243,0.908113774548154,0.923284859561518,0.933956445278292,0.932963731035385,0.911115913234185,0.94282212461441,0.915118998204355,0.915994327041403,0.9171560266889,0.916889929322808
0.928737439315038,0.929151791808779,0.929790693773703,0.929610534834655,0.92977900756086,0.929360063403192,0.929713290722364,0.929939407494239,0.930904349721786,0.93136237781503,0.932611800494328,0.933031271691396,0.935030828175235,0.943026031065851,0.942822900841995,0.941926206988492,0.941136695510564,0.940232825860499,0.939664266089276,0.939206534095119,0.939033936953271,0.940132899734308,0.939546765735142,0.938453461564173,0.93831009957977,0.938280421565791,0.938323332794057,0.938979118903786,0.93949017360097,0.940240868051472,0.940631270867108,0.94124303100622,0.941238562893468,0.942290128863018,0.943343892677196,0.944893641236704,0.945958597757637,0.946959514946408,0.947680375873431,0.947835648636954,0.946767867859515,0.945947465530915,0.945810690970802,0.944636326959053,0.943527970817097,0.94293784463387,0.942914717771693,0.942966703284104,0.942772407678733,0.943129125897614,0.942815816866571,0.942482570318186,0.942308451767838,0.946168156197653,0.946104250083425,0.944403274314515,0.940033363347941,0.937631311955306,0.938148629883075,1.02686085302076,1.0286967982624,1.03022608248777,0.988359015752522,0.958865860965797,0.947351218901662,0.947536771393666,0.946665420786415,0.946950957296651,0.946810337828827,0.947782414820585,0.962023388259642,0.963037887210201,0.963072649699867,0.96687346668673,0.990498039884828,1.01466115337484,1.01180152287145,0.938817501965173,0.927366796012108,0.925460422118552,0.924308955080788,0.922082352965602,0.921417981772609,0.921357734907514,0.921308103922306,0.920401195917179,0.91930664517195,0.916514341147796,0.915669244237347,0.915200514688388,0.914689727353497,0.914202631905595,0.914222747327957,0.91539473567214,0.917326548619408,0.909188526140674,0.907445032965461,0.90300855237071,0.902629605879598,0.90871738486107,0.919999964374937,0.919808231580547,0.906004806933692,0.898515135550563,0.894080656181436,0.892588886261431,0.890955991319356,0.889697136671857,0.889251749867897,0.888728730097136,0.887105544455464,0.88483210052096,0.88351143604222,0.882387280572041,0.881134405984244,0.880431600207548,0.880210979068935,0.878933362511779,0.880772360861222,0.874597131692117,0.867426808486774,0.867933287890165,0.868976389854556,0.870170598690727,0.871468535985065,0.872088463830168,0.872286660234625,0.872070352653493,0.871322848339567,0.870944495550516,0.871009139421231,0.871213819573383,0.871565808950756,0.871661704038298,0.871469018360595,0.871592995336854,0.870922455099739,0.871210256896523,0.872337450504043,0.872667814322195,0.870691916992171,0.869185907694307,0.868958533109405,0.869299895259896,0.883020870936983,0.883005664225377,0.883117158781813,0.883289811747393,0.883024817812266,0.88272246875542,0.883355542606453,0.886139800893627,0.888297823503394,0.889554269741422,0.890371389551818,0.890600327864601,0.896990141032352,0.901236155352436,0.907384455211956,0.917347859189155,0.921708921744016,0.929539336219265,0.923591313996066,0.916805873743249,0.914802908433802,0.914278443147978,0.915029883214227,0.915733096215917,0.916214451028132
0.927382322114241,0.929719352929029,0.929273977624844,0.930335137135101,0.92926737920728,0.929023578103015,0.927847525414027,0.929999645807104,0.9300907750328,0.932293964362984,0.931728734157033,0.93433451850006,0.939110893020664,0.946346189916666,0.942946946849518,0.943118575808861,0.942371560106299,0.942581493725675,0.941324877920776,0.941032423388543,0.940109569919826,0.942121118259704,0.942205852663186,0.939603790433874,0.939172882119068,0.938781860491414,0.938891495936281,0.939584537492447,0.940471355543119,0.940770148827349,0.94294340798569,0.943156121425396,0.943558660114226,0.943268865076751,0.945024545874787,0.946214353793296,0.94650264805233,0.947224208333345,0.947994990005265,0.948682314934725,0.946186779306122,0.946672585292807,0.946767200459925,0.946523621248748,0.944759969653247,0.944723399215385,0.944669651442276,0.945432053153215,0.946804496484077,0.94573341847435,0.945665662884029,0.943659703969475,0.943917323319306,0.945389299157082,0.948142422736714,0.948410071187452,1.05124392933205,0.995072708553438,0.941186674931371,1.02561971462106,1.02863947973927,1.03022104535267,1.03991342794805,0.977648180834923,0.946808176918669,0.947114758244882,0.945176867229085,0.946414572206283,0.946730598514104,1.04083101273267,1.08981918545269,0.965569595127641,0.964849419901059,0.966318094166944,0.938642773994541,1.01851226433776,1.00991519623623,0.958718768004047,0.929732790747915,0.925015466628594,0.924176082864997,0.920154126500291,0.919970885319448,0.920339285960487,0.921302013274655,0.921725300928142,0.920138239141118,0.917732960587756,0.91708350701726,0.916856060012874,0.915257504573046,0.914959589669535,0.914482447815851,0.916762345859155,0.917967949296995,0.904957249528542,0.905527270271764,0.904455462550859,0.904207730092478,0.903564034389551,0.92882761597953,0.929344236258006,1.16091671427645,1.02441968966658,0.894615482475899,0.897621749699997,1.00211693597061,1.00986747252387,0.891498699777332,0.890513757710078,0.888969656336083,0.885596828855546,0.884236605250001,0.88289672141541,0.882284858695613,0.88204461762064,0.880298737910772,0.876789815651023,0.946304305808836,0.869857856776715,0.868765374160229,0.868363185967918,0.870121510044742,0.87102341620939,0.873178892433184,0.872775266513437,0.873365465010168,0.873065289199834,0.871327363747322,0.870520423253286,0.870961598542593,0.871204952898651,0.871556229202527,0.871437625138792,0.871355893415637,0.871193165748257,0.871488835366904,0.871311720073112,0.871796779754421,0.871919530753575,0.871419001736772,0.867742548167383,0.868802976984327,0.868268339524379,0.883070266734117,0.882666034724717,0.883260233224664,0.883619156027627,0.8838718221252,0.88274807153892,0.883417014716162,0.908942595136891,0.88918836415176,0.890561109805524,0.890482505495776,0.889983129868997,0.889786219768858,0.891586369375597,0.894628622477718,0.922106536950984,0.9202223191706,0.935825125702707,0.918012323580714,0.91985522827315,0.909705489783401,0.910435448423686,0.935912327339496,0.916403124141888,0.915721929508766
0.928847531915565,0.929129123272601,0.929742912278627,0.929532309779982,0.929577757963675,0.928648280651301,0.928807750404706,0.929220049531147,0.930502466493326,0.930649576434192,0.931324209048732,0.936958412841593,0.941170406549677,0.943598346522547,0.94348710642853,0.943553702757705,0.943331568709787,0.942704069117632,0.942243561854915,0.941867573130165,0.941553114039724,0.942225656870984,0.942146704643875,0.940809657293018,0.940600123684299,0.940495406461696,0.940490283554259,0.941210395308821,0.941877742052223,0.942969013739224,0.944469636545777,0.945580311518063,0.945734087061368,0.946337724905715,0.94686270190944,0.947599477765149,0.947866762094194,0.948754256271362,0.949628635829601,0.949713797793195,0.949325640244616,0.948503826140722,0.948160252531292,0.947215233642337,0.946297039992922,0.945130030287436,0.94525307448118,0.94601394283913,0.946742378951614,0.946873464611043,0.946348154486994,0.945595696830785,0.945746809284886,0.946982901405096,0.948692036757963,0.949567519162994,0.950964161026773,0.951604420216484,0.952054375001848,0.986783651724682,1.00781459678124,0.99231205058748,0.976472891916228,0.960759566798065,0.948519416109516,0.948656975599551,0.950847033388189,0.953157181383065,0.955334917957935,0.959996617882656,0.961356288963218,0.965221401614893,0.966317447915585,0.9666762706258,0.955049722889644,0.951080311741683,0.947579799273903,0.945945965454687,0.933794784323309,0.923315979424862,0.922770986901737,0.92056462327775,0.919715603475739,0.919672594649019,0.920189303974142,0.920577242488929,0.919538384431141,0.918132677038676,0.917561057031224,0.916916300115523,0.915189603531732,0.914632625097328,0.915461741406606,0.916672720413644,0.918028209660484,0.90519492225982,0.905244983083884,0.904987004869853,0.904786464844282,0.904701649962161,0.913866455926138,0.914239102093396,0.914717698503641,0.908632279641369,0.902083266015987,0.899684221701936,0.89950979286075,0.898679989873057,0.890312565138927,0.890074374814038,0.88830664277859,0.886607599264659,0.885005734698103,0.883955427659886,0.882974410596709,0.881955265616228,0.881274122159651,0.877220160322514,0.877082754993932,0.868861044969978,0.869191994963533,0.869343593521861,0.86991164923322,0.87105052436243,0.871729597047609,0.872240725986316,0.872781656507734,0.873133821899822,0.872497124164382,0.871656578715485,0.871476295718482,0.871332012594375,0.871452987178025,0.871312447919807,0.871590493828151,0.87202124067705,0.872537573164183,0.872747299909064,0.872847183589095,0.872300797398966,0.869496754174223,0.867726818245435,0.867063257768209,0.875001139288371,0.884024224254467,0.883111080212302,0.882969494991345,0.883244184871629,0.883071371451074,0.883328651367245,0.883345128304308,0.898081255653464,0.895746461068546,0.892710508363679,0.891573678629077,0.89079516934643,0.890394919637828,0.890961629017028,0.892035234000769,0.919576543759872,0.919087061549911,0.930998905400296,0.928619393138101,0.924677713521796,0.907299622691708,0.907357324252609,0.92515358434408,0.913772291310704,0.914225011850109
0.928717230141798,0.929998439876859,0.929275072071612,0.9302089980882,0.92915507681481,0.928820725169382,0.927855250891945,0.929294407284608,0.930543152765576,0.930883872510837,0.930847062759522,0.949803788156144,1.05672451850148,1.05624274948853,0.9428192828904,0.94496712304095,0.944002524098156,0.94313142382219,0.942709788140298,0.942525553717575,0.962704579454423,0.942817454449448,0.943257365570068,0.940684577182077,0.942100479733929,0.941662382584673,0.941596885997504,0.942230262969907,0.943711886180393,0.944359403706969,0.947214316419062,0.947639107441125,0.949022050415242,0.948350493700229,0.949189730689939,0.948970260851611,0.948484596375783,0.950680358146658,0.951858743286508,0.951852294007873,0.951195666541927,0.950973923999532,0.949185385511787,0.947890152666675,0.946693251467735,0.944979828874753,0.944532881696065,0.946173160294864,0.94725202800263,0.948091801059672,0.947835242251076,0.946297776314038,0.946338628923024,0.948435555826859,0.949034961951944,0.950755081355645,0.950283265650242,0.950770729956677,0.950813741634881,0.951862002484278,1.03074067352378,0.953028129254876,0.95225573794187,0.952244459451133,0.94954567920033,0.947310387424089,1.1071667396635,1.11191823004783,0.957903138692886,0.957044426504335,0.956948923005384,1.23168656277277,0.966002692569269,0.965864814445613,0.991419386846082,0.945745988089455,0.946401882875926,0.940867694975467,0.935778814953223,0.923347317512486,0.922559524779799,0.920405932053282,0.918684903471377,0.918332133553157,0.919397062617395,0.920873202306237,0.918968810060813,0.91810666614868,0.916777905160697,0.919516215914432,0.912394273064994,0.913864526709207,0.915147193951049,0.915778439242838,0.969304223721228,0.905536162439017,0.90570474869554,0.905723528653005,0.906159008483466,0.90611177474338,0.913677335076307,0.914099294348223,0.914401689163278,0.904933725413855,0.902358150345822,0.899383240661452,0.899268884362029,0.895993031402315,0.891222324364223,0.889399092639658,0.889109026564156,0.886167713707916,0.885974571816796,0.884448290566037,0.88318588160101,0.883280382537302,0.881540631713169,0.876841835995664,0.874749150450467,0.869051250396626,0.869572115268577,0.869871608157851,0.868815165890153,1.09820234049643,0.870685270568564,0.871054892428765,0.8728718405273,0.873651262001308,0.873948252730342,0.872229181442229,0.871604463714736,0.871662720434802,0.871063406517028,0.871361003627944,0.871092881964759,0.873307760865703,0.87338379949279,0.874781704299693,0.874263263518987,0.875481912332166,0.865552362153716,0.866901736904577,0.867263714231507,0.883129047935862,1.10040508047535,0.880945178508628,0.882641232897025,0.882553005693408,0.882871414186103,0.883444842755686,0.883594740843786,0.901336361952943,0.923699166520484,0.892486399921107,0.892826659351487,0.8912938800188,0.890564139284753,0.88995655635061,0.890223458179674,0.918303875011148,0.917637216380036,0.935270452732821,0.934332850852268,0.927729889973464,0.907578400030225,0.906949077585859,0.936081794529137,0.912830565911527,0.913393181358226
0.929682962271609,0.929193507367286,0.929486850091571,0.929360672906774,0.92947681046244,0.928925626087299,0.929224072157881,0.929422252616379,0.930360066414469,0.930329367861728,0.93093995522941,0.937066278289769,1.05572523419669,1.05596839783732,0.957119920660065,0.952682857588629,0.95052015213159,0.951127665064671,0.95282841525544,0.954742896617388,0.954885843867987,0.950043457559045,0.948732182085465,0.946690675312747,0.943956843685776,0.94377478182456,0.943637919520156,0.94325829110815,0.943825581708829,0.945671098104519,0.948205953957735,0.949602121490949,0.950086470559241,0.950383834982395,0.950851768641297,0.951223050116733,0.951024798956721,0.950473484058559,0.950673520877186,0.951129426509659,0.95180925147407,0.950418321324416,0.947332022848118,0.94494871598189,0.943238295863116,0.941706900151689,0.942368274198625,0.944363531189967,0.947256925409747,0.948346995254367,0.94835332706922,0.947841366888871,0.948360300486793,0.949478447425056,0.950512278486591,0.951184387590238,0.952429753458358,0.952807445403075,0.953419581958961,0.95426417670225,0.956240659192342,0.957188274474826,0.95911238030028,0.959834907977301,1.00742871450691,1.03433724938182,1.10593994290686,1.10792024074472,0.958138129428515,0.95820047407376,0.958988166329809,0.973070601932117,0.975479419058878,0.97539983792153,0.978681789374142,0.948488922351617,0.947907223934258,0.939280753277416,0.927037609978754,0.922338265379976,0.920254442835286,0.919342743968644,0.91803856914369,0.918403406561141,0.919395747451275,0.91988003958404,0.918813114494328,0.917583454250832,0.916894661966168,0.916035183855075,0.914952934668911,0.915045819398229,0.915620932479773,0.915086456450216,0.910147071411573,0.906386235124033,0.906174111036119,0.907371729166923,0.907596356317366,0.908101107668247,0.911175855077758,0.912940750748054,0.91333741169564,0.910242786787774,0.89976366974297,0.898369145380185,0.896704504231593,0.895159056106055,0.892220601700404,0.890845341202604,0.888848421976597,0.887566361027055,0.886442401793324,0.885909227486622,0.88518882853611,0.884741377220805,0.884282280686033,0.874877390775699,0.872773696314568,0.870393100727071,0.870173799190596,0.869312204661599,0.868000171038165,0.867572208111025,0.868542831402005,0.869942626174955,0.871678973429172,0.872869575854062,0.87324064658096,0.87276201988935,0.872427005034076,0.871882807650173,0.871699020468164,0.871276221680459,0.872016405627405,0.872712805396988,0.873601195764351,0.873767360834876,0.874649306247232,0.875094783836763,0.865402107884493,0.865742200101771,0.866357627071153,0.872190337771687,0.878489326669014,0.879595642112714,0.880773828332726,0.881710664458603,0.882271421828471,0.883222399725013,0.883844641160713,0.88676726081291,0.887975867039919,0.89025367809184,0.890436491961416,0.889599343644302,0.88868996919958,0.888214710760284,0.894712801105506,0.910341120244617,0.91823302397562,0.936248087589879,0.935445928691579,0.922597399677314,0.918991350269534,0.905473578585562,0.906483542753266,0.909786682913091,0.911462145993973
0.929015381545977,0.929423502033222,0.928381677589743,0.929897171835131,0.928944148226105,0.92955652734348,0.929385468379405,0.930102255813982,0.930120325711331,0.930529059343712,0.931594986554156,0.932435064359173,1.11620655418321,1.05681219489866,0.966581779111805,0.991962518191106,1.04009343031224,0.948882281303018,0.950729810084374,1.01117493854912,1.12364307702983,0.960917149740214,1.12547262552472,1.02853389937826,0.943874056783254,0.945256751070662,0.945637449223218,1.03183797203538,0.95313704264938,0.952133883019698,0.95122961102252,0.951795412903167,0.951628886397492,0.951763880431465,0.952591895851466,0.954704405619446,1.05713307279027,0.960054308675844,0.960102288773834,1.08469462922074,0.95401269513191,0.953375432306369,1.10971666311352,1.01651769199635,1.01547967552628,1.10294460301303,1.04350710497279,1.27286505725474,0.949110033973029,0.949182874595373,0.94997018161933,0.949207985434292,0.949186208966207,0.951059166605819,0.951581767238729,0.953275404368349,0.953330593321106,0.955049181988519,0.955095941166686,0.955443366283411,0.956726699808029,0.958392501752958,1.05009694635345,0.959284973277859,1.04682018968004,1.30110928103404,1.11935082819178,1.11983687618099,0.957988758782681,0.959186059963909,0.960805406266498,0.967853018459456,1.07578232634313,0.984389328452861,0.983595423671024,0.950102750896503,1.01932203997284,0.938095222043675,0.923605715290463,0.92378581845817,0.918698037498913,0.917565357797327,0.917002798544182,0.91751841745094,0.919833854113232,0.920196706166233,0.918047866867375,0.916517385693542,0.915830195610334,0.914079331979729,1.00633351980533,0.904907978347158,0.905740535218706,1.01523550203419,0.9046231946211,0.905060884658902,0.921220039280874,0.91060280313836,0.910881618777027,0.907323839653561,0.909830159599389,0.913434355634472,0.914176044043858,0.913958868790695,0.899129264067801,0.898622093554733,0.895742200264195,0.893893211720788,0.893952622544478,0.890500168233351,0.889576334210639,0.887352204301242,0.887182776158979,0.886675231483974,0.886399812498065,0.88609677398554,1.10620320182483,0.868075129922526,0.869964378414154,0.870103418959066,0.870220127963115,0.870799016360221,0.863684934887018,0.865064391126709,0.865436044691174,0.879090938558918,0.871381742987674,0.8731737948102,0.873430953180046,0.873379019729451,0.872711682440799,0.87273062090913,0.871370195214392,0.871377740408112,0.871547676498773,0.873504948298388,0.872729533872004,0.873978271668357,0.87338714721417,0.87488184645099,0.864861404450488,0.866609279811431,0.866553086648118,0.868069930058786,0.876784830057819,0.87826014076277,0.880176000530476,0.880325508083624,0.882589085627229,0.882710057734408,0.885635699428375,0.885970232386079,0.889192121669289,0.889606671652301,0.891908041463047,0.904505429237082,0.918170651755262,0.887445767064158,0.902170525988854,0.900718081884868,0.918790205933408,0.938839605772923,0.934391001393234,0.917724037312951,0.931061939659225,0.905131010039244,0.905460105372989,0.942950938493113,0.908046216311177
0.930156280188796,0.929434443589019,0.929751074321656,0.929676714096057,0.929875640648695,0.929787501412171,0.930122109029509,0.930463229891807,0.930945078875076,0.931499408922522,0.932074775505121,0.932627841487335,0.95296896525082,0.969839240135908,0.969653779794803,0.98820752693685,0.987617691068917,0.985543634590586,0.9813878216328,0.980795995205387,0.988109293527396,0.999227356579106,1.00657119995995,0.984320678253242,0.947660068204236,0.947506574687846,0.948489614304183,0.951755181545632,0.952448201645397,0.952839073717327,0.952285774107155,0.952669015297553,0.953002298206884,0.953683258768196,0.954808175340086,0.957043958617786,0.966450712575317,0.968088995114831,0.971658986589483,0.977739425985431,0.956647040421746,0.956795312108082,0.976508409691221,0.993909899088211,1.01748458811855,1.01946950894823,1.01949188884602,1.01653367309646,0.988909182287541,0.955813307724898,0.954800940222893,0.953239249086805,0.951785197663211,0.951089067314169,0.951526959515323,0.953230237422549,0.95647684169921,0.958511901440377,0.96113301386491,0.962932010614646,0.964083213922993,0.964771158130049,0.980250349010979,0.979986564274419,0.98923220279796,0.999785662152595,0.992025454894379,0.986783168648539,0.984301614039524,1.00332585046387,1.01596380904126,1.02895985960996,1.04291542950434,0.987913894136833,0.97851544384143,0.96832796311351,0.961761797347652,0.943106672127283,0.926491678376287,0.925729642027589,0.924279858906275,0.921258734212024,0.918977117417708,0.919175581874604,0.920377120848888,0.920851017266414,0.919837083636971,0.917889671588423,0.915704324999784,0.912906594961244,0.909647902162209,0.908363797967143,0.907174086999548,0.932912369292469,0.905930522078728,0.905747631927409,0.911630024134675,0.911347965205439,0.91006223914623,0.909802362690732,0.910323069443008,0.914288737186825,0.913920111715345,0.91479096189924,0.902809115442192,0.897680885214334,0.895150368191463,0.894817429549503,0.894315669949333,0.891524697000189,0.89014878826819,0.889411737565401,0.88892107566195,0.888719052050219,0.88834981232102,0.888583514136957,0.942299012850941,0.914716441205302,0.871164082205713,0.871363575850488,0.870922493299936,0.868282191207112,0.865259528893229,0.865167471394049,0.868280000260165,0.873327903143071,0.873228012808008,0.873516313354411,0.873507118594006,0.873221757722963,0.873544667416833,0.87292369716023,0.872547595668277,0.8718778705761,0.872388083335697,0.872649187463054,0.873296939216374,0.873303754025486,0.87391613893053,0.875211149905521,0.863873521324252,0.864516699470039,0.865687390888735,0.866626416298596,0.871935428636197,0.876242199282165,0.877968501322203,0.87890720010952,0.883911090120323,0.884614636920318,0.885202694963626,0.886462035273805,0.887082528500539,0.888237583985777,0.887980196367488,0.886179677879238,0.885045432033971,0.885458087014636,0.907674440131516,0.914309160555754,0.921262131406283,0.929345181419973,0.933546004727555,0.933604011923452,0.932083468875664,0.903845399121586,0.903959317460109,0.923193590458059,0.906911869740567
0.929592168226117,0.930944359641856,0.929580693324301,0.930462413355975,0.930167169487925,0.930240801335488,0.930424601541426,0.930867249362127,0.931773589641256,0.932354293228754,0.933111996810186,0.933374224497125,0.94909746846859,0.968089567404978,0.94843965929613,0.98941058839972,0.95204147551053,1.02457236035845,0.976362566965933,0.961687948854686,0.968129955851823,1.0139606397512,1.02409224914288,0.949007542672607,0.94801575049946,0.948655410213462,0.950144271976513,0.952503261032442,0.952488328141298,0.952893094557308,0.952610446746807,0.953754378696436,0.953460326126381,0.955074636559518,0.95599719895852,0.961007880452712,0.961650563275068,1.03289246747448,0.982328492957609,0.986905819409604,0.957737575621122,0.957180525861595,0.959971880369251,0.961281426836439,1.0198814193511,0.967613707548724,0.968111829561697,1.01139400522053,1.0944158122682,0.95681819106121,0.954935081103265,0.955366937863849,0.952232558979359,0.968969037219086,0.960155835905145,0.961706061154342,0.959873619519479,0.960367091682729,0.961586469316816,1.03782642680267,0.964734935500153,1.07077731753574,0.977918963094166,0.977092952115097,0.967308671038871,1.01288959816652,0.971328040982856,0.971585636248383,0.978035401626252,1.14456918600045,1.13966284076872,1.09789398625825,1.13459210583063,0.990098549586926,0.97351502617566,1.01563388793211,0.956576221611555,0.948162970955305,0.929430201489604,0.927943679300346,0.927204994010104,0.925539982218737,0.9196334294361,0.920455666162438,0.932509780222487,0.906445991502503,0.905836644129427,0.901000578114603,0.898043216410338,0.928931685453937,0.908313534439203,0.966719203942994,0.892252558192689,0.960893436814205,0.895759520604873,0.895752829316971,0.911806388490568,0.911027633937097,0.909827959111405,0.900507693053267,0.900518221233926,1.24287320506241,0.911801443946901,0.912763882379299,0.927965034610269,0.899350563942224,0.893824461926303,0.89589984229247,0.899012768624022,0.900660630135898,0.89150976970921,0.890279724874497,0.891018266449235,0.89013691212707,0.889776912991004,0.889586733152335,1.25660847212105,1.16189979149145,0.872732005675914,0.873333336009425,0.873620476121578,1.23568244232131,1.10280666564841,1.10276455056498,1.10171084799506,1.10158377875266,0.874222394894,0.874686317026168,0.873690892681083,0.873011361822623,0.87417298653088,0.874284387490354,0.872343987569018,0.872927680946937,0.871593689726023,0.873399855840608,0.872471926367652,0.873080802168769,0.872069018435942,0.880316944417055,0.863158096542248,0.863969566405255,0.864485333056085,0.866434996724024,0.867741998568497,0.875013928313618,0.876080592595138,0.876712766158583,0.885774949653703,0.886049320403106,0.886593790860451,0.886135061797111,0.88717321650775,0.886884121210297,0.888549559556134,0.887070415783497,0.885597325871537,0.885759691891228,0.932683433249945,0.932691181257525,0.923641577250936,0.924667180431744,0.937937180304732,0.93660087502357,0.930641832867964,0.90123966164359,0.901394044580903,0.944548590335892,0.903384194606006
0.932003156662125,0.930605604579183,0.93091380995128,0.93112635580899,0.931832511652092,0.932250856242021,0.932527429106214,0.933095676536876,0.933341046899633,0.933961828950149,0.933916224621086,0.934510682288889,0.945454587392242,0.954887457218007,0.959914959473446,0.984300185521223,0.982875289374072,0.981011105085146,0.978735294798785,0.963476550245992,0.96624101397464,0.969713458783172,0.97504521268899,0.950134113640384,0.949972780950613,0.950084369530936,0.951427244763734,0.952463520994545,0.953380577229495,0.953516496823238,0.954206607519127,0.954286513079876,0.954639672498475,0.955251357918068,0.961334918489797,0.96218697555212,0.965118769804527,0.976933061944934,0.9766529495264,0.969837720677746,0.96443509119373,0.964250748945836,0.963493918112467,0.964182945337261,0.966000649342385,0.966820342422561,0.966955080086717,0.966879668452352,0.967138222986517,0.966327918174518,0.965457966825645,0.964893146668336,0.963690444406301,0.962107001331257,0.961322954852585,0.96183957416494,0.961824367149749,0.962848752125374,0.963866242577551,0.999896003422276,0.983195940207947,0.979169084449821,0.975745703576511,0.975772305629525,0.975276758492006,0.974738112469017,0.974535502885829,0.976436209468883,0.978284966173106,1.01305268442775,1.03502444837341,1.05835329327147,1.08366017957027,1.04044090540774,0.961947240780365,0.955389538695093,0.945818803086055,0.941832186050197,0.926561140946188,0.925781120943045,0.924748971838985,0.923396968863772,0.922236069260507,0.925534477480605,0.92989306130544,0.904019142310149,0.903839750594057,0.902086017165903,0.900935643603855,0.921634956834619,0.92175613583881,0.920980553131433,0.895488595900769,0.896767785983823,0.896473405514326,0.896434044234173,0.898929502768208,0.899762981060364,0.899968889837759,0.900165518786507,0.898931580109573,0.897673228769293,0.896832472794636,0.897158532083846,0.897812287588271,0.894832188165138,0.893340946968396,0.893731072256859,0.893254300520489,0.892971507375626,0.890722971601565,0.890431020307291,0.890474421312806,0.891259499703174,0.892464046889244,0.895365276155755,0.899009042742214,0.882790638386733,0.876252725932978,0.875611774774525,0.875633614414793,0.877310885156295,0.878323779430978,0.878376991204061,0.877447845660721,0.876104977691113,0.874939052721845,0.874468872365446,0.873344224561551,0.87321662697652,0.874822784338675,0.873484954830332,0.873247025221288,0.873052962285757,0.873136780829379,0.872897726967337,0.872995814113528,0.872138555327183,0.870228923716073,0.866104926241081,0.864402986151195,0.86433140180407,0.865104155671784,0.865531679889839,0.867177464390966,0.871128055002618,0.876699831594345,0.875927100356598,0.880515113396277,0.884843075376957,0.885301936378159,0.886882345393521,0.887213960667264,0.886049714960108,0.885525060001809,0.88512767987844,0.884634881288693,0.884506765183377,0.901810976136989,0.914384050248011,0.915661787467299,0.917144652861908,0.91970920446423,0.911788462506778,0.908326985115201,0.900500540080142,0.900620261706434,0.916987419012913,0.916385273683371
0.930743172549683,0.931347362177364,0.930819113969183,0.932017846019294,0.933682593264979,0.934089890894326,0.935031187382695,0.934770830506447,0.935882879203265,0.934827275630655,0.935642106588616,0.935291065094076,0.941756080387109,0.948147748467076,0.971633874172388,1.00448986005322,1.03361822689205,0.958193253470024,1.13156201827637,0.961834882565886,0.961242127079715,0.9618388029359,0.986827279753394,0.951313409302043,0.9506807097347,0.951247622938694,0.951366065881129,0.953982765597406,0.953557914811243,0.954899892031444,0.954782676948057,0.955811039991116,0.954663735362746,0.956241940352064,1.07279883422489,1.06432006329359,1.06664746058804,0.976300427440149,0.977440839701343,0.963517222112439,0.963468801617449,0.964686465093324,0.965529409154121,0.966246015379659,0.966250274349848,0.966181644888315,0.965338643856641,0.965452962339008,0.966069921077389,1.178429407332,0.963501712065482,0.96315109731745,0.962740274960137,0.960530223528566,0.961307958058941,0.962267881516602,0.963323474849513,0.964885592557605,0.966365894908981,1.02033933293935,0.991333000256218,0.973375815998186,0.973546658475236,0.977064185045925,0.974402819950086,0.974756284498388,0.97588891204734,0.97854758904512,0.980119818309002,0.980328015173169,0.981515892554748,0.985788936834987,1.26546494319333,1.11602454564946,0.947530786682055,0.936221213935309,0.93529359357366,0.935821844415162,0.923683202942254,0.923083285486509,0.919290994710102,0.920102159996295,0.921115113023689,0.931202097274604,0.932259355332028,0.901622442909425,0.892647056289192,0.891576130219493,0.890455124841306,0.921406829522863,0.92098047588851,0.919337608177147,0.886853174711392,0.875600741752658,0.877504357179393,0.877634723385721,0.877315528200022,0.900621712595073,0.901671354019974,0.901069283613191,0.899542797793949,0.899364773822648,0.898162575415107,0.897919069091492,0.899099794986637,0.891571155255524,0.889849228026538,0.88817438400128,0.88794448747602,0.894753203685036,0.889717097324933,0.888897337677143,0.889655773689691,0.891254437714104,0.891927456612689,1.09044723941362,0.899860452665942,0.8778552670011,0.878076554586723,0.87638202575893,0.876630648288772,0.877014766754506,0.878423042121423,0.878198907810407,0.877008933567403,0.875385753556576,0.875065138903468,0.874971886771751,0.871989435133958,0.871098753139889,0.879276190425627,0.872174836998141,0.872407842031175,0.874599070578377,0.873115162392492,0.873807180611076,0.87294636224976,0.872697976330561,0.862117771209573,0.864330817947597,0.864147045850137,0.865322781674657,0.864764435679778,0.864893156619243,0.866886555838472,0.869403521419791,0.923956544755847,0.87457646052994,0.877134673857226,0.897884331576655,0.899268769535946,0.887448337241827,0.891024405901076,0.882976791107983,0.884591642400966,0.882919551322925,0.882990830953867,0.883281452618664,0.882120059401324,0.914156295871033,0.91723171315479,0.907364407949173,0.920952405195121,0.896158462270233,0.896158448576382,0.895896892473682,0.894713611369322,0.917719669789309,0.951705066049464
0.931725204361061,0.931174341782068,0.931403262269783,0.933425332040769,0.934758292781729,0.935965048104509,0.936658507361056,0.937585952199462,0.937653016752171,0.937944248031127,0.937586729556958,0.93885228669522,0.939998224686456,0.945947021805263,0.986568180087564,1.00835909190103,1.04159008087746,1.04761039243545,1.05848988799898,0.961636664299233,0.961753020418724,0.961679445533249,0.971861580014438,0.952542326417999,0.952518930143739,0.95260487404621,0.953847015813631,0.954551232082754,0.955437267186131,0.955656440738299,0.956913407162894,0.957683598783472,0.960518668576576,0.962136992045771,1.03191181306603,1.01751358341063,1.00310130535209,0.975045494753349,0.975916729367722,0.976058073137772,0.974880169658925,0.972896099193009,0.970733590664138,0.968904032657041,0.968115218912015,0.966630765428182,0.965069389893422,0.965317464028838,0.965768479544485,0.966973832157674,0.965696451098468,0.96494181604763,0.964011788034199,0.962008608821415,0.961728287822274,0.962682692153344,0.963371378672654,0.966759626546738,0.967757394519947,0.97827150455967,0.985454145180354,0.98350166134783,0.979777062909144,0.977242487286434,0.975857144124935,0.975927082833483,0.976816188843148,0.978798571985623,0.980787968686718,0.981699504125815,0.982274040436162,0.995438266742726,1.00120904292458,1.00787524808306,0.963148766165572,0.958066737202453,0.951416061579177,0.944216705668103,0.935973464056872,0.920796503121764,0.918865924324907,0.919911732554492,0.922474196977825,0.924913068609239,0.923849406530988,0.910176402674634,0.893842425184457,0.892812429979849,0.890988399066048,0.904383815422781,0.915951478651265,0.911815425112,0.900671687076465,0.878536615159646,0.878776189063182,0.878812312598578,0.879226846774666,0.888996413317828,0.89694955341363,0.900448477515647,0.899245110831738,0.898311130561537,0.89720157837264,0.896594578832723,0.8960223766156,0.894508134707543,0.894788634144529,0.894823163729648,0.89170145490168,0.89179106746624,0.889315653274385,0.888543947815466,0.888392939810585,0.888732917575778,0.888149021844815,0.888457595367802,0.888945699294421,0.876553067564473,0.876872101419733,0.877714893179991,0.876326136913889,0.876875404254369,0.87784434076556,0.87781699713756,0.876675975555039,0.875656649827443,0.874265820412287,0.873642112802311,0.872131975360497,0.871011367648868,0.876869140760485,0.874198302198704,0.873426091728167,0.87363926011651,0.87353503883031,0.87323082482189,0.873196306443127,0.872359648186716,0.86883870771339,0.864724634114858,0.86439686808024,0.86443009235098,0.864956240592061,0.865851732587159,0.866828734044531,0.871877932588342,0.875799883880511,0.87493450562846,0.874812304459899,0.880497505926798,0.879841176344213,0.879484509418909,0.880370315459981,0.882178202304249,0.882871893552607,0.882851813295202,0.882856612863827,0.882553979000802,0.882394105794888,0.893008951480833,0.901361034267332,0.905904020401558,0.914295470315027,0.906428594268609,0.89534561003108,0.894711539403737,0.894023571630055,0.908185380077705,0.914663616735222
0.931354056311897,0.930802776295939,0.930966847909776,0.93417875313995,0.936776790772646,0.937360911260471,0.939441424026464,0.939930808923542,0.940980799085729,0.939978208205746,0.940283865976262,0.939905230563067,0.941195110992087,0.942626432471641,1.00322952749,1.01190977527327,1.15902345016234,1.07235172172564,1.08118014120096,0.962015905968444,0.962279117245221,0.962361489811008,1.03725253243686,0.953644943232374,0.952778696962191,0.953948575369806,0.954934803595119,0.956818550982889,0.955900206659118,0.957448432281701,0.957631204832765,0.959035182388335,0.961359921452745,0.963792336596033,1.07832255690047,0.971780142296793,0.972100968944635,0.972900911614864,0.973972767456362,0.975433780377429,0.974184623903102,0.974122449455838,0.971854145954023,0.970686162501544,0.971422420368379,0.972514060828947,0.963359768229121,0.964347226643734,0.965420011118397,0.968616895164776,0.967498036788665,0.96666363472209,0.966724097234827,0.96161051773476,0.961675336906541,0.962061332261994,0.96238851404061,0.968807421627108,0.969939475561863,0.970118317322992,1.01619258829,0.997458543843254,0.978747034740948,0.987654518010612,0.98738313939586,0.986643818020249,0.996516717172142,0.964396316569898,0.972003465514307,0.972760160756316,0.973868676645963,1.01330051330747,0.995053414690043,1.01918578205464,0.973240151498067,0.972928640864694,0.969884033026332,0.952823106457932,0.973847188975047,0.921360421382181,0.942298334467569,0.947503894499107,0.94689848977995,0.923880129263805,0.923882237277461,0.919640970523088,0.896202527659379,0.894976608803956,0.884593448175979,0.881041663118036,0.919318685047673,0.90534794955433,0.911129371025876,0.880137782932677,0.868418321018162,0.868344820885309,0.880786979001795,0.881903304635162,0.866297804738464,0.922418382423321,0.907509595561928,0.910305094152215,0.927511021939594,0.911849773856021,0.91169969819365,0.909510927379792,0.90942594681931,0.896702287662274,0.89107823768484,0.891225495938615,0.888087987599654,0.886818299616449,0.886667543948712,0.887290168903599,0.885393605282922,0.886936811366331,0.886918237956863,0.875223307747206,0.877737349146259,0.879527281114262,0.876536133645598,0.875219842199144,0.879699480051767,0.877414232860433,0.877217636194615,0.875903827570616,0.872903976790504,0.872714084891951,0.872163810028585,0.868979195503117,1.13427298428687,1.1335751465525,0.872523380843493,0.873884190901924,0.872701593604919,0.873248737043505,0.873208719518211,0.874529489473577,0.873919603006679,0.86429846561736,0.86315862206291,0.864021960828343,0.863791802113026,0.856480086932718,0.856903582392578,0.8739496817518,0.874586264355213,0.875261480790966,0.873450577252005,0.881512133844396,0.878835532348379,0.879858002127088,0.881014459786974,0.882812218898354,0.88271672782626,0.883358523598301,0.882582401656348,0.882501613456747,0.882077041917286,0.882929860232596,0.884616087900335,0.906576372052375,0.924703857616073,0.915365289660005,0.889986714142489,0.889880959258987,0.890407260096357,0.885245094616173,0.886989844358468
0.936802586131691,0.933624006434539,0.933137457491812,0.935544375648683,0.937063902886522,0.938616177835632,0.939694730830561,0.941084396870571,0.941287908551892,0.941728860510178,0.941573399776047,0.9432626588748,0.946321943856939,0.960241420595071,0.967598935215514,0.975436879751408,0.983111526624025,0.991201121763868,1.00055633331313,0.962531263827328,0.963005022126689,0.963218853168023,1.00186573234343,0.987066240931892,0.955250933401912,0.955574027990291,0.95752767729309,0.957971403319515,0.958070762404582,0.957967649412452,0.959146863123143,0.959931951815515,0.961727390350678,0.964339088476837,0.972047965365382,0.972361505833691,0.973190447305546,0.974208748764277,0.974783612697016,0.975635354479874,0.975766854123309,0.975296879098839,0.974477566732531,0.973337050152467,0.972216736460717,0.97257114875886,0.963472983880336,0.963979244141057,0.964604662274283,0.966232060021823,0.966013625533992,0.965752507949842,0.964405632168534,0.962982835050444,0.963272915441827,0.963296590800692,0.96363551598884,0.970111633046579,0.970392382828223,0.971241176394527,0.974308782034487,0.977507126286032,0.977241518337748,0.975371364635331,0.973658725442781,0.972575097307018,0.971726249564863,0.972263650426965,0.973129603173072,0.973626213724456,0.97484224570327,0.976017061533928,0.975842965038058,0.980402978444516,0.978770783374691,0.974519100237195,0.972375993756691,0.970149941455249,0.965897978497313,0.956260294664934,0.948876549280801,0.939999634686802,0.937320565284113,0.931543000386484,0.925395244930451,0.92345902886361,0.914680921195443,0.904040001463478,0.889861481304574,0.8902949843573,0.916906247209178,0.914690777771453,0.911540123602349,0.878319619205246,0.877637312598822,0.878411290523151,0.880363090717703,0.881607058630423,0.873661076809904,0.909271919689594,0.909359405509887,0.907600640563666,0.919787148168543,0.916627197749663,0.915054384135041,0.905656808545849,0.901434168378093,0.895837767181819,0.893751297071921,0.892736565763318,0.888113464896977,0.887503331171433,0.887200819145448,0.887394950563011,0.886092328413011,0.886210809226437,0.885972074046721,0.884147038582667,0.88097001737402,0.878493332773435,0.875653103751199,0.875698503615796,0.876727970128836,0.877192608224863,0.876275480082603,0.87601571261581,0.873125095196171,0.872756130718317,0.872029869854083,0.869422752796376,0.869307650205707,0.869474389708869,0.87065849131897,0.87133545067097,0.871807342042399,0.871806950598191,0.871971392692982,0.871882598875155,0.87164761802548,0.86704531210435,0.864811144753293,0.863529441922851,0.86216771499941,0.859074000624946,0.85772639398215,0.866511520333956,0.8740238827002,0.872740760525395,0.8726209935979,0.88219662194038,0.88183871595053,0.881947646632467,0.882226503030921,0.882448034792099,0.882884673516148,0.882883753378332,0.882790130654538,0.882087485265288,0.882197351157877,0.881951394815545,0.898098650039108,0.914037238345458,0.922967532590299,0.919855823778762,0.906037821801319,0.887972574599989,0.88753999819996,0.886675376124937,0.887740871779847
0.938491439873185,0.933777565371387,0.933946611951007,0.935933519246055,0.938711558132186,0.938883056842126,0.94143171289484,0.941625879201282,0.943272386263662,0.942287956649246,0.943522195862888,0.942914742762986,0.948778684546644,0.994133195742916,0.956141242720797,0.956294024838943,0.956893643693153,0.957179625571319,1.01409856012724,0.96231873455772,0.963604393705647,0.964152206405028,1.14637895193962,1.14644570163595,0.955777139537345,0.956694825925739,0.960229906622237,0.96099967560947,0.958513920444743,0.959137116317301,0.95887879640621,0.96133902835777,0.96208293581059,0.967784504267869,0.969757736885678,0.97204359400267,0.97355256634489,0.975945367545709,0.975100912086823,0.97581739516114,0.978655413791842,0.979331291740695,0.98050598758431,0.980608828296407,0.980415226730469,0.980064306064146,0.96444992655586,0.964204258435349,0.964205342333275,0.964785376877545,0.96615479035683,0.966173345422291,0.975257940792728,0.973714649641431,0.967055084390918,0.949836585267395,0.955992650505627,1.03030792166263,0.977814585446641,0.972044481496672,0.97030857721627,0.978624451808237,0.994093657539581,0.970396725495532,0.970722205013425,0.973658976333236,0.965113884512156,0.998657556777305,0.961776988906302,0.960373117045615,0.962644863731798,0.966061259824153,0.968218914922922,0.990029180809929,0.987888387005797,0.95488628421493,0.955288443018246,1.04051091120971,0.962198289632087,0.97244483512789,0.969989782351942,0.93406879855314,0.93195427712743,0.948575141856793,0.928516885501231,0.929357090638609,0.928341263896221,0.922600821958045,0.88965307767806,0.891217184554439,0.930434210535661,0.937151832806969,0.908865895349683,0.877820806296818,0.928064848470414,0.87820212531766,0.917402446921523,0.917255158840378,0.86123684952978,0.912342629934344,0.912837957157574,0.90615211168736,0.923914340340002,0.917773787794419,0.917453112891696,0.896600790344747,0.88390760339702,0.896519327196798,0.924421632040245,0.925358632208607,0.887941343874504,0.887955651672109,0.886970044966331,0.889059702915551,0.896976139413354,0.867249574085525,0.865724073918693,0.933007344191518,0.893132566387172,0.893221973142497,0.891501850864678,0.874886796167996,0.877315524289318,0.885454935044069,0.88758115754099,0.960539753311004,0.873251013567385,0.873072969580756,0.872121306610009,0.86833272952021,0.866271913663465,0.86761900219309,0.868684981563676,0.868950676297446,0.88161953481308,0.870051291277054,0.870979838611358,0.870185562404685,0.870277859265665,0.870431768462585,0.864023365246155,0.863874117733424,0.86289438391139,0.860624880012893,0.859491816790189,0.859469552030409,0.872380429843747,0.869556932573187,0.872546338128649,0.882615209838047,0.887541428026624,0.886089816831764,0.881778311515749,0.882967347471669,0.882658915279133,0.883738049041036,0.882379582382148,0.883425797810262,0.881416944624228,0.880669650773433,0.910821749113537,0.918274573119775,0.932848401731077,0.930745312855238,0.928777062180556,0.884649107342063,0.885433560906904,0.886412830595402,0.888218553790749
0.937892694349457,0.93611520460777,0.935450913388649,0.936319493131121,0.937454923862005,0.939287429208457,0.940433276460716,0.942072633078554,0.942981959084846,0.943747966742115,0.943841144935358,0.945083388313344,0.9464555956963,0.956879086776275,0.9568542823927,0.957120867922122,0.957788462243933,0.958434988901118,0.959911550570081,0.961495829694119,0.962901453343146,0.964846117219403,0.965240868555329,0.963505222231342,0.958981252230393,0.958839190664818,0.960652656701022,0.960925723505641,0.960578662548799,0.959902555872925,0.960930516031929,0.961427916395838,0.96443212640258,0.968205148261554,0.970796997601718,0.972614857715712,0.974071940549562,0.975295267237361,0.975810630239573,0.976472108952854,0.977914863736833,0.979301560249771,0.981310519541459,0.981618611235053,0.981962639870489,0.981194555828284,0.964562933635435,0.9647138021724,0.96558437615029,0.967656725495236,0.969794686029316,0.97141915391585,0.973311085711039,0.973717363974915,0.970002107557812,0.963554071067692,0.959733731985068,0.981325781080372,0.97857577958524,0.97541522290903,0.972508212906569,0.972795120472658,0.971658492570692,0.970096923215346,0.970038849081106,0.970642094887298,0.968816018772605,0.981865758679347,0.969993755189942,0.967789702009402,0.964378755065532,0.965898251502166,0.966507834684349,0.97862612781666,0.989671503132841,0.990670420413827,1.00216879385779,1.01419421757907,0.986370588668292,0.982940982778489,0.975755713206407,0.969312890885369,0.959101001693629,0.946671876073442,0.930843821611549,0.930708145022275,0.929862542934278,0.928101082007209,0.926267967163434,0.929193968683529,0.931545121647471,0.934452860341598,0.91390350964417,0.912006575763842,0.927106269517225,0.924467208942659,0.92031350214403,0.917608542495173,0.915915453516608,0.913962996795547,0.915373662365148,0.917879241042939,0.91983708719555,0.916837352829822,0.915421237378001,0.910744185569023,0.912683347864183,0.91746571358362,0.925242050414948,0.926152935667228,0.906730089406973,0.885431932564053,0.881488735714232,0.876858429282849,0.873092832663773,0.869680376660003,0.871228862687125,0.91958192188125,0.905813013543529,0.895566289383689,0.890454474371864,0.883173770128206,0.881926166412912,0.886431869773626,0.888166024847846,0.913031618895005,0.872132500798306,0.872040576190792,0.871433422172916,0.86941359149788,0.869120340052628,0.86861471500962,0.868587794096633,0.868354371466794,0.867888162436339,0.868940197009518,0.869442126930495,0.870126571571316,0.869970530028063,0.869925823811699,0.866223618275957,0.865536149286253,0.864305272757541,0.862589176706671,0.860005401568942,0.860120287515542,0.863475066482767,0.866999651447847,0.868670296516506,0.8763340256489,0.882419214346591,0.883397517931047,0.882805559452424,0.882736733313113,0.882737553999785,0.882636156233603,0.882762604628149,0.883135807129503,0.884033259596837,0.884848644466983,0.884992268636743,0.884117555967715,0.882463226297764,0.88127838510213,0.881623957851497,0.883432137122861,0.884730225645847,0.885839043641253,0.8872997950863
0.93855320175314,0.937275967152139,0.936184095366519,0.935148292768931,0.937145396373809,0.938549939213953,0.940851453022503,0.941366329350943,0.944692606286214,0.944165800911188,0.94561705602605,0.945508880398201,0.946639147395357,0.954859175924541,0.955817390802448,0.957428836987878,0.958081835868094,0.958857926560805,0.959349629612601,0.960447860837941,0.961700695241519,0.966466812519274,0.966824078031705,0.961432796692139,0.960158680240097,0.960335224011925,0.961261305322975,0.96256368852601,0.961123143996213,0.961252418750932,0.960835830733627,0.961538110536465,1.09724660620806,0.969646925067149,0.971947690607678,0.973494782693192,0.974350026878564,0.974922538984175,0.976284268765206,1.21806660876049,1.21787242782571,0.990510753150848,0.982789282181624,0.984551783259134,0.984154092273899,0.986219665830289,0.964862185030764,0.965590996904213,0.974526010670718,1.0057225879688,1.06209379041289,0.97898986565262,0.979187173203693,0.975882072045464,0.975152849560235,1.00940026681425,0.94638551739665,0.983997902271488,0.983753355079083,0.993087477886213,0.958450867476167,0.950758062453606,0.959753511812154,0.983928508178209,0.983012023752145,1.00515753379938,0.961468598888145,1.00862815243081,0.970847174590064,0.971057956274278,0.962899582507329,0.96565096467864,0.966048106154059,0.966497630511057,0.989797377737945,0.990696209627604,1.03559644768725,1.0365744472629,0.993458181415899,1.05303468401259,1.01857526279774,1.01877672690506,1.03683660671928,0.944522605037115,0.916702369174822,0.932226339200219,0.931446912244937,0.932572750445708,0.92259585266555,0.939698504912726,0.942739452222312,0.993347347966513,0.915719249228204,0.911512595553144,0.96381586622463,0.927358932211212,0.947596948482318,0.889931649363075,0.921328108381587,0.913001198512933,0.883173052523492,0.929974171780422,0.930276248631403,0.883445286584554,0.91266596893234,0.906750132835637,0.913451904415452,0.924070371146706,0.923917457712561,0.94608526892059,0.924880584518772,0.875847500519099,0.875515904312985,0.856367359708811,0.848736739431589,0.870539448988525,0.872347292739727,0.933636155805645,0.933562488704844,0.895336283608026,0.887527056697131,0.891176378806566,0.864033965910441,0.863896204335075,0.864204229807122,1.08153615495344,0.871176102564811,0.871282057345485,0.871575819647523,0.882161178505748,1.12705641377403,1.00769889073568,0.868931906817113,0.867868071121058,0.868224249288525,0.867802337843688,0.869756543062942,0.869333141716966,0.871207175435714,0.870802767974421,0.867722598146598,0.86588046420178,0.86716844759943,0.867361490006476,0.859875981749156,0.859417933468129,0.860875961714669,0.866947019823209,0.868168989194862,0.869635760447947,0.880888252563526,0.882638322795682,0.882465222609301,1.00170048406454,0.882187452082834,0.882373036823887,0.882192074122349,0.894751650498163,0.902259423137329,0.899828060498754,0.877008019652997,0.878036791596817,0.879385806973175,0.879436796973413,0.880129417633689,0.921556638280212,0.884496210357433,0.88582983537205,0.886538463290823
0.937334558694838,0.937103463390181,0.935747101342919,0.935952035190507,0.936553056445773,0.938457791943155,0.94047818924858,0.942260526825314,0.943362414299963,0.944743663825696,0.945511423643615,0.947564234693041,0.947999336865866,0.956793515156316,0.957245036505798,0.958678485261245,0.959815858651294,0.960307142280186,0.960789344495654,0.961400973050373,0.962295325079373,0.964367906682418,0.965003905860456,0.963521016434201,0.962886334014659,0.9624392780927,0.962996294267035,0.963594569599238,0.964419493546675,0.964991316591939,0.965220754097514,0.967039787798263,0.971900322764863,0.971550062715312,0.972723777680318,0.973915226924219,0.97521309213429,0.976896210308024,0.977654568758307,0.993253081695242,0.99288387811957,0.991137252384852,0.988725772521253,0.985498928851312,0.984976687954187,0.985424587895539,0.978252844734105,0.967342901295045,0.970292707511267,0.988427806064666,1.01230388010683,1.01289022177828,1.01338837412409,1.01194857171234,1.01004880216146,1.00657523288241,0.966991936355018,0.985147697044574,0.985601868128059,0.96939098522105,0.955934527502728,0.954252276346274,0.957037807575247,0.984146213911108,0.984112881474788,0.98960257612796,0.993170458194853,0.996875892322854,0.984681804951132,0.982865714639225,0.983517384785548,0.983434365237538,0.982615927145971,0.989359722354437,0.996141675589061,1.00188716343615,1.01514683890888,1.02412142715214,1.01173349423313,1.01259233525172,1.01527322436576,1.01633861508253,1.01623023650159,0.976313716378992,0.965738537637294,0.957827233433423,0.943685321076865,0.940792074082088,0.951772433006117,0.958565012460123,0.966945774990564,0.977457729100011,0.954016910608503,0.955985754526622,0.959400434320815,0.955566845634395,0.951715949273895,0.935547563675497,0.917740194546082,0.912416370685493,0.907478426040515,0.906112981549243,0.905935049219924,0.905759879317,0.910130173212805,0.911747196338708,0.91483682565429,0.916357900660259,0.91739681035516,0.918462451112268,0.918073135562304,0.876305508706804,0.87563085338041,0.866373107149928,0.858569910411842,0.872033566683833,0.87254843058363,0.891315025093011,0.891671824605479,0.893282360985308,0.880195727243066,0.873869056494233,0.864113275179016,0.86410558772259,0.864726463477955,0.866541872377798,0.869119520873694,0.870253211461439,0.870423778906019,0.870712744955757,0.871268658120595,0.871421044249643,0.870109546225702,0.868722061886742,0.867676496543355,0.868438680076288,0.868740528755515,0.869014247204219,0.868843689919625,0.869370421602588,0.866971462997995,0.867206161363872,0.866527850472858,0.866620260862809,0.86465898796036,0.863248243928597,0.863329742712519,0.865748859171646,0.866880955554824,0.868824130462731,0.874228414012169,0.876888139619385,0.879869586837047,0.88056344731798,0.88120415702896,0.881161558478651,0.880620727812113,0.89001820040025,0.893387571807953,0.896344885824132,0.889532198591453,0.880412909992899,0.879612842397069,0.879214545647639,0.879569811125589,0.898348907343163,0.883686689287309,0.884178188762317,0.885114403564561
0.93751759434702,0.93648260682412,0.935482794223381,0.934470804833386,0.936359678398735,0.937315706111831,0.941251981080899,0.942028835339749,0.94384434483117,0.943535008281123,0.946443079308274,0.95035147717709,0.951161356083547,1.00245421772198,0.961584141057203,0.961954776321683,0.961368630733197,0.962078224824938,0.961762072145312,0.961840774625286,0.961949158174842,0.963271753556109,0.964785832238875,0.965438527918969,0.964285325081532,0.964308637173262,0.963629768093501,0.965236731174021,0.966510405658651,0.967445403455188,0.965209855533438,0.969156488617263,0.970426634211332,0.971787436029697,0.973245415684938,1.0630586253782,0.980514400948542,0.979430799838023,0.979604659005512,0.992056327948281,0.993181537425409,0.991898960995698,1.0028946155353,0.985743213276811,0.993235281630622,0.993469142647929,0.991201692600012,0.958265488974002,0.967939192546946,0.978946153645432,1.0118921359932,1.01076945924003,1.01083710598267,1.00837349433037,1.01669526972289,1.0031161227406,0.952502264766951,0.988868092585531,0.988759612415261,0.953702029531832,0.954524498053465,0.952618967297578,0.952250523865441,0.984496970823833,0.985161401923254,0.966441985146809,1.00351454771466,1.04157158827688,1.02942704162711,0.980509788027301,0.98299684591491,1.02121555108503,0.981595377274422,0.994142700646871,1.01082834110477,1.01260266567725,0.999998062743133,1.08046094155089,1.01233377409866,1.01140113127626,1.03513618348754,1.03343109482599,0.998299287840947,0.988410819243473,0.968656039552236,0.978055689240095,0.948597676317405,0.940182518863943,1.02050514075921,1.01978514754559,1.0177124020865,1.01934832127942,0.953328133071355,0.999449888652738,0.978954847417069,0.980854350611377,0.973506166527499,0.96947947052895,0.907431278455763,0.931865593866799,0.927472503350926,0.908093741374744,0.907429142378543,0.90262560515546,0.901530312364796,0.983313505943126,0.929341840356952,0.907812768514428,0.884354874913599,0.920086003725087,0.918488154022343,0.868163441677013,0.873956027130779,0.877834734651308,0.844547823883966,0.895774286253833,0.860796451819276,0.888257932176344,0.888108758344429,0.901552334283781,0.867672415232059,0.865059087782432,0.864095980497246,0.864313883222315,0.864359490912631,0.865923338370652,0.869075662518522,0.869536958505691,0.870245608407987,0.871006953407406,0.872279912342206,0.872030112810678,0.871781066573387,0.86780926252565,0.867122888551834,0.867646393888679,0.869640832846326,0.86712216184666,0.868629050601091,0.867023754822857,0.867368715022487,0.866586460127995,0.867225148455527,0.866552670058048,0.866442753951514,0.863980115085791,0.864959408358316,0.865370101332449,0.867010674862656,0.869676621867777,0.872339452503395,0.873203421833107,0.880141037124141,0.879885715762733,0.8799934875971,0.881387845772213,0.880369104653344,0.8865468138207,0.88705599145039,0.90082956404422,0.902419104349264,0.883099721838427,0.91882074565138,0.877737128357871,0.878502337561929,0.914527089790524,0.882903641394977,0.88426764242686,0.885206546551023
0.937437521079218,0.936753693242011,0.935353897180105,0.935406617866502,0.935690420717233,0.937334940491658,0.93963836252848,0.941787009834237,0.944878992223761,0.946557458773861,0.947136321060117,0.951107997055149,0.956173597913503,0.985963174639776,0.976177929069638,0.969403786308628,0.966620284168213,0.964874553363511,0.963508096313162,0.962776973656073,0.962713964935555,0.963402758341495,0.965209379594164,0.96537147070738,0.965246256828789,0.965128559882539,0.965348173146783,0.965728336233823,0.967435839479874,0.968603012730287,0.970573817383764,0.972160969970534,0.974019178547734,0.976734872558562,0.979108785477266,0.980496362558004,0.980174408597742,0.979164266640684,0.978546857934839,0.992800301956175,0.99141076179465,0.99177501674575,0.991367454843286,0.990559869375009,0.993279918543878,0.993323614583744,0.979364190025547,0.9682070681909,0.967800047409727,0.979545220258701,0.983314980567774,0.993605838324101,1.00300255527914,0.999812154396047,0.99823930453969,0.995179826906253,0.966550033896608,0.964921286167531,0.963499582956554,0.96316720825866,0.975596217726232,0.979999039965572,0.984770520959642,0.991116068689479,0.999083490658894,1.00606424345371,1.01377810412653,1.01820529131017,1.01724336945143,1.0165046019241,1.00933216491898,1.00096660690598,0.992106634188813,1.00094946304467,1.01235193492893,1.0137391606295,1.01564300166912,1.03897235181925,1.03854623355155,1.03730126590084,1.03587901330709,1.03134702561193,1.00063131167748,1.0018597360478,1.00314082268383,1.00473191003015,1.00587291549866,1.00646567778693,1.02020069021581,1.01989424651001,1.0093257822571,1.00370917838535,0.996290684976019,0.990957675128072,0.986457323014798,0.983604274411181,0.972154103600472,0.970770660809444,0.958855612740426,0.94055949384005,0.928661214440362,0.928137835987842,0.926697695950867,0.926846888189799,0.928499031538085,0.929824475750301,0.930024195232067,0.91445741850772,0.883911379174244,0.884091150261477,0.876627136224455,0.871548913818938,0.871463633014903,0.881043165745721,0.886357073901204,0.889953351828396,0.875954152890622,0.889545427096299,0.88935075042263,0.893450197063778,0.869480910118628,0.868271988039598,0.866037221983806,0.865102041440854,0.864494892495088,0.86528749225625,0.866188375613987,0.868524170677829,0.868408027049002,0.869299989226814,0.870151858299336,0.870585728754693,0.869386757267844,0.867564360973051,0.866316989223452,0.866945170044309,0.866565774520147,0.866518590945127,0.866151527176284,0.866151028873942,0.865976629833066,0.8663284562601,0.865903326626674,0.866061111201119,0.86538812511674,0.86491759935277,0.864966641484798,0.866036445140449,0.867184069600169,0.870028135316056,0.871650591654959,0.873317384207625,0.876678264131883,0.87929106026447,0.882290251346263,0.883745009673095,0.886765310271104,0.886944991344027,0.885705282049694,0.883752374277607,0.88195751438773,0.881305152275277,0.880377497935932,0.877154917528063,0.877675543223405,0.899076121393074,0.882728625302547,0.882787264308911,0.897887438653941
