1.49949, 1.49977, 1.54961, 1.49721, 1.49847, 1.58335, 1.49873, 1.50024, 1.54834, 1.499, 1.55046, 1.54969, 1.56576, 1.56445, 1.56419, 1.71561, 1.56417, 1.56408, 1.55898, 1.55949, 1.55948, 1.55886, 1.55776, 1.55789, 1.60686, 1.55569, 1.55644, 1.55098, 1.60191, 1.63764, 1.59972, 1.6001, 1.54571, 1.54699, 1.54671, 1.54362, 1.54323, 1.54314, 1.59322, 1.59225, 1.59198, 1.53904, 1.53851, 1.53946, 1.58935, 1.59053, 1.53773, 1.53756, 1.58983, 1.53847, 1.53957, 1.63044, 1.53966, 1.53897, 1.8103, 1.53893, 1.53931, 1.53983, 1.54115, 1.54276, 1.54407, 1.54417, 1.54532, 1.54443, 1.59878, 1.60879, 1.60967, 1.6092, 1.60936, 1.60898, 1.60787, 1.71349, 1.60713, 1.607, 1.60646, 1.60563, 1.60374, 1.60275, 1.83777, 1.60081, 1.59901, 1.60251, 1.60178, 1.6522, 1.68496, 1.65162, 1.65394, 1.64932, 1.59832, 1.59845, 1.59897, 1.59798, 1.59647, 1.59898, 1.59562, 1.83772, 1.59565, 1.59765, 1.64742, 1.64794, 1.59615, 1.647, 1.59412, 1.59651, 1.59527, 1.59529, 1.59564, 1.59582, 1.59319, 1.59395, 1.59263, 1.59298, 1.82107, 1.59115, 1.59163, 1.81718, 1.59237, 1.59197, 1.59184, 1.5925, 1.59133, 1.5915, 1.59223, 1.59345, 1.58977, 1.59239, 1.74854, 1.59865, 1.74805, 1.77628, 1.71458, 1.66523, 1.77592, 1.66432, 1.77025, 1.77143, 1.66407, 1.66399, 1.77254, 1.71401, 1.66507, 1.7666, 1.65947, 1.66456, 1.66432, 1.66329, 1.66382, 1.6628, 1.66403, 1.66173, 1.66111, 1.66067, 1.661, 1.66302, 1.66281, 1.7735, 1.77937, 1.6632, 1.66136, 1.65911, 1.58025, 1.57805, 1.81302, 1.57083, 1.56762, 1.56168, 1.56449, 1.55731, 1.5529, 1.55078, 1.54999, 1.5434, 1.54295, 1.58893, 1.53678, 1.58542, 1.5329, 1.58753, 1.52891, 1.52801, 1.52577, 1.52363, 1.51944, 1.51966, 1.52316, 1.58121, 1.52024, 1.52091, 1.52113, 1.67052, 1.517, 1.51663, 1.51821, 1.51792, 1.51723, 1.56711, 1.56624, 1.61625, 1.51561, 1.60898, 1.51555, 1.51466, 1.51579, 1.51558, 1.60931, 1.51226, 1.5167, 1.51355, 1.5138, 1.51183, 1.51224, 1.5139, 1.51417, 1.51571, 1.51655, 1.51458, 1.51611, 1.51606, 1.5146, 1.51768, 1.51864, 1.51668, 1.51625, 1.51768, 1.61412, 1.51911, 1.51753, 1.56814, 1.51916, 1.66088, 1.51785, 1.56631, 1.6018, 1.51421, 1.51423, 1.51454, 1.51328, 1.65999, 1.44398, 1.4464, 1.44576, 1.44726, 1.59093, 1.53321, 1.44562, 1.44407, 1.49363, 1.49315, 1.44293, 1.44499, 1.58896, 1.44111, 1.44073, 1.44093, 1.44178, 1.44343, 1.44309, 1.68412, 1.49316, 1.44209, 1.44339, 1.59206, 1.43989, 1.44296, 1.58891, 1.44263, 1.43981, 1.43722, 1.52648, 1.48968, 1.43942, 1.4369, 1.54038, 1.59252, 1.43647, 1.53629, 1.43474, 1.4334, 1.52957, 1.43286, 1.43335, 1.5371, 1.43278, 1.52472, 1.48066, 1.4298, 1.43194, 1.53039, 1.42687, 1.42589, 1.5298, 1.5852, 1.4274, 1.35896, 1.35998, 1.3611, 1.35929, 1.35851, 1.35884, 1.36072
1.50201, 1.50056, 1.49708, 1.50047, 1.58498, 1.58514, 1.54874, 1.54899, 1.4991, 1.50038, 1.59294, 1.49891, 1.56336, 1.56486, 1.56521, 1.71479, 1.56477, 1.56398, 1.56028, 1.56181, 1.56238, 1.55748, 1.55513, 1.5548, 1.55763, 1.64408, 1.62676, 1.54847, 1.54876, 1.55153, 1.54885, 1.54677, 1.54719, 1.54705, 1.7077, 1.54292, 1.54399, 1.54304, 1.59243, 1.54057, 1.54087, 1.59183, 1.54166, 1.54047, 1.58937, 1.58905, 1.59038, 1.54011, 1.53834, 1.62729, 1.58946, 1.58977, 1.58944, 1.53913, 1.54, 1.8754, 1.5387, 1.54117, 1.54313, 1.54071, 1.54256, 1.54429, 1.54115, 1.60214, 1.54772, 1.60868, 1.60999, 1.71974, 1.60828, 1.60508, 1.60591, 1.60832, 1.60801, 1.60871, 1.60402, 1.60407, 1.6052, 1.60344, 1.60187, 1.60352, 1.60228, 1.60195, 1.60084, 1.60091, 1.65119, 1.65085, 1.59661, 1.59787, 1.59663, 1.59638, 1.59881, 1.59728, 1.59544, 1.59906, 1.59697, 1.59644, 1.59497, 1.64835, 1.68565, 1.68629, 1.64674, 1.64671, 1.59598, 1.59459, 1.59407, 1.59602, 1.69638, 1.59318, 1.59272, 1.82945, 1.59473, 1.58953, 1.83164, 1.59191, 1.58999, 1.59052, 1.59307, 1.58843, 1.58838, 1.58945, 1.59344, 1.59196, 1.64488, 1.59386, 1.59036, 1.596, 1.69198, 1.74788, 1.59834, 1.66664, 1.71409, 1.71375, 1.71337, 1.6628, 1.66512, 1.66271, 1.66355, 1.76553, 1.6627, 1.7832, 1.66498, 1.77669, 1.66414, 1.7529, 1.66463, 1.66314, 1.66187, 1.76641, 1.66424, 1.78254, 1.66214, 1.77724, 1.76865, 1.66241, 1.66286, 1.77994, 1.66109, 1.66192, 1.66075, 1.65982, 1.58286, 1.58074, 1.57056, 1.56775, 1.5656, 1.56238, 1.61018, 1.69554, 1.5509, 1.5504, 1.81683, 1.54351, 1.54164, 1.5398, 1.58644, 1.58477, 1.53314, 1.53156, 1.52692, 1.52946, 1.5274, 1.52507, 1.51976, 1.52249, 1.52063, 1.52148, 1.65907, 1.52149, 1.521, 1.67003, 1.51722, 1.51817, 1.51595, 1.51836, 1.56785, 1.56728, 1.5156, 1.518, 1.56586, 1.60914, 1.5729, 1.51577, 1.57567, 1.60298, 1.5139, 1.51247, 1.51049, 1.51185, 1.5135, 1.51491, 1.51327, 1.51408, 1.51374, 1.51297, 1.51289, 1.51334, 1.51561, 1.51523, 1.51747, 1.51742, 1.51589, 1.51661, 1.51918, 1.59886, 1.52, 1.51869, 1.51813, 1.51899, 1.51826, 1.51777, 1.51549, 1.51514, 1.51462, 1.51448, 1.51295, 1.56456, 1.51539, 1.51258, 1.44832, 1.44673, 1.44378, 1.44728, 1.53288, 1.51245, 1.52958, 1.44478, 1.44341, 1.44328, 1.49429, 1.58871, 1.59064, 1.44003, 1.44209, 1.44132, 1.49256, 1.49262, 1.49271, 1.52483, 1.44272, 1.44308, 1.44346, 1.59006, 1.44149, 1.52351, 1.52486, 1.49181, 1.52454, 1.43912, 1.52558, 1.48779, 1.44019, 1.61922, 1.59234, 1.43521, 1.54027, 1.43447, 1.53722, 1.43396, 1.43201, 1.43107, 1.58917, 1.58937, 1.43101, 1.43079, 1.42754, 1.42803, 1.42876, 1.428, 1.42818, 1.42995, 1.42929, 1.42657, 1.42918, 1.42466, 1.36047, 1.35901, 1.35801, 1.36039, 1.35725, 1.36011
1.55158, 1.55019, 1.55026, 1.49696, 1.49986, 1.58312, 1.49922, 1.54942, 1.49686, 1.50011, 1.49961, 1.49675, 1.5673, 1.56636, 1.71691, 1.565, 1.71438, 1.56383, 1.66435, 1.56146, 1.56136, 1.56015, 1.55953, 1.55674, 1.557, 1.60591, 1.5546, 1.55272, 1.71099, 1.55215, 1.54993, 1.55002, 1.81675, 1.54582, 1.54504, 1.54261, 1.54362, 1.7085, 1.54389, 1.5383, 1.59082, 1.59042, 1.58998, 1.53985, 1.53976, 1.54062, 1.591, 1.58948, 1.53939, 1.53765, 1.5889, 1.53526, 1.53608, 1.53766, 1.80737, 1.53926, 1.69622, 1.54121, 1.54231, 1.54281, 1.54319, 1.60038, 1.54147, 1.54667, 1.54733, 1.60972, 1.70996, 1.60795, 1.60714, 1.60898, 1.60779, 1.60551, 1.60439, 1.60643, 1.60493, 1.60254, 1.60277, 1.71574, 1.60072, 1.60206, 1.602, 1.81705, 1.60048, 1.6021, 1.59836, 1.82864, 1.59669, 1.59617, 1.59673, 1.59856, 1.59643, 1.59686, 1.59672, 1.59717, 1.59637, 1.70006, 1.59365, 1.59602, 1.64693, 1.59783, 1.68761, 1.6546, 1.64699, 1.59267, 1.59461, 1.59243, 1.59504, 1.59675, 1.59262, 1.59349, 1.591, 1.59372, 1.81815, 1.59298, 1.59207, 1.58868, 1.69851, 1.59157, 1.59097, 1.69475, 1.59298, 1.5921, 1.59071, 1.59133, 1.593, 1.59459, 1.59595, 1.68743, 1.65057, 1.6642, 1.71392, 1.66441, 1.6625, 1.66584, 1.66552, 1.66007, 1.66428, 1.77678, 1.66111, 1.66154, 1.66297, 1.66156, 1.66197, 1.76988, 1.6612, 1.78199, 1.66415, 1.77542, 1.66106, 1.78188, 1.78467, 1.78346, 1.66382, 1.65995, 1.66336, 1.66335, 1.66172, 1.76361, 1.78002, 1.66305, 1.58194, 1.68254, 1.57462, 1.57133, 1.56542, 1.56219, 1.5574, 1.55708, 1.55334, 1.69553, 1.54778, 1.54517, 1.53907, 1.5395, 1.58592, 1.53417, 1.5316, 1.52959, 1.52829, 1.52594, 1.57603, 1.57531, 1.52212, 1.6168, 1.52177, 1.52227, 1.60912, 1.57621, 1.52037, 1.51878, 1.51766, 1.51623, 1.51454, 1.51905, 1.51576, 1.51598, 1.5163, 1.516, 1.56512, 1.51358, 1.56515, 1.60737, 1.60557, 1.51572, 1.51309, 1.56361, 1.51251, 1.5121, 1.51288, 1.51572, 1.51318, 1.51166, 1.51201, 1.51278, 1.51477, 1.51402, 1.515, 1.57574, 1.51679, 1.51454, 1.51363, 1.5168, 1.51652, 1.51878, 1.51766, 1.51678, 1.56988, 1.51334, 1.51559, 1.51874, 1.51819, 1.60836, 1.51722, 1.51584, 1.51285, 1.51568, 1.51169, 1.51164, 1.44444, 1.49836, 1.49673, 1.49717, 1.44503, 1.44391, 1.44484, 1.44385, 1.44059, 1.43967, 1.44397, 1.44111, 1.44315, 1.44054, 1.44054, 1.44091, 1.52287, 1.52491, 1.49217, 1.44312, 1.58872, 1.44433, 1.44345, 1.44282, 1.44049, 1.49091, 1.49037, 1.48989, 1.44152, 1.49116, 1.48879, 1.43948, 1.48604, 1.58998, 1.43685, 1.43665, 1.43352, 1.43373, 1.59177, 1.4331, 1.43097, 1.58947, 1.58931, 1.43105, 1.4332, 1.43247, 1.43257, 1.4307, 1.43074, 1.58604, 1.4282, 1.42973, 1.42895, 1.42504, 1.42464, 1.42767, 1.35975, 1.41029, 1.3597, 1.41649, 1.35381, 1.35777
1.50218, 1.50064, 1.55021, 1.55101, 1.54991, 1.49859, 1.54748, 1.50055, 1.49957, 1.49851, 1.49671, 1.49825, 1.56517, 1.5644, 1.56555, 1.61368, 1.56176, 1.56172, 1.5589, 1.56143, 1.5625, 1.55607, 1.63107, 1.60918, 1.55759, 1.55509, 1.55392, 1.65378, 1.54707, 1.54998, 1.54904, 1.5488, 1.54874, 1.54795, 1.54682, 1.54395, 1.54101, 1.59382, 1.54317, 1.54041, 1.54165, 1.5401, 1.63212, 1.58915, 1.53938, 1.54001, 1.53994, 1.63664, 1.53994, 1.53826, 1.53708, 1.53982, 1.54011, 1.53844, 1.53744, 1.53893, 1.54054, 1.53829, 1.54339, 1.54226, 1.54387, 1.54404, 1.59994, 1.62738, 1.54446, 1.60631, 1.60817, 1.6087, 1.6059, 1.60834, 1.60659, 1.6044, 1.60604, 1.60393, 1.60547, 1.60315, 1.60244, 1.60297, 1.60027, 1.60112, 1.60135, 1.59704, 1.59767, 1.59951, 1.59996, 1.59898, 1.59884, 1.59588, 1.59644, 1.59655, 1.59697, 1.59592, 1.59836, 1.59731, 1.59749, 1.596, 1.59583, 1.59741, 1.64753, 1.6472, 1.69321, 1.64692, 1.64679, 1.59532, 1.69462, 1.706, 1.59445, 1.69374, 1.59315, 1.59237, 1.59288, 1.59341, 1.59309, 1.59297, 1.59393, 1.59298, 1.69991, 1.59376, 1.59107, 1.59107, 1.59517, 1.59322, 1.59217, 1.59361, 1.59313, 1.74337, 1.59566, 1.64729, 1.64903, 1.66126, 1.71456, 1.71625, 1.66441, 1.77798, 1.66464, 1.66336, 1.6655, 1.76923, 1.77992, 1.66406, 1.7597, 1.66255, 1.76991, 1.76827, 1.77228, 1.77316, 1.66372, 1.66315, 1.66125, 1.6623, 1.662, 1.66113, 1.78183, 1.66197, 1.66243, 1.6633, 1.66232, 1.66178, 1.77414, 1.77342, 1.58082, 1.57755, 1.57346, 1.62067, 1.56584, 1.56345, 1.55606, 1.5528, 1.69283, 1.54727, 1.54351, 1.54403, 1.59642, 1.53791, 1.53628, 1.53193, 1.53069, 1.53103, 1.57948, 1.52565, 1.52616, 1.52569, 1.52136, 1.52201, 1.51808, 1.52208, 1.52149, 1.52201, 1.52057, 1.5199, 1.51845, 1.56753, 1.51694, 1.51695, 1.51635, 1.51903, 1.51613, 1.5132, 1.51556, 1.5127, 1.51362, 1.51552, 1.6002, 1.5128, 1.51269, 1.51291, 1.51435, 1.51379, 1.51403, 1.51322, 1.51335, 1.51437, 1.5095, 1.51357, 1.51179, 1.50882, 1.59862, 1.59877, 1.56687, 1.51302, 1.56606, 1.51571, 1.82809, 1.51686, 1.51832, 1.51911, 1.51646, 1.60023, 1.51723, 1.51767, 1.5184, 1.51553, 1.51604, 1.51472, 1.51416, 1.51172, 1.51114, 1.51006, 1.44733, 1.44547, 1.44259, 1.44539, 1.44334, 1.44506, 1.44418, 1.44368, 1.44205, 1.44016, 1.44053, 1.44228, 1.59021, 1.44311, 1.4433, 1.44189, 1.49162, 1.44387, 1.44313, 1.58842, 1.58876, 1.58736, 1.44352, 1.44238, 1.44098, 1.49151, 1.49047, 1.43953, 1.44076, 1.43915, 1.48936, 1.48833, 1.48896, 1.43659, 1.43777, 1.43627, 1.43288, 1.43386, 1.43593, 1.43383, 1.43209, 1.43032, 1.42984, 1.43035, 1.43019, 1.42952, 1.43241, 1.42651, 1.53314, 1.42481, 1.42718, 1.42704, 1.42918, 1.71942, 1.42661, 1.42836, 1.35973, 1.44415, 1.35726, 1.40867, 1.40898, 1.35849
1.50382, 1.49945, 1.55095, 1.55028, 1.65384, 1.65145, 1.49909, 1.49724, 1.50175, 1.49908, 1.4991, 1.50027, 1.56587, 1.56551, 1.56595, 1.6132, 1.71585, 1.71595, 1.56108, 1.61254, 1.61276, 1.55657, 1.55897, 1.55723, 1.60766, 1.55526, 1.55232, 1.65993, 1.55349, 1.55087, 1.54847, 1.54677, 1.75462, 1.54396, 1.54491, 1.54375, 1.54355, 1.544, 1.68854, 1.54144, 1.54125, 1.54042, 1.53894, 1.53752, 1.5376, 1.53636, 1.5381, 1.64401, 1.64408, 1.53885, 1.53955, 1.53658, 1.53786, 1.53857, 1.54015, 1.53777, 1.53861, 1.53723, 1.54061, 1.70559, 1.74267, 1.5436, 1.60054, 1.60036, 1.54687, 1.60868, 1.60884, 1.60909, 1.60614, 1.6072, 1.60624, 1.60485, 1.60541, 1.60653, 1.6029, 1.60054, 1.60279, 1.65509, 1.65251, 1.59951, 1.59974, 1.59903, 1.59897, 1.5983, 1.59913, 1.59886, 1.59599, 1.59846, 1.5947, 1.59284, 1.64691, 1.59555, 1.59699, 1.69976, 1.6988, 1.59721, 1.59608, 1.59518, 1.59461, 1.69175, 1.59551, 1.59339, 1.59599, 1.59511, 1.59573, 1.59297, 1.59319, 1.59376, 1.59336, 1.81329, 1.59039, 1.59407, 1.5927, 1.59506, 1.59014, 1.59191, 1.59247, 1.59101, 1.59162, 1.59185, 1.59291, 1.59229, 1.69531, 1.59235, 1.59228, 1.64747, 1.64723, 1.64695, 1.59583, 1.65427, 1.66198, 1.78548, 1.66475, 1.66471, 1.66266, 1.66143, 1.66065, 1.77878, 1.77653, 1.66122, 1.71442, 1.66475, 1.6633, 1.66431, 1.77498, 1.66145, 1.77926, 1.77553, 1.66436, 1.66266, 1.66212, 1.66138, 1.66421, 1.66428, 1.66312, 1.77499, 1.65778, 1.66208, 1.77126, 1.66199, 1.63009, 1.62771, 1.57089, 1.56899, 1.56713, 1.69287, 1.55783, 1.55548, 1.55389, 1.69644, 1.544, 1.54418, 1.54084, 1.53774, 1.53401, 1.5344, 1.52968, 1.53031, 1.52568, 1.52452, 1.52443, 1.52305, 1.52468, 1.61207, 1.52108, 1.5185, 1.51751, 1.51838, 1.51583, 1.51702, 1.51725, 1.51566, 1.51719, 1.51666, 1.51767, 1.51566, 1.60564, 1.51159, 1.51279, 1.51581, 1.51223, 1.51263, 1.5125, 1.51468, 1.51009, 1.5133, 1.51394, 1.51385, 1.51098, 1.51168, 1.66527, 1.66828, 1.51215, 1.51149, 1.51112, 1.82215, 1.51222, 1.56567, 1.51433, 1.5147, 1.51336, 1.51577, 1.51608, 1.5164, 1.51652, 1.51592, 1.51802, 1.56829, 1.56856, 1.51348, 1.51506, 1.56636, 1.56543, 1.51423, 1.51385, 1.5133, 1.51131, 1.50943, 1.44697, 1.44622, 1.4435, 1.5917, 1.44377, 1.44375, 1.4957, 1.4955, 1.44335, 1.44323, 1.44338, 1.44166, 1.44032, 1.44072, 1.58918, 1.58916, 1.4437, 1.44316, 1.44321, 1.44319, 1.59045, 1.5876, 1.44177, 1.44291, 1.44167, 1.49134, 1.49124, 1.43996, 1.52305, 1.4368, 1.48821, 1.4881, 1.48773, 1.43352, 1.43623, 1.43285, 1.43527, 1.43039, 1.43024, 1.43295, 1.43067, 1.43086, 1.43186, 1.43078, 1.43004, 1.53651, 1.43072, 1.47846, 1.42872, 1.42902, 1.42645, 1.42683, 1.42909, 1.42614, 1.42483, 1.42608, 1.35427, 1.61412, 1.61476, 1.35555, 1.35442, 1.35721
1.49951, 1.49853, 1.50172, 1.49965, 1.65431, 1.65226, 1.65185, 1.59935, 1.49993, 1.49992, 1.49892, 1.50212, 1.56689, 1.56712, 1.56165, 1.56441, 1.56211, 1.56239, 1.56161, 1.56195, 1.61294, 1.61014, 1.55942, 1.55989, 1.55475, 1.5573, 1.55291, 1.55463, 1.55389, 1.65387, 1.5481, 1.54551, 1.54576, 1.71033, 1.54371, 1.54481, 1.54417, 1.54147, 1.54401, 1.65508, 1.5419, 1.54148, 1.53741, 1.53934, 1.53852, 1.53968, 1.54033, 1.53992, 1.54294, 1.5379, 1.53891, 1.53955, 1.53772, 1.54141, 1.53772, 1.53874, 1.54079, 1.53931, 1.54066, 1.54132, 1.54334, 1.54308, 1.54348, 1.54339, 1.60396, 1.60606, 1.60785, 1.60699, 1.60644, 1.60587, 1.60545, 1.60529, 1.76452, 1.60331, 1.65509, 1.65439, 1.65374, 1.6021, 1.60219, 1.65176, 1.60019, 1.60089, 1.59711, 1.59848, 1.59741, 1.59596, 1.59324, 1.59742, 1.59644, 1.59417, 1.59628, 1.59742, 1.59245, 1.59572, 1.59606, 1.69936, 1.59525, 1.59526, 1.59359, 1.59631, 1.59571, 1.59534, 1.59353, 1.59191, 1.59417, 1.59377, 1.59302, 1.5934, 1.59318, 1.59299, 1.69687, 1.59253, 1.59327, 1.59311, 1.59175, 1.69112, 1.59306, 1.59045, 1.59205, 1.59142, 1.59282, 1.5934, 1.5928, 1.59313, 1.59329, 1.6455, 1.64696, 1.59589, 1.69023, 1.80652, 1.77163, 1.66412, 1.77963, 1.66424, 1.77866, 1.66309, 1.77783, 1.66153, 1.6624, 1.65972, 1.66244, 1.66162, 1.66195, 1.77247, 1.66425, 1.66237, 1.66244, 1.66095, 1.66278, 1.66102, 1.66168, 1.66239, 1.66286, 1.66248, 1.66107, 1.65967, 1.66091, 1.66051, 1.65791, 1.66072, 1.58085, 1.57869, 1.57516, 1.56891, 1.69212, 1.56151, 1.5544, 1.6064, 1.5491, 1.54754, 1.54659, 1.54323, 1.54069, 1.53666, 1.53578, 1.5319, 1.53031, 1.52797, 1.52768, 1.6054, 1.60949, 1.5232, 1.5237, 1.52129, 1.5212, 1.51971, 1.51909, 1.51971, 1.51724, 1.51564, 1.51414, 1.51692, 1.5159, 1.51546, 1.5144, 1.51578, 1.51424, 1.51456, 1.72403, 1.51342, 1.51345, 1.51567, 1.51224, 1.72536, 1.61199, 1.51279, 1.5102, 1.51037, 1.66616, 1.50933, 1.51038, 1.6056, 1.51336, 1.51309, 1.51351, 1.51357, 1.51212, 1.5145, 1.51476, 1.51548, 1.51617, 1.51627, 1.51609, 1.51372, 1.51811, 1.51755, 1.60983, 1.51363, 1.51553, 1.51512, 1.51444, 1.51734, 1.56501, 1.5147, 1.51359, 1.51213, 1.51241, 1.51388, 1.44663, 1.44422, 1.44348, 1.44205, 1.4449, 1.44303, 1.44347, 1.44076, 1.44411, 1.44231, 1.4439, 1.44132, 1.44076, 1.68711, 1.44122, 1.44355, 1.58906, 1.59694, 1.44345, 1.44291, 1.44355, 1.44042, 1.44155, 1.44149, 1.44012, 1.44024, 1.43962, 1.49124, 1.44002, 1.48878, 1.48831, 1.48955, 1.43507, 1.4343, 1.43356, 1.43417, 1.4322, 1.43478, 1.43428, 1.43157, 1.43001, 1.53792, 1.42838, 1.43034, 1.49633, 1.49944, 1.50031, 1.47831, 1.42677, 1.42699, 1.42689, 1.68496, 1.42444, 1.42343, 1.42668, 1.42638, 1.35815, 1.35409, 1.35612, 1.3559, 1.35706, 1.35781
1.50028, 1.49975, 1.66275, 1.50264, 1.49738, 1.5012, 1.49994, 1.49872, 1.50015, 1.5004, 1.50078, 1.49888, 1.56479, 1.56526, 1.56517, 1.56317, 1.56396, 1.71517, 1.64425, 1.61234, 1.61072, 1.56023, 1.65702, 1.55791, 1.55608, 1.55552, 1.55143, 1.55343, 1.55234, 1.54925, 1.54996, 1.54724, 1.5486, 1.54767, 1.54583, 1.54195, 1.54475, 1.54225, 1.53996, 1.54063, 1.54073, 1.54177, 1.54045, 1.53866, 1.5371, 1.53846, 1.53829, 1.53947, 1.53779, 1.53845, 1.86382, 1.53952, 1.53875, 1.69712, 1.53915, 1.53797, 1.59051, 1.59155, 1.54078, 1.54315, 1.54337, 1.54257, 1.54314, 1.54062, 1.57307, 1.60929, 1.66863, 1.70249, 1.60878, 1.6029, 1.6028, 1.60606, 1.60199, 1.60545, 1.60445, 1.6547, 1.65429, 1.69271, 1.65095, 1.65132, 1.64941, 1.60006, 1.59608, 1.59613, 1.59504, 1.59702, 1.59321, 1.59606, 1.59671, 1.59675, 1.59661, 1.59731, 1.69428, 1.69061, 1.69075, 1.69195, 1.59587, 1.59501, 1.59426, 1.59536, 1.59554, 1.59566, 1.59592, 1.5955, 1.59563, 1.59417, 1.59489, 1.59298, 1.59202, 1.59234, 1.75241, 1.59332, 1.59424, 1.59245, 1.59138, 1.59345, 1.59402, 1.59232, 1.59146, 1.58958, 1.59096, 1.59217, 1.59295, 1.59392, 1.5946, 1.59384, 1.67891, 1.59665, 1.59586, 1.65397, 1.66147, 1.66059, 1.66268, 1.66198, 1.77293, 1.66183, 1.7895, 1.66289, 1.6612, 1.66268, 1.66318, 1.66346, 1.77908, 1.66153, 1.66427, 1.71253, 1.66248, 1.77636, 1.77151, 1.76232, 1.66085, 1.66139, 1.78065, 1.77885, 1.6583, 1.77131, 1.66207, 1.77365, 1.66031, 1.76973, 1.57787, 1.57771, 1.57372, 1.56852, 1.56775, 1.56124, 1.56069, 1.55456, 1.54907, 1.59932, 1.54318, 1.59518, 1.53992, 1.53676, 1.63431, 1.53507, 1.5322, 1.52792, 1.5796, 1.52625, 1.52511, 1.52254, 1.52269, 1.52118, 1.51968, 1.52169, 1.51621, 1.61203, 1.60645, 1.5143, 1.51456, 1.51674, 1.51648, 1.51555, 1.51572, 1.51465, 1.51578, 1.51613, 1.51547, 1.51178, 1.51351, 1.57301, 1.5631, 1.56199, 1.51387, 1.56231, 1.50967, 1.51038, 1.60458, 1.51084, 1.66352, 1.51191, 1.51168, 1.56111, 1.56231, 1.56147, 1.51197, 1.51083, 1.51581, 1.51213, 1.5135, 1.51153, 1.66115, 1.51254, 1.6609, 1.51399, 1.66197, 1.66252, 1.5127, 1.51453, 1.51274, 1.51286, 1.56551, 1.51136, 1.51363, 1.51284, 1.50955, 1.51124, 1.44645, 1.44411, 1.594, 1.44529, 1.44314, 1.44665, 1.44354, 1.52297, 1.44222, 1.44024, 1.44163, 1.68561, 1.44011, 1.44004, 1.43948, 1.44027, 1.44084, 1.43975, 1.44072, 1.44265, 1.43909, 1.44046, 1.44349, 1.43999, 1.43823, 1.44193, 1.53443, 1.53317, 1.43978, 1.48916, 1.4371, 1.43653, 1.43549, 1.43712, 1.58877, 1.43341, 1.43614, 1.43525, 1.48379, 1.43137, 1.43237, 1.4359, 1.43282, 1.43056, 1.43124, 1.42942, 1.53029, 1.42709, 1.47886, 1.42802, 1.42792, 1.53191, 1.42649, 1.42488, 1.42536, 1.42494, 1.35489, 1.35399, 1.50819, 1.50964, 1.5099, 1.50675
1.50372, 1.69788, 1.50228, 1.60334, 1.6902, 1.65434, 1.49989, 1.50002, 1.50007, 1.50057, 1.5019, 1.5019, 1.52348, 1.56641, 1.56537, 1.6655, 1.87928, 1.56395, 1.56349, 1.56161, 1.56149, 1.56105, 1.5593, 1.55571, 1.55847, 1.55638, 1.55318, 1.55379, 1.55195, 1.54805, 1.54858, 1.54671, 1.5468, 1.54701, 1.54658, 1.59513, 1.5448, 1.54425, 1.54178, 1.54344, 1.54165, 1.54163, 1.6549, 1.53647, 1.70432, 1.53831, 1.53742, 1.53966, 1.53771, 1.53644, 1.53958, 1.54004, 1.54027, 1.53883, 1.53961, 1.53786, 1.54162, 1.58989, 1.63709, 1.54071, 1.54215, 1.54132, 1.54227, 1.54597, 1.85643, 1.60537, 1.70256, 1.60342, 1.6076, 1.60742, 1.60624, 1.60299, 1.82915, 1.83026, 1.6539, 1.65401, 1.65127, 1.60208, 1.60053, 1.59744, 1.64943, 1.59906, 1.59764, 1.59647, 1.59748, 1.5979, 1.59728, 1.59671, 1.7543, 1.59742, 1.59614, 1.59511, 1.75147, 1.59625, 1.59667, 1.69927, 1.59514, 1.81659, 1.59495, 1.59381, 1.59534, 1.69676, 1.5959, 1.59326, 1.59516, 1.59419, 1.59462, 1.6901, 1.59325, 1.59297, 1.59374, 1.5933, 1.59263, 1.59348, 1.80239, 1.5947, 1.69328, 1.59078, 1.59185, 1.59389, 1.59366, 1.5921, 1.59266, 1.59422, 1.59418, 1.59594, 1.5963, 1.59583, 1.597, 1.64792, 1.66126, 1.66191, 1.66183, 1.66167, 1.74762, 1.66141, 1.66137, 1.66214, 1.66289, 1.66463, 1.66286, 1.66292, 1.77817, 1.66151, 1.66108, 1.6634, 1.66406, 1.77584, 1.6622, 1.66324, 1.76627, 1.66194, 1.65962, 1.77525, 1.65958, 1.66275, 1.66189, 1.66143, 1.65912, 1.75274, 1.58121, 1.57765, 1.5743, 1.57006, 1.56638, 1.56023, 1.55832, 1.55366, 1.54945, 1.54717, 1.54424, 1.54202, 1.54059, 1.75455, 1.63697, 1.5331, 1.58063, 1.57805, 1.60549, 1.52444, 1.52454, 1.52448, 1.52254, 1.52219, 1.51909, 1.51999, 1.62759, 1.51711, 1.51902, 1.51275, 1.51729, 1.51657, 1.51537, 1.51488, 1.51572, 1.51505, 1.51485, 1.5129, 1.513, 1.512, 1.51302, 1.5616, 1.5118, 1.51281, 1.51239, 1.56227, 1.56114, 1.5785, 1.561, 1.51016, 1.51141, 1.60887, 1.51167, 1.51308, 1.50908, 1.5122, 1.50957, 1.5124, 1.51177, 1.51124, 1.51105, 1.66158, 1.51256, 1.51373, 1.51437, 1.65929, 1.65957, 1.65971, 1.514, 1.51007, 1.51344, 1.51576, 1.60001, 1.51595, 1.51267, 1.51156, 1.51083, 1.51207, 1.44794, 1.44736, 1.44529, 1.44366, 1.44228, 1.44229, 1.62295, 1.44327, 1.43897, 1.44339, 1.44229, 1.44197, 1.44136, 1.591, 1.43779, 1.44144, 1.44297, 1.44206, 1.44146, 1.44105, 1.44237, 1.44324, 1.43843, 1.43965, 1.4434, 1.58812, 1.58785, 1.43867, 1.44072, 1.43799, 1.43375, 1.43564, 1.43313, 1.43682, 1.43404, 1.43332, 1.43299, 1.43302, 1.48241, 1.43002, 1.43321, 1.43113, 1.4295, 1.58878, 1.4259, 1.42667, 1.42661, 1.4306, 1.42903, 1.4274, 1.42764, 1.42791, 1.42694, 1.42555, 1.42421, 1.42529, 1.35407, 1.50895, 1.50798, 1.50785, 1.35684, 1.35757
1.50316, 1.49997, 1.65512, 1.50301, 1.49949, 1.49966, 1.4972, 1.49888, 1.50137, 1.50091, 1.50283, 1.50164, 1.56552, 1.56624, 1.56486, 1.61563, 1.56108, 1.56429, 1.56426, 1.82597, 1.55911, 1.56111, 1.60959, 1.60946, 1.55754, 1.55346, 1.55326, 1.55527, 1.55425, 1.5509, 1.55114, 1.55027, 1.54854, 1.54955, 1.54704, 1.59537, 1.54607, 1.54325, 1.63921, 1.54099, 1.5384, 1.54114, 1.74398, 1.53965, 1.5413, 1.59185, 1.53924, 1.54025, 1.53948, 1.53878, 1.53935, 1.53477, 1.53893, 1.59174, 1.59036, 1.54053, 1.5397, 1.54067, 1.5436, 1.54041, 1.53956, 1.54336, 1.54384, 1.54556, 1.54253, 1.60649, 1.60699, 1.66711, 1.60578, 1.60706, 1.65574, 1.60338, 1.60307, 1.60262, 1.60267, 1.60443, 1.6019, 1.59998, 1.65078, 1.59897, 1.59988, 1.59573, 1.59647, 1.59757, 1.59678, 1.59722, 1.59695, 1.59746, 1.59739, 1.59587, 1.59488, 1.70576, 1.69987, 1.59516, 1.59577, 1.59519, 1.75425, 1.5951, 1.59272, 1.59387, 1.59346, 1.59321, 1.59485, 1.59498, 1.59249, 1.59306, 1.59216, 1.59383, 1.59378, 1.5953, 1.75091, 1.5943, 1.59325, 1.5917, 1.59273, 1.59178, 1.69326, 1.58896, 1.59199, 1.64352, 1.64342, 1.59454, 1.59257, 1.5928, 1.59559, 1.82782, 1.59417, 1.83412, 1.59632, 1.66401, 1.66466, 1.66, 1.77934, 1.66303, 1.66217, 1.77841, 1.77838, 1.66416, 1.6618, 1.66225, 1.66275, 1.66335, 1.6611, 1.7726, 1.79239, 1.66335, 1.76847, 1.76708, 1.66099, 1.66124, 1.77275, 1.66131, 1.71302, 1.71395, 1.66067, 1.71244, 1.7113, 1.65938, 1.66124, 1.78294, 1.57938, 1.57631, 1.57027, 1.57084, 1.68985, 1.56095, 1.55749, 1.554, 1.65733, 1.54483, 1.54325, 1.54301, 1.54122, 1.53469, 1.53472, 1.53117, 1.52972, 1.57813, 1.52662, 1.5238, 1.52366, 1.52329, 1.52085, 1.52028, 1.5147, 1.51956, 1.51918, 1.51845, 1.5152, 1.61395, 1.56639, 1.5142, 1.51681, 1.51527, 1.51176, 1.5641, 1.59825, 1.51288, 1.51361, 1.51292, 1.51347, 1.50933, 1.51052, 1.5111, 1.50905, 1.50887, 1.51035, 1.56144, 1.50931, 1.56053, 1.50946, 1.51214, 1.51114, 1.50936, 1.51091, 1.51061, 1.50895, 1.51144, 1.66192, 1.50952, 1.51013, 1.51296, 1.51448, 1.60748, 1.51505, 1.516, 1.51441, 1.51354, 1.5099, 1.51449, 1.51526, 1.51432, 1.51277, 1.66732, 1.51248, 1.51291, 1.5122, 1.51311, 1.44836, 1.44533, 1.49537, 1.44246, 1.44341, 1.44306, 1.44072, 1.49155, 1.49343, 1.44343, 1.44255, 1.43825, 1.49137, 1.49176, 1.43657, 1.44102, 1.44333, 1.68216, 1.43998, 1.44007, 1.44249, 1.44168, 1.44086, 1.43933, 1.43976, 1.58673, 1.43849, 1.43881, 1.43985, 1.44007, 1.43658, 1.43204, 1.43621, 1.43494, 1.43311, 1.51064, 1.43352, 1.43086, 1.43256, 1.43158, 1.42947, 1.6122, 1.43019, 1.4321, 1.47974, 1.47853, 1.47808, 1.42817, 1.42784, 1.52978, 1.42479, 1.58309, 1.42585, 1.42649, 1.4244, 1.47931, 1.35543, 1.35337, 1.50759, 1.35613, 1.35409, 1.35437
1.50531, 1.50424, 1.50267, 1.50317, 1.50188, 1.50058, 1.67156, 1.49936, 1.49975, 1.50039, 1.50355, 1.50268, 1.56752, 1.61575, 1.56465, 1.61596, 1.56359, 1.61169, 1.5617, 1.56165, 1.56242, 1.56124, 1.5594, 1.65601, 1.55853, 1.55586, 1.55684, 1.60431, 1.60328, 1.5519, 1.6018, 1.59906, 1.54989, 1.59708, 1.59866, 1.54438, 1.54432, 1.6436, 1.6038, 1.54085, 1.54092, 1.70834, 1.5418, 1.54048, 1.53973, 1.59133, 1.59011, 1.54103, 1.54084, 1.53988, 1.59138, 1.53709, 1.59058, 1.58902, 1.59084, 1.53847, 1.54157, 1.54073, 1.54176, 1.54128, 1.54365, 1.54152, 1.5412, 1.54437, 1.60851, 1.6082, 1.60546, 1.60668, 1.60564, 1.60587, 1.60572, 1.60551, 1.7126, 1.60233, 1.6031, 1.60295, 1.59905, 1.65181, 1.60212, 1.59802, 1.59654, 1.5987, 1.70599, 1.59708, 1.59695, 1.59555, 1.59535, 1.5962, 1.59557, 1.59725, 1.59383, 1.59389, 1.59591, 1.59389, 1.59575, 1.5942, 1.5938, 1.59596, 1.59095, 1.82445, 1.59273, 1.59343, 1.59312, 1.59145, 1.59164, 1.59188, 1.5934, 1.59297, 1.59424, 1.59481, 1.5921, 1.59286, 1.59165, 1.59046, 1.5905, 1.59535, 1.69517, 1.58957, 1.5897, 1.58948, 1.64338, 1.59426, 1.59465, 1.59322, 1.69114, 1.5958, 1.59436, 1.59676, 1.59707, 1.59638, 1.66095, 1.77774, 1.66405, 1.66299, 1.66194, 1.65955, 1.71272, 1.66249, 1.76244, 1.76509, 1.65931, 1.66236, 1.77684, 1.66288, 1.66367, 1.77999, 1.6621, 1.76827, 1.66373, 1.65963, 1.66336, 1.6624, 1.71047, 1.71035, 1.71109, 1.7111, 1.75555, 1.70997, 1.6616, 1.65733, 1.58142, 1.67801, 1.62509, 1.56977, 1.61575, 1.68876, 1.81295, 1.55212, 1.55122, 1.68859, 1.54324, 1.53915, 1.58853, 1.5867, 1.53185, 1.53045, 1.52961, 1.5294, 1.52648, 1.52508, 1.52187, 1.57171, 1.52001, 1.51822, 1.5203, 1.51777, 1.51703, 1.61944, 1.5167, 1.51695, 1.60029, 1.51, 1.51657, 1.60544, 1.51113, 1.51137, 1.51233, 1.513, 1.51322, 1.50946, 1.5104, 1.51047, 1.50877, 1.5126, 1.51091, 1.51209, 1.55973, 1.50805, 1.50944, 1.56044, 1.50817, 1.51096, 1.51229, 1.51114, 1.50871, 1.50999, 1.50871, 1.51197, 1.51233, 1.51263, 1.51126, 1.51011, 1.56416, 1.50933, 1.51022, 1.51363, 1.75902, 1.51266, 1.50798, 1.51283, 1.69882, 1.51316, 1.51052, 1.51262, 1.51238, 1.51108, 1.51232, 1.51063, 1.50267, 1.44455, 1.49589, 1.44233, 1.44477, 1.43978, 1.44249, 1.49161, 1.49209, 1.48998, 1.44002, 1.49073, 1.49099, 1.44074, 1.44193, 1.49176, 1.44164, 1.44112, 1.43964, 1.44035, 1.53169, 1.44028, 1.44049, 1.49172, 1.5859, 1.43793, 1.43908, 1.69585, 1.43612, 1.43482, 1.43687, 1.43665, 1.43483, 1.4318, 1.43582, 1.43278, 1.4329, 1.43286, 1.43086, 1.43304, 1.43108, 1.62782, 1.43042, 1.52036, 1.51989, 1.51421, 1.47782, 1.47785, 1.42975, 1.42661, 1.42924, 1.42678, 1.62738, 1.42401, 1.42561, 1.42621, 1.35163, 1.35479, 1.35543, 1.35665, 1.50661, 1.35508
1.50291, 1.50232, 1.50196, 1.50232, 1.50059, 1.50105, 1.50295, 1.558, 1.55628, 1.50215, 1.5021, 1.5039, 1.56566, 1.56142, 1.65098, 1.56288, 1.61342, 1.61298, 1.56137, 1.56435, 1.55889, 1.56193, 1.56004, 1.55919, 1.55673, 1.55751, 1.60673, 1.55402, 1.55393, 1.5511, 1.60204, 1.60196, 1.59912, 1.54809, 1.54751, 1.65279, 1.7136, 1.54556, 1.54437, 1.5948, 1.5407, 1.5408, 1.54278, 1.54181, 1.54297, 1.54122, 1.59026, 1.54002, 1.54106, 1.58966, 1.58929, 1.63037, 1.58915, 1.54046, 1.53875, 1.53504, 1.53919, 1.54146, 1.54104, 1.54114, 1.63375, 1.54367, 1.54492, 1.54358, 1.60734, 1.60796, 1.60571, 1.60547, 1.60724, 1.60912, 1.60568, 1.60628, 1.60333, 1.6044, 1.81919, 1.59921, 1.59946, 1.65152, 1.59948, 1.60002, 1.5989, 1.59791, 1.59895, 1.5968, 1.5971, 1.59735, 1.59325, 1.59544, 1.69387, 1.59745, 1.59605, 1.59586, 1.59657, 1.5957, 1.59505, 1.59522, 1.59505, 1.59326, 1.59564, 1.59389, 1.80377, 1.59374, 1.59391, 1.59537, 1.6957, 1.59297, 1.5929, 1.59151, 1.58994, 1.59406, 1.59231, 1.58952, 1.58961, 1.59053, 1.59275, 1.59325, 1.69582, 1.59304, 1.59338, 1.59258, 1.59277, 1.59353, 1.59504, 1.594, 1.59176, 1.59281, 1.5945, 1.59762, 1.59754, 1.5968, 1.66123, 1.66157, 1.78915, 1.66411, 1.66121, 1.6634, 1.78074, 1.66273, 1.65921, 1.66333, 1.80041, 1.66193, 1.66184, 1.66372, 1.78609, 1.66086, 1.77231, 1.66349, 1.66228, 1.66093, 1.66126, 1.7115, 1.71078, 1.71066, 1.65843, 1.65763, 1.71036, 1.66127, 1.66057, 1.66107, 1.57949, 1.62712, 1.67794, 1.61634, 1.56387, 1.68735, 1.55686, 1.55336, 1.54745, 1.54685, 1.54293, 1.75747, 1.53994, 1.5372, 1.53066, 1.53097, 1.52732, 1.52689, 1.71297, 1.52221, 1.52137, 1.51961, 1.57136, 1.56916, 1.51774, 1.51723, 1.51926, 1.51237, 1.51874, 1.51621, 1.51618, 1.51572, 1.56482, 1.56381, 1.51331, 1.51282, 1.51044, 1.51088, 1.71005, 1.60813, 1.51216, 1.50915, 1.66513, 1.5093, 1.50803, 1.51052, 1.50904, 1.50852, 1.55927, 1.50967, 1.50636, 1.50911, 1.50798, 1.50598, 1.50927, 1.50705, 1.51187, 1.50955, 1.50932, 1.56042, 1.56079, 1.51234, 1.51083, 1.51109, 1.51256, 1.5132, 1.50945, 1.65823, 1.51003, 1.51492, 1.51214, 1.56737, 1.56469, 1.51128, 1.51066, 1.50768, 1.50991, 1.50149, 1.50192, 1.44648, 1.44434, 1.44228, 1.44345, 1.44269, 1.44192, 1.44178, 1.4413, 1.43832, 1.5189, 1.4914, 1.52122, 1.52395, 1.49062, 1.43954, 1.49154, 1.43936, 1.43973, 1.48942, 1.44083, 1.43982, 1.43941, 1.43645, 1.43657, 1.43994, 1.43709, 1.44039, 1.43508, 1.43385, 1.43129, 1.43398, 1.43332, 1.43571, 1.4313, 1.43346, 1.43561, 1.43279, 1.4323, 1.43053, 1.43091, 1.42976, 1.43129, 1.4284, 1.48146, 1.42862, 1.47962, 1.47882, 1.42976, 1.42652, 1.42808, 1.42821, 1.5241, 1.42403, 1.42592, 1.42479, 1.3529, 1.35386, 1.35446, 1.35368, 1.35309, 1.35622
1.50294, 1.50355, 1.6024, 1.50298, 1.59469, 1.50293, 1.50553, 1.58838, 1.50204, 1.55358, 1.50208, 1.50477, 1.61717, 1.61634, 1.56463, 1.56519, 1.65075, 1.61371, 1.61272, 1.56288, 1.56042, 1.5608, 1.56037, 1.55822, 1.55569, 1.55531, 1.5569, 1.60606, 1.60377, 1.55083, 1.55187, 1.60229, 1.60122, 1.54948, 1.55035, 1.71332, 1.54694, 1.59646, 1.5433, 1.54011, 1.54, 1.5414, 1.54225, 1.54047, 1.53865, 1.54115, 1.6483, 1.54071, 1.6386, 1.54018, 1.53991, 1.59079, 1.53945, 1.54012, 1.54018, 1.59161, 1.54228, 1.54062, 1.53979, 1.5424, 1.59274, 1.60444, 1.54471, 1.54351, 1.6089, 1.60623, 1.60531, 1.60416, 1.60669, 1.60657, 1.60326, 1.60318, 1.60206, 1.60266, 1.59898, 1.60185, 1.59992, 1.59777, 1.60099, 1.59981, 1.6002, 1.70728, 1.59657, 1.59493, 1.59626, 1.6669, 1.66772, 1.64692, 1.5961, 1.59474, 1.59465, 1.59391, 1.59276, 1.59371, 1.59602, 1.65077, 1.64569, 1.64462, 1.59561, 1.59493, 1.59047, 1.59272, 1.59087, 1.59385, 1.59337, 1.59521, 1.59263, 1.59098, 1.59333, 1.64464, 1.59202, 1.59008, 1.59301, 1.59292, 1.69257, 1.59389, 1.5929, 1.59215, 1.58881, 1.59145, 1.59264, 1.59207, 1.59242, 1.59296, 1.64511, 1.64385, 1.59626, 1.64597, 1.59848, 1.59704, 1.66112, 1.66008, 1.66045, 1.77836, 1.66164, 1.6614, 1.66413, 1.65929, 1.66197, 1.66332, 1.66321, 1.66159, 1.66113, 1.66085, 1.76866, 1.66127, 1.66191, 1.66142, 1.66164, 1.6619, 1.65992, 1.75859, 1.71008, 1.75937, 1.71058, 1.70962, 1.71264, 1.71255, 1.65922, 1.65961, 1.67806, 1.57585, 1.57586, 1.5689, 1.6126, 1.56105, 1.69254, 1.55379, 1.68888, 1.54546, 1.80636, 1.54025, 1.53857, 1.53669, 1.53184, 1.53253, 1.52898, 1.52436, 1.52583, 1.52488, 1.52371, 1.52107, 1.57, 1.56999, 1.56774, 1.51819, 1.51822, 1.51604, 1.51577, 1.51669, 1.56535, 1.56387, 1.51573, 1.59943, 1.56393, 1.51217, 1.5114, 1.51139, 1.51155, 1.5114, 1.50954, 1.51098, 1.71337, 1.50977, 1.71234, 1.50684, 1.60437, 1.50933, 1.50838, 1.50868, 1.50803, 1.50876, 1.50533, 1.50586, 1.50827, 1.50851, 1.50892, 1.5093, 1.50839, 1.50559, 1.59569, 1.59539, 1.59193, 1.51019, 1.51037, 1.51223, 1.51168, 1.51048, 1.56298, 1.51061, 1.51306, 1.59591, 1.51176, 1.51222, 1.51165, 1.50996, 1.50746, 1.50953, 1.4428, 1.44226, 1.44461, 1.44365, 1.44153, 1.44071, 1.44087, 1.58938, 1.59065, 1.44065, 1.4914, 1.49131, 1.44112, 1.43989, 1.43703, 1.48985, 1.43957, 1.441, 1.43699, 1.48963, 1.53301, 1.43712, 1.48858, 1.43779, 1.43933, 1.43756, 1.43702, 1.43643, 1.43599, 1.4359, 1.4367, 1.43626, 1.43451, 1.43507, 1.43186, 1.43482, 1.43347, 1.43131, 1.42968, 1.42948, 1.42863, 1.42996, 1.42722, 1.4263, 1.48182, 1.42985, 1.42664, 1.51668, 1.47706, 1.42489, 1.58136, 1.42585, 1.42592, 1.42369, 1.42373, 1.42665, 1.35559, 1.3542, 1.35457, 1.40511, 1.40406, 1.40421
1.50395, 1.50226, 1.5034, 1.50322, 1.5038, 1.50206, 1.50203, 1.58856, 1.59127, 1.50406, 1.50324, 1.50189, 1.61631, 1.61582, 1.64938, 1.61399, 1.6135, 1.5642, 1.61278, 1.64788, 1.55867, 1.55858, 1.56062, 1.55879, 1.5572, 1.55552, 1.55347, 1.60621, 1.60543, 1.64175, 1.60239, 1.60179, 1.55015, 1.55065, 1.54765, 1.54688, 1.54534, 1.54642, 1.54606, 1.59412, 1.59286, 1.59278, 1.54302, 1.54124, 1.54297, 1.54128, 1.64248, 1.64394, 1.53891, 1.54063, 1.63181, 1.53968, 1.53739, 1.53816, 1.62961, 1.59192, 1.54051, 1.53993, 1.53936, 1.59194, 1.59247, 1.59227, 1.54258, 1.54523, 1.5761, 1.60521, 1.60683, 1.8201, 1.60503, 1.60561, 1.60427, 1.60177, 1.60271, 1.60155, 1.60256, 1.59881, 1.59859, 1.59997, 1.60038, 1.59984, 1.81873, 1.59923, 1.59867, 1.59716, 1.59716, 1.59843, 1.59501, 1.5945, 1.64575, 1.59382, 1.59552, 1.59664, 1.59536, 1.64472, 1.64552, 1.64588, 1.64645, 1.64702, 1.59194, 1.59011, 1.59434, 1.59368, 1.595, 1.59411, 1.59369, 1.80713, 1.81314, 1.58865, 1.59426, 1.59264, 1.59187, 1.59134, 1.59063, 1.59371, 1.59286, 1.59281, 1.59316, 1.5908, 1.64857, 1.58949, 1.59236, 1.59177, 1.59467, 1.5926, 1.59374, 1.59449, 1.59576, 1.59585, 1.67807, 1.6895, 1.66177, 1.66156, 1.66156, 1.66003, 1.76818, 1.75099, 1.66254, 1.66265, 1.66321, 1.66417, 1.66167, 1.66216, 1.66045, 1.77851, 1.77292, 1.76557, 1.66146, 1.66225, 1.66216, 1.65942, 1.65758, 1.7125, 1.65959, 1.71024, 1.66017, 1.7109, 1.71095, 1.659, 1.65976, 1.77611, 1.62732, 1.57359, 1.57112, 1.61794, 1.56128, 1.55521, 1.68786, 1.68845, 1.54794, 1.54764, 1.54214, 1.5418, 1.63047, 1.53424, 1.53276, 1.53203, 1.5248, 1.52603, 1.5255, 1.52282, 1.52085, 1.522, 1.51961, 1.51729, 1.51582, 1.51715, 1.51581, 1.51336, 1.51719, 1.56507, 1.5642, 1.59972, 1.51229, 1.51194, 1.5096, 1.51143, 1.51064, 1.51004, 1.512, 1.6647, 1.51174, 1.50987, 1.51195, 1.50911, 1.5089, 1.50929, 1.50909, 1.50859, 1.50765, 1.50989, 1.50703, 1.50665, 1.50885, 1.50692, 1.50407, 1.5077, 1.50693, 1.50743, 1.50854, 1.50606, 1.59388, 1.50765, 1.50956, 1.5603, 1.50802, 1.50809, 1.51209, 1.56286, 1.58293, 1.51222, 1.51064, 1.51185, 1.51235, 1.5121, 1.50973, 1.50932, 1.51023, 1.65421, 1.52957, 1.44032, 1.44298, 1.44257, 1.4407, 1.44198, 1.44118, 1.59219, 1.59017, 1.44074, 1.49129, 1.49191, 1.49012, 1.48984, 1.43804, 1.52451, 1.43924, 1.4392, 1.43949, 1.48854, 1.43771, 1.43764, 1.43856, 1.53066, 1.43672, 1.58594, 1.43353, 1.58511, 1.43598, 1.52634, 1.53006, 1.51203, 1.43095, 1.4314, 1.43205, 1.52748, 1.42759, 1.4284, 1.53005, 1.42968, 1.48142, 1.4303, 1.43097, 1.42983, 1.42751, 1.52808, 1.4294, 1.42526, 1.42765, 1.47743, 1.51259, 1.42476, 1.42371, 1.42573, 1.42586, 1.42628, 1.35427, 1.35476, 1.40505, 1.40571, 1.4052, 1.43664
1.50392, 1.50428, 1.50513, 1.50264, 1.50239, 1.50356, 1.5031, 1.55205, 1.50374, 1.50263, 1.50474, 1.50349, 1.71692, 1.61645, 1.6148, 1.56493, 1.61377, 1.56454, 1.56279, 1.61255, 1.56116, 1.56006, 1.55995, 1.55753, 1.55773, 1.55618, 1.55498, 1.55534, 1.60595, 1.60251, 1.60329, 1.54831, 1.5472, 1.54635, 1.59905, 1.65881, 1.54715, 1.54763, 1.54425, 1.54309, 1.5401, 1.59309, 1.64443, 1.64128, 1.59182, 1.54259, 1.59367, 1.59288, 1.54107, 1.54216, 1.64068, 1.53606, 1.54059, 1.54214, 1.59169, 1.59166, 1.54072, 1.54036, 1.54219, 1.54333, 1.59289, 1.54347, 1.54545, 1.5449, 1.5692, 1.76981, 1.6044, 1.60415, 1.60198, 1.7127, 1.7127, 1.60218, 1.60481, 1.60275, 1.60266, 1.60136, 1.68999, 1.60003, 1.60115, 1.59977, 1.82867, 1.59921, 1.59842, 1.59565, 1.59747, 1.59804, 1.59244, 1.5969, 1.59361, 1.59361, 1.59436, 1.59239, 1.5939, 1.59574, 1.59525, 1.59412, 1.69746, 1.69217, 1.59302, 1.59451, 1.59327, 1.5927, 1.59115, 1.59058, 1.59458, 1.59286, 1.59373, 1.59328, 1.74611, 1.59184, 1.59171, 1.59152, 1.59185, 1.59335, 1.59253, 1.59179, 1.59206, 1.64356, 1.6439, 1.58986, 1.59499, 1.59354, 1.5952, 1.64395, 1.59408, 1.59379, 1.5955, 1.59518, 1.59792, 1.59891, 1.66055, 1.6622, 1.65986, 1.65894, 1.65996, 1.71656, 1.66288, 1.66328, 1.66415, 1.66275, 1.66404, 1.66425, 1.66282, 1.66242, 1.66158, 1.66358, 1.66397, 1.65881, 1.79425, 1.78545, 1.66079, 1.774, 1.65893, 1.6602, 1.65992, 1.7107, 1.76486, 1.6577, 1.76144, 1.65805, 1.57318, 1.57413, 1.56922, 1.5654, 1.5623, 1.55892, 1.69142, 1.55085, 1.54668, 1.54671, 1.54203, 1.62988, 1.53517, 1.53379, 1.52997, 1.52984, 1.5276, 1.52438, 1.5232, 1.52337, 1.52265, 1.52071, 1.52016, 1.61623, 1.51952, 1.51982, 1.51337, 1.51535, 1.51253, 1.51265, 1.51437, 1.56301, 1.56207, 1.59872, 1.59908, 1.5119, 1.51243, 1.51133, 1.61042, 1.50952, 1.51015, 1.82637, 1.50993, 1.50942, 1.50941, 1.50689, 1.50735, 1.50727, 1.50728, 1.50617, 1.50795, 1.50759, 1.50868, 1.50613, 1.50808, 1.5052, 1.50758, 1.50657, 1.50611, 1.50644, 1.55792, 1.59243, 1.55829, 1.50909, 1.50808, 1.51061, 1.50767, 1.50879, 1.59531, 1.5107, 1.51057, 1.51134, 1.5106, 1.50855, 1.51185, 1.5094, 1.50974, 1.69129, 1.44678, 1.44344, 1.44414, 1.44061, 1.58976, 1.44114, 1.44005, 1.62684, 1.59043, 1.58924, 1.44004, 1.43975, 1.57626, 1.43758, 1.43889, 1.43691, 1.68154, 1.43825, 1.4373, 1.43752, 1.5228, 1.43886, 1.48836, 1.43849, 1.58452, 1.58539, 1.43604, 1.43628, 1.58655, 1.4352, 1.43502, 1.43495, 1.43152, 1.43267, 1.43407, 1.43142, 1.53238, 1.43174, 1.42855, 1.53524, 1.42948, 1.42971, 1.42907, 1.43003, 1.42595, 1.42731, 1.62944, 1.47852, 1.42444, 1.4774, 1.42561, 1.61209, 1.42647, 1.42504, 1.57676, 1.57803, 1.35295, 1.34888, 1.34954, 1.40568, 1.43983, 1.35331
1.50585, 1.50482, 1.50369, 1.50515, 1.50306, 1.50423, 1.5018, 1.55166, 1.50365, 1.64791, 1.50516, 1.50525, 1.81786, 1.56555, 1.76532, 1.56489, 1.5628, 1.5631, 1.56196, 1.56309, 1.56389, 1.56186, 1.56076, 1.55847, 1.65397, 1.5578, 1.55468, 1.5545, 1.55083, 1.55142, 1.55368, 1.55049, 1.55127, 1.54684, 1.54878, 1.54806, 1.54693, 1.54684, 1.54572, 1.5447, 1.53745, 1.54161, 1.54334, 1.54335, 1.54144, 1.59354, 1.63337, 1.59095, 1.54096, 1.53902, 1.54209, 1.63338, 1.53987, 1.54101, 1.53935, 1.53994, 1.54164, 1.54231, 1.54206, 1.5434, 1.54033, 1.54344, 1.75257, 1.54287, 1.60501, 1.60482, 1.60387, 1.60522, 1.60241, 1.60202, 1.70326, 1.60362, 1.60117, 1.60235, 1.60188, 1.60237, 1.60164, 1.80826, 1.59632, 1.59726, 1.59887, 1.59888, 1.5964, 1.59636, 1.59514, 1.59576, 1.65214, 1.59724, 1.59578, 1.59593, 1.59556, 1.5951, 1.59284, 1.64678, 1.69091, 1.59395, 1.59228, 1.69588, 1.59402, 1.59396, 1.74453, 1.5934, 1.59216, 1.59185, 1.59254, 1.59386, 1.59416, 1.59172, 1.59232, 1.59159, 1.59169, 1.59154, 1.59366, 1.59261, 1.59251, 1.68655, 1.59079, 1.59377, 1.64342, 1.68652, 1.64375, 1.67672, 1.59427, 1.59342, 1.59311, 1.59486, 1.59397, 1.59409, 1.80271, 1.80206, 1.66228, 1.71008, 1.66104, 1.66091, 1.66154, 1.66271, 1.76008, 1.66106, 1.66382, 1.66116, 1.6613, 1.66424, 1.76141, 1.75911, 1.66321, 1.77405, 1.66243, 1.65881, 1.66105, 1.66192, 1.6609, 1.65941, 1.66104, 1.65947, 1.76924, 1.6554, 1.65831, 1.65813, 1.77324, 1.6578, 1.82714, 1.57089, 1.56955, 1.56523, 1.56154, 1.68514, 1.55393, 1.54935, 1.63507, 1.54388, 1.54113, 1.53737, 1.53655, 1.68533, 1.53217, 1.52677, 1.52715, 1.52593, 1.52108, 1.61579, 1.52153, 1.5223, 1.51754, 1.51851, 1.51592, 1.51596, 1.51444, 1.61424, 1.51117, 1.51269, 1.56239, 1.56315, 1.56336, 1.56133, 1.50995, 1.50921, 1.51023, 1.51062, 1.50977, 1.50959, 1.50878, 1.50998, 1.50945, 1.5098, 1.5095, 1.50952, 1.50905, 1.5083, 1.50553, 1.709, 1.50378, 1.50676, 1.50656, 1.50552, 1.50732, 1.50548, 1.5066, 1.5065, 1.50776, 1.5574, 1.50735, 1.50816, 1.50792, 1.5069, 1.65746, 1.50957, 1.50585, 1.51002, 1.50873, 1.50881, 1.50885, 1.56047, 1.65524, 1.60567, 1.5083, 1.56014, 1.55873, 1.56929, 1.44822, 1.44679, 1.44442, 1.44434, 1.4412, 1.43967, 1.44031, 1.44192, 1.4378, 1.43994, 1.44351, 1.43978, 1.61967, 1.43996, 1.43938, 1.43965, 1.68172, 1.44024, 1.72685, 1.43812, 1.4377, 1.43652, 1.48855, 1.51968, 1.43812, 1.58587, 1.43638, 1.58676, 1.4339, 1.43501, 1.43613, 1.433, 1.4341, 1.43576, 1.43281, 1.43479, 1.67974, 1.42681, 1.58944, 1.43204, 1.51908, 1.47926, 1.48176, 1.43043, 1.52649, 1.42743, 1.42706, 1.47875, 1.48027, 1.42868, 1.51076, 1.42339, 1.42493, 1.42634, 1.6181, 1.42618, 1.35388, 1.35321, 1.3516, 1.35067, 1.35362, 1.34964
1.50495, 1.50586, 1.50474, 1.5032, 1.50612, 1.50251, 1.50151, 1.50354, 1.50072, 1.5003, 1.50574, 1.50934, 1.56252, 1.56626, 1.56383, 1.56487, 1.55902, 1.56394, 1.55826, 1.5583, 1.6135, 1.56062, 1.60987, 1.61056, 1.55833, 1.64781, 1.55549, 1.55186, 1.55488, 1.55562, 1.55354, 1.54685, 1.54981, 1.55098, 1.5493, 1.54803, 1.5475, 1.54817, 1.54673, 1.54366, 1.542, 1.54322, 1.54256, 1.59361, 1.59429, 1.63093, 1.6333, 1.59154, 1.59077, 1.59186, 1.54085, 1.54091, 1.53887, 1.54091, 1.54082, 1.54032, 1.64176, 1.54188, 1.54147, 1.54308, 1.54254, 1.54346, 1.62488, 1.54501, 1.60532, 1.60745, 1.60563, 1.60365, 1.60385, 1.60025, 1.60232, 1.60215, 1.60249, 1.60245, 1.59873, 1.60208, 1.75545, 1.59697, 1.59865, 1.59911, 1.59893, 1.59874, 1.59541, 1.59751, 1.59677, 1.59605, 1.59532, 1.65288, 1.65447, 1.59639, 1.59447, 1.59493, 1.59386, 1.64692, 1.6474, 1.59402, 1.59259, 1.59564, 1.59543, 1.6457, 1.64546, 1.59355, 1.59256, 1.59395, 1.59236, 1.59216, 1.59277, 1.81423, 1.59239, 1.59079, 1.59135, 1.59056, 1.74419, 1.59192, 1.59185, 1.67633, 1.68281, 1.58907, 1.5932, 1.59301, 1.5898, 1.59038, 1.59566, 1.59341, 1.59266, 1.59304, 1.811, 1.59552, 1.804, 1.59726, 1.70954, 1.66333, 1.6599, 1.66123, 1.77575, 1.66272, 1.66272, 1.75912, 1.6636, 1.65852, 1.76927, 1.6621, 1.6584, 1.66296, 1.66238, 1.66069, 1.6619, 1.66068, 1.66111, 1.65856, 1.65763, 1.65548, 1.65938, 1.76941, 1.66157, 1.75496, 1.65578, 1.65476, 1.65877, 1.65482, 1.57422, 1.56966, 1.56835, 1.685, 1.78554, 1.65074, 1.68718, 1.6541, 1.54805, 1.54422, 1.54056, 1.53794, 1.53914, 1.53297, 1.532, 1.52965, 1.5277, 1.52662, 1.52111, 1.5247, 1.51907, 1.51883, 1.51966, 1.51866, 1.60735, 1.60764, 1.51374, 1.51557, 1.51313, 1.51532, 1.51467, 1.51252, 1.51149, 1.51274, 1.51091, 1.50859, 1.50914, 1.51268, 1.56116, 1.50649, 1.50816, 1.55887, 1.55859, 1.55726, 1.59611, 1.5044, 1.50514, 1.50521, 1.5043, 1.50661, 1.50662, 1.50225, 1.50355, 1.506, 1.50681, 1.50665, 1.50509, 1.50445, 1.50674, 1.50662, 1.50719, 1.50772, 1.50735, 1.50595, 1.50696, 1.50742, 1.50789, 1.50588, 1.50507, 1.50561, 1.50842, 1.50835, 1.5083, 1.50599, 1.50908, 1.55855, 1.50905, 1.55731, 1.44657, 1.44628, 1.44206, 1.43967, 1.43851, 1.43948, 1.43966, 1.44135, 1.44106, 1.53212, 1.44333, 1.58803, 1.58858, 1.43761, 1.43933, 1.43758, 1.43973, 1.43971, 1.43921, 1.43784, 1.43778, 1.4858, 1.48802, 1.43517, 1.48509, 1.43692, 1.43652, 1.43402, 1.5854, 1.43583, 1.43429, 1.43334, 1.42968, 1.43168, 1.43003, 1.43305, 1.43005, 1.63409, 1.43026, 1.42957, 1.43014, 1.4316, 1.42939, 1.43101, 1.42944, 1.42942, 1.4291, 1.4296, 1.42932, 1.42745, 1.4262, 1.42559, 1.5264, 1.52156, 1.42395, 1.4247, 1.35466, 1.3541, 1.35171, 1.60617, 1.35469, 1.44047
1.50418, 1.5043, 1.50564, 1.50428, 1.66033, 1.50249, 1.50277, 1.50462, 1.50528, 1.50377, 1.55308, 1.50546, 1.56603, 1.56274, 1.81627, 1.56451, 1.56427, 1.56015, 1.56075, 1.55956, 1.6117, 1.56089, 1.60955, 1.64694, 1.64515, 1.61572, 1.65986, 1.55348, 1.55397, 1.55233, 1.55413, 1.55072, 1.55182, 1.54938, 1.54915, 1.54684, 1.54599, 1.59739, 1.54669, 1.54458, 1.59581, 1.59442, 1.6339, 1.54171, 1.59242, 1.54037, 1.5917, 1.59152, 1.59062, 1.53975, 1.54094, 1.59141, 1.53998, 1.54117, 1.5414, 1.62658, 1.54237, 1.83066, 1.54016, 1.5427, 1.54199, 1.54314, 1.63352, 1.54361, 1.60575, 1.60576, 1.60479, 1.60384, 1.71009, 1.60429, 1.60258, 1.60033, 1.76141, 1.6025, 1.70663, 1.59986, 1.59972, 1.59958, 1.59865, 1.59699, 1.59833, 1.59834, 1.59887, 1.59845, 1.75263, 1.59547, 1.59379, 1.68696, 1.65245, 1.59564, 1.59571, 1.59541, 1.59308, 1.6449, 1.59327, 1.59575, 1.59603, 1.59293, 1.59036, 1.59451, 1.64538, 1.59476, 1.59312, 1.59354, 1.59531, 1.59354, 1.59196, 1.59178, 1.59226, 1.81701, 1.59333, 1.59083, 1.59192, 1.59146, 1.58946, 1.68532, 1.59219, 1.59253, 1.5906, 1.59251, 1.59162, 1.59163, 1.59271, 1.59309, 1.59296, 1.59271, 1.59478, 1.59694, 1.68104, 1.68926, 1.66092, 1.65957, 1.76453, 1.65972, 1.66002, 1.66235, 1.65982, 1.66218, 1.66211, 1.66131, 1.66151, 1.76116, 1.66242, 1.65995, 1.66052, 1.66116, 1.66128, 1.65888, 1.65927, 1.65898, 1.6602, 1.65752, 1.65752, 1.65831, 1.77469, 1.65574, 1.65811, 1.65768, 1.65628, 1.65393, 1.57221, 1.56912, 1.56706, 1.56177, 1.55867, 1.55396, 1.68852, 1.54882, 1.54519, 1.54403, 1.54038, 1.5375, 1.53238, 1.53122, 1.52953, 1.84053, 1.52597, 1.52604, 1.52378, 1.52258, 1.6678, 1.51737, 1.51574, 1.51911, 1.51775, 1.51646, 1.51546, 1.51323, 1.51262, 1.51074, 1.514, 1.67164, 1.72001, 1.72022, 1.51148, 1.50929, 1.50887, 1.50787, 1.55893, 1.59464, 1.6097, 1.50897, 1.50691, 1.55708, 1.50682, 1.50633, 1.50556, 1.50197, 1.50226, 1.50551, 1.50298, 1.50356, 1.69915, 1.50492, 1.50489, 1.55354, 1.5042, 1.50575, 1.50589, 1.50277, 1.50615, 1.50527, 1.50377, 1.50746, 1.50719, 1.50717, 1.50666, 1.50879, 1.65397, 1.50745, 1.65484, 1.65527, 1.65434, 1.50912, 1.50895, 1.50896, 1.50642, 1.59786, 1.62072, 1.58832, 1.58843, 1.44008, 1.6811, 1.68322, 1.43865, 1.48951, 1.43832, 1.43839, 1.44032, 1.43511, 1.43978, 1.43685, 1.43838, 1.43646, 1.43939, 1.6787, 1.43831, 1.43635, 1.43618, 1.43836, 1.4375, 1.52316, 1.43287, 1.43415, 1.48698, 1.43628, 1.43325, 1.43472, 1.43276, 1.43147, 1.42888, 1.4309, 1.43149, 1.43287, 1.42917, 1.42901, 1.42959, 1.42979, 1.42743, 1.50851, 1.42596, 1.42908, 1.43025, 1.42762, 1.4297, 1.42655, 1.42455, 1.42843, 1.51287, 1.42827, 1.42673, 1.42568, 1.57823, 1.42548, 1.35392, 1.35553, 1.35333, 1.35271, 1.35154, 1.44686
1.50414, 1.50552, 1.5051, 1.5003, 1.50405, 1.50486, 1.50472, 1.50192, 1.50339, 1.50315, 1.50207, 1.50229, 1.56496, 1.56249, 1.56262, 1.56285, 1.56229, 1.55828, 1.5622, 1.55922, 1.61111, 1.56063, 1.56125, 1.60971, 1.70573, 1.70545, 1.55251, 1.55627, 1.5547, 1.60565, 1.61298, 1.6471, 1.55194, 1.55129, 1.54856, 1.65066, 1.54794, 1.59617, 1.54416, 1.54459, 1.64716, 1.64385, 1.54421, 1.53812, 1.54355, 1.59347, 1.59287, 1.59286, 1.63395, 1.54073, 1.54246, 1.64021, 1.54005, 1.53955, 1.59057, 1.6261, 1.62973, 1.54035, 1.59175, 1.63366, 1.5412, 1.54099, 1.54236, 1.54525, 1.60302, 1.60345, 1.60392, 1.60505, 1.68353, 1.60255, 1.60256, 1.60228, 1.6018, 1.60111, 1.60183, 1.60176, 1.59896, 1.59732, 1.59848, 1.59884, 1.59879, 1.59716, 1.59831, 1.59681, 1.75255, 1.59558, 1.59716, 1.5954, 1.75189, 1.59514, 1.6459, 1.59555, 1.59535, 1.68542, 1.59581, 1.59387, 1.5936, 1.81352, 1.59186, 1.59591, 1.59255, 1.59196, 1.59427, 1.74585, 1.592, 1.59203, 1.64583, 1.59167, 1.59258, 1.58967, 1.58848, 1.59223, 1.58947, 1.59101, 1.59205, 1.59273, 1.59151, 1.5927, 1.59022, 1.68845, 1.64353, 1.64409, 1.59284, 1.5953, 1.59383, 1.59252, 1.79022, 1.59381, 1.68245, 1.74413, 1.66127, 1.65854, 1.65987, 1.66164, 1.66162, 1.6609, 1.65998, 1.66107, 1.71547, 1.6611, 1.66247, 1.75825, 1.66166, 1.66185, 1.6579, 1.7825, 1.76561, 1.66084, 1.77519, 1.77384, 1.78491, 1.65773, 1.65769, 1.6556, 1.65804, 1.65747, 1.65749, 1.65316, 1.658, 1.76683, 1.57351, 1.57033, 1.56438, 1.564, 1.55881, 1.55494, 1.55228, 1.59945, 1.54362, 1.54208, 1.58896, 1.53772, 1.68241, 1.5331, 1.5294, 1.60679, 1.52669, 1.52469, 1.52302, 1.5228, 1.51762, 1.51681, 1.51728, 1.51632, 1.51614, 1.51667, 1.71709, 1.51546, 1.51361, 1.5136, 1.67025, 1.67186, 1.67118, 1.50929, 1.77285, 1.5055, 1.51043, 1.50977, 1.50728, 1.55758, 1.50898, 1.50685, 1.50702, 1.50874, 1.50657, 1.5046, 1.50425, 1.50556, 1.50564, 1.50644, 1.50612, 1.50594, 1.50517, 1.50616, 1.65727, 1.50289, 1.50424, 1.50461, 1.50397, 1.50542, 1.50378, 1.50322, 1.50492, 1.50514, 1.50578, 1.50618, 1.50795, 1.50683, 1.50586, 1.50599, 1.55945, 1.55736, 1.66141, 1.50898, 1.50916, 1.5091, 1.65235, 1.6622, 1.44594, 1.58886, 1.58979, 1.44015, 1.4404, 1.44101, 1.4425, 1.43766, 1.43912, 1.43897, 1.4894, 1.43845, 1.43858, 1.43688, 1.43521, 1.43639, 1.43857, 1.43632, 1.43532, 1.43642, 1.43631, 1.61699, 1.62591, 1.58551, 1.43588, 1.43495, 1.43175, 1.43315, 1.43013, 1.43268, 1.43157, 1.43161, 1.42851, 1.43114, 1.43299, 1.4295, 1.43109, 1.43183, 1.42652, 1.42778, 1.42622, 1.42719, 1.42703, 1.43133, 1.42626, 1.42608, 1.42624, 1.42835, 1.42852, 1.58226, 1.5262, 1.52371, 1.51649, 1.42524, 1.42498, 1.42511, 1.35474, 1.3533, 1.6049, 1.35326, 1.45415, 1.3534
1.5057, 1.4996, 1.50457, 1.55387, 1.50407, 1.5039, 1.5053, 1.50402, 1.50347, 1.50398, 1.64763, 1.50567, 1.56427, 1.5643, 1.56414, 1.56146, 1.55983, 1.56413, 1.56202, 1.5604, 1.55945, 1.5598, 1.75495, 1.56069, 1.5603, 1.64391, 1.55149, 1.55172, 1.6058, 1.60325, 1.55384, 1.55073, 1.54818, 1.5502, 1.54805, 1.54903, 1.54819, 1.59849, 1.54663, 1.54465, 1.54473, 1.54111, 1.54106, 1.54213, 1.54281, 1.59402, 1.53756, 1.54208, 1.54025, 1.5404, 1.53906, 1.54051, 1.59233, 1.59192, 1.59166, 1.53994, 1.59213, 1.54326, 1.62404, 1.59495, 1.54436, 1.54354, 1.54458, 1.54561, 1.60701, 1.60314, 1.60349, 1.60329, 1.60326, 1.60378, 1.59986, 1.60191, 1.59667, 1.59885, 1.60214, 1.5992, 1.60152, 1.59872, 1.65177, 1.59827, 1.59945, 1.59524, 1.59573, 1.75414, 1.59454, 1.59397, 1.70466, 1.59325, 1.59342, 1.59577, 1.59641, 1.59676, 1.59448, 1.59513, 1.81426, 1.59556, 1.5943, 1.59508, 1.59351, 1.59498, 1.67789, 1.64493, 1.64491, 1.64423, 1.59345, 1.59086, 1.59322, 1.6427, 1.67896, 1.59081, 1.59242, 1.59191, 1.59229, 1.68829, 1.59188, 1.59013, 1.59053, 1.59047, 1.59182, 1.58897, 1.58848, 1.59088, 1.58855, 1.64251, 1.5945, 1.59382, 1.59459, 1.59515, 1.59646, 1.5936, 1.65746, 1.65642, 1.65981, 1.66077, 1.66027, 1.66098, 1.7765, 1.75809, 1.66178, 1.71537, 1.71304, 1.66076, 1.71023, 1.65993, 1.66067, 1.76558, 1.66205, 1.65852, 1.65908, 1.65889, 1.65735, 1.65785, 1.77191, 1.65732, 1.65757, 1.65644, 1.65481, 1.77377, 1.77278, 1.65684, 1.57501, 1.81617, 1.5649, 1.56118, 1.60781, 1.67008, 1.55293, 1.59856, 1.59504, 1.59278, 1.53928, 1.53648, 1.68699, 1.52853, 1.5272, 1.52529, 1.52408, 1.52713, 1.52175, 1.52224, 1.51867, 1.516, 1.516, 1.51647, 1.51641, 1.5145, 1.51464, 1.51384, 1.51351, 1.51248, 1.51039, 1.51, 1.50987, 1.50958, 1.50996, 1.50979, 1.50822, 1.50995, 1.504, 1.50643, 1.59956, 1.5944, 1.50568, 1.50874, 1.50253, 1.50413, 1.50696, 1.50375, 1.5039, 1.50516, 1.50547, 1.50515, 1.50194, 1.50343, 1.65617, 1.50252, 1.50188, 1.65753, 1.65716, 1.50574, 1.50608, 1.50335, 1.50413, 1.60917, 1.69258, 1.50291, 1.50586, 1.50605, 1.5059, 1.50551, 1.5044, 1.55775, 1.5574, 1.50608, 1.50556, 1.50857, 1.50846, 1.50842, 1.49632, 1.4408, 1.44132, 1.44008, 1.44048, 1.43934, 1.44015, 1.43606, 1.43756, 1.43798, 1.52671, 1.43974, 1.43615, 1.43484, 1.43775, 1.43678, 1.43627, 1.43731, 1.43483, 1.43709, 1.58348, 1.43466, 1.43449, 1.43662, 1.58563, 1.43202, 1.43584, 1.43288, 1.42995, 1.72459, 1.43135, 1.4313, 1.43249, 1.43132, 1.42543, 1.42764, 1.43043, 1.43029, 1.43007, 1.43173, 1.62858, 1.42875, 1.58271, 1.58263, 1.42883, 1.42557, 1.42721, 1.42565, 1.42655, 1.42623, 1.42595, 1.52316, 1.51782, 1.42318, 1.42338, 1.42208, 1.35396, 1.35227, 1.35144, 1.3523, 1.34984, 1.35018
1.5061, 1.55554, 1.55323, 1.55385, 1.55315, 1.55367, 1.50157, 1.5031, 1.50273, 1.63381, 1.5058, 1.50585, 1.56313, 1.61588, 1.61452, 1.61405, 1.56414, 1.56186, 1.56053, 1.56076, 1.55984, 1.55812, 1.5584, 1.61169, 1.60956, 1.60886, 1.55692, 1.55597, 1.55577, 1.55459, 1.55368, 1.5523, 1.55363, 1.64182, 1.55022, 1.55017, 1.54444, 1.54544, 1.54707, 1.59522, 1.54391, 1.63647, 1.54236, 1.54145, 1.54156, 1.54094, 1.54339, 1.54191, 1.54014, 1.54225, 1.54221, 1.54128, 1.54337, 1.54022, 1.54066, 1.54091, 1.54174, 1.59324, 1.59282, 1.5932, 1.59279, 1.59496, 1.54386, 1.5441, 1.60625, 1.60625, 1.60546, 1.60573, 1.71994, 1.60273, 1.59994, 1.60008, 1.60214, 1.59924, 1.60115, 1.60117, 1.60082, 1.59844, 1.59802, 1.59698, 1.59555, 1.59927, 1.59767, 1.75206, 1.5939, 1.59578, 1.59973, 1.59854, 1.75156, 1.59657, 1.59748, 1.59509, 1.59666, 1.59285, 1.59347, 1.59421, 1.59412, 1.74748, 1.59378, 1.59322, 1.64423, 1.5942, 1.65181, 1.64627, 1.64373, 1.59258, 1.5932, 1.68168, 1.592, 1.74416, 1.67338, 1.59219, 1.68867, 1.59176, 1.59169, 1.58992, 1.58962, 1.59166, 1.59214, 1.59062, 1.59342, 1.59154, 1.59216, 1.5919, 1.59237, 1.64383, 1.59355, 1.67311, 1.59384, 1.79975, 1.77466, 1.78288, 1.66036, 1.76628, 1.76497, 1.65816, 1.77556, 1.65998, 1.66153, 1.66159, 1.66191, 1.6596, 1.66046, 1.7792, 1.66125, 1.65808, 1.66081, 1.65854, 1.79572, 1.65498, 1.65761, 1.65651, 1.65848, 1.76906, 1.77903, 1.76739, 1.65768, 1.65629, 1.65626, 1.65552, 1.57164, 1.61907, 1.56186, 1.56079, 1.60795, 1.66815, 1.55079, 1.59752, 1.59467, 1.54032, 1.68698, 1.53677, 1.53206, 1.52935, 1.52864, 1.52742, 1.52276, 1.52575, 1.59227, 1.52208, 1.52177, 1.56815, 1.56827, 1.51415, 1.51728, 1.51608, 1.51138, 1.51461, 1.51409, 1.51239, 1.51199, 1.60424, 1.56006, 1.56031, 1.5083, 1.50777, 1.50581, 1.50691, 1.5576, 1.50572, 1.5568, 1.50642, 1.50585, 1.50613, 1.50556, 1.50568, 1.50408, 1.50539, 1.50456, 1.50299, 1.50293, 1.50185, 1.65722, 1.65557, 1.50213, 1.65826, 1.50285, 1.65774, 1.65786, 1.65684, 1.65413, 1.50213, 1.50444, 1.50583, 1.65251, 1.50563, 1.66923, 1.50631, 1.50738, 1.50662, 1.50615, 1.65223, 1.50581, 1.50459, 1.50838, 1.50661, 1.50655, 1.50549, 1.49736, 1.44349, 1.49161, 1.43794, 1.43869, 1.43954, 1.43979, 1.44038, 1.44065, 1.43931, 1.43947, 1.43593, 1.52711, 1.43643, 1.43636, 1.48698, 1.43627, 1.58444, 1.43624, 1.43438, 1.434, 1.43482, 1.58329, 1.61412, 1.48397, 1.42912, 1.43468, 1.43444, 1.4314, 1.42982, 1.43151, 1.43098, 1.43309, 1.71446, 1.43034, 1.43304, 1.43112, 1.43267, 1.52925, 1.42938, 1.43057, 1.52421, 1.58315, 1.42496, 1.42503, 1.42718, 1.42676, 1.42515, 1.42565, 1.42907, 1.42605, 1.42664, 1.42537, 1.4257, 1.42451, 1.42057, 1.35331, 1.35134, 1.44848, 1.35251, 1.35116, 1.35189
1.50362, 1.50357, 1.50373, 1.55215, 1.55289, 1.5533, 1.50469, 1.64783, 1.50375, 1.74876, 1.5025, 1.50344, 1.66097, 1.56604, 1.62252, 1.61537, 1.61424, 1.61277, 1.56171, 1.56052, 1.5596, 1.71365, 1.55931, 1.60923, 1.55711, 1.55686, 1.55641, 1.55774, 1.55585, 1.5537, 1.5528, 1.55147, 1.55052, 1.60176, 1.59983, 1.60004, 1.54585, 1.54575, 1.59589, 1.5471, 1.54581, 1.546, 1.54478, 1.54502, 1.5433, 1.54335, 1.54276, 1.54308, 1.54161, 1.54068, 1.54031, 1.54094, 1.5416, 1.53777, 1.53858, 1.54047, 1.54164, 1.54203, 1.54038, 1.54243, 1.59989, 1.54356, 1.59698, 1.54487, 1.60613, 1.60567, 1.60264, 1.60222, 1.60074, 1.60059, 1.60122, 1.59797, 1.60114, 1.60152, 1.59885, 1.60115, 1.70523, 1.59999, 1.59644, 1.59683, 1.59821, 1.59855, 1.59844, 1.75131, 1.59514, 1.69165, 1.59577, 1.59746, 1.59656, 1.59719, 1.68025, 1.59601, 1.59552, 1.59217, 1.59267, 1.59302, 1.59488, 1.74774, 1.5938, 1.59228, 1.5922, 1.64365, 1.59489, 1.5929, 1.59425, 1.59275, 1.59216, 1.59038, 1.74309, 1.59379, 1.74478, 1.74465, 1.59161, 1.59183, 1.59151, 1.59037, 1.8057, 1.59173, 1.58984, 1.58997, 1.58841, 1.59154, 1.58971, 1.6427, 1.64267, 1.64241, 1.64326, 1.64426, 1.64442, 1.59508, 1.65864, 1.65869, 1.65807, 1.65853, 1.65963, 1.76561, 1.65971, 1.65997, 1.77817, 1.65884, 1.6587, 1.66085, 1.77282, 1.66148, 1.78207, 1.65896, 1.65913, 1.77036, 1.75807, 1.65492, 1.65801, 1.65627, 1.65872, 1.65709, 1.77529, 1.65708, 1.65429, 1.65694, 1.65509, 1.75913, 1.57006, 1.61594, 1.55989, 1.55758, 1.60939, 1.55091, 1.54965, 1.54631, 1.59332, 1.54135, 1.68183, 1.53655, 1.63069, 1.53021, 1.52891, 1.57768, 1.57634, 1.52225, 1.66572, 1.52225, 1.52073, 1.51707, 1.51936, 1.51387, 1.56608, 1.56472, 1.56451, 1.51318, 1.5122, 1.60966, 1.51065, 1.5115, 1.55958, 1.55898, 1.50851, 1.50732, 1.5087, 1.50892, 1.50666, 1.50947, 1.50425, 1.50752, 1.50546, 1.50574, 1.50317, 1.50241, 1.50229, 1.50336, 1.50501, 1.50311, 1.50259, 1.50256, 1.55273, 1.49971, 1.50225, 1.50261, 1.50234, 1.50236, 1.50273, 1.50256, 1.5039, 1.50406, 1.50429, 1.50519, 1.50287, 1.50263, 1.50227, 1.50645, 1.59265, 1.50416, 1.50542, 1.50321, 1.50638, 1.50493, 1.50516, 1.50414, 1.55511, 1.50597, 1.44398, 1.44091, 1.44257, 1.44132, 1.49143, 1.49059, 1.43869, 1.44015, 1.43689, 1.43673, 1.48797, 1.43646, 1.4375, 1.43546, 1.43587, 1.43563, 1.43441, 1.43633, 1.59191, 1.43644, 1.43471, 1.43405, 1.43451, 1.48407, 1.43299, 1.43119, 1.43223, 1.43135, 1.43081, 1.43013, 1.42911, 1.42845, 1.48136, 1.51644, 1.42691, 1.42907, 1.4298, 1.47974, 1.43116, 1.43177, 1.4295, 1.42922, 1.42947, 1.42916, 1.42647, 1.42821, 1.42909, 1.42765, 1.42485, 1.42928, 1.42645, 1.47716, 1.42595, 1.42264, 1.42567, 1.47445, 1.35163, 1.34994, 1.44211, 1.42569, 1.43858, 1.34935
1.58711, 1.58858, 1.50389, 1.55408, 1.55242, 1.56921, 1.50247, 1.50524, 1.50235, 1.50338, 1.50193, 1.50083, 1.56483, 1.56506, 1.61467, 1.61481, 1.56222, 1.55899, 1.56044, 1.55723, 1.56041, 1.55832, 1.6099, 1.55834, 1.55747, 1.81754, 1.55699, 1.55692, 1.55697, 1.60365, 1.55339, 1.55177, 1.55082, 1.5503, 1.59983, 1.60157, 1.54874, 1.5471, 1.54701, 1.59522, 1.54685, 1.54444, 1.54401, 1.54302, 1.54209, 1.54266, 1.60898, 1.54302, 1.61239, 1.54049, 1.5423, 1.54264, 1.54016, 1.54367, 1.54003, 1.54048, 1.54306, 1.54338, 1.54299, 1.54297, 1.54182, 1.54189, 1.54383, 1.54342, 1.60418, 1.60399, 1.6018, 1.65411, 1.60166, 1.6, 1.59969, 1.69988, 1.602, 1.60039, 1.59902, 1.60025, 1.59976, 1.59666, 1.59843, 1.59915, 1.59913, 1.59916, 1.59466, 1.59652, 1.734, 1.59638, 1.5975, 1.5975, 1.59578, 1.83363, 1.59328, 1.59831, 1.59484, 1.59743, 1.5951, 1.64684, 1.59376, 1.59351, 1.59567, 1.59047, 1.59558, 1.59291, 1.64341, 1.592, 1.59304, 1.59273, 1.59241, 1.58903, 1.58554, 1.59305, 1.59151, 1.74393, 1.59115, 1.59137, 1.59166, 1.58639, 1.59162, 1.5916, 1.58816, 1.58853, 1.58988, 1.59034, 1.58899, 1.59148, 1.67789, 1.6437, 1.67248, 1.6728, 1.64422, 1.59521, 1.65887, 1.6575, 1.65804, 1.75716, 1.71989, 1.65783, 1.65808, 1.6585, 1.65962, 1.6583, 1.6606, 1.66053, 1.76464, 1.66096, 1.65917, 1.65641, 1.66039, 1.65894, 1.65818, 1.65739, 1.65384, 1.65762, 1.65734, 1.76881, 1.65379, 1.65443, 1.65629, 1.65688, 1.65393, 1.65481, 1.56769, 1.56492, 1.56156, 1.60716, 1.55533, 1.66477, 1.54889, 1.59534, 1.66823, 1.63838, 1.79283, 1.53284, 1.62447, 1.53055, 1.58002, 1.5265, 1.57563, 1.52207, 1.51884, 1.51902, 1.51816, 1.51321, 1.51308, 1.51572, 1.51434, 1.513, 1.51122, 1.51414, 1.51227, 1.51107, 1.65811, 1.50989, 1.57974, 1.55694, 1.50898, 1.50744, 1.50842, 1.50627, 1.50706, 1.50351, 1.50283, 1.50506, 1.50605, 1.50077, 1.5036, 1.50373, 1.50458, 1.50267, 1.50226, 1.50354, 1.55875, 1.5022, 1.55365, 1.5004, 1.50095, 1.50212, 1.55278, 1.59384, 1.59324, 1.50253, 1.50255, 1.64837, 1.55421, 1.50275, 1.5002, 1.50082, 1.50292, 1.502, 1.50604, 1.50535, 1.50427, 1.50422, 1.50488, 1.50558, 1.50294, 1.6753, 1.50309, 1.50222, 1.44274, 1.44379, 1.44139, 1.44012, 1.48938, 1.43769, 1.43931, 1.43941, 1.43969, 1.48726, 1.43653, 1.43754, 1.4384, 1.43676, 1.43424, 1.43163, 1.43471, 1.43642, 1.43424, 1.43643, 1.43516, 1.6192, 1.43592, 1.48426, 1.52944, 1.4309, 1.43501, 1.43053, 1.43077, 1.43099, 1.48001, 1.42933, 1.42974, 1.48044, 1.48029, 1.48953, 1.42754, 1.47834, 1.42738, 1.42742, 1.42887, 1.42748, 1.47949, 1.42962, 1.42923, 1.42905, 1.42828, 1.42731, 1.42807, 1.42706, 1.42696, 1.42677, 1.42672, 1.50666, 1.4238, 1.4248, 1.35101, 1.34863, 1.35207, 1.34953, 1.3499, 1.3537
1.55268, 1.55254, 1.55399, 1.55301, 1.5525, 1.50321, 1.74689, 1.50524, 1.50357, 1.50132, 1.5047, 1.50332, 1.56563, 1.56444, 1.56431, 1.5651, 1.56127, 1.56292, 1.55838, 1.55979, 1.56159, 1.56092, 1.61135, 1.55947, 1.56029, 1.55698, 1.55681, 1.55562, 1.65074, 1.55328, 1.55162, 1.55067, 1.54976, 1.55049, 1.54887, 1.54715, 1.54623, 1.549, 1.54792, 1.54554, 1.59556, 1.59444, 1.5948, 1.54331, 1.54271, 1.59233, 1.59229, 1.5937, 1.59435, 1.54327, 1.86462, 1.54102, 1.59196, 1.59143, 1.5415, 1.54165, 1.54105, 1.54094, 1.53756, 1.54198, 1.54348, 1.54294, 1.78975, 1.54408, 1.8271, 1.60534, 1.6038, 1.65398, 1.65316, 1.60206, 1.60181, 1.60236, 1.6019, 1.82737, 1.59985, 1.59857, 1.59847, 1.59867, 1.59892, 1.59861, 1.59642, 1.68155, 1.64764, 1.64922, 1.5959, 1.59675, 1.59875, 1.74847, 1.5952, 1.59697, 1.59645, 1.59856, 1.74738, 1.74738, 1.59661, 1.59336, 1.59619, 1.59559, 1.59254, 1.59589, 1.59271, 1.69127, 1.5929, 1.59352, 1.59213, 1.80696, 1.58811, 1.59274, 1.59126, 1.58927, 1.58917, 1.58883, 1.58918, 1.81327, 1.59017, 1.58711, 1.58826, 1.58887, 1.58984, 1.59131, 1.58888, 1.59019, 1.58951, 1.64184, 1.64096, 1.67491, 1.58992, 1.58826, 1.5927, 1.5949, 1.79635, 1.65758, 1.65777, 1.72195, 1.72045, 1.77546, 1.65861, 1.77261, 1.76048, 1.77513, 1.66076, 1.66116, 1.65866, 1.77467, 1.76621, 1.76736, 1.76576, 1.65901, 1.65623, 1.6578, 1.65704, 1.65719, 1.65596, 1.65687, 1.65675, 1.65427, 1.6536, 1.7694, 1.65778, 1.65262, 1.56783, 1.56394, 1.82057, 1.55645, 1.69182, 1.55052, 1.54787, 1.54788, 1.68658, 1.68607, 1.53668, 1.5353, 1.53089, 1.53053, 1.52684, 1.52434, 1.52482, 1.52329, 1.5235, 1.51819, 1.5168, 1.51912, 1.51803, 1.60965, 1.5132, 1.60995, 1.51457, 1.5131, 1.51161, 1.50865, 1.51065, 1.50918, 1.50564, 1.50999, 1.65868, 1.50856, 1.50692, 1.50742, 1.50534, 1.50691, 1.5054, 1.50278, 1.50419, 1.50407, 1.50542, 1.50331, 1.59516, 1.50205, 1.60385, 1.60314, 1.50119, 1.55055, 1.58813, 1.58864, 1.50267, 1.50105, 1.50031, 1.55068, 1.49862, 1.49987, 1.5002, 1.50286, 1.55236, 1.50175, 1.50172, 1.50329, 1.59841, 1.50518, 1.50237, 1.49957, 1.50529, 1.55543, 1.50607, 1.506, 1.50341, 1.50547, 1.50552, 1.68843, 1.44342, 1.44253, 1.44324, 1.43987, 1.43956, 1.58636, 1.58823, 1.43444, 1.43677, 1.43494, 1.43838, 1.43775, 1.43339, 1.43453, 1.4351, 1.48732, 1.49257, 1.43267, 1.43335, 1.43477, 1.43088, 1.43256, 1.43155, 1.48234, 1.43306, 1.43134, 1.43306, 1.43148, 1.48138, 1.4998, 1.43018, 1.42995, 1.43012, 1.51293, 1.47919, 1.43072, 1.43116, 1.42777, 1.42744, 1.43021, 1.42986, 1.42721, 1.47746, 1.42976, 1.47781, 1.47817, 1.48114, 1.42795, 1.42707, 1.47418, 1.42481, 1.42611, 1.42821, 1.42414, 1.47358, 1.51349, 1.35012, 1.35222, 1.3498, 1.34836, 1.34765, 1.34745
1.56362, 1.55389, 1.50271, 1.50388, 1.50078, 1.50529, 1.74779, 1.50504, 1.50286, 1.50269, 1.50633, 1.5065, 1.56271, 1.5656, 1.56408, 1.56359, 1.56453, 1.56233, 1.55985, 1.65452, 1.61195, 1.55769, 1.55876, 1.61071, 1.55291, 1.55588, 1.55702, 1.55485, 1.55478, 1.55396, 1.60361, 1.60271, 1.55204, 1.54697, 1.54867, 1.5475, 1.54839, 1.54888, 1.54376, 1.55072, 1.59605, 1.59577, 1.54356, 1.54509, 1.54362, 1.60222, 1.59505, 1.54261, 1.54327, 1.54032, 1.86386, 1.59312, 1.59249, 1.59119, 1.54247, 1.59404, 1.54099, 1.53903, 1.54153, 1.54177, 1.54189, 1.59392, 1.54229, 1.54526, 1.60344, 1.60256, 1.60433, 1.60032, 1.60009, 1.6012, 1.60091, 1.60213, 1.70212, 1.5992, 1.59965, 1.59781, 1.59836, 1.59679, 1.5976, 1.59878, 1.64767, 1.65101, 1.59665, 1.59864, 1.68185, 1.64682, 1.59626, 1.59473, 1.59708, 1.59698, 1.59426, 1.74761, 1.59526, 1.59552, 1.59533, 1.59431, 1.5932, 1.5949, 1.5923, 1.59397, 1.59199, 1.59183, 1.58977, 1.5925, 1.59158, 1.59268, 1.80483, 1.59126, 1.59044, 1.64276, 1.59101, 1.5906, 1.67063, 1.58916, 1.81721, 1.5875, 1.59135, 1.58874, 1.58837, 1.58812, 1.59065, 1.59118, 1.58988, 1.59186, 1.59023, 1.64132, 1.59207, 1.67481, 1.64238, 1.73847, 1.70719, 1.76233, 1.65812, 1.65924, 1.65827, 1.65783, 1.7688, 1.77282, 1.75941, 1.76111, 1.65971, 1.66009, 1.66035, 1.77895, 1.65701, 1.65712, 1.76435, 1.65531, 1.77397, 1.6563, 1.65692, 1.65733, 1.65728, 1.65576, 1.65524, 1.70476, 1.65313, 1.65516, 1.65175, 1.7643, 1.56834, 1.56415, 1.55974, 1.55082, 1.55123, 1.54758, 1.54722, 1.793, 1.54057, 1.73336, 1.62303, 1.6762, 1.53292, 1.52986, 1.52824, 1.52425, 1.52319, 1.52032, 1.52259, 1.51843, 1.51627, 1.51614, 1.51533, 1.60797, 1.51386, 1.51272, 1.51141, 1.51397, 1.5113, 1.51061, 1.5095, 1.50698, 1.50708, 1.50803, 1.50716, 1.50729, 1.50253, 1.50572, 1.50602, 1.50385, 1.50517, 1.50523, 1.50365, 1.50509, 1.55172, 1.55218, 1.50296, 1.5504, 1.54969, 1.49974, 1.50239, 1.49893, 1.49988, 1.50165, 1.49958, 1.50134, 1.54911, 1.50027, 1.49791, 1.498, 1.50047, 1.55192, 1.50056, 1.49974, 1.50248, 1.50338, 1.50275, 1.49884, 1.50359, 1.50465, 1.50576, 1.50521, 1.55415, 1.5041, 1.55435, 1.55537, 1.50387, 1.59168, 1.44615, 1.44117, 1.44052, 1.68598, 1.43807, 1.43721, 1.43678, 1.58633, 1.58466, 1.43914, 1.58472, 1.43296, 1.43694, 1.43627, 1.43389, 1.43343, 1.43565, 1.43461, 1.4348, 1.43377, 1.52621, 1.43102, 1.43401, 1.51909, 1.48188, 1.43023, 1.43306, 1.42948, 1.4297, 1.42734, 1.42979, 1.5154, 1.48007, 1.47939, 1.42995, 1.42773, 1.42729, 1.42651, 1.63519, 1.43054, 1.42737, 1.4305, 1.42923, 1.47816, 1.4787, 1.42732, 1.42507, 1.42442, 1.42669, 1.42804, 1.42962, 1.42392, 1.42619, 1.42591, 1.42578, 1.41966, 1.35395, 1.34811, 1.35259, 1.34978, 1.35022, 1.55088
1.50365, 1.50336, 1.64915, 1.50138, 1.50498, 1.50291, 1.5025, 1.50237, 1.50361, 1.50566, 1.5037, 1.75869, 1.72369, 1.56123, 1.56236, 1.56137, 1.56144, 1.56122, 1.61312, 1.56088, 1.5612, 1.56034, 1.55766, 1.55889, 1.66367, 1.55719, 1.55548, 1.55492, 1.55386, 1.60351, 1.60343, 1.63966, 1.54787, 1.55059, 1.5509, 1.60201, 1.54456, 1.59856, 1.54672, 1.54773, 1.54598, 1.54474, 1.54357, 1.54483, 1.54363, 1.54179, 1.54289, 1.54023, 1.54319, 1.5426, 1.54254, 1.53906, 1.54218, 1.54249, 1.5417, 1.54254, 1.59189, 1.54063, 1.54021, 1.54312, 1.62305, 1.59274, 1.54385, 1.54402, 1.60189, 1.60386, 1.60094, 1.6541, 1.60043, 1.59773, 1.59945, 1.60112, 1.59563, 1.60045, 1.5999, 1.59929, 1.59925, 1.59626, 1.6988, 1.59775, 1.59645, 1.64793, 1.59682, 1.68159, 1.64692, 1.64752, 1.59524, 1.59538, 1.59489, 1.59568, 1.59538, 1.59643, 1.59598, 1.64698, 1.67826, 1.59397, 1.59492, 1.59505, 1.59328, 1.59515, 1.59003, 1.59195, 1.59193, 1.59002, 1.58922, 1.58821, 1.59216, 1.59181, 1.64094, 1.58846, 1.58984, 1.6434, 1.58937, 1.58712, 1.58789, 1.58877, 1.58895, 1.5892, 1.58777, 1.58854, 1.58847, 1.58919, 1.59176, 1.58887, 1.58877, 1.58861, 1.59146, 1.64166, 1.59272, 1.59168, 1.70754, 1.65761, 1.70594, 1.65867, 1.65556, 1.65395, 1.65864, 1.76586, 1.65514, 1.65782, 1.6599, 1.65946, 1.65729, 1.65536, 1.65629, 1.65669, 1.76729, 1.65743, 1.65518, 1.65768, 1.65641, 1.65626, 1.77361, 1.65449, 1.655, 1.74481, 1.65425, 1.65161, 1.65125, 1.56831, 1.56803, 1.56167, 1.55807, 1.55654, 1.68292, 1.54898, 1.54741, 1.5433, 1.54306, 1.53694, 1.53489, 1.53306, 1.53039, 1.52774, 1.52627, 1.52525, 1.52439, 1.52245, 1.52075, 1.5159, 1.51978, 1.51785, 1.51382, 1.5129, 1.51233, 1.51156, 1.56311, 1.51127, 1.51087, 1.65506, 1.65714, 1.50946, 1.50876, 1.50837, 1.50332, 1.50711, 1.50569, 1.50844, 1.50095, 1.50575, 1.50357, 1.50337, 1.50319, 1.50185, 1.55233, 1.50207, 1.59007, 1.4992, 1.50134, 1.50006, 1.49878, 1.60503, 1.4983, 1.50012, 1.49897, 1.50041, 1.55008, 1.50068, 1.49754, 1.49853, 1.49896, 1.50205, 1.49913, 1.50195, 1.50273, 1.50307, 1.50154, 1.59213, 1.50342, 1.50179, 1.50192, 1.55425, 1.57549, 1.50303, 1.50424, 1.55405, 1.50461, 1.50466, 1.43775, 1.43995, 1.43848, 1.44109, 1.43826, 1.43609, 1.43923, 1.43817, 1.43651, 1.43359, 1.43389, 1.4366, 1.61327, 1.43526, 1.43641, 1.43264, 1.43305, 1.43422, 1.43436, 1.43083, 1.52315, 1.43267, 1.43131, 1.43247, 1.42933, 1.42952, 1.69943, 1.42914, 1.42766, 1.4276, 1.47886, 1.47766, 1.47879, 1.51296, 1.43227, 1.42982, 1.42955, 1.42909, 1.42654, 1.42739, 1.43012, 1.42829, 1.42955, 1.42762, 1.42804, 1.42889, 1.42515, 1.42585, 1.42627, 1.42589, 1.4244, 1.42566, 1.42541, 1.42554, 1.41918, 1.4207, 1.44003, 1.34715, 1.34766, 1.34638, 1.34756, 1.3484
1.50119, 1.50489, 1.65222, 1.50427, 1.50342, 1.5021, 1.50338, 1.64768, 1.50182, 1.50418, 1.64493, 1.50547, 1.56569, 1.56392, 1.56293, 1.56308, 1.56184, 1.56242, 1.6125, 1.65424, 1.56109, 1.55969, 1.55718, 1.55785, 1.55577, 1.55674, 1.55632, 1.55705, 1.60321, 1.6025, 1.55388, 1.60209, 1.60211, 1.60065, 1.64342, 1.54946, 1.55038, 1.54502, 1.54472, 1.54591, 1.69551, 1.54463, 1.54336, 1.54548, 1.54373, 1.69928, 1.79994, 1.54307, 1.54343, 1.54113, 1.54173, 1.54159, 1.59202, 1.53938, 1.6768, 1.62328, 1.59234, 1.59253, 1.54101, 1.54121, 1.63112, 1.54175, 1.54244, 1.54306, 1.6006, 1.60004, 1.65424, 1.6519, 1.60096, 1.70273, 1.59802, 1.60125, 1.5986, 1.59806, 1.59803, 1.59785, 1.59585, 1.59738, 1.59801, 1.59737, 1.64827, 1.68446, 1.68389, 1.64705, 1.64727, 1.66407, 1.59666, 1.5948, 1.81326, 1.5925, 1.59521, 1.59335, 1.74629, 1.64535, 1.59532, 1.68837, 1.59629, 1.59529, 1.59318, 1.5924, 1.59306, 1.59274, 1.64339, 1.64399, 1.59178, 1.64258, 1.59275, 1.59144, 1.59055, 1.64045, 1.58944, 1.58885, 1.5893, 1.59033, 1.59105, 1.58905, 1.58901, 1.58959, 1.58939, 1.58783, 1.58987, 1.58987, 1.5879, 1.58677, 1.58919, 1.58877, 1.58847, 1.59011, 1.59276, 1.59232, 1.65495, 1.65452, 1.70636, 1.70607, 1.65706, 1.65791, 1.78646, 1.65863, 1.77313, 1.65369, 1.65904, 1.65473, 1.70811, 1.65452, 1.65715, 1.65677, 1.65475, 1.65544, 1.6556, 1.76505, 1.65366, 1.76626, 1.65492, 1.70557, 1.70339, 1.6513, 1.65133, 1.65089, 1.65181, 1.66998, 1.62258, 1.67153, 1.7954, 1.55185, 1.68164, 1.54695, 1.597, 1.54051, 1.54065, 1.53531, 1.53312, 1.53217, 1.53054, 1.52933, 1.52339, 1.52416, 1.572, 1.51922, 1.5188, 1.51842, 1.51725, 1.51478, 1.51441, 1.5128, 1.56237, 1.56188, 1.59376, 1.50717, 1.5085, 1.50852, 1.65479, 1.65582, 1.50682, 1.50843, 1.5062, 1.50458, 1.50489, 1.50507, 1.50549, 1.50527, 1.50338, 1.49987, 1.50181, 1.49965, 1.503, 1.50114, 1.50168, 1.50154, 1.49843, 1.4975, 1.49819, 1.49633, 1.49471, 1.49773, 1.49835, 1.5556, 1.49918, 1.49936, 1.50085, 1.49997, 1.49581, 1.49975, 1.49827, 1.49987, 1.49985, 1.49732, 1.49676, 1.64914, 1.50299, 1.50302, 1.50263, 1.5034, 1.50567, 1.50347, 1.50282, 1.55296, 1.55381, 1.55508, 1.43997, 1.44366, 1.43694, 1.4392, 1.43699, 1.43758, 1.43735, 1.43457, 1.43441, 1.43556, 1.43276, 1.43318, 1.58381, 1.43442, 1.43173, 1.43407, 1.4841, 1.43369, 1.43351, 1.432, 1.43056, 1.43031, 1.43077, 1.43051, 1.68223, 1.42595, 1.42572, 1.42967, 1.42778, 1.43015, 1.42999, 1.51506, 1.48113, 1.4259, 1.42721, 1.42703, 1.42843, 1.42832, 1.42341, 1.42841, 1.43012, 1.42905, 1.42916, 1.42846, 1.42923, 1.42664, 1.42598, 1.42504, 1.4257, 1.42587, 1.42545, 1.4241, 1.42295, 1.42538, 1.42238, 1.42457, 1.34789, 1.34878, 1.34418, 1.34679, 1.34703, 1.3466
1.50342, 1.50408, 1.50151, 1.50166, 1.65179, 1.50172, 1.50251, 1.50264, 1.64784, 1.5025, 1.50423, 1.50571, 1.56456, 1.56422, 1.56182, 1.56406, 1.65642, 1.61403, 1.61293, 1.65746, 1.65879, 1.56129, 1.55778, 1.55837, 1.55825, 1.5542, 1.55651, 1.55512, 1.55493, 1.55432, 1.60217, 1.60244, 1.60225, 1.60208, 1.60142, 1.54737, 1.54708, 1.54853, 1.54685, 1.54521, 1.54989, 1.54426, 1.54091, 1.5415, 1.54333, 1.54412, 1.54298, 1.53853, 1.53786, 1.59184, 1.54386, 1.64108, 1.54071, 1.54134, 1.53845, 1.5915, 1.59191, 1.59199, 1.59202, 1.59173, 1.59257, 1.54253, 1.59266, 1.54075, 1.60444, 1.60218, 1.65211, 1.59982, 1.6012, 1.59964, 1.59861, 1.59733, 1.59909, 1.59836, 1.59761, 1.59791, 1.59871, 1.59794, 1.59671, 1.59726, 1.65646, 1.64622, 1.59627, 1.64699, 1.59603, 1.59486, 1.59603, 1.59595, 1.59603, 1.59503, 1.78849, 1.59472, 1.59648, 1.59651, 1.59635, 1.59527, 1.59585, 1.59616, 1.59224, 1.74602, 1.59537, 1.59415, 1.59224, 1.59474, 1.64101, 1.67663, 1.59052, 1.59049, 1.59202, 1.58851, 1.58891, 1.58923, 1.58915, 1.59001, 1.80025, 1.58915, 1.64222, 1.67671, 1.58817, 1.586, 1.59002, 1.58822, 1.58896, 1.58692, 1.79804, 1.58816, 1.58738, 1.58814, 1.58742, 1.58945, 1.59097, 1.65605, 1.70547, 1.70761, 1.70728, 1.65776, 1.6571, 1.65559, 1.65771, 1.65834, 1.65449, 1.70758, 1.70788, 1.65653, 1.65641, 1.65389, 1.65398, 1.76103, 1.65668, 1.65437, 1.70346, 1.6543, 1.70398, 1.65331, 1.65142, 1.65144, 1.752, 1.75529, 1.76155, 1.65195, 1.56381, 1.55909, 1.81131, 1.55196, 1.6843, 1.5467, 1.54393, 1.54108, 1.53876, 1.5366, 1.53288, 1.53352, 1.52677, 1.52601, 1.81712, 1.52251, 1.52237, 1.51742, 1.51615, 1.51935, 1.59302, 1.51585, 1.51568, 1.51532, 1.56149, 1.56132, 1.56164, 1.50964, 1.5089, 1.50612, 1.50873, 1.50738, 1.50544, 1.50673, 1.70743, 1.50452, 1.50413, 1.50373, 1.50512, 1.50191, 1.65584, 1.50314, 1.5534, 1.59205, 1.55031, 1.60149, 1.49917, 1.49869, 1.60583, 1.49645, 1.49713, 1.49709, 1.49542, 1.59783, 1.49848, 1.49872, 1.49789, 1.49774, 1.49868, 1.49898, 1.49807, 1.49987, 1.50151, 1.5006, 1.49989, 1.64895, 1.64918, 1.50153, 1.6484, 1.50187, 1.50114, 1.50364, 1.50532, 1.50384, 1.50231, 1.50427, 1.50353, 1.59451, 1.44298, 1.44036, 1.44062, 1.43922, 1.43495, 1.43581, 1.43574, 1.4356, 1.43604, 1.51187, 1.43677, 1.43555, 1.43495, 1.4333, 1.43006, 1.43033, 1.58319, 1.58528, 1.43205, 1.43307, 1.43206, 1.43293, 1.52447, 1.42935, 1.43004, 1.42648, 1.42773, 1.51527, 1.42463, 1.42883, 1.42687, 1.42732, 1.42682, 1.57914, 1.42939, 1.42685, 1.42994, 1.48205, 1.4784, 1.42811, 1.47932, 1.42802, 1.42643, 1.42635, 1.4269, 1.42944, 1.42779, 1.42323, 1.51629, 1.51688, 1.4234, 1.42557, 1.42639, 1.42242, 1.42227, 1.42143, 1.34953, 1.3512, 1.3467, 1.35011, 1.34433, 1.43607
1.50339, 1.50342, 1.50314, 1.50278, 1.50129, 1.502, 1.57104, 1.50215, 1.50118, 1.49957, 1.50585, 1.50577, 1.56489, 1.6147, 1.56252, 1.56388, 1.5618, 1.56281, 1.56048, 1.56118, 1.64721, 1.55738, 1.55704, 1.5572, 1.55516, 1.55645, 1.55434, 1.55521, 1.60941, 1.55395, 1.55304, 1.60205, 1.60153, 1.54997, 1.54879, 1.54584, 1.54743, 1.64634, 1.54445, 1.54452, 1.86256, 1.59481, 1.54668, 1.54305, 1.54391, 1.54157, 1.54088, 1.59416, 1.59336, 1.59231, 1.54084, 1.54002, 1.54102, 1.69213, 1.54024, 1.54033, 1.54057, 1.54087, 1.5408, 1.5408, 1.5403, 1.54043, 1.59252, 1.59287, 1.604, 1.60587, 1.6014, 1.59975, 1.60089, 1.59814, 1.59738, 1.60152, 1.59981, 1.59964, 1.59751, 1.59728, 1.59586, 1.59649, 1.59584, 1.59429, 1.64701, 1.59681, 1.68657, 1.64717, 1.59392, 1.59615, 1.59379, 1.59384, 1.59375, 1.59649, 1.59537, 1.69197, 1.59561, 1.59419, 1.68656, 1.66773, 1.59609, 1.59401, 1.59222, 1.80375, 1.58967, 1.64467, 1.59262, 1.67731, 1.59043, 1.58731, 1.59144, 1.58886, 1.59002, 1.68975, 1.58764, 1.58902, 1.58541, 1.58624, 1.80036, 1.58853, 1.58886, 1.64696, 1.58533, 1.58489, 1.58552, 1.58869, 1.58587, 1.58683, 1.58773, 1.5882, 1.58678, 1.58495, 1.58981, 1.58869, 1.58838, 1.70443, 1.65631, 1.7159, 1.65739, 1.65415, 1.65411, 1.65594, 1.77624, 1.70757, 1.70734, 1.7059, 1.70579, 1.65299, 1.65393, 1.65482, 1.65569, 1.76165, 1.65371, 1.65257, 1.65413, 1.65415, 1.65418, 1.65376, 1.65364, 1.65264, 1.65373, 1.65162, 1.70191, 1.56287, 1.56088, 1.55854, 1.55703, 1.6019, 1.60026, 1.54462, 1.54351, 1.59205, 1.5369, 1.53569, 1.53583, 1.62451, 1.52712, 1.52791, 1.52426, 1.60076, 1.51986, 1.60116, 1.51754, 1.51949, 1.5665, 1.5157, 1.51546, 1.51196, 1.5124, 1.65488, 1.56041, 1.50762, 1.50797, 1.50333, 1.50839, 1.50373, 1.50412, 1.50306, 1.50392, 1.50379, 1.55408, 1.50071, 1.50269, 1.50171, 1.50028, 1.5505, 1.49995, 1.59438, 1.49939, 1.49851, 1.49489, 1.49862, 1.49794, 1.49751, 1.49267, 1.49554, 1.49771, 1.49648, 1.49725, 1.49754, 1.49756, 1.49909, 1.49697, 1.58099, 1.5474, 1.49774, 1.49471, 1.4977, 1.49913, 1.49877, 1.49951, 1.49888, 1.55142, 1.55067, 1.55168, 1.50322, 1.50499, 1.50373, 1.55315, 1.50506, 1.50492, 1.50558, 1.49115, 1.48934, 1.48871, 1.489, 1.43756, 1.43613, 1.43713, 1.43428, 1.43056, 1.43082, 1.43413, 1.43198, 1.43445, 1.43409, 1.52547, 1.43261, 1.43319, 1.43269, 1.68249, 1.431, 1.42848, 1.42716, 1.43012, 1.42989, 1.42954, 1.42709, 1.71062, 1.42811, 1.4265, 1.42727, 1.42711, 1.42937, 1.42857, 1.42658, 1.57921, 1.42514, 1.4294, 1.47865, 1.42925, 1.47878, 1.42874, 1.43022, 1.42801, 1.42837, 1.42977, 1.4298, 1.42708, 1.42681, 1.42659, 1.42417, 1.42445, 1.51322, 1.41969, 1.42217, 1.57189, 1.42204, 1.3485, 1.34705, 1.5446, 1.34702, 1.34478, 1.39582
1.50445, 1.50201, 1.50272, 1.50085, 1.49874, 1.49885, 1.55346, 1.55141, 1.50065, 1.50135, 1.55326, 1.55387, 1.61654, 1.56437, 1.6469, 1.64735, 1.61347, 1.56214, 1.56106, 1.56212, 1.55971, 1.5581, 1.5591, 1.55852, 1.55821, 1.5555, 1.60559, 1.5515, 1.55461, 1.55096, 1.54998, 1.55086, 1.55216, 1.65196, 1.54731, 1.64695, 1.54878, 1.64104, 1.59751, 1.63309, 1.54693, 1.54706, 1.59498, 1.59501, 1.54462, 1.54472, 1.63554, 1.59378, 1.59227, 1.54234, 1.5413, 1.53849, 1.54148, 1.69286, 1.69269, 1.53911, 1.6907, 1.53939, 1.53815, 1.53856, 1.54034, 1.53913, 1.53624, 1.59182, 1.60363, 1.81719, 1.59949, 1.59915, 1.59725, 1.59679, 1.70544, 1.59627, 1.5968, 1.5963, 1.64741, 1.59638, 1.59461, 1.59463, 1.8042, 1.59489, 1.59554, 1.59557, 1.59518, 1.59358, 1.59658, 1.59418, 1.59554, 1.59561, 1.59432, 1.59558, 1.59433, 1.59495, 1.59537, 1.59351, 1.5929, 1.59369, 1.5937, 1.59383, 1.59023, 1.5941, 1.65061, 1.59183, 1.64351, 1.67535, 1.64158, 1.64242, 1.64205, 1.59052, 1.68495, 1.5879, 1.58861, 1.58802, 1.58676, 1.5859, 1.58727, 1.58734, 1.64058, 1.5878, 1.58687, 1.588, 1.58344, 1.58605, 1.5879, 1.58693, 1.5878, 1.58639, 1.67115, 1.58627, 1.58377, 1.58512, 1.79578, 1.65247, 1.65231, 1.65253, 1.65408, 1.65406, 1.65596, 1.65597, 1.78383, 1.76218, 1.70632, 1.7541, 1.65677, 1.6551, 1.70676, 1.65596, 1.75894, 1.65444, 1.65481, 1.65379, 1.76211, 1.65255, 1.65162, 1.75762, 1.6527, 1.65202, 1.65065, 1.70245, 1.70093, 1.70147, 1.56055, 1.55699, 1.60419, 1.55053, 1.55021, 1.54384, 1.67746, 1.5389, 1.58595, 1.5829, 1.53122, 1.52521, 1.52585, 1.52674, 1.52297, 1.5728, 1.59699, 1.56986, 1.57226, 1.51627, 1.51544, 1.51373, 1.51479, 1.5109, 1.51214, 1.50962, 1.56645, 1.50845, 1.50688, 1.55728, 1.50819, 1.50742, 1.50412, 1.50388, 1.50207, 1.50549, 1.50401, 1.50336, 1.50184, 1.4997, 1.49952, 1.4984, 1.49829, 1.60463, 1.49622, 1.49581, 1.49617, 1.49525, 1.4933, 1.4949, 1.65389, 1.49493, 1.4952, 1.49559, 1.49343, 1.49498, 1.49561, 1.49554, 1.49599, 1.54493, 1.58309, 1.58515, 1.49712, 1.49617, 1.49787, 1.49924, 1.50044, 1.50067, 1.54938, 1.58686, 1.64814, 1.50192, 1.50211, 1.50208, 1.50329, 1.5518, 1.50323, 1.50474, 1.43956, 1.52028, 1.48861, 1.51979, 1.43601, 1.43619, 1.43573, 1.43395, 1.43409, 1.43138, 1.43333, 1.43379, 1.43299, 1.4822, 1.48157, 1.48211, 1.42938, 1.43092, 1.42774, 1.42825, 1.42926, 1.42938, 1.42938, 1.52156, 1.42693, 1.42772, 1.42731, 1.47727, 1.47836, 1.42457, 1.42778, 1.4264, 1.42621, 1.4256, 1.57577, 1.42808, 1.42857, 1.42618, 1.42835, 1.42783, 1.42719, 1.42865, 1.43254, 1.57341, 1.57473, 1.42681, 1.4237, 1.42752, 1.42691, 1.4758, 1.4241, 1.42206, 1.42274, 1.42278, 1.42104, 1.42252, 1.35011, 1.5062, 1.34652, 1.34656, 1.34427, 1.34434
1.60162, 1.50115, 1.50113, 1.49979, 1.49836, 1.50295, 1.50229, 1.5826, 1.50267, 1.50065, 1.55175, 1.50518, 1.61584, 1.61338, 1.61286, 1.61276, 1.56135, 1.81315, 1.56149, 1.55801, 1.55798, 1.55723, 1.5572, 1.55659, 1.60787, 1.55732, 1.60715, 1.63995, 1.55172, 1.55363, 1.55194, 1.55077, 1.55089, 1.54922, 1.54819, 1.64416, 1.54692, 1.6432, 1.5485, 1.59613, 1.59514, 1.59539, 1.54343, 1.54451, 1.54407, 1.64498, 1.64015, 1.54001, 1.54094, 1.54055, 1.54094, 1.53973, 1.53974, 1.54065, 1.54015, 1.54034, 1.69021, 1.68894, 1.5383, 1.536, 1.53732, 1.54033, 1.54235, 1.60179, 1.60203, 1.60052, 1.59882, 1.5981, 1.5985, 1.59751, 1.59679, 1.59309, 1.59575, 1.59556, 1.59623, 1.59812, 1.59546, 1.59305, 1.82451, 1.5948, 1.59518, 1.59345, 1.59514, 1.59101, 1.59463, 1.5953, 1.59522, 1.5938, 1.80455, 1.59443, 1.59384, 1.59304, 1.59506, 1.59284, 1.59538, 1.5951, 1.59212, 1.59592, 1.79748, 1.5926, 1.59182, 1.64684, 1.59315, 1.59185, 1.64011, 1.63995, 1.58699, 1.5915, 1.59064, 1.58932, 1.63867, 1.6397, 1.58533, 1.58639, 1.63705, 1.58588, 1.58568, 1.5863, 1.58564, 1.5868, 1.58686, 1.58562, 1.68151, 1.58854, 1.58647, 1.5841, 1.58587, 1.58797, 1.58827, 1.58812, 1.58799, 1.65297, 1.65141, 1.65545, 1.6534, 1.65378, 1.65576, 1.65498, 1.65406, 1.65491, 1.76556, 1.65445, 1.74649, 1.70379, 1.65464, 1.65324, 1.65284, 1.65403, 1.65445, 1.76437, 1.65114, 1.75478, 1.76232, 1.64972, 1.65177, 1.65212, 1.65173, 1.65122, 1.6501, 1.56062, 1.56124, 1.66899, 1.6029, 1.60177, 1.54662, 1.68336, 1.53982, 1.53921, 1.53563, 1.53348, 1.53041, 1.57794, 1.52648, 1.52334, 1.52292, 1.52027, 1.51891, 1.51638, 1.59872, 1.51411, 1.51318, 1.51404, 1.51119, 1.51223, 1.51205, 1.51131, 1.50595, 1.50853, 1.50856, 1.50542, 1.50598, 1.50603, 1.50565, 1.50559, 1.50396, 1.50401, 1.50208, 1.50287, 1.50115, 1.50166, 1.59473, 1.49887, 1.49518, 1.49939, 1.49916, 1.49537, 1.49415, 1.54581, 1.60221, 1.4918, 1.49378, 1.49454, 1.49465, 1.49139, 1.65117, 1.49483, 1.49369, 1.49204, 1.49506, 1.54435, 1.54663, 1.54727, 1.49606, 1.49497, 1.49956, 1.50036, 1.49687, 1.54813, 1.55063, 1.49965, 1.64706, 1.64831, 1.6476, 1.55143, 1.55294, 1.59481, 1.64875, 1.64793, 1.43994, 1.43993, 1.43872, 1.48559, 1.43665, 1.51685, 1.43561, 1.43421, 1.4348, 1.4329, 1.58223, 1.58396, 1.43346, 1.58356, 1.43274, 1.42997, 1.4279, 1.42855, 1.42983, 1.42888, 1.42996, 1.42921, 1.42393, 1.42497, 1.58129, 1.62321, 1.42563, 1.42917, 1.42567, 1.42687, 1.42675, 1.42676, 1.42773, 1.42831, 1.42617, 1.42578, 1.4273, 1.42643, 1.42708, 1.42818, 1.42488, 1.42579, 1.42679, 1.42926, 1.57401, 1.42688, 1.47583, 1.42705, 1.47407, 1.42297, 1.4239, 1.42125, 1.42083, 1.61714, 1.422, 1.42075, 1.34781, 1.34727, 1.34794, 1.34981, 1.4347, 1.33936
1.50235, 1.50205, 1.50279, 1.50213, 1.50191, 1.50133, 1.50258, 1.50211, 1.50192, 1.50294, 1.50384, 1.50503, 1.61576, 1.64779, 1.61315, 1.564, 1.56106, 1.56263, 1.56102, 1.55657, 1.55511, 1.55987, 1.55865, 1.55876, 1.60756, 1.55451, 1.60504, 1.60522, 1.55281, 1.55152, 1.55151, 1.55188, 1.55047, 1.54785, 1.54798, 1.5475, 1.59946, 1.54552, 1.54455, 1.54404, 1.59556, 1.59616, 1.59534, 1.59393, 1.54355, 1.54284, 1.54232, 1.54349, 1.54309, 1.54198, 1.62741, 1.53903, 1.59157, 1.59012, 1.59054, 1.58963, 1.53738, 1.53952, 1.53927, 1.53649, 1.54007, 1.53995, 1.53814, 1.81627, 1.8136, 1.60116, 1.60139, 1.59815, 1.60113, 1.60084, 1.59813, 1.59855, 1.59864, 1.59726, 1.59567, 1.59428, 1.59574, 1.59584, 1.59341, 1.5914, 1.6443, 1.59575, 1.59573, 1.59562, 1.69935, 1.69251, 1.59325, 1.5945, 1.69646, 1.59545, 1.59564, 1.59403, 1.59486, 1.68523, 1.59448, 1.79686, 1.59174, 1.5924, 1.74149, 1.59362, 1.59185, 1.59225, 1.59263, 1.5919, 1.59156, 1.58877, 1.58988, 1.58674, 1.67799, 1.58877, 1.6386, 1.58755, 1.58837, 1.5884, 1.63661, 1.5844, 1.58456, 1.58543, 1.58476, 1.58522, 1.58492, 1.58501, 1.58502, 1.58317, 1.58301, 1.58595, 1.58132, 1.58503, 1.5834, 1.58695, 1.63667, 1.65365, 1.65374, 1.65345, 1.65058, 1.76946, 1.65091, 1.65189, 1.65424, 1.65457, 1.65405, 1.65499, 1.65383, 1.65147, 1.75845, 1.65234, 1.65248, 1.76237, 1.65408, 1.65143, 1.76129, 1.75988, 1.65087, 1.76168, 1.76499, 1.76519, 1.65203, 1.74942, 1.6497, 1.56346, 1.55729, 1.55694, 1.60219, 1.61124, 1.54481, 1.54327, 1.68254, 1.53707, 1.53623, 1.53241, 1.527, 1.52531, 1.52506, 1.52255, 1.51946, 1.52034, 1.51987, 1.5177, 1.59522, 1.51537, 1.51367, 1.51555, 1.51025, 1.51096, 1.50982, 1.50901, 1.50846, 1.50643, 1.50675, 1.50646, 1.50529, 1.55252, 1.55367, 1.55185, 1.50211, 1.50191, 1.49982, 1.49923, 1.49795, 1.54945, 1.49862, 1.59376, 1.5927, 1.4965, 1.49612, 1.49536, 1.49422, 1.49482, 1.60203, 1.4932, 1.58523, 1.54332, 1.49354, 1.49057, 1.49163, 1.55315, 1.55113, 1.5507, 1.49322, 1.49472, 1.4945, 1.49527, 1.49805, 1.49409, 1.4985, 1.49847, 1.54756, 1.54814, 1.49572, 1.64721, 1.59616, 1.50062, 1.49932, 1.4969, 1.50074, 1.50184, 1.68796, 1.68617, 1.43973, 1.43324, 1.48472, 1.48574, 1.48686, 1.42993, 1.43341, 1.43284, 1.60877, 1.43161, 1.58179, 1.43187, 1.43231, 1.43249, 1.48342, 1.4302, 1.43137, 1.43016, 1.43049, 1.43052, 1.43031, 1.4285, 1.42811, 1.42773, 1.42733, 1.4261, 1.42676, 1.42575, 1.42598, 1.42623, 1.42485, 1.4244, 1.4269, 1.42677, 1.42382, 1.42375, 1.42798, 1.42828, 1.42754, 1.42646, 1.52361, 1.51791, 1.4266, 1.426, 1.4264, 1.42707, 1.47673, 1.47593, 1.42432, 1.47408, 1.42355, 1.42036, 1.42069, 1.57392, 1.42068, 1.42051, 1.34616, 1.34773, 1.34639, 1.34425, 1.395, 1.34521
1.55127, 1.64922, 1.50125, 1.49851, 1.4985, 1.5025, 1.49909, 1.50071, 1.49997, 1.50064, 1.50081, 1.50135, 1.55767, 1.65592, 1.61285, 1.5612, 1.56157, 1.56256, 1.56039, 1.6102, 1.559, 1.56052, 1.55753, 1.55783, 1.60597, 1.60538, 1.6054, 1.60558, 1.55066, 1.55221, 1.55262, 1.55127, 1.55019, 1.54794, 1.54736, 1.54864, 1.54636, 1.54688, 1.54703, 1.54419, 1.547, 1.54463, 1.54537, 1.59511, 1.5424, 1.852, 1.54137, 1.54266, 1.54058, 1.54053, 1.59184, 1.53853, 1.54041, 1.59231, 1.5922, 1.53847, 1.60514, 1.63021, 1.53826, 1.53947, 1.54051, 1.53967, 1.53989, 1.81815, 1.80337, 1.60031, 1.59683, 1.60104, 1.60002, 1.59965, 1.59915, 1.59691, 1.59792, 1.59761, 1.59711, 1.80449, 1.59286, 1.59381, 1.59318, 1.59567, 1.69192, 1.5922, 1.59495, 1.59265, 1.59494, 1.59252, 1.5947, 1.68031, 1.69115, 1.64573, 1.59436, 1.64575, 1.64495, 1.64685, 1.59923, 1.59383, 1.59302, 1.59264, 1.59313, 1.59167, 1.5899, 1.74362, 1.58995, 1.58854, 1.58957, 1.74047, 1.58838, 1.58525, 1.58608, 1.58839, 1.5882, 1.58726, 1.58534, 1.58616, 1.58666, 1.58598, 1.58724, 1.5826, 1.58411, 1.58475, 1.68014, 1.58275, 1.58377, 1.68915, 1.68972, 1.58268, 1.58055, 1.58335, 1.58554, 1.64437, 1.58536, 1.65246, 1.65053, 1.64953, 1.65125, 1.65047, 1.65062, 1.65281, 1.65414, 1.65404, 1.78219, 1.65187, 1.75864, 1.70572, 1.70559, 1.65188, 1.6503, 1.77188, 1.75967, 1.65037, 1.65047, 1.65072, 1.75837, 1.64859, 1.6508, 1.7718, 1.76279, 1.64814, 1.75765, 1.7556, 1.55736, 1.60451, 1.54848, 1.54393, 1.54342, 1.54197, 1.67937, 1.53646, 1.53419, 1.53064, 1.52956, 1.52458, 1.5991, 1.52348, 1.51937, 1.51698, 1.516, 1.51558, 1.514, 1.50971, 1.50896, 1.50715, 1.51032, 1.50636, 1.50614, 1.50819, 1.50648, 1.50524, 1.5056, 1.50522, 1.50458, 1.69912, 1.50124, 1.55209, 1.55013, 1.50196, 1.50167, 1.50126, 1.49735, 1.5485, 1.4969, 1.49823, 1.49377, 1.49264, 1.49064, 1.49124, 1.49189, 1.49109, 1.54035, 1.54005, 1.54114, 1.49013, 1.49028, 1.59169, 1.55391, 1.55333, 1.55066, 1.49182, 1.49129, 1.4932, 1.49186, 1.49263, 1.49557, 1.49247, 1.49544, 1.49674, 1.49766, 1.49779, 1.49794, 1.49777, 1.5938, 1.49711, 1.49953, 1.50123, 1.50111, 1.58838, 1.56541, 1.43643, 1.43777, 1.43718, 1.43474, 1.58162, 1.4329, 1.52212, 1.42851, 1.58141, 1.433, 1.43223, 1.43243, 1.42713, 1.43194, 1.42818, 1.42815, 1.42997, 1.43211, 1.58118, 1.58199, 1.42716, 1.48129, 1.42917, 1.42715, 1.42819, 1.47522, 1.47768, 1.42678, 1.42172, 1.42418, 1.42427, 1.42612, 1.42568, 1.42487, 1.42637, 1.42378, 1.47481, 1.47726, 1.47794, 1.42746, 1.42572, 1.42734, 1.42815, 1.42752, 1.47692, 1.42671, 1.52324, 1.47444, 1.47692, 1.42544, 1.42133, 1.42394, 1.42151, 1.42214, 1.42197, 1.47084, 1.36855, 1.3459, 1.34393, 1.55219, 1.34519, 1.34366, 1.39505
1.50074, 1.50115, 1.49976, 1.49958, 1.49718, 1.50051, 1.50008, 1.50172, 1.50238, 1.50142, 1.49966, 1.50214, 1.56283, 1.56142, 1.5626, 1.56138, 1.56035, 1.55922, 1.56144, 1.60918, 1.63104, 1.55684, 1.55691, 1.55645, 1.55391, 1.55234, 1.61833, 1.55299, 1.55337, 1.55305, 1.55122, 1.54999, 1.70547, 1.54875, 1.54862, 1.54425, 1.54775, 1.59722, 1.54605, 1.54681, 1.54743, 1.54479, 1.54342, 1.54546, 1.54444, 1.54539, 1.54176, 1.542, 1.59294, 1.62902, 1.62732, 1.54003, 1.53988, 1.5377, 1.53783, 1.53819, 1.60481, 1.53822, 1.53843, 1.58806, 1.53808, 1.53628, 1.5375, 1.53654, 1.60037, 1.59961, 1.59886, 1.59999, 1.59698, 1.59785, 1.59583, 1.59796, 1.59702, 1.59638, 1.59612, 1.59398, 1.80689, 1.59289, 1.59385, 1.58961, 1.73388, 1.59009, 1.7447, 1.59184, 1.59354, 1.59559, 1.68993, 1.59332, 1.64364, 1.64554, 1.67947, 1.64494, 1.67536, 1.59457, 1.64517, 1.5953, 1.59293, 1.59346, 1.59291, 1.59257, 1.59174, 1.74167, 1.74086, 1.74072, 1.58871, 1.74025, 1.58929, 1.8134, 1.58558, 1.80434, 1.58667, 1.58624, 1.58184, 1.5857, 1.58528, 1.58336, 1.5849, 1.63399, 1.58458, 1.58351, 1.58389, 1.58284, 1.58173, 1.80013, 1.5834, 1.5837, 1.58347, 1.58346, 1.58449, 1.58521, 1.58567, 1.64905, 1.76846, 1.7675, 1.76987, 1.76014, 1.65166, 1.65066, 1.6515, 1.65242, 1.65343, 1.65006, 1.65103, 1.74601, 1.65258, 1.65108, 1.64883, 1.6492, 1.64951, 1.6508, 1.65098, 1.65041, 1.75744, 1.75488, 1.77425, 1.65059, 1.75761, 1.6491, 1.64851, 1.55967, 1.68081, 1.55377, 1.5516, 1.54518, 1.54143, 1.5369, 1.53645, 1.53255, 1.53163, 1.62284, 1.52832, 1.52505, 1.52257, 1.51916, 1.59677, 1.51878, 1.51559, 1.51414, 1.513, 1.51206, 1.51029, 1.50869, 1.5067, 1.59077, 1.50825, 1.55557, 1.59485, 1.50463, 1.50407, 1.50484, 1.50452, 1.50212, 1.50218, 1.50287, 1.50196, 1.5018, 1.4995, 1.49824, 1.49567, 1.49443, 1.49288, 1.49269, 1.4956, 1.49253, 1.49269, 1.49121, 1.49264, 1.48929, 1.49066, 1.49032, 1.48834, 1.58242, 1.58117, 1.48909, 1.48845, 1.58524, 1.48959, 1.48893, 1.48924, 1.49042, 1.49171, 1.49156, 1.49168, 1.49212, 1.49614, 1.49701, 1.49617, 1.49416, 1.49766, 1.49624, 1.49881, 1.49606, 1.49866, 1.49871, 1.49924, 1.58459, 1.56568, 1.49908, 1.4855, 1.43311, 1.43402, 1.58626, 1.52676, 1.52634, 1.43039, 1.43186, 1.43218, 1.43236, 1.4292, 1.43109, 1.48085, 1.4296, 1.42799, 1.42761, 1.42703, 1.42906, 1.42664, 1.42589, 1.42637, 1.42708, 1.42675, 1.47787, 1.42719, 1.42592, 1.42494, 1.42575, 1.42526, 1.42556, 1.42148, 1.42402, 1.42593, 1.42667, 1.47511, 1.42392, 1.50722, 1.47745, 1.42587, 1.42385, 1.51999, 1.47514, 1.4259, 1.42502, 1.42411, 1.42528, 1.42505, 1.42371, 1.42472, 1.42166, 1.42137, 1.42005, 1.47107, 1.47131, 1.41795, 1.41854, 1.39858, 1.34576, 1.34346, 1.34404, 1.39591, 1.39341
1.49932, 1.49973, 1.50054, 1.50054, 1.49989, 1.49879, 1.49901, 1.49894, 1.49926, 1.49818, 1.50272, 1.50239, 1.56062, 1.56113, 1.56087, 1.56059, 1.56104, 1.61, 1.61966, 1.60949, 1.55788, 1.55744, 1.55468, 1.61992, 1.55611, 1.55615, 1.5548, 1.60915, 1.55373, 1.55245, 1.55054, 1.54816, 1.54769, 1.54891, 1.54822, 1.54462, 1.54457, 1.54546, 1.59744, 1.54545, 1.5422, 1.54314, 1.54494, 1.54504, 1.54579, 1.54354, 1.54356, 1.59182, 1.59307, 1.54066, 1.53998, 1.63557, 1.54018, 1.53895, 1.5371, 1.58876, 1.58671, 1.5374, 1.58787, 1.58807, 1.53741, 1.53708, 1.53687, 1.60013, 1.60033, 1.5986, 1.59685, 1.59639, 1.59577, 1.59601, 1.59866, 1.5966, 1.59505, 1.59656, 1.59707, 1.79929, 1.58921, 1.59092, 1.59525, 1.59445, 1.68186, 1.59257, 1.58966, 1.59312, 1.69716, 1.59274, 1.59253, 1.59259, 1.64444, 1.59114, 1.67826, 1.64452, 1.64585, 1.64581, 1.59508, 1.80002, 1.59309, 1.59152, 1.59196, 1.5927, 1.5931, 1.58994, 1.58869, 1.74029, 1.73937, 1.7392, 1.68997, 1.58519, 1.58354, 1.58398, 1.58568, 1.5863, 1.58568, 1.58575, 1.58616, 1.58361, 1.58474, 1.58324, 1.58352, 1.58316, 1.58125, 1.58415, 1.58367, 1.63327, 1.63352, 1.58161, 1.58219, 1.63332, 1.6333, 1.58226, 1.58484, 1.65046, 1.6487, 1.65183, 1.64933, 1.65058, 1.65157, 1.6515, 1.76506, 1.65189, 1.77337, 1.762, 1.65064, 1.64965, 1.64944, 1.76856, 1.65202, 1.76534, 1.64678, 1.64759, 1.64745, 1.64976, 1.64767, 1.75283, 1.64922, 1.64921, 1.64738, 1.65036, 1.6491, 1.55803, 1.678, 1.55088, 1.54918, 1.54498, 1.63845, 1.54009, 1.53487, 1.67805, 1.67699, 1.52829, 1.52716, 1.52334, 1.57026, 1.57034, 1.51898, 1.51821, 1.51604, 1.51, 1.50849, 1.51064, 1.50902, 1.50575, 1.50853, 1.50815, 1.50507, 1.50528, 1.5921, 1.50284, 1.50379, 1.50101, 1.50366, 1.50246, 1.50235, 1.50192, 1.49681, 1.50236, 1.49604, 1.4948, 1.49506, 1.49597, 1.49562, 1.49521, 1.54271, 1.49252, 1.69648, 1.48888, 1.49114, 1.48996, 1.49007, 1.48915, 1.53696, 1.48667, 1.48679, 1.53775, 1.48827, 1.58718, 1.48809, 1.48961, 1.49003, 1.48969, 1.49167, 1.4919, 1.4928, 1.49301, 1.49343, 1.49393, 1.5449, 1.49502, 1.49611, 1.49709, 1.4982, 1.59535, 1.49928, 1.49715, 1.49861, 1.4982, 1.49688, 1.51763, 1.51691, 1.51926, 1.43352, 1.58725, 1.58837, 1.57999, 1.43078, 1.43053, 1.42952, 1.42927, 1.42842, 1.42818, 1.47897, 1.47981, 1.43285, 1.42803, 1.42911, 1.57884, 1.42582, 1.42831, 1.42913, 1.42803, 1.47828, 1.42445, 1.61753, 1.42279, 1.42563, 1.42622, 1.42259, 1.42551, 1.42377, 1.42332, 1.42587, 1.50552, 1.42452, 1.42364, 1.47477, 1.4257, 1.57268, 1.57017, 1.42344, 1.4227, 1.42293, 1.4249, 1.42478, 1.42225, 1.41925, 1.42036, 1.42269, 1.42286, 1.42103, 1.42235, 1.42067, 1.41882, 1.41812, 1.41926, 1.34313, 1.54757, 1.34645, 1.34622, 1.34525, 1.34056
1.50046, 1.50003, 1.49777, 1.49924, 1.49986, 1.6816, 1.64718, 1.49976, 1.50058, 1.50013, 1.49866, 1.49902, 1.56472, 1.56401, 1.61152, 1.56447, 1.55723, 1.55857, 1.65575, 1.55917, 1.55808, 1.55885, 1.5573, 1.64796, 1.55718, 1.61078, 1.55467, 1.55381, 1.55235, 1.5506, 1.55173, 1.55084, 1.55074, 1.54753, 1.63696, 1.64447, 1.54481, 1.60283, 1.60287, 1.54587, 1.54588, 1.54544, 1.54362, 1.54423, 1.54395, 1.54354, 1.74051, 1.73464, 1.59114, 1.67837, 1.59002, 1.54038, 1.53679, 1.53815, 1.58889, 1.53684, 1.61999, 1.53562, 1.58769, 1.58812, 1.62004, 1.53693, 1.53493, 1.60179, 1.81388, 1.59915, 1.59899, 1.59728, 1.59552, 1.59661, 1.59791, 1.59701, 1.59583, 1.59342, 1.59383, 1.59415, 1.59538, 1.59277, 1.5931, 1.64659, 1.59351, 1.69429, 1.69565, 1.59364, 1.59201, 1.5917, 1.59169, 1.59003, 1.64341, 1.59338, 1.64397, 1.59419, 1.59479, 1.64523, 1.59377, 1.59399, 1.59332, 1.68527, 1.59049, 1.59195, 1.59051, 1.59014, 1.59096, 1.58824, 1.58753, 1.73877, 1.58584, 1.58765, 1.584, 1.5825, 1.58231, 1.5824, 1.58407, 1.58442, 1.58106, 1.58289, 1.63363, 1.58168, 1.58226, 1.58366, 1.58371, 1.58241, 1.58172, 1.63177, 1.63024, 1.58188, 1.67663, 1.58112, 1.58464, 1.58166, 1.58192, 1.64931, 1.65143, 1.65086, 1.64835, 1.6506, 1.64667, 1.65136, 1.64861, 1.64863, 1.76301, 1.64774, 1.65029, 1.65037, 1.76373, 1.75968, 1.64703, 1.64528, 1.75609, 1.64992, 1.75414, 1.69812, 1.69815, 1.70054, 1.64567, 1.64553, 1.76484, 1.75346, 1.76627, 1.55514, 1.55368, 1.65094, 1.54347, 1.54397, 1.53892, 1.67904, 1.53447, 1.68206, 1.52644, 1.67613, 1.52594, 1.52058, 1.5191, 1.51717, 1.51804, 1.51291, 1.51372, 1.51104, 1.51012, 1.51009, 1.5092, 1.50759, 1.50863, 1.50626, 1.50361, 1.50276, 1.59885, 1.50398, 1.50308, 1.50092, 1.50009, 1.49954, 1.50184, 1.59168, 1.49655, 1.54811, 1.49675, 1.54817, 1.49622, 1.4924, 1.49461, 1.6507, 1.4925, 1.49101, 1.48883, 1.49156, 1.48691, 1.48804, 1.48554, 1.48629, 1.48594, 1.48446, 1.48557, 1.4885, 1.48519, 1.48788, 1.48875, 1.48799, 1.48956, 1.49104, 1.49021, 1.49128, 1.49307, 1.49197, 1.49415, 1.54172, 1.49275, 1.49411, 1.49204, 1.49511, 1.49653, 1.49301, 1.49416, 1.49606, 1.59558, 1.58821, 1.49893, 1.50009, 1.51451, 1.48287, 1.43281, 1.43126, 1.42907, 1.43005, 1.42959, 1.48088, 1.42731, 1.42659, 1.42689, 1.43007, 1.4785, 1.4793, 1.47938, 1.4793, 1.42968, 1.47837, 1.47863, 1.47569, 1.51066, 1.47577, 1.42546, 1.42589, 1.42388, 1.42693, 1.42693, 1.42264, 1.42522, 1.42205, 1.42292, 1.42579, 1.47508, 1.47779, 1.47417, 1.47502, 1.4233, 1.57114, 1.57087, 1.56934, 1.42314, 1.4262, 1.42183, 1.42451, 1.42096, 1.42135, 1.50119, 1.41945, 1.42065, 1.42186, 1.56908, 1.42032, 1.42173, 1.41842, 1.41636, 1.41893, 1.34478, 1.34764, 1.3437, 1.34687, 1.34549, 1.44539
