1.51822815197137,1.51785107618652,1.51867082190638,1.51907778888452,1.5202452496305,1.51902276208968,1.52249137422664,1.58633877974978,1.58569994052091,1.58524529428479,1.8007985054817,1.58467083586378,1.58342378553704,1.58309588928602,1.58324019100341,1.58184564011077,1.6782385054817,1.5827584055066,1.58302593316541,1.58233958016649,1.58173562973127,1.5812201151156,1.57760525333711,1.6301285054817,1.57946576380997,1.57834844408837,1.57702636126201,1.57736453909528,1.57448565128888,1.575168673988,1.57434231336667,1.57481147800456,1.7256485054817,1.57158901289912,1.57246611118056,1.57187921299218,1.57120460506049,1.57139218250433,1.57070193819565,1.57131925081256,1.57125344769942,1.57036410769682,1.56848536479676,1.56854114959728,1.56971576266568,1.62043721244461,1.62087054577794,1.5682700215944,1.6611985054817,1.57070966903633,1.57056367118515,1.57052592834924,1.57060386744201,1.56924044269649,1.57245114308978,1.57386209583722,1.76976250339265,1.7554152548299,1.64144436784421,1.64002311137848,1.6399436133273,1.64093583460107,1.64144360001012,1.64237192542115,1.67226102375999,1.7359485054817,1.64348831795517,1.64344625956298,1.64305923261636,1.64234559255106,1.64274647318423,1.64312522508442,1.64270897979313,1.64274470864527,1.63846960394441,1.75912913487052,1.74853862335203,1.64139429485891,1.64151287807345,1.66369351455115,1.6930785054817,1.64061834441625,1.64202018872635,1.64010440478897,1.6383309236476,1.63637306403965,1.7581985054817,1.63449953040222,1.63382563239115,1.65735266114465,1.7483685054817,1.63051545104151,1.63229348054827,1.63103060540765,1.63001384379467,1.62929802526097,1.6280610168314,1.62661501492117,1.56151636651808,1.55717593895647,1.55514562373638,1.54814067934392,1.53785814491622,1.58662441511858,1.52986056537306,1.5253287398876,1.6499585054817,1.56758255967176,1.50931711427565,1.51006822236719,1.6433185054817,1.50065531725721,1.49382560102677,1.49274726446389,1.49292023100123,1.6437385054817,1.48470393905715,1.48160050767498,1.47870558770556,1.47793666193168,1.47525417496593,1.47437590822135,1.47369905168923,1.47047888405059,1.47050005294542,1.46895199489081,1.46757591199258,1.4646437040049,1.4658959776502,1.46480970081633,1.46245232312095,1.46252466728105,1.46098868216789,1.45664099025001,1.45818127831812,1.452451974769,1.50701461007459,1.50536104402219,1.5040937004596,1.50180451508508,1.50179905966103,1.44846768451643,1.44925272647307,1.4489961137942,1.44812296836303,1.44435812249075,1.44656459042326,1.49606823767094,1.44062079200662,1.44179319619542,1.44054321083795,1.44117055975626,1.44105597819061,1.6104685054817,1.43699963651462,1.43631922334593,1.43990841134197,1.52803867803137,1.43593587243337,1.43562311998782,1.43407309432386,1.43472290421994,1.43467488057102,1.4347400814857,1.43497553374115,1.43580823163197,1.43572870208939,1.5366385054817,1.43273795683486,1.43333912600256,1.5836285054817,1.43007216721645,1.42948449533974,1.42822973722104,1.42634593469249,1.36031593768957,1.36064341415763
1.5197611067886,1.51969383628579,1.52016271393481,1.52073660182806,1.52141666235683,1.52129007002705,1.55542466323318,1.58640953195024,1.58580498706662,1.58548801383931,1.58521680481665,1.58485392873339,1.58471804203163,1.58453700445839,1.58419117578508,1.58337217130905,1.60828531144397,1.58294603262571,1.58289061402549,1.58270461495362,1.58203343652939,1.58113488409359,1.57988042323429,1.58030495553629,1.57982846721613,1.57880704963322,1.57781657886651,1.576425534025,1.5754195999262,1.57567939940061,1.57551212366974,1.57517840215666,1.57484145635577,1.57395315337716,1.57346663471665,1.57258204577052,1.57186021166492,1.5717976469258,1.57169610550009,1.57196297242268,1.57145905426185,1.57061586651118,1.56991624506366,1.56982726352088,1.57077421671782,1.57146004280646,1.5713782871851,1.57107483876478,1.57163639626453,1.57154219042959,1.57114539044472,1.57093190957914,1.57098006775642,1.57104509083843,1.57154441463438,1.59731634487478,1.61145463365897,1.64119650870464,1.64111717535565,1.64022707436227,1.64029571291623,1.64064455627369,1.64186722260511,1.66325063021708,1.67749792496754,1.68147903014125,1.66247077933649,1.64394783423115,1.64371806505175,1.64295508436761,1.64330065212927,1.64338061537713,1.6421165102646,1.640937168369,1.63818515732701,1.67284024460553,1.66224299677032,1.64170940357794,1.64065696499319,1.63893107924138,1.63995908544331,1.6410756319983,1.64172206076002,1.64116933104684,1.64046661792481,1.640995004929,1.66178295206303,1.65519850772091,1.63335678786445,1.63138342947002,1.63113834367727,1.63023390622664,1.63132246636169,1.63126582816465,1.6303451099852,1.62958423260041,1.62844044188693,1.62782055019989,1.56247442052705,1.55697210079322,1.55628632696522,1.54763903934872,1.54269064861929,1.56390652075453,1.53057081592642,1.52986210625716,1.54588113190811,1.55762368498339,1.51084920114835,1.51077595522333,1.51047430871937,1.50212135398724,1.49498915265214,1.49356987634763,1.49322364067761,1.49242361876228,1.4873778963783,1.48091600021737,1.4796678605505,1.47852412670265,1.47698258763273,1.47550811131052,1.47409771400971,1.47213184248087,1.47181510445518,1.47032873550822,1.46698246047329,1.46623956946341,1.46617827752083,1.46532967312487,1.4638302654003,1.46259727380698,1.46082827966948,1.45870307658989,1.45745896588323,1.45644091880056,1.50672216906198,1.50560640797395,1.50263632542693,1.50208068356335,1.50223948137562,1.45220429904309,1.45040893319529,1.4497013499607,1.44869066880092,1.4474744554004,1.44698521128248,1.44692310336877,1.44471527310892,1.44334941170613,1.4422067145893,1.44153973788194,1.44074388811534,1.43983358561899,1.43858327792261,1.43802249589323,1.4386427534852,1.43759717821143,1.43668868648672,1.43610805326828,1.43527213274879,1.43477494202396,1.43479423244489,1.43497521220322,1.43546744119019,1.4358437476802,1.4356394689952,1.43491723838757,1.43432116838833,1.43416175876395,1.43304202299891,1.43149049708381,1.42902194845276,1.4275375670186,1.42665068987021,1.36154331008436,1.36070142970509
1.56930272388332,1.56968212628304,1.52014676387195,1.57014826349238,1.54731731398439,1.52148553669463,1.586434891212,1.58707111626071,1.58562430184076,1.58563748557686,1.58524620898599,1.58468340794819,1.58586840048007,1.58570900168102,1.58498856383075,1.58339045289595,1.7287485054817,1.58285419217134,1.58248776481144,1.58292533636632,1.58224181071107,1.58116474695614,1.579968240096,1.58057584526184,1.57991450674996,1.57861963027404,1.5786039411088,1.57498685095591,1.57453458037214,1.57603629367187,1.57639559451369,1.57520526286313,1.57506585660663,1.57518102653262,1.57436770631058,1.57269383310846,1.57151452851624,1.6718085054817,1.57186779476863,1.5726280296202,1.6220385054817,1.57027523036769,1.57042018198274,1.56939717467634,1.57120774022588,1.57150538244649,1.57103274160199,1.57164190607158,1.57184954493774,1.57192261762589,1.57118527576324,1.57091413999577,1.57115535071407,1.5721723667288,1.57153792767474,1.6750285054817,1.57524595901348,1.64277783206083,1.64278708467746,1.64091410912792,1.64158945717327,1.7062085054817,1.64332472185383,1.69488146126817,1.68723665347723,1.69534179388723,1.69468994524219,1.64449844435765,1.64487927580341,1.6439035802825,1.64466559049746,1.64558656945079,1.6958485054817,1.64343877457774,1.63951936041898,1.7422885054817,1.64456815564412,1.6442596239503,1.6405715675317,1.64018560912253,1.64216907809742,1.64331218737038,1.64289407996825,1.64285224755481,1.64139610625822,1.64144301390506,1.75321054577794,1.75397721244461,1.63559002452699,1.6337309000915,1.6342025507391,1.7470685054817,1.63165856172138,1.63201640156567,1.63096663840404,1.63050799794805,1.6781185054817,1.62848518776069,1.56129371311113,1.5572529566595,1.55599487553437,1.54641324739999,1.5400532959123,1.6573485054817,1.53168635832109,1.52795364137758,1.51960156693905,1.57154630235985,1.51114305614592,1.51012547434198,1.50781499227687,1.6444485054817,1.49696322202648,1.49329264180082,1.49279323657463,1.49068964009761,1.48931306455718,1.48182981476668,1.48028437625598,1.47942882199142,1.47822321827151,1.47646078172365,1.52372508961656,1.47230711711429,1.47352491046288,1.5703785054817,1.46654681493933,1.46642632531398,1.46673578408157,1.46577018598277,1.46431602219505,1.6122585054817,1.46037355804392,1.6103385054817,1.4561567767844,1.45556967600843,1.50811812780536,1.53852414214664,1.45347460119934,1.48659948836505,1.50329623669824,1.45412464286373,1.45024455925521,1.45035336008038,1.44948522024571,1.44830198430861,1.44705262606303,1.44686123222123,1.44578905593165,1.44423594480709,1.44313897469366,1.44168250815921,1.44036856061288,1.43975417864414,1.43899620769406,1.43827298366554,1.4388700335,1.43728705697839,1.43670018554498,1.43648773150673,1.43576725054935,1.43422066347413,1.43469153546507,1.43476474626354,1.43586391203826,1.43647737272291,1.4356920813464,1.43423139799828,1.43452298578173,1.43448222803406,1.43239412672609,1.43315426186943,1.42765536189351,1.42775000137694,1.42738365528569,1.36333517847556,1.36047420642937
1.54257485572029,1.57001309070817,1.5699825183671,1.56993223491769,1.56969231574836,1.57016923142503,1.5849467984164,1.58590425961158,1.58601584578082,1.58612432469017,1.5860281202402,1.58598701058964,1.58608960829749,1.5859913736591,1.58593692059312,1.58550780329718,1.60998737104426,1.58344344859091,1.58365867070037,1.58367894073655,1.58299080840331,1.5818972508221,1.58098140677781,1.58058149219611,1.58005925197902,1.57910872335741,1.57847792743476,1.57725738903192,1.5769432684432,1.57698072579111,1.5767713580203,1.57617778789128,1.5761674694046,1.57584869249677,1.57550445235975,1.57440944718668,1.57335751952448,1.57330413120055,1.57301552818482,1.57328887986452,1.57304952898168,1.57201747129694,1.57181968392131,1.5718785515306,1.57228332814131,1.57241134698078,1.57239174673064,1.57261647274567,1.57265587737497,1.57249187188556,1.57180557681689,1.57158650227577,1.57163270098937,1.57167378426063,1.57181460300225,1.602098237657,1.61232049901205,1.64113260901258,1.64123502061215,1.64046393026066,1.64130092908329,1.65214898950688,1.66212983348928,1.67300580922007,1.68328365777659,1.68648353115434,1.6694901983585,1.65956116807877,1.64396052813759,1.64381744915192,1.64409615486527,1.64399462329821,1.6434014836469,1.64283799019176,1.64098192273438,1.64205250401983,1.64348322872364,1.64377354064498,1.64243548542478,1.64085927546485,1.64133414955235,1.64268282313689,1.64226885406807,1.64193150063911,1.64118069006062,1.64124845095365,1.66401666182871,1.65612729917424,1.63596196148379,1.63536807710433,1.63524519781639,1.63471792038168,1.63272156392012,1.63195955492859,1.6311191633931,1.63052964822473,1.63023148558509,1.63006688106439,1.56228438456661,1.55764142312639,1.55498025305251,1.54735892344854,1.54357053540797,1.537341931574,1.53248332512951,1.52858087240178,1.52042352694666,1.51934063248166,1.51029070168152,1.50968565674343,1.50834958098771,1.54009835007823,1.49650661665912,1.49401577755272,1.49336655492634,1.49112711399095,1.49031124666683,1.48354937389517,1.4810782161214,1.48017735048272,1.47928369953322,1.47728712198512,1.47723680176199,1.47452242577973,1.47522064052328,1.47600581260864,1.46723798554453,1.46682960946931,1.46632919437865,1.46609757450629,1.46514555612376,1.4626146363992,1.46078719601155,1.45786539580367,1.45661342721194,1.48541979154635,1.49238177904647,1.49800594592242,1.48935775045614,1.47827493678141,1.46731977135292,1.4536775460938,1.45157878174811,1.45077375786576,1.45025155923891,1.4495088063888,1.4484547310289,1.44704427438006,1.44558595889896,1.44448237260189,1.44320312549184,1.44205519585053,1.44087202143834,1.4400090139108,1.43917755399729,1.4381351828326,1.43893680436299,1.43799969762243,1.43713879164764,1.43689370361707,1.43622259233895,1.43541212823784,1.43619069975238,1.43633230790342,1.43672957133924,1.43684053549468,1.43626388168268,1.43518329182353,1.43518166862611,1.43546920117282,1.43418189227028,1.43357083079627,1.43172426925025,1.43000935948989,1.4295409429829,1.40832071099844,1.39422184427538
1.52085349668579,1.57066884175879,1.5705267143569,1.57089404555799,1.57020540177109,1.57154907097292,1.58259564737117,1.58548807162553,1.58635630089838,1.58665345889323,1.58658858603661,1.58697321517423,1.8009485054817,1.58578859466173,1.58640816724161,1.58603036149899,1.7291285054817,1.58333639048676,1.58443627032986,1.58426496538611,1.58353970680872,1.6668485054817,1.63361944275432,1.58028896681865,1.58004611935031,1.5788292836946,1.57854674179218,1.5785571352761,1.57821512166169,1.57779838457739,1.57710377955704,1.62711481594455,1.57717113055891,1.62569579437886,1.57635540818827,1.57538118043585,1.57401359873526,1.57299661441952,1.57310425345953,1.57367974146016,1.5732549163227,1.57256524327365,1.57283233287364,1.57276638539846,1.57309757008246,1.72393178795454,1.72453671752716,1.8104685054817,1.72463925274085,1.5729930630733,1.57177921404407,1.57172768826789,1.57286123614193,1.62345624051858,1.57333058215662,1.5729682296081,1.69190387911128,1.69320387911128,1.64226114243346,1.64101428945499,1.64290171469368,1.64260142548896,1.7471385054817,1.64420437899656,1.67777936585239,1.7580585054817,1.64339512047688,1.7618785054817,1.64408625824728,1.64408374898059,1.6449257489132,1.7673285054817,1.64492176294748,1.64554901669369,1.64258262801912,1.644118238119,1.64348635729233,1.64470532372746,1.64422767610306,1.64216140819991,1.7518185054817,1.64457907856177,1.64189940727099,1.64189186192033,1.6405049629604,1.64155337551766,1.7519785054817,1.63905615533271,1.63779845899082,1.6372676495864,1.63756185166778,1.63615536756996,1.7488085054817,1.63225237286453,1.63114396589699,1.63044233857759,1.63020335896828,1.63156816665187,1.56134090156472,1.55770536869787,1.55373773862104,1.54740443526036,1.54558802434043,1.53418323210155,1.53304430252107,1.52808649215845,1.52148433291421,1.51790765447565,1.50945469518519,1.50879614681674,1.50681455127008,1.6067985054817,1.49605050489862,1.49493052202406,1.49414446591563,1.48998513808029,1.48955951460838,1.48602008472624,1.48169634596714,1.48093108329376,1.48109531335335,1.47599343091238,1.47691108807612,1.47500419032907,1.47549424565594,1.47518005916629,1.46808829643627,1.46685510999734,1.46496735571516,1.46674847076605,1.46722905937191,1.46187843442617,1.46271327384756,1.45735079261142,1.45738217699469,1.50866305382666,1.45914750524899,1.50798524183002,1.50607405563635,1.47063256625247,1.45550288853091,1.45447637160896,1.45290565510584,1.4501485264372,1.45077671193627,1.45081059999407,1.45011669616083,1.44727602567517,1.44476559707907,1.44462839003773,1.44305988712602,1.44223131893044,1.44098814895692,1.44005916135877,1.43934069081936,1.43549078813695,1.4404491358262,1.43858944014541,1.4366277475647,1.4372137125416,1.43674060670835,1.43478591374535,1.43815348434949,1.43737905969319,1.43773423171135,1.43765142986362,1.43685281611189,1.4346823667581,1.43456486377084,1.43640900576613,1.48501431546778,1.43463320642794,1.5298385054817,1.43152501143821,1.43195138179147,1.5840485054817,1.41329739435897
1.51977112435095,1.5454868132056,1.56974304472926,1.56965111452716,1.5692725159461,1.57874346410912,1.58399135695893,1.58563185343014,1.58690651666849,1.58735115988675,1.5874667480125,1.58757277879093,1.58764931805646,1.58716205378608,1.58691497514628,1.58617163380628,1.58557918238367,1.58477152843501,1.58493149489329,1.58459412555532,1.58376285946325,1.61512535886775,1.60253416633119,1.58085815115284,1.58064646610457,1.57980044685972,1.57918677207068,1.57907402768106,1.57863665187335,1.57842008049406,1.5780798062299,1.59075365640684,1.5986312509977,1.61198882246725,1.57722224856781,1.57600142950164,1.57481037915307,1.57455645770742,1.5745716727648,1.57458193113166,1.57410962776913,1.57324868746358,1.57319022652857,1.57310031312849,1.5735658750625,1.57387239666571,1.57420757082953,1.57447552678255,1.57468575904316,1.5741318310176,1.57362165841955,1.57353064225215,1.57442010321278,1.57572491832591,1.57519573853841,1.57513224810653,1.60557717224234,1.64055996203294,1.63985679412841,1.63984345679937,1.64138513549631,1.65123543342879,1.65031511260234,1.64946800099157,1.64918092921062,1.65107089501789,1.64460318826848,1.64463098284476,1.64475249134815,1.64430232015453,1.64446221961386,1.64427430501473,1.64439652126889,1.6426092323615,1.64110447534961,1.64164884285455,1.64169188524715,1.64210841668864,1.64389716120123,1.64288548513178,1.64319974651636,1.64317210615942,1.64071939114403,1.63946253545205,1.6389588732102,1.64051389131843,1.6410380529644,1.63926658655661,1.63894533130822,1.63829243816959,1.63810267569978,1.63719637414628,1.65509141099759,1.63182502515937,1.63127917704302,1.63090650301217,1.63105910660448,1.59262370598492,1.56146959008875,1.5570768219635,1.55420471061882,1.54817086121735,1.54409363024579,1.53312580733613,1.53337242263003,1.53010113419994,1.52198450498599,1.51786885282634,1.5097209271089,1.50890233969426,1.50703824851402,1.50557454261577,1.49766880625616,1.49749709289341,1.49394151851258,1.49204329853935,1.49120075772252,1.48782524068725,1.48066465104253,1.48059255582531,1.47991831436202,1.47825206036096,1.4768758270507,1.47563041309003,1.47550040388855,1.47530529106262,1.46902331108808,1.46874106578652,1.46867888569972,1.46763919409835,1.46624284154046,1.4635059468646,1.46227370160162,1.46065691705053,1.45911946545047,1.48763551788722,1.45959409604263,1.45989952107839,1.46001331753092,1.46016428806154,1.45632927880041,1.45551492784062,1.45353341700076,1.45182369091551,1.45152574569888,1.45098429576635,1.45015167805606,1.44862564287423,1.44705583492291,1.44598037696808,1.44450826348804,1.44318077251112,1.44180577400225,1.4407702779852,1.44009371270251,1.439618310353,1.43949326535072,1.43868297035543,1.43800464158871,1.43824541837402,1.43800822861484,1.4378120891764,1.4381585273191,1.43822003724886,1.43876338818636,1.43874522375561,1.43775939641787,1.43670382708825,1.43674402323394,1.43745445470052,1.43710537246905,1.43575865127014,1.43477704050991,1.43390047073871,1.43443269103259,1.42512510739711,1.41435358291702
1.51795719628912,1.520659490319,1.6059985054817,1.52255463770165,1.55400893456265,1.8365485054817,1.58833457442057,1.5862793625874,1.58808144516067,1.58807964472343,1.58811290469368,1.58787232904401,1.58774640757539,1.63727690437763,1.60629173697821,1.58514098245837,1.58506240875709,1.58453576914272,1.6724285054817,1.58427125612426,1.58233299219355,1.6803385054817,1.5806676252125,1.58118058217189,1.58113214789154,1.5802140471539,1.57892053809464,1.57978139261294,1.57843825697835,1.57865572544894,1.57827306110297,1.57876816792323,1.7132885054817,1.62742549359434,1.57772673469425,1.57629095145494,1.57397351778243,1.57557082107796,1.57572620677589,1.57545630147547,1.57499419446735,1.57304302213618,1.7855085054817,1.57245437982739,1.5733964195438,1.57274877996289,1.57315565057354,1.57343890635946,1.57479859629699,1.57472752499024,1.57477170919248,1.57413430923817,1.57543639496721,1.57685615063611,1.57650214526498,1.57621883057245,1.57669780112444,1.6440190317262,1.7593685054817,1.64037140044918,1.64302642752597,1.7123085054817,1.64342694710859,1.7436385054817,1.64770095955895,1.64510167955538,1.64577162574977,1.64581299669591,1.64670871185841,1.64507590113678,1.64511167329625,1.6449055818459,1.6453716517583,1.7438385054817,1.67851778898689,1.74187677265614,1.75493250270083,1.76032773560643,1.64569096438674,1.6442692858431,1.64538240303184,1.64547027334951,1.75758887911128,1.75746887911128,1.63909815714684,1.64211587997178,1.64211437634046,1.63953261742511,1.64028492724435,1.63896154158618,1.63903996513055,1.63736957074108,1.7513185054817,1.63211254223242,1.63138394934351,1.63129423746976,1.63228228990379,1.56734825213446,1.55992773469999,1.5560814050898,1.55441826493406,1.5479250227801,1.54175998779957,1.53242825380286,1.5340669764912,1.578326170375,1.52115836405932,1.51749770707257,1.51053673632167,1.5093403299494,1.50608988014656,1.50245312075806,1.58101925274085,1.6310485054817,1.49419787578598,1.49251943238106,1.4919212886199,1.48817345153774,1.4797810126026,1.48037031112538,1.47948189311389,1.48004627449198,1.4760558881064,1.47476353802182,1.47505633066443,1.47463435933783,1.46992353649661,1.47014626201922,1.47111607924793,1.46812541640152,1.46578883014731,1.51425789428504,1.46237421225304,1.46102688710667,1.46042907924282,1.5465685054817,1.45929080717579,1.45880107290177,1.45911948138799,1.45916881923212,1.45733122015597,1.45669755244212,1.5582485054817,1.45219559710923,1.45199578801778,1.45119078945854,1.45086228196507,1.44992290651157,1.44852950396616,1.44732091829845,1.44573531119373,1.4438688079729,1.44236038709515,1.44097560505617,1.44091053112848,1.44046210592408,1.43919324489583,1.43874299253378,1.43764283775144,1.43920219893905,1.43903103674547,1.43842974071125,1.49470852119092,1.4380390802145,1.43982346588097,1.44031215565108,1.43806654422209,1.43730434911736,1.43725293876643,1.43786111639307,1.43672768968078,1.43562571316933,1.43374210133642,1.5299385054817,1.43604997108179,1.41555163538155,1.41536429530519
1.51995523192968,1.52101853729673,1.5220799012613,1.52269434458551,1.54422148283415,1.56193159022568,1.58871466195328,1.58808355237736,1.58839750019309,1.58848322776754,1.58835862343769,1.58879651261337,1.6062191503582,1.62018690767024,1.61521251934313,1.60244758127258,1.58545515647364,1.58565061459734,1.58550406950603,1.58478505339321,1.58358856438888,1.58350818251973,1.58256040920734,1.58215169807198,1.58180916927377,1.58102231291429,1.58011502813638,1.57980487825966,1.57923024790468,1.57900112942821,1.57844997464784,1.57849260551657,1.57894437116257,1.57951175560365,1.57872736883391,1.57751654986563,1.5762941669098,1.57578464378029,1.57601860952044,1.57625034882299,1.57587966055754,1.57646572627941,1.60070678788209,1.57470338750465,1.57434053617413,1.5740848217865,1.57401399212957,1.57394981843535,1.5743350654516,1.57476123277172,1.57499560103819,1.57523938083802,1.57597955366194,1.57696268241553,1.57726820826052,1.57726083337188,1.57735411730187,1.64259651722677,1.64153019130148,1.64095964596918,1.64273555154439,1.6436077875721,1.644097368064,1.67192963467097,1.64855644094782,1.64545210568541,1.64611768216114,1.64573513513927,1.64523444134263,1.64460476785277,1.64449234256508,1.6445896499088,1.64474500420618,1.64339719843414,1.64218827588545,1.64247863529533,1.64295704222776,1.64358727043141,1.64431445935406,1.64412628996501,1.64462245734803,1.66550840446044,1.67339393285377,1.66823566709409,1.63921733913323,1.64107623638711,1.64115285233757,1.63925617043113,1.63927387855116,1.63855799372175,1.63780151201775,1.6366467644083,1.63483334909092,1.63247523588835,1.63125917694444,1.6313271334515,1.63175281553722,1.56862175369083,1.55993387416573,1.55477543147331,1.55443235930491,1.55005139032796,1.54019322926833,1.53692966223732,1.53615050832153,1.55887341282726,1.52277269588336,1.51793113165731,1.5115994743208,1.50905589626259,1.50740757694585,1.52559527437014,1.53403234724696,1.52216381064201,1.49525175426447,1.49425026757982,1.49336509426299,1.48762350000793,1.48248959200772,1.4815695416068,1.48022942950275,1.47907910651873,1.47658770368021,1.47520581849191,1.47475085292792,1.47385574908656,1.47242275096285,1.4721463655291,1.47235370175946,1.46838363446607,1.46647735104509,1.46507423708258,1.4634387829624,1.46137902202329,1.46108812676148,1.46115174719403,1.46031426721231,1.4599486386511,1.46004334151617,1.45955752805855,1.45831954871449,1.45701284296686,1.45547743622244,1.4533191484744,1.45270974884492,1.45169108063513,1.45098958734479,1.45022894615394,1.44934106602495,1.44870268599634,1.44708219282516,1.44492750716458,1.44330914698314,1.44230469173124,1.44201114361005,1.44165860998039,1.44096433950697,1.4404003748779,1.44065782057234,1.44089914639554,1.44048446015121,1.44058993479055,1.44162164324055,1.44051184127647,1.44130491804357,1.44087563477617,1.43967708598793,1.43905335666189,1.43880496683712,1.43886459813588,1.43807339729756,1.43664569658437,1.43565270912486,1.43591585565457,1.43653448315232,1.42946820161609,1.40178081501511
1.52041745278378,1.52077794455707,1.52188146020244,1.52284352833199,1.52379778551178,1.52280120495031,1.59120191051108,1.6791985054817,1.58863739888708,1.58851475957268,1.58766102343458,1.59004053854926,1.64011958565299,1.66969769653778,1.63343876916409,1.6362554450638,1.58517610484626,1.5865560793051,1.58518663200633,1.58472989434539,1.58301705564225,1.58376153615568,1.58328692098905,1.6786385054817,1.61946351622487,1.68043925274085,1.7305685054817,1.57968391780362,1.7293485054817,1.57910556490265,1.5776372658074,1.57746906381552,1.5783756746878,1.5802306426778,1.57935145240857,1.5783156212654,1.57720357891174,1.57482956175748,1.6713585054817,1.57696390898179,1.57573602337233,1.57685331503986,1.63058025642288,1.57562573404785,1.57495087479506,1.57501978408042,1.57444886121306,1.57372104808934,1.57345908436271,1.5747679625809,1.57485074224209,1.57571330420525,1.57589829094297,1.57741975170472,1.57772664245102,1.577850746191,1.57781546958348,1.64375065893814,1.64335684210105,1.64208480357099,1.64488536388141,1.64486793650765,1.64452765069408,1.7678785054817,1.65016057383688,1.64498371905938,1.64701133552805,1.64679098264155,1.64388764919395,1.64413191170985,1.6441812557234,1.64460349428298,1.64609687388382,1.64618197025551,1.64426363605093,1.64545661844051,1.64604076216958,1.64609889145644,1.64493092522969,1.64459390741353,1.64511304909779,1.7513069604844,1.75661079773816,1.64339088215713,1.64151238077923,1.64343307844713,1.6919785054817,1.63940341152186,1.63953761967706,1.63818486896535,1.63753018971244,1.63668043403313,1.63608314582114,1.7555185054817,1.63142688420365,1.6320991189267,1.63279465086238,1.56808759356931,1.7784685054817,1.55370999953958,1.55353418647647,1.55226862800388,1.53941706135995,1.5366316582594,1.53672662579463,1.57813493349699,1.52320888946648,1.51710383865128,1.51372053766239,1.50990013830966,1.50639036984062,1.55338132957425,1.55224020718594,1.49665990113088,1.49595840775391,1.49530648898056,1.49305135085595,1.48622888883631,1.5783785054817,1.48235123611898,1.48003620653444,1.47847551069295,1.47646434129808,1.47398518147247,1.47430214529995,1.47271307159213,1.55743707398351,1.51852772494353,1.55429453584795,1.46849188545128,1.46525577251929,1.46480361836346,1.46455758601983,1.45990782810864,1.46119127732035,1.46174291014396,1.46102319671401,1.46041735749218,1.46072214603579,1.46009087161829,1.45822036473922,1.45761639095322,1.45464765354608,1.45379020840702,1.45315477761631,1.451515342093,1.45095655930901,1.45033687607997,1.6145285054817,1.4498220547107,1.44867089067009,1.44485820517648,1.44352371813631,1.44275729870057,1.44305047078956,1.44300422636335,1.44231247540121,1.44118805744238,1.44178654766307,1.44239523171594,1.5492685054817,1.4410527667747,1.44281252541581,1.43980890874145,1.44219386231323,1.48952899045215,1.5269485054817,1.43966823189379,1.43933202303802,1.43962239750855,1.43930028458418,1.5361185054817,1.43577436412554,1.43535949625537,1.43623761585218,1.45566797997721,1.36836653283747
1.52152812959058,1.52234286504601,1.52335575597681,1.52422045316885,1.52484836418632,1.52454562070189,1.58981378069767,1.58957059275453,1.58927378374787,1.58880326315855,1.58811390227814,1.58840282107236,1.63860714604357,1.63659954731926,1.63386244227971,1.63344934754598,1.58568911433806,1.58623039724798,1.58570355752015,1.58530014975008,1.58454964400964,1.58426949608598,1.58387313676006,1.61863342606753,1.61269200678891,1.60268641193687,1.59388657497696,1.5800618084296,1.5801777839416,1.58000057325223,1.57940305060597,1.57843202368995,1.57921883241134,1.57973364605097,1.5794046528212,1.57842582510657,1.57742513294805,1.57710717145,1.60772310742207,1.57792991932901,1.57730881776354,1.57733252298097,1.57689656360551,1.57597130368291,1.5744860738817,1.57457762788635,1.57467680508569,1.57458340416153,1.57483820337776,1.57535604952927,1.57580043082631,1.57640850381368,1.57689424692509,1.57735194816731,1.57792222936771,1.57810469608436,1.57826398272532,1.6437449255869,1.64300170403243,1.6411116408782,1.64220648317898,1.64302903732613,1.64426870312359,1.64404708715642,1.64321524777917,1.6446809677001,1.64531731067144,1.64527287345854,1.64452211912491,1.64445786180244,1.64409013116138,1.64460217157384,1.64604976811539,1.64616896909175,1.64517587883248,1.64533802502605,1.64616259912468,1.64605684309008,1.64571937193687,1.64493371707646,1.64512493725714,1.64458672563246,1.64379188451016,1.64268627880175,1.64184668338938,1.64254597759013,1.66464283790918,1.63982938730094,1.63941882361817,1.63783255608018,1.63675535712775,1.63601819247342,1.63580092667193,1.63449538864809,1.6327025171279,1.63246357291425,1.63227080396448,1.65780477887198,1.66731152858735,1.55312908102832,1.5528085866981,1.54991972144958,1.54058908188909,1.53647563815922,1.53621996983695,1.53205524908617,1.5238851548974,1.5194386990478,1.51395030732056,1.5115467299122,1.50742648801917,1.50639654237134,1.5001370112841,1.49634563748487,1.49601947475323,1.49519181318688,1.49352524362593,1.488010261988,1.48511289037124,1.48359644408903,1.48192879835359,1.48087043278683,1.47556274665114,1.47504784459842,1.47493214019649,1.47442458603132,1.52022668375315,1.51966418429384,1.4971348263091,1.46908921373449,1.46725566650585,1.46586325603466,1.46436847883793,1.46214484592174,1.46173060918857,1.46110919754505,1.46073784999182,1.46061240821465,1.46104236243751,1.46066796339869,1.45928891027811,1.45793277673912,1.45631326645863,1.45507199339453,1.45418981743868,1.45284758492765,1.45209167487436,1.45118503931168,1.49341393295518,1.45034915897963,1.44864066881779,1.44655213691108,1.44535576272878,1.44431246940852,1.44420228342027,1.44399039798747,1.44314866475872,1.4417293413508,1.44268247740248,1.44323708934568,1.443104797661,1.44282830808288,1.44316488145155,1.44259824247766,1.44354022707233,1.44378441578934,1.4429791049056,1.44168107738972,1.44068527060342,1.44026473433213,1.43962603353694,1.43939151695184,1.43771392210381,1.43662636936465,1.4368842150671,1.40382976046559,1.36916080633853
1.5215180637869,1.52338676338084,1.52447391910523,1.52507756225509,1.52563780087854,1.52504829297957,1.58875804591315,1.58950965805289,1.58989349452471,1.58893744971663,1.58726871091199,1.58702166575727,1.64005594008,1.63941075407651,1.63521495819192,1.7332285054817,1.58527829515219,1.58661449921508,1.5856797817972,1.58564424942877,1.58527004939585,1.58464149156375,1.58386887313131,1.6817885054817,1.60066680100122,1.58330659007109,1.58416349603271,1.5799021333485,1.57979753523863,1.58060334534325,1.58097598102466,1.57707025943721,1.58011982669207,1.57939858269962,1.57943701674668,1.57790139979289,1.57698181009747,1.57771660710738,1.6753585054817,1.57845108066266,1.57709165744244,1.62647120001124,1.57659035568646,1.62634074215308,1.57307221460465,1.57401130143841,1.5752331244156,1.57479732125139,1.57538718252966,1.5904636692147,1.62630888737664,1.5769537349242,1.57743472336121,1.57683799977019,1.57792975333832,1.57801670328222,1.57855128516279,1.64580533407442,1.64533525453043,1.64065004558188,1.7515385054817,1.70887925274085,1.64675294031442,1.64622436798882,1.64469248968088,1.64598827340587,1.64482824733858,1.7639285054817,1.64478579180286,1.64531092506383,1.64912630347968,1.7487985054817,1.64705745843287,1.64780639164916,1.64565326574586,1.64542828175029,1.64753771174119,1.64669977357033,1.64749113128043,1.64568981812339,1.6466519331979,1.64598519923871,1.64514734146322,1.64316151928268,1.6422680700644,1.64410445877574,1.7610085054817,1.64116651713672,1.64126432204378,1.63859140807137,1.7725685054817,1.69007925274085,1.63730958811333,1.63664123422385,1.63468598417133,1.63518576065958,1.63371730884839,1.7578285054817,1.72244925274085,1.55322898308,1.55204618265782,1.54677612289559,1.54144327929287,1.5361647720366,1.53587975995435,1.52946461440417,1.52308999484147,1.6574985054817,1.51348662740989,1.51334910323236,1.50786479151917,1.50308452136854,1.49920899256387,1.49604733081775,1.49579695108131,1.49468753344635,1.49220417673307,1.48945305432788,1.48087120462807,1.48320581596477,1.7964285054817,1.48192394184208,1.47491670044245,1.47520980049882,1.47528762701134,1.47497573013983,1.52162201987466,1.52087325911006,1.46984901699638,1.46945281748727,1.46762114684609,1.46680013230213,1.46446430671678,1.46210081202558,1.46186674759562,1.45984697258072,1.45979687782766,1.45937339289576,1.5440485054817,1.48630762403643,1.50941847774735,1.45782238246531,1.45705251304738,1.45567813749575,1.45502720791447,1.45328935994145,1.4531614441688,1.45090595788261,1.6090685054817,1.45055493474289,1.44697607947899,1.44734331256191,1.44641321211344,1.44473514098654,1.4452614225275,1.44552353161596,1.44413900591461,1.43903882499357,1.4432113529792,1.44343586031892,1.44173443710352,1.5528385054817,1.44346275563514,1.44243202443545,1.44372183568905,1.44330971319208,1.44249338901731,1.44272557157207,1.44096028288876,1.44048072755418,1.43928866271959,1.44005832062911,1.4394969091849,1.43650731873189,1.4374070329732,1.36991527130587,1.36929511461143
1.5227378180043,1.52368016084413,1.52465543485599,1.52586067434136,1.52655561010991,1.52649908994354,1.59024460750321,1.59045308446073,1.59042360237606,1.5896130920496,1.5886662498085,1.58865267771334,1.58915282859582,1.58891204883798,1.58906320097075,1.58864823295138,1.58757796862976,1.58691697551378,1.58624397844365,1.58600935844227,1.58564352207988,1.58539674829616,1.58468705465211,1.58499072659967,1.58534697605672,1.58485536254805,1.58341728510582,1.58179985596347,1.58100734991101,1.58116948994435,1.58097613030843,1.58056722222619,1.58007560378358,1.580172033618,1.58010485307579,1.57913138025039,1.57836485704399,1.57898804536962,1.57936403156404,1.57912289021961,1.57831378016034,1.57746180839048,1.57559125016356,1.57379700391352,1.57187368575865,1.5722587595025,1.57343010279072,1.58962345820261,1.5968199426077,1.60492471855616,1.61136687888458,1.577412620866,1.57778095209742,1.57802750788393,1.57862618638433,1.57899247986604,1.57953414576304,1.64315048349229,1.64243150224188,1.64004380715162,1.68114012642909,1.67407858417307,1.6631972288019,1.64558505628706,1.64446412734345,1.6442402759985,1.64379801501429,1.64452113198573,1.6434488623422,1.64421301386259,1.64710063770321,1.67467465683133,1.66673160982003,1.64624166234302,1.64536184660534,1.64579016193021,1.64669455932804,1.64601482810037,1.64610507276866,1.64496045625846,1.64510554752794,1.64532706487411,1.64469356275348,1.64297474261444,1.64162695196712,1.64240982123983,1.64295515622072,1.64044207629582,1.64013192895513,1.63829076554901,1.63752566336166,1.63763084421161,1.63744197822047,1.63674091153693,1.63547606280571,1.63516011093027,1.63402986437041,1.65394477023026,1.5871905797258,1.55423604047581,1.55332435435958,1.54862540901719,1.54221194877198,1.53570503978699,1.53531523815517,1.53234047097316,1.52394987101301,1.51921878706542,1.51477522993673,1.51448519558548,1.51220881349784,1.50390539659272,1.50091279864497,1.49615001173168,1.49590210546739,1.49511887688804,1.49433378349322,1.48830304698543,1.48518613078629,1.48406724342048,1.4815346288515,1.48079127455843,1.47635779228886,1.4757185133968,1.4754077459206,1.47464511854653,1.47332383345467,1.47219671233463,1.47098801459357,1.47007668068227,1.46857431230505,1.46712173923205,1.46549564727438,1.4638359233825,1.46308710990568,1.4618816345647,1.4611374942305,1.46155615259991,1.46229538277586,1.46214840543673,1.46039698461414,1.45861103287822,1.45772131504274,1.45686690243765,1.4559682546372,1.45457280955731,1.45342538214319,1.45257023398502,1.45245383291073,1.45202960496228,1.45105418627256,1.44873496409508,1.44740392383697,1.44643649207246,1.44625681049885,1.44583646501095,1.44506310365677,1.44455775232564,1.44426158331232,1.44459964434199,1.44451725019975,1.44535010555875,1.44471380444145,1.44429722815977,1.44429833869162,1.44365637887565,1.44301828263439,1.44260801433811,1.44154029406633,1.44098500838654,1.44007244744476,1.43990305407038,1.43935771412222,1.43842563045965,1.43889195785927,1.37000316298723,1.36940533794249
1.52282296251699,1.52342846665503,1.52435566611249,1.5262855036601,1.52720237701386,1.52697447700619,1.59209297215221,1.59139499594017,1.5916602331708,1.59028242111556,1.58900598573159,1.58948876701574,1.5894214718262,1.58773169383535,1.5887117752943,1.5886690415385,1.58884186060085,1.58701136818082,1.58615783749377,1.58621732540033,1.58569665233286,1.58653116429569,1.58421293106176,1.58422697604398,1.58564151595186,1.58702984106421,1.58282690182781,1.58251008983482,1.58087749969305,1.58160265799994,1.6791385054817,1.58106690370759,1.57927122362759,1.6758085054817,1.61891067320394,1.6783485054817,1.57758521203615,1.58002572836566,1.57937335059296,1.57942025401817,1.57929472403687,1.5783368436312,1.62786420333293,1.57528988297731,1.58301242111918,1.62671052085834,1.57451524833524,1.6699685054817,1.62781750643944,1.61002902249614,1.6284025333122,1.57731123822923,1.57815858455045,1.57850562499241,1.57891113469361,1.57946004502345,1.58094385775257,1.6965485054817,1.64462110674852,1.64138863303155,1.7474285054817,1.64681870746542,1.7515585054817,1.64787128796413,1.64514342802188,1.64401075574091,1.7510985054817,1.64760511699689,1.6985285054817,1.64966964931041,1.64798990859766,1.69931721244461,1.69819054577794,1.64677158394362,1.64520984704497,1.64658612943182,1.64706194240516,1.7000385054817,1.64703905882238,1.64491008015236,1.7526085054817,1.64646719630946,1.64613611841459,1.64369034118915,1.64137364149807,1.7562985054817,1.6447853336669,1.64098862551785,1.6414153518809,1.63887693797866,1.63804394883128,1.63955716423745,1.63877642970064,1.6380103966946,1.63646688133438,1.63635776044231,1.63435170963069,1.7184685054817,1.55936994565216,1.55604740396025,1.55444242701884,1.54795310465017,1.54334107963382,1.53553522541374,1.53487840826476,1.7884785054817,1.52243154625606,1.51587741354473,1.51534742801294,1.51493372590062,1.56183930601656,1.6438285054817,1.50113866929551,1.49601100671843,1.49585642399682,1.49432141451289,1.54157878000385,1.48695024087405,1.48684973633542,1.4855447798139,1.47834080424095,1.47872734499369,1.47793182065956,1.47492100478839,1.47528610269863,1.47424022053163,1.4725804132916,1.47160596447086,1.47108236412147,1.47027084646938,1.46870133508504,1.61997387911128,1.61963387911128,1.46445004183306,1.4640017104861,1.46284452272415,1.46084011579861,1.46252213906308,1.46200743893284,1.4620416540746,1.45893852238537,1.4573000485485,1.52106864613801,1.45703465447581,1.45699742733241,1.45493452565597,1.45278878622701,1.45298579789899,1.45142779806757,1.45237716794505,1.4513006682252,1.6100585054817,1.4478382043949,1.44730926519354,1.44700531165867,1.44641833802578,1.44576605137739,1.44397558584545,1.44442683722575,1.44537878237278,1.44480989932181,1.44589745791727,1.6047585054817,1.44480175149144,1.4444634804752,1.4432538855487,1.44280068139733,1.44275971652039,1.44116541314164,1.44115492564172,1.439592340895,1.43977463171566,1.5466885054817,1.43878554604869,1.44036649490086,1.37042511258964,1.36941787958896
1.5233731558737,1.52431279252757,1.52548191704188,1.52701840740825,1.52791903271005,1.52788654408243,1.59187906941716,1.59183111331248,1.59160595441899,1.59081659167514,1.59004033186621,1.58940363579476,1.58890218804176,1.5881978181203,1.58871467956769,1.58887305041236,1.58871054484129,1.58810382769948,1.58741156523973,1.58683139236925,1.58621455145686,1.58572657596357,1.58486901650079,1.58471378388338,1.58525898509725,1.58526154289067,1.58398920378814,1.58299977529308,1.58231322990599,1.58236258089754,1.58239225697618,1.58188765853079,1.59417591399955,1.60257994993538,1.61176615479315,1.61829476152939,1.58019677475404,1.57995998217585,1.5795022849321,1.57932797208212,1.57887454559287,1.57880672079242,1.61457233243788,1.6092099193573,1.58127377640386,1.57951646118145,1.57930585691619,1.58084055090608,1.58239075435307,1.5823222173143,1.5801622230552,1.57857412734453,1.57812571844835,1.57893544140216,1.57921383955663,1.60049725980431,1.61167642821833,1.64464156244544,1.64455105129777,1.64326635967719,1.64476148398686,1.6463520468755,1.64661690516802,1.64680311516323,1.64531296398731,1.64535131179154,1.65259803325653,1.65353285724406,1.65196500561561,1.64996947686852,1.65043156469241,1.65190898465595,1.65412483199022,1.64509408568583,1.64403905786907,1.64514014366018,1.64692532524997,1.67137272989205,1.64560424309657,1.64446140864656,1.64471516071491,1.64519332446656,1.64449268171879,1.64279851766174,1.64128912498401,1.64154496105555,1.64253607029277,1.64129466288462,1.63990164411106,1.63907548880379,1.63890456998237,1.63916980895516,1.63833778364449,1.63767670787618,1.63667964009391,1.63611482497256,1.63536548431515,1.5898563618777,1.5595095507179,1.55704586758674,1.55488785663081,1.54807901773246,1.54155665466035,1.53909071396769,1.53326000247606,1.52898233154873,1.5238333462302,1.51818220527083,1.51442988122358,1.51390933944839,1.51223821158414,1.50794454644054,1.50463257189919,1.49699352727489,1.49649846781116,1.49562558137686,1.49537183729601,1.48753813645368,1.48727445040143,1.48654533652428,1.48219378126127,1.48022379585204,1.47827022132568,1.4765642244549,1.47589517190622,1.47469245990033,1.47358641002232,1.47277952502124,1.4711374441664,1.4706021616836,1.46952078893314,1.46754826339667,1.46642133875553,1.46568485513222,1.46500744329198,1.46407446974302,1.46321817628973,1.46342215265864,1.46320742151331,1.46275065734921,1.46145159633524,1.46054528125774,1.46010942072646,1.45924652211131,1.45839782613787,1.4572969522363,1.4532230240397,1.45370248383317,1.45330013034266,1.45323150013672,1.4518923281245,1.45094976470468,1.44915660514795,1.44814390243219,1.44773132122987,1.4475552600826,1.44675238484126,1.44626665352669,1.44605269442432,1.44665891195748,1.44591208479188,1.44550476215749,1.44528720985349,1.44492786622483,1.44477493004833,1.44414563732537,1.44362416442785,1.44289107800574,1.44211528279062,1.44222865685076,1.44225888904106,1.46460376756644,1.47680489191799,1.45911169400588,1.44270772457413,1.37210302017631,1.37120363742856
1.52327059283024,1.52431165403369,1.52603651882091,1.52737700464303,1.52844198636154,1.52775184980523,1.59185276438956,1.59240906552277,1.59212903571893,1.59133509860958,1.59089028450376,1.58908692809107,1.58819908284875,1.58706917438852,1.58854100425702,1.63823499759427,1.64381278715478,1.58909588124209,1.58842726744983,1.58727483570118,1.58648652460724,1.58524721237083,1.58449162158315,1.58424633938377,1.58498274936377,1.58444397934235,1.58464095975949,1.58278974491173,1.58284841713235,1.58273576425878,1.58236311423101,1.58191122788353,1.8167985054817,1.57920938737683,1.59885247912339,1.6727885054817,1.58104738897896,1.58006678674336,1.5790876071311,1.57902799640593,1.57764502273142,1.5789359317673,1.64475399751774,1.64483473590892,1.5816533839856,1.57831215935738,1.6778385054817,1.57823837204891,1.57972627092304,1.58013294981813,1.57908952085592,1.58043918364351,1.57599694796217,1.58024764180644,1.57953616135376,1.75847775620377,1.72971000201878,1.64693052257487,1.64765383659389,1.64577679756102,1.64751913467494,1.7781685054817,1.64872510129094,1.64812818743778,1.64638429410145,1.64693345506719,1.64600970712864,1.70283985382522,1.64780854230198,1.68631968906376,1.69985826360659,1.65055678845795,1.64906117957107,1.64639303819759,1.64236162523118,1.7642385054817,1.64905658728715,1.7010785054817,1.64660736751084,1.64505412160616,1.64620570062467,1.6461651178225,1.64477686520933,1.64377580107192,1.64176795808237,1.64243844792076,1.7655985054817,1.64301260476433,1.63894970353075,1.63822699359671,1.64029975813113,1.63964341597449,1.7592485054817,1.63814934868411,1.6367004125615,1.6368692289475,1.63583966167347,1.56325986344214,1.55924836275438,1.55720453108607,1.55499860749797,1.54582611329708,1.54109085332551,1.6590385054817,1.53190577748855,1.52586499919433,1.52328663942844,1.6650585054817,1.51345339977629,1.51342729901731,1.50966713453312,1.50548153696065,1.50582245540125,1.49785063943847,1.49672570230109,1.49570472195783,1.4932749806399,1.48824094552033,1.48789748621281,1.48662950289083,1.48485293787436,1.48138938281109,1.47809272190481,1.47655244592473,1.47623133826491,1.47446491322354,1.47419373620833,1.47430674731507,1.46981489599625,1.47074999496594,1.47083778302388,1.46621944394844,1.46555330808709,1.46641781069827,1.46574843249202,1.46476990693696,1.46387924819957,1.46427005621749,1.46384405765693,1.46358292400336,1.46265301687619,1.46100848772055,1.45943696919111,1.6097785054817,1.50106864098986,1.6091285054817,1.45219252962341,1.45349331870225,1.50203647818862,1.47376522557168,1.45088338037151,1.45036566703009,1.49922784267086,1.4476166545776,1.44803151317943,1.44902145197908,1.44736567162328,1.4468480563619,1.5508785054817,1.44776046681037,1.44560077317247,1.44426637671852,1.4449125884284,1.44452094561239,1.44498871342814,1.44450251023094,1.44432766850285,1.44255348766173,1.44145309686988,1.44277675153954,1.44241731924709,1.49688674098864,1.49581322539337,1.49561439343483,1.44337544095642,1.37414711587338,1.37153831647425
1.52343873729223,1.52464547387812,1.52628361296222,1.52815168157784,1.52940493523364,1.52934357998447,1.59132704127366,1.59183904885116,1.59187969329116,1.59152992608192,1.59112637842732,1.59022483224161,1.58923191519375,1.58873693933196,1.58914331493089,1.58946519000592,1.58957457996144,1.58930845145305,1.58802546099144,1.58714637388113,1.58627478029837,1.58571378019387,1.58565978219189,1.58557645192881,1.58536558968601,1.58500969357514,1.584488491222,1.58353717503807,1.58305877378444,1.58301527493238,1.58247150652354,1.58202197828524,1.58151311041616,1.58122164568868,1.5820920077626,1.58207900333445,1.58143274149998,1.58056034789796,1.58012403887552,1.57974166673174,1.57899736731283,1.57895864798284,1.64437424558113,1.64466062599008,1.58216456247956,1.58000505204744,1.58051508055722,1.57985286444296,1.58036754531972,1.58071593849198,1.58010556083649,1.58000989220736,1.57917360812612,1.57954716615032,1.57962055289335,1.60609641294618,1.61488804422996,1.646332293318,1.64699396740073,1.64623673406064,1.64712943125691,1.64765752767686,1.64789609182686,1.64684864997947,1.64605583690935,1.64685429852451,1.64714430927357,1.70399255450489,1.70509942396463,1.70517859484792,1.70347204492565,1.64985528002661,1.64823411941497,1.64571646555966,1.64264653084256,1.67923749684999,1.66901253941435,1.67582440469723,1.64618704673982,1.645091488369,1.6451064772962,1.6448532525361,1.64473723773028,1.64367447570287,1.6414366407092,1.66823530127788,1.67378242856567,1.64096819601425,1.63802758121758,1.63710222869035,1.63806193656594,1.63938143481286,1.63886181022781,1.63729320520086,1.63586970522094,1.63671372905059,1.63679321551867,1.56514333717129,1.55787027100837,1.55715237243494,1.5562017881767,1.54729978563239,1.54036960762804,1.53683821483332,1.53033976195681,1.52853221230507,1.54667354293807,1.55606512924478,1.5134344511846,1.51248634579843,1.51012171580774,1.50731820802102,1.50587612413139,1.49988839062723,1.49684703280103,1.49531042556347,1.49235977477844,1.4905622626131,1.48925728478308,1.48722336274872,1.48563615949174,1.48043859505064,1.47947963662114,1.47800398684725,1.4772952698805,1.47572329912611,1.47464248616135,1.4730560783304,1.47153462026667,1.47116515577155,1.47011292193178,1.4679173943995,1.46713149115249,1.46651565702645,1.46607548639408,1.46504578178281,1.46474293018009,1.46464573443494,1.46446194548315,1.46428807440417,1.46308197113816,1.46138640829373,1.46054696055874,1.46079669624053,1.46161141978531,1.46145170132554,1.46076085533781,1.47823054674812,1.48882111888768,1.48054741782749,1.47081104490325,1.45063321691659,1.45027170944866,1.44855975914992,1.44808089617579,1.44801142938072,1.44789241726697,1.47139034323689,1.47947570385761,1.44921124728362,1.44876873478758,1.44766747889243,1.4465851969531,1.44610337960678,1.44582697592494,1.44530060626656,1.44497452495672,1.44420882110966,1.44441480293878,1.44407572583457,1.4436554459518,1.47643037668556,1.4662393532391,1.45474089074757,1.4424916528045,1.40341243994367,1.41610727690799
1.52286424093085,1.52385059073246,1.52578653452189,1.7134485054817,1.52984094663604,1.52949107220608,1.59036685550726,1.6798585054817,1.59212953799228,1.59187029871,1.59187313404032,1.59140607199682,1.58950058605889,1.58925069409832,1.5895644008885,1.58941097193313,1.58969085336159,1.59044650743878,1.58703187592277,1.58686813574488,1.58544919407058,1.58543074034799,1.58660788967658,1.586440138768,1.60247901929142,1.64793189276558,1.63630598462963,1.5833001652125,1.58251412875194,1.58307224159894,1.58219986844276,1.58169335149863,1.58082838321413,1.58152208850066,1.58218831399218,1.58184954999473,1.58179955171746,1.58019478784426,1.58085001062335,1.58032158942658,1.57939220152208,1.57873239222029,1.64349098576712,1.67096699503255,1.58319075034973,1.58049671154602,1.58043769225708,1.57946134585759,1.58028086726886,1.58096542017385,1.7304285054817,1.57990745190919,1.57949488738344,1.6793885054817,1.58105446079909,1.58174636101571,1.58106904301703,1.64561065404448,1.64908408923277,1.64697360647688,1.64782533569518,1.64900335832396,1.64893464918109,1.7309285054817,1.64673466469838,1.64814933271808,1.64823243893241,1.70291658971996,1.70334752278282,1.70446518674441,1.70293530782971,1.65023806915342,1.7620285054817,1.64829861353569,1.64438130709045,1.7549585054817,1.65013062792638,1.7546085054817,1.6481869219939,1.64606870831427,1.64609926027172,1.7721185054817,1.64703469109845,1.64687111276156,1.64322928427885,1.699050191696,1.69566756652656,1.64385306936495,1.7301685054817,1.68998463388747,1.6920422783645,1.64170873459879,1.64058278345365,1.7518685054817,1.63511901403984,1.63815626883983,1.63821186527046,1.565345127341,1.55737615935336,1.55683352875696,1.55521172716849,1.54709665170387,1.54066956049619,1.53414737678408,1.52986890786255,1.52697518868003,1.57161613846744,1.56980502615156,1.51361402464595,1.51251076935345,1.5097972395206,1.55636791347422,1.55200613926208,1.55100274321369,1.54069862423662,1.54694321853986,1.49204436581196,1.54122751462637,1.53722853427803,1.51490806243494,1.53535078929723,1.4802189556253,1.4809677678506,1.47801363253231,1.47818166955932,1.52651723859375,1.47553900908257,1.4711982186523,1.47141599077801,1.47161702127466,1.47004590443383,1.4681111266117,1.46802516079699,1.46587959082784,1.46623129836178,1.46380646393012,1.46520166879484,1.464453841045,1.46459366598931,1.46494084681335,1.51216422653692,1.46060019272968,1.4597017917166,1.45910364273595,1.46069082240304,1.46029099297514,1.45832977520883,1.50605188986162,1.50563437457069,1.48794786656831,1.5923685054817,1.4506727713882,1.45094565853652,1.50001835656706,1.47841101974586,1.50056824122512,1.44917966693269,1.49819019481007,1.49668098707724,1.45001232577041,1.4498812144997,1.44901711088377,1.44746832941184,1.44729744771862,1.44643130172884,1.44547985519995,1.44591764488846,1.44462276007833,1.44548175260472,1.44463400576083,1.44371391156211,1.5398885054817,1.44080744449669,1.44150135672315,1.44062012539969,1.37461035559229,1.45752560487254
1.52251831723514,1.52348551729871,1.52511585791453,1.52666364386482,1.5287227137037,1.52920630219565,1.59124979235485,1.59185241931273,1.59205753530206,1.59204944212929,1.5920039468245,1.59172655339888,1.59086992258939,1.59028225134173,1.59010265341072,1.58977706163691,1.58973330755467,1.58952091296447,1.58808469227051,1.58757670115498,1.58661442805347,1.58630554223296,1.58680250934285,1.60161030997355,1.61293082389467,1.62227661823985,1.60827099181691,1.58401951263147,1.58387963590158,1.58381599301886,1.58321986683177,1.58268044938748,1.58265762518427,1.58252384233016,1.58259383294945,1.5823470148817,1.5819484243838,1.58159719829438,1.58139180536969,1.58098525074336,1.58033094570439,1.58011021948836,1.58071789371568,1.58097217458746,1.58089948942775,1.58068112844379,1.5805373794792,1.57998596899765,1.58022581210171,1.58087869988733,1.58100555798261,1.58082618927959,1.58084919457438,1.58159778001269,1.5817326970095,1.58218047917373,1.58208322886502,1.64521396027101,1.64661917685202,1.6464184456677,1.64762425077474,1.64860289125455,1.64890244020821,1.6484193421635,1.64770095354108,1.64852574515656,1.64902810426141,1.64860998042438,1.64763889967305,1.64658154646249,1.64748151163713,1.64829026065656,1.64755272385122,1.64783480926034,1.64605781727122,1.64744077216852,1.64952596444931,1.67808766631568,1.67199231254779,1.6488953643878,1.64708978200426,1.64737193771189,1.64746240213214,1.64593900954496,1.64407001713271,1.64448634604997,1.64433117007508,1.64418193654638,1.6896821749415,1.68926141633985,1.69154825905789,1.65510762481102,1.66709968087884,1.67336254978801,1.63420271166582,1.63636793859154,1.63714842053199,1.56435341648704,1.55752077854671,1.55712214462794,1.55653810781692,1.54595119032534,1.54070949802996,1.53780598221786,1.52840094080085,1.52761983149817,1.5435976568463,1.55465695573708,1.5137402454278,1.51322346783407,1.51157667141246,1.52405698937375,1.53315664677449,1.53828032938001,1.53489498304198,1.52797152264614,1.52169760032532,1.51545086057928,1.50908175007084,1.50201262971516,1.49355807020098,1.48063972194,1.48019774190936,1.47893184096106,1.47826467101594,1.47630323117429,1.47609175158194,1.47156702519007,1.47238863297816,1.47296929466997,1.4716693462835,1.47035754076856,1.4695362824337,1.46922771073675,1.46803805274074,1.46699424551521,1.46583645777007,1.46510915413199,1.46504243821295,1.46491172430452,1.46371026111629,1.46156804178402,1.46054813394051,1.45998953289435,1.46027460284424,1.45974958663299,1.45859248668831,1.45872197256899,1.45846872599156,1.45854894304503,1.45814452838877,1.45250505861324,1.45160396393933,1.45068007270572,1.44999477127147,1.44930900604973,1.44891730493773,1.44910996879091,1.44925685439278,1.449824129354,1.44963523212462,1.44887063894378,1.44843378422923,1.44718467630058,1.44672650456903,1.44608407738091,1.44609989076995,1.44570774150931,1.46281772663822,1.47495869804678,1.48345813864836,1.49818992339793,1.44204453272776,1.44233292556952,1.43850752065849,1.43478198310267,1.44407438345168
1.5211465982851,1.52165964301032,1.52414116614376,1.52396102715073,1.52778948346803,1.52804269201286,1.5915917143964,1.59234278431311,1.59229364464604,1.59232191474749,1.59239017814908,1.59260439414903,1.59191193612565,1.59069357364993,1.59046071051943,1.58958900776751,1.589688996548,1.589621035047,1.5879202148059,1.58837797445296,1.7369485054817,1.58570346123157,1.58713243137844,1.63858312164269,1.62050037433535,1.6679685054817,1.58714173718087,1.58393119857202,1.63523404968371,1.60570232656054,1.63495374504715,1.5827966460836,1.58419305998758,1.58307489049112,1.58291912905563,1.58269579461415,1.58190567276184,1.58253746787579,1.58191174506351,1.5814288014017,1.58049813150135,1.58041049535303,1.58084881136798,1.58095008806977,1.58085684394197,1.58018307705408,1.63235893521464,1.57918398985512,1.57921945951678,1.5805422825331,1.58076353544681,1.58152381140578,1.58115018874273,1.58193385687859,1.58216215191333,1.58292049696812,1.58270701479452,1.6992585054817,1.64723256332458,1.6463980545103,1.64899817479001,1.64975341591101,1.6505420598888,1.65014506330758,1.64950194052422,1.65053576987951,1.65137135529895,1.6520855983971,1.65087759078627,1.64899998570349,1.65017543136232,1.6499465364444,1.64806212822301,1.65126698941288,1.64829569196168,1.64880385325693,1.65080242024174,1.75887774772179,1.76132001050077,1.64876650578579,1.6479583102311,1.64946410026274,1.6503880635938,1.64703195873737,1.64577161079614,1.64623724943373,1.64584048856312,1.64464607397098,1.69314838081967,1.69140207595368,1.69289861544187,1.6402364797791,1.69217925274085,1.7542485054817,1.63533488133272,1.63811832805331,1.63721389708895,1.56186287267182,1.55804250827309,1.55703758055352,1.6540685054817,1.54360097557985,1.54083309968395,1.6677885054817,1.52841257599041,1.52611304446703,1.52440531981337,1.56777240490969,1.51364305407195,1.51406627297558,1.50799841475881,1.50234597544735,1.5009795693733,1.6643985054817,1.52818887679344,1.49555099304818,1.5733385054817,1.48938776481343,1.48747013823611,1.4885561309938,1.48436196670055,1.48121500295449,1.47992714226317,1.47874306901313,1.47881199879105,1.47444065013926,1.47608457491602,1.47065744316941,1.47195269403763,1.47414373528806,1.55705737443825,1.5213038465521,1.52032413883623,1.46956395855611,1.4703969681278,1.52089281992234,1.46565215255917,1.46479387519681,1.46484635170204,1.46490665908847,1.46310481237535,1.46142937149369,1.46037676579448,1.45896734703231,1.46000387495405,1.45877838243985,1.45658871756706,1.45777112561269,1.45651883519908,1.45765126853514,1.456489126504,1.4543958631727,1.4523578380639,1.45075021352496,1.45063250211587,1.45005568620743,1.50058986599799,1.44972048938951,1.44874270860872,1.44989725464416,1.44958038311716,1.44829441615207,1.44973794530049,1.44600296615299,1.44629084840039,1.44560392021866,1.6055585054817,1.44544328513775,1.49729115161522,1.49108623551825,1.49735946973522,1.53369324021599,1.44311904110296,1.44347409247072,1.43906193244574,1.43127425226397,1.45945380830238
1.52255127564847,1.52300797939337,1.5241395058224,1.52524835645319,1.52671025650467,1.52697078190816,1.59140601719136,1.59226557200838,1.59260406855524,1.59260139618003,1.59253513505558,1.59237892731845,1.5920490350451,1.59153398918784,1.59123513656122,1.59074351488182,1.59019541230991,1.58989864821023,1.58939829042281,1.58921229770261,1.58886636449102,1.58844251945619,1.58792802163664,1.58781509500473,1.5878531336844,1.58715894868394,1.58632319236506,1.58513397150358,1.58464451942385,1.58439715310847,1.58367532549525,1.58331423949027,1.58389860150227,1.58347344790109,1.5831029969881,1.58271769963865,1.58252465147881,1.58246741437585,1.58224701721914,1.58194802738533,1.58125364748424,1.5808803162903,1.58105452306143,1.58120703290104,1.58108309308667,1.58058669415319,1.57979978271625,1.57965347596738,1.58003355504304,1.58081575774681,1.58105875328954,1.58120012209551,1.58099464631894,1.58133281169705,1.58177809727672,1.60214324996024,1.61268753670182,1.67524083401843,1.64593353717783,1.64497507970312,1.64658936231646,1.64877887120585,1.6497867369465,1.65067829050462,1.650565906947,1.65120351093914,1.65152568899481,1.6517879950195,1.65100853431521,1.65033760753548,1.65069842482387,1.65092645362416,1.65038103433672,1.65031160489485,1.649083001968,1.64918571339503,1.65011659096411,1.64939559437386,1.64976798735014,1.64883510333419,1.65021495411092,1.65037091285334,1.64998057387405,1.64815142906519,1.64686540799367,1.64663721317937,1.64668794921519,1.64575149286626,1.66491752498363,1.68303198645364,1.68944617444492,1.64153935793235,1.64026343271223,1.63865010965114,1.63710547273573,1.63820695190112,1.63777981650819,1.56098620684873,1.55920824861226,1.5554556796004,1.55161493031911,1.54463764163263,1.54420849527519,1.53149355087079,1.52924167420712,1.52739526567229,1.52636996755214,1.54473430876834,1.51428563043759,1.51444410887674,1.50907043986347,1.5026216997792,1.50138726333021,1.54428333192521,1.52162997279532,1.49566341246542,1.49541928053286,1.48887864714826,1.48859495419963,1.48888101397647,1.48698608443495,1.48161182074228,1.48062767995016,1.47954748426848,1.47870488059179,1.477025704546,1.47696217058584,1.47625541114114,1.47550392848087,1.47562322614322,1.51841160099594,1.50151924005379,1.49103991739412,1.47063438813889,1.4706715673231,1.46971953393509,1.46783240762281,1.46664767606401,1.46603248285719,1.46586643202207,1.46441995303127,1.46324683809084,1.46212458530141,1.46105105393465,1.46097633402453,1.45976097756337,1.45877869570424,1.45860014464847,1.45808412063981,1.4575585871352,1.45642434101138,1.45500970693255,1.45367901853235,1.45263141689864,1.4520901105611,1.45179114338831,1.45180281711249,1.4512131540667,1.45072077329092,1.45101852567116,1.45094994304688,1.45040672772585,1.45083116891354,1.45212256222309,1.45307329147253,1.46051623649974,1.46378556453019,1.47016501591923,1.47820846469887,1.48640929206042,1.4882193801897,1.49824547091691,1.47851153767852,1.46222777895706,1.43949649799769,1.42981336242576,1.42889132401426
1.52300973691157,1.52313504964887,1.52376430551334,1.52490722391968,1.52584669903392,1.52512789436984,1.59024185010943,1.59272463569364,1.59332864984368,1.59297112975195,1.5927552986675,1.59208185012364,1.59226694055532,1.59183878018754,1.5918865262368,1.5917622872104,1.6755885054817,1.59018657770971,1.59035996190871,1.58981791843924,1.58879508819333,1.58995405858444,1.58802024296527,1.58685603601868,1.5874877482716,1.58655545882641,1.58517972798773,1.58517422467451,1.58335823339972,1.58392729436034,1.58266441714164,1.58256111294744,1.58448502842993,1.58370762831082,1.58317150245381,1.58243716095815,1.58294189817683,1.58235759503036,1.58239511347699,1.58235187496983,1.63334865396274,1.58054913845691,1.58102794401648,1.58157017442096,1.58139408033837,1.58130608953035,1.57866663436825,1.57937792654092,1.58004537906943,1.58105679127966,1.63199885582874,1.58104581835941,1.5800529710943,1.58040799143608,1.58142589248962,1.6341634546212,1.6341750508605,1.7515185054817,1.64830992318468,1.64499703994739,1.7019385054817,1.64937144832589,1.64885474799903,1.6530490326413,1.65206937034834,1.6526549694714,1.65214502928948,1.65273002153785,1.65218182758298,1.65159966673588,1.65296428042759,1.65261948940417,1.65127431822351,1.65211006600683,1.64906547288985,1.65047702511603,1.6511103903733,1.65104719920449,1.65182471020282,1.67153561891127,1.7723485054817,1.6514168277114,1.65163494391467,1.65006778536489,1.64801045600802,1.64820570181728,1.64793501372508,1.64625544494645,1.64586578847238,1.67625785829157,1.7648785054817,1.64318153340103,1.64152655419579,1.63983544176701,1.6391982962823,1.64138332885947,1.63864126089132,1.56177422438737,1.6624085054817,1.55288722974211,1.55149468278866,1.54426627170234,1.6759085054817,1.52980898165408,1.52978833426214,1.52892263209501,1.52164011758506,1.6675985054817,1.5142133606004,1.51400130162283,1.50881193492889,1.50425373344788,1.50060526244184,1.6634185054817,1.51755791630541,1.49514154724868,1.49331763875215,1.48848878996331,1.7955985054817,1.50776822464031,1.48780978653224,1.48267031935979,1.48105862284069,1.53149321057203,1.47880848931942,1.47764012441923,1.47782252544431,1.47660357928678,1.47507850003026,1.47598324862017,1.55362446999927,1.47222843231184,1.47166819833328,1.47047236903397,1.47051255276029,1.46907760764965,1.5502486224588,1.46714354630185,1.46602213818207,1.46678364379619,1.5654985054817,1.46433747505278,1.46323199030614,1.46146743090609,1.46193076863662,1.7206885054817,1.45943184854734,1.45923345345571,1.45885655869933,1.45812198176773,1.45568188059424,1.45535390186772,1.45453747314736,1.45359163778475,1.45332063195834,1.45291213155585,1.4522800127302,1.45250843934274,1.45177628182724,1.45233605141273,1.45253706263021,1.45123383707222,1.45115747983592,1.4516887800184,1.4532126238996,1.5451785054817,1.45124193564037,1.50323647019906,1.44870386441462,1.46826769238653,1.44908829100468,1.53402540025802,1.49937475532475,1.49815585899016,1.43997708145343,1.38093367093298,1.38160890466414
1.52350405537542,1.52386609651371,1.52422590554383,1.52474959909093,1.52561571437473,1.52559023150536,1.59242123493288,1.59293653694765,1.5931196860915,1.59311953307308,1.59286914833246,1.59242017910117,1.59246303142366,1.59226570134182,1.59221010103276,1.59208396974743,1.59186890463977,1.59113635308935,1.59101784853272,1.59067907711588,1.590228698351,1.59005417789103,1.58901645384313,1.58824569294005,1.58803662989781,1.58734943804865,1.58623953950642,1.5857326376116,1.58505816074831,1.58468549863103,1.58371123046874,1.58314888692111,1.58328470572312,1.58326240221108,1.58333150342902,1.58313146738578,1.58298459284768,1.58270783380893,1.58240007168495,1.58227268380886,1.58194673688287,1.5816265765635,1.58153122716535,1.58171722568144,1.58161712842319,1.58124589943792,1.58055079934381,1.58037905866154,1.5809368279699,1.58186075447092,1.58193015831787,1.58153962048893,1.58122476893267,1.58113372561337,1.58172617018329,1.60136270652626,1.61262772590516,1.64760592595367,1.64571900487993,1.64541718921749,1.64769043611987,1.6491263293147,1.6515489280317,1.65258899971779,1.65225244803017,1.65261215521844,1.65271861267159,1.65238923880732,1.65213519400996,1.65169967425979,1.6523691890156,1.65203779024346,1.64997955617881,1.64892537199623,1.64737907838641,1.64804249505973,1.64956117077431,1.64945880085662,1.65063567377692,1.67206914022188,1.68150845443525,1.67038508594696,1.65102660318814,1.64972897865447,1.64799943682807,1.64763313779699,1.64614289091752,1.6450159119514,1.64445558860627,1.67113553184316,1.67800350873579,1.64349799765869,1.64154998871959,1.64043600856214,1.63978960871947,1.64025679427573,1.63962174582861,1.59467609076914,1.58516926759991,1.55171686994534,1.55072238180406,1.54360526616257,1.5365094999866,1.53105177587793,1.53064755406364,1.52983708432736,1.52011616515014,1.51784975256995,1.51531308513127,1.51334172204885,1.50952915477559,1.50235901472504,1.50062128569375,1.49775867703268,1.49505170854553,1.49413929692718,1.4911058590885,1.4899167091137,1.54056159829524,1.53963871669603,1.53764974238272,1.53581882722499,1.53444322861402,1.533014772781,1.47932778901013,1.47801548019982,1.47729240359306,1.47661375617605,1.47593452362401,1.4759116481947,1.47479244305461,1.47299601706825,1.4722380863642,1.47141089265023,1.47075702663209,1.46950885979247,1.46866745081448,1.46779927450548,1.46723922066374,1.46728009705229,1.46671097105004,1.46537401762961,1.46399877870859,1.46267271747976,1.46227426038901,1.46120775696509,1.46040206615221,1.45980821085207,1.4595583669211,1.45915658535869,1.45720829885164,1.45617482602089,1.45527695328843,1.45451068324431,1.45425149593775,1.45365758311913,1.45316181381226,1.45291226548564,1.45341366060339,1.45354518305769,1.45332617925369,1.45315550787491,1.45279140189068,1.45325566781597,1.45393854160305,1.45367736840437,1.45260142875863,1.50294601074894,1.50222104795223,1.50179896128428,1.50176094684375,1.50162171867998,1.47827320365405,1.46468804245425,1.44105353685102,1.38470652599457,1.38379220567345
1.57298581643915,1.57325704538859,1.52398690742137,1.52344535340722,1.52504423677412,1.52504521188969,1.5939320138686,1.59344236082736,1.6839285054817,1.59338685272512,1.59295172669638,1.59223705020744,1.6857185054817,1.64212925274085,1.62073664722009,1.64200496299213,1.59203420868612,1.59125665302126,1.59167723649798,1.59136737143586,1.59120657205042,1.59082837293084,1.58952983584787,1.58873608061814,1.58856558215642,1.58818353839509,1.58642678429036,1.58599665640694,1.58612578757824,1.58529179264924,1.58403985049241,1.58270082181355,1.58211090185006,1.58265708555836,1.58358442152719,1.58364141177059,1.58309427065456,1.58293658704755,1.58201853261582,1.58202178684464,1.58165297094273,1.58235820493287,1.58155753736562,1.58204776388774,1.58186364700279,1.58155983557549,1.58152225069761,1.58020698685832,1.58118831404622,1.58221353506681,1.58186828576147,1.63123847612239,1.58194995508394,1.58089995333996,1.58225498609578,1.58316715719107,1.58273511308604,1.65233313521179,1.7708885054817,1.64806561968225,1.65088702622296,1.7610285054817,1.65355825543396,1.65343004671792,1.65254766245284,1.65296149125985,1.65369103783781,1.65209503685388,1.65262358633943,1.65227892130825,1.65287816287024,1.65320022271301,1.70380054577794,1.70484721244461,1.68953138754769,1.7046485054817,1.65211458481052,1.7037385054817,1.6513044748042,1.67565277728851,1.7516596839566,1.75944807426595,1.6517575147661,1.65048737220507,1.64838419660372,1.64959434284066,1.75658505218511,1.76524270603745,1.64284146265533,1.66247811385027,1.7630985054817,1.64477545150657,1.64062883120171,1.64051731330891,1.64010965989406,1.64099488572592,1.64018326753921,1.60966846723862,1.55672746905645,1.55367393146928,1.6545685054817,1.5417612674771,1.5359631420473,1.5316935899214,1.53123285435506,1.52841229241699,1.5214323642797,1.51656710719759,1.6656285054817,1.55487948389666,1.6647685054817,1.50226757383558,1.50174699854161,1.49586108569732,1.4948678820413,1.7765485054817,1.48956325838088,1.4895195500806,1.53969856641139,1.53894123655954,1.53676157797429,1.53510494196004,1.53423514840101,1.6818385054817,1.47943456443569,1.47752849718895,1.47619247509127,1.47643850937177,1.47576934483043,1.47577229358201,1.47484213924253,1.47222301500523,1.47239229187312,1.4716893009474,1.47071316722905,1.46890690297372,1.46810943159545,1.46765148496382,1.46718202684774,1.46734404829057,1.46664937469448,1.46584476925662,1.53802868432033,1.46218806682031,1.46220755642381,1.45996253955508,1.46054564493234,1.45982390360217,1.45960665192166,1.4606554073195,1.50789115454756,1.50728658905754,1.45540526098742,1.45448115561241,1.45494578722775,1.45394468955408,1.45344323818145,1.45205716836558,1.45533963846069,1.45471177479576,1.45358356487244,1.45490949063431,1.45607444419974,1.45404623664001,1.45442481092792,1.45360163192119,1.45221636278469,1.5026299097437,1.50177695572826,1.50210699025688,1.50217485159981,1.50209385112884,1.44901359435119,1.44942558178021,1.44246476267504,1.38564583667165,1.38514224513583
1.57213847102516,1.57216409063575,1.54971014045636,1.5244626614203,1.52504137566534,1.52501540739631,1.59425542384327,1.59378552089271,1.59415458880221,1.59374393681075,1.59332747373592,1.61298122522112,1.62586224819411,1.62094218332327,1.61494494620969,1.60537014051882,1.59215675236167,1.59177747574198,1.5919369227573,1.59166598165171,1.59115549776079,1.59065677483051,1.59005049409481,1.58937633733296,1.58904833078686,1.58857634170807,1.58769605502592,1.58695752366301,1.58644768871134,1.58599594101493,1.585459711413,1.58517675369564,1.58453550089443,1.58403360671248,1.58454042995888,1.5843950034621,1.58378596923086,1.58309375812996,1.58230715431886,1.58192004585017,1.58144942899747,1.58170684655596,1.58180048539852,1.58217662300278,1.58211323533611,1.58189818258529,1.58188736548029,1.58172525225913,1.58241224737717,1.58304390944958,1.58313151456624,1.58304507613417,1.5824731062391,1.58234865824569,1.58288078517678,1.58324070786619,1.58344217066764,1.65193497622052,1.65157883574433,1.65001214193911,1.65138121423293,1.65181624375163,1.6524069942823,1.65263081639023,1.65190908315404,1.65252481642122,1.65288545749932,1.65270272021321,1.65270395888555,1.65240974896692,1.65327681563916,1.67385683949965,1.69029697435034,1.68740873239762,1.68132786120824,1.67048962240305,1.66357722217497,1.66495704430149,1.674181187181,1.68157078703947,1.68893500498684,1.6918033003272,1.65102196585857,1.64892541406064,1.64711859341612,1.64788269833409,1.64709199609938,1.64621853364141,1.64577094286333,1.64424859943605,1.64418364812092,1.64358726966495,1.64152417553547,1.64083411675029,1.6402084642432,1.64059575072555,1.64055562041603,1.58651828845582,1.55404596057828,1.55308396581728,1.55235505140335,1.54197618243055,1.53872930704997,1.53221051843157,1.53066408453978,1.52933603586036,1.52420754184324,1.51555608753934,1.51202921429874,1.51036628797488,1.50704717715538,1.50156357304866,1.50062920956545,1.49755158790765,1.49437588578958,1.4931240089443,1.49185143153423,1.49112787195963,1.50845823250999,1.51648992894997,1.52392706880717,1.51597746247937,1.50622737012134,1.49816785838554,1.48023527805746,1.47897675995105,1.47727011347113,1.47691003010146,1.4766536153138,1.47605120650516,1.47493519114151,1.4736741991022,1.47294676469644,1.47205009186247,1.47119038182282,1.47003454729705,1.46865988664841,1.46811520248731,1.46764190993729,1.46761430397543,1.46711961010562,1.46644120075254,1.46533194331048,1.46397220334448,1.46351075234245,1.46284241450933,1.46197563474155,1.46110954941308,1.46126221032183,1.46186550884214,1.46121555384294,1.46097404376999,1.45791792923714,1.45642632976811,1.45634859837798,1.45559130657378,1.45552008875027,1.45601246527633,1.45595760195022,1.45612331866791,1.45577997433188,1.4555460507339,1.45546346464513,1.45486264635527,1.45501808814201,1.4544976988938,1.45376382907979,1.47137023012795,1.48266358372823,1.48953730283067,1.5028421165467,1.50281239861532,1.48010568300845,1.44708784088168,1.44313472445287,1.41915900205156,1.38633395999537
1.61434857300776,1.57172619700395,1.61372858661724,1.5239648564849,1.52452631854918,1.52406618809538,1.59490775670217,1.59310115602879,1.59443300279707,1.59361384979083,1.59297479874049,1.64432843186728,1.64345748370798,1.59298947834045,1.59407662975359,1.59448726003205,1.59211887848979,1.59128325634564,1.59239463081089,1.59186281128975,1.59089787207386,1.59047826951867,1.59055674028313,1.58955119049715,1.58948889349284,1.58919962430524,1.58868946667643,1.58751288141394,1.58642543840252,1.58649241114097,1.58631529071428,1.58733019011873,1.58817084170148,1.58839013255038,1.58609521945461,1.58541510519117,1.5844877247707,1.58319571852459,1.58210499883631,1.58171782058155,1.58038524161464,1.5811823820645,1.58165884165103,1.58269909229038,1.58237592227839,1.5819193836811,1.58198566396629,1.58201975768551,1.63334315749405,1.60688608165341,1.63212218381462,1.58274242847318,1.58200080793393,1.58277587903386,1.58329438059663,1.5831319574318,1.5841620999763,1.6527880958091,1.65529769989717,1.65227738444606,1.65367499915321,1.65293477000266,1.65243102426636,1.65389203532281,1.65167699162945,1.65312900671622,1.65317897090635,1.65368225219167,1.65413993492051,1.65318045806731,1.65568633526903,1.76804633041566,1.7622814278069,1.65549517230257,1.65361154542523,1.65372216561341,1.65436996318294,1.65535955282752,1.7283185054817,1.68568464875085,1.65267873924174,1.7581485054817,1.65219938421731,1.7595385054817,1.64659727243248,1.64924924726879,1.64869830228695,1.64782992638279,1.64865545610256,1.64585504485243,1.64641542938669,1.64504236290533,1.7731285054817,1.64191611776643,1.64005390236297,1.64205208484528,1.64168666544543,1.55892465166671,1.55164486516,1.55195336738724,1.55063415851924,1.54142856642932,1.6678285054817,1.58159665323744,1.54054399132924,1.5283781481699,1.6673585054817,1.5180709251578,1.50943898601305,1.50985658014061,1.50671828867466,1.50182261404039,1.50139467454171,1.7475385054817,1.4925371028487,1.49357976699227,1.5826185054817,1.49123977758497,1.48895208827148,1.50611540321155,1.53672339281339,1.48486327620616,1.48214398682321,1.47940597260008,1.48066875631885,1.48035938851699,1.47637635400315,1.47720769063069,1.47746801066097,1.47625047269113,1.4748394326047,1.4742787814658,1.47338676966411,1.47240318528257,1.47185440126347,1.47136326334005,1.46807806634772,1.46813305718385,1.46725599212901,1.46775119686933,1.46731915525857,1.46710337449042,1.46513933282685,1.46437574466454,1.46449223773158,1.46451694662783,1.46337327746153,1.46040918598856,1.51150995303727,1.46178378738439,1.45946643397102,1.4608439245578,1.5090925891368,1.45695687557472,1.45743959381583,1.45611235253436,1.45667617050257,1.45816552468045,1.5515685054817,1.45751076415049,1.45733253175,1.45572226546129,1.45478640983802,1.45383642557856,1.45564479921707,1.45466122983628,1.45405568281349,1.45381355805108,1.45499630196123,1.48104175722928,1.6472885054817,1.6030050508605,1.60375345462121,1.43945063753959,1.44328207715222,1.48463403955868,1.38901267158992
1.522366846139,1.52254962692146,1.52351083250592,1.52385559053305,1.52419541627732,1.52443589402232,1.59377827861572,1.59400886576901,1.59391332572603,1.59313963839742,1.59275358313379,1.62246855614489,1.61163735810386,1.59388305469217,1.59417313026381,1.59433668531989,1.59321840164594,1.5922246698155,1.59242011865966,1.59217677714218,1.59143995406672,1.5907218757484,1.5905648089029,1.59035218845453,1.59001139887639,1.5894003127164,1.58871879897964,1.58789657312365,1.58714321756466,1.58694143804471,1.58688077743365,1.58731442982713,1.58767492262827,1.58729297880402,1.58609651109425,1.58498910855924,1.58455588197529,1.58358025672247,1.58289636095774,1.58238620036996,1.58184007723636,1.58195598275132,1.58222931331405,1.58269616075102,1.58266316765794,1.58240124723732,1.58235364855865,1.58244271309544,1.58285829515405,1.58326449531357,1.58321176226708,1.58338559476816,1.583228323765,1.5836492405307,1.58395410005759,1.58385012809701,1.58364798394905,1.65205365176989,1.65276587056297,1.65187930872186,1.65235948638354,1.65232714530577,1.65330799479794,1.65320141756289,1.65024069731434,1.65082028163904,1.65271898664777,1.65326981920011,1.65306104868241,1.65283445651739,1.65393479627095,1.67531373099084,1.68222663001566,1.65433454244005,1.6532203192419,1.65399110128799,1.65482718099165,1.67494377388009,1.69335132445425,1.68950489643641,1.65180241112111,1.65020424235195,1.64915540035797,1.64717924425841,1.6459524003432,1.64647496255188,1.64847593224405,1.64765893705092,1.64741954055558,1.64547005232479,1.64488484927661,1.64439047911951,1.64287053362791,1.64009686807601,1.63859220397592,1.63993503482505,1.63929727921445,1.55779626332004,1.55149672028033,1.55148003138999,1.55119782977828,1.55887133766678,1.56600054744469,1.57327754183424,1.5469209324701,1.52812745187572,1.52274135771853,1.51558652219319,1.51228313585155,1.50922716098189,1.50621966626459,1.50330134476833,1.50170123503844,1.52898380326598,1.49112691319727,1.4917417847587,1.4915228589489,1.4907538205723,1.48914659206568,1.48840618998573,1.48698343302211,1.48525678406378,1.48365055068629,1.48082179774981,1.4814213083153,1.48028672375518,1.47795507330118,1.47743598004538,1.47676278458887,1.4760394891596,1.47461830074241,1.47414774925961,1.47362180406365,1.47297365418559,1.47230862393935,1.47135657037133,1.46985870672157,1.46907991714965,1.46855812902866,1.46835328851049,1.46766606212021,1.46695347308195,1.46616574850044,1.4653924427407,1.46518141545733,1.46475459804077,1.46388640228299,1.46330837317834,1.46312147270457,1.46260545473181,1.46143053845653,1.46097814462183,1.46073024934055,1.45959897240073,1.45960458715636,1.45845244692641,1.45823187269317,1.45874201174458,1.45882944647418,1.45820923566187,1.45729980430987,1.45692454048892,1.45663411055446,1.45674665115327,1.45706365542072,1.45650754465474,1.45549244166608,1.45569560843481,1.45605911771368,1.45661924761029,1.45786459640656,1.45801447377297,1.45834013381825,1.45039533401919,1.4431468430492,1.44280996346686,1.41537764105301
1.5221524120058,1.52107784956809,1.52325340913441,1.52312673481705,1.52299696889717,1.52034877536402,1.5921355270734,1.59509206526936,1.6901485054817,1.59238066315109,1.59219857670028,1.6827685054817,1.59496731545796,1.5903863321584,1.59379821041082,1.59490427245248,1.8148685054817,1.59157731358224,1.64344859419213,1.59254923437613,1.59177856004084,1.59027221018381,1.8031285054817,1.59119115026904,1.59061146323322,1.589582060917,1.58867653167234,1.58803006682543,1.6846685054817,1.62831873011227,1.63992758042038,1.6757785054817,1.64020925274085,1.58683072119735,1.58561398837956,1.58374300745499,1.58517294438094,1.58352073487077,1.58351030741585,1.58298531909174,1.58261394997841,1.582498020423,1.58255865961277,1.58307352723397,1.58295166868498,1.58251733379656,1.582327649707,1.58215120002481,1.58219415302173,1.58277316490246,1.58229125891963,1.58391189403334,1.58347919313191,1.58426221621316,1.58442050025568,1.5842685074496,1.58260125545288,1.66307233972821,1.653517595319,1.65211853731016,1.65286671840128,1.65232202481456,1.65515118725967,1.65564836107125,1.67870693405227,1.7779285054817,1.6545917072095,1.65387229828243,1.65361918009811,1.65347041784956,1.65501867744285,1.65664443132767,1.7483285054817,1.65623066074486,1.65415793514508,1.65542782954372,1.65644573922133,1.7518960936166,1.76636166460595,1.69335255951531,1.65363199441942,1.65162148048656,1.7042885054817,1.65036516100227,1.64784583512549,1.7615185054817,1.65013868502344,1.6471332197337,1.6493873268559,1.64614473043645,1.7555785054817,1.64585157033136,1.64623626811598,1.7614485054817,1.66700814339595,1.63993966733709,1.7660385054817,1.5557278829279,1.55030563337307,1.55062177938665,1.54091458857982,1.6774285054817,1.53289393121236,1.6715885054817,1.5544951506331,1.52597786161326,1.52069726775359,1.51697882233027,1.559666326149,1.55634454398416,1.55645168208197,1.55559055788508,1.50211780480507,1.54914734439232,1.49074735773872,1.49192075412785,1.48958748264475,1.49042027875104,1.48742760226829,1.48766291067445,1.48614094814131,1.48511602941742,1.5755585054817,1.48039931905846,1.48228273249295,1.52932390199352,1.47762353962254,1.5280184096548,1.47576319809313,1.47622087215942,1.47279366335288,1.47361568504131,1.47380115279115,1.47312878347614,1.47314735915849,1.47165092938937,1.47067751380751,1.46959768379999,1.46915742624806,1.46888278341416,1.46770299687095,1.46657615463378,1.46696353557932,1.46550952095693,1.46568119823668,1.46521693235863,1.46411159276672,1.51331511827866,1.46265348542774,1.46290601605855,1.4617831790618,1.46099978361675,1.4610452138853,1.45983243068111,1.46158393845334,1.5559485054817,1.50855963873831,1.45921393983506,1.45847946962542,1.4581082847877,1.45583066631189,1.45730431441439,1.45719344495191,1.6094585054817,1.50857391734699,1.6499085054817,1.45448608515536,1.6088585054817,1.51697911687222,1.45731072495593,1.45923867263602,1.45579839483449,1.45628744155377,1.45554155115734,1.44403136537814,1.4431425337293,1.44341851027859
1.52174406916333,1.52169451631385,1.52285027685368,1.52319032766144,1.52331337584424,1.52244033434085,1.59345833125186,1.59445054282102,1.5940001980338,1.59239829398291,1.59215822168126,1.59263069380276,1.59348465425243,1.59276428730017,1.59360884943944,1.59383569685764,1.59334260906033,1.5930098741468,1.59319935590081,1.59311843034177,1.59242543230861,1.59186229886791,1.59224140519845,1.59183767423112,1.59141655088769,1.59083029829527,1.58992499414482,1.60073705520069,1.60919967206769,1.62228705295241,1.62569385201705,1.61292135809868,1.60083300600147,1.58629398470188,1.58554404569201,1.58454609304555,1.58483387509531,1.58402794599795,1.58357789619155,1.58343466555951,1.58324609575387,1.58286888797585,1.58283704482831,1.58317400691743,1.58328291454863,1.58285861921568,1.58253593280001,1.58251080131146,1.58263646694561,1.58268668507348,1.58228136409158,1.58294054085702,1.58332825864458,1.58410433010873,1.58458279507561,1.58440969156146,1.58356459912856,1.60703711407126,1.65309801607196,1.65209097385666,1.65248852556638,1.65286763637088,1.66667819036646,1.67639672280743,1.68950982566695,1.69681620405534,1.6558255617659,1.65386997151909,1.65216517683867,1.65165964632405,1.65323728756634,1.65586477336678,1.65565715362839,1.65541632445861,1.65434883972548,1.65485138951245,1.67791216563457,1.72630627093816,1.73216768588685,1.69881784191924,1.68127488505798,1.66888265039429,1.67712026783066,1.65017668042315,1.64854404177082,1.64921211256287,1.649597431608,1.64756071657861,1.64706613448223,1.64563459414319,1.64610689332411,1.64685343952003,1.64705165406295,1.67949471866298,1.67577639785839,1.66650099455647,1.6599611408892,1.58158599162938,1.55040280877914,1.54963355140704,1.53995670278068,1.53813161424832,1.53647848825773,1.56379033986901,1.56183015510492,1.54501504804466,1.51901343662599,1.51767786765313,1.55711352813273,1.55624426999142,1.5548741807626,1.55291017590121,1.54943058585182,1.54862262296073,1.49130508040498,1.4920720511655,1.49058648673237,1.48992378920291,1.48858699128261,1.48768516737598,1.48615030481677,1.48502374724235,1.48351194787617,1.48273914500237,1.48338256443284,1.52846054935795,1.52701304196512,1.52692901952246,1.50524686031901,1.47722822636463,1.47710357662838,1.47524738380005,1.47462829852869,1.47454635876767,1.47438107102962,1.47329302640928,1.47205098795633,1.47039474820776,1.47011675188598,1.46989103130909,1.46905183416217,1.46845392098969,1.46780021546743,1.46692605111592,1.46650750324423,1.46598992362785,1.46508846274245,1.46467820780376,1.46385318613996,1.46350518107465,1.46241109181847,1.46204583223901,1.46218488188187,1.46230650956324,1.46304718648191,1.46220166276494,1.46073789731069,1.45954061655402,1.45867729490669,1.45893238484483,1.45889246680863,1.45863839202825,1.45974113010836,1.45871720298232,1.45915517938968,1.45834034931803,1.45606184421514,1.45717397223996,1.45758325507965,1.45742443268122,1.45756713199944,1.45734119661518,1.45719172982007,1.45691900941069,1.44619219574676,1.42335864166546,1.4109257100917
1.52108360293856,1.5206489106107,1.6833285054817,1.5224097582788,1.52345147033827,1.52240467145883,1.6922385054817,1.59515410342435,1.59533044406243,1.59398441586174,1.6893185054817,1.59249753044684,1.59319151889049,1.59282040742086,1.59360061918659,1.59288483787059,1.59284608400168,1.59347181900367,1.59287425915772,1.5937471662354,1.6776485054817,1.59225715006595,1.59277188198094,1.59221636851196,1.59207460087723,1.59192763210346,1.58997249507679,1.8175485054817,1.58847602958258,1.61672207339753,1.6855985054817,1.5867835140228,1.58746593646019,1.58615671332098,1.58535621667624,1.58371693842407,1.5854881527016,1.58401545800686,1.58332977350701,1.58382680585302,1.58406010634862,1.58276837468274,1.58263168453406,1.63324886800079,1.58361645540222,1.58275451257281,1.58210814049772,1.58240879335902,1.58263441551696,1.58238645656464,1.58068916422349,1.58184603781563,1.58233016319526,1.58362160346646,1.58441663675226,1.58460064066974,1.58326160721127,1.58283767926459,1.65589314286918,1.65316025938735,1.6540063200509,1.65506846824431,1.70638216710226,1.70621120275774,1.70599883749969,1.70601532063393,1.65740956779981,1.7554085054817,1.70539980695736,1.70585942222868,1.70850568615252,1.6572929404107,1.65728550751881,1.6575744500585,1.65555280825738,1.65658126336054,1.7516085054817,1.70690839617207,1.7623185054817,1.70228913343034,1.7682085054817,1.65624087616001,1.7616485054817,1.6529070309017,1.65074751726004,1.6520322700225,1.65256021347775,1.7019985054817,1.64722257730926,1.64568718053851,1.64797831638252,1.64887049320864,1.64862063651967,1.6960985054817,1.67983072250424,1.7546685054817,1.64398305669833,1.66571499006814,1.54958056853035,1.54848577214877,1.54052006159208,1.537530632881,1.53464276094521,1.57887938189698,1.56620128353767,1.57596599621786,1.51867466722863,1.51646657349125,1.6059885054817,1.53747424564188,1.50556654982117,1.5512482001586,1.55070665152562,1.54775410844921,1.49286164734032,1.49346920264257,1.4908649078967,1.48961503250402,1.488654470228,1.48741177822491,1.48543109706763,1.48517944714662,1.48067508520746,1.48279139248198,1.48342080419422,1.52954865142831,1.6311185054817,1.57695338419383,1.57673512128787,1.4782819816645,1.47804637332044,1.6773585054817,1.47375430565881,1.52297886883828,1.50072757561415,1.52279780823961,1.52276646113595,1.46913155978594,1.5398485054817,1.47067515949565,1.46976921956079,1.47002492834351,1.46876836251031,1.46762074877912,1.4672015200206,1.46691216536185,1.46536502140881,1.46464019723724,1.46400363915158,1.4637018898562,1.46187336383833,1.46161724490215,1.8044585054817,1.55069925274085,1.46323647989568,1.46097562850597,1.45951908602979,1.45827718970189,1.45732030136447,1.45926594985921,1.4593945737766,1.6086485054817,1.46097312179214,1.46011524333627,1.46120718181538,1.46195743880187,1.6096285054817,1.46069507128819,1.46021241153379,1.45962258572049,1.5579285054817,1.45990788426861,1.45803584881633,1.4577313472288,1.44864345823777,1.39829392381227,1.39261874654935
1.52088254108331,1.52091000880763,1.52174605045745,1.52334663387372,1.52403900158603,1.52311366802644,1.61640573225008,1.59566289293302,1.59475880625655,1.59363622494202,1.6200357721913,1.59410666208641,1.5943021591675,1.5943094614903,1.59441531272566,1.59413830551074,1.59370208835439,1.59380995984483,1.59379272473364,1.59440273078234,1.59456754410687,1.59345275040232,1.59313198060127,1.59277071261495,1.59244484297183,1.59173275502027,1.59102751894566,1.59000998369186,1.58928794011298,1.60920783965413,1.61505484147556,1.5873442008073,1.58715795274662,1.58622852536687,1.58557314675006,1.58475856956887,1.58502916158722,1.58469447851832,1.58450250311546,1.58443289562143,1.58422037427423,1.58375466737605,1.58354977538031,1.58385550777959,1.58406846126398,1.58346797714208,1.58286767341006,1.58296125618145,1.58307124247221,1.58291770140116,1.58236773308362,1.58235134843255,1.58235978214555,1.58312389559901,1.58410600041302,1.58508757267215,1.58627301388436,1.6076684720997,1.6542848308461,1.65316441694963,1.65400537920123,1.65481252907177,1.6746871650792,1.70626426230977,1.70454975881694,1.70523365163946,1.67764545280067,1.73292343275378,1.70586687503239,1.70445875732747,1.7065062187338,1.6773349104975,1.65738051251356,1.65683028486727,1.65532735760677,1.65589112694888,1.65454789469966,1.65380495525899,1.65338376944296,1.65273851017253,1.6533525749871,1.65431703536575,1.65290106821972,1.65221021354137,1.65140347056518,1.65239129075298,1.65259169966346,1.6770889186496,1.67243570198012,1.6438966317211,1.646485449888,1.64783650601849,1.64796165371857,1.68056715295535,1.67553608777007,1.66620064129149,1.64517293765801,1.57884283390826,1.54784301088785,1.54789269375219,1.53957430794841,1.53734391959936,1.53491570418844,1.53173240466953,1.52950516208536,1.5279439349871,1.52723002472226,1.51915686045127,1.52347349449056,1.52940589993033,1.53654998944696,1.54258729487128,1.54700245379482,1.52017358331119,1.49428803207052,1.49152782491662,1.49056371790903,1.48948238606497,1.48848650036394,1.48735078812653,1.48563964452198,1.48434184834039,1.48307891788513,1.48295051955524,1.48300825495292,1.48216380524792,1.48096794228497,1.47967314223643,1.47883826906825,1.47843364866465,1.47799539783124,1.47641311028509,1.4755991204374,1.4762875433692,1.47685904326315,1.47643842265563,1.4759089364053,1.47164974822565,1.47197486902656,1.47162589430144,1.47094281413514,1.47018673258182,1.46915277896952,1.46815114198178,1.4674993114504,1.46668848800024,1.46593117547279,1.46543506394973,1.46531091478054,1.46468248100088,1.46303643457266,1.46336997835995,1.46419677838026,1.46444665927988,1.46382187138032,1.46235534026198,1.46143037413121,1.46083427810123,1.46107939337806,1.46101034662717,1.46147659678713,1.46256870780114,1.46265306653686,1.46304322701005,1.46355958834505,1.46376877251989,1.4638009948716,1.46185238776118,1.46132485101047,1.4615415388256,1.46238578295594,1.46102498438286,1.45991981962737,1.45919276601038,1.4513142830572,1.39914723630239,1.39345461797831
1.5202959912248,1.51972034785079,1.52002233216818,1.8547885054817,1.52379387098268,1.52121052971733,1.6479485054817,1.59591486144928,1.59444172972468,1.59337174944532,1.6894485054817,1.59492902301512,1.59508649449128,1.59536902012245,1.59520890199922,1.59524396780086,1.8268285054817,1.59386481475144,1.59369849032725,1.59490369754131,1.59528327422661,1.6900585054817,1.59342337802416,1.5930912761635,1.59258795487528,1.59131340341316,1.59175983943317,1.58789807376432,1.58880095440881,1.60310059809711,1.64030385661915,1.58795851410248,1.58737959922549,1.58569553922711,1.58548802114267,1.58439325647575,1.58503009241745,1.58505098487444,1.58546143882054,1.58498342198135,1.58451713738678,1.58425769142863,1.58363799784911,1.58324032143547,1.58437035278584,1.6783585054817,1.5824105796549,1.63377546542635,1.63360243046085,1.58308105172095,1.58290734433948,1.6722585054817,1.58131419098711,1.58210765282204,1.58318171030848,1.58473008029159,1.58714851508922,1.65754970947447,1.65602649052697,1.65404876568351,1.65574296473949,1.65656472134314,1.65630386267259,1.70767627878607,1.7057282907593,1.7645285054817,1.6569779503983,1.7421185054817,1.70738623920071,1.7063811323997,1.70746767930464,1.7716485054817,1.65849925570244,1.65803803336487,1.65637060104336,1.65802123779472,1.65645321303964,1.65626508451627,1.65579014305803,1.65423744460604,1.65557762161598,1.65527061123592,1.65433646768548,1.65362026519858,1.65237037941423,1.65410680556986,1.65320100384619,1.7715085054817,1.70257925274085,1.64471018086458,1.64848921052384,1.64907868627338,1.64791373106783,1.6972085054817,1.6666505270746,1.64509599632615,1.64558422282163,1.55032598588261,1.54647857484214,1.54755002679074,1.54027525509412,1.58713443714258,1.58310154448251,1.52778630488964,1.52780253832485,1.51923799661499,1.56908629526913,1.51090545136693,1.50958016574968,1.52275460543467,1.6657385054817,1.50364957968801,1.55126599571907,1.49519034852359,1.49531765889411,1.48990390804615,1.49010122109472,1.48878163739388,1.48801351510452,1.48729893194456,1.4851083913628,1.48332048588886,1.48411908228641,1.48259124914997,1.48256307284716,1.48167408834994,1.48002185298518,1.47836792518873,1.47695958092817,1.47843943663386,1.4781728166503,1.47509349907286,1.47500545838586,1.47507639065134,1.47622898456895,1.47525914881766,1.47444135085577,1.47229100142318,1.47198143522699,1.47198504491218,1.47179470819843,1.47024763980611,1.46941362943539,1.46802958378658,1.46768265129405,1.46610645575406,1.51748489640412,1.46534026364273,1.46643477598515,1.46582738612669,1.46051830211309,1.5443985054817,1.46350024178181,1.46381258333786,1.46364077096967,1.46210457265439,1.46293340371753,1.46214404141468,1.46169570629957,1.46211621454787,1.46287907914231,1.46284324728916,1.46364579847615,1.51703517798414,1.4951596413094,1.51832406243537,1.46377760344185,1.46228637262026,1.46088717394345,1.4625995936737,1.46330571218531,1.5506485054817,1.46074856163014,1.46214908823344,1.45408105944494,1.39940300447189,1.3947908022745
1.52046916961986,1.52062206879627,1.52145743601042,1.52309077979749,1.52394613369353,1.5230000765292,1.63012325603145,1.62644014731266,1.62000022972632,1.59340258213671,1.59485251959252,1.59721928752921,1.59562791541268,1.59556265886207,1.59549026698159,1.59526479851307,1.59550493091142,1.59517380017815,1.59534613769508,1.59574261938468,1.5955697794829,1.59527331313589,1.59442895830686,1.59378696672449,1.59326813713023,1.59220869367339,1.59179156782205,1.59161052317373,1.59064148790571,1.58986166060134,1.58910345009177,1.58852778725668,1.58777938433357,1.58627632552831,1.58593228818733,1.58543954672287,1.58548118680327,1.58534842499409,1.58542885580382,1.58533258559264,1.58494150071696,1.58443911653257,1.58417494201361,1.58398131827452,1.58484021431339,1.58509176442625,1.5835894410803,1.58282904319097,1.5825391448767,1.58275624372238,1.58220916376213,1.58138383911944,1.58047048393844,1.58089763000225,1.58215628506777,1.5838485059585,1.58532316999218,1.61122766849643,1.65409040827117,1.65340547783208,1.65424031287778,1.65589203739654,1.65553097625562,1.6535082182769,1.65144063100272,1.65272596058691,1.65504763446261,1.67111776704914,1.68068587424672,1.68859551813228,1.69461109041339,1.69649484334539,1.67792592335607,1.6564687087314,1.65544136808123,1.65597891924695,1.65488550954698,1.65458234048182,1.65474527512659,1.65399760990288,1.65459058005879,1.65476973654499,1.65289724706623,1.65206566307078,1.65144071015269,1.65222431940697,1.6514475166258,1.64979592005413,1.6475813330471,1.64546923117317,1.64685716382306,1.64756416381178,1.64670527781123,1.64441218338624,1.64333538648427,1.64478000004658,1.64494937804241,1.54876581385805,1.54794533011454,1.54830000058628,1.56411580530738,1.57493058333287,1.5532528355594,1.52694292532656,1.52599476454817,1.52352840268465,1.54301922403084,1.51156921704609,1.50892384348745,1.5081372159954,1.50694801683198,1.50563266516009,1.50531397501471,1.49560180630668,1.4957433963379,1.49067794560935,1.49041797373751,1.48880990860361,1.4886000299354,1.4879975885606,1.48622622312706,1.48446845574371,1.48413158309533,1.48283425708432,1.48255910720945,1.48166229582928,1.48031439804571,1.47949643803331,1.47889461434058,1.47900551700576,1.47826614653205,1.47660408123845,1.47615222313405,1.47614098990267,1.47608669498881,1.47527642899896,1.4742726878722,1.47308718308599,1.47230137617127,1.47208373645028,1.47145043198081,1.47008480516392,1.46958220369808,1.4692030645834,1.46870920535776,1.46772002696736,1.46735668094735,1.4668760843657,1.46707903492333,1.46666597112618,1.46614376479516,1.4651356918511,1.46428674105985,1.46387477617537,1.46377545223663,1.46309686464428,1.46294372680846,1.46273909172163,1.46255492671325,1.46273935713188,1.46302518382961,1.46346248276159,1.46412772816663,1.46509724234353,1.46576007313767,1.46528904722025,1.46441381299386,1.46367788910445,1.4631138901559,1.46366623363272,1.46367477199942,1.46378857738258,1.46293299306403,1.46304902005777,1.4564545030787,1.39895955643413,1.39645884994046
