1.26915, 0.00389102, 0.0035398, 1.50004, 1.28779, 0.00364318, 1.27599, 1.27584, 1.28486, 1.27808, 1.37126, 1.28421, 1.36411, 1.29307, 1.29319, 0.00363265, 1.30893, 0.00357983, 1.38869, 1.38175, 1.30811, 0.00353737, 1.47173, 0.00394511, 1.33621, 1.33366, 1.33208, 1.33271, 1.32352, 1.31609, 1.31539, 1.31419, 1.31171, 1.31192, 1.30976, 1.31012, 1.31169, 1.42627, 1.42989, 1.43043, 1.34529, 1.3465, 1.34512, 1.34477, 1.34874, 1.35226, 1.35211, 1.34816, 1.34838, 1.34296, 1.34412, 1.33757, 1.3389, 1.33959, 1.3381, 1.34007, 1.33968, 1.33912, 1.33675, 1.3343, 1.33446, 1.32734, 1.32684, 1.36056, 1.36004, 1.34059, 1.33951, 1.35357, 1.3503, 1.32424, 1.32537, 1.34737, 1.34508, 1.30916, 1.25626, 1.25518, 1.24702, 1.24655, 1.2801, 1.26185, 1.27196, 1.27358, 1.23648, 1.23497, 1.23318, 1.22697, 1.22902, 1.23477, 1.28058, 1.30512, 1.32355, 1.38018, 1.38002, 1.40865, 1.39149, 1.44223, 1.45452, 1.50626, 1.49309, 1.5705, 1.5697, 1.57284, 1.59697, 1.64122, 1.69008, 1.7021, 1.71973, 1.77463, 1.83775, 1.84821, 1.9323, 1.92211, 1.95781, 2.01366, 2.01336, 2.01151, 2.04808, 2.03033, 2.07276, 2.07096, 2.11662, 2.10761, 2.11449, 2.11518, 2.07131, 2.09997, 2.09972, 2.10907, 2.14644, 2.11518, 2.11197, 2.12021, 2.13215, 2.1134, 2.1495, 2.19035, 2.18062, 2.19071, 2.16386, 2.16454, 2.1394, 2.10128, 0.00390282, 0.00343839, 2.03201, 2.10396, 2.09448, 2.01625, 2.03076, 2.006, 2.01682, 1.97505, 1.97253, 1.96892, 1.95555, 1.95085, 1.97744, 1.9245, 1.89282, 1.90681, 1.87961, 1.88128, 1.95513, 1.84211, 1.80634, 1.82329, 1.82161, 1.79975, 1.75476, 1.75589, 1.72543, 1.7233, 1.7558, 1.75252, 1.73705, 1.75431, 1.75479, 1.75299, 1.75687, 1.63682, 1.63464, 1.62796, 1.62763, 1.6354, 1.59377, 1.58966, 1.58279, 1.57946, 1.57734, 1.57846, 1.57846, 1.57573, 1.52247, 1.52457, 1.52791, 1.52712, 1.54697, 1.5407, 1.57395, 1.57489, 1.45078, 1.44939, 1.458, 1.45508, 1.45573, 1.41206, 1.40035, 1.40162, 1.46308, 1.46481, 1.4201, 1.42578, 1.35728, 0.00376718, 1.38277, 1.38501, 1.39846, 1.68034, 1.67485, 0.00358365, 1.61894, 1.65283, 1.41717, 1.42039, 1.42161, 1.41578, 1.41505, 1.41923, 1.61118, 1.61911, 1.62761, 2.01461, 1.62027, 1.55579, 1.55406, 1.71549, 1.57512, 1.57351, 0.00379006, 0.00365999, 0.00352786, 0.0037208, 1.94556, 1.54236, 1.53866, 1.5391, 1.54326, 1.54165, 1.54704, 1.94664, 1.94767, 0.00393365, 1.55587, 1.55622, 1.55697, 1.56414, 1.56182, 1.55917, 1.55787, 1.55942, 1.8173, 1.8174, 1.59497, 1.60269, 1.60265, 1.60375, 1.60634, 1.60781, 1.60715, 1.60563, 1.6101, 1.61033, 1.61124, 1.61911, 1.61664, 1.61678, 1.63137, 1.63009, 1.63022, 1.62511, 1.62328, 1.62551, 1.62643, 1.63007, 1.63077, 1.64798, 1.65904, 1.65738, 1.66298, 1.66675, 1.66574, 1.66671, 1.68565, 1.6841, 1.68497, 1.68557, 1.68921, 1.68678, 1.69558, 1.70053
1.24853, 1.25148, 1.25118, 1.25606, 1.25595, 1.25693, 1.25711, 1.31596, 1.26434, 1.26032, 1.2608, 1.26319, 1.264, 1.26885, 1.27006, 1.26808, 1.27349, 1.28104, 0.00385007, 1.28797, 1.29181, 1.29699, 1.30249, 1.41568, 1.38488, 1.38556, 0.00346127, 0.00384405, 1.40046, 0.00354256, 1.30007, 1.30039, 1.3066, 1.30822, 1.31117, 1.31161, 1.30944, 1.31513, 1.31613, 1.32318, 0.0035273, 1.33852, 1.33968, 1.34267, 1.33867, 1.3409, 1.34185, 1.34018, 1.3403, 1.34224, 1.34, 1.34117, 1.34011, 1.34085, 1.34055, 1.33909, 1.33702, 1.33911, 1.33385, 1.33294, 1.33198, 1.32904, 1.32841, 1.32663, 1.32785, 1.35013, 1.33125, 1.32841, 1.32749, 1.34392, 1.34558, 1.33498, 1.33521, 1.3344, 1.25805, 1.2624, 1.26673, 1.23918, 1.26541, 1.26417, 1.2378, 1.28152, 1.23224, 1.23179, 1.23054, 1.23098, 1.2407, 1.24055, 1.30474, 1.30906, 1.29201, 1.33673, 1.4095, 1.42353, 1.45721, 1.46956, 1.50176, 1.49578, 1.54127, 1.53967, 1.5406, 1.54477, 1.59824, 1.64879, 1.67749, 1.73237, 1.79915, 1.7942, 1.90588, 1.90053, 1.91684, 1.99887, 1.99914, 2.04088, 2.03715, 2.0903, 2.08551, 2.14151, 2.14911, 2.14662, 2.13262, 2.19308, 2.18803, 2.187, 2.18526, 2.18458, 2.18691, 2.18745, 2.19814, 2.1968, 2.17991, 2.17666, 2.17956, 2.16784, 2.15857, 2.17219, 2.13649, 2.13482, 2.17721, 2.14892, 2.15953, 2.11978, 2.11685, 0.0034736, 2.11122, 2.11277, 2.10747, 2.10488, 2.04099, 2.03956, 0.00379277, 2.00046, 1.99275, 1.97211, 2.00931, 1.96348, 1.95776, 1.92432, 1.92273, 1.92012, 1.90519, 1.90345, 1.86674, 1.86841, 1.8849, 1.83686, 1.79287, 1.79134, 1.84023, 1.73601, 1.73605, 1.75095, 1.75178, 1.74806, 1.73758, 1.76811, 1.76744, 1.76462, 1.76068, 1.70334, 1.64012, 1.63385, 1.63805, 1.63803, 1.63849, 1.6286, 1.61756, 1.60647, 1.61261, 1.68873, 1.68687, 1.58004, 1.55087, 1.51286, 1.52154, 1.51609, 1.54661, 1.64381, 1.5518, 1.54428, 1.45249, 1.45118, 1.43991, 1.45279, 1.49378, 1.50209, 1.49409, 1.3964, 1.48033, 1.53343, 1.40134, 1.3711, 1.36929, 1.35808, 1.35801, 1.36052, 1.3986, 1.54053, 0.00372358, 1.50531, 1.58875, 0.00335804, 1.62853, 1.62647, 1.5948, 1.59458, 1.65555, 1.65524, 1.66003, 0.00376865, 0.00348341, 0.01052, 2.02265, 1.97357, 1.95944, 1.95302, 0.00376125, 1.95475, 0.00387431, 0.00361087, 1.94684, 1.69209, 1.53137, 1.53103, 0.00353364, 1.93345, 1.52816, 1.52643, 0.00351023, 0.00335402, 1.54081, 1.54019, 1.93449, 1.555, 1.55243, 1.5524, 1.55637, 1.56198, 1.56028, 1.56135, 1.56116, 1.58562, 1.58417, 1.59259, 1.59013, 1.58709, 1.58404, 1.58289, 1.58114, 1.58646, 1.59264, 1.60357, 1.61327, 1.61532, 1.61353, 1.61196, 1.62403, 1.6236, 1.62285, 1.62504, 1.62821, 1.62708, 1.62659, 1.63584, 1.63609, 1.63401, 1.7817, 1.74119, 1.66691, 1.66627, 1.66725, 1.67242, 1.67719, 1.67683, 1.68035, 1.68606, 1.68883, 1.69595, 1.69341, 1.69625
1.23566, 1.23624, 1.23597, 1.23991, 1.2399, 1.23859, 1.23952, 1.24289, 1.24999, 1.24843, 1.24853, 1.24981, 1.25102, 1.25548, 1.25831, 1.25735, 1.25452, 1.30945, 1.27195, 0.00379388, 1.26049, 1.2717, 1.26938, 1.27046, 1.44066, 0.00364941, 1.26488, 1.3328, 1.30196, 0.0036877, 1.29364, 1.29446, 0.00378789, 1.29891, 1.30394, 1.30389, 1.31647, 1.31437, 1.31429, 1.3152, 1.35316, 1.31687, 1.3544, 0.00328299, 1.3637, 1.35241, 1.36694, 0.00355559, 1.33222, 1.33083, 1.32745, 1.32806, 1.33048, 1.33328, 1.33662, 1.32773, 1.32886, 1.32983, 1.32504, 1.32383, 1.32097, 1.31911, 1.31615, 1.31015, 1.3086, 1.30809, 1.31098, 1.31052, 1.31347, 1.31657, 1.34566, 1.32402, 1.34001, 1.34001, 1.28085, 1.26303, 1.26448, 1.22847, 1.23242, 1.22893, 1.29998, 1.26704, 1.23674, 1.25004, 1.2394, 1.26569, 1.26013, 1.25371, 1.30734, 1.28693, 1.29066, 1.36309, 1.36875, 1.44579, 1.44469, 1.44947, 1.46886, 1.49971, 1.49016, 1.55766, 1.63488, 1.58407, 1.62377, 1.62009, 1.68861, 1.71715, 1.78929, 1.85348, 1.8676, 2.04194, 2.03516, 2.03847, 2.05809, 2.05962, 2.11812, 2.12097, 2.17973, 2.17788, 2.16698, 2.19023, 2.21543, 2.2421, 2.21229, 2.21626, 2.21875, 2.21113, 2.22561, 2.22978, 2.21562, 2.22424, 2.24299, 2.19922, 2.19853, 2.20495, 2.21931, 2.21869, 2.17192, 2.19878, 2.19791, 2.18644, 2.18525, 2.15018, 2.21334, 2.21079, 2.2093, 2.16038, 2.10746, 2.10441, 2.13419, 0.00356805, 0.00371965, 0.00339962, 0.00327868, 1.99785, 1.99722, 1.95551, 1.96116, 1.92344, 1.93072, 1.94816, 1.89983, 1.89677, 1.87753, 1.87234, 1.95437, 1.94957, 1.82743, 1.82435, 1.82226, 1.82057, 1.81854, 1.82786, 1.91352, 1.74936, 1.74497, 0.003334, 1.77677, 1.77588, 1.78252, 1.75237, 1.64192, 1.63736, 1.62977, 1.65452, 1.6191, 1.60753, 1.58535, 1.58526, 1.60557, 1.55861, 1.55806, 1.67485, 1.53831, 1.51793, 1.52544, 1.51574, 1.50787, 1.52432, 1.51779, 1.49818, 1.48808, 1.45065, 1.44865, 1.48248, 1.48336, 1.48083, 1.48196, 1.40298, 1.46902, 1.4404, 1.36693, 1.35237, 1.34996, 1.36034, 1.3616, 1.38218, 1.38318, 0.00347573, 1.48011, 1.46831, 1.50807, 1.5069, 1.67913, 1.56874, 1.67352, 1.55877, 1.52341, 1.53667, 1.5405, 1.54253, 1.54417, 1.54806, 1.54713, 1.93863, 1.94901, 1.93651, 1.57456, 0.00344667, 0.00402079, 1.52754, 1.52731, 1.5268, 1.52742, 1.52434, 1.52467, 1.52383, 1.52467, 1.53031, 1.53236, 1.53372, 1.53743, 1.53742, 1.53929, 1.54347, 1.54324, 1.54606, 1.54254, 1.54404, 1.56295, 1.56396, 1.56946, 1.57187, 1.57709, 1.58678, 1.58787, 1.58958, 1.59214, 1.581, 1.57811, 1.57937, 1.83205, 1.83101, 1.61426, 1.61567, 1.61677, 1.61503, 1.61912, 1.62123, 1.62281, 1.63112, 1.62962, 1.62992, 1.62833, 1.63589, 1.63454, 1.64155, 1.64307, 1.64948, 1.64781, 1.65419, 1.65515, 1.66121, 1.73174, 1.70865, 1.68372, 1.69067, 1.68895, 1.69947, 1.6991, 1.69222
1.23383, 1.34365, 1.23032, 1.22262, 1.22723, 1.22437, 0.00340552, 1.226, 1.23772, 1.23016, 0.00367274, 0.00349867, 1.24183, 1.24417, 1.24222, 1.24167, 1.2379, 1.23936, 1.23936, 1.40501, 0.00372124, 1.25181, 1.25456, 1.38075, 1.24641, 1.24464, 1.24338, 1.24891, 1.24772, 1.25431, 1.25394, 1.40208, 1.40153, 1.26492, 1.36569, 1.38945, 1.2812, 1.39034, 1.39076, 1.29862, 1.31681, 1.31966, 1.4201, 1.32234, 1.32382, 1.33348, 1.72397, 1.31292, 1.34672, 1.35034, 1.32252, 1.31755, 1.31636, 1.34147, 1.31722, 1.31289, 1.31285, 1.31241, 1.3136, 1.319, 1.31533, 1.3108, 1.3087, 1.29678, 1.30103, 1.29969, 1.31022, 1.30971, 1.33078, 1.31215, 1.31115, 1.31252, 1.26016, 1.3118, 1.3441, 1.26387, 1.27369, 1.27462, 1.25895, 1.237, 1.25491, 1.25691, 1.23403, 1.3856, 1.38507, 1.24759, 1.2502, 1.25777, 1.28496, 1.33584, 1.31322, 1.35417, 1.40615, 1.39099, 1.42484, 1.44553, 1.48785, 1.49901, 1.50604, 1.5129, 1.56097, 1.57598, 1.58969, 1.6423, 1.64214, 1.73382, 1.77651, 1.77409, 1.82995, 1.8526, 2.07258, 2.14972, 2.16804, 2.17959, 2.16734, 2.16966, 2.16352, 2.23773, 2.18669, 2.25243, 2.26116, 2.25815, 2.2723, 2.23428, 2.25681, 2.24682, 2.25244, 2.23472, 2.23434, 2.23314, 2.21834, 2.21771, 2.24773, 2.25054, 2.19359, 2.18664, 2.21791, 2.21587, 2.19277, 2.16744, 2.16494, 2.19721, 2.1551, 2.19052, 2.13909, 2.23834, 0.00407829, 2.15979, 2.17333, 2.16998, 2.14232, 2.05941, 0.00360976, 0.00375635, 0.00352127, 0.00382886, 1.98203, 2.0738, 1.97745, 1.97557, 0.00335381, 2.03071, 2.04167, 1.92705, 2.00342, 1.87971, 1.86597, 1.86352, 1.85702, 1.82093, 1.75771, 1.91471, 1.9132, 1.91068, 1.91193, 1.75368, 0.00352266, 0.00343911, 1.7926, 1.74401, 1.73936, 1.71725, 1.65032, 1.6429, 1.63118, 1.64508, 1.61565, 1.58471, 1.58369, 1.56965, 1.56985, 1.56542, 1.55763, 1.51974, 1.52202, 1.52808, 1.51248, 1.51189, 1.53624, 1.48024, 1.48086, 1.49269, 1.49203, 1.47847, 1.46986, 1.47131, 1.46157, 1.58168, 1.41969, 1.42112, 1.41861, 1.49546, 1.37287, 1.36542, 1.36583, 1.40424, 1.39136, 0.00358745, 1.42101, 1.45342, 0.00329008, 1.61981, 1.95615, 0.00351661, 1.53644, 1.5358, 1.49805, 1.49357, 1.49914, 1.50464, 1.49589, 0.00380942, 0.00371758, 1.94954, 1.9228, 1.95824, 0.00346936, 1.93434, 0.00367757, 1.52292, 1.52503, 1.52637, 1.51761, 1.52507, 1.52579, 1.52467, 1.5265, 1.52559, 0.00350765, 1.92993, 0.00354029, 1.53414, 1.53453, 1.5372, 0.00359867, 1.53134, 1.53193, 0.00353639, 0.00375572, 1.54291, 1.54281, 0.00378168, 1.57626, 1.58578, 1.58536, 1.58749, 1.58661, 1.57753, 1.57428, 1.5767, 1.5863, 1.58345, 1.809, 1.80918, 1.61618, 1.61494, 1.61086, 1.61478, 1.6156, 1.61963, 1.62054, 1.62934, 1.62831, 1.62967, 1.63742, 1.63417, 1.64121, 1.63863, 1.64816, 1.64706, 1.64492, 1.64761, 1.65607, 1.66101, 1.66202, 1.71117, 1.67713, 1.67196, 1.6943, 1.69282
1.21292, 1.21243, 1.21333, 1.21169, 1.21258, 1.21575, 1.21509, 1.21398, 1.21277, 1.21335, 1.21595, 1.21584, 1.21801, 1.21847, 1.21635, 1.23546, 1.2365, 1.2313, 1.23056, 1.23, 1.22688, 1.28483, 1.23548, 1.33413, 1.23598, 1.23533, 1.23382, 1.23269, 1.23293, 1.23275, 1.23554, 1.23555, 1.23276, 1.23468, 1.39226, 1.25002, 1.25983, 0.00369639, 1.27502, 1.28074, 1.27534, 0.0033079, 1.27867, 1.32531, 1.31912, 1.31057, 1.30335, 1.30175, 1.71479, 0.00352724, 0.00350353, 1.2912, 1.29048, 0.00367595, 1.29159, 1.296, 1.29552, 1.29662, 1.29701, 1.29889, 1.29507, 1.29161, 1.28633, 1.28712, 1.29656, 1.31363, 1.31381, 1.32684, 1.29761, 1.29784, 1.26729, 1.26564, 1.25454, 1.24237, 1.24368, 1.24433, 1.21265, 1.21101, 1.2189, 1.21925, 1.21583, 1.24769, 1.24947, 1.22931, 1.23811, 1.24396, 1.25967, 1.25278, 1.26364, 1.2984, 1.30231, 1.28439, 1.30915, 1.37103, 1.40884, 1.41595, 1.47565, 1.44385, 1.45189, 1.48942, 1.53107, 1.58304, 1.58284, 1.58072, 1.74826, 1.74667, 1.78597, 1.77398, 1.7728, 1.9285, 2.1687, 2.17726, 2.17837, 2.20411, 2.22546, 2.2353, 2.25332, 2.24866, 2.2742, 2.27263, 2.27169, 2.25653, 2.27338, 2.26406, 2.25548, 2.26125, 2.26536, 2.26416, 2.26181, 2.27322, 2.25316, 2.2844, 2.25967, 2.24881, 2.27971, 2.27708, 2.27999, 2.26141, 2.26989, 2.19671, 2.18016, 2.17334, 2.16987, 2.17906, 2.14009, 2.1388, 2.19068, 2.12132, 2.1541, 2.17817, 2.08227, 2.0756, 2.12833, 2.13068, 2.1299, 0.00373684, 1.99071, 1.95951, 2.08301, 1.95702, 1.95612, 0.00357599, 2.03051, 1.93161, 1.98382, 1.90348, 2.00024, 1.93758, 1.93029, 1.93088, 1.79392, 1.89209, 1.96713, 0.00366955, 1.9125, 0.00357805, 1.76141, 0.00369376, 1.82418, 1.82035, 1.72221, 1.75381, 1.71687, 1.73136, 1.67963, 1.67289, 1.64777, 1.61737, 1.60712, 1.6241, 1.58635, 1.55128, 1.54918, 1.56494, 1.54691, 1.53037, 1.52609, 1.52348, 1.49677, 1.50221, 1.48484, 1.48085, 1.48182, 1.4722, 1.46474, 1.46401, 1.46127, 1.46041, 1.40393, 1.40726, 1.38118, 1.38381, 1.36256, 1.35785, 1.36058, 1.40004, 1.38587, 1.39793, 1.40482, 1.43877, 1.43775, 1.41413, 1.41481, 1.42284, 0.00367958, 0.00390762, 0.00348653, 1.46998, 1.50584, 1.47026, 1.93134, 1.92914, 1.9305, 0.00362941, 1.50188, 0.00377632, 0.00339949, 0.00390182, 1.52042, 0.00369338, 1.52257, 1.5217, 1.52057, 1.52907, 1.53308, 1.52895, 1.52588, 1.52716, 1.91125, 1.91, 1.529, 1.5338, 1.5352, 1.53846, 1.90765, 1.52966, 1.52104, 1.52613, 1.52321, 0.00357047, 1.59069, 1.586, 1.58841, 1.58941, 1.5851, 1.58578, 1.58535, 1.57955, 1.5767, 1.57707, 1.57689, 1.57519, 1.58197, 1.58081, 1.8202, 1.82387, 1.60571, 1.6067, 1.60578, 1.61378, 1.61439, 1.61876, 1.62587, 1.62438, 1.63637, 1.64446, 1.65378, 1.65198, 1.64912, 1.65029, 1.65057, 1.651, 1.65366, 1.66271, 1.65981, 1.65873, 1.66119, 1.66389, 1.66594, 1.66349
1.19891, 1.20146, 1.20166, 1.20335, 1.20598, 1.20645, 1.20689, 1.2052, 1.20744, 1.21142, 1.21172, 1.20882, 1.20952, 1.21025, 1.21097, 1.21583, 1.21605, 1.21647, 1.21646, 1.21636, 1.22003, 1.21637, 1.22541, 1.22623, 1.22534, 1.22909, 1.22573, 1.22668, 1.22769, 1.22777, 1.22552, 1.22588, 1.22804, 1.2284, 1.23613, 1.2345, 1.23417, 1.23026, 1.23926, 1.23984, 1.30545, 1.3706, 1.24962, 1.23651, 0.00362336, 1.35719, 1.33379, 1.32993, 0.00335813, 0.00344753, 0.00363602, 1.70282, 0.00337405, 1.35469, 0.00322194, 1.3162, 1.32736, 1.36837, 1.36493, 1.27746, 1.27044, 1.27563, 1.27217, 1.27529, 0.00329406, 1.2679, 1.29443, 1.29597, 1.29795, 1.29295, 1.29819, 1.26926, 1.26603, 1.25015, 1.20907, 1.20928, 1.20988, 1.21049, 1.20679, 1.20991, 1.23669, 1.21233, 1.21347, 1.21105, 1.21874, 1.22588, 1.25706, 1.26244, 1.26492, 1.27033, 1.28623, 1.28788, 1.29812, 1.33016, 1.34198, 1.36833, 1.36401, 1.45487, 1.46423, 1.48519, 1.53262, 1.5355, 1.57651, 1.60991, 1.62498, 1.75856, 1.7584, 1.75602, 1.93358, 1.93059, 2.17746, 2.20327, 2.19376, 2.24384, 2.24271, 2.25641, 2.30057, 2.27633, 2.28042, 2.27411, 2.29073, 2.33449, 2.31403, 2.32874, 0.00347686, 2.26217, 2.28958, 2.30106, 2.29367, 2.28098, 2.2843, 2.28269, 2.30228, 2.29978, 2.26557, 2.27709, 2.26044, 2.25822, 2.24819, 2.26695, 2.21331, 2.23155, 2.24889, 2.19745, 2.16204, 2.15252, 2.1722, 2.12224, 2.12272, 2.11709, 2.10365, 2.0977, 2.09891, 2.11763, 2.1168, 0.00372201, 0.00373117, 0.0038709, 0.00364565, 0.00343537, 2.05992, 2.12535, 0.00376659, 2.07647, 2.08425, 1.95122, 0.00364055, 1.93319, 0.00336887, 0.00398291, 0.00361568, 1.94903, 1.94872, 1.90406, 1.79161, 1.8973, 1.89502, 1.77476, 1.85585, 1.76779, 1.75149, 1.74685, 1.70224, 1.71338, 1.63772, 1.61875, 0.00351496, 1.61936, 1.61056, 1.60614, 0.00363048, 1.63745, 1.57172, 1.55344, 1.52956, 1.52835, 1.55593, 1.4986, 1.49694, 1.51919, 1.4566, 1.45656, 0.00349313, 1.47808, 1.48148, 1.45255, 1.46106, 1.46004, 1.38912, 1.39111, 1.39216, 1.38901, 1.36859, 1.36344, 1.37451, 1.39153, 1.38288, 1.42402, 0.00322587, 1.52878, 1.50538, 1.50507, 1.42429, 1.43018, 1.4408, 1.44482, 0.00340731, 1.92205, 1.48299, 0.00354976, 1.51297, 1.51233, 0.00374304, 1.49828, 1.49983, 1.50059, 1.52302, 1.52067, 1.5196, 1.51731, 1.51833, 1.51361, 1.51732, 1.5174, 1.51639, 1.51662, 1.51612, 1.52007, 1.52789, 1.85111, 0.00347525, 1.53241, 1.53425, 1.53555, 1.53772, 1.52466, 1.52627, 1.53019, 1.54832, 1.55351, 1.55214, 1.57498, 1.57325, 1.57039, 1.56297, 1.56572, 1.57219, 1.57085, 1.57751, 1.57809, 1.58217, 1.5766, 1.5818, 1.58276, 1.58202, 1.59611, 1.59537, 1.60585, 1.61512, 1.61611, 1.62418, 1.63107, 1.62956, 1.63834, 1.63609, 1.63931, 1.63998, 1.64193, 1.64745, 1.64752, 1.64518, 1.64109, 1.64423, 1.64473, 1.64803, 1.65076, 1.65181, 1.64784, 1.65283, 1.65253
1.20471, 1.20458, 1.20038, 1.19886, 1.19881, 1.19872, 1.20179, 1.20988, 1.20597, 1.20345, 1.20291, 1.20109, 1.20404, 1.20501, 1.20233, 1.20341, 1.20199, 1.20267, 1.21184, 1.20911, 1.208, 1.21152, 1.20808, 1.22004, 1.34349, 0.00361911, 1.22759, 1.22744, 1.22353, 1.22321, 1.22297, 1.22559, 1.2272, 1.22894, 1.23231, 1.23236, 1.23094, 1.23346, 1.23448, 1.23285, 1.23145, 1.22933, 1.22873, 1.22774, 1.22501, 1.22439, 1.35829, 1.35358, 0.00340497, 0.00368716, 2.77076, 1.31647, 1.31233, 1.30705, 1.30617, 1.29805, 1.35203, 1.35352, 1.34469, 0.00370234, 1.23476, 1.32597, 1.32765, 1.3229, 1.25289, 1.42291, 1.24468, 1.23986, 1.24041, 1.24803, 1.25014, 0.00359721, 1.26702, 1.2671, 1.32342, 1.21446, 1.20979, 1.20685, 1.20547, 1.20839, 1.26001, 1.23701, 1.23927, 1.19302, 1.27191, 1.34335, 1.21675, 1.24205, 1.23749, 1.26389, 1.26116, 1.29171, 1.28913, 1.30929, 1.33366, 1.33388, 1.36305, 1.36403, 1.46416, 1.48354, 1.51463, 1.54074, 1.56878, 1.58863, 1.63622, 1.76109, 1.76527, 1.93864, 1.93734, 2.16512, 2.19022, 2.21218, 2.24602, 2.24545, 2.29756, 2.30324, 2.30084, 2.31508, 2.33779, 2.32918, 2.32727, 2.32804, 2.35956, 2.33224, 2.3345, 2.32926, 2.29399, 2.29199, 2.29293, 2.28042, 2.29291, 2.29031, 2.30504, 2.30477, 2.27208, 2.27638, 2.24135, 2.2414, 2.27992, 2.24601, 2.23057, 2.23769, 2.23844, 2.22396, 2.19342, 2.19511, 2.18088, 2.17432, 2.12774, 2.13253, 2.11035, 2.07871, 2.10507, 2.10042, 2.07283, 2.06568, 2.09039, 0.00366702, 0.00384541, 0.00349211, 0.0034878, 0.00370862, 0.00336669, 2.1184, 2.08382, 2.08242, 1.99286, 2.0728, 1.93853, 1.94545, 1.94395, 1.91753, 0.00326338, 0.00363666, 1.84314, 1.83951, 1.83232, 0.00359479, 1.80617, 0.00353568, 1.75163, 1.74289, 1.71259, 1.681, 1.66862, 1.65487, 1.64007, 1.6428, 1.86776, 1.58604, 1.57543, 1.60852, 1.57202, 1.54376, 1.57144, 1.56081, 1.53453, 1.4972, 1.49678, 1.56917, 1.47793, 1.47241, 1.44222, 1.43502, 1.45843, 1.46157, 1.41104, 1.41336, 1.3879, 1.43354, 1.4339, 1.72751, 0.00356694, 1.42623, 1.37664, 1.37689, 1.41875, 1.39593, 1.3959, 1.5482, 1.41805, 0.00363951, 0.0102821, 0.00348099, 0.00362011, 1.91885, 1.48682, 1.46246, 1.46474, 1.46664, 1.91233, 1.9111, 1.8574, 1.86423, 1.51006, 1.50909, 1.5103, 1.5135, 1.51134, 1.51906, 1.51823, 1.51618, 1.51409, 1.51164, 1.51618, 1.51906, 1.51616, 1.76956, 1.52744, 1.52802, 1.52956, 1.52909, 1.53141, 1.53198, 0.00346118, 0.00354547, 1.81993, 1.80257, 1.55376, 1.5487, 1.55012, 1.54591, 1.54922, 1.86011, 1.57175, 1.57009, 1.57085, 1.8128, 1.58425, 1.58692, 1.58698, 1.5857, 1.58982, 1.59613, 1.59709, 1.60054, 1.60299, 1.60865, 1.6123, 1.61214, 1.61402, 1.61934, 1.61996, 1.62662, 1.62557, 1.62826, 1.62595, 1.63197, 1.63273, 1.63052, 1.63232, 1.63215, 1.63153, 1.63737, 1.63558, 1.63375, 1.63858, 1.70358, 1.64443, 1.64387
1.2034, 1.2038, 1.20411, 1.19561, 1.19612, 1.1958, 1.20057, 1.20588, 1.20936, 1.21117, 1.19927, 1.19639, 1.18891, 1.19049, 1.19303, 1.19257, 1.1924, 1.18836, 1.27899, 1.36679, 1.20936, 1.20848, 1.20905, 1.19754, 1.20238, 1.20274, 1.20316, 1.21758, 1.2166, 1.20522, 1.20051, 1.20201, 0.00378341, 0.00414891, 1.22683, 1.23215, 1.23046, 1.23279, 1.23384, 1.23212, 1.23313, 1.22671, 1.22582, 1.22047, 1.22097, 1.21182, 1.21106, 1.33694, 1.20824, 1.2984, 1.29703, 1.29926, 1.30766, 0.00390706, 0.00381691, 1.37084, 1.22025, 1.35658, 1.35649, 1.22242, 1.21754, 1.21483, 1.20902, 1.20938, 1.22297, 1.23093, 1.22985, 1.22848, 1.2285, 1.2281, 1.20997, 1.18208, 1.18253, 1.17709, 1.23122, 0.00348989, 0.00384597, 1.25517, 1.25809, 1.1747, 1.24389, 1.46079, 1.17678, 1.19217, 1.18454, 1.21233, 1.2056, 1.20556, 1.25025, 1.25824, 1.25379, 1.2546, 1.28596, 1.28784, 1.32296, 1.29451, 1.29667, 1.32418, 1.33618, 1.47864, 1.49174, 1.50362, 1.56665, 1.57508, 1.61625, 1.78188, 1.77942, 1.88695, 2.14144, 2.17267, 2.18729, 2.25278, 2.30573, 2.28909, 2.27001, 2.30684, 2.33426, 2.32351, 2.31813, 2.32823, 2.34835, 2.34475, 2.33241, 2.33677, 2.3256, 2.33107, 2.30899, 2.30751, 2.31568, 2.29362, 2.29393, 2.29665, 2.30533, 2.29083, 2.2622, 2.26994, 2.26611, 2.28404, 2.26237, 2.2282, 2.22738, 2.20531, 2.18, 2.21117, 2.1726, 2.16115, 2.14853, 2.14165, 2.14383, 2.11351, 2.13768, 2.11061, 2.10737, 2.07595, 2.09476, 2.08424, 2.08351, 0.00369046, 0.00347451, 0.00373241, 0.00377652, 2.0828, 2.0906, 2.08444, 2.07607, 2.05918, 2.08047, 0.0030878, 0.00352086, 1.98299, 2.17001, 1.97262, 0.00381359, 0.00359808, 2.08764, 0.0035707, 0.00374654, 1.76255, 1.81391, 1.7804, 1.77683, 0.00375455, 1.69933, 1.68964, 0.00364891, 1.67301, 1.65577, 1.68326, 1.6097, 1.59042, 1.61738, 1.61742, 1.59103, 1.57801, 0.00339517, 1.5801, 1.57937, 1.52893, 1.55502, 1.55305, 1.47596, 1.5982, 1.5988, 2.04837, 0.00377268, 1.54195, 1.54053, 1.54073, 1.39543, 1.39817, 1.39473, 1.71436, 1.38173, 1.38179, 1.38552, 1.44314, 1.44338, 1.4436, 1.40718, 1.43312, 0.00361082, 1.90595, 1.90988, 0.00374835, 0.00356406, 1.90245, 1.90275, 0.00388631, 0.00366613, 1.90511, 0.00343737, 1.79592, 0.00351691, 1.5029, 1.49946, 1.51612, 1.51368, 1.51678, 1.51518, 1.51679, 1.51738, 1.51491, 1.51322, 1.51133, 1.51482, 1.80029, 1.80246, 1.80333, 0.00354932, 0.00343268, 1.79245, 1.53354, 1.71769, 1.80264, 1.82784, 1.82695, 1.83624, 1.83858, 1.54302, 1.54487, 1.54692, 1.54479, 1.55015, 1.55373, 1.55134, 1.85869, 1.56506, 1.57175, 1.57106, 1.57268, 1.57993, 1.57661, 1.57898, 1.58384, 1.58418, 1.58722, 1.59882, 1.59881, 1.60668, 1.60565, 1.60648, 1.60933, 1.61143, 1.61155, 1.61487, 1.61284, 1.62137, 1.61977, 1.62268, 1.61993, 1.62376, 1.62516, 1.6251, 1.62761, 1.63029, 1.63057, 1.6306, 1.73979, 1.63189, 1.62951
1.19459, 1.19707, 1.19758, 1.19538, 1.18766, 1.1889, 1.19389, 1.19847, 1.31033, 1.37191, 1.18854, 1.18826, 1.1878, 1.18664, 1.18436, 1.18133, 1.17715, 1.17609, 1.17452, 1.17442, 1.20287, 1.20665, 1.20837, 1.20368, 1.20012, 1.20016, 1.19534, 1.20254, 1.20488, 0.00368214, 1.17411, 1.17369, 1.3345, 0.00387051, 1.20907, 1.21219, 1.21267, 0.00365881, 1.21486, 1.26522, 1.26509, 1.21597, 1.20657, 1.20687, 1.20645, 1.20587, 1.20434, 1.20471, 1.20598, 1.35681, 1.19296, 1.19258, 1.3504, 1.196, 1.2015, 1.3271, 1.3265, 1.20734, 1.21151, 1.21251, 1.21321, 1.2133, 1.21217, 1.21474, 1.21593, 0.00349813, 1.20864, 1.21165, 0.00383563, 0.0030955, 1.2315, 1.25531, 1.25634, 1.19079, 1.18255, 1.21139, 1.18058, 1.17661, 1.17125, 1.17033, 1.31724, 1.17003, 1.16854, 1.16947, 1.17764, 1.21554, 1.20823, 1.23783, 1.24675, 1.24686, 1.23684, 1.23694, 1.30343, 1.30916, 1.30969, 1.28553, 1.27959, 1.31287, 1.31222, 1.39427, 1.39415, 1.49536, 1.57886, 1.55985, 1.58311, 1.65162, 1.74881, 1.84795, 2.15893, 2.14923, 2.23734, 2.25062, 2.29808, 2.32174, 2.31814, 2.31471, 2.33438, 2.33207, 2.38734, 2.35237, 2.37583, 2.3416, 2.32773, 2.326, 2.32441, 2.33182, 2.33111, 2.34906, 2.36011, 2.33877, 2.32147, 2.31174, 2.30894, 2.32035, 2.29439, 2.27578, 2.2643, 2.29261, 2.29013, 2.24484, 2.24135, 2.20581, 2.2029, 2.1877, 2.20339, 2.15959, 2.14886, 2.14953, 2.11258, 2.14261, 2.14151, 2.11265, 2.11163, 2.08369, 2.09741, 2.09536, 2.05572, 0.00321557, 0.00314829, 0.00374619, 0.00370017, 0.00353619, 2.09266, 0.00377163, 0.00373436, 0.00365622, 2.14899, 0.0032457, 2.00953, 2.13821, 2.13502, 2.07553, 1.95641, 0.00373022, 1.91408, 0.00376484, 1.8597, 1.81478, 1.7595, 1.75428, 0.00347418, 0.00355148, 1.80189, 1.69793, 1.74109, 1.73967, 1.64116, 1.63365, 1.61939, 0.00367626, 1.65466, 1.63726, 1.57602, 1.58127, 1.63713, 1.56433, 2.00113, 1.53751, 1.49829, 1.5163, 1.56867, 1.51508, 1.51409, 1.44722, 1.44619, 1.43763, 1.42587, 1.62261, 1.4014, 1.3994, 1.40055, 1.4494, 1.44714, 1.70939, 1.39385, 1.39268, 1.39415, 1.40259, 1.39916, 0.0035611, 1.54792, 1.54729, 1.43692, 1.44375, 1.44924, 1.45749, 1.88144, 1.90958, 1.87204, 0.00382296, 1.87803, 0.0035257, 1.53838, 1.5093, 1.50881, 0.00346964, 1.75314, 1.5123, 1.51607, 1.51715, 1.5153, 1.51382, 1.51556, 1.76605, 1.77866, 1.80576, 1.77897, 0.00365077, 1.80634, 1.81683, 1.81027, 0.0033433, 1.82673, 1.79779, 1.82105, 1.83477, 1.83311, 1.54124, 1.54057, 1.54445, 1.54448, 1.54275, 1.54172, 1.54459, 1.54878, 1.54908, 1.83197, 1.55914, 1.82893, 1.56471, 1.56399, 1.84496, 1.84948, 1.57675, 1.57529, 1.57838, 1.57989, 1.59205, 1.59355, 1.59232, 1.60271, 1.60505, 1.60351, 1.60947, 1.60426, 1.61655, 1.61537, 1.6114, 1.61305, 1.61261, 1.61922, 1.61991, 1.61938, 1.7661, 1.6196, 1.62284, 1.62086, 1.61708, 1.62323, 1.61965
1.19369, 1.19624, 1.19786, 1.32222, 1.17451, 1.17409, 1.17772, 1.1856, 1.18132, 1.18052, 1.18118, 1.18125, 1.18364, 1.18582, 1.18668, 1.18179, 1.18135, 1.17367, 1.17267, 1.17404, 1.18378, 1.19088, 0.00365016, 1.18969, 0.00372695, 0.00366159, 1.29859, 0.0036077, 1.17884, 1.17573, 1.16848, 1.16695, 1.16689, 1.18098, 1.19539, 1.19402, 1.34326, 1.34049, 1.18033, 1.28543, 0.00388652, 1.19, 1.19253, 1.19401, 1.19394, 1.19737, 1.19873, 1.19779, 1.19785, 1.19867, 1.19118, 1.18374, 1.18165, 1.26091, 1.19055, 1.19411, 1.19727, 1.19744, 1.1994, 1.20541, 1.20543, 1.2072, 1.21071, 1.20606, 1.20624, 1.20522, 1.20455, 1.20495, 1.17611, 1.13499, 1.13344, 1.13445, 1.26628, 1.26746, 1.27038, 1.163, 1.16475, 1.15653, 1.15818, 1.22272, 1.23026, 1.18217, 1.14737, 1.17618, 1.16126, 1.16252, 1.20436, 1.21674, 1.20082, 1.24207, 1.23285, 1.22899, 1.24155, 1.24587, 1.25443, 1.26515, 1.27166, 1.31699, 1.33368, 1.32948, 1.38752, 1.37948, 1.39499, 1.54538, 1.58078, 1.66266, 0.00382706, 1.85764, 2.2596, 2.25911, 2.29497, 2.29089, 2.29381, 2.37193, 2.31921, 2.35171, 2.34757, 2.33659, 2.38343, 2.40154, 2.34938, 2.34283, 2.33849, 2.33917, 2.33564, 2.36813, 2.35043, 2.37791, 2.38101, 2.34, 2.34155, 2.32662, 2.3349, 2.31406, 2.35972, 2.2689, 2.28802, 2.2522, 2.25639, 2.21763, 2.21312, 2.20892, 2.20634, 2.18975, 2.15727, 2.15485, 2.13856, 2.15571, 2.14172, 2.13829, 2.10626, 2.11875, 2.11118, 2.08047, 2.08865, 2.06034, 2.05802, 2.04752, 0.00363912, 2.10169, 0.00335032, 2.08168, 0.00389196, 2.02404, 0.00349598, 0.00345845, 0.00356634, 2.02676, 2.04607, 2.03692, 0.00346148, 2.01209, 0.00349781, 2.03034, 0.00320783, 2.01397, 2.01737, 2.01589, 0.00328211, 1.92297, 1.82621, 1.76753, 1.80398, 1.74606, 1.7314, 1.76872, 1.75726, 1.68614, 0.00353404, 0.00380542, 1.70398, 1.61656, 0.00340754, 0.00380098, 1.5597, 1.55353, 1.53429, 1.5359, 1.51064, 1.49229, 1.49956, 1.523, 1.49538, 1.50603, 1.49832, 1.50757, 1.62176, 1.62155, 1.43066, 1.43467, 1.44616, 1.47552, 1.47452, 1.46013, 1.45239, 1.45214, 0.00366571, 1.4982, 1.77966, 1.73797, 1.77707, 1.74423, 1.76296, 0.0036668, 1.73668, 1.72283, 0.00362749, 1.521, 1.80347, 1.71738, 1.72404, 1.76179, 1.51151, 1.67576, 1.74511, 1.74187, 1.73284, 1.8029, 1.51102, 1.51588, 1.5172, 1.51885, 1.8048, 1.81355, 1.81551, 1.80308, 1.82062, 1.70047, 0.00359829, 1.82962, 1.81037, 1.82316, 1.52772, 1.52642, 1.5297, 1.85921, 1.53785, 1.53574, 1.53483, 1.54442, 1.54274, 1.54297, 1.54282, 1.54131, 1.54237, 1.54388, 1.54665, 1.55138, 1.55048, 1.54865, 1.55486, 1.80988, 1.56285, 1.57169, 1.57439, 1.5768, 1.57614, 1.58089, 1.58497, 1.58709, 1.59792, 1.59759, 1.59678, 1.60193, 1.60564, 1.60327, 1.6066, 1.60994, 1.61301, 1.61364, 1.61308, 1.61574, 1.61266, 1.61203, 1.61061, 1.61314, 1.61043, 1.61353, 1.61284, 1.612
1.18281, 1.18186, 1.18337, 1.18107, 1.17503, 1.17244, 1.17051, 1.17512, 1.19132, 1.1897, 1.18883, 1.18439, 1.18584, 1.18677, 1.18268, 1.17397, 1.17506, 1.1772, 1.17925, 1.17853, 1.17976, 1.17701, 1.17715, 1.17725, 1.17753, 0.00362046, 1.16148, 1.16128, 1.16998, 1.16929, 1.17026, 1.16966, 1.1715, 1.17233, 1.28827, 1.1708, 1.168, 1.16732, 1.1686, 1.16418, 1.16356, 0.00311486, 1.33347, 1.19059, 1.1917, 1.19341, 1.18912, 1.27458, 1.27796, 1.27406, 1.18219, 1.18249, 1.18057, 1.18125, 1.18575, 1.18646, 1.18996, 1.1908, 1.19207, 1.19764, 1.20621, 1.20722, 1.20782, 1.20233, 1.20038, 1.20202, 1.20169, 1.1995, 1.18854, 1.17583, 1.1512, 1.13799, 1.13757, 1.14662, 1.14613, 1.25385, 1.21281, 1.1459, 1.14677, 1.21649, 1.13451, 1.13398, 1.13626, 1.13653, 1.15214, 1.16092, 1.16244, 1.20711, 1.17552, 1.22659, 1.20824, 1.2081, 1.21388, 1.23175, 1.22944, 1.22988, 1.25686, 1.29992, 1.30884, 1.32212, 1.35327, 1.35176, 1.40048, 1.43642, 1.52746, 1.59816, 1.5972, 1.67542, 2.25898, 2.17621, 2.30907, 2.29497, 2.32169, 2.31878, 2.35365, 2.37033, 2.36794, 2.36975, 2.37553, 2.35795, 2.3599, 2.36305, 2.39705, 2.35221, 2.38381, 2.37302, 2.36245, 2.34297, 2.36003, 2.31885, 2.32171, 2.30778, 2.31714, 2.32181, 2.29029, 2.2938, 2.23192, 2.22462, 2.24687, 2.22548, 2.2078, 2.19803, 2.19522, 2.18316, 2.19992, 2.14015, 2.13837, 2.12611, 2.18046, 2.16125, 2.12477, 2.12467, 2.07327, 2.0713, 2.08115, 2.0656, 2.03367, 2.03079, 0.00392421, 0.00314024, 0.00351845, 2.0492, 2.04833, 0.00342125, 2.03704, 0.00340028, 2.09244, 2.04378, 2.03206, 2.04137, 1.99915, 1.98451, 1.97357, 1.98619, 1.98945, 1.98638, 0.00382782, 0.00348947, 0.00336722, 1.92539, 1.83023, 1.77413, 0.00384328, 1.91896, 1.91755, 1.74371, 1.74384, 1.72786, 1.92965, 1.71148, 1.71247, 1.64736, 1.63141, 1.71476, 1.74064, 0.00341061, 1.49721, 1.49307, 1.4955, 1.55538, 1.52484, 1.46916, 1.50651, 1.48207, 1.44757, 1.51237, 1.43673, 1.5186, 1.51719, 1.41981, 1.41984, 1.41643, 1.41387, 1.41948, 1.4622, 1.44834, 1.45436, 1.46791, 1.42539, 1.43414, 1.52105, 1.46414, 1.72163, 1.74446, 1.74208, 1.75828, 1.83373, 1.77332, 1.776, 1.82799, 1.82674, 1.70723, 1.82394, 1.81289, 1.73156, 1.73447, 1.81261, 1.80894, 1.52, 1.51957, 1.51548, 1.52066, 1.51921, 1.5215, 1.51817, 1.51935, 1.81788, 0.00348111, 1.82886, 1.52143, 1.52137, 1.52034, 1.52164, 1.52595, 1.52586, 1.53309, 1.53058, 1.53974, 1.53881, 1.54019, 1.53954, 1.54038, 1.54092, 1.54371, 1.54733, 1.5461, 1.54462, 1.54812, 1.54784, 1.54851, 1.63711, 1.56344, 1.56382, 1.56479, 1.57183, 1.57848, 1.58372, 1.58043, 1.58529, 1.58651, 1.59508, 1.59685, 1.59742, 1.6033, 1.60567, 1.60369, 1.60519, 1.60535, 1.61264, 1.61415, 1.61227, 1.6113, 1.61291, 1.613, 1.61182, 1.61234, 1.61441, 1.61212, 1.61099, 1.60988
1.1783, 1.17815, 1.18262, 1.1847, 1.18611, 1.18752, 1.18877, 1.18889, 1.18944, 1.18972, 1.18852, 1.18974, 1.18359, 1.18366, 1.17981, 1.17426, 1.16839, 1.16885, 1.17092, 1.17044, 1.16857, 1.16921, 1.17356, 1.17402, 1.15329, 1.15377, 1.15547, 1.1608, 1.16321, 1.17574, 1.17719, 1.17103, 1.16401, 1.16206, 1.15468, 1.2936, 1.16852, 1.16765, 1.16704, 1.16334, 1.16136, 1.16325, 1.16569, 1.16741, 1.17735, 1.18051, 1.18411, 1.18635, 1.18686, 1.18032, 1.17952, 1.17938, 1.1805, 1.18155, 1.19015, 1.1907, 1.19432, 1.1957, 1.19809, 1.20061, 1.198, 1.20216, 1.20176, 1.20137, 1.20076, 1.20339, 1.20433, 1.2041, 1.20503, 1.21644, 1.15624, 1.15556, 1.15396, 1.15522, 1.1886, 1.15478, 1.15495, 1.21972, 1.2006, 1.15977, 1.12866, 1.12947, 1.14437, 1.1442, 1.15704, 1.18859, 1.17965, 1.18427, 1.16944, 1.17272, 1.36079, 1.22372, 1.21874, 1.21856, 1.23726, 1.22961, 1.23768, 1.28849, 1.30294, 1.33633, 1.34311, 1.34201, 1.41286, 1.41005, 1.53021, 1.55291, 1.57122, 1.59761, 1.70711, 1.76155, 2.3021, 2.30326, 2.32637, 2.33298, 2.40903, 2.40856, 2.41464, 2.37979, 0.00363111, 2.39294, 2.39322, 2.3643, 2.36301, 2.36701, 2.37155, 2.36065, 2.35896, 2.35652, 2.32132, 2.32596, 2.29877, 2.29298, 2.26727, 2.27397, 2.29031, 2.26767, 2.22116, 2.21713, 2.22533, 2.22242, 2.19696, 2.19675, 2.1842, 2.1629, 2.1795, 2.13303, 2.13071, 2.10784, 2.10698, 2.09075, 2.09042, 2.09325, 2.08789, 2.05038, 2.04785, 2.04766, 0.00353774, 0.00353632, 0.00385909, 0.00373806, 0.00324553, 0.00349948, 2.03859, 2.04543, 2.04086, 1.99723, 2.00138, 1.97524, 0.00340627, 1.9936, 1.8843, 1.88014, 1.99912, 1.98756, 1.96922, 1.9193, 1.91727, 1.91053, 0.00345115, 1.96232, 1.96042, 0.00413399, 0.00341914, 1.74904, 0.00374737, 1.89029, 0.00372766, 1.79245, 1.98624, 1.98497, 1.66544, 1.65978, 1.6401, 1.66152, 1.61545, 1.62368, 0.00371645, 1.55194, 1.52086, 1.58723, 1.48132, 1.63303, 1.55833, 1.52682, 1.5076, 1.46371, 1.5316, 1.42896, 1.42836, 1.42761, 1.47025, 1.46213, 1.46581, 1.4223, 1.41943, 1.41798, 1.47976, 1.47816, 1.72272, 1.51328, 1.71828, 1.4547, 1.72076, 1.71929, 1.75654, 1.71854, 1.72346, 1.4873, 1.48579, 1.81957, 1.72987, 1.82175, 1.81457, 1.81396, 1.51049, 1.51068, 1.81272, 1.51898, 1.51793, 1.51573, 1.52357, 1.51427, 1.51369, 1.51231, 1.5165, 1.5172, 1.51699, 1.51763, 1.51681, 1.51767, 1.51937, 1.51674, 1.52365, 1.52445, 1.52463, 1.52877, 1.53368, 1.53045, 1.53459, 1.53777, 1.53804, 1.53844, 1.542, 1.54132, 1.54571, 1.54575, 1.55504, 1.55586, 1.55415, 1.55497, 1.55198, 1.77703, 1.77169, 1.57588, 1.57441, 1.57914, 1.57738, 1.58031, 1.58388, 1.5821, 1.59377, 1.59474, 1.59857, 1.59655, 1.60415, 1.60242, 1.60104, 1.60651, 1.60708, 1.61013, 1.60931, 1.61319, 1.61332, 1.6162, 1.6177, 1.61733, 1.61727, 1.61662, 1.61726, 1.61373
1.17288, 1.17345, 1.17338, 1.17353, 1.17407, 1.17331, 1.30176, 1.17639, 1.17708, 1.18024, 1.17655, 1.1787, 1.1783, 1.18709, 1.25147, 1.17128, 1.17093, 1.17303, 1.1735, 1.17135, 1.16597, 1.16653, 1.16112, 1.16091, 1.15674, 1.15303, 1.15753, 1.15802, 1.16344, 1.18355, 1.18482, 1.33602, 1.15748, 1.14731, 1.14743, 1.14495, 1.14816, 0.00345505, 1.16762, 1.16758, 1.16761, 1.17092, 1.16807, 1.17037, 1.18095, 1.18228, 1.18263, 1.1843, 1.18195, 1.18127, 1.18102, 1.18099, 1.1824, 1.19065, 1.19313, 1.19535, 1.20072, 1.19921, 1.20123, 1.20254, 1.20265, 1.20169, 1.20346, 1.20142, 1.20353, 1.20402, 1.20525, 1.20866, 1.21193, 1.21097, 1.2121, 1.21056, 1.21173, 1.20293, 1.20325, 1.17827, 1.17966, 1.18265, 1.18429, 1.17857, 1.18157, 1.18111, 1.13222, 1.14656, 1.19159, 1.19166, 1.20842, 1.13999, 1.13327, 1.16218, 1.16413, 1.17649, 1.21393, 1.21439, 1.21696, 1.25612, 1.27134, 1.28531, 1.28505, 1.3361, 1.35027, 1.3674, 1.38872, 1.40134, 1.4662, 1.50513, 1.54167, 1.53986, 1.57103, 1.70234, 1.68951, 1.77343, 2.33656, 2.33837, 2.38598, 2.37125, 2.37099, 2.36982, 2.42706, 2.4261, 2.3558, 2.35694, 2.35164, 2.36444, 2.32297, 2.34962, 2.35169, 2.35001, 2.36551, 2.33519, 2.31765, 2.29605, 2.30423, 2.31096, 2.28785, 2.29669, 2.29116, 2.19345, 2.19396, 2.21928, 2.17371, 2.14644, 2.14519, 2.13997, 2.16268, 2.16161, 2.15533, 2.15259, 2.08955, 2.08407, 2.08088, 2.07322, 2.06907, 2.04856, 2.03784, 0.00341066, 0.00366928, 0.00357095, 0.00398542, 0.0036142, 2.05949, 2.04914, 2.04561, 2.01607, 2.00562, 2.04166, 2.00936, 1.97597, 1.98947, 2.00111, 1.98093, 1.94557, 1.94116, 1.94854, 1.93534, 0.00329041, 1.92075, 0.00367101, 1.81411, 0.00357447, 1.82058, 1.8175, 1.808, 1.80405, 1.80388, 1.92011, 1.9171, 1.91662, 1.78907, 1.78558, 1.66606, 1.78217, 1.78142, 1.61339, 1.60545, 1.60025, 1.57642, 1.57736, 1.5162, 1.52422, 1.52886, 1.58294, 1.57667, 1.50395, 1.50757, 1.45562, 1.44042, 1.43554, 1.43526, 1.43023, 1.50915, 1.51734, 1.42124, 1.42027, 1.41674, 1.41709, 1.41527, 1.7128, 1.74925, 1.74921, 1.75836, 1.75846, 1.71829, 1.7545, 1.75583, 1.81477, 1.47648, 1.47576, 1.73198, 1.74743, 1.75512, 1.79719, 1.80303, 1.79675, 1.50545, 1.50578, 1.50958, 1.51081, 1.51217, 1.50989, 1.62446, 1.50768, 1.50635, 1.50854, 1.50702, 1.51315, 1.51309, 1.51484, 1.51803, 1.51638, 1.52226, 1.52109, 1.52052, 1.52113, 1.52858, 1.52646, 1.52943, 1.53126, 1.53283, 1.53179, 1.53712, 1.53546, 1.53688, 1.5381, 1.54432, 1.54496, 1.54454, 1.54989, 1.5546, 1.55371, 1.55127, 1.55091, 1.75306, 1.75831, 1.97151, 1.58062, 1.57876, 1.58192, 1.5781, 1.57682, 1.5773, 1.58161, 1.58891, 1.59418, 1.59446, 1.592, 1.60042, 1.60692, 1.60364, 1.60435, 1.61077, 1.60778, 1.61487, 1.61677, 1.62267, 1.62352, 1.62099, 1.61975, 1.62563, 1.61686
1.17084, 1.17485, 1.17345, 1.17332, 1.17201, 1.16396, 1.16327, 1.16375, 1.16986, 1.17046, 1.1709, 1.17054, 1.17121, 1.17152, 1.17283, 1.17155, 1.17014, 1.17028, 1.16833, 1.1738, 1.1689, 1.17012, 1.16082, 1.15932, 1.15876, 1.15255, 1.1559, 1.16506, 1.28554, 1.17982, 1.18048, 1.3306, 1.14792, 1.1474, 1.14609, 1.14448, 1.14371, 1.14398, 1.15022, 1.16063, 1.16688, 1.1701, 1.16644, 1.16934, 0.00349232, 1.1824, 1.18449, 1.18387, 1.18161, 1.18054, 1.17817, 1.17986, 1.18211, 1.18686, 1.19495, 1.19938, 1.20214, 1.20429, 1.20453, 1.20676, 1.20963, 1.20981, 1.20893, 1.20666, 1.20793, 1.21017, 1.21064, 1.21476, 1.21286, 1.21178, 1.2116, 1.20741, 1.20703, 1.19528, 1.19626, 1.17735, 1.17695, 0.00342533, 1.27809, 1.17368, 1.13315, 1.13403, 1.11858, 1.11414, 1.11611, 1.11688, 1.12077, 1.11189, 1.18406, 1.14202, 1.14694, 1.16061, 1.17657, 1.17741, 1.18813, 1.20674, 1.22073, 1.23356, 1.32925, 1.31889, 1.34512, 1.34738, 1.39368, 1.39898, 1.40925, 1.43245, 1.56519, 1.52629, 1.54588, 1.60022, 1.64983, 1.68614, 2.35286, 2.30019, 2.38034, 2.38033, 2.34682, 2.34342, 2.35773, 2.36567, 2.33224, 2.33653, 2.32881, 2.33739, 2.33644, 2.3, 2.27372, 2.26967, 2.31239, 2.30882, 2.29014, 2.28228, 2.28051, 2.27738, 2.18934, 2.20092, 2.20009, 2.20033, 2.18151, 2.17789, 2.17475, 2.14066, 2.13795, 2.11381, 2.10952, 2.11262, 2.09071, 2.13943, 2.07638, 2.08276, 2.05251, 2.04103, 2.0389, 2.05097, 0.0035999, 0.00366916, 0.00341442, 0.00342431, 0.00359786, 0.00343497, 2.05181, 2.03108, 2.0312, 1.98344, 1.99331, 1.9929, 1.98423, 1.98697, 1.98983, 1.99014, 1.98727, 1.96652, 1.94417, 1.98717, 1.92042, 1.99357, 1.96747, 1.81255, 1.81148, 1.81305, 1.81018, 1.81117, 1.80825, 1.81298, 1.80118, 0.00388963, 1.79662, 1.79312, 1.79005, 1.87751, 1.78524, 1.7836, 1.77981, 1.61399, 1.61889, 1.61631, 1.56237, 1.53293, 1.50526, 1.59032, 1.51892, 1.57655, 1.54137, 1.47968, 1.46949, 1.47402, 1.47354, 1.43678, 1.43084, 1.43027, 1.49948, 1.49421, 1.49206, 1.41666, 1.41187, 1.41224, 1.41362, 1.41604, 1.73341, 1.75091, 1.43792, 1.46842, 1.44485, 1.44474, 1.74221, 1.74761, 1.74668, 1.7487, 1.75352, 1.7536, 1.75496, 1.49707, 1.50678, 1.77316, 1.50191, 1.50242, 1.50363, 1.50366, 1.50874, 1.50871, 1.50723, 1.50566, 1.50267, 1.50249, 1.70466, 1.51088, 1.51347, 1.51293, 1.79221, 1.51773, 1.517, 1.52385, 1.52406, 1.5252, 1.52247, 1.52631, 1.52908, 1.52799, 1.53201, 1.53156, 1.53716, 1.53646, 1.53814, 1.54132, 1.5418, 1.54408, 1.54489, 1.55059, 1.55199, 1.55439, 1.5574, 1.55611, 1.55819, 1.55641, 1.55801, 1.56423, 1.57561, 1.57324, 1.57697, 1.57758, 1.57842, 1.57436, 1.58657, 1.58639, 1.58991, 1.5922, 1.59132, 1.59505, 1.60201, 1.59857, 1.60384, 1.60204, 1.64696, 1.6118, 1.61945, 1.62406, 1.61878, 1.6176, 1.61828, 1.61843
1.17107, 1.17128, 1.17455, 1.17521, 1.17063, 1.1614, 1.16213, 1.16302, 1.16011, 1.16084, 1.16083, 1.17149, 1.17457, 1.17351, 1.16372, 1.16212, 1.16618, 1.167, 1.16789, 1.16732, 1.16888, 1.17013, 1.17043, 1.1727, 1.1554, 1.15581, 1.15627, 1.15831, 1.18511, 1.18638, 1.18784, 1.15666, 1.15571, 1.13744, 1.13748, 1.28912, 1.14367, 1.14424, 1.26517, 1.16621, 1.16636, 1.16641, 1.16388, 1.16473, 1.16727, 1.17212, 1.17247, 1.18136, 1.17245, 1.17897, 1.17598, 1.17628, 1.17805, 1.18322, 1.18437, 0.00320075, 1.26018, 1.20427, 1.2068, 1.20724, 1.20862, 1.20837, 1.21246, 1.21134, 1.2126, 1.21256, 1.21095, 1.21103, 1.21166, 1.20927, 1.20905, 0.00352362, 0.00337534, 0.00349372, 1.13188, 1.12122, 1.12192, 1.11401, 1.11684, 1.11914, 1.18975, 1.19195, 1.12342, 1.11831, 1.1186, 1.15745, 1.1135, 1.1123, 1.11041, 1.12578, 1.12691, 1.14761, 1.1403, 1.20676, 1.17356, 1.19092, 1.19027, 1.19552, 1.2338, 1.24651, 1.3056, 1.31243, 1.33855, 1.35175, 1.35097, 1.381, 1.38277, 1.38498, 1.53863, 1.55007, 1.556, 1.55606, 1.61735, 1.60553, 2.33806, 2.34214, 2.33484, 2.34301, 2.32191, 2.31916, 2.32732, 2.32439, 2.2835, 2.28223, 2.26978, 2.26944, 2.27718, 2.25509, 2.25269, 2.24159, 2.21238, 2.21681, 2.21046, 2.19486, 2.20825, 2.19143, 2.18436, 2.19368, 2.16879, 2.15859, 2.14605, 2.14448, 2.13843, 2.11879, 2.11979, 2.0964, 2.09687, 2.07319, 2.05695, 2.05324, 2.05181, 0.00325147, 0.00386661, 0.00341726, 2.07847, 0.00348498, 0.00353121, 0.00351468, 2.02606, 2.02739, 2.02582, 2.0215, 2.02176, 2.00091, 1.97956, 1.97721, 1.97055, 1.97644, 1.95674, 1.96592, 1.94918, 1.94147, 1.7969, 0.0033172, 0.00353318, 0.0033969, 1.89226, 1.81582, 1.8239, 1.82163, 1.68616, 1.68489, 1.71815, 1.81218, 1.81018, 0.00328079, 1.65385, 1.6459, 1.62876, 1.74429, 1.74477, 1.71939, 1.7409, 1.61352, 1.53996, 1.54063, 1.61263, 1.66429, 1.49133, 1.50905, 1.48172, 1.59239, 1.48933, 1.48, 1.66799, 1.51164, 1.50691, 1.67534, 1.48409, 1.49581, 1.46812, 1.44637, 1.43921, 1.48937, 1.41288, 1.41034, 1.40951, 1.4093, 1.41634, 1.41433, 1.73848, 1.73977, 1.74392, 1.74393, 1.74406, 1.74174, 1.66028, 1.74404, 1.75785, 1.4865, 1.48538, 1.48938, 1.4891, 1.53392, 1.49654, 1.50211, 1.49927, 1.49841, 1.4957, 1.50001, 1.50366, 1.50489, 1.51028, 1.51009, 1.5088, 1.50847, 1.50909, 1.51025, 1.69439, 1.51313, 1.51267, 1.51625, 1.51659, 1.52006, 1.51844, 1.52453, 1.53035, 1.52669, 1.52915, 1.53163, 1.53371, 1.53747, 1.53966, 1.542, 1.54025, 1.54356, 1.54914, 1.55076, 1.55279, 1.55328, 1.55578, 1.56028, 1.55892, 1.56041, 1.55985, 1.56859, 1.56931, 1.56827, 1.57138, 1.57457, 1.57046, 1.56864, 1.57857, 1.57758, 1.58611, 1.58599, 1.58521, 1.58511, 1.58457, 1.59251, 1.59125, 1.59363, 1.5976, 1.60334, 1.60593, 1.60906, 1.6126, 1.61152, 1.61666, 1.61553
1.16494, 1.16409, 1.16428, 1.16498, 1.1657, 1.1564, 1.15988, 1.15968, 1.16052, 1.1514, 1.15072, 1.14756, 1.16508, 1.16557, 1.16439, 1.16389, 1.16318, 1.16269, 1.16384, 1.1581, 1.15569, 1.15445, 1.16525, 1.16649, 1.16851, 1.14975, 1.15027, 1.15157, 0.00352411, 1.17727, 1.16688, 1.28079, 1.15807, 1.27723, 1.12982, 1.13185, 1.12984, 1.13414, 1.13462, 1.136, 1.24764, 1.16685, 1.16747, 1.16962, 1.17192, 1.34762, 1.17806, 1.17821, 1.18484, 1.18539, 1.18536, 1.18179, 1.18177, 1.18521, 1.18772, 1.19149, 1.19451, 1.20229, 1.20261, 1.2046, 1.20519, 1.20818, 1.20865, 1.20841, 1.20791, 1.20777, 1.20682, 1.20775, 1.20969, 1.21005, 1.20928, 0.00356477, 0.00344399, 0.00403586, 0.00334892, 1.26165, 1.27386, 1.27422, 1.27351, 1.11528, 1.11775, 1.11811, 1.11777, 1.11755, 1.12616, 1.14028, 1.11581, 1.1219, 1.12515, 1.11989, 1.12677, 1.18432, 1.14062, 1.1647, 1.1705, 1.15676, 1.19596, 1.1949, 1.2024, 1.21779, 1.24751, 1.26346, 1.31187, 1.3465, 1.34757, 1.35675, 1.35265, 1.36151, 1.36197, 1.36899, 1.48982, 1.5767, 1.57649, 1.57551, 1.57466, 1.74056, 1.73635, 2.29667, 2.31898, 2.25617, 2.25622, 2.2494, 2.31235, 2.26915, 2.218, 2.22564, 2.20383, 2.22445, 2.22327, 2.22148, 2.19361, 2.20687, 2.16265, 2.16256, 2.15797, 2.15056, 2.15116, 2.14953, 2.10484, 2.12842, 2.13108, 2.10288, 2.10595, 2.10242, 2.09679, 2.08346, 2.04306, 2.0449, 2.04515, 0.00354694, 0.00359009, 2.00043, 0.00342444, 0.00325683, 0.00365574, 0.00375953, 0.0036682, 2.02103, 1.97571, 1.99794, 1.98297, 2.01061, 1.98358, 1.97291, 0.00391268, 1.97525, 1.9655, 0.00362795, 1.97273, 1.96092, 0.00359476, 0.00382229, 0.00326475, 1.75195, 1.74192, 1.95498, 1.72718, 1.84141, 0.00372774, 1.68309, 1.68033, 1.68041, 1.64888, 1.67015, 1.65943, 1.74271, 1.65451, 1.62069, 1.73505, 1.59957, 1.56518, 1.57167, 1.56824, 1.51801, 1.51089, 1.54361, 1.49381, 1.50539, 1.64313, 1.63896, 1.67232, 1.67332, 1.48188, 1.48553, 1.66112, 1.6891, 1.49603, 1.67087, 1.46749, 1.4721, 1.46742, 1.46509, 1.42403, 1.42443, 1.40396, 1.40666, 1.40621, 1.40695, 1.40547, 1.43021, 1.41805, 1.73053, 1.72981, 1.72951, 1.7955, 1.79321, 1.7278, 1.76185, 1.47901, 1.48209, 1.74148, 1.74094, 1.77426, 1.49212, 1.49292, 1.49723, 1.49814, 1.4951, 1.68832, 1.50011, 1.50074, 1.50235, 1.68887, 1.68985, 1.50725, 1.50494, 1.50653, 1.50983, 1.50758, 1.51141, 1.51257, 1.52501, 0.00339605, 1.51808, 1.51976, 1.52594, 1.52472, 1.52682, 1.5305, 1.53015, 1.53392, 1.53622, 1.53424, 1.53316, 1.53318, 1.54377, 1.54259, 1.54565, 1.54478, 1.54799, 1.55089, 1.55898, 1.56004, 1.5599, 1.55873, 1.55936, 1.56553, 1.56491, 1.57279, 1.57166, 1.56235, 1.56009, 1.5717, 1.57656, 1.5753, 1.58144, 1.57788, 1.57705, 1.58164, 1.57826, 1.58513, 1.58882, 1.58388, 1.6346, 1.60009, 1.60034, 1.60166, 1.60382, 1.6025, 1.59973
1.14749, 1.14808, 1.15003, 1.15293, 1.1538, 1.15438, 1.15553, 1.15568, 1.15643, 1.1439, 1.13801, 1.13915, 1.14764, 1.14965, 1.16273, 1.16147, 1.16051, 1.15625, 1.15289, 1.15294, 1.15402, 1.15093, 1.14994, 1.14997, 1.15159, 1.14286, 1.14268, 1.14066, 1.14453, 1.15293, 1.15159, 1.15372, 1.15469, 1.13602, 1.13607, 1.13758, 1.138, 1.13581, 1.13547, 1.13866, 1.14843, 1.15249, 1.15679, 1.15765, 1.15894, 1.16371, 1.16428, 1.16826, 1.17237, 1.1817, 1.18259, 1.17137, 1.17201, 1.17464, 1.18261, 1.18495, 1.29947, 1.191, 1.19338, 1.19285, 1.19578, 1.1999, 1.20196, 1.20281, 1.20277, 1.20229, 1.20203, 1.20172, 1.20179, 1.20406, 1.20469, 0.00308364, 1.14338, 1.14198, 1.27656, 1.09417, 0.00321146, 1.26594, 1.26426, 1.12425, 1.26011, 1.25867, 1.1203, 1.14535, 1.14613, 1.1304, 1.13409, 1.13533, 1.1101, 1.10995, 1.14283, 1.16324, 1.1645, 1.1646, 1.18856, 1.24352, 1.14689, 1.14821, 1.16856, 1.20517, 1.21867, 1.24165, 1.25175, 1.30436, 1.31293, 1.32484, 1.33312, 1.35758, 1.35705, 1.35559, 1.35758, 1.38922, 1.48263, 1.48179, 1.60262, 1.5586, 1.62895, 1.70939, 1.7081, 2.23956, 2.23764, 2.2256, 2.22382, 2.22679, 2.22499, 2.17988, 2.1776, 2.21089, 2.20152, 2.18352, 2.16981, 2.13566, 2.14292, 2.14192, 2.12037, 2.10051, 2.09656, 2.10793, 2.13247, 2.10231, 2.06348, 2.07617, 2.08732, 2.08487, 2.04493, 2.04189, 2.01654, 2.06933, 2.06176, 1.9573, 0.00325106, 0.00387194, 0.00341644, 0.00344467, 0.00367274, 0.00351485, 1.98026, 1.9829, 1.96814, 1.95808, 1.99973, 1.96122, 1.97974, 0.00336155, 1.90118, 0.00357965, 0.00361697, 0.0035459, 1.70602, 1.7036, 1.70127, 1.69898, 0.00381322, 0.00368434, 0.00335263, 0.00334549, 0.00365084, 1.64568, 1.64172, 1.95532, 1.62474, 1.61057, 1.6105, 0.0035335, 1.58132, 1.59177, 1.58309, 1.57392, 1.57796, 1.59174, 1.50647, 1.5486, 1.46792, 1.46162, 1.48117, 1.50987, 1.50928, 1.47033, 1.47179, 1.6957, 1.52245, 1.54018, 1.54475, 0.00355519, 1.71098, 1.52422, 1.51663, 1.50894, 1.49926, 1.51048, 1.49548, 1.46059, 1.42719, 1.43683, 1.39774, 1.39877, 1.39653, 1.40168, 1.71801, 1.72164, 1.72156, 1.76115, 1.72376, 0.00361581, 1.7367, 1.69706, 1.64349, 1.47194, 1.47153, 1.73879, 1.67092, 1.48599, 1.48534, 1.70034, 1.60352, 1.49278, 1.49339, 1.4938, 1.69646, 1.66238, 1.50347, 0.00356382, 1.49807, 1.49982, 1.49881, 1.49873, 1.50267, 1.50114, 1.50147, 1.65574, 1.50907, 1.50542, 1.51155, 1.51069, 1.50989, 1.51261, 1.51897, 1.52391, 1.52768, 1.5272, 1.5305, 1.53579, 1.53634, 1.53691, 1.53874, 1.54121, 1.54172, 1.53885, 1.53616, 1.54342, 1.552, 1.5554, 1.55654, 1.55113, 1.55589, 1.55593, 1.56364, 1.56116, 1.56117, 1.55913, 1.55926, 1.5588, 1.55778, 1.56459, 1.56308, 1.56286, 1.56713, 1.57313, 1.5761, 1.56296, 1.56241, 1.63486, 1.57913, 1.57841, 1.59194, 1.60216, 1.60326, 1.59235, 1.59041, 1.58967
1.14655, 1.1469, 1.14866, 1.14781, 1.14643, 1.15038, 1.15063, 1.29475, 1.13533, 1.13147, 1.13216, 1.1314, 1.13561, 1.14149, 1.14755, 1.14938, 1.14509, 1.14546, 1.14627, 1.14663, 1.14857, 1.1467, 1.14623, 1.13907, 1.13751, 1.14033, 1.1397, 1.13922, 1.14067, 1.14104, 1.14107, 1.15202, 1.15339, 1.14491, 1.13904, 1.13922, 1.14542, 1.13992, 1.1396, 1.13516, 1.13835, 1.15265, 1.15502, 1.15625, 1.15717, 1.15914, 1.16186, 1.164, 1.16766, 1.16894, 1.17628, 1.17847, 1.1774, 1.17218, 1.17092, 1.17092, 1.17622, 1.31647, 1.18418, 1.18332, 1.18702, 1.1913, 1.19293, 1.1931, 1.19783, 1.19765, 1.19972, 1.19808, 1.19799, 1.19885, 1.19979, 0.0038071, 0.00345562, 0.00353154, 0.0036267, 1.08099, 0.003528, 1.1125, 1.13632, 1.13443, 1.33375, 1.11747, 1.11946, 1.12783, 1.12065, 1.12832, 1.21297, 1.21451, 1.12145, 1.11124, 1.10995, 1.11499, 1.11669, 1.14339, 1.14421, 1.19291, 1.15222, 1.16404, 1.14042, 1.15557, 1.17093, 1.20636, 1.20916, 1.21605, 1.23237, 1.24989, 1.25432, 1.26641, 1.26536, 1.34721, 1.34608, 1.34468, 1.37783, 1.41823, 1.47872, 1.51177, 1.5205, 1.55297, 1.64156, 1.63145, 1.71116, 1.74941, 2.14149, 2.17675, 2.12693, 2.12459, 2.16237, 2.12619, 2.13802, 2.12515, 2.09806, 2.10455, 2.10355, 2.1412, 2.12855, 2.03997, 2.0331, 2.04773, 2.05214, 2.04152, 2.05446, 2.02563, 2.02661, 2.02429, 2.00382, 1.99247, 1.96544, 1.96543, 0.0032934, 1.95828, 0.00356107, 0.00397901, 0.00355408, 0.00382004, 0.0033977, 1.96187, 0.00347057, 1.98252, 0.00342713, 0.00358842, 0.00348848, 0.0038102, 0.00338221, 0.00382268, 0.00358557, 1.64171, 1.64084, 1.65348, 0.00357038, 1.66818, 1.63683, 1.62402, 1.56037, 1.56048, 1.60935, 1.58919, 1.5789, 1.62628, 1.6269, 1.56078, 0.00351245, 1.53092, 1.39253, 1.38872, 1.48551, 1.48833, 0.00360473, 1.52102, 1.40575, 1.47497, 1.45733, 1.44743, 1.39616, 1.44308, 0.00318877, 1.42379, 1.53892, 1.53839, 1.50081, 1.42076, 1.42006, 1.33859, 1.33599, 1.35809, 1.37725, 0.00363486, 1.48925, 1.48803, 1.47795, 1.45481, 1.47963, 1.46377, 1.45584, 1.45488, 1.39754, 1.406, 0.0035799, 1.7599, 1.75787, 1.45529, 0.00372358, 1.43432, 1.45437, 1.6873, 1.68721, 1.68709, 1.74237, 1.74259, 1.75255, 1.59785, 0.00384428, 1.48138, 1.75745, 0.00342161, 0.00361612, 1.49028, 1.49013, 1.50103, 1.68708, 1.49145, 1.49118, 1.49104, 1.49552, 1.49072, 1.49134, 1.4949, 1.496, 1.49456, 1.49388, 1.49863, 1.49796, 1.69286, 1.50454, 1.50338, 1.50618, 1.51006, 0.00303534, 0.00351645, 0.00352017, 1.52455, 1.52447, 1.52942, 1.52832, 1.53818, 1.53079, 1.53554, 1.5443, 1.53469, 1.53222, 1.5336, 1.54625, 1.54922, 1.55093, 1.55001, 1.54995, 1.55044, 1.54583, 1.55824, 1.55859, 1.55615, 1.55671, 1.55644, 1.55647, 1.55895, 1.55958, 1.56354, 1.5642, 1.56786, 1.56763, 1.56284, 1.54904, 1.63981, 1.63355, 1.63454, 0.00351533, 0.00397325, 0.00371657, 1.6014, 1.5882, 1.58281
1.15027, 1.15125, 1.15054, 1.14815, 1.14801, 1.14387, 1.14435, 1.14046, 1.13114, 1.12849, 1.12962, 1.13151, 1.13331, 1.14306, 1.14592, 1.14119, 1.13875, 1.13559, 1.13636, 1.15269, 1.14477, 1.14261, 1.14309, 1.13531, 1.13763, 1.1381, 1.13775, 1.13356, 1.13353, 1.14199, 1.14708, 1.1472, 1.14948, 1.14706, 1.14063, 1.13665, 1.13778, 1.1393, 1.13907, 1.14028, 1.13897, 1.13998, 1.153, 1.15327, 1.1546, 1.15545, 1.16057, 1.1617, 1.16012, 1.16065, 1.16506, 1.16665, 1.16819, 1.16891, 1.17408, 1.1744, 1.17469, 1.17692, 1.17741, 1.17953, 1.18038, 1.18418, 1.18779, 1.18898, 1.19064, 1.1919, 1.19437, 1.19529, 1.1969, 1.1954, 1.19661, 0.00328465, 0.0103271, 0.00361966, 0.00321891, 1.10805, 1.11127, 1.07777, 1.0783, 1.13991, 1.14165, 1.11058, 1.11132, 1.11918, 1.12583, 1.12611, 1.11494, 1.11533, 1.11911, 1.12056, 0.00383333, 1.14795, 1.11265, 1.11835, 1.11597, 1.114, 1.11415, 1.11145, 1.11323, 1.14328, 1.13953, 1.16638, 1.1863, 1.20366, 1.18756, 1.21639, 1.22911, 1.2465, 1.25184, 1.26383, 1.33457, 1.35367, 1.35078, 1.34096, 1.34992, 1.34091, 1.37159, 1.4222, 1.42228, 1.49515, 1.69993, 1.74154, 2.13052, 2.13043, 2.12638, 2.12209, 2.12257, 2.10854, 2.09634, 2.09513, 2.10153, 0.00325191, 2.04866, 1.9911, 2.02372, 2.01161, 2.04548, 2.04828, 2.03086, 2.00283, 1.95993, 1.93576, 1.93859, 1.93917, 1.93408, 1.90367, 1.96855, 1.98231, 1.98101, 0.00326254, 0.00379511, 0.00324, 0.00324403, 0.00346626, 0.00360548, 0.00382647, 0.00366845, 0.00367342, 0.00359243, 0.00403104, 0.00353765, 1.63612, 1.6319, 1.70593, 1.67033, 1.63568, 1.60079, 1.60089, 1.57834, 1.58297, 1.56974, 1.55593, 1.59352, 1.56433, 1.54353, 1.53359, 1.53274, 0.00318126, 1.44436, 1.39223, 1.38944, 0.00317304, 1.42422, 1.39175, 1.47054, 1.63111, 1.65438, 1.65586, 1.37084, 1.35348, 1.42147, 1.42062, 1.32977, 1.31828, 1.31961, 1.2933, 1.29476, 1.27475, 1.28125, 1.29755, 1.29907, 1.31018, 1.31175, 1.3224, 1.40568, 1.35006, 1.41394, 1.41613, 1.36801, 1.4393, 1.44042, 1.49668, 1.4318, 1.43521, 1.44511, 1.69398, 1.69767, 1.7009, 1.77837, 1.70277, 1.75988, 1.75829, 1.45037, 1.434, 1.76799, 0.00326984, 0.00329949, 1.75549, 1.75174, 1.49783, 1.7474, 1.74613, 1.74553, 1.73774, 0.00332715, 1.48159, 1.48246, 1.71662, 1.65162, 1.65237, 1.65226, 1.48609, 1.48643, 1.49181, 1.70218, 1.6585, 1.6555, 0.00341089, 1.69283, 1.68639, 1.69391, 0.0038225, 0.00355601, 1.50208, 1.50181, 1.50411, 1.50543, 1.50879, 1.51478, 1.51526, 1.51425, 1.5176, 1.51484, 1.51943, 1.51933, 1.51829, 1.5258, 1.52535, 1.62999, 1.53776, 1.5382, 1.54059, 1.5393, 1.54995, 1.54696, 1.54394, 1.54759, 1.5473, 1.54916, 1.54799, 1.54462, 1.54809, 1.55058, 1.54851, 1.55965, 1.56096, 1.54412, 1.54312, 1.53738, 1.55343, 1.55043, 1.5326, 1.53639, 1.52805, 1.53477, 1.53953, 1.56124, 1.56276, 1.55613, 1.56778
1.14207, 1.14793, 1.14415, 1.14524, 1.14513, 1.14272, 1.14303, 1.14045, 1.13968, 1.13551, 1.13258, 1.13126, 1.13097, 1.13394, 1.14118, 1.14125, 1.13037, 1.12999, 1.12752, 1.1265, 1.26598, 1.13276, 1.13267, 1.13079, 1.12959, 1.12353, 1.12196, 1.12221, 1.14377, 1.14526, 1.14446, 1.14561, 1.14625, 1.14581, 1.13653, 1.13546, 1.13652, 1.1416, 1.14036, 1.14094, 1.14014, 1.14522, 1.14741, 1.1451, 1.14716, 1.15272, 1.15619, 1.15877, 1.16155, 1.16407, 1.16636, 1.1676, 1.16774, 1.16949, 1.16989, 1.16825, 1.17351, 1.17345, 1.17185, 1.17312, 1.17496, 1.1788, 1.18382, 1.1831, 1.18619, 1.18647, 1.18761, 1.19024, 1.19397, 1.19394, 1.19385, 1.19813, 0.00363851, 0.00353212, 1.16109, 1.15548, 1.15603, 1.15805, 1.21148, 1.09487, 1.20307, 1.14119, 1.14289, 1.11062, 1.12228, 1.12284, 1.31642, 1.10561, 1.10563, 1.18843, 1.1901, 1.17696, 1.12658, 1.20168, 1.12437, 1.11262, 1.11025, 1.10802, 1.10829, 1.10906, 1.17622, 1.13056, 1.17229, 1.15022, 1.15381, 1.15429, 1.16279, 1.22318, 1.24061, 1.26733, 1.25726, 1.32621, 1.33424, 1.34903, 1.31655, 1.3136, 1.32915, 1.385, 1.38261, 1.39915, 1.40597, 1.48632, 1.48672, 1.67564, 1.70274, 1.69331, 0.00351433, 1.67481, 1.71678, 1.71424, 0.00353011, 1.96891, 1.89102, 1.88946, 1.8471, 1.84329, 1.94486, 1.89703, 1.92198, 1.92059, 1.92931, 1.92562, 0.0035681, 1.92382, 0.0037483, 1.97834, 1.96738, 1.96479, 1.96637, 0.00343783, 0.00363258, 0.00339006, 0.00332517, 0.00401664, 0.00349776, 1.73454, 0.00342027, 1.65765, 1.66735, 1.59769, 1.62328, 1.65132, 1.64392, 1.63018, 1.6426, 1.61984, 1.57511, 1.5692, 1.56902, 1.57053, 1.55792, 1.56569, 1.53741, 1.48518, 1.50523, 0.00370382, 1.50187, 1.48713, 1.49276, 1.36118, 1.34479, 1.50406, 1.37976, 1.41288, 0.00337888, 1.34963, 1.65375, 1.38053, 1.37757, 1.33833, 1.38797, 1.29777, 1.29847, 1.37466, 1.26689, 1.26647, 1.31488, 1.31353, 1.28605, 1.28561, 1.25139, 1.31568, 1.31941, 1.28809, 1.3004, 1.30152, 1.31183, 1.34816, 1.41762, 1.34931, 1.33711, 1.38233, 1.38378, 0.00345299, 1.6719, 0.00362921, 1.79384, 1.73225, 0.00348148, 1.47905, 1.41731, 1.46811, 1.45401, 1.45094, 1.71308, 0.00372011, 0.00386397, 0.00335396, 1.56688, 1.49885, 1.49947, 1.66218, 0.00346563, 1.47394, 1.472, 1.47156, 1.6903, 1.6871, 1.47455, 1.47409, 1.47522, 1.6854, 1.67976, 1.60508, 1.6052, 0.0034544, 1.67472, 0.00356097, 1.47665, 0.00360034, 0.00372827, 0.00316783, 0.00361743, 1.49841, 1.49678, 1.49797, 1.50023, 1.50633, 1.50575, 1.50571, 1.50804, 1.71697, 1.51674, 1.51829, 1.51794, 1.51251, 1.51814, 1.61748, 1.53052, 1.53328, 1.53534, 1.54355, 1.54215, 1.54683, 1.54162, 1.5412, 1.53772, 1.5345, 1.54376, 1.5436, 1.54312, 1.5406, 1.53948, 1.54627, 1.54568, 1.54681, 1.5397, 1.53889, 1.53342, 1.53299, 1.52708, 1.5296, 1.52204, 1.52273, 1.53583, 1.53421, 1.54418, 1.55122, 1.54995, 1.54841
1.23885, 1.14185, 1.14248, 1.14103, 1.14243, 1.14188, 1.13821, 1.138, 1.13841, 1.13809, 1.13548, 1.12565, 1.12572, 1.12556, 1.1298, 1.13779, 1.1332, 1.12231, 1.12456, 1.12122, 1.12193, 1.12179, 1.12977, 1.12897, 1.12872, 1.12103, 1.11896, 1.12006, 1.14821, 1.14724, 1.14869, 1.14867, 1.14843, 1.14576, 1.14619, 1.14381, 1.14309, 1.14457, 1.14439, 1.14436, 1.14609, 1.14593, 1.1456, 1.14317, 1.1463, 1.15456, 1.1577, 1.16402, 1.16986, 1.16911, 1.16697, 1.16331, 1.16574, 1.16945, 1.16445, 1.16517, 1.16631, 1.16949, 1.1702, 1.17079, 1.17106, 1.17416, 1.17774, 1.1778, 1.18445, 1.18619, 1.18747, 1.18662, 1.18903, 1.19246, 1.1948, 1.19413, 1.18936, 1.18485, 0.00330938, 0.00365198, 1.19828, 1.1996, 1.20274, 1.19973, 1.11426, 1.11503, 1.10338, 1.12971, 1.13197, 1.13204, 1.12698, 1.16595, 1.16751, 1.11591, 1.10998, 1.16032, 1.15802, 1.26208, 1.08369, 1.08492, 1.11592, 1.11268, 1.32007, 1.21075, 1.11268, 1.1127, 1.12326, 1.16953, 1.15449, 1.15701, 1.17226, 1.15634, 1.1564, 1.1896, 1.18888, 1.2631, 1.2912, 1.31245, 1.32423, 1.30501, 1.32102, 1.31876, 1.33007, 1.42257, 1.41736, 1.42032, 1.45088, 1.45135, 1.44784, 1.67558, 1.62471, 1.644, 1.6439, 1.63983, 1.64937, 1.64634, 1.67175, 1.67126, 1.99379, 0.00325293, 1.94488, 0.00339775, 1.91986, 1.91714, 1.93985, 0.0035636, 0.00399788, 0.0034774, 0.00345572, 0.00361067, 0.00403808, 0.00324309, 0.00342956, 0.00327304, 0.00372804, 0.00357328, 1.65864, 0.00349049, 0.00363275, 0.00326244, 1.62156, 1.62001, 1.60732, 1.603, 0.00340987, 0.00291892, 1.58352, 0.00342763, 1.58584, 1.50658, 1.58916, 1.58264, 1.52717, 1.509, 1.51079, 1.63755, 1.4374, 0.00372851, 1.37229, 1.36692, 1.35353, 1.36198, 1.3622, 1.35205, 1.31276, 1.31154, 1.30063, 1.31519, 1.85858, 1.34097, 1.33117, 1.30372, 1.38244, 1.26829, 1.26905, 0.0033057, 1.26803, 1.25137, 1.34075, 1.36517, 1.36914, 1.37045, 1.26124, 1.28235, 1.26876, 1.29888, 1.29559, 1.25502, 1.25842, 1.32039, 1.33307, 1.32339, 1.33091, 0.00330008, 1.33928, 1.33926, 1.54773, 1.5416, 1.54291, 0.00335363, 1.41266, 1.40956, 1.40444, 1.4028, 0.00342701, 0.00337855, 0.00367289, 0.00359364, 0.00331402, 0.00361542, 0.00337044, 0.00340764, 1.52516, 1.5241, 1.70687, 1.45694, 1.45584, 1.46358, 1.46396, 1.64506, 1.46438, 1.46253, 1.6437, 1.46882, 1.66533, 1.66408, 1.64771, 1.64741, 1.64845, 1.47087, 0.00331658, 1.46906, 1.46838, 1.64977, 1.64726, 0.0032633, 1.60715, 0.00337299, 1.62879, 0.00354255, 1.61892, 0.0033402, 1.6793, 0.00322691, 1.6748, 1.50182, 1.50099, 0.00347068, 1.49961, 1.61259, 1.6048, 1.60189, 1.6003, 1.51963, 1.52418, 1.5219, 1.52574, 1.52334, 1.53077, 1.53167, 1.53349, 1.52567, 1.52661, 1.52863, 1.53542, 1.53477, 1.54351, 1.55275, 1.55003, 1.5486, 1.54044, 1.52816, 1.53221, 1.53118, 1.53315, 1.53042, 1.53092, 1.51931, 1.6071, 0.00329864, 1.60285, 0.00369837, 1.5403, 1.64504
1.13862, 1.13613, 1.13655, 1.13602, 1.13888, 1.13883, 1.13655, 1.13635, 1.13151, 1.12937, 1.12877, 1.1259, 1.12283, 1.12332, 1.1243, 1.12341, 1.12158, 1.12551, 1.12592, 1.12617, 1.11946, 1.12101, 1.12995, 1.13022, 1.12867, 1.12638, 1.12715, 1.12579, 1.131, 1.30593, 1.15419, 1.15509, 1.14901, 1.14497, 1.14509, 1.14672, 1.15008, 1.1533, 1.15087, 1.15594, 1.15474, 1.15356, 1.15717, 1.15646, 1.15974, 1.15932, 1.1625, 1.16324, 1.15889, 1.16096, 1.16478, 1.16662, 1.16527, 1.16522, 1.16299, 1.16406, 1.16957, 1.17141, 1.17471, 1.17411, 1.17372, 1.17409, 1.17462, 1.17539, 1.17578, 1.53772, 1.17883, 1.18101, 1.18317, 1.18628, 1.18742, 1.18839, 1.18813, 1.1891, 1.19087, 1.18952, 1.18926, 1.18491, 1.19073, 1.19175, 1.19433, 1.19443, 1.19451, 1.18503, 1.21109, 0.00348043, 0.00327719, 0.00365901, 0.0034052, 1.11936, 1.0978, 1.11896, 1.11868, 1.10599, 1.09653, 1.13395, 1.13603, 1.13128, 1.14434, 1.14567, 1.09239, 1.09454, 1.11192, 1.15867, 1.15643, 1.19819, 1.16008, 1.15196, 1.15329, 1.1968, 1.19995, 1.21851, 1.27171, 1.29322, 1.30001, 1.31859, 1.36871, 1.29176, 1.3087, 1.41838, 1.36761, 1.37758, 1.3641, 1.36171, 1.38678, 1.35732, 1.36183, 1.36905, 1.38161, 1.51735, 1.5362, 1.53549, 1.517, 1.53006, 1.62077, 1.64189, 1.65692, 1.61085, 1.64332, 1.62098, 0.00334671, 0.00371321, 0.00347716, 0.00351503, 0.0033282, 1.63408, 0.00346212, 0.00369476, 0.00343874, 1.59702, 1.61991, 0.00341336, 1.74289, 1.63088, 0.00368647, 1.61396, 0.00348261, 1.64345, 0.0035245, 1.5908, 1.56843, 0.00351617, 1.53783, 1.53714, 1.60941, 1.52639, 1.51255, 1.52029, 0.00331317, 1.50133, 1.48302, 1.45811, 1.41079, 1.35116, 1.32381, 1.34431, 1.34327, 1.54314, 1.41015, 1.41124, 1.30351, 1.30433, 1.30542, 1.93945, 1.28825, 1.27341, 1.34464, 1.25983, 1.25734, 1.30104, 1.28097, 1.29109, 1.29211, 1.22448, 1.22393, 1.37489, 1.3768, 1.2299, 1.19736, 1.19925, 1.23213, 1.25448, 1.2658, 1.24702, 1.24195, 1.24256, 1.33892, 1.28435, 1.28531, 1.29896, 1.36896, 1.37091, 1.51853, 1.52823, 1.48251, 1.48441, 1.47072, 0.00338024, 0.00349017, 1.48917, 0.00342859, 1.67494, 0.00334653, 1.47348, 1.46891, 1.48479, 1.57379, 0.00387203, 0.00327696, 0.00370066, 0.00337691, 1.52972, 1.66743, 1.45221, 1.68463, 1.64812, 1.64896, 1.45559, 1.45539, 1.66115, 1.64876, 1.64559, 1.65065, 1.65395, 1.46106, 1.65103, 1.4709, 1.47037, 1.47217, 1.60997, 1.60766, 1.63666, 1.60336, 1.60179, 1.49058, 1.48665, 1.49251, 1.4928, 1.49334, 1.49596, 1.49571, 1.49678, 1.49917, 1.49995, 1.5011, 1.50081, 1.50519, 1.50894, 1.52072, 1.51932, 1.51998, 1.52968, 1.52397, 1.52322, 1.52429, 1.5285, 1.53486, 1.52541, 1.52451, 1.53054, 1.53444, 1.53778, 1.5747, 1.57377, 1.60291, 1.52962, 1.52058, 1.52066, 1.52172, 1.56887, 0.00332651, 1.65646, 1.50261, 1.50585, 1.51205, 1.51588, 1.51609, 1.52659, 1.52786, 1.53298
1.13543, 1.13563, 1.13723, 1.13686, 1.13645, 1.13604, 1.13324, 1.13198, 1.13129, 1.13168, 1.12681, 1.12308, 1.11758, 1.1207, 1.12302, 1.12232, 1.12394, 1.12383, 1.12429, 1.12054, 1.12013, 1.1227, 1.21981, 1.21137, 1.12273, 1.11592, 1.1155, 1.11854, 1.11924, 1.12842, 1.14472, 1.14647, 1.1476, 1.14707, 1.14733, 1.1475, 1.1497, 1.14923, 1.14892, 1.14832, 1.15084, 1.15568, 1.15627, 1.15711, 1.15678, 1.15709, 1.15999, 1.15991, 1.1603, 1.16031, 1.15927, 1.15866, 1.16356, 1.16714, 1.16741, 1.16554, 1.16677, 1.16829, 1.1679, 1.16955, 1.16948, 1.17143, 1.169, 1.17054, 1.17098, 1.17223, 1.174, 1.18064, 1.18019, 1.17916, 1.18366, 1.18523, 1.18586, 1.18895, 1.18959, 1.19086, 1.18937, 1.19079, 1.19103, 1.19087, 1.19023, 1.19011, 1.18883, 1.18874, 1.17594, 1.17359, 1.16635, 1.1595, 1.14035, 1.14284, 0.00368024, 1.09789, 1.12235, 1.08789, 1.08999, 1.09197, 1.18409, 1.10544, 1.1979, 1.28313, 1.1211, 1.10749, 1.10812, 1.11376, 1.1773, 1.17754, 1.16167, 1.18885, 1.16687, 1.19645, 1.21882, 1.20165, 1.1982, 1.22567, 1.22572, 1.22571, 1.26946, 1.26844, 1.29665, 1.29675, 1.33242, 1.33229, 1.32214, 1.37452, 1.38078, 1.38831, 1.34886, 1.36226, 1.35294, 1.35003, 1.37486, 1.37848, 1.46424, 1.47434, 1.47593, 1.50373, 1.48023, 1.50798, 1.51026, 1.50922, 1.50629, 1.50856, 1.53604, 1.54423, 1.51703, 1.52, 1.52334, 1.50767, 1.50754, 0.00342796, 1.62092, 0.00347641, 1.63004, 0.00367818, 0.00347444, 0.00348792, 1.55084, 0.00315534, 1.55922, 1.53407, 1.60358, 0.00351375, 1.51385, 1.51917, 1.51101, 1.53154, 1.51399, 0.0034737, 1.42526, 1.38934, 1.39599, 1.34402, 1.34308, 1.34136, 1.334, 1.32285, 1.3345, 1.30712, 1.32649, 1.29103, 1.27695, 1.29455, 1.2948, 1.27496, 1.27413, 1.27857, 1.26128, 1.33914, 1.33884, 1.33628, 0.00352147, 1.25889, 1.25167, 1.25296, 1.20335, 1.24181, 1.22948, 1.18969, 1.19237, 1.19647, 1.19696, 1.19856, 1.21306, 1.43084, 1.33847, 1.3275, 0.00335546, 1.24242, 1.24224, 1.24142, 0.00367346, 0.00362539, 0.00335059, 1.322, 1.32572, 1.33354, 1.33387, 1.34016, 1.34005, 1.55912, 0.00335166, 0.00354036, 1.65496, 0.00350835, 1.65986, 0.00366653, 0.00343187, 1.71813, 1.53658, 0.00340545, 1.53667, 0.00358143, 0.00360469, 1.68396, 1.44846, 1.44828, 1.61486, 0.00370752, 1.65455, 1.4518, 1.45009, 1.46039, 1.63899, 1.45691, 1.46053, 1.46482, 1.46722, 1.46712, 1.4725, 1.63265, 1.47535, 1.47536, 1.6198, 0.00347907, 1.47926, 1.47948, 1.48812, 1.49212, 1.49292, 1.49225, 1.49611, 1.49891, 1.50029, 1.50134, 1.50175, 1.50921, 1.50951, 1.5106, 1.514, 1.51338, 1.51246, 1.51802, 1.51896, 1.51898, 1.52369, 1.52438, 1.53435, 1.53304, 1.52989, 1.52768, 1.52509, 1.52357, 1.51799, 1.51748, 1.51723, 1.5785, 1.52192, 1.51781, 1.5182, 1.51152, 1.5123, 1.50872, 1.50509, 1.50603, 1.50928, 1.51236, 1.51366, 1.51597, 1.52171, 1.53619
1.13877, 1.13943, 1.14128, 1.14056, 1.13772, 1.1373, 1.13298, 1.13405, 1.13215, 1.13295, 1.13294, 1.12547, 1.12318, 1.12426, 1.12717, 1.12797, 1.12833, 1.12705, 1.11864, 1.11509, 1.11267, 1.11019, 1.10921, 1.10642, 1.10977, 1.11984, 1.12197, 1.12779, 1.13563, 1.1372, 1.15317, 1.15363, 1.15498, 1.14905, 1.14751, 1.14833, 1.14937, 1.15141, 1.15099, 1.15219, 1.14806, 1.14873, 1.15314, 1.15877, 1.15935, 1.16072, 1.16074, 1.15815, 1.15939, 1.15967, 1.16073, 1.16118, 1.16678, 1.16742, 1.17265, 1.1704, 1.16882, 1.16784, 1.16811, 1.16805, 1.16847, 1.16956, 1.17147, 1.17039, 1.1686, 1.17046, 1.1733, 1.17295, 1.17568, 1.17988, 1.18321, 1.18507, 1.18763, 1.18863, 1.19024, 1.18801, 1.18576, 1.18799, 1.18834, 1.19102, 1.19402, 1.19393, 1.19103, 1.19046, 1.19082, 1.17567, 1.16907, 1.25147, 1.14447, 1.15789, 1.19058, 1.13008, 1.26937, 1.09396, 1.07192, 1.08694, 1.09111, 1.11618, 1.11017, 1.11158, 1.11222, 1.13218, 1.1333, 1.10971, 1.1123, 1.16469, 1.17432, 1.19601, 1.15491, 1.17821, 1.18732, 1.16822, 1.17017, 1.18773, 1.20769, 1.19075, 1.18582, 1.1941, 1.19491, 1.22553, 1.23046, 1.28459, 1.27878, 1.3245, 1.3172, 1.31773, 1.32047, 1.31642, 1.31619, 1.36013, 1.3263, 1.32021, 1.32639, 1.34354, 1.44667, 1.43663, 1.45155, 1.42679, 1.46586, 1.4651, 1.41584, 1.45907, 1.47341, 1.43975, 1.43315, 1.42272, 1.46288, 1.46412, 1.47876, 1.46779, 1.51225, 0.00342879, 0.00346555, 0.00379305, 0.00358994, 0.00375944, 0.00350669, 2.09947, 2.09731, 2.09255, 2.03478, 0.0033318, 2.07332, 0.00371219, 1.48147, 1.44449, 1.42768, 1.38022, 1.37945, 1.36178, 1.36202, 1.36522, 1.35889, 1.36387, 1.30551, 1.31408, 1.28237, 1.2921, 1.29576, 1.32638, 1.2541, 1.25121, 1.23863, 1.23961, 1.23985, 1.25154, 1.28544, 1.30931, 1.31884, 1.31975, 1.32062, 1.3199, 1.25864, 1.20162, 1.19064, 1.19494, 1.20879, 1.21411, 1.2231, 1.22364, 1.26853, 1.30068, 0.00344399, 1.58528, 0.0034164, 0.00360422, 1.31225, 0.00336054, 1.28098, 1.28159, 1.32172, 1.30944, 0.00328223, 1.67869, 1.64705, 1.60203, 1.36878, 1.58866, 1.38728, 1.3548, 1.42466, 1.37466, 0.00327634, 0.00358439, 1.41777, 1.55329, 1.7271, 1.55542, 1.5562, 0.00361081, 1.70686, 1.55824, 0.00370743, 1.44687, 1.55829, 0.00327299, 1.67333, 1.67296, 1.66456, 1.64784, 1.64844, 1.64898, 1.64324, 1.65094, 1.65787, 1.65532, 0.00354395, 1.45893, 1.46582, 1.58046, 1.47253, 1.47209, 1.57324, 1.57244, 0.00347855, 1.47882, 1.47807, 1.48637, 1.48576, 0.00324717, 0.00336761, 1.51987, 1.5191, 1.51932, 1.52116, 1.52076, 1.51683, 1.51979, 1.51092, 1.51863, 1.51727, 1.52502, 1.52704, 1.52103, 1.52807, 1.52684, 1.52946, 1.52986, 1.53914, 1.53789, 1.52068, 1.52692, 1.52677, 1.52694, 1.51485, 1.52557, 1.52779, 1.52839, 1.50984, 1.50758, 1.50878, 1.5058, 1.50295, 1.50554, 1.51326, 1.52097, 1.53152, 1.5324, 1.53266, 1.54106
0.0033719, 0.00334218, 0.00366281, 1.13886, 1.1393, 1.14455, 1.14578, 1.14356, 1.13722, 1.12526, 1.12497, 1.1206, 1.12165, 1.1243, 1.13199, 1.1344, 1.13582, 1.13994, 1.14016, 1.13982, 1.14211, 1.11766, 1.11066, 1.11117, 1.11659, 1.12688, 1.12737, 1.13623, 1.1365, 1.14259, 1.14227, 0.00336676, 1.24697, 1.16184, 1.16069, 1.15974, 1.1573, 1.1579, 1.15926, 1.15638, 1.15515, 1.15099, 1.15688, 1.15829, 1.16391, 1.16398, 1.16508, 1.16759, 1.16733, 1.17017, 1.16294, 1.16185, 1.16193, 1.16924, 1.17151, 1.17173, 1.17587, 1.17386, 1.17319, 1.17282, 1.17408, 1.17172, 1.17281, 1.17181, 1.17317, 1.17145, 1.17331, 1.17575, 1.17745, 1.17497, 1.17727, 1.17792, 1.18102, 1.18275, 1.185, 1.18582, 1.18451, 1.18736, 1.18785, 1.18962, 1.19096, 1.19024, 1.18788, 1.18848, 1.19063, 1.18221, 1.18142, 1.18054, 1.17355, 1.17373, 1.26113, 1.1201, 1.10239, 1.10373, 1.14974, 1.08464, 1.08859, 1.08948, 1.1347, 1.10102, 1.102, 1.1051, 1.16154, 1.11896, 1.11707, 1.15769, 1.15707, 1.14291, 1.15144, 1.23952, 1.18584, 1.19265, 1.19434, 1.24476, 1.20377, 1.1944, 1.21034, 1.18962, 1.19529, 1.18339, 1.20311, 1.20332, 1.2295, 1.2361, 1.27119, 1.26282, 1.29171, 1.29441, 1.33461, 1.31549, 1.34534, 1.34704, 1.32896, 1.32716, 1.37133, 1.38093, 1.39333, 1.36299, 1.37698, 1.37744, 1.50105, 1.43474, 1.35572, 1.36606, 1.36889, 1.37952, 1.37828, 1.36904, 1.36839, 1.3985, 1.39899, 1.39928, 1.45436, 1.4241, 1.42569, 2.00517, 2.00417, 1.43289, 1.45076, 1.44083, 1.45593, 1.44122, 1.3993, 1.39947, 1.45849, 1.33027, 1.33091, 1.32953, 1.3361, 1.29337, 1.29253, 1.31063, 1.28145, 1.27949, 1.29683, 1.30555, 1.27496, 1.26535, 1.25979, 1.25167, 1.25253, 1.2142, 1.21256, 1.20174, 1.20891, 1.22661, 1.18151, 1.19758, 1.21889, 1.20355, 1.1905, 1.19179, 1.20279, 1.16772, 1.16966, 1.19241, 1.21561, 1.2116, 1.2434, 1.24317, 1.32079, 1.32194, 1.32291, 1.57782, 1.23683, 1.23888, 1.258, 1.29788, 1.29449, 1.29181, 1.29401, 0.00333046, 1.4753, 0.00344098, 1.30357, 0.00337933, 0.00366348, 0.00364414, 0.00378531, 1.65467, 0.00339531, 0.00326561, 1.4476, 0.00354347, 1.49981, 1.49809, 1.72606, 1.49494, 1.49352, 1.41584, 1.41419, 1.70353, 1.41697, 1.41749, 0.003842, 1.55531, 1.55652, 1.68657, 1.67592, 1.55827, 1.43834, 0.00330318, 1.63728, 0.00334964, 0.00353487, 0.00362131, 1.53842, 0.00343967, 1.65898, 0.00341177, 1.4623, 0.00366235, 0.00354921, 0.00341037, 1.58439, 0.00346363, 1.47473, 1.47596, 1.57785, 1.48599, 1.57435, 1.52026, 1.56168, 1.5608, 1.51592, 1.51746, 1.51657, 1.51361, 1.5102, 1.50937, 1.50747, 1.51356, 1.51353, 1.51809, 1.51857, 1.53122, 1.5278, 1.52721, 1.52602, 1.5362, 1.53488, 1.53517, 1.54415, 1.54859, 1.5471, 0.00338896, 1.52327, 1.50982, 1.50726, 1.50937, 1.51074, 1.50154, 1.50071, 1.50643, 1.51984, 1.51779, 1.52655, 1.52642, 1.53187, 1.52934
0.0037443, 0.00363715, 0.00328727, 1.11275, 1.11386, 1.2335, 0.00366937, 1.13303, 1.12796, 1.12275, 1.12291, 1.12562, 1.12662, 1.12728, 1.12945, 1.13431, 1.1373, 1.13892, 1.1396, 1.13716, 1.13954, 1.23727, 1.12997, 1.12972, 1.12773, 1.12988, 1.1334, 1.1352, 1.13569, 1.1354, 1.13824, 1.1468, 1.15207, 1.15372, 1.15521, 1.15691, 1.15662, 1.15751, 1.15689, 1.15727, 1.15593, 1.15616, 1.15804, 1.16059, 1.15988, 1.16331, 1.16426, 1.16571, 1.16416, 1.16444, 1.16304, 1.1622, 1.16547, 1.16661, 1.1678, 1.17034, 1.17174, 1.17201, 1.17281, 1.17299, 1.17195, 1.1726, 1.17439, 1.17484, 1.1698, 1.1681, 1.16819, 1.1704, 1.1692, 1.16904, 1.17023, 1.17148, 1.1741, 1.17501, 1.17707, 1.17771, 1.18205, 1.17659, 1.17942, 1.18195, 1.181, 1.18177, 1.18343, 1.18307, 1.18389, 1.18469, 1.18518, 1.18498, 1.175, 1.1772, 1.10588, 1.10696, 1.10824, 1.08836, 1.09773, 1.09813, 1.09793, 1.0992, 1.09859, 1.1014, 1.08901, 1.09146, 1.10207, 1.10106, 1.11194, 1.13091, 1.13262, 1.18642, 1.22668, 1.22737, 1.1669, 1.18008, 1.18222, 1.18329, 1.1809, 1.18537, 1.18804, 1.16942, 1.17304, 1.175, 1.17768, 1.19157, 1.18338, 1.20502, 1.19093, 1.21114, 1.2213, 1.22996, 1.3246, 1.32505, 1.33382, 1.33606, 1.30237, 1.30347, 1.33688, 1.36651, 1.3279, 1.33971, 1.31962, 1.31581, 1.31702, 1.33188, 1.35919, 1.36023, 1.33541, 1.3362, 1.34318, 1.34484, 1.33086, 1.38587, 1.36057, 1.4065, 1.37575, 1.39365, 1.36481, 1.3988, 1.39828, 0.0033566, 1.38207, 1.39564, 1.40953, 1.40523, 1.46775, 1.35391, 1.32294, 1.26854, 1.27588, 1.26588, 1.28893, 1.25729, 1.25992, 1.2668, 1.25504, 1.26346, 1.27174, 1.26587, 1.29237, 1.26486, 1.30597, 1.19655, 1.1979, 1.20481, 1.19338, 1.19455, 1.23477, 1.23556, 1.15117, 1.16581, 1.16382, 1.16906, 1.17313, 1.17877, 1.17696, 1.17783, 1.22756, 1.24024, 1.27545, 1.27706, 1.21143, 1.21176, 1.51932, 1.27261, 1.30324, 1.28535, 1.2847, 1.28678, 1.26698, 1.27133, 1.26488, 1.25487, 1.26739, 1.3064, 1.33244, 1.28173, 1.29219, 0.00364095, 0.00330939, 0.00351211, 0.00345661, 0.00367875, 0.0036152, 1.3947, 1.45423, 0.00361151, 1.50284, 1.74816, 0.0036746, 0.00360342, 0.00380135, 0.00335041, 1.4907, 1.40674, 1.40605, 0.00352923, 0.00323254, 0.00377092, 0.00340009, 0.00366075, 0.0037965, 1.506, 0.00363927, 1.41623, 1.71651, 1.71324, 0.00362472, 1.69904, 0.00329652, 0.00368057, 0.00356701, 1.54427, 0.00340731, 0.00377685, 1.45551, 1.45483, 1.45265, 1.45416, 1.47042, 1.47094, 1.4898, 1.48648, 1.48564, 1.49285, 1.49483, 1.50215, 1.50251, 1.50301, 1.51072, 1.50862, 1.5063, 1.50919, 1.50769, 1.5115, 1.52261, 1.52024, 1.51966, 1.5203, 1.52294, 1.52019, 1.52012, 1.51917, 1.51961, 1.68514, 1.56932, 1.57128, 1.52706, 1.52373, 1.51727, 1.51576, 1.51386, 0.0037652, 0.00349469, 1.50165, 1.50525, 1.50691, 1.51187, 1.52351, 1.52236, 1.52309, 1.54032, 1.54295
1.09201, 1.09261, 1.09286, 1.09399, 1.0957, 1.09675, 0.00374606, 1.11433, 1.11393, 1.11191, 1.10712, 1.31164, 1.24333, 1.12354, 1.12908, 1.12736, 1.12882, 1.13038, 1.12866, 1.12379, 1.12676, 1.13002, 1.2091, 1.20796, 1.20291, 1.12398, 1.12933, 1.12911, 1.19095, 1.13381, 1.13637, 1.17386, 1.16848, 1.14982, 1.14989, 1.15089, 1.14821, 1.15129, 1.15441, 1.15591, 1.15516, 1.15644, 1.15707, 1.15892, 1.16016, 1.1615, 1.1606, 1.16186, 1.16119, 1.16385, 1.16303, 1.16344, 1.16486, 1.16554, 1.16543, 1.16507, 1.167, 1.17384, 1.17374, 1.17105, 1.17232, 1.17336, 1.17392, 1.17343, 1.17069, 1.16968, 1.17048, 1.16676, 1.16358, 1.16236, 1.16347, 1.16472, 1.16499, 1.16475, 1.1661, 1.16825, 1.16801, 1.16738, 1.16807, 1.1707, 1.1704, 1.17417, 1.17606, 1.17963, 1.18065, 1.18247, 1.18223, 1.18294, 1.25246, 1.29505, 0.00343262, 0.0036138, 1.24606, 1.09143, 1.07, 1.06834, 1.1331, 1.13562, 1.13803, 1.12322, 1.13326, 1.10893, 1.18552, 1.09114, 1.10011, 1.09569, 1.10024, 1.12493, 0.00347814, 1.20265, 1.15684, 1.15607, 1.12534, 1.1269, 1.13018, 1.13723, 1.20015, 1.20109, 1.23234, 1.13647, 1.15465, 1.16832, 1.16701, 1.17378, 1.1531, 1.18915, 1.19207, 1.23231, 1.2199, 1.21895, 1.24399, 1.23605, 1.26201, 1.27809, 1.27788, 1.30357, 1.30367, 1.32367, 1.29522, 1.28815, 1.28484, 1.28972, 1.29469, 1.29231, 1.31971, 1.31561, 1.30946, 1.33066, 1.34132, 1.33425, 1.34061, 1.31312, 1.31179, 1.3003, 1.32378, 1.33399, 1.33669, 1.4023, 1.29578, 1.34488, 1.34591, 1.33348, 1.34037, 1.25707, 1.29204, 1.29507, 1.23936, 1.23955, 1.23812, 1.30672, 1.21275, 1.22156, 1.2298, 1.24353, 1.29948, 1.20644, 1.20558, 1.21245, 1.22887, 1.20823, 1.20532, 1.20549, 1.18473, 1.19514, 1.20079, 1.16101, 1.15766, 1.17241, 1.1779, 1.18155, 1.20817, 1.17612, 1.21118, 1.17083, 1.2061, 1.20902, 1.17864, 1.17539, 1.17752, 1.17894, 1.18249, 1.21441, 1.22365, 1.41715, 1.41584, 1.22663, 1.234, 1.23702, 1.21338, 1.24335, 1.31244, 1.31257, 0.00341547, 0.00321487, 0.00372808, 0.00350755, 0.00367088, 0.003686, 1.44084, 0.00358263, 0.00380253, 1.4354, 0.00344662, 0.00372979, 1.77026, 0.00348638, 0.00363842, 0.00354289, 0.00371909, 1.39817, 0.00333878, 0.0033636, 0.00400614, 0.00331638, 0.00361136, 1.50665, 0.00399211, 0.00345271, 1.54318, 1.3998, 1.38762, 1.38671, 1.41107, 0.00316575, 1.39393, 1.39505, 1.39361, 0.00365408, 1.72687, 0.00364298, 0.00345135, 0.00319949, 1.45148, 1.4551, 1.54004, 0.00352654, 0.00382285, 0.00354331, 0.00347292, 1.4842, 1.48524, 1.48732, 1.49223, 1.49781, 1.49727, 1.49852, 1.49906, 1.4983, 1.49909, 1.51095, 1.50908, 1.50811, 1.51526, 1.51462, 1.52546, 1.51214, 1.51556, 1.51307, 1.50419, 1.50011, 1.50305, 1.49962, 1.50947, 1.50783, 1.52612, 1.52059, 1.52721, 1.53851, 1.53728, 1.54298, 1.54233, 1.5412, 1.53992, 1.53698, 1.56003, 1.55427, 1.53044, 1.52817, 1.54595, 1.54928
1.08231, 1.1996, 1.08392, 1.08579, 1.0841, 1.08292, 0.00336605, 1.11116, 1.11167, 1.09883, 1.10335, 1.09963, 1.10135, 1.10145, 1.10977, 1.12554, 1.12249, 1.1218, 1.12185, 1.12144, 1.11776, 1.11264, 1.11306, 1.11549, 1.1116, 1.10952, 1.10897, 1.10864, 1.10944, 1.29246, 1.11218, 1.11285, 1.21475, 1.20812, 0.00362557, 1.24752, 1.14299, 1.14442, 1.14658, 1.15105, 1.15052, 1.14879, 1.1489, 1.15059, 1.28793, 1.28326, 1.15367, 1.15467, 1.15727, 1.15907, 1.16267, 1.16193, 1.16036, 1.16252, 1.16398, 1.16667, 1.17041, 1.17023, 1.16972, 1.16659, 1.16726, 1.16791, 1.16807, 1.16671, 1.1677, 1.16537, 1.16496, 1.16183, 1.15835, 1.15954, 1.15715, 1.16039, 1.15904, 1.16106, 1.16001, 1.16007, 1.15925, 1.16281, 1.16403, 1.16542, 1.16782, 1.16515, 1.16484, 1.17094, 1.16927, 1.17261, 1.17598, 1.16837, 0.00358748, 1.29935, 1.298, 1.29817, 1.10268, 1.0872, 1.08748, 1.06683, 1.24478, 1.07431, 1.09575, 1.09997, 1.12656, 1.12717, 1.10928, 1.10575, 1.08989, 1.0905, 1.10292, 1.08963, 1.10658, 1.12049, 1.10482, 1.11509, 1.12984, 1.12731, 1.12919, 1.12685, 1.13054, 1.13585, 1.17622, 1.13957, 1.14278, 1.14828, 1.16973, 1.13716, 1.13671, 1.16998, 1.16216, 1.19916, 1.2307, 1.23023, 1.23141, 1.22767, 1.29607, 1.28509, 1.37516, 1.22777, 1.22747, 1.25132, 1.24505, 1.24689, 1.25959, 1.23475, 1.24177, 1.24445, 1.26584, 1.27469, 1.30264, 1.30231, 1.26832, 1.29603, 1.29679, 1.25321, 1.25331, 1.27179, 1.27175, 1.25015, 1.26102, 1.26354, 1.24634, 1.25003, 1.23036, 1.21947, 1.24192, 1.16921, 1.17496, 1.20229, 1.2125, 1.21933, 1.20842, 1.21133, 1.19611, 1.19832, 1.20482, 1.19761, 1.19518, 1.17851, 1.18278, 1.17422, 1.18416, 1.20812, 1.20938, 1.19375, 1.17801, 1.18938, 1.18934, 1.13801, 1.15348, 1.1597, 1.1918, 1.17399, 1.17649, 1.18813, 1.18933, 1.17943, 1.15319, 1.21239, 1.17925, 1.1828, 1.18478, 1.15983, 1.21929, 1.17408, 1.17477, 1.16802, 1.17138, 1.18729, 1.21428, 1.21673, 1.21919, 0.00371225, 0.00337809, 0.00348646, 0.00343279, 0.00364918, 0.00360038, 1.28571, 1.2925, 1.30373, 1.31228, 1.31536, 0.0033131, 0.00355713, 0.00363728, 0.00349637, 0.00321083, 1.55537, 1.55137, 0.00364805, 1.50939, 0.00376011, 0.0032915, 0.00353362, 0.00365908, 1.5095, 0.00359045, 0.00358491, 0.00341624, 1.50699, 1.36458, 1.37082, 1.36831, 1.37749, 1.37947, 1.38212, 1.38869, 1.39256, 1.39392, 0.00339909, 0.00332601, 0.00346008, 0.00345014, 1.55557, 1.60714, 0.00335381, 0.00350585, 0.0036762, 0.00336402, 0.0036507, 0.00307486, 0.00385836, 0.0034795, 0.00351528, 1.47493, 1.47537, 1.47644, 1.53013, 1.49346, 1.4932, 1.49794, 1.49598, 1.50585, 1.50247, 1.49934, 1.50556, 1.50328, 1.50229, 1.5036, 1.50222, 1.5018, 1.50038, 1.49941, 1.50077, 1.49907, 1.50565, 1.50459, 1.50874, 1.51254, 1.519, 1.51798, 1.53249, 1.53177, 1.53704, 1.53502, 1.53526, 1.53026, 1.54321, 1.5453, 1.54756, 1.54922, 1.54789
1.09191, 1.07081, 1.07278, 1.07032, 1.06902, 0.00349515, 0.00336608, 1.21236, 1.20555, 1.09629, 1.09609, 1.09658, 1.10112, 1.10344, 1.10221, 1.10117, 1.10252, 1.105, 1.11433, 1.11463, 1.11486, 1.10218, 1.10131, 1.10192, 1.09997, 1.10126, 1.10396, 1.09854, 1.09623, 1.09548, 1.10147, 1.10121, 1.10091, 1.10925, 1.11058, 0.00364887, 0.00316557, 1.17836, 1.29526, 1.13618, 1.13599, 1.13571, 1.13759, 1.13874, 1.13456, 1.13918, 1.13777, 1.13689, 1.13635, 1.26346, 1.144, 1.14338, 1.14541, 1.1483, 1.15609, 1.15732, 1.16068, 1.16633, 1.17166, 1.17113, 1.17018, 1.16978, 1.17218, 1.17281, 1.17039, 1.16494, 1.1689, 1.34304, 1.16044, 1.15672, 1.15847, 1.15932, 1.15548, 1.15464, 1.15426, 1.15527, 1.15523, 1.15637, 1.16064, 1.16303, 1.16246, 1.15844, 1.15929, 1.15905, 1.15981, 1.16257, 1.16695, 1.16446, 1.16703, 1.15963, 1.15971, 0.0034472, 1.10288, 1.10402, 1.08409, 1.08796, 1.10272, 1.10192, 1.10596, 1.10641, 1.10741, 1.11604, 1.1501, 1.15046, 1.10704, 1.12525, 1.08489, 1.08528, 1.11192, 1.08111, 1.10455, 1.10318, 1.14274, 1.12433, 1.12573, 1.12918, 1.13051, 1.13453, 1.16738, 1.17137, 1.16343, 1.16045, 1.16782, 1.15911, 1.14416, 1.14371, 1.17048, 1.14385, 1.14128, 1.18439, 1.18757, 1.14636, 1.14874, 1.17141, 1.17523, 1.21882, 1.18865, 1.20737, 1.1922, 1.27898, 1.21442, 1.19436, 1.18531, 1.21734, 1.2287, 1.20972, 1.22468, 1.24631, 1.23781, 1.22955, 1.23341, 1.26841, 1.21963, 1.19916, 1.19808, 1.2323, 1.22923, 1.22917, 1.23891, 1.24304, 1.19175, 1.18181, 1.18964, 1.17856, 1.17645, 1.17496, 1.1424, 1.18498, 1.18415, 1.28553, 1.23213, 1.23361, 1.15817, 1.16073, 1.15988, 1.15743, 1.17102, 1.17038, 1.13634, 1.13645, 1.14529, 1.13986, 1.12434, 1.11339, 1.11536, 1.10912, 1.11255, 1.13335, 1.19643, 1.19444, 1.1952, 1.17701, 1.16241, 1.16227, 1.22264, 1.18198, 1.15479, 1.15714, 1.15768, 1.17228, 1.15898, 1.13738, 1.13992, 1.17232, 1.15278, 1.15426, 1.17384, 1.20644, 0.0038905, 1.20633, 0.0032657, 0.00387937, 1.3093, 1.3095, 0.00305063, 0.00361025, 0.00348674, 0.00347301, 1.55793, 1.30721, 1.31275, 1.31489, 0.00340563, 0.00344184, 0.00373436, 0.0036101, 0.00333337, 1.3403, 1.34432, 1.34315, 1.34414, 0.00357974, 1.35524, 0.00344727, 0.00324221, 1.55766, 1.51894, 0.00383236, 1.36029, 1.35962, 1.36202, 1.36905, 1.36975, 1.37398, 1.37971, 0.00372538, 0.00342887, 0.00338841, 0.00400303, 0.00360542, 1.5825, 0.00337516, 0.00367186, 1.3879, 1.38446, 1.38494, 0.00348298, 0.00320736, 0.00367585, 0.00334466, 1.4111, 0.0034547, 1.44389, 1.44266, 1.44572, 1.44951, 0.00319043, 1.47131, 1.47031, 1.47259, 1.47185, 1.48228, 1.4823, 1.48957, 1.49211, 1.48974, 1.49301, 1.49312, 1.49836, 1.63683, 1.49181, 1.4997, 1.50074, 1.5006, 1.5045, 1.50543, 1.51108, 1.51275, 1.50766, 1.4971, 1.49735, 1.50276, 1.50884, 1.52113, 1.52025, 1.51873, 1.53094, 1.53331, 1.53333, 1.53355
1.07698, 1.06723, 1.06662, 1.06432, 1.05881, 1.06011, 1.07295, 1.07991, 1.08037, 1.0804, 1.08357, 1.08839, 1.10061, 1.10005, 1.10125, 1.10068, 1.09913, 1.09815, 1.0973, 1.09559, 1.0939, 1.09368, 1.08757, 1.09511, 1.09656, 1.0988, 1.09806, 1.09825, 1.09769, 1.09842, 1.09938, 1.10072, 1.10779, 1.10799, 1.10964, 1.11399, 1.11567, 1.12007, 1.12775, 1.12799, 1.12916, 1.12942, 1.13035, 1.13029, 1.1309, 1.13289, 1.13064, 1.13173, 1.1339, 1.13592, 1.13601, 1.1376, 1.13685, 1.1366, 0.00362872, 1.22648, 1.22671, 1.22966, 1.15524, 1.15532, 1.16714, 1.16743, 1.16983, 1.17169, 1.17584, 1.17617, 1.17531, 1.17307, 1.17386, 1.17017, 1.1673, 1.16698, 1.1569, 1.15074, 1.1513, 1.15269, 1.15145, 1.15137, 1.15113, 1.15485, 1.15284, 1.15254, 1.15158, 1.14748, 1.14941, 1.14995, 1.27966, 1.15725, 1.15771, 1.15858, 1.16044, 1.16139, 1.16234, 0.00360609, 0.00340901, 1.11543, 1.15436, 1.15305, 1.12594, 1.12803, 1.1301, 1.11479, 1.16354, 1.11338, 1.11544, 1.11881, 1.13319, 1.10711, 1.109, 1.09011, 1.13177, 1.12057, 1.12964, 1.09956, 1.10093, 1.12459, 1.16377, 1.12678, 1.1284, 1.14665, 1.1563, 1.15593, 1.21293, 1.15457, 1.138, 1.13952, 1.14086, 1.16804, 1.13722, 1.13956, 1.26394, 1.16804, 1.16764, 1.15684, 1.19696, 1.16194, 1.1633, 1.13025, 1.1581, 1.1956, 1.15036, 1.18211, 1.1844, 1.14919, 1.15979, 1.18751, 1.18026, 1.17909, 1.23673, 1.17794, 1.19254, 1.17123, 1.17281, 1.19447, 1.17794, 1.18859, 1.18179, 1.21064, 1.17406, 1.17624, 1.17021, 1.16793, 1.16464, 1.14011, 1.13944, 1.13425, 1.13629, 1.13718, 1.13988, 1.14133, 1.13959, 1.16143, 1.14553, 1.20793, 1.15692, 1.13803, 1.168, 1.15055, 1.13582, 1.10186, 1.12549, 1.09308, 1.09106, 1.09078, 1.09138, 1.09591, 1.11906, 1.13602, 1.15846, 1.12559, 1.15237, 1.18766, 1.13702, 1.17181, 1.16394, 1.21207, 1.18861, 1.19021, 1.20163, 1.16028, 1.178, 1.14405, 1.14468, 1.15288, 1.15003, 1.32949, 1.33015, 0.00345103, 0.00352576, 1.23265, 0.00337924, 1.23892, 0.00340592, 1.30773, 0.00340769, 1.66758, 0.00343926, 1.47087, 1.47122, 1.61139, 0.00362455, 1.46864, 0.00366023, 1.57154, 0.00345243, 1.85311, 0.00340277, 1.31712, 0.00358061, 0.00371324, 0.00331043, 0.00350782, 0.00368425, 0.00381988, 0.0034738, 1.57626, 1.46206, 1.33354, 1.33797, 0.00349273, 1.3503, 1.59756, 1.36575, 1.36454, 1.3726, 1.37133, 1.36774, 0.00347761, 1.35968, 0.00345484, 0.00360348, 0.00333921, 1.37585, 1.37619, 1.37754, 1.37964, 1.56793, 1.39974, 1.40134, 1.40184, 1.40566, 1.40848, 1.44423, 1.44276, 1.44177, 1.4405, 1.45174, 1.45546, 1.45573, 1.46399, 1.46431, 0.00349447, 1.48543, 1.4801, 1.47938, 1.4839, 1.47853, 1.47553, 1.47575, 1.48678, 1.48696, 1.48836, 1.48513, 1.49622, 0.00363401, 0.00343774, 0.00341961, 0.00372982, 0.00365293, 0.00348883, 1.49522, 1.49272, 0.0034485, 0.00350606, 0.00347894, 1.51092, 1.51036, 1.52192, 1.51613, 1.52926
1.06691, 1.06298, 1.06288, 1.063, 1.06371, 1.06506, 1.07266, 1.08295, 1.08436, 1.07948, 1.07994, 1.07999, 0.00322915, 0.00367136, 1.09247, 1.0953, 1.09819, 1.09767, 1.09739, 1.09243, 1.0901, 1.09069, 1.08683, 1.09021, 1.0938, 1.0943, 1.09304, 1.09349, 1.09439, 1.095, 1.10133, 1.10144, 1.10073, 1.10638, 1.10792, 1.1112, 1.1133, 1.11416, 1.11829, 1.12033, 1.13002, 1.13172, 1.13217, 1.12793, 1.12836, 1.13071, 1.13255, 1.13267, 1.13213, 1.13313, 1.13609, 1.14179, 1.14394, 1.13421, 1.13371, 1.1319, 1.13038, 1.10639, 1.10834, 1.12248, 1.15065, 1.1495, 1.14728, 1.15528, 1.14299, 1.16362, 1.1627, 1.15884, 0.00374856, 1.16766, 1.1665, 1.16556, 1.16617, 1.1597, 1.15435, 1.15405, 1.15415, 1.14238, 1.13877, 1.13874, 1.14032, 1.35125, 1.14141, 1.14334, 1.14219, 1.14139, 1.14313, 1.14751, 1.15174, 1.15486, 1.16294, 1.16137, 1.16137, 1.15391, 1.14681, 1.15016, 1.13612, 1.13605, 1.13743, 1.1122, 1.08942, 1.08069, 1.24635, 1.11727, 1.11262, 1.10961, 1.13981, 1.10926, 1.15116, 1.09318, 1.09844, 1.09886, 1.09741, 1.10038, 1.1013, 1.09891, 1.10422, 1.11711, 1.19715, 1.20815, 1.24045, 1.18004, 1.12845, 1.12912, 1.13345, 1.13532, 1.16229, 1.16374, 1.13017, 1.12961, 1.13039, 1.11217, 1.1691, 1.15939, 1.28808, 1.10267, 1.12349, 1.12633, 1.17496, 1.14641, 1.1465, 1.17397, 1.16803, 1.14127, 1.14317, 1.17496, 1.14338, 1.14311, 1.14075, 1.14043, 1.20634, 1.18586, 1.18314, 1.18407, 1.17695, 1.157, 1.14224, 1.14359, 1.18606, 1.13953, 1.15625, 1.12521, 1.12605, 1.18792, 1.16055, 1.14535, 1.12722, 1.14755, 1.12494, 1.12994, 1.13118, 1.1596, 1.15872, 1.16767, 1.11802, 1.11983, 1.13277, 1.22662, 1.11984, 1.14382, 1.13889, 1.14099, 1.11887, 1.08912, 1.09128, 1.13391, 1.13308, 1.13206, 1.14241, 1.14414, 1.14722, 1.15, 1.22003, 1.14684, 1.14956, 1.15074, 1.16094, 1.14677, 1.15149, 1.1552, 1.15666, 1.26454, 1.26066, 1.189, 1.19487, 1.19566, 1.16861, 1.17148, 1.17229, 1.17951, 1.18048, 0.00352911, 0.00341077, 0.00347398, 0.00347429, 0.00352146, 0.00335652, 0.0040633, 1.4716, 1.4714, 1.30211, 1.30124, 1.29958, 1.30821, 1.30674, 1.30334, 1.30502, 1.30482, 1.3002, 1.29985, 1.47246, 0.0033107, 1.32045, 1.32126, 1.31609, 1.31885, 1.30935, 1.31275, 1.44101, 0.00358484, 1.35185, 1.35052, 1.35345, 1.35367, 1.3607, 1.35827, 1.36079, 1.35779, 1.33924, 1.34126, 1.34256, 1.34401, 0.00373574, 1.3699, 1.37447, 1.50609, 1.37732, 0.00343289, 1.56706, 1.39702, 1.42124, 1.41966, 1.43072, 0.00331911, 1.43038, 1.42965, 1.43626, 1.43753, 1.4371, 1.43758, 1.43292, 1.50462, 0.00370829, 0.0033548, 0.00372817, 1.46455, 1.46335, 1.53601, 1.53163, 0.00366623, 0.00332627, 0.00341547, 1.55957, 0.00331624, 1.64224, 0.00360048, 1.71446, 1.71821, 1.60965, 1.60055, 1.59721, 1.59655, 1.67595, 1.67791, 1.67833, 1.48614, 1.49836, 1.50938, 1.50743, 1.51591
1.07019, 1.07093, 1.1681, 1.06264, 1.06358, 1.06463, 0.00331964, 1.10046, 1.10198, 1.10583, 1.18512, 1.06821, 1.06868, 1.06868, 1.06841, 1.09148, 1.09276, 1.09193, 1.09126, 1.08898, 1.09097, 1.08407, 1.091, 1.09115, 1.09355, 1.09397, 1.09288, 1.09059, 1.09125, 1.09289, 1.09337, 1.09492, 1.09463, 1.09743, 1.09843, 1.11197, 1.11426, 1.11476, 1.1159, 1.11849, 1.12592, 1.1291, 1.12954, 1.12932, 1.12817, 1.12912, 1.13135, 1.129, 1.12925, 1.13123, 1.1317, 1.12884, 1.12964, 1.12853, 1.12959, 1.12482, 1.11353, 1.1147, 1.11725, 1.20289, 1.14057, 1.14187, 1.14236, 1.14353, 1.14513, 1.1522, 1.15722, 1.15683, 1.15552, 1.1573, 1.15521, 1.15628, 1.15647, 1.15489, 1.154, 1.1546, 1.15503, 1.14391, 1.14427, 1.1347, 1.1347, 1.13509, 1.13195, 1.13404, 1.13513, 1.13683, 1.13921, 1.14203, 1.15002, 1.15078, 1.15798, 1.15962, 1.16017, 1.16294, 1.16314, 1.16936, 1.17, 1.16341, 1.11392, 1.11283, 0.00355781, 1.09594, 1.0968, 1.07667, 1.07788, 1.09818, 1.09918, 1.14555, 1.10001, 1.0969, 1.10238, 1.1067, 1.09149, 1.09644, 1.09457, 1.0924, 1.09317, 1.09692, 1.09921, 1.08925, 1.11897, 1.14263, 1.23106, 1.11169, 1.11332, 1.11835, 1.16303, 1.1664, 1.16574, 1.16433, 1.14916, 1.10209, 0.00327112, 1.13453, 1.13395, 1.09962, 1.16075, 1.17202, 1.2311, 1.17502, 1.17797, 1.18123, 1.1462, 1.14925, 1.1558, 1.12629, 1.16522, 1.11205, 1.15281, 1.13062, 1.11716, 1.12562, 1.12679, 1.12855, 1.18075, 1.14864, 1.15011, 1.1559, 1.12736, 1.12843, 1.16655, 1.16305, 1.11042, 1.1103, 1.15866, 1.16083, 1.11647, 1.12516, 1.11407, 1.11519, 1.13523, 1.13449, 1.139, 1.1106, 1.14826, 1.11313, 1.13335, 1.13311, 1.13996, 1.14932, 1.15038, 1.1093, 1.10628, 1.074, 1.15332, 1.1295, 1.15055, 1.16015, 1.14919, 1.1338, 1.23961, 1.24159, 1.27949, 1.28188, 1.1591, 1.14271, 1.14419, 1.15706, 1.24037, 1.15525, 1.15653, 1.15701, 1.15998, 1.15984, 1.17582, 1.19655, 1.17106, 1.17374, 1.17543, 1.17709, 1.17827, 0.00345278, 0.00361031, 0.00346062, 0.00362283, 0.0035888, 0.00356015, 0.00326263, 0.0035162, 0.00337069, 1.59701, 1.47413, 1.47457, 1.2991, 1.30267, 1.30443, 1.30697, 1.30375, 1.30069, 1.30043, 1.30607, 1.3085, 1.31355, 1.31524, 1.31376, 1.30985, 1.30907, 1.31069, 0.0035245, 1.3273, 1.33061, 1.61254, 1.51422, 0.00347697, 1.36012, 1.35799, 1.35567, 1.35582, 1.3565, 1.35434, 1.34722, 1.35036, 1.353, 1.36104, 1.36102, 1.35851, 1.35399, 1.36445, 1.3661, 1.48574, 0.00353749, 0.0036819, 0.00360332, 0.00359814, 0.0035455, 0.00351033, 1.42285, 1.42436, 1.43398, 1.41107, 1.41121, 1.42029, 1.42358, 1.56274, 1.43635, 1.44731, 1.58413, 1.44624, 1.5892, 1.58619, 1.43724, 1.43258, 1.43155, 1.43417, 1.55853, 1.72071, 1.55915, 1.55408, 0.00347642, 1.73088, 1.71442, 0.00336317, 1.45281, 1.45841, 1.57377, 1.67853, 1.48863, 1.49802, 1.49885, 1.71859
1.06339, 1.06574, 1.07244, 1.07059, 1.06773, 1.06793, 0.00410486, 1.09854, 1.09875, 1.09929, 1.08919, 1.06536, 1.06776, 1.06562, 1.0636, 1.06455, 1.08017, 1.0868, 1.08742, 1.08764, 1.08, 1.0809, 1.08463, 1.0863, 1.09274, 1.0928, 1.09131, 1.09113, 1.08772, 1.08752, 1.0861, 1.08919, 1.09018, 1.08969, 1.09728, 1.09754, 1.10825, 1.10328, 1.105, 1.10955, 1.11511, 1.11603, 1.1189, 1.11827, 1.12055, 1.12249, 1.12817, 1.12913, 1.12769, 1.12377, 1.12465, 1.12711, 1.12471, 1.12045, 1.11885, 1.11592, 1.11519, 1.11555, 1.11747, 0.00326745, 0.00364372, 1.13792, 1.1382, 1.13572, 1.14236, 1.14126, 1.15044, 1.15121, 1.14616, 1.14183, 1.14429, 1.14585, 1.14605, 1.21641, 1.14609, 1.14458, 1.1432, 1.14307, 1.14365, 1.14324, 1.14211, 1.13989, 1.13725, 1.32976, 1.13905, 1.13617, 1.14418, 0.00339584, 1.23732, 0.00326555, 1.15767, 1.15977, 1.1622, 1.16454, 1.16055, 1.15213, 1.15002, 1.14557, 1.14667, 1.13424, 0.00357257, 0.00335959, 1.12545, 1.12721, 1.1266, 1.08445, 1.10552, 1.10207, 1.13452, 1.12404, 1.12585, 1.1133, 1.11177, 1.18529, 1.07537, 1.1039, 1.08259, 1.12883, 1.12365, 1.09409, 1.09515, 1.13871, 1.13805, 1.13804, 1.1634, 1.14071, 1.11474, 1.10945, 1.1114, 1.14296, 1.09748, 1.10007, 1.10099, 1.0908, 1.13686, 1.137, 1.18964, 1.18133, 1.15369, 1.17401, 1.17474, 1.14617, 1.1408, 1.14077, 1.14313, 1.14653, 1.12168, 1.14986, 1.1503, 1.11404, 1.11586, 1.109, 1.10929, 1.11859, 1.1211, 1.21009, 1.15084, 1.16316, 1.15448, 1.16006, 1.1577, 1.15055, 1.15702, 1.12179, 1.12327, 1.31294, 1.31315, 1.20469, 1.20633, 1.21156, 1.21215, 1.10706, 1.11052, 1.07048, 1.07184, 1.06993, 1.06542, 1.11939, 1.11869, 1.2164, 1.10539, 1.10488, 1.0668, 1.07209, 1.0743, 1.07522, 1.1531, 1.08363, 1.12307, 1.13565, 1.11932, 1.14211, 1.12213, 1.12234, 1.13357, 0.00331142, 0.00374157, 0.00345403, 1.58884, 1.3324, 1.33386, 1.18405, 1.18798, 1.17926, 1.26567, 1.20397, 1.54735, 1.21241, 1.18361, 1.18063, 0.00360512, 0.00326872, 0.00355305, 0.00354249, 0.00356425, 0.00331693, 0.00351251, 0.0032293, 0.003462, 0.00318015, 1.29897, 1.29517, 1.29644, 1.30153, 1.30064, 1.29678, 1.29904, 1.30564, 1.30629, 1.30917, 1.52195, 0.00327825, 0.00341606, 0.00358302, 1.29558, 1.29407, 1.29498, 1.45168, 1.31677, 1.32119, 1.32047, 1.31675, 1.31982, 1.32093, 0.00347639, 1.35245, 1.36188, 1.36392, 1.36531, 1.35813, 1.50639, 1.33317, 1.33695, 0.00347568, 0.00382376, 1.34343, 1.34349, 1.35066, 1.35441, 1.35443, 1.35803, 1.34956, 1.35574, 1.35583, 0.0035658, 1.48821, 1.38312, 1.38207, 1.38287, 1.38408, 0.00341277, 0.00339017, 1.41528, 1.41538, 1.42626, 1.42649, 1.42691, 0.00362863, 0.00354852, 0.00349552, 1.40588, 1.40657, 1.41478, 1.41923, 1.4189, 1.41915, 1.75296, 1.42596, 1.715, 1.54967, 1.43787, 1.43724, 1.53311, 1.76596, 1.74458, 1.46381, 1.47063, 1.46894, 1.47011, 0.00334297
1.06382, 1.0631, 1.06274, 1.06514, 1.06678, 1.06606, 1.065, 1.06391, 1.06752, 1.07318, 1.0742, 1.07543, 1.07613, 1.07445, 1.06274, 1.06303, 1.06382, 1.08883, 1.09023, 1.08224, 1.08082, 1.08304, 1.07715, 1.07965, 1.08401, 1.08738, 1.08563, 1.08891, 1.08925, 1.08791, 1.08735, 1.08846, 1.0909, 1.09095, 1.09316, 1.09855, 1.10088, 1.10226, 1.10459, 1.10571, 1.10242, 1.10655, 1.10779, 1.10928, 1.11001, 0.00372355, 1.29161, 1.12896, 1.1281, 1.12596, 1.12558, 1.12634, 1.12132, 1.12159, 1.1214, 1.12025, 1.11714, 1.11775, 1.11833, 1.1192, 1.1219, 1.12208, 1.1232, 1.12271, 1.12588, 1.12999, 1.13234, 1.13212, 1.13195, 1.13814, 1.13982, 1.13905, 1.1394, 1.13311, 1.13193, 1.13632, 1.13795, 1.13917, 1.13867, 1.13907, 1.13811, 1.13517, 1.13591, 1.13922, 1.14068, 0.00340391, 1.15, 1.15458, 1.1587, 1.16207, 1.16571, 1.16868, 1.17101, 1.17256, 1.17555, 0.00361233, 1.15801, 1.15644, 1.1501, 1.15237, 1.15082, 1.13724, 1.13227, 1.12919, 1.119, 1.11867, 1.11634, 1.11338, 1.11464, 1.18466, 1.12125, 1.12592, 1.10593, 1.10798, 1.08253, 1.15717, 1.13986, 1.10025, 1.06783, 1.0678, 1.07211, 1.15046, 1.14641, 1.08555, 1.09843, 1.099, 1.07705, 1.18818, 1.08849, 1.10773, 1.08038, 1.08135, 1.13788, 1.09501, 1.09019, 1.08972, 1.14718, 1.14649, 1.13, 1.15067, 1.14162, 1.1797, 1.18087, 1.20682, 0.00354811, 1.07589, 1.07595, 1.12953, 1.13263, 1.11974, 1.12091, 1.14339, 1.15443, 1.11002, 1.1581, 1.16076, 1.11374, 1.19231, 1.19217, 1.13353, 1.13052, 1.15563, 1.13373, 1.17172, 1.17412, 1.31673, 1.20324, 1.20618, 1.3111, 1.21717, 1.10047, 1.09522, 1.07101, 1.06533, 1.08242, 1.08423, 1.06716, 1.06718, 1.06714, 1.06295, 1.06629, 1.06696, 1.10797, 1.09887, 1.09901, 1.095, 1.0958, 1.15982, 1.13232, 1.12702, 1.16928, 1.17858, 1.21906, 1.21982, 0.00348126, 1.13397, 1.14006, 1.18932, 1.18011, 1.18106, 0.00336204, 0.00358641, 1.92192, 0.00361868, 0.0035003, 1.60618, 0.00343242, 0.00352512, 0.00352217, 0.00360423, 0.00334902, 1.90421, 1.24087, 1.24608, 1.26744, 0.00383726, 1.90394, 1.52061, 0.00332514, 0.0033686, 0.00358005, 0.00368137, 0.00330629, 1.4489, 1.50948, 1.29971, 1.56919, 0.0034849, 0.00345483, 1.86517, 0.0034217, 0.00345338, 1.31556, 1.31361, 1.31706, 1.31756, 1.30251, 1.31273, 1.31037, 1.311, 1.31141, 1.32529, 1.32533, 1.32602, 1.34165, 1.34645, 1.36796, 1.36788, 0.00357036, 1.33773, 1.33733, 1.32614, 1.32654, 1.33708, 1.33591, 1.33722, 1.33657, 1.3388, 1.34156, 1.34392, 1.35174, 1.35208, 1.35632, 1.3583, 1.35689, 1.36127, 1.52738, 1.37916, 1.38603, 1.38506, 1.38429, 1.38404, 0.00362014, 1.7828, 0.00347979, 0.00366492, 1.39555, 1.3926, 1.38892, 1.38795, 1.38516, 1.38872, 0.00353519, 1.41052, 1.4094, 1.41318, 1.42359, 1.42478, 1.42626, 1.43443, 1.43508, 1.43324, 1.43038, 1.4338, 0.00330849, 0.00355878, 1.45199, 1.45119, 1.4569, 1.45208
