1.14973073134785,1.845666416447,1.81060901311516,1.81162197682031,1.81159080715952,1.81201085668485,1.81275857813233,1.81421644047053,1.81620777162303,1.81569247638151,1.81551095571082,1.81489298279201,1.81402552025351,1.81232879928614,1.81053769144949,1.80961296182767,1.80605552123183,1.80504608791158,1.41985376637655,0.176539611131311,1.42167688314934,1.67477219763608,1.68718773940817,1.70281123099475,1.71488434887606,1.71710972450805,1.72378128047274,1.74603490474418,1.74519547879582,1.74280073967757,1.73859000790756,1.73619968195841,1.73620462719383,1.73784539799847,1.61276493421936,1.61283400132393,1.61042118751471,1.60218478129827,1.59164076076296,1.58086450304677,1.57274617206373,1.57003116172596,1.57024490240708,1.5445403953725,1.52578955443142,1.50793315049144,1.51039276919012,1.51153623030132,1.51469754244948,1.51675772890784,1.56189368565229,1.56625750901848,1.56563803179276,1.52517755098898,1.48431413311631,1.47969706638831,1.47880931932576,1.47553132001802,1.47355203823072,1.47235395352919,1.47215620294276,1.47326156020665,1.47578782716576,1.47872398823461,1.48060410614324,1.47912991412495,1.47428718746746,1.46828571009189,1.46411601788508,1.46342129807579,1.46249940294548,1.45660188081592,1.45401550122133,1.43986776970488,1.42264133140432,1.41981904932698,1.41593363448988,1.41344203902667,1.41221964433485,1.41229888771179,1.4125731929089,1.41289284638779,1.41392760767082,1.41407759275007,1.4747979555265,1.49902534745925,1.521930865806,1.5438035602886,1.55879871091995,1.58322957154322,1.60225986866178,1.61938602428537,1.63407307721541,1.6505543954304,1.67254620535923,1.69273078530838,1.74157051850127,1.74243830003672,1.74370889324087,1.74368605481559,1.74337139253754,1.7434625141785,1.7432778905604,1.74452944923098,1.74684283055733,1.75121270911435,1.68752515904106,1.6634839266116,1.64002659703459,1.61419985903458,1.58729064166704,1.50238656782233,1.5025514803538,1.5061027802234,1.52167169180443,1.52652710684439,1.51334461821325,1.50124365017453,1.50212831219556,1.50312649273629,1.50287038834452,1.50323559809221,1.50293430379846,1.50352607511853,1.50386998037283,1.5047043952929,1.50512382923261,1.50581475505223,1.5058812161981,1.50628418013732,1.50614337021515,1.50663562953266,1.50705090787146,1.50813397328424,1.5087465880942,1.50931065314135,1.51007782224643,1.5108288936571,1.51095902830396,1.51111670272752,1.51124021777295,1.51226035017845,1.51283793292358,1.51400002179406,1.51530429614163,1.60898812078091,1.51892093900479,1.51793645496122,1.51716779758742,1.5170324961492,1.5175659184956,1.51882519288492,1.51871145861821,1.51950347908578,1.51968585816176,1.52100999693559,1.52075093918231,1.52177320770858,1.52288702465195,1.52519404571043,1.52627340794651,1.52813352929596,1.52790614196449,1.52842495796276,1.52909919561031,1.53039412283652,1.53105701608815,1.5321119373677,1.53340243635452,1.53479772230425,1.53583930702535,1.53654062119623,1.53762453540222,1.53811063034111,1.53943797377806
1.14973315090945,1.89225999991492,1.81166821800778,1.81426356890673,1.81362970580001,1.82135467649284,1.81683516176705,1.82008660674467,1.73057784138974,1.68622445270056,1.68550460670289,1.68458894164912,1.70073868055382,1.71815115937512,1.74308394090699,1.81079272213708,1.80806494827641,1.80878232332961,1.41985376629668,0.00328078955828569,1.42167671129177,1.65277847905788,1.64897829801372,1.64569944989928,1.64262152957289,1.62842101368596,1.70291245195301,1.74483682806249,1.74526175045996,1.74455769617844,1.73155012906156,1.71945304521469,1.73025721072292,1.74023969081094,1.61209572365341,1.61308309238944,1.57654042484208,1.53983447630022,1.53972918594385,1.54019882465429,1.5548465187678,1.61262434638102,1.58083825070725,1.66429000057125,1.52512013593228,1.49133340471554,1.50978768043012,1.50991348813922,1.5121265423951,1.4817199970981,1.5688825644404,1.59160167220969,1.56288167796476,1.48801527369173,1.48526227114164,1.48065789674439,1.4804660490971,1.66799000087717,1.55920518502627,1.51134625194545,1.50989267501512,1.50789191867045,1.50992507990144,1.67534000011955,1.48488633054396,1.48272738713192,1.47833532887697,1.49581208302172,1.46581551973264,1.46724694483967,1.46403977240028,1.44787980185887,1.45243961686699,1.4365725006284,1.42948422676948,1.48936765488333,1.41951389953464,1.41192796751247,1.41059606382548,1.41006763272606,1.41067661121986,1.41068114691816,1.4117570554431,1.411276565204,1.41386021424428,1.41641360931244,1.4198329281845,1.41549687421872,1.54392839017596,1.73803514808706,1.73631606768189,1.73803172774522,1.73731124586715,1.74181354705904,1.73874684394298,1.74173260591952,1.74027386896242,1.74347293007128,1.74287925155294,1.74239687393373,1.74114216831434,1.66027999595999,1.74123967758803,1.74379138618023,1.74418101197993,1.7567679987198,1.64197060334539,1.48649999835361,1.50768764750101,1.48537999847701,1.49616521807249,1.49063131638432,1.49521911021832,1.49025417444076,1.51573731572111,1.53196921848767,1.50671048273241,1.4975876683437,1.50023488677672,1.50050545009696,1.50152347225409,1.49918049479476,1.50116330340648,1.49896554601196,1.50174479064985,1.49845786466053,1.50283258703371,1.50128187342888,1.50419982534652,1.50365062738333,1.50523451260969,1.50486617559677,1.50753077020397,1.50904019713844,1.51062570331599,1.50969382797541,1.51064176653364,1.50892677233436,1.5099309469035,1.50845168936647,1.50986942276948,1.50914528673783,1.51138653072063,1.51090138808747,1.51376338022731,1.69439000019047,1.51687868098534,1.51420621446855,1.51553076078875,1.51373254285439,1.51618755245063,1.51644041660555,1.51694503290676,1.51673859654354,1.51804429946243,1.51886241733304,1.51941364681725,1.51863959015228,1.52194437565659,1.52351424956312,1.5259854814578,1.52795710325356,1.52756751574996,1.52675249590429,1.52842747440831,1.52899884108525,1.53047088687655,1.53137059376361,1.53270713384127,1.53389014541247,1.53525633523621,1.53716848429186,1.53722930780793,1.53934461022135,1.53861512037645
1.14973315091011,1.75810334354653,1.77023920967176,1.78842999360754,1.74614706689081,1.73741466935153,1.72251051851766,1.71111728191839,1.70224933831887,1.68705111765947,1.68459617581686,1.68218341782096,1.67782776837287,1.67350937729359,1.66973391973335,1.66697833655182,1.66375844789411,1.66153216680414,1.49820735784403,1.49820735582516,1.49820735784403,1.65154404845031,1.64840184467014,1.64435760860888,1.6383215665484,1.62705768055247,1.61517762764166,1.60956353302049,1.60622539915702,1.60457796903323,1.60489168712111,1.60667635625636,1.60818748534161,1.6021794580644,1.58875405159349,1.57623939619441,1.55973765262146,1.53949608942799,1.53932694063539,1.53905972112946,1.53445314657326,1.53078738656211,1.52809961401455,1.52628585321685,1.52531494165421,1.53674341358909,1.54372140265559,1.55009502472361,1.5579136446341,1.56519390791669,1.57270473269301,1.58081235748519,1.55880487743652,1.48507269187922,1.48417197038997,1.48279438379611,1.48183822995446,1.61123307976772,1.58171748277587,1.555005904317,1.50946161877377,1.50767617370039,1.50992282342059,1.58811253862651,1.48789803982299,1.47987855013362,1.47567709655972,1.47197839480192,1.46912747718243,1.46665221235822,1.46526666266834,1.45618141029644,1.45506642030748,1.43328766967392,1.42991757346383,1.4288882957907,1.42368089828958,1.40823112925416,1.40766015884899,1.4083801088601,1.40868729134653,1.4092715700842,1.41059364784233,1.41090872050843,1.41286894730189,1.41454789933232,1.42657890038988,1.42910556752136,1.5200979915648,1.57327680821002,1.73302071606061,1.73378047744765,1.7339037179653,1.73402232935152,1.73502124187901,1.73680725327055,1.73672907610259,1.74296624793391,1.743084057178,1.74275173328768,1.73769704842857,1.73585411008418,1.73832821334069,1.74077731257128,1.67435230715194,1.63574162078723,1.59619763570494,1.5079007887436,1.50670874089499,1.50334604261788,1.49910969084214,1.49877482906594,1.49961678593881,1.50223671971954,1.50570815228018,1.50604126029395,1.50234790927004,1.49667334675502,1.49770731904377,1.49937343071272,1.49899562439286,1.49965073120745,1.49918756156332,1.4996994888045,1.50129444517457,1.50185663423069,1.50269958715902,1.50261052630524,1.50319038623995,1.50359420770383,1.50393490429691,1.50491259625819,1.50633395278999,1.50967067519717,1.51108043973206,1.51137705032289,1.50987997563802,1.50925328362956,1.5081833333443,1.50802444006869,1.50777523476505,1.5088164787111,1.50945411452033,1.51108793002225,1.51183663184078,1.51249812724541,1.51399533680407,1.51427017503949,1.51414387845757,1.51448127236557,1.51548446107471,1.51754455432186,1.51528504101438,1.51592015897417,1.5159549356899,1.51737031437338,1.51736955818767,1.51902778703112,1.52024186298195,1.52331720531433,1.52390496091144,1.52576091714966,1.52581763118588,1.52682518649095,1.52753323783958,1.52900264191467,1.52959873277245,1.53077039995424,1.53187918735341,1.53338063468663,1.53469436230107,1.53581135624231,1.53656716315386,1.5366655627918,1.53746220718944
1.14973073134945,1.7271855991746,1.75810334354653,1.84140999991492,1.6837908294153,0.00372773953442872,1.67972596534202,1.68239315225494,1.68094860944577,1.68133014435708,1.68227939647568,1.68108742920944,1.66621237751278,1.64890582600967,1.65866387205529,1.66856441225949,1.66395727838811,1.66049227148888,1.6333745799004,1.74270999991986,1.62370402658481,1.6539317668519,1.63441893298975,1.62065667377331,1.62743250224146,1.73505000115784,1.60978926492006,1.59957190364687,1.57962633129692,1.56524925668133,1.56710285577543,1.57033526413824,1.56873881088679,1.56827847661954,1.53850512805049,1.51612995826716,1.51240777029706,1.51095833391993,1.52656794983585,1.54268248804182,1.52117940378508,1.49390163196991,1.5049171500307,1.50519908904453,1.52526105386969,1.64313000161272,1.59280404811506,1.63895594960947,1.60304216207338,1.67232000142485,1.60180563265446,1.67332000080465,1.55411461763421,1.48261843638053,1.48352176611942,1.48351783512997,1.48232416532798,1.66112000328393,1.60952732532748,1.68910000052122,1.51031126175717,1.49759604428137,1.51092102324193,1.67087000031443,1.48932013062643,1.46842069130039,1.47199023009868,1.47249074443463,1.47033095039676,1.46925516698666,1.46506381505967,1.46429556074875,1.45519959248503,1.42517299565254,1.42778988680339,1.42619723726037,1.42770472657215,1.40380517592486,1.40521921158526,1.40565107883244,1.40648541438122,1.40659209810706,1.40801764847373,1.40812043738027,1.40960687234896,1.40677085390473,1.42910833131731,1.42994611274034,1.49441093506216,1.41804999936425,1.72964270893023,1.73026928300767,1.73043992909357,1.73030244336116,1.73082299026099,1.73088198217607,1.73332030497118,1.79549819366369,1.77350848934963,1.79320755934361,1.73475154124934,1.73103020869247,1.73484012424666,1.76184860006032,1.63564528648279,1.47900999877539,1.55269458637238,1.48208999862353,1.59520906311098,1.74148000035077,1.6592907867589,1.74094000037426,1.64974919360181,1.77425999991492,1.49856673472796,1.49205640381745,1.49241725240713,1.49353985368165,1.49605765328939,1.49618572611849,1.49789644581105,1.49720778109052,1.49786926876054,1.49607429922058,1.53457600485785,1.68832000080735,1.56388390671186,1.50091787369218,1.50268608261273,1.50167685419303,1.50297926459983,1.50261479859752,1.50359007470386,1.68887000006786,1.6005079407946,1.68985000002515,1.50748083760261,1.50640986316009,1.50637477805237,1.50470342384272,1.50602713536085,1.50584238980521,1.50783676747576,1.50829235902132,1.50961476755541,1.50805858034194,1.51144415689105,1.51133310162185,1.51275587406784,1.51244702622779,1.51410966111764,1.52292523915269,1.5119621796048,0.00339604954276747,1.51432702436344,1.51601182806906,1.51628740029189,1.51765959773623,1.5195760574179,1.52322478556741,1.52296818643223,1.5236715563492,1.52485081832645,1.52592769547089,1.52728745478007,1.52904224796753,1.52915062844591,1.52984110303348,1.53108698582775,1.53316648126099,1.53396748467698,1.53579310458655,1.53534327403213,1.53549021971721,1.53536559724847
0.352437065819883,0.396164755347107,1.46151298883983,1.63437069371388,1.63224456022988,1.63252240167085,1.67770145865946,1.68109289406709,1.67305082759016,1.66350522354137,1.65489865950748,1.65035609159777,1.64708403514189,1.64310793920834,1.63914152678638,1.63496439332468,1.63030135521363,1.62515085173832,1.61938110448938,1.61339994658175,1.60801270689244,1.60387718543057,1.60107261497775,1.59905679219687,1.59708099808481,1.59479387084478,1.5925501969183,1.59101040917298,1.57324969595203,1.56082526732074,1.55774759026273,1.55425989526899,1.54035680084999,1.5368074517532,1.53251062486345,1.51282800312813,1.51125770161789,1.51010724651034,1.50899387374468,1.50830486848374,1.50715299248189,1.5062257924094,1.50500736114272,1.50486263324196,1.51888471694514,1.54704779550629,1.5696707477525,1.60020406514918,1.59084195954919,1.57276018866483,1.55803133241977,1.54866227984921,1.5492712964121,1.51483178234391,1.48254378219723,1.48244929537576,1.48140852494444,1.60987171185377,1.58698287907261,1.5604092378841,1.51195525967395,1.51288920670517,1.51183548332379,1.51134419061396,1.48901191489251,1.48652239723439,1.48437033280623,1.47974654033716,1.47473783486358,1.47182102817159,1.4629549259362,1.46289526739396,1.45437347911046,1.42727271898626,1.42886826963631,1.42944103500315,1.43152266013082,1.40191471305233,1.40250877433694,1.40341103467645,1.40361734245021,1.40387576058662,1.40599870600072,1.40588474422727,1.47203336843832,1.49795717873344,1.52555002246113,1.55606612677548,1.58948638169723,1.6259227619736,1.72639127052188,1.7278157156874,1.72771232810389,1.72773069371346,1.72924230193037,1.73059906701495,1.73309491798616,1.73520918061781,1.71363739824535,1.70732681566733,1.70184802180641,1.68877817249654,1.67847951162262,1.63349343133414,1.59420461540833,1.55274314724365,1.57474383574092,1.59591995646175,1.61383288426407,1.63555735372719,1.61930905898597,1.60688892179977,1.58843712560256,1.5671140617535,1.49176531830979,1.49145533620785,1.49219509565291,1.49353433808695,1.49433019060779,1.49539106211492,1.49557022245285,1.49643179739594,1.49647827811,1.49616541109661,1.55031668990983,1.61667850168629,1.59136903129016,1.563760873213,1.50336993734159,1.50288261240778,1.50245958641275,1.50223431035149,1.50104679790489,1.50010938870673,1.5001974650125,1.50159080852103,1.50331118035117,1.50378485692511,1.50314682259712,1.50310585127401,1.50314689885613,1.50428674249608,1.50443796211289,1.50577752314564,1.50588587130075,1.50711467279812,1.50843320929733,1.51076920488153,1.51065150570459,1.51083328286019,1.51032795618247,1.5087040648399,1.50937603808865,1.50994013165621,1.51112365279642,1.51255378267198,1.51255843329066,1.51410304232356,1.51482416976268,1.51646615400636,1.51905615592998,1.52141379936264,1.52287268116847,1.52471094417386,1.52593659954756,1.52749287224241,1.52783728348324,1.52851966101892,1.5295577974288,1.53123290379878,1.53275621882481,1.53421626896914,1.53490277689286,1.53497135886146,1.53561618266464
0.132320895097552,0.00365083953421005,1.46151298682097,1.64190748141472,1.63634643306226,1.6389307518875,1.66825646496359,1.95531999991492,1.63877198382996,1.62471358119092,1.61630189761893,1.61109289082395,1.61159003452246,1.61084777262864,1.54655794956195,0.00353349953387644,1.52941563049449,1.5823834614248,1.58650507597976,1.59013120899752,1.58696562144856,1.58317458568656,1.57950317398506,1.57541520296361,1.5772038026437,1.57858898964869,1.58427162318257,1.59080351385137,1.5419650225828,1.50646918647156,1.52803944593218,1.54903980239113,1.50466071498516,1.46781442271015,1.46701530955158,1.46398505422314,1.48021206803519,1.48081206068826,1.49809646699565,1.50919220906347,1.50776923827413,1.50720854558749,1.50483586086201,1.47037351661285,1.47582809981272,1.47315512069453,1.53074539455336,1.69569999992288,1.55592092287361,1.52251764212852,1.53212073435733,1.54102826412953,1.54510664041469,1.54479489921106,1.4374085915574,0.00355518953393819,1.45776031146484,1.71097999991629,1.55622878283614,1.5242277052241,1.51326523568202,1.5153827351981,1.51125174118903,1.50979217767426,1.49193337517069,1.49702178291076,1.48776808886309,1.51048435829416,1.48785964144888,1.49528224209743,1.4614603662125,1.4611169708036,1.4534669574827,1.42787153513176,1.43131826068454,1.43619005356159,1.43621392222508,1.39899503218519,1.40106365327126,1.39977208782528,1.40141419144033,1.39903207531343,1.40487869742752,1.40303917151378,1.5170820875044,1.72101059866716,1.72504166855194,1.72248288461104,1.64864559666104,1.72184293972784,1.72334703018273,1.76115000152731,1.72596023443345,1.7247374952839,1.64914179206433,0.00361580953411047,1.70618098514495,1.73644717105379,1.70687412360334,1.69625149702445,1.69310968275219,1.64348896506299,1.65754795782624,1.47193999991041,1.55716581068116,1.47152999953481,1.58852660327281,1.73878999991309,1.62838143235061,1.67091371235867,1.59821303335115,1.48771229685602,1.49125780568347,1.48785188939595,1.48762865368358,1.70033999991492,1.56317544956927,1.60351990068431,1.49382500960608,1.49289016493969,1.49423395588911,1.49386276455426,1.49591822427456,1.4949539948622,1.56642807306278,1.69646000144826,1.67138996344423,1.66432994547334,1.50284589022453,1.50265599277536,1.501469854434,0.00356381953396265,1.49882052880142,1.49773966120666,1.49923909261593,1.4988993999837,1.50067533613702,1.49910151857524,1.50052619491327,1.49929693569817,1.50099206510868,1.50163200619996,1.50202886468788,1.50094076165271,1.50307559181384,1.50170264032802,1.50515514058968,1.65573999991492,1.50860757058577,1.50831631688731,1.50797843339234,1.50636647600982,1.5080588647103,1.50981675103256,1.50943400777226,1.50969332801484,1.50984718359033,1.50975873342116,1.51166396865308,1.51254633814438,1.51717709412573,1.5193382413166,1.52192963571058,1.52385602678184,1.5255274354657,1.52718999333916,1.52722279700637,1.52723903889886,1.52793206498462,1.53006307383917,1.53124651576273,1.53448188647648,1.53377271971538,1.53570562310947,1.53485855800482
0.54940484411366,0.54670269400457,1.46151298883983,1.61982706382966,1.61906289938566,1.61988408433523,1.59810009508174,1.58486012057556,1.58361309327711,1.57807657675549,1.56586043485703,1.5509198126926,1.4834391637646,1.46373732378774,1.44863530514039,1.43682163014807,1.48607843700582,1.49146749824557,1.4909997870895,1.49117899263564,1.49307935939297,1.49627077905886,1.50135575588712,1.50372090138501,1.49787824176969,1.49549760941392,1.4960472098547,1.49726030230536,1.49825766334795,1.49104808803213,1.48673710436446,1.4850682621503,1.48112874962137,1.46863980069019,1.46879465012046,1.47032597853091,1.47705691546778,1.47988659690466,1.489804714915,1.49385773442127,1.49720657603124,1.50448231818428,1.50344455437132,1.49873867204041,1.47984130393334,1.47570424609062,1.47272319065405,1.4639089099574,1.45498003992767,1.44755627322017,1.4377885869502,1.42914556263993,1.4165219259478,1.40274371049167,1.3890768846442,1.37546418976923,1.40211582680194,1.42116004192318,1.43831873665046,1.45589361553237,1.4727393022098,1.48837473524541,1.48777676245234,1.48701739963629,1.48607717383842,1.48479031673778,1.48451586582226,1.48533670272962,1.48625100901753,1.48436821835393,1.46116301738066,1.46135345292369,1.45327291437239,1.45057676123093,1.44725602783267,1.44165220068406,1.4388196129025,1.39998624355075,1.40133867398744,1.40238950080679,1.40200971839114,1.40063251019637,1.45649508721023,1.50495301851744,1.5783889359264,1.72732173190218,1.72839782210748,1.65290348533802,1.65178186056881,1.65428544776081,1.65601015380036,1.65635507343441,1.65551801264708,1.65382645693662,1.65178396008745,1.65284822135225,1.68217173721858,1.68377077727108,1.68544659045829,1.68755167362399,1.68996023496,1.68178136526781,1.67009908168397,1.65805089121389,1.64147836469334,1.62536038230176,1.59861295290273,1.59817861840109,1.59760343781392,1.58390744989642,1.56470449128808,1.48953331010533,1.49378613434629,1.49411135678845,1.4618952199047,1.25286086450561,1.25315792298709,1.25352858374778,1.25369361298269,1.49222845041418,1.49264040245794,1.49376753416484,1.49681269205425,1.49764751445405,1.58221412728037,1.68249587795913,1.67489774266888,1.57422427709509,1.50020411038596,1.49908775370382,1.4983040437297,1.49603752842818,1.49647597063629,1.49697725723421,1.49683860793259,1.49728142419552,1.49773421016619,1.49778394634998,1.49829190614461,1.49827296148071,1.4986920228211,1.499116137817,1.49903994785238,1.49937889154982,1.49986604451664,1.50116461734897,1.50262596392249,1.5036213667589,1.50542493529008,1.50568324198767,1.5058912210241,1.50632440181694,1.50654461385799,1.50702952054092,1.50674235605935,1.50675578100225,1.50663132517894,1.50759703350852,1.50834001056457,1.50974627456635,1.48247074814755,0.922565274839603,0.922616079309856,0.922647477218416,0.922616077435322,0.922565271806176,1.48443666410744,1.52570997690278,1.52581901146312,1.52696548651547,1.52873446832359,1.53046019691829,1.53141558581916,1.53201154870731,1.53362847205869
1.56324342730168,1.57889899221209,1.53478873046482,1.62425378778137,1.62174688171122,1.62466492165617,1.58444202808671,1.56078290559614,1.44181537712022,0.00351244953381656,1.42192449774866,1.53103841586876,1.45604458544974,1.39118218897709,1.38950482594093,1.38893010270338,1.4726761181396,1.48584645863438,1.48679952165811,1.48809623915812,1.49329417436003,0.00360472953407897,1.50623834914833,1.51458408138254,1.49763839644967,1.40532224126246,1.43901421710729,1.4748989804353,1.46768682925653,1.45666208532667,1.45121228135756,1.44806207594596,1.41906056242023,1.39616559356808,1.4219741028495,1.4430794817409,1.38925459910492,0.00318876957067494,1.3836375060765,1.42378999899368,1.44674349201228,1.53892187437116,1.52844348035129,1.53839149683138,1.48917179199748,1.49905259802225,1.44890480539306,1.42070205408467,1.42045293135479,1.42014205414286,1.39061612300328,1.33875173584108,1.33835989086307,1.33671917100388,1.35194116844132,1.35809897975402,1.36038601540039,1.37713405116845,1.36773663231158,0.00363485953416469,1.43396088020152,1.48889068829479,1.48794919438319,1.48712091192173,1.48304268523412,1.47894364302111,1.4706398583296,1.45476891049283,1.47106613069465,1.48069082007535,1.46144626109413,1.46212351590191,1.45362312208677,1.45469315267705,1.45029521493079,1.45401219450277,1.4403787820636,1.39868630508243,1.4018415158693,1.40447452441789,1.40360980035334,0.00357989953400837,1.49206077519865,1.75989989305438,1.74278611599741,1.75786873975808,1.72740725468061,1.45528999989227,1.54616302008802,0.00372357953441689,1.51265606105077,1.43431999864401,1.45873491972779,1.45565655196005,1.55650898546619,1.68656967768544,1.68417563056332,1.68601212803432,1.68602634603619,1.6872880748517,1.68881702838039,1.74237000238151,1.70077654117026,1.74287772204973,1.74454459531285,1.75140611654096,1.59765421016168,1.5975787923767,1.59663845145606,0.00384427953476007,1.54127274559469,1.4831909733921,1.5938497392183,1.75745000018663,1.46189521788586,0.00342160953932619,0.126242062564375,0.00361611953411136,1.25352853452648,1.49004958610448,1.49037321573019,1.4902822118019,1.49918308488194,1.50021843637338,1.59696943191453,1.6870800020837,1.66798859499015,1.49244876178045,1.4960060132533,1.49371681789542,1.49513168246035,1.49275198585596,1.4940665791179,1.49487950433251,1.49478760132623,1.49281731326806,1.49552970638171,1.49400210172666,1.49666466810475,1.49626532810223,1.49713656773858,1.49680692158953,1.49718231534529,1.49585472421626,1.49793196059575,1.49629453402191,1.50156201956647,1.50023732871268,1.50380663667377,1.50085373725095,1.50400557449817,1.69285999991492,1.50560626327268,1.50503864622214,1.50508244690193,1.50374831647023,1.50433480957211,1.50537102703759,1.50609718818385,1.50849736661329,1.48247074612869,0.00303533959133226,0.149331385513554,0.00351644953382797,0.150196599824081,0.00352016953383858,1.48443666208858,1.5241348982996,1.52335122777798,1.52447428974135,1.525530379449,1.52911099763504,1.52792501752587,1.52942156250463,1.53168221226734
1.53521578578515,1.53307616072386,1.51967098689046,1.50281597551789,1.48124482299429,1.45857008728796,1.44369567817742,1.43001604882542,1.42370377825987,1.3879559386697,1.38685781573624,1.38500526492964,1.38517917905793,1.38801279978563,1.38928291453774,1.38944380689085,1.44790953385451,1.47478080017144,1.47808836517786,1.4928689779585,1.49480387729856,1.49898969156932,1.50427940314035,1.50885327669087,1.47302769807061,1.40392087489357,1.40394554782858,1.40597742673714,1.40996976412033,1.41546495160675,1.41730123970337,1.41827737027479,1.40497077597852,1.39098832103764,1.37355013034244,1.35726103779114,1.34298629313719,1.32034964400724,1.3245218350564,1.32353502467292,1.32299598573988,1.32306854178658,1.32355896002807,1.32419191278921,1.32494246053141,1.32622348360834,1.32850972235129,1.33180576400617,1.33544353278162,1.33837016432544,1.33975663220861,1.33951692390197,1.33896161550741,1.33828009631933,1.34896173444736,1.35392363285191,1.35633631494655,1.36810554609206,1.3627935676103,1.35813680464975,1.39978015448436,1.41909533380272,1.42306523683693,1.42643232851367,1.42891621983156,1.43088196543944,1.43329443407546,1.43714321872413,1.44084100452452,1.44613666864886,1.45192776009125,1.45739320165425,1.45309127794082,1.45138736519715,1.44815336250757,1.44270960599801,1.4418166630192,1.44369486827258,1.4453042458917,1.45052637983985,1.48017869899578,1.49508954083253,1.5351556965616,1.72901223452897,1.73708684085147,1.74275772664104,1.72179928930312,1.62495133832247,1.59682586882847,1.57345411655862,1.54776053446216,1.52634216700443,1.45851893150939,1.45656234360375,1.52309351680545,1.56190772146587,1.60058844939809,1.63431086304595,0.93437905029552,0.934429857449641,0.93446125969941,0.934429864257525,0.934379061312246,1.74320744606314,1.74605443267865,1.74889573929337,1.59655561332789,1.59611403345157,1.59553276544098,1.60721236078667,1.62165357874172,1.63534833416072,1.65582866522042,1.6692937204112,1.46189521990475,0.218827187783352,0.172678015875605,0.126259431442029,1.25315783471713,1.48674003595284,1.48777701507087,1.48746654863567,1.54258252379725,1.57435208897874,1.613087438673,1.65524031838752,1.65908077365119,1.59310311913452,1.56939464879795,1.54544819935775,1.52554331279596,1.49071159309101,1.49175133381825,1.49224972981736,1.49318966739818,1.4938342227294,1.49578997257345,1.49633859205349,1.49731778029659,1.49715689590038,1.49717365319618,1.49687580846523,1.49797421501145,1.49797421299259,1.49797421501145,1.50102526719524,1.50265643632019,1.50385043108006,1.504817533197,1.50450255333313,0.939549830850618,0.939600612989724,0.939631974777223,0.939600538873067,0.939549710912774,1.50206663952652,1.50187438119729,1.50242825575274,1.50275225323434,1.50409613532875,1.48247074814755,0.922187527809216,0.922238332271775,0.922269730167891,0.922238330372353,0.922187524735512,1.48443666410744,1.51680179232506,1.51880099527717,1.51990454981211,1.52171547482628,1.52237022292731,1.52424152689173,1.52536730354743,1.52355054847343
1.53241475743045,1.53262941646156,1.51441624535553,0.00318125957168607,1.46753527934289,1.44432159754408,1.43382437611671,1.39196465404085,1.39092761034548,1.38954187659441,1.38840513822864,0.00317303957279277,1.3846904478893,1.42422916347248,1.39099964007268,1.39161542376041,1.43222101134025,1.47058130014934,1.47507584654377,1.63111000135468,1.5652412876045,1.65438000093115,1.57412929818109,1.6558600004432,1.45062216756466,1.37160878405264,1.37121737468698,1.35567838777201,1.38986081821158,1.42000533782564,1.41891910004958,1.41991216880921,1.37311540521961,1.32916582706905,1.32747747287625,1.31979871666332,1.31934135933424,1.31962396800972,1.30903168835059,1.2949490209354,1.29635559611636,1.29476371118732,1.292871995628,1.27480728117548,1.28475586903548,1.2827718085262,1.29427220542812,1.29679886335396,1.29802019755463,1.29944224709704,1.30642195368719,1.31164201769286,1.31492174701868,1.31398288061236,1.32203718317239,1.32263242631603,1.34035043726044,1.40567621938249,1.35808612017032,1.35173332028421,1.37699999029857,1.41499694403827,1.41522079693381,1.41592115292295,1.39110023055895,1.36800948655281,1.41091207637072,1.43881395900159,1.43916288832032,1.44013411810332,1.44855551135657,1.49667727801174,1.44333936512558,1.43213991395151,1.43380672311412,1.43571628333044,1.44224679218211,1.44549168231093,1.44988314459737,1.69397999991492,1.50144945851681,1.69507937404485,1.69221246311551,1.69733367048959,1.72928652136497,1.77837000054815,1.71376159544822,1.70498704589985,1.62947012791791,1.75987999991492,1.62512196624359,1.75828999991492,1.45670442765451,1.45345413396881,1.45522542244576,1.43399316237732,1.56604131645543,1.76798999991492,0.254338567161201,0.003358251523145,0.00338615205391472,0.00337512278197974,0.202469652228144,1.75448449062668,1.74970604498813,1.750833783829,1.58342056924119,1.49783218283375,1.56806207739427,1.7474000000111,1.65559363499817,1.7461300005587,1.66928528232942,1.74553000111485,1.52456002718098,1.73773999991492,0.218824571295052,0.0033271495520439,1.25286075485851,1.48205180921996,1.48583347203437,1.48391518989197,1.56733003446988,1.71662000036959,1.62140526741833,1.65265169273187,1.65459782479452,1.65277757000128,1.61125624236697,1.65226000143027,1.54702205989991,1.48745400777293,1.48934019988646,1.48841979653577,1.49142223956499,1.49211052447938,1.54958877823109,1.70217999991236,1.5820269965855,1.65850000068837,1.57289633457838,1.65550000031995,1.12976529173428,0.00341088954076949,1.11897342357471,1.69282999991562,1.59634100610306,1.68639000014459,1.59772368905986,1.69390999991578,0.194262409715431,0.00370022176744247,0.00327992344571821,0.00353029115350351,0.79271517485021,1.50121482604666,1.49994587900627,1.50076479324501,1.49969862160165,1.50227672466053,1.50055151279257,1.50369097312566,1.50396594122675,1.50729803646423,1.50792746689712,1.51244614259778,1.51140359362037,1.51430179319929,1.51481578873775,1.5155250679678,1.51741291198258,1.51871281500166,1.51911649409953,1.51710037667284,1.51922900012755
1.51642436311741,1.50792913653063,1.50511061515653,1.48339236188664,1.47729027396031,1.46789819576824,1.4153721420378,1.39175009320674,1.39114482642757,1.39004667900184,1.38893689910093,1.387612547874,1.38614551310328,1.38955080773954,1.39268747437591,1.40033043470251,1.42225775226397,1.44158817015024,1.45664240323033,1.4887104733749,1.53061544161934,1.56571326984597,1.51318126543146,1.4691171872106,1.42622087846923,1.37451284387742,1.36887116625944,1.36399010419342,1.36709156509531,1.36920580922481,1.36096739386103,1.35279635947743,1.34347774477487,1.32819415923979,1.32685136756021,1.32400050238003,1.31586995858256,1.31148624563276,1.30602770579469,1.29983767147395,1.29937527607411,1.29542398950751,1.29301879963371,1.29226488774472,1.2867153238788,1.28690580869204,1.29069999784582,1.29416602539453,1.29749030932333,1.29997003878431,1.30338035661852,1.31557428623803,1.31755702921314,1.31888249612068,1.32242777768805,1.32395543619438,1.32907012700932,1.33546752512396,1.34097936057761,1.34645487358606,1.351145427457,1.35609615843493,1.36134022118357,1.36478305348964,1.36993541033848,1.37487756165585,1.37909718880698,1.38466508486991,1.39255240974506,1.40144569457092,1.41015591104094,1.41725716852139,1.42239782910334,1.4260184860649,1.4290880194929,1.43241353691759,1.44575790666196,1.45040504988146,1.45832396573291,1.47029135699358,1.47526249973338,1.68901416041301,1.68828866456485,1.68988409950754,1.53130236246539,1.52331249671054,1.51035285065206,1.49445382611569,1.48537019712911,1.48276012172415,1.47862800952128,1.47387703159595,1.456314847626,1.45503217147269,1.45532331683262,1.45467180068564,1.53045170145605,1.62024379530786,0.20819778433033,0.00346407698289615,0.00352456079539838,0.00349717582782433,0.155270569533024,0.202422678882044,0.307082363090466,1.5494430704692,1.53822130134173,1.52009728712211,1.546865176475,1.57461339300122,1.59256406240293,1.62247290267128,1.52634817787207,1.52455247506659,1.51787564070125,1.49877843898873,1.46159027423682,1.46159027221794,1.46159027423678,1.4776431608534,1.49555072362861,1.55212106646222,1.59120808125105,1.63228982654753,1.6162898501001,1.61438492906531,1.61118943807221,1.6098494712284,1.61040147024387,1.60981265159688,1.60917510792066,1.61193901030794,1.61376109352369,1.61356413963469,1.61110511130847,1.607087567793,1.60489084619638,1.6040861698881,1.50900173139686,1.46534044285047,1.46534037589764,1.46534031298263,1.12864507130708,0.166920756975911,1.11926522402772,1.1186645380541,1.11860787478633,0.27802349226037,0.232061256273631,0.186264455054005,0.14060782173238,0.00318198940879517,0.00322156247188115,0.00322819075129257,0.793017913099289,1.4985018104574,1.49735924107669,1.49622836281642,1.49531174535964,1.49665575259652,1.49731027835737,1.49981280953395,1.50155734246964,1.50426542482732,1.5052925733237,1.50736825514982,1.50807104109871,1.50968892561086,1.51117469402856,1.51232852988566,1.51456582555854,1.51712766978398,1.51806880605469,1.51741322583195,1.5182467610749
1.43363049497545,1.50241275208413,1.50289701630953,1.48720656149345,1.48569392475964,1.49276125479201,1.39611784596379,1.36029307053054,1.35993320153779,1.34589895361397,1.36292064949077,1.50405999991492,1.38284611369319,1.38003814229966,1.39107582989408,1.41200283410698,1.3914773256263,0.00337887954507918,1.3472829365144,1.34911600913257,1.43900862345455,1.65375000038835,1.44152211043877,1.38002331246015,1.37809407470613,1.37618779162861,1.35157240024358,1.33833135850263,1.35848551363299,1.38796061578145,1.33695507489889,1.29820534852173,1.29917999833578,1.29921936793409,1.31297672784772,1.37465847015073,1.31044962146855,1.2668902701081,1.28762657670472,1.26647162452418,1.30732156320613,1.31428373975629,1.31418899448657,1.31393191411475,1.28776745069279,1.28666679703251,1.28720285826887,1.28534959857867,1.28204598459274,1.25138913326351,1.29119647895809,1.31619969027046,1.31833078097174,1.31927234849169,1.30305903738326,1.28964622018826,1.29555567692241,1.2994752272107,1.30070282946817,1.30206712447796,1.31607499244166,1.31310489898994,1.3356782749364,1.34816130831192,1.3670588627697,1.41762022476391,1.37756477427608,1.34759187074161,1.34095414541537,1.33783997529006,1.37029800328018,1.382284452926,1.38185466432504,1.38344295521683,1.4164948455833,0.00345298953510127,1.46765319463589,1.67189999991492,1.37410214945455,0.00362920953414858,1.36013183840417,1.79383999991492,1.7256000485655,1.73221014249134,1.44259227208094,0.00348147953372865,1.45729683486339,1.48035463016741,1.45101260118662,1.4173133576956,1.44643156534193,1.46929106573537,1.45560190331808,1.45458703722706,1.45434671239758,1.45223195356908,1.49186496552454,1.71307999991504,0.162057001514096,0.00369934786593366,0.00351812979321452,0.00372805060866873,0.00346140364987436,0.00341674612303847,0.26149750162574,1.5668792047518,1.52733984062224,1.50030761445786,1.50588747112277,1.50222091272912,1.57038990182211,1.66217856295191,1.51501765244744,0.00346562953368347,1.46266985649196,1.4702682809295,1.46780881481459,1.47039575876134,1.47167777096215,1.47263755962309,1.49367734551307,1.69030000062934,1.61456193893768,1.68710000190882,1.58404783809958,1.47455043874099,1.49532233843279,1.47409086021166,1.52854787433217,1.47521999874897,1.60646899187355,1.6853994168483,1.67329552691245,1.67974957958386,1.62156865942277,1.60534112725485,1.60477848582328,1.6048415511491,1.50451358243645,0.00345439953491136,1.19541012179777,1.67471999991492,1.12664535666817,0.00356096953395455,1.12041273142122,1.47664999991492,1.11911340380372,0.00360033953406649,0.121822488857304,0.00372826949522224,0.0950557733515991,0.00323870598517069,0.00313025673767991,0.00354618386449418,0.793429878528203,1.49797370937555,1.49591418668151,1.49453583557621,1.49055370567632,1.49500813047576,1.4937845537514,1.49827562747836,1.49915213459922,1.50347904531762,1.50242679815297,1.50451392062021,1.50427586970703,1.50598974700311,1.5073048292729,1.50883288673534,1.51034168804372,1.71696999991492,1.51775114056188,1.51673731347133,1.51715379917831
1.3559995630906,1.35396658587606,1.35373917301954,1.35456541401116,1.35419205448682,1.35490263282715,1.35466084788914,1.3560497953946,1.35620829179123,1.34996513949614,1.34644879086999,1.34294016211236,1.34038482675971,1.33879099260602,1.33777536940231,1.33732346139642,1.33799626596739,1.34117757179373,1.34503201175644,1.3487767883707,1.35201088459878,1.3551557447829,1.35835610524215,1.36210726705959,1.36644986655835,1.37166106502576,1.34575924781564,1.33546280381449,1.32517386053691,1.3206772274418,1.31277974407483,1.2990350083547,1.30014968913274,1.30209232982956,1.3060231004663,1.3078939273902,1.30764142037328,1.30554829502756,1.30478288345666,1.30626981896596,1.30902490481846,1.31271685463361,1.31444564294361,1.31479593696398,1.28856679431775,1.28762636187931,1.28621206942888,1.28317905039194,1.27949869712512,1.27549112478648,1.28624394061418,1.29731486568164,1.2965462045175,1.29560604559769,1.29450939672946,1.29340756181622,1.29565920463715,1.29855524343871,1.30019574761772,1.31432368534355,1.31797871467182,1.32091490944416,1.32576637316453,1.3260631597077,1.32713650447333,1.3288298967412,1.33018312229681,1.33298454124754,1.33693142002076,1.33794165013482,1.36235413427947,1.36971264786558,1.37896544085075,1.40708780201449,1.42985785877086,1.45627928381074,1.47640972578413,1.49035325102045,1.37347926195855,0.175316959419093,1.36060556588687,1.40644357621003,1.40390333194975,1.40142454778799,1.39798173527854,1.39380781680378,1.39173503443497,1.39244455434571,0.663693071500165,0.40928499087046,0.365915378938397,0.325249050258732,0.287152626433231,0.251431423389392,0.217852476464298,0.186141753212607,0.155989634386918,0.127087399310124,0.0990558752967881,0.00348154433112302,0.00352584630551359,0.0034235465019736,0.0034584297353789,0.00336280917872812,0.21646023420741,1.52340063198351,1.52233619559252,1.52002060665655,1.51395073396265,1.50900567146372,1.49374212844626,1.49020434023115,1.48475567310759,1.45567481302833,1.4589115346995,1.46267239143109,1.46429568354257,1.46594396637132,1.49366852503253,1.49142163871262,1.49088609706176,1.48881233410853,1.48825952503845,1.48772172712076,1.48849619763407,1.49097774278163,1.49404609332924,1.49512026605696,1.55110492353955,1.58391601816998,1.61557940101303,1.65525547393472,1.65070604729551,1.64896669331094,1.63928381198818,1.63220154246917,1.62592448977794,1.61795585252739,1.49534412312346,1.19541012179671,1.19541012183509,1.12384804650082,1.12422534378216,1.12290186879444,1.12145309259806,1.12080762890206,1.11995074553677,0.278895534748218,0.232863670274133,0.186932417038876,0.141085809251897,0.095190714715472,0.151599787030107,0.198272881662146,0.793765700163018,0.793874789088924,1.32997503524666,1.48520628923039,1.48269386200782,1.48587117470587,1.48811161553863,1.49263511069726,1.4945303894548,1.49795263192087,1.49744352724699,1.49994623975164,1.4998488743314,1.50285187675342,1.50409857523692,1.50674590352279,1.50733037336073,1.50862100191214,1.50974686831326,1.51218123634122,1.51485980989433
1.35637984334027,1.35421488808524,1.35548689981026,1.35883278194286,1.35652395645754,1.35868850911955,1.35520236937006,1.35289330696233,1.34267094114417,1.31283320981208,1.31187702949371,1.31071792379992,1.30786683133994,1.30282022696283,1.31349180935077,1.31498656177068,1.33302616449205,1.85857999991492,1.34279577875692,1.34043072210233,1.33576841525952,1.33130896974596,1.3228933518748,1.30327863059322,1.34080327802302,1.38238751744137,1.32534950255254,1.26835839587166,1.27520226866707,1.27029079016713,1.27282442199919,0.00330569955493189,1.27293446166937,1.26879577177993,1.26375889836712,1.25200458122861,1.28308232317266,1.34075435950959,1.32019121417669,1.36462128796712,1.36515441951849,1.36749049532198,1.3447247673815,1.37044697257812,1.27431493693449,1.26279400139977,1.2752990515252,1.28174684591183,1.27720196671578,1.27128255129044,1.28015350176424,1.29827376167644,1.29684250018506,1.29580300685018,1.28666186303242,1.25551550208716,1.25645496777054,1.25789411699734,1.28767989005086,1.31997100403813,1.31941994071507,1.33073760400736,1.32675160845628,1.32440919594065,1.32706374806604,1.32988692140141,1.31963047168166,0.00330007955568855,1.33726245195721,1.33901663535775,1.34665289634371,1.3401183145383,1.3751252113365,1.54772955647041,1.53301538053736,1.54130982894088,1.52765336048734,1.54290991143296,1.37254326765623,0.00335362954847876,1.36107925961571,1.41051759220894,1.40652702060821,1.40645330450864,1.40064460407372,1.40079486180078,1.39589306468718,1.39957794583114,0.662479575240178,0.00283150155817496,0.00175150057499374,0.00234548436879772,0.0017863351352649,0.00297723770819722,0.0436969929874834,0.00359363822330864,0.0376827412194259,0.0033140183101291,0.0353101897004447,0.0035993527586728,0.00339356234270272,0.00347993812073746,0.00335358624963217,0.00344292276908657,0.171944715137459,1.52455676607847,1.52330131823925,1.52275666525422,1.51918996201093,1.70686999991248,1.48904087416405,1.45607660336689,1.45473305825979,1.45555522866301,1.457290263408,1.46160024451625,1.46179235784081,1.46385349637375,1.52955437727276,1.64506000139033,1.55226053488753,1.46438140405253,1.48931793566742,1.46253268422226,1.48843270610065,1.64369999998323,1.52556883432488,1.46881999849261,1.57216536335576,1.66445792374438,1.65658978335418,1.66114793848559,1.64896485041461,1.64806894413767,1.64767450387151,1.64771763344163,1.63345554292826,1.648452025108,1.48248526470026,1.47390615498467,1.19541012179671,0.00331657955346702,1.1236412064938,1.46966291552892,1.46965216155477,1.46938967686386,1.47161703909654,1.64977000126544,1.62869984231828,1.64726000138203,0.203463976289613,0.00326329953280356,0.206410509879183,1.60714999991492,0.793874789088924,0.00337298954587219,1.33021710758648,1.62878999991492,1.47570822333463,0.00354254953390222,1.48252783190116,1.61891999991492,1.49027864274221,0.00334019955028693,1.49182959056301,1.67929999991492,1.49434198802407,0.0032269095655399,1.49970443769667,1.67479999991492,1.503273657959,1.50160093783825,1.50145471908159,1.50063488919275,1.49977281761856
1.35249481854426,1.35458475944165,1.35559959725363,1.35709529316804,1.35608128499624,1.35595008049965,1.35439770277574,1.35375596636629,1.32922711456469,1.31282973405577,1.31063344075923,1.30895797729681,1.30812508987488,1.30717992726328,1.31046069276165,1.31545979203721,1.31572882246443,1.31622205968382,1.3177078362799,1.32025638860634,1.32350799793844,1.32730182934611,1.31264782507791,1.30179921014263,1.30144927248942,1.30174044943908,1.30144362102935,1.2921914139846,1.28234685766315,1.2773342777572,1.27562102014246,1.27607434137719,1.27566172845714,1.2728955975815,1.25898846727779,1.25488674256277,1.27516237546974,1.29052313714667,1.30279446763765,1.36365682938092,1.36500959637538,1.36499123431176,1.31474570609463,1.29155713660554,1.27332668564853,1.2684855240274,1.27209011469929,1.27323539295874,1.27291378698636,1.27186296065607,1.2706822863737,1.26882825897674,1.26624211488861,1.26329502978769,1.26035763114403,1.25621677495852,1.25571048359332,1.25706830603771,1.27779467058714,1.29157062174855,1.3062284168045,1.32807076019389,1.32581522803676,1.32372558951819,1.32085440469091,1.31692918857479,1.31174899533724,1.3062432252407,1.32707296184172,1.34846724122911,1.35276944203161,1.36226721964748,1.37171376916529,1.51875317207788,1.52019610191668,1.52218999326725,1.51652575485816,1.50840302311953,1.37175749661288,1.37147410836543,1.37168285577482,1.37152101097296,1.36856767188712,1.2203340450103,1.21997984114639,1.2193623058571,1.21867944304426,1.21833598350131,0.660796456302861,0.00171705788630741,0,0,0,0.00203081099630954,0.0417042076653832,0.0397909990091361,0.0383675945616858,0.0379874116133826,0.0374725371268286,0.0394660738478179,0.0406792861031384,0.0410972318501533,0.0420554540461852,0.0442637066498026,0.127907244248335,0.169888361442138,0.212465732491907,0.255792730805248,0.299989099485018,0.345135816880395,0.624068949183298,1.45436661084943,1.45388015816291,1.45417910154981,1.45508383431515,1.45778461059332,1.45799720838765,1.52773345922046,1.55846021964994,1.59588508034817,1.57321649412251,1.54648456778317,1.51169437729107,1.49193976574432,1.4906700735056,1.53085199918971,1.53157022349596,1.57183125219009,1.59432599185382,1.64647167028083,1.64719523035495,1.64634679896568,1.64719000687008,1.64783157975067,1.64820654124625,1.64913787716477,1.58727215198612,1.54817227707574,1.47649496657794,1.47769595934937,1.48038395906809,1.48112208145365,1.47853267357235,1.47291926466224,1.47070567327966,1.47120517502505,1.47245464851554,1.60457547505503,1.6043787671628,1.60458075155621,1.33203780275706,1.33093600613042,1.32908778880243,1.32709214028091,1.3255307192512,1.3258156850334,1.33056410233448,1.479965344603,1.47730795126216,1.47818894031418,1.48262123132799,1.48547097037087,1.48771413131638,1.4885319816289,1.48953393255836,1.49027449439599,1.49203479015057,1.49370845148502,1.49615469540348,1.49701102606348,1.49894228416167,1.49968945690277,1.49992801213656,1.49977165282086,1.4993128265267
1.34461478764322,1.34374018857245,1.34568024541172,1.54313999991492,1.38902232445603,1.41015304711861,1.39724335417511,1.41124340092199,1.31692992718325,1.30395424901148,1.3052489344146,1.30527555275292,1.30681919905515,1.30674692090591,1.30900381283982,1.93944999991492,1.30620637799337,1.28776377632429,1.28563012002831,1.27480711433656,1.30882767676932,1.34457986070353,1.30395601545296,1.25983226895365,1.28342135380676,1.25734398036552,1.2998965181649,1.30029427781527,1.29125098264487,1.27837489616982,1.27622356737811,1.28948340048943,1.28439435380005,1.2919019933486,1.25891755294809,1.22427307283064,1.22376913345324,1.22438685199245,1.28034434421925,1.373530648347,1.37080189108088,1.3751778604051,1.28685015421783,1.22994796660553,1.21583928119187,1.19674575218345,1.19650396952897,1.19824308901762,1.22077306495029,1.23213906327709,1.23593899852255,1.25565943601254,1.2602107056258,1.26372547417537,1.25968361482634,1.24820851966261,1.25225764025016,1.24194703998196,1.25998300613991,1.24255715427852,1.28207293759088,1.33892229680782,1.30505920289812,1.28453612008798,1.28501542629729,1.285448056456,1.29108465089249,1.29997207231011,1.316035379618,1.36763501596065,1.35953765002291,1.3705507040379,1.37024969121343,1.51898702764074,1.52126706254146,1.52602024177873,1.50826618293134,1.48250329819155,1.421924374304,1.48441000130151,1.40361312970212,1.47072000099656,1.36008618129879,0.00338023954489608,0.170750793274911,0.00349016953375325,1.21853436872624,1.48916999991492,0.659631648140298,0.00232056020682851,0,1.67493999991492,0.0341849722429561,0.00304989060642372,0.0412152145284319,1.47347999991492,0.433562389436482,1.46890999991492,0.968093352892834,1.48478999991492,0.37710728953144,1.57378999991492,0.159153540502852,0.00387202843376956,0.0884500775946719,0.00327695909789394,0.0893562591724503,0.00370065911455869,0.0946790442158088,0.00337690949312759,0.621613403664982,1.52971804323138,1.50092479210949,1.66742999990687,1.45321682992313,1.45293425091259,1.45507612147541,1.68462999991598,1.58686272891325,1.64812000288594,1.5971644916987,1.64896000133214,1.53612407508581,1.45559179662308,1.49196527980425,1.45539092394532,1.54118209533873,1.66115000137327,1.62332874526721,1.64785288708074,1.64658663200642,1.64594144115638,1.64675396726102,1.64945641349568,1.64893282811815,1.65228349691379,1.56250306926248,1.46274841575296,1.46911204593401,1.65102999991492,1.47467690211144,1.47312816987308,1.47337207484922,1.47058726946232,1.47059197216525,1.4717454493923,1.47313440925224,1.60939159694811,1.60830315953639,1.60914786694671,1.61318543729152,1.6366600006485,1.61201566025766,1.60661084688186,1.3242103319166,1.60178999991492,1.33081284788348,1.48700441242744,1.4808112010759,1.48385191929851,1.48356556851662,1.48943644832915,1.48790789430252,1.49105993626035,1.48969637029164,1.49218216240337,1.49205864091788,1.49475775087119,1.49509831929887,1.49594789926135,1.497390662791,1.49754935438833,1.4987434865812,1.49917483398778,1.49938376291674
1.32839386122628,1.32721432245647,1.32286625212176,1.32059514842967,1.32033421058372,1.32218233782839,1.31049874637922,1.30704085555571,1.30465963210402,1.30271468804257,1.30285966948802,1.30027966472591,1.29685779015883,1.29450244799673,1.29256950628166,1.29089697261489,1.28920592868008,1.28677744235163,1.2834481377477,1.27928803449065,1.28361263862512,1.28470373632025,1.28471947822034,1.28627726666569,1.28900831248061,1.29277412521654,1.29703754378088,1.29813989083191,1.29668670738564,1.27244926702492,1.26711642027575,1.26285878066061,1.25957901660174,1.2593396416462,1.25816708047898,1.23350833201639,1.22383737873728,1.22717522021783,1.2332384472486,1.23816314848573,1.23727238153543,1.23551151393807,1.22286887555619,1.21108913946742,1.20655143210957,1.19479637462055,1.19530988636064,1.19629068552988,1.21256764680798,1.22500589271917,1.23211203532037,1.24265376973117,1.25233366756071,1.25506880880298,1.25630521142004,1.25595463483474,1.25776049458624,1.26048246979363,1.26238698988055,1.26293024779876,1.26285258036049,1.26306283422198,1.26367384915146,1.26395536964603,1.26298934093279,1.26001735611602,1.25489934134671,1.24890970781557,1.24365774759165,0.866158107669192,0.865751688569601,0.865100892352891,0.864362650056812,0.863574255877129,0.862806518441697,1.31400699573136,1.31481792707918,1.31912920009601,1.3233586092863,1.3276423227059,1.33114731135847,1.33712064532287,1.34648394706688,1.22021415690582,1.21987225024287,1.21927886459824,1.21863029391528,1.21827856974954,0.659631475527935,0.00135090945305046,0,0.0344265478235575,0.0354870456805443,0.038362652598293,0.0404723036344208,0.214838037317382,0.390117473510932,0.968093352892834,0.968218593538326,0.377107289531445,0.333165229125573,0.293566072476142,0.255948506519463,0.221915664524675,0.189346748570916,0.157900107788783,0.127204830444655,0.0897462078066025,0.140104339392925,0.186124677837866,0.61847548147892,0.617562751461299,0.618242715224232,0.619259805992244,1.02616323961266,1.45381211726848,1.4540855304851,1.50196746618977,1.52320412324693,1.54387225135245,1.56715136057636,1.58634129898707,1.55760078773235,1.50708128129557,1.5238140960152,1.54052876038878,1.55611111393149,1.57233858859068,1.58515736471917,1.59298615350573,1.59678885596568,1.60714705871177,1.64561243622301,1.64526170849329,1.64601616510021,1.57002290754908,1.54076174469961,1.46422983419613,1.46665626924397,1.46758565338744,1.47066333823268,1.47037204763108,1.47024733832611,1.4692956175573,1.46966205172776,1.47172195280695,1.47305168712705,1.61253909648527,1.61236010299423,1.61315368039046,1.61556011749039,1.61675482830753,1.61479023079326,1.6121081839913,1.32412722148251,1.32497289722825,1.32577717760215,1.47772752770313,1.47885347615354,1.48039932462056,1.48240069641803,1.48521297769974,1.4867540856634,1.48834117284753,1.4891470148108,1.49051494546534,1.49157936614669,1.49299660424595,1.49433428814582,1.49566010825055,1.49683740688158,1.49769307812151,1.49845775674912,1.4992038431075,1.49964702406831
1.32842243999512,1.33221105502715,1.31782636270109,1.30753314305743,1.3147009848504,1.32548125076468,1.30712823507619,1.29117270753794,1.28702909304016,1.27784348599708,1.28625502159319,1.29480327506166,1.29542029795945,1.29496534795604,1.28581196305924,1.27559293809817,1.27586594225036,1.27537509599208,1.27887580788138,1.27914048850449,1.28023060522885,1.26134613751881,1.28405811224303,1.33911813532671,1.3362916687756,1.33878623650187,1.3273600696664,1.33517284107843,1.3048080592213,0.00352146953384224,1.26433874031389,1.25848840689729,1.25708978639107,1.25263529190585,1.25501005401954,1.25339806284957,1.21710098014293,1.20323489076226,1.21773195507921,1.24110882286727,1.23557222183243,1.23175696061599,1.21877837861373,1.18965986171156,1.20210071782743,1.19316890604133,1.1945754301375,1.19607154696558,1.20459979942929,1.19700347756602,1.19972208976876,1.19855848771999,1.20695958602584,1.21093584873319,1.28155572354585,1.43083999991492,1.33648191728329,1.33846853491812,1.30443109426669,1.32749810663188,1.16346600966442,0.00335545954823237,1.21780493342089,1.24181977052357,1.23971199484678,1.24092910353117,1.24001817462438,1.24082547565176,1.24050985908918,0.00367345953427439,0.136563855692281,0.00362538952664761,0.095724512233553,0.00335058954579637,0.862418045943531,1.31846472193502,1.31740108631477,1.32232830445886,1.32641335874141,1.33128724558449,1.3318172180543,1.33474142111528,1.34068908133696,1.33996650118027,1.3392855695647,1.34020228435272,1.3425144243266,1.55911999991492,0.660794557189109,0.00267992422435986,0.00197279091246736,0.00320431559087786,0.143182104548874,1.65495999991492,0.0409750968964729,0.00350834883798856,0.349307042475838,1.65985999991492,0.968538507486352,0.00366652953425469,0.142253853133835,0.00343186953794479,0.300273371854043,1.71812999991492,1.53968370252222,1.5375083127037,0.1721778796627,0.00340544930035599,0.185762452409103,1.53666999991492,0.617565478971264,0.00358142953401272,0.11188800672145,0.00360468953407886,1.02583851409093,1.68395999991458,1.45302040009298,1.45126276815306,1.45645664995083,1.45313697442609,1.50677065413625,1.6160566658728,1.58010684388366,0.00370751953437123,1.549940375221,1.65465455028961,1.57879327498038,1.45179999946609,1.5289066689244,1.45008999935803,1.53426306826782,1.46038999930862,1.64413840107775,1.64171234114593,1.64406492710689,1.45690999884999,1.51710193075015,1.46200085079989,1.46527297460816,1.46631283300047,1.47249785686726,1.47065868348342,1.47129577037077,1.46800298533833,1.46916592511287,1.47137094018606,1.47241615717859,1.63265000097189,1.53362271031188,1.47595979408622,1.47708607031524,1.47594803861222,1.52462032017372,1.61980000077561,1.31724407711418,0.00347906953372169,1.03608054052591,1.47878863122722,1.47845015892183,1.47987302901257,1.4811911390127,1.48640325760091,1.48549420889756,1.49018626601569,1.4883695446281,1.49180589322025,1.49188974736977,1.49253638920858,1.49406373400333,1.49586143681578,1.49705036864828,1.49847061150244,1.49877858035845,1.49983059806868,1.50056369026368
1.32005072371909,1.31542532894898,1.31147873155247,1.30735725144263,1.30346490960655,1.29881238855122,1.29453185178452,1.29220663072767,1.28451976986052,1.28002487447237,1.27867681268053,1.27784245518701,1.27832039481243,1.27921213401943,1.27906507501306,1.27722553218018,1.2764206287404,1.27600797448219,1.27680715815352,1.27858918775714,1.28093410138352,1.28362944298843,1.28431386981907,1.3105453563758,1.31258011237256,1.31574774124245,1.31804972157622,1.31849290260576,1.30936312873098,1.30093297459831,1.28991002309143,1.27952859751338,1.25464144260848,1.25441375213267,1.23785322684795,1.22799379874524,1.21471679671681,1.2031169859017,1.2043484823425,1.20696705526117,1.20990705020147,1.21180351014166,1.21427578005424,1.2150429669695,1.21605775084979,1.21685148161424,1.21685699534922,1.21512177858046,1.21108826618231,1.20614374818761,1.20198978239845,1.20213333650076,1.20465818037398,1.20699644646334,1.28538582641096,1.33480200693937,1.33410665151708,1.17350007569913,1.1722169529873,1.16927343996012,1.16517801080414,1.16431011877718,1.21780493372567,1.21780493342089,1.23794551928134,1.23858507651611,1.23875318593852,1.23878020527328,1.23872716463509,0.279885720303712,0.233794003291507,0.187746027064724,0.141731514028212,0.0956025453849566,0.862861359594228,1.31539036524192,1.31621194426293,1.32086605048286,1.32641958922796,1.3331627744529,1.33921993450793,1.34398285853007,1.34706377073493,1.34865269663423,1.34889218378198,1.34782530766036,1.34674264802857,1.34903074112708,0.66247370499942,0.30764550174306,0.26232084463087,0.217804737619502,0.174077806236395,0.136762803543709,0.0405247083759421,0.0398836358557496,0.310972755295996,0.969344018709079,0.968819506273683,0.968526751756774,0.968691774667178,0.969324498410006,0.969905591285158,1.54738725748224,1.54372408372359,1.53971920214098,0.217531110961721,0.128508484780851,0.231564013105961,0.619268680254738,0.618248865220879,0.204169569228169,0.158028787973446,0.111888006720718,1.02538273874682,1.44844431293822,1.45074290417783,1.45535941950706,1.46119175232507,1.46673683032841,1.47891258150752,1.62864882862812,1.64036910796324,1.64736884754395,1.65255260287834,1.65465814006411,1.63828715294528,1.64106702961494,1.64477521460522,1.64667492530067,1.64897860804978,1.64875651229536,1.64524221855876,1.64367050260339,1.64421075973244,1.58013786861936,1.55878744355385,1.53493260478432,1.51114341448668,1.49615134184079,1.4814294682247,1.47944453376788,1.47563716798355,1.46885421855512,1.46773229531246,1.46926021624238,1.47072932787564,1.53395305689316,1.51213432502987,1.47637810064134,1.4770628462439,1.47626856668629,1.51048990575195,1.53629168165523,1.31651827359644,1.03608054052794,1.03647916656988,1.03740525997337,1.03783598095645,1.47885934074974,1.4798119916093,1.48112195624852,1.48302197440624,1.48496039315703,1.48582908387315,1.48847240509201,1.49616703547251,1.45330597056295,1.45330596751111,1.453305968497,1.5018229205392,1.49822867437842,1.49895136412793,1.50026005866771,1.50234478495595
1.30410333454015,1.28186568622915,1.28652491714379,1.29134512601317,1.29303569478041,1.29494476356046,1.29396585062163,1.32638493333581,1.27168019611153,1.25373077639767,1.25252071475791,1.25098093647929,1.24756990919508,1.24047506885983,1.2419673918574,1.2408706115102,1.2421659554564,1.24108804529961,1.24663370149275,1.25109048725001,1.2586986770974,1.28522571753916,1.28491382988807,1.31004026395014,1.31298567010561,1.31740173463543,1.3181435912182,1.31925397885885,1.3143143335181,1.3193192625136,1.29950648310811,1.31989798666419,1.25475633148245,1.2571379260069,1.22028487988179,1.20060531467537,1.19756886943292,1.19203506159385,1.19315063885549,1.19431688465969,1.21107568193639,1.20976330057963,1.21357064251232,1.21355522294069,1.21709170856027,1.22285941743655,1.22507455611244,1.22505028943041,1.23074984262567,1.26852320363013,1.28153950290003,1.30164928394525,1.2769012778876,0.003443989536313,1.29009165474771,1.58527999991492,1.32905481001697,0.00341639954002762,0.165980766469249,0.00360421953407752,1.16424457026303,1.31224999991492,1.21780493342142,0.00336053954754842,1.27848431867735,1.28123222349023,1.28289060355766,1.28318092415382,1.28634068768297,1.32172000198239,1.18737967112976,1.30943999991492,0.189611131827245,0.00328222955808158,0.864430432963432,1.67868999991492,1.477186102165,1.64704999991492,1.49772782830222,1.60202999991492,1.35280281524793,1.36868794084848,1.35775576827989,1.58865999991492,1.36624124558473,1.38728028949258,1.34904119176268,1.35278729234247,0.663683611008555,1.42465999991492,0.342782451254201,1.37465999991492,0.199316674831122,0.00327633860347924,0.0176552500827367,0.00358438784617888,0.274861410518045,1.41777161953057,1.44034380672924,1.55329347775027,1.53333009323144,1.72709999991492,1.53714802800375,1.55309918542132,1.55016794537725,1.5549333822371,0.263275878870923,0.00361080953409626,0.277529877977045,1.70685999991492,1.50021375330254,1.55824000273754,0.210289092643754,0.00370742953437097,1.02506289590947,1.44730695495275,1.44844411952173,1.55828999992286,0.930366093906733,0.00327298955933584,1.44291030706859,1.67333000110514,1.64432636547288,1.67063924789547,1.66636889772698,1.66458878338763,1.63686273372765,1.64783719477247,1.64653947394068,1.64857956169892,1.6501395971975,1.64856556326366,1.64556224531004,1.64383163330751,1.64470865847445,1.65072281293973,1.57822970920938,1.65787000054442,1.56899778560868,1.65532000021499,0.520697621941219,0.00354394953390614,0.516467940585941,1.46146455513724,1.46504968675224,1.46664857252236,1.46929887656054,1.58045972795081,1.49432143721682,1.47382582811685,1.47556259193358,1.47351394114518,1.49407382966234,1.57323999529837,1.31579241623766,1.57243999991492,0.911746937722033,0.00347854953372021,1.03749425848617,1.47877881488076,1.47854837069861,1.47899888265385,1.48027535477554,1.48459751369079,1.48347519376752,1.48740431470888,1.49565057129127,0.00324716956281218,0.177840060932333,0.00336760954659658,1.50197569813239,1.52003006715787,1.5196638199787,1.51906818313536,1.51760344946442
1.29553399550002,1.27516676173466,1.26943213050333,1.26455670690693,1.26137303761696,1.25867998629781,1.25641413344592,1.25483618774699,1.25390922097441,1.25327608866523,1.25243144793285,1.2505557559105,1.24760641556071,1.24421502727931,1.24347131402872,1.24294309586922,1.24321351116782,1.24298142822288,1.24296536708089,1.24151164898834,1.23914263243354,1.23652460218925,1.23411092578859,1.23191965057147,1.2296174808351,1.22685794313012,1.22354464658053,1.21986024348279,1.2162015658748,1.21312746811435,1.21116600780191,1.21037755671761,1.21022574690708,1.20973511035085,1.20473534555749,1.1996338358516,1.19741986719933,1.19439476589216,1.1930447437763,1.19303716513346,1.21181420599632,1.21280310776865,1.21307719153537,1.21449986727266,1.21570827169841,1.22336078855223,1.2272760630229,1.23087447972285,1.23357051375167,1.28509403432493,1.28845096482895,1.30568419385091,1.31026596328562,1.31504001468639,1.31923389400256,1.36761496190422,1.32005133890675,1.1854755168681,1.18570058939846,1.18601034300858,1.18622333063521,1.26159194104028,1.26315432528934,1.27608765723398,1.27820324385385,1.28094780374221,1.28483747853898,1.28691708953361,1.28906384371196,1.2914775925599,1.18738239650843,0.873787646615986,0.872805977511182,0.870030504633972,0.866936978364526,0.866770666965619,1.05074260400798,1.05060353041101,0.5529302637366,0.555618431458702,0.556616230103168,0.555058151924065,0.553255502501312,0.553215936491368,0.554993218374338,0.556650870973948,0.555731011380942,0.55289017684334,0.384358393788906,0.340471665367789,0.298784361091036,0.26133191344822,0.225764836765736,0.146194743876647,0.017471735503562,0.0169494394258464,0.240701360787531,1.44202322130692,1.45589684640178,1.50853140603508,1.51682699230455,1.62354222320325,1.52958773003157,1.51920860180079,1.50902892154368,1.50034066472886,0.975324612605978,0.975356001822532,0.975324593347432,1.44850450707949,1.47796254047519,1.50021375330254,1.04947612135752,1.04944450822042,1.04939768138716,1.04937880822584,0.931058284063406,0.930833558903102,0.930500413702929,0.930366093906734,1.44291027398011,1.57700239535452,1.59457468256287,1.66657390257217,1.66552571192463,1.66411579747756,1.59555942921818,1.57565571110263,1.53501811938984,1.49240342090301,1.41716166934701,1.41676772330896,1.41697437656532,1.41563148976573,1.40037653203385,0.532704177081702,0.516121404967054,0.516952315101291,0.518159175634141,0.519129717651497,0.51948361277152,0.517918638713049,0.516289422815904,0.51492057312781,0.513800103773537,0.9806907194411,0.980741530163802,0.98077293818582,0.980741548516185,0.980690749139487,0.753532826686323,0.75302199071571,0.75251029186131,0.752507323149183,0.753013725491532,0.753521321095506,0.911881254180378,0.911746933573667,1.03664317220427,1.03627084487734,1.21913425537955,1.47655607949897,1.47760957881745,1.47899755349551,1.48028919609988,1.48577175932626,1.49202378183323,1.45323168863982,1.45323168662095,1.45323168863981,1.50197570015125,1.52044653100659,1.52015929981744,1.5185245981834,1.51728733367935
1.28812565405612,1.27331997095878,1.26935000591867,1.26469610309063,1.26248437531517,1.25939263281202,1.25624693813818,1.2526550945297,1.25280005661622,1.25271192768492,1.23419683525559,1.21372034619912,1.21254336517562,1.2114573810666,1.20726328119994,1.20311329207582,1.20412834827827,1.20833749557496,1.22585874800204,1.22627297570412,1.21329766261883,1.18199121980132,1.1887821285478,1.19730375221566,1.2079073859113,1.21883982185799,1.20977761547257,1.20353695381869,1.19882775724481,1.19048946229654,1.18998046169395,1.1920110385065,1.19737979169973,1.20172011755458,1.19004626824075,1.16771682617164,1.17078830932928,1.16985064885295,1.19213199767192,1.19242743852465,1.2121398113177,1.21338622282957,1.21365753866511,1.21203089491798,1.21446976887524,1.24303483621178,1.23411117334238,1.2416771065063,1.23695540548215,1.32112996989357,1.32166542895345,1.3218982784894,1.31544166539514,1.32278692952351,1.32185794996296,1.57781999991492,1.30994055994626,1.2371833644939,1.23837664067617,1.23881281390841,1.25473001255131,1.2607141523686,1.26483806210813,1.29788026938124,1.28883668094166,1.29334803855101,1.28955308027334,1.29065894468177,1.29107197263627,1.29313479984463,1.18738282183587,0.00333045955159829,0.873787646615989,1.47529999991492,0.866770666966661,0.00344097953671825,1.05091678603527,1.30356999991492,0.256127778768139,0.00349093651469754,0.00369458940592244,0.00356763200634182,0.00328468967739084,0.00339183496713694,0.0027749508504933,0.00332283080739657,0.191389492163404,1.65466999991492,0.187233497232063,0.00242121699105302,0,0.00262621871930279,0.264422236032472,1.44759999991492,0.0177118607630313,0.00354346845789726,0.208253570862319,1.4989046083573,1.49681331936603,1.49727146067443,1.50930261771905,1.72605999991492,1.51066108470968,1.49498710472534,1.49490611517839,1.49384703976285,0.97527381350939,1.41583999991492,0.975273782344621,1.41376264727893,1.45469714119724,1.70352999991492,1.41089360574878,1.41544684117192,1.04937880822584,1.41748999991492,0.203089788066045,0.0038419989420835,0.193229502393283,1.55530999991492,1.44291024492939,1.55652286659774,1.57700239535452,1.68656886452678,1.66846124931854,1.67406603692167,1.58121775976575,1.55827319116613,1.49261887659205,1.4383400000014,1.41794840682886,0.00330317955527117,1.41895828653221,1.63727999991492,1.40061231109425,0.00334963954901596,0.101750567320429,0.00353486946810145,0.0948623104793766,0.00362130949124393,0.272598410413115,1.53841999991492,0.186762738317115,0.00343966872762451,0.212438873085201,1.65897999991492,0.235551859953101,0.00341176954065099,0.23070705300375,1.46229999991492,0.200582671082057,0.00366234862262196,0.0903836841913826,0.00354920931996702,0.119309060658491,0.00341036954083948,0.91221439624551,1.58438999991492,1.03627002155871,0.00346362953367779,1.21913667139205,1.47476254195276,1.47505848179886,1.47599684617882,1.47610489889788,1.57785000006265,1.48725350495451,1.48542503927,1.4840786579239,1.57435000107248,1.50707962882507,1.52051448325836,1.5210281260015,1.56167967859138,1.54514337366219
1.26988931681249,1.27084730740325,1.26619197739714,1.26437148353127,1.26268135496111,1.26101955605274,1.24954655923706,1.24528069111573,1.2408875134497,1.23217944815477,1.22083507430318,1.21295649469789,1.21177403104271,1.2097447850522,1.20678993091944,1.20371822156709,1.20173698240803,1.21583432145473,1.22657155803234,1.22646105392718,1.20052696591539,1.18297842643479,1.18338418607236,1.18205908167499,1.18079924701898,1.18018742407303,1.18039324035656,1.18153150440325,1.18353426920903,1.18537290202342,1.18441242816997,1.18339293804848,1.17941009462295,1.17721381515135,1.17560533659935,1.17456958318806,1.17260917966993,1.19179791841455,1.1993531263951,1.20165074077158,1.21080282530773,1.21252622512262,1.21298629008416,1.21360380135782,1.21454401883725,1.21830122273713,1.22288851662078,1.22830303627792,1.2333319682921,1.32167625292322,1.32133041216355,1.31918786642012,1.3147820406069,1.30799021424256,1.30436823178767,1.30278081136949,1.30044827957409,1.28370513358674,1.2829336189617,1.27990263900867,1.27515522577254,1.26835555063149,1.26807782689162,1.26831291618416,1.26762955073445,1.26826089772978,1.26895952025537,1.26867013166364,1.26752406648435,1.26676769713029,1.18738069796417,1.14702823601878,1.14702744503714,1.14702704960844,1.05073957309969,1.05091510575285,1.05102654401553,1.05109735379658,0.209986974316377,0.00373791949396004,0.00369023012743048,0.00349331305631652,0.0031143674916249,0.00280948393771534,0.00218078444775489,0.00188476537805312,0,0,0,0.00123728629775414,0,0.179614838419265,0.304854958983558,0.349081484479458,0.0174384504098003,0.0163154925627145,0.177321880551143,1.4980467854808,1.49615443178275,1.49531724873017,0.586437951537882,0.588030511586559,0.589842526294185,0.590752925507365,0.59093571138451,0.590783193145905,0.589867672037461,0.588021471338357,0.586393877665315,1.41189151218793,1.40944036119916,1.40793411183728,1.40763011155568,1.40651210668453,0.244514774012656,0.198373990201537,0.152233206392827,0.0809994267594819,0.115483473544533,0.150705258733565,0.186929313158893,0.224406156035213,0.263369159668373,0.30398899919138,0.34638950769123,0.390645641646059,1.40222662403835,1.42232813721458,1.41990862262836,1.42016698750331,1.41820889560964,1.42006853474654,1.41845691119518,1.42236156345329,1.40084807534311,0.197839427999829,0.147891386570455,0.094863284765091,0.139610653176073,0.183131743019205,0.227000654787603,0.171355272635641,0.120952216176148,0.0488598355622511,0.0477660430292648,0.0459518540603505,0.0439687412449904,0.0436671509744245,0.0437589783593178,0.0465361022625432,0.0498250734033459,0.052061061890402,0.131487308566406,0.176428353232951,0.221748294307854,0.267472182152517,0.912439119289791,1.15521924036151,1.15521957674271,1.1552202496327,1.2191366663292,1.47271858046934,1.47305945650102,1.47330216528124,1.47369806973475,1.48582587868364,1.48509472216722,1.48466679690078,1.48400874471766,1.48423212697978,1.48521235465507,1.48778426994017,1.49009368920551,1.49370520475032,1.49745476704957
1.26834120426158,1.2922795150657,1.26506832921309,1.2645555917798,1.26321597750373,1.30596728561456,1.23730337260607,1.19771052886211,1.20037103160402,1.1993474627613,1.20136121493241,1.20292197613377,1.19913810382367,1.19393265016561,1.19404852237746,1.19475318821911,1.1983540142436,1.23396085558365,1.23139454034054,1.23428277404298,1.19004891791765,1.15143972329768,1.16667601612133,1.16667226050315,1.16768592063362,1.16592411904793,1.17235553435268,1.17068956557026,1.17316078975125,1.17380311513708,1.1764906496366,1.1782828314364,1.17723932465533,1.17646894555165,1.17574395588709,1.17583648630215,1.17365643389497,1.22745948769773,1.21681301570001,1.24027894708569,1.22438563957372,1.27544711026046,1.25158935696736,1.27705738944563,1.21253221654316,1.21111219197495,1.21011534692551,1.21100694300901,1.22061642787304,1.51931999991492,1.29010181812459,1.27260950242548,1.29322285834182,1.30421619718264,1.29793927918017,1.28889052969964,1.29293173840829,1.2873127750848,1.2848048759612,1.28639554857667,1.27493952418739,1.2700730405344,1.27068182981851,1.2705691844869,1.267511248838,1.26432696703889,1.26017262934388,1.25636792439052,1.26416650322171,1.26671058221255,1.28572219765696,1.30635818449841,1.14702704961127,1.33243999991492,1.05059974778612,1.28172999991492,1.05109735379658,1.29218999991492,0.163846169886195,0.00361339259122109,0.00367965459299504,0.00314002212202069,0.00309981956548122,0.00279891244549195,0.00181672879449292,0.00204978924837566,0.00109032543322025,0.00201978468224862,0.00124605513412019,0.00213426302219728,6.47528483126025e-05,1.39469999991492,0.349081484479457,1.45422999991492,0.018106752305683,0.00361150819979883,0.147737401726954,1.50096054611978,1.49720266904073,1.74815999991492,0.197586259591404,0.00373570357358705,0.00369968781110303,0.0037266986481228,0.00351627553894767,0.00377260486940606,0.0122811273168866,0.00335040833243138,0.214902981382593,1.49070000088773,1.40832772589722,1.4071241040016,1.40680714139388,1.40611832395067,0.191372210583246,0.00304685166316567,0.00213019024288178,0.00260020479732313,0.00174188338077316,0.00268698607343814,0.00189981677881611,0.00305111297726287,0.00327376098435595,0.00360380308519607,0.108433328116961,0.00379649953462422,1.40190423985827,1.50599999991492,1.4142945010856,0.00363926953417718,1.41203938207476,1.41630286817744,1.41092851068809,1.71650999991492,1.43859821303498,1.71323999991492,0.194032205835492,0.00362471949116068,0.191795880144537,1.69903999991492,0.27191787079069,0.00256932910916536,0,0.00226201965774778,0.00165054561778112,0.0026264409479939,0.0427234586699906,1.54426999991492,0.0421068242525206,0.00305307330266864,0.00275733161455915,0.00348694189330137,0.1741308795262,1.45426304466713,1.45230865693843,1.45314554119746,1.45040314435383,1.45141650770402,1.15521924036151,1.45415999991492,1.21913424315702,1.47098207864416,1.47168613305282,1.47156668357632,1.47225348408139,1.48847857731064,1.48594841403716,1.48558010982261,1.48463880117283,1.48509611592943,1.48649153498125,1.49031557407872,1.4911653600489,1.49418887099833,1.49742530758974
1.25506010681095,1.25130296624232,1.24616796815226,1.24267231436927,1.23940837298387,1.23507385760925,1.2191635039365,1.20393291013601,1.20286924954992,1.20206966336344,1.20150975952829,1.20141217293467,1.19660424098669,1.19443182111844,1.19341046256068,1.19475030784554,1.19711231117948,1.19919824862829,1.18164393420249,1.17483345448395,1.17097677463958,1.16120964857322,1.16465098442698,1.16819610398433,1.16976370652921,1.17150816019191,1.17392633295006,1.17415963050902,1.17423191089025,1.17400009536795,1.17553916818842,1.17597252267098,1.1761073844734,1.17550217481229,1.1749541554968,1.17392441927221,1.17301216149628,1.20782556826089,1.20826945909482,1.20822431494901,1.20844016546279,1.20874299894105,1.20934080998182,1.2097368429834,1.20974032954807,1.20978326587054,1.20926735542379,1.20936273847724,1.21875109773334,1.22660053183442,1.23762509568148,1.24956671493749,1.26038447337338,1.26824244426803,1.27725362721064,1.29269787839975,1.29362488008771,1.29174508679656,1.28037036451799,1.27988384145071,1.27767734093952,1.2749027929981,1.27383818629654,1.27187097382626,1.26819488709963,1.2642297089096,1.26070664302136,1.25925368122035,1.2615771012526,1.28876954769407,1.29413052899075,1.29863151220113,0.359649744096567,0.31428337180294,0.26969325186327,0.225875195148045,0.182762286922312,0.140289187681848,0.0983750655522081,0.00360177083962447,0.00355865116958405,0.00338198028871173,0.00293472791710929,0.00229917853219077,0,0,0,0.00137392907412949,0.000987495489867652,0.0013297697789685,0,0.263238675143899,0.217097893072785,0.170957111103492,0.0179708270960713,0.0174953268314427,0.119206753150512,0.29058386637418,0.244443074029838,0.19742908854016,0.150674255403838,0.0037601732848541,0.00380265423820401,0.00355138303690654,0.00359797744067756,0.00350741307015112,0.0129551254754566,0.0189922828574897,0.0200260931696774,0.022581068170441,0.0245992313575171,0.0258149853013502,0.0272362830427924,0.0297667276061029,0.0321893701881248,0.00204274396006222,0.00137473291334095,0.00142534804046303,0,0,0,0.00230079117340523,0.00312417896148416,0.00341065207525296,0.15457420496445,0.201368603482303,1.40033208029057,1.40720612006711,1.40421714321309,1.40010614680283,1.40057461867884,1.39761405036545,1.39894711109822,1.41609726010629,1.42067924404936,0.831389996900463,0.831280811501574,0.83094473568989,0.830532543329996,0.830229674505978,0.317424976343668,0.199130645523253,0,0.0010473275417886,0,0,0,0,0,0.00177710597452101,0.00220059154407346,0.00270263197376315,0.217266539994544,1.45178232602503,1.4510625576898,1.45096200361699,1.44894689990388,1.44854162564949,0.584403433554083,0.586014899538914,0.587845637511529,0.588759102418443,0.588925453409093,0.588755679024161,0.587842784369331,0.586015846517672,0.584408307417536,1.48456667034898,1.48437819862174,1.48503934294478,1.48609761826413,1.48850757213712,1.49046068523957,1.49339897471585,1.49635094682423
1.20717624874956,1.20676224650413,1.20967609296856,1.21222358866579,1.21972527769925,1.22994284285723,1.21475800002834,1.20672870573461,1.2047875242895,1.20414566893759,1.20198071855363,1.20348436492069,1.19219761112343,1.18602631754123,1.18978974301837,1.19429758000526,1.19541421901005,1.19970493542045,1.18027472591315,1.16027661694764,1.15892967146204,1.15889261333447,1.16151184582504,1.1708097336609,1.16988494730323,1.17674446788024,1.17676690733943,1.17918711082042,1.17644308308831,1.20817914484781,1.17588202990994,1.17695179954106,1.17663570724759,1.21119227951788,1.17598242415138,1.17203770767938,1.17291430528395,1.20675627534294,1.20765537040688,1.2083752203276,1.1997454849382,1.17865007511783,1.17837625290287,1.17692202438549,1.17892740313552,1.1784049919504,1.17892691114782,1.1789173888925,1.17970525389261,1.18246826319269,1.2070742527192,1.21531824562912,1.21893170388258,1.2227374127283,1.25701360913098,1.4171500004594,1.33778008200395,1.41584000051651,1.23946709199505,1.22753401647318,1.23096646146062,1.23379252142745,1.23553708829176,1.23675592849798,1.22329098754329,1.21383451863325,1.23501640896902,1.24333225682348,1.25342497043756,1.31244428413569,1.30726790985638,1.31257255843319,0.198918371521673,0.0031788093242658,0.00265725844989837,0.00280717864856473,0.00201322315809597,0.0028552213562273,0.00210001762616921,0.00329384431415282,0.00352342316392445,0.00355226722483044,0.00321151234623363,0.00338319794630476,0.173384022818182,1.44083999991492,0.179717551063089,0.00289635314567448,0.00190749397987622,0.00239923952747589,0,1.43539999991492,0.170957111720964,0.0031117453015948,0.00267963093506611,0.00339779036456516,0.0913913177638214,1.77025999991492,0.198302281690169,0.00348637892361168,0.0280078717485378,0.00370740309010939,0.00367273901925433,0.00368641845396538,0.00348146285376756,0.00371238989497879,0.0137716658496735,1.39816999991492,0.0190403629032152,0.00315133687678994,0.00260877378026833,0.00299358475287832,0.00228489819113861,0.00308388358075059,0.00178298115223485,0.00216912071165922,0.00135735329621577,0.00204844524525859,0,1.50664999991492,0,0.00287586250381376,0.0032120177938445,0.00344449504056051,0.200715121409714,1.54317999991492,1.39326650173234,1.4016275060558,1.39191883314687,1.38969837597064,1.38942961843285,1.38746207575667,1.39296972897069,1.41195763978857,1.40704795723442,0.00316574957377428,0.831389996900463,1.39167857809358,1.38995447049337,1.39303068026474,1.39200088687716,1.39301823608518,0,0.00187949972108477,0,1.72686999991492,0,0.00192999465693135,0.00105729839076785,0.00221354623909165,0.00175697055685222,0.0029328196853321,0.261027071037452,1.45139910159818,1.45126199082801,1.45295945793885,1.44925463706134,1.54003999991492,0.19021548986705,0.00365459637777518,0.00387658736284567,0.00381391817283155,0.00371362421971939,0.00358284228306697,0.00357020457485232,0.00348530846149904,0.195363977727531,1.48424576041783,1.48439550741968,1.48510224874619,1.48600687055476,1.48756020113106,1.48999975410119,1.49249786744007,1.49561166084151
1.20738724631971,1.20756557975214,1.20778621061925,1.20758086756203,1.20722319315291,1.20680996586631,1.20646014329611,1.20645466409058,1.20515473279668,1.20355801359185,1.1977119353775,1.19361562608811,1.18900986739291,1.18682290995336,1.1874400026499,1.18950243975507,1.18989680285902,1.18875285400599,1.17427255872075,1.1588621149227,1.15833915599804,1.15794994285257,1.16040709156484,1.16337081448204,1.16533580166636,1.17729336032143,1.17876897393076,1.1774964478577,1.17751313116122,1.17701978237584,1.17775314392604,1.17875036732946,1.17938639605398,1.18068798436142,1.17787071345298,1.17570841693581,1.17461036660778,1.18978912027288,1.19234457031682,1.20322776481713,1.19537387290108,1.17910722695876,1.17912532338212,1.17965134683766,1.18050455888199,1.18035690491191,1.17840478956435,1.17853210749291,1.17831813188793,1.18544566047872,1.18731353020075,1.18857165575901,1.1904619847459,1.19391443713881,1.19857996126479,1.20333712172496,1.20699482415618,1.20891904981306,1.20948995917557,1.20982078567166,1.21081826188167,1.21262882527774,1.21399551255058,1.21525625282193,1.21571169056079,1.21577355696536,0.616048727274335,0.327766103975693,0.281888349297537,0.236257439171916,0.190858773407729,0.14565082107566,0.100690987960313,0.00256030720302871,0.00222060083933313,0.0019882617118197,0.00121160465189249,0.00145371880440992,0,0.110256749782742,0.151434357525318,0.193260621538902,0.235861034989942,0.279283885709001,0.323584879173449,0.368799183972816,0.238351748893733,0.192210961389207,0.146070173886943,0.00176540673786266,0,0,0,0.00191781938412667,0.00217137208338965,0.00253869854191274,0.0304798596720198,0.0311521297636222,0.0314379980234671,0.0310728206148665,0.0290627069934575,0.0279263599630029,0.0271368739459375,0.0106236638751274,0.011943098679366,0.0134375304337831,0.0139807669225217,0.0137282593475434,0.0128758323154804,0.00261508150611885,0.00227438365465387,0.00213113684804196,0.00159470923877337,0.00159440657768588,0,0,0,0.00113759767884191,0,0,0,0.001967200676487,0.146103072254967,0.197753792921128,0.2468559982572,1.36134823096296,1.36284200095188,1.3676466298703,1.37362902164494,1.37548577409882,1.37897589338932,1.3776473973248,1.37726449989105,1.38026420450956,1.38680225779328,1.38175726440576,1.38021116972628,1.38640369386382,1.38735637911922,1.39004878495728,1.39093524392591,1.39204277811658,0,0.00094706356748046,0,0,0,0.0011452479330855,0,0.00106704562791998,0,0.184763699979863,0.305519347867663,0.422442140299759,0.37791721008736,0.277379799790235,0.23145942923901,0.185743118811994,0.140199378716402,0.00386442042904469,0.00391183326289645,0.00380227475374319,0.00368315376915058,0.00365267279876025,0.00354150605697633,0.00347030639605226,0.0944156877549632,0.140784346822126,0.186923373682761,0.233059781475824,0.279194626604827,0.325336465387752,1.11673287003306,1.47655496271673,1.47956088932175
1.18157827855127,1.18206245494527,1.17878546222461,1.17558231400533,1.17967695191097,1.1832846263227,1.19988923057838,1.20753670051382,1.20666207976869,1.20790043726188,1.19460827117844,1.19339349477808,1.18600217449943,1.1794937050195,1.1845642091953,1.18867178433102,1.18883644770695,1.18907818796696,1.15564995449326,1.13999479028606,1.15154356240984,1.15460951318554,1.15784920277175,1.16038744420867,1.16147099255285,1.19095305378178,1.18239325449268,1.17681447254284,1.17830876601927,1.17826176929,1.17900007845515,1.18481834205537,1.18176572774135,1.18640594881118,1.17966372996843,1.17824581116919,1.17662360214683,1.15318905131416,1.18473071449259,1.21181535884871,1.18903647074266,1.17909282164,1.17946695448393,1.18183817854152,1.18169656347775,1.18368081913811,1.17496282845014,1.16129689255239,1.16982470281811,1.21929337002326,1.18171932771445,1.1741975018626,1.17452851640684,1.17414509817304,1.17118628927678,1.16925735974916,1.17080289084309,1.17172002106345,1.17952158874136,1.1871712310515,1.19393415997152,1.21416532752264,1.21487885861494,1.21619524876071,1.21652100110802,1.21814455100645,0.615179071252577,0.00371224941718872,0.09306654891064,0.00311164672318729,0.00251388662912429,0.00280091774588506,0.00151519144368224,0.00231668731727783,0.00179246169871965,0.00231491743829458,0.00133189520691586,0.00201393852879823,0,1.28570999991492,0.218709553357711,1.29249999991492,0.295354457312285,1.30372999991492,0.963842176890405,1.31185962465213,1.31202188658759,1.31419838668599,0.19846984738682,0.00272721811374842,0.00178863308891812,0.00241063559580223,0.0017648856493995,0.00263411166111891,0.00202580575296805,0.00257098047842913,0.00180989045387862,0.00269481957022831,0.0308862008309061,1.55536999991492,0.209381133901685,1.55136999991492,0.14997505898846,0.00364804805861939,0.196602443084517,1.50938999991492,0.202655357814601,0.00376010820857663,0.0121811159024617,0.00298926620461619,0.0018641029649185,0.00236820761396691,0.00145892224554006,0.00215767139302661,0,1.50949999991492,0,0.00216647929829918,0.0016297393507873,0.00254062751390829,0.00181716802062607,0.00290102463571116,0.194592469881884,1.50698999991492,1.35332711683761,1.36340420620311,1.36354348121679,1.36856634067301,1.36749922849942,1.36848105089508,1.37215131168536,1.37617911303376,1.37563547772507,1.37807506011749,1.38012528180801,1.37951567841705,1.37988465837435,1.38667615257342,1.3872104351568,1.39115783155088,1.3912590266646,1.39308599006338,0,0.00199487850022411,0.0011071220493718,0.00192788228836944,0.00117615696987046,0.0018872275821908,0.00114434103343419,0.00182353148661515,0,1.55556999991492,0.350816506014713,1.60713999991492,0.334914468341932,0.00335380954845452,0.115505131451508,0.00350584949210185,0.0947839137756479,0.00373247145629169,0.00383085476359509,0.00338214794851714,0.0036430866877219,0.00341374460903765,0.00351356676193623,0.0031030430477732,0.00316270350881544,0.00298761352098871,0,0.00207864964196006,0,0.00238990354550061,1.1167350008582,1.47490483768417,1.47410795725607
1.18047251545634,1.17673297628152,1.17488835697822,1.17285655846346,1.16909017041267,1.16555948540055,1.16314371444667,1.16172403174525,1.16054280789398,1.15883985778285,1.1563706933503,1.15353576904062,1.1511313570197,1.14987901490439,1.14999491090233,1.15099115743814,1.15184937150207,1.15155109256174,1.14969748843738,1.14643375652847,1.15039842876385,1.15356179366338,1.15689121688261,1.15875150254466,1.1590397533536,1.18978472918612,1.18742419737437,1.18565870777874,1.18348374339556,1.17971782591181,1.1789784323879,1.17942130992043,1.17934872399327,1.17960995482297,1.17942642241334,1.1785349139941,1.17710263041686,1.17814168159196,1.17959094395975,1.18019862052977,1.18051544989519,1.1790379152148,1.17756451605679,1.17458722234992,1.17177090696814,1.1708999525761,1.16998422916574,1.16727793538652,1.16792828426993,1.16925783562029,1.16954143235518,1.16918628103024,1.16886223466767,1.16913876804304,1.16977219591031,1.17024511207254,1.17083238476284,1.17343746823187,1.17659618553063,1.17628904101225,1.17622582763708,1.17930509125365,1.18491866434635,1.19434378321913,0.616048640453102,0.615179018206784,0.614432119869939,0.18290933413569,0.137000481333339,0.0023036831136144,0.0019032989221191,0.00168931919653598,0,0,0,0,0,0.000980985366967691,0,0.11227789949835,0.157918228178873,0.203564584071687,0.249327929399322,0.295354457312285,0.963892984539146,1.31058328551059,1.31106464955232,1.31209783561483,0.29934700937272,0.253059200166997,0.206749246973705,0.160102158108678,0.108962417487236,0.00208137249251129,0.00138905060769818,0.00147993736138769,0.000864901109483169,0.00178917451951343,0.030048967201129,0.113248880739,0.150156149397213,0.187701995562954,0.226093449129849,0.268864869251189,0.312736232499553,0.357738792450117,0.267404162468813,0.221211486384877,0.17501861899564,0.128845544794081,0,0.00113817263779391,0,0,0,0,0,0.00167287579964068,0.0965074379003939,0.14128522275592,0.18594408889232,0.23067817968294,0.275915408855755,0.321796307091,1.35388098756841,1.36140097843197,1.3615198287704,1.3619810418572,1.36411678180188,1.36572190396261,1.36832075888069,1.37101781621986,1.37255478368336,1.37397443241882,1.37482874345143,1.3761937499608,1.37537053274291,1.37515610982251,1.37336847603263,0.253130818868571,0.206990035026805,0.16084925118909,0,0.000987255717879109,0.000735016215642486,0.00127446754693172,1.94427297235964e-05,0.00122125044810366,0,0,0,0.144944220287971,0.191466498331081,0.237843884380446,0.293319876161746,0.255895365172781,0.219684049089123,0.184563418015681,0.150437379843383,0.117161935115409,0.0839937196129809,0.00352191050836746,0.00348638611924546,0.00346871968430446,0.00342419201367533,0.0033295937094351,0.00308941982996729,0.00236024745013159,0,0,0,3.30680208022255e-06,1.11673459841876,1.44451772045297,1.44691838542346
1.16436581475582,1.17119434732062,1.17284968766625,1.17130268537166,1.16007894987776,1.13649417080995,1.1368506218986,1.13713421366293,1.14136584825914,1.14448155375624,1.14352384112239,1.14068707107444,1.12841369667126,1.12380431725798,1.12125296889012,1.11596465508883,1.11753664478398,1.11593501046225,1.11379611782995,1.11103680869841,1.1134642495486,1.11327902397113,1.13518751962674,1.13403489560326,1.15610527060054,1.19503701452321,1.1914040651354,1.19277212646388,1.19035927194814,1.19387848286023,1.17724410063139,1.177264874682,1.17621658148513,1.162918415733,1.16448800945649,1.16346373735438,1.17517769025895,1.2226334087398,1.17994098618319,1.18174892122852,1.18089717733585,1.15484618458951,1.16813511268773,1.15819484068731,1.16403157750658,1.15969219446886,1.16687016969633,1.16900194591858,1.16599714285126,1.16056448343018,1.16136911084641,1.13813981593819,1.14026523911531,1.14039865828902,1.1669996905391,1.17087139370465,1.1666540884414,1.15330788418429,1.16275777112937,1.15532927971929,1.17234402550909,1.17305201932113,1.18285336829877,1.20427350303604,0.21610278837961,0.00389049953489149,0.613831305376383,1.20632999991492,0.181435685990343,0.00227224096043951,0.00142076060399608,0.00229594649243866,0,1.30929999991492,0.273222639310892,1.30949999991492,0,0.001600506419788,0.0011095262310833,0.00237839413300065,0.00169142127835825,0.00256099889356554,0.00189905552068973,0.00313040503418334,0.963924387588972,1.55792999991385,1.35557280059598,1.31132814106936,1.32603630681173,1.3205956258251,1.32849520227938,1.32071274398268,0.168078845099396,0.00270470704656387,0.00146103996282359,0.00209341014049768,0.00126662838444465,0.0022641991365553,0,0.00223850377803129,0.000736775226579271,0.00235848261544514,0.268882456781709,1.34029999991492,0.961530723891862,1.34431999991492,0.313576927160136,1.34314999991492,0.225519460382972,1.34413999991492,0,0.00188078163851067,0,1.35523999991492,0,0.00218401884774745,0.00180133501962294,0.00277543758289423,0.162977582031644,1.55766000086879,1.50478635664766,1.51894198337178,0.321796307090999,0.00383235953472618,1.3534268141526,1.36046737216165,1.36052166627724,1.36040933734292,1.36226602320116,1.36257451797281,1.36498340084663,1.36921303195106,1.37039104179207,1.3703283309391,1.37209640351642,1.37249926077054,1.37409590490074,1.37628169317334,1.3728274780676,0.00372537953442201,0.127631339885399,0.00266443315724963,0,0.00178734842195826,0.00127320820045934,0.0023402519030141,0.0012435478750553,0.00202380499980213,0,1.58249999991492,0,0.00254581073405312,0.0966300611655065,0.00367185953426985,0.336608055981619,1.38668854305711,1.38236645614809,1.38303308443039,1.38213803131577,1.3837994036411,0.194825822791695,0.00348122479491962,0.00340205826586272,0.00332014814084971,0.00339532585156087,0.00356764835546839,0.00328473429264783,0.00320362632954768,0.185744589823361,1.41109999991492,0.193300714676602,0.00276642216094833,1.11673189845439,1.44340034205375,1.4423836139112
1.16254302248894,1.16183698212361,1.15592283258452,1.15244859879092,1.15068433342198,1.13674443742518,1.1367966189329,1.13549895063931,1.13242736431171,1.12935666154243,1.12766891095156,1.12516732124851,1.12402555377688,1.12357078702604,1.12226571274298,1.11999595139733,1.11926173599523,1.1171997989109,1.11434471089183,1.11310351966285,1.11624154539122,1.11585543121617,1.13541788613228,1.13521242021261,1.1521436461573,1.15985551843974,1.16108742842332,1.16198074139522,1.16365880317249,1.16674673655728,1.17051177860435,1.17430689991938,1.17293348456911,1.16472791140692,1.16614794084637,1.16836390669794,1.17210182237346,1.17567255543219,1.178241352811,1.18021205942731,1.1814056253461,1.18003678553182,1.17910782955063,1.17376900181383,1.16857045170308,1.16722439295794,1.16547527584536,1.16526380117123,1.16391108632553,1.16242120248546,1.16157756367686,1.14216506662673,1.14200901963832,1.14227603087872,1.16158607162506,1.15870975759231,1.15878895851136,1.15415722465682,1.16838341576533,1.17081833759665,1.17112083445762,1.17085604217625,1.16988887558178,0.216102788379589,0.169962007129407,0.115714755510911,0.61453130019992,0.614971679210187,0.226191068696013,0,0,0,0,0.180940959616447,0.227081818996216,0.273222639311279,0,0.000950855364181957,0,0,0,0.00115877358507217,0,0.196836333304313,0.963892992947144,1.42228698136895,1.39474977268004,1.35547929648421,1.33935496427095,1.33581985893525,1.33656780102598,1.33351711283372,0.214219674862137,0.00201235897560107,0,0,0,0.00139484351192653,0,0,0,0.000853726970543505,0.312767924134476,0.961530723891862,0.961665043761829,0.307772797615068,0.261725115046321,0.215796575585776,0.170062375027179,0.124562281845973,0,0.00121632011555667,0,0,0,0.00190181879405321,0.0023654000047258,0.00271480454700407,0.209119867611163,1.49828184478393,1.49250623622137,1.48263311634297,1.34345751026277,1.34455973158376,1.34752993010599,1.35045788804063,1.35876147259048,1.36184289769572,1.36230301598509,1.3576567040805,1.36044808551321,1.36959926706927,1.36957878301711,1.36909123779163,1.36897797547522,1.36964154079185,1.3696664653064,1.36986165167252,1.36924686344501,0.271055600550013,0.224913849692102,0.178771697217669,0.132629946371383,0.00174537350903106,0,0,0,0.00131875784984151,0,0,0,0.00178643086116265,0.142770847254644,0.188911629442695,0.381296292663143,1.37612322074944,1.37807009521327,1.3794956965575,1.3801412879212,1.38118246154145,0.581762696469066,0.583366073853777,0.585188984337099,0.586101274652132,0.58627467719,0.586111954354458,0.585197885067445,0.583363119636292,0.581747491848571,1.16284879140587,1.16285154864139,1.16285201828338,1.16284992522543,1.44293710109396,1.44251353376769
1.14945273208773,1.16671250607584,1.15352225784518,1.15082286276412,1.14956800124905,1.13660164744514,1.13785745382111,1.10186119879649,1.13239623703027,1.12814565091348,1.12956292756716,1.09339475237175,1.09929510671025,1.09096472396821,1.09073211602545,1.09039916244452,1.09000127114219,1.09084862041959,1.10752070037051,1.09835765922654,1.11937857896259,1.11898422252447,1.1348910969805,1.13544220011037,1.1475911615577,1.15785067568752,1.15298954897867,1.12559021328889,1.14907221395297,1.15115040913766,1.16884649660238,1.18713968073132,1.16907715868096,1.13702222455005,1.16822560942089,1.16945617663193,1.16922164188531,1.16523448222701,1.16992492275557,1.21206989056523,1.18437756674892,1.18702229100849,1.18430434988546,1.18982037868236,1.17802104808038,1.20163320345007,1.16240017872088,1.16117329260329,1.16223385428667,1.17770424956639,1.16082556341553,1.14358177528217,1.14322999043515,1.14405350715668,1.15905560288722,1.15497181466713,1.15491999535143,1.15155701605379,1.16984978250274,1.32949000050592,1.25163998901629,1.33015000047714,1.17084936772033,0.00345102953536515,0.123821225879022,0.00352575953385444,0.614971679210223,1.23264999991492,0.27136082410258,0.00263230008542173,0.001324587204358,1.23891999991492,0,0.00237363028277412,0.170091408348458,1.30772999991492,0,0.00184585513535517,0,1.66757999991492,0,0.0018479285074151,0,1.47086999991492,0.963842190496485,1.46966049107327,1.46622804806288,1.61138999991492,1.34457320193313,0.00362454953413532,1.33754328354448,1.46863999991492,0.260360504741744,0.00332146400306592,0.192841981458537,1.57153999991492,0.202060356639866,0.00301309532907572,0.206964195147818,1.85310999991492,0.191401970271381,0.00278253662571651,0.357778311272475,1.31711999991492,0.961998189145022,0.00358060953401039,0.116719699856174,0.00371323953438749,0.109611617144255,0.00301122052476922,0.00190878336512177,0.00260641034640866,0.00176253015500976,0.00263078615087617,0.00189533098820328,0.00318430429779141,0.00284926636738051,0.00329166576784431,0.255489410399332,1.57626000003456,1.48295885746695,1.46205333044991,1.33686098530398,1.3362796040679,1.33771298682206,1.33943058592393,1.2234608115035,0.00349272953376052,1.22845478565602,1.35144437119982,1.35847428051792,1.59755999991492,1.36851590422363,1.36632089906961,1.36597683728641,1.36551335112707,1.36744515866386,1.37008929378547,1.36778901758948,1.369104806005,1.36563367296051,1.36659369758869,0.201701651710575,0.00308628685735222,0.199300400107248,1.35967999991492,0.194532001332527,0.00277429191126846,0.00179802091542052,0.00255258231099139,0.00180656154220832,0.00281507958755381,0.188911632405731,1.37602357119018,1.3806919304993,1.37578844379503,1.37587919246503,1.37723933082807,1.37869277382277,1.37985094196024,1.38127552964561,1.56792999991492,1.39470538913196,1.39879362227925,1.39662930621637,1.40115627170222,1.40156226886027,1.40174211914428,1.40260712142584,1.40550746826519,1.40739898319382,1.40895920490573,1.40973096886138,1.44382484591611,1.44413263010155
