1.63170965727458,1.63285631036013,1.63391895274205,1.63612405712973,1.63940595110996,1.64248959969987,1.64455721786336,1.64690983786806,1.6481648045705,1.64938174385393,1.6500964244226,1.65074204511781,1.65188286653609,1.65282449462915,1.65389503428934,1.65455104497579,1.6553289491925,1.65589659760629,1.65684137205868,1.65801204990049,1.65866831948033,1.66070277391607,1.66176279320169,1.66302192600547,1.66698663297831,1.67000321916604,1.67274477084058,1.67570990281022,1.67731369892849,1.67892175948899,1.67964365566221,1.68164368885923,1.68519965758568,1.6879842584641,1.68844750379971,1.69037774596068,1.69072002805658,1.69260651273524,1.69293799493914,1.69388912896929,1.69312015284276,1.69273237644709,1.69158331448852,1.69153088944796,1.69133660658523,1.69157850686286,1.69093814129653,1.68999201369951,1.69005413176371,1.68957706048297,1.68878394147158,1.687898597432,1.68755512614315,1.68671939833251,1.69623548286426,1.69565477696689,1.69600329325479,1.69694448659524,1.69807927092256,1.70143268626961,1.70150398862713,1.70285572238816,1.70439585569805,1.70688331283667,1.70765077092548,1.70991926510368,1.71435642407536,1.71596154398693,1.71806167996584,1.71861809403756,1.71821639738197,1.71795668683856,1.71835537033694,1.71904654267931,1.71875962812023,1.71861750959377,1.71785886269331,1.71723508891202,1.71611070324094,1.71711615569278,1.7162381209602,1.71764115005616,1.71784925245713,1.72112557038404,1.72426081480537,1.72643623895617,1.72840752501467,1.73055883748608,1.73416835599545,1.7361367571311,1.73678066515191,1.73701184588135,1.73593452871501,1.73512339830867,1.73371592694495,1.73356649975499,1.73324241798182,1.73386733080403,1.73312312217349,1.7332915481815,1.73207871611688,1.73198861957262,1.73107629549076,1.73118871492805,1.73078653606912,1.73122818167449,1.73009001663163,1.72925703572742,1.73165852681897,1.73228554780444,1.73335694098687,1.73483844768897,1.73290642476397,1.73274300741366,1.73297380530652,1.7347719093625,1.73419512753119,1.73443762661094,1.7344859615572,1.73689490481289,1.73975146032489,1.74258156899618,1.74483884363768,1.74699275467749,1.74908146907756,1.75109232385883,1.75350592679664,1.75568721796865,1.75701690183346,1.75826022779731,1.7600965272147,1.75967107516301,1.75961835099228,1.75964565056251,1.75980935591305,1.75986921493655,1.7606605733707,1.75955799343624,1.75688829162718,1.75341387612162,1.75097915777353,1.74949199689468,1.74904949101903,1.74707197175994,1.74583974322537,1.74547857353168,1.74525767329864,1.74555010776371,1.74483227974081,1.74472225777438,1.74575195867063,1.74713765463914,1.74817910333788,1.74957052413064,1.75035814992624,1.75162726236239,1.75238685161027,1.75392588252474,1.75490474660183,1.75647472759879,1.75657123620544,1.75794585853967,1.7578953784132,1.75998685447009,1.76346238493597,1.76657380700492,1.76688650167868,1.76802576923241,1.7690374742207,1.77076620042539,1.77168519293582,1.77338267629905,1.77503857505269,1.77740874615732,1.77843472791202
1.63027205881155,1.62888795610359,1.63218888859897,1.6320487734627,1.63954077774281,1.64099135040389,1.64457393661871,1.64749469445745,1.6478526191978,1.64851918399492,1.64884268314386,1.64936601119889,1.65007021643935,1.65096779818791,1.65154673471836,1.65165872779671,1.65290299740804,1.65317865431028,1.65349490266118,1.65196203709474,1.65347172407823,1.65127698050215,1.65873033045123,1.65990643233677,1.65856134012663,1.65893868563144,1.6678528916802,1.67561773146119,1.67591341198524,1.67480812218913,1.67750898655377,1.67992640962956,1.68304162965634,1.68504523544565,1.68622296303556,1.68789526297928,1.68893715109128,1.6917110619763,1.69324113034862,1.69460143829317,1.6934621430362,1.6920967598734,1.69020224590945,1.68903084946517,1.69009316199146,1.69205809303937,1.69054829190338,1.6910563734413,1.68995596469993,1.69109797321876,1.68895007723807,1.68762743746501,1.68790253039791,1.68608493621378,1.69448454431401,1.69404281377652,1.69507730753785,1.69557356099889,1.69597053796533,1.69545667029528,1.69951373192941,1.70199647117892,1.7047616405684,1.70793332023464,1.7083728608285,1.70951087051539,1.71170553004093,1.71424739194123,1.71654021320076,1.71650149973295,1.71678527432699,1.71456789805231,1.71737760469273,1.71815959879619,1.71886364212061,1.71868677550609,1.71790199475058,1.71636304404371,1.71258888531469,1.70984089418442,1.71139795342893,1.71036421600944,1.71282796841666,1.71226054315759,1.71181250617696,1.71167849277521,1.72402361375667,1.72922117194113,1.73253878824785,1.73429120564857,1.7359566594944,1.73660344427892,1.73506460177162,1.73252355188782,1.73183942333055,1.73124968726879,1.73149441200243,1.73067628822408,1.73118889655537,1.73077165819541,1.73072243882146,1.73043180646996,1.7298597644155,1.72801062978675,1.72952927438665,1.72946352219852,1.72942938939673,1.72851022894239,1.73015261037486,1.73031691138578,1.73090123595654,1.72987499862727,1.73128211113113,1.73157813598597,1.7318304749588,1.73052597010505,1.73205571246182,1.73110955442076,1.73281621485674,1.73327808863592,1.73451047363298,1.73703226212084,1.74267938596088,1.74691920959465,1.74862796860869,1.74979466534403,1.75314329963806,1.75635314703125,1.75728221332739,1.75843760592371,1.75932161199196,1.75878215216944,1.75922611856477,1.75917295446655,1.7590899437275,1.75789901444623,1.75536969128249,1.75282092240028,1.75215070726422,1.75178211271274,1.74954548930574,1.74739087355883,1.74671241528919,1.74616589878674,1.74611643003217,1.74725249335175,1.74682622144878,1.74869693025821,1.7463303147265,1.74588522897349,1.74611109791834,1.74723904562816,1.74771705208328,1.74893428352076,1.74928810895429,1.75047171789046,1.75184783208762,1.75547098050797,1.7540993246905,1.75449211271298,1.75393277893718,1.7524644528293,1.75624223624656,1.75865930057742,1.76203024786403,1.76418190431935,1.76514842977943,1.76394186058607,1.7663515563661,1.76539777338903,1.76870496010134,1.76879596489596,1.77248441757266,1.77350562539427,1.77613818133173
1.62923681814436,1.63014523734068,1.63146868034176,1.63367842491489,1.63798551568902,1.64129154990507,1.64338453333088,1.64585520084894,1.64628286792454,1.64675601519504,1.64730664091822,1.64767254327857,1.64848247485116,1.64894851135515,1.65014893922363,1.65090356261264,1.65164178535471,1.65187046143398,1.6520140597616,1.65160960627243,1.65210479356504,1.65203702516688,1.65476618638789,1.65598165063759,1.65676030153516,1.65802025806233,1.66190710420544,1.66482994683314,1.66943982059809,1.67326547532435,1.67494506453836,1.67860454842998,1.68029196484786,1.68190800330944,1.6822806026494,1.68302261861092,1.68238791053095,1.68188302961922,1.68323149683116,1.68503287168846,1.68624361245638,1.68685840229755,1.68757107727453,1.686855506883,1.68748524937065,1.68865243181366,1.68866162063812,1.68851022506546,1.68869317597548,1.68872377073402,1.68924097421574,1.68970950814709,1.69031264065275,1.69110472146575,1.69300155473048,1.69350786751131,1.69360698473146,1.69391606790479,1.69412179391069,1.69518935981362,1.6976764887029,1.70105251176676,1.70297448008506,1.70705991850541,1.70734186420623,1.70807775885112,1.7077685753027,1.7080073321249,1.70886886103679,1.71018462690369,1.71111908383868,1.71118450853876,1.71054109008193,1.70955638640055,1.70842429108225,1.70733843965362,1.70672979988799,1.70689424044696,1.70777091903554,1.70828110868734,1.70944154721594,1.71056637537924,1.71115185250979,1.71144798566161,1.71161361090388,1.71242828163973,1.7146559028778,1.71768376845515,1.71933830754084,1.72056336088035,1.72164123184341,1.72403042443915,1.72655266880965,1.72927837831454,1.72875326381361,1.72942048668148,1.72920348134586,1.72961410693826,1.72858958932579,1.72903300395607,1.72803287846778,1.72862050921345,1.72805100244786,1.72833180320155,1.72781748731942,1.72823303629791,1.72738428228182,1.72765642689507,1.72762261531008,1.72837957896696,1.72821280793338,1.72846986069366,1.72926898929507,1.73066059394321,1.73088195143422,1.73177790961946,1.73156990992341,1.73208563310562,1.7319035953781,1.73275611500675,1.73301378032149,1.73605080192539,1.73793179237878,1.73934639894159,1.73992699985178,1.7397901095013,1.73928824188405,1.7387499311027,1.73825953445413,1.73792642986501,1.73755502558918,1.73788412995165,1.73947570967628,1.74177581330562,1.74390584916251,1.7452726430095,1.7458877096027,1.74603245099308,1.74588224429559,1.74551526892723,1.74523872305273,1.74547773789005,1.74424181369888,1.74444670318766,1.74440436419143,1.74515490232075,1.74490331421087,1.7457155353086,1.74473290240761,1.74487324532812,1.74477797510792,1.7454914540335,1.74623592104954,1.74721832402144,1.74774740604365,1.74841784646981,1.74963859292503,1.75090517234997,1.75155683064221,1.75219202812418,1.75185594300756,1.75205726553062,1.75455322553901,1.75795767795224,1.75909425353225,1.76109735219616,1.76203208307283,1.76403286224311,1.7640357994515,1.76540181160994,1.76619876754217,1.76823973927147,1.76920282869653,1.77129952013389,1.77238012664826
1.62958242625541,1.62767867700553,1.63170644184659,1.63202202012397,1.63892054085077,1.64086041168279,1.64343130972933,1.64473394024565,1.64529534558804,1.64447448700589,1.6457976033043,1.64584710705963,1.64666350885665,1.64680264538084,1.64855754665108,1.65068833745869,1.65039918304019,1.65077770140167,1.65081800345494,1.65027044371771,1.65107057726088,1.6501661652067,1.65275059389191,1.65264912700744,1.65498982159283,1.65468036133457,1.66003209447651,1.66120352455413,1.66093600186823,0.00410516998287954,1.67095366422057,1.67875062241009,1.67873711328648,1.67966670584978,1.67878880006836,1.6777028178347,1.67883688808246,1.67860701778505,1.67741753015871,1.67652694400478,1.67540292708265,1.67469958266443,1.67924396238057,1.68258811985003,1.68484517238489,1.68621294700509,1.68662475917239,1.68622794501473,1.68694997074354,1.68661987622335,1.68915722567619,1.69196060810977,1.69226610800282,1.69469270211498,1.69331133196575,1.69230175432525,1.69252366333816,1.69099797729563,1.69267581867309,1.69222357060324,1.69631574060614,1.69999970306681,1.70038179890239,1.70927978357374,1.7073440364575,1.70716925155357,1.70411206860135,1.70144619659024,1.69892578379522,1.69720308886994,1.69619318470824,1.6953875510437,1.69511549565324,1.69483537583979,1.69734118832995,1.70051342085674,1.6995414042942,1.69981017527642,1.7036368990836,1.70559135460217,1.70773904568859,1.71099113321744,1.70995016191518,1.71073347385748,1.71084886571661,1.71155339264738,1.71278936325159,1.71186555896824,1.71925319837022,1.72071072557176,1.72072859086217,1.72060703495384,1.72090258173064,1.72082361179582,1.72495380362022,1.72722536408884,1.72741406088903,1.72890642146642,1.72584214575176,1.72283560244106,1.72540542602338,1.72621083380379,1.72735137735878,1.72739568392922,1.7273754700011,1.72592211670285,1.726477851753,1.72440622683291,1.72638506990122,1.72467059093769,1.72688820311063,1.72437929034701,1.72850509734218,1.72824698733969,1.73118315706869,1.73166992433799,1.73223896532652,1.73150781054728,1.73180675551669,1.73141012551563,1.72985160491783,1.72610663505686,1.7261507953678,1.72701456251616,1.72508771917902,1.72376609405034,1.72840565436548,1.72978402518889,1.73671431749695,1.73886037428277,1.73821570731179,1.7374180233062,1.73612901375353,1.7350103276086,1.73389390562057,1.73399717186629,1.73261439419838,1.73238965996653,1.73374518571435,1.73574119361726,1.73668123933553,1.73835179345547,1.74113137786507,1.74228445702392,1.74302307485172,1.74273900504638,1.74330227871942,1.74308527272939,1.74339004699334,1.7428718708295,1.74369413670839,1.74297360181192,1.74516142074593,1.74580555443421,1.74642859548669,1.74603085241429,1.74767270761689,1.74806725861963,1.74960054167667,1.75009591577985,1.75012204267642,1.74852392418545,1.75319608026185,1.75740857493403,1.75757613462977,1.75629877113956,1.76046280496525,1.76226873919484,1.76316959497174,1.76228753654716,1.76510254384087,1.76458460365469,1.76740866465498,1.76635592831671,1.77005771452318
1.63102385293991,1.6321704484357,1.63307059683468,1.63543436698193,1.63831929426439,1.64151683737694,1.64272457592679,1.64445790361455,1.6447076473624,1.64501609185816,1.64554429794384,1.64570713993001,1.64606829002518,1.64592604009576,1.64726758067435,1.6481569787187,1.64903007951371,1.64947880174824,1.65042297576667,1.65104622929437,1.65173082983268,1.65227172157515,1.65372421721164,1.65488322800472,1.65607011377819,1.65691062898855,1.65888614876629,1.66009856818412,1.66168321538115,1.66461197839848,1.66720826817669,1.66796182445778,1.67026259008808,1.67232146934925,1.67455019709617,1.6760762452158,1.6762402974718,1.6770516354631,1.67588420251145,1.67579708254979,1.67487148524698,1.6753446940117,1.67748930260418,1.68001906280037,1.68232329616671,1.68441124221093,1.68533082281261,1.68601104843689,1.68663271768124,1.68731396934082,1.68906491770509,1.6909765396538,1.69180354805447,1.69285940293603,1.69233787009915,1.69207823451279,1.6916297936292,1.69157815225741,1.69162541169007,1.69236889389693,1.69424364853069,1.69717896376651,1.69753329946128,1.69731444913195,1.69823419361297,1.69930745726463,1.69987244869786,1.69896363644321,1.69794752259675,1.6970148866143,1.69629717926152,1.69593183706491,1.69567338134753,1.69599543908669,1.69699496374278,1.69840303753416,1.6984730325747,1.69896092857983,1.70117937740564,1.7029976841713,1.70438242494335,1.70562039978865,1.7066251666198,1.7089535298285,1.70947427812737,1.71076840140917,1.71242397734566,1.71428921234405,1.71748957675427,1.7198252093442,1.7200471283031,1.72024700724159,1.72034202272057,1.72069623832166,1.72245657653902,1.7237072265348,1.72368294658957,1.72315167608613,1.72263105608088,1.7218751213541,1.72345845033917,1.72502799178244,1.72582109204094,1.72671729879733,1.72617681787383,1.72613911786612,1.72557509657555,1.72585933127592,1.72576791736774,1.72658380292321,1.72708082676722,1.72855334914217,1.7287675431353,1.73019233745147,1.73026699107463,1.73165371320696,1.73048937141651,1.73069838548394,1.72928577586666,1.72908965780716,1.72727630448978,1.72606261807321,1.72517700038231,1.72536922661242,1.72465045340213,1.72496998879791,1.72750451492055,1.73140517800105,1.73492550658437,1.73870864695388,1.73911812770941,1.73872887314377,1.73620939774184,1.73462553368529,1.73332367716277,1.73294615471941,1.73215272065273,1.73234393952306,1.73358249655022,1.73521693143013,1.73600248716955,1.7369595465777,1.73910322795539,1.74068052717519,1.7411063449667,1.74115988945528,1.74072107894815,1.74121124780891,1.74117208652658,1.74212802837095,1.74285801700638,1.74423690742956,1.74491942211459,1.74582633117322,1.74593279372428,1.74619519044037,1.74685691857149,1.74758185536266,1.74814318786947,1.74878332622744,1.74893594173553,1.74966320914099,1.7513556962368,1.75333397445384,1.75465102557192,1.75670561921809,1.75737707917393,1.75905204423632,1.75978417284985,1.76186371917308,1.76246953329382,1.76493301862299,1.76501567770188,1.7666328648537,1.76699654596115
1.63331330032972,1.63358025766581,1.63511546757099,1.63593599202619,1.63937792407163,1.64173510398965,1.64318884393383,1.64403558604886,1.64478491065821,1.64488635486783,1.64555570729758,1.64574707871672,1.6454098171576,1.64428904035909,1.6457452544512,1.64635702212799,1.64745670719786,1.64826948222027,1.6498178718344,1.65221033549878,1.65210214344556,1.6538993483195,1.65469097890484,1.65747804993472,1.65737507486044,1.65855185144172,1.65867883384733,1.6592933645863,1.66187086641987,1.66550442025021,1.66574352341747,1.66545531974428,1.66819970670368,1.66933676522986,1.67222643511134,1.67321802023728,1.6747271753128,1.67465835597387,1.67504413460419,1.67402378158531,1.67430411842622,1.67327812906886,1.67591725077886,1.67618294540813,1.68046209506977,1.68305908696611,1.68432607741244,1.68574141789033,1.68610604465331,1.68687238448014,1.68878799581388,1.69068657827737,1.69136919727605,1.69170942965946,1.69159653681035,1.69071475126153,1.69117132711709,1.69039992630112,1.69107162552658,1.68958115144319,1.69175161067924,1.68998397246316,1.69536303940503,1.69572494521358,1.69644000216253,1.69500952568091,1.69721659678334,1.69597033534711,1.69740210069216,1.69631606138308,1.69709185553588,1.6963147321243,1.6969066249717,1.69649172947258,1.69755040405128,1.69752364756422,1.69796794024252,1.6960649603745,1.69966183594507,1.70016393719685,1.70139863500921,1.69928380837005,1.70190886236128,1.70007816925609,1.7074935814927,1.70954719922459,1.71156499575705,1.71492125706597,1.71650214437727,1.72105718390373,1.71926057578619,1.71991191747436,1.71921349788274,1.71910452039153,1.72046185532111,1.72122255337772,1.72072788941011,1.71790609164836,1.71996317620755,1.71801170878898,1.72217420746493,1.72332817396094,1.72523278253922,1.72600401964129,1.72582832721541,1.72499918070201,1.72545656288842,1.72525650863229,1.72615444208365,1.7257898353828,1.72850407025898,1.73053665415968,1.73031216389432,1.72964915006885,1.73081022232971,1.73009868759813,1.73030053712042,1.72744904964479,1.72835924842437,1.72506870137575,1.72645279161747,1.72401718712357,1.72497042043312,1.72368530366625,1.72439579921311,1.72354368674074,1.72592921333786,1.73378456220882,1.73337244965992,1.74224542493645,1.74116077819421,1.74227201062009,1.7353848609368,1.73423499223435,1.73212342818545,1.73305963557433,1.73130357374551,1.7318773133259,1.73357022924054,1.73571211266655,1.73526484193599,1.73404200225761,1.73759571244606,1.73896846034549,1.73980914142566,1.73867877787366,1.73831906670524,1.73773884988974,1.73950126754293,1.73969465797633,1.74258901810935,1.74485231487841,1.74510919665228,1.74595632127113,1.74544353570143,1.74570243462312,1.7459546857665,1.74694550398812,1.74691828613177,1.74699473016904,1.7480980224804,1.74826999649644,1.75020425892438,1.74918599946274,1.75341277580655,1.75413039741387,1.75600302278131,1.75425536479809,1.75800395890279,1.75772798623977,1.76152493315672,1.76348751255601,1.76437975404711,1.76351412456601,1.76566928899678
1.63171351546661,1.63321004282226,1.63443109972151,1.63733496484846,1.63853818606854,1.64117184630044,1.64197833498247,1.64384432460143,1.6444318432686,1.64562673640214,1.64601621474027,1.64647593607052,1.6461238468039,1.64554418206024,1.64585072585054,1.64593764788091,1.64693372428615,1.64775614193911,1.6490868495068,1.65040963070396,1.65130152278134,1.65236772731843,1.65430104132106,1.65745398688525,1.65808173298151,1.65836154769356,1.6586341102271,1.65912581671057,1.66143570139374,1.66410007537001,1.66471382335365,1.66551520684098,1.6665246654708,1.66806646850037,1.66906779984844,1.67070062022335,1.67113307131422,1.67253879990645,1.67224303650867,1.67307219608733,1.67259448214868,1.67333883066331,1.67459355106987,1.67665269184718,1.67893839657709,1.68149164111394,1.68247895868619,1.68368218451908,1.6846708038203,1.68630179945771,1.68783797228658,1.68997807089103,1.69027414015978,1.6909618353059,1.69032706265846,1.69024864479345,1.69046273027296,1.69116738810112,1.6911109067639,1.69145187036187,1.69250509484198,1.6931966517597,1.69504300960381,1.69579203429724,1.69623665287761,1.69611711468006,1.69721856585062,1.69777306722215,1.69841824044586,1.69884185248564,1.69870325348204,1.69882651535478,1.69830835950941,1.69847040817483,1.69833447210673,1.69888122185588,1.69902776334706,1.69955543014236,1.70046268095028,1.70121747337157,1.70133744879409,1.7009756574437,1.70154138010289,1.7016462845134,1.70470195685842,1.7067693495842,1.70944001484093,1.71210424040656,1.71271423357294,1.71273193451825,1.71582857071865,1.71757424366587,1.71757661168379,1.71808875315781,1.71927620838267,1.71997596208644,1.72021210354286,1.7197282328446,1.7211183855597,1.72195886673599,1.72337870579882,1.72429927073793,1.7251566906927,1.72561804732141,1.72515515239864,1.72471492985233,1.72448663111229,1.72477942380449,1.72557705347985,1.72710031042783,1.72761325728178,1.72904126551232,1.72863277298073,1.72948072430418,1.72908614649029,1.72990970212675,1.72880271360857,1.72878082583664,1.72743237265811,1.72718673098617,1.72602988987872,1.72581820883947,1.72466012674373,1.72442697270028,1.72408163733136,1.72461209495359,1.72583229884682,1.72802775758061,1.72661485294936,1.72543036168325,1.72512068208346,1.72582067563093,1.72707121040489,1.72787935381505,1.7280649998258,1.72790020513188,1.72872068213318,1.73025869869846,1.73099571570969,1.73194395351642,1.73290421322965,1.73378989990845,1.73441463167204,1.73477963339413,1.73497580338704,1.73499745673896,1.73474123260515,1.73580790747412,1.73707955421526,1.73953620307907,1.74101199793027,1.7433510859535,1.74345123585809,1.74404175499115,1.7435463305484,1.74345422521522,1.74395780039263,1.74455901744699,1.74497220290145,1.74542885930498,1.746713382132,1.74836734871749,1.74938092116725,1.75095629786442,1.75170041885549,1.75339394847866,1.75353638544867,1.75505478331066,1.75514978722873,1.75698748138278,1.75799010781329,1.76002631647859,1.76123960204503,1.76323480805553,1.76321951027104
1.63100074554419,1.62973195305326,1.63444173102881,1.63706287131558,1.63864939060092,1.63953270505848,1.64144691412822,1.64316493111639,1.64429348844972,1.64662892914878,1.64639799784229,1.6483632405193,1.64656600235648,1.64667266241406,1.64550673916796,1.64546766521635,1.64587757173823,1.64761007175,1.64772600735617,1.64988233070781,1.64959807765929,1.6507656025196,1.6520995989122,1.66031659207168,1.65863975823495,1.65903276440942,1.65808145849047,1.65777622734474,1.66065716896103,1.66475844321907,1.66400660150707,1.66461762644232,1.66535247035866,1.66547368424847,1.66716174631958,1.66656653265939,1.66899303765713,1.66875034955314,1.67061087128296,1.67056791155802,1.67152255559576,1.67059255228707,1.67362965905825,1.67520526828855,1.67786801626577,1.68038108641445,1.68090944976526,1.68092508055587,1.68312913999286,1.684806553359,1.68700726079267,1.68999716862086,1.68963598703783,1.6899609808625,1.68931630105477,1.6879234790178,1.6900187495883,1.69128841372243,1.69151602904341,1.69134230043758,1.6939063752011,1.69517832134313,1.69611446003049,1.69562379268761,1.69677744605976,1.69553006336737,1.69795371210822,1.6986174414546,1.70000789846774,1.70099100525829,1.70071638139045,1.70087136512816,1.69997644963162,1.69947414383275,1.69945512551119,1.69941045951698,1.7004987808461,1.70176107642864,1.70183278873975,1.70239489926247,1.70190457793702,1.70156513512454,1.70150171872567,1.70057432526141,1.70293778049878,1.70375854197521,1.70735211374675,1.71162826279472,1.70973788437686,1.70892020212293,1.70791605189723,1.70710709724298,1.71531309440116,1.71691017726652,1.71815786651567,1.71959845064343,1.71994017115818,1.72011184527428,1.72234711142573,1.72559342546109,1.72470113664727,1.72558061239659,1.72523792014733,1.72617227267522,1.72446404445522,1.72384476400649,1.72335989890636,1.72278469571534,1.72513609167092,1.72754937444168,1.72728305496408,1.72660421624603,1.72781178331825,1.72701860694281,1.72878314797995,1.72763324197246,1.72913193145778,1.72731836275289,1.72825397816616,1.72642406101286,1.72712243884357,1.72556977262103,1.72546620170839,1.72307764243468,1.72431399283171,1.72360225821105,1.72521561617093,1.72610850977401,1.72528852467124,1.72475257388085,1.72252511478025,1.72154169035514,1.72113659757198,1.72169711384147,1.72279605386187,1.72214012934059,1.72100681963101,1.71888896510117,1.71749671890716,1.71694384425628,1.71706476838026,1.71777621190243,1.71741065902197,1.71677935570659,1.72255767749784,1.72372446047761,1.73067818348364,1.73145024358162,1.73525710778501,1.73783657461775,1.74009918143224,1.74219208304345,1.74223378081234,1.74208595557515,1.7415628052549,1.74006709082006,1.74184354464914,1.74195768816391,1.74310948773455,1.74216622317227,1.74572045070878,1.74721335310473,1.74968504699875,1.75039532758661,1.75168167546454,1.74990819002976,1.75298944965381,1.75241064078844,1.75407667336818,1.75148892726971,1.75620326269815,1.75539356600368,1.76010677540835,1.75989713443718,1.76276607064168
1.63029308953593,1.63200296282952,1.63345975537128,1.63629378028759,1.63637894187921,1.63767237214588,1.6386787726545,1.64085233761166,1.6417188457019,1.64332206954238,1.6444450427412,1.64585050364458,1.64565229007766,1.64544905851792,1.64488950953866,1.64435662327203,1.64447776770961,1.64457107597192,1.64535662522666,1.64701408342989,1.64753636619163,1.64910036020118,1.65169444590435,1.65733742461378,1.65774352072076,1.65783746919965,1.65775098529549,1.65791013142124,1.65895843963194,1.66093367171821,1.66146204560654,1.66297069051562,1.66360340567885,1.66487601302034,1.66540383427765,1.66658649621748,1.66669452171423,1.66761592406904,1.66808854799642,1.66941301891966,1.66997438892017,1.67130676496989,1.67227953428069,1.67397800536904,1.67554736750505,1.67745555894213,1.67859620261153,1.6797340337673,1.68080680912201,1.68243072201932,1.68402479543827,1.68609767356656,1.68660985492619,1.68757023994753,1.68716810238016,1.68775699922892,1.68888469572183,1.69073843290739,1.69134134906341,1.69298599180702,1.6957552262572,1.69739836476441,1.69813017912899,1.69874964422825,1.69924550865538,1.69934936415507,1.69999036751018,1.70079696966195,1.70128540350743,1.70203308200678,1.70132690644935,1.70113122487468,1.70003043719232,1.69973256476145,1.69931656741563,1.69981294841451,1.7007481539905,1.70224439620638,1.70213065099049,1.70220452115267,1.70216632418345,1.70209257634752,1.70230924871006,1.70229115525283,1.70303674746509,1.70338102525927,1.70463826968856,1.70420901741394,1.70587449064454,1.70594323926001,1.70646810516634,1.70794645181178,1.71302681284173,1.71586241977556,1.71766583343545,1.71885299293053,1.72069206282014,1.72190908609121,1.72345453561747,1.72461322020098,1.72522822291992,1.72544266397215,1.72494237686426,1.72403639790816,1.72334909705109,1.72242231311513,1.72250782943535,1.7226606404106,1.72403592864009,1.72551410829032,1.72577781657509,1.72614778484514,1.72642452065325,1.72722053844794,1.72805959145055,1.72955906059837,1.7290836976892,1.72938294373351,1.72825452600089,1.72820306559874,1.72733762540833,1.72741254112359,1.72613524422403,1.72555548563055,1.72483134870109,1.72458327288875,1.72427633542396,1.72395526749578,1.72362041044992,1.72284568780285,1.72165660148285,1.72043026570769,1.72058518102354,1.72067351744487,1.72109893412493,1.72023480179522,1.71958129228465,1.71784898627929,1.71712662767933,1.71632207283724,1.71712694922428,1.71787765299295,1.7182697291834,1.71904675596047,1.72194846598861,1.72457700931752,1.72747032541391,1.7297549721134,1.73203322021522,1.73523070953029,1.73691994628066,1.73933326640529,1.7394794445354,1.73971246401398,1.73957852480654,1.73959069478481,1.74085609291257,1.74190440366267,1.7427437964511,1.74336285703228,1.74554526805634,1.74795791278894,1.74943122951668,1.75138518352099,1.75123603182619,1.75200101864547,1.75164406844852,1.75265411889645,1.75246530845352,1.75406112341767,1.7550092241026,1.75781233627817,1.75882884428161,1.76129949670942,1.76145835837451
1.63068894260829,1.63111251002665,1.63317069780737,1.63630387763894,1.63487977604004,1.63321841728544,1.63652940217733,1.63792475646289,1.6393137754312,1.63978182080054,1.64232059788184,1.64515378103081,1.64435229628422,1.64531154324922,1.6436235479511,1.64357297492348,1.64237726695522,1.64198481544798,1.64178963943672,1.64087487011039,1.64415141691663,1.64762319178309,1.64800967946902,1.66003739059943,1.6566217667401,1.65774971074699,1.65670628105952,1.65776661341111,1.65618098358959,1.65399204774114,1.65828326718176,1.66174347679529,1.66202424707084,1.66404711151499,1.664066448686,1.66613797036153,1.66495098733625,1.66467303675067,1.66622230305837,1.66700024716066,1.66886415671209,1.67073766687211,1.67105518179251,1.67152586554488,1.67360964208907,1.67399503971428,1.67713002512844,1.67705531197352,1.6790551514447,1.6773582316097,1.68176528222423,1.68269595217908,1.68454632658125,1.68406383331097,1.6854435127201,1.68499738872182,1.68807397521441,1.69023779024124,1.69070372821192,1.70358260145479,1.69852397018774,1.70000677383411,1.70008035447318,1.70389172286718,1.70191112193841,1.70249422717679,1.7017464543796,1.70304411646632,1.70240279354417,1.70392098897187,1.70184593705768,1.70132008642032,1.69998553503989,1.69891851359898,1.69905396906199,1.6986833046734,1.70105075803,1.70368309294102,1.70251390209974,1.70197718368509,1.70241584471708,1.70250571970253,1.70312107378887,1.70350436567201,1.70321230519944,1.70236814102206,1.70306948257117,1.70213204432436,1.70317329215807,1.70221595051851,1.70379537565365,1.70240961392634,1.71251550400382,1.71633515336109,1.71720562181821,1.7185024192786,1.72124534941418,1.72447699482445,1.72391472515128,1.72550873583796,1.72499501234974,1.72733547929348,1.72389812411557,1.72306001124754,1.72140748499638,1.72110507891748,1.72082224112091,1.72188029270766,1.72257634955679,1.72440565765923,1.72460087141975,1.72449129235508,1.72568142326058,1.72513627585458,1.72842960526323,1.73055615582612,1.73030167867445,1.72992381856285,1.72913875753882,1.72817505914927,1.72820500583719,1.72855229486652,1.72722449330045,1.72680050818148,1.72558452080728,1.72488700017085,1.72364978752575,1.72166294772951,1.72226097251596,1.72197933374707,1.72064629832571,1.71914766742206,1.71973227948072,1.72045184549203,1.7198810795419,1.71911682582228,1.71832088070256,1.71694980972902,1.71639032548384,1.71560139400219,1.71729613688551,1.71938695449717,1.71925603610329,1.71947450785341,1.72250573254681,1.72463743705632,1.72645060060545,1.72558997221899,1.73010781978558,1.7312698345567,1.73486585753531,1.7365883982259,1.73776598259578,1.73622083609709,1.73810595632591,1.73699322031234,1.74027405823417,1.74144985400458,1.74270182944534,1.74210722091674,1.74566470736983,1.74796036847008,1.7500055532627,1.75173725360931,1.75203879671144,1.75150063056525,1.75179074352807,1.74957533830551,1.75229270370905,1.75262200618597,1.75538383811485,1.75754343990534,1.75903650629653,1.76184987496299,1.76144248896548
1.62770044917835,1.62918932404308,1.62975793527631,1.63095719867754,1.6318423465717,1.63306802163513,1.63382698049365,1.63543521165076,1.63643551032727,1.63776048032953,1.63956861103566,1.64113127439743,1.64170953419216,1.64179560089172,1.64158913459097,1.64097675942972,1.64058572047486,1.63971818383323,1.63971708758011,1.64019967866566,1.64148584213705,1.64363011390151,1.64574843973277,1.64784454098907,1.65184559491714,1.65357984863879,1.65427873195675,1.65470535565072,1.65433475877596,1.65417347158017,1.6558538774836,1.65768642384339,1.65845043744612,1.65949809782819,1.66019434914946,1.6609031984595,1.66122113226374,1.66213383791787,1.66367025439583,1.66549741170452,1.6664909306943,1.66771517125532,1.66855033640431,1.66972625379663,1.67233705856601,1.6755409884642,1.67722514921136,1.6789739221864,1.67915203647837,1.67988914277648,1.68054629870906,1.68189477177739,1.68178130138511,1.68244467951676,1.68274094367358,1.68395314255219,1.68647755913888,1.6891028809156,1.69024697423044,1.69240270366222,1.69494284002341,1.6963609509871,1.69812787070465,1.70191118645888,1.70199755142017,1.7022846172797,1.70155532598485,1.70159379033154,1.70119431225908,1.70115455971444,1.70022361289528,1.69958891604732,1.6987327906484,1.69834542330989,1.69828758059079,1.69870016563329,1.70036798111675,1.70181590956668,1.70205307857836,1.70204956355112,1.70324840606648,1.70434080515849,1.70462906449568,1.70471990925337,1.70448062793606,1.70405589458721,1.7036074714419,1.70280946943788,1.70302554996899,1.70288315445841,1.704139113306,1.7055233984696,1.71100241118741,1.71446548263744,1.7170345935474,1.72074370929031,1.72247141239304,1.7234703765011,1.72367697721187,1.72371744549062,1.72352780596513,1.72284010870773,1.72196305655094,1.72030215181463,1.71989667382156,1.71876601396631,1.71925839157075,1.71909690419895,1.72082636040485,1.72190197685793,1.72370136911648,1.72498329994447,1.72567741143971,1.72655572568395,1.7281390434588,1.73041047183702,1.72948017177904,1.72932029052911,1.72824206745044,1.72801986059075,1.72726231657428,1.72707213333498,1.72648953383586,1.72607165518954,1.7254761514689,1.72464371402413,1.72395232520778,1.72268059324196,1.72249461575654,1.72148234547564,1.72116398736298,1.72001831569382,1.72061695262735,1.72024712149669,1.72071436110439,1.71976841075561,1.71947688435588,1.71782409672071,1.71794508533509,1.71717581959867,1.71853385998482,1.71926837251606,1.72040051424372,1.7214721611364,1.72306169373172,1.72501490863645,1.7259105386835,1.72737936200844,1.72854431844106,1.73055444948993,1.73210366025683,1.73554759778778,1.73673276851805,1.73806573793217,1.73830318218252,1.7389775600881,1.7408814221039,1.74308571753815,1.74362789265282,1.74448868314666,1.74571975756578,1.74761938299297,1.74876486216557,1.75065401374717,1.75071680118979,1.75172185829026,1.75068161182368,1.75098385501314,1.75022626859488,1.75147727756418,1.75230341881678,1.75449562111697,1.75559798778113,1.75693762087214,1.75783681632035
1.62567477604279,1.62487989474927,1.62746405334089,1.62725847710762,1.62993684406259,1.63062267632459,1.63201668758212,1.63156127758842,1.63421288798592,1.63433962408277,1.63732996402536,1.63807989323234,1.63933334308798,1.63917586646351,1.63943437619902,1.6391828562806,1.63852680992347,1.63776113746651,1.63686636397178,1.63436987762328,1.63815501536488,1.63999188982438,1.64405779886571,1.64702531584213,1.6492336879713,1.65132371745972,1.65188981988708,1.65295800759425,1.65239150034434,1.65258510089444,1.653546932987,1.65484942247868,1.65468343569445,1.65294255792043,1.65444429741362,1.65288310001298,1.65705826550844,1.65815290373449,1.66129188066464,1.66407720829829,1.66428662402139,1.66439583493562,1.66602589668526,1.66598144816943,1.67111291489964,1.67779266819505,1.67823690446489,1.68033241258684,1.68034781977367,1.67986468471973,1.68089576205984,1.67902128520021,1.68079173892036,1.67764059141813,1.68109375552592,1.67968763296991,1.68602062602792,1.68837065464497,1.68960613371791,1.69183410979066,1.69223977939294,1.69252006273919,1.69389729931076,1.70391845520258,1.70171908986944,1.70325315452942,1.70038768549817,1.70073085356929,1.69952164849003,1.69910199125214,1.69855052386831,1.69743579717561,1.69755229404168,1.69653346787822,1.69754890707439,1.69665857079611,1.70019673218996,1.70076674121308,1.70200932820235,1.70106235434149,1.70406064996364,1.70748656878274,1.70599174097897,1.70691998778972,1.70547651642929,1.70648074826016,1.70382429855239,1.70324872486948,1.70248684129191,1.70288812959223,1.70389398677701,1.70528260160901,1.71012238605806,1.7136624216507,1.71517951675053,1.72565266278101,1.72400070002126,1.72420324944085,1.72291896903026,1.72336229829713,1.72125064135082,1.72066946011975,1.71925216197521,1.71825969141343,1.71756241264255,1.71669619965422,1.71698258871069,1.71596533326668,1.71871392654954,1.71960742748773,1.72280784119034,1.72619766694478,1.72555348993883,1.72658053800779,1.72772545231272,1.73231552054072,1.72864113190726,1.72843134165693,1.72715281800539,1.72749490146556,1.72608669773068,1.72566476416891,1.72549352161707,1.72567130154977,1.72521449974584,1.72481334703931,1.72420918337109,1.7235617305834,1.72266673983244,1.72172630493413,1.72130575162535,1.7210808955825,1.7209240664206,1.72152654110109,1.72114174038934,1.72223641545096,1.72004044672631,1.71942549562838,1.71860684782741,1.71861452792419,1.71911218280288,1.71976895106724,1.72128793883152,1.72254361909243,1.72404166123089,1.72457455994842,1.72659612152872,1.72653546104286,1.72840674008523,1.72741123251382,1.72900674344465,1.72552711590203,1.73578083351372,1.73965578803449,1.73872568548621,1.73845355699853,1.74163218675572,1.7454522128123,1.74472984059229,1.7451658362655,1.74583558907923,1.74611534486852,1.74805647669367,1.74880931529704,1.749937249602,1.75167602044385,1.75022914030863,1.75003291248337,1.74875599807208,1.74610348238284,1.74971911394604,1.75189569618821,1.75291808238884,1.75357724255914,1.75471436608239
1.62284504407674,1.62438169825913,1.62501502054722,1.62665030906583,1.62731706867569,1.62882756212689,1.62964431954992,1.63119312235865,1.63301474980529,1.6351256379404,1.63676475128523,1.63818158066646,1.63856042780689,1.63858438199109,1.63855527317524,1.63825999344304,1.63774185771984,1.63683454955388,1.63642616621012,1.63572701331361,1.63723065352478,1.63870392740683,1.64321235615329,1.64591804030306,1.64765401397305,1.64876070122567,1.64950214129341,1.64996794743927,1.64990927616264,1.65105406328496,1.65074050792132,1.65264775530828,1.65231041985685,1.65255482504959,1.65342453185611,1.65401928937121,1.6557841159445,1.65680076981169,1.6591457865893,1.66086076703538,1.66199990413303,1.66277773282427,1.66494426561266,1.66715653992213,1.67032989258589,1.67410678860788,1.67613771706703,1.67861637463636,1.67926094882117,1.68109569363562,1.68045820369488,1.68137272484329,1.68069403283746,1.68164926257085,1.68131300112043,1.68243954228759,1.6839904178542,1.68595054980471,1.68708758113255,1.6887383346204,1.68950774637314,1.68989812242291,1.69119066804341,1.69177144105264,1.69381486475419,1.6941038917803,1.69625234580281,1.69700806722853,1.69725080708889,1.69737022128333,1.69717820810052,1.69672392776166,1.6968263027789,1.69705864340458,1.69783577106525,1.69953592008033,1.70213871325056,1.70384021114744,1.70398615055298,1.70416396893642,1.70480081998663,1.70552622413707,1.70557470613401,1.70554025376855,1.7048131084636,1.70397642721066,1.7028300929415,1.70166778999447,1.70173787508737,1.70201204115316,1.70400878616205,1.70776753729243,1.71004246507303,1.71204231591875,1.71493546504054,1.71700326100898,1.71846093644958,1.71921064174993,1.71913662221241,1.71816672590386,1.71855826141974,1.71754665061137,1.71805812581762,1.71730371783376,1.71744744228807,1.71648068904791,1.71792777620922,1.71849622053282,1.72003418528776,1.72078950465745,1.72278167179519,1.72396296129696,1.72417900085883,1.72378788008097,1.72397023921061,1.72335753760094,1.72427288168731,1.7243607999192,1.72428527265487,1.72428640609454,1.72417395418403,1.7240584861101,1.7248804014868,1.72515417019196,1.72592721842399,1.72594355834563,1.72580418880166,1.72490344969562,1.72451891038426,1.72344078689658,1.72333138553644,1.72244715172066,1.72300096438439,1.72252474679489,1.72296077237875,1.72206250128742,1.72200508736202,1.72069009884327,1.72111510815187,1.7205616621458,1.7213443101116,1.72147306522579,1.72286077830107,1.72398699703737,1.72478639290325,1.72583973075592,1.72684054012274,1.7284491475504,1.7282232623202,1.72875355236836,1.72913564558522,1.73033429248554,1.7335126815416,1.73599868371861,1.73735240120026,1.73949986924419,1.74122019418255,1.74350260230047,1.74329909364028,1.74396246331679,1.74439331193606,1.74583773802165,1.74606494492565,1.74708331727538,1.74672130574467,1.74705286517697,1.74660622946939,1.74674050885939,1.74566894659373,1.74557382355518,1.74644595260795,1.74884871677465,1.74902906774483,1.74992590354754,1.7508615654815
1.62136092196599,1.62173579070984,1.62397617917849,1.62425102140258,1.62598580691118,1.62510852013347,1.6282442193489,1.62861893936904,1.63259089234461,1.63530786950838,1.63689868847324,1.63903688443625,1.63816677103552,1.63841496034583,1.63760746715037,1.63847776407961,1.63666387430094,1.63663716287045,1.63556909671756,1.63574266576987,1.6358121954182,1.63467338745577,1.64380335167557,1.64641022428329,1.64633337296824,1.64694256971715,1.64738395666607,1.64748593664635,1.6465308102938,1.64322995234058,1.64592306056011,1.64395037443554,1.6493825617191,1.65147003145975,1.65263670347932,1.65405407764796,1.65502081247863,1.65442908524995,1.6573428290508,1.65851956636278,1.65980017073876,1.65990302857789,1.66369181206747,1.66738654270852,1.66939778303423,1.6715282003412,1.67464786419937,1.67639605701086,1.67910242928686,1.68188038257017,1.68138413090883,1.6809964875659,1.68215226027635,1.68256236415252,1.68267136439017,1.68210189247951,1.68314286457526,1.68247679790775,1.68501593049676,1.68571362739101,1.68725422287997,1.6865526028963,1.68915355917148,1.68954736491864,1.6917342616276,1.69232123717386,1.69333399919693,1.69228974543671,1.69500545827693,1.69600514384873,1.6961686690749,1.69501506791713,1.69634064488601,1.69622287332893,1.69716541564911,1.70805917965407,1.7046452807004,1.70787423636561,1.70577164775977,1.70669436792637,1.70538201739012,1.70457741989391,1.7050042276895,1.7054670782485,1.70382982436638,1.70259871018137,1.70127967781316,1.69977607590171,1.70021677419877,1.7004208207571,1.70196009113064,1.71201681168664,1.70971919891258,1.70978369276348,1.70893603618197,1.66669015288523,1.67614442629111,1.6731655659981,1.71687077423322,1.71555173866629,1.71602023091925,1.71444819039901,1.71658785024759,1.71732966140829,1.71695379162494,1.71574517092444,1.71836279699281,1.72182199821045,1.7208899495589,1.72223560105916,1.72252828098067,1.72385000514536,1.72275759938588,1.72130866588655,1.72119011915937,1.71964436916216,1.72096577338948,1.72117808851752,1.72113565804418,1.71942006842542,1.72172539357393,1.72269291761846,1.72378613857519,1.72554433550337,1.72627198655127,1.72873646733352,1.72697370087546,1.72740339575729,1.72570717700685,1.72621785962193,1.72444942434222,1.72490942565421,1.72403943958656,1.72562618789831,1.72374401649908,1.72436091994638,1.72273429519682,1.72346481398743,1.7222804687468,1.72380567561304,1.72252534673156,1.72328627443785,1.72405620405091,1.7254240626518,1.72591358141914,1.72521368499977,1.72817377510416,1.72929380088696,1.72951344834786,1.72754394869321,1.7302581715618,1.73151707352951,1.73256869892176,1.73196089987849,1.73602272292026,1.73961049625037,1.74098889467621,1.74232066396391,1.74225565108174,1.7407771524166,1.74336155170932,1.74409960040242,1.74494426314711,1.74386343693946,1.74387509970154,1.74058563277656,1.74344489845868,1.7430184044459,1.74353355056728,1.74085836672454,1.74275398822534,1.74076080155327,1.74484429402163,1.74546008452242,1.74769006724915
1.61968420587204,1.62099038498873,1.62214446172904,1.62409304254073,1.62467823787943,1.62589244745825,1.6274400472596,1.62972210693459,1.63192060544454,1.63464045063053,1.63573099001906,1.63686773011996,1.63656229777615,1.63595261702779,1.63552657219157,1.63499941208879,1.63487609143717,1.63453396559383,1.63480913485726,1.63496644202398,1.63649755055791,1.63817988973557,1.64177930488659,1.64366075460269,1.64453807848217,1.64506067464343,1.64533140037104,1.64546654888175,1.6451511653428,1.64478415160457,1.64555335797386,1.64618373030467,1.64805628103906,1.64966538074309,1.65180184366179,1.65518535306868,1.65626453291374,1.656854283234,1.65792336506379,1.65862709088469,1.6593751962333,1.6599788153519,1.6627331168767,1.66531136181871,1.6680021308955,1.67065574114516,1.67282831382373,1.67529953002521,1.67644432931189,1.67797668382559,1.67861156092817,1.6801784549429,1.67969703165661,1.68100698003329,1.68036831488178,1.68140971866739,1.68100141456941,1.68182862526588,1.68306347127009,1.68504510909462,1.68671696357544,1.68838705693137,1.68954381531258,1.69046140452824,1.69149726859841,1.6922048886547,1.6927684009444,1.6930451055718,1.69459891964035,1.69586267783411,1.69632333532578,1.6966379534777,1.69674400534593,1.69696412026648,1.69701867306392,1.69749752934932,1.70032122723848,1.70266761292976,1.70403293417006,1.70595736046956,1.70558369875464,1.70522308435678,1.70478607593793,1.70439020705832,1.70298676888023,1.70186218821317,1.7007378717184,1.6997023087004,1.69977593707646,1.70004274371996,1.70176368034035,1.70398009230338,1.70685513521419,1.70788402320593,1.70821125471051,1.68093889371999,1.67989049277812,1.68132963523426,1.71612985903862,1.71567539465306,1.71651761088546,1.71645336236345,1.71808670188651,1.71868971148663,1.71899790524142,1.71857552026385,1.71966634838872,1.7202767441133,1.72111756298885,1.72149926146134,1.72278353806454,1.72333851461272,1.72308261398425,1.72176007225304,1.72094068648002,1.71935743200328,1.71988791014555,1.71961639714089,1.72064673885614,1.72061992375659,1.72181698630901,1.72205448564273,1.72383883397064,1.72473433238464,1.7266977568925,1.72771044521843,1.72776330173302,1.72702490400927,1.72669129541795,1.72579774609127,1.72577727106978,1.72511297061876,1.72561095885159,1.72512405834419,1.72547928427716,1.72454686259826,1.72471143219468,1.72364942224523,1.72397505739687,1.72330756525928,1.72387594659873,1.72387189371387,1.72527029197703,1.72649635433601,1.72712205224101,1.72813283208456,1.72893912919762,1.73049419097792,1.73009026096639,1.73059903430757,1.73036071812516,1.73126400252163,1.7309897847942,1.73161565173702,1.73348659109546,1.73732630038876,1.73881774667418,1.74037361279459,1.74005791027408,1.74089783910232,1.74117563918394,1.7426131942879,1.7424111103284,1.74288768258863,1.7419628977464,1.74119668981671,1.74111152505612,1.74185714604453,1.74091665124816,1.74121737334232,1.74054619796642,1.74080170873733,1.74203595325355,1.74380626379556,1.74458678459051
1.61937739900721,1.61790352799506,1.62169982660103,1.62286777312996,1.62470172336408,1.62414412200671,1.6274665763602,1.62917664285248,1.63186337867822,1.63450540944282,1.63518397694735,1.63566749577982,1.63547372884237,1.63338176780762,1.63353954648853,1.63181130134557,1.63287999801922,1.63300415027102,1.63345899660395,1.63418313057868,1.63641778410689,1.64026644733634,1.64087766899635,1.6419729694637,1.64295648340071,1.64301638392344,1.64384512132176,1.64288291350619,1.64448004035262,1.64429867073317,1.64575423787824,1.64667317709103,1.64730960211937,1.64730514821239,1.64989484717544,1.65901467561537,1.6574439462455,1.65942059470554,1.65811225112826,1.65954192338661,1.658446995625,1.65854672799355,1.66153066124301,1.66314660623109,1.6668978520408,1.6693050000707,1.67188052967794,1.67314199145265,1.67507030656686,1.67405035131179,1.67744031409415,1.67667961525606,1.67892937612953,1.67663439140817,1.67952758228411,1.6781680108306,1.67986090758844,1.6781228982791,1.68159955616204,1.68350983079301,1.686419666266,1.69059716350538,1.69015510971168,1.69128293008637,1.69133997947734,1.69244918187883,1.6922527679355,1.69262960679793,1.69433546211906,1.69652733630428,1.69666437938239,1.69806037919199,1.69735956878375,1.6973696098881,1.69667588892215,1.69487700399781,1.69617421908422,1.692668747357,1.70100006391633,1.70759202847866,1.70602504378801,1.70643681895984,1.70479208786759,1.70474791534891,1.70169658497041,1.70166354944093,1.69961833340207,1.69931016046366,1.69859966672158,1.69882787932484,1.7005338929321,1.70297735091632,1.70515136488187,1.70655156885877,1.70753210311576,1.68217451731468,1.68170273515319,1.68336959661091,1.71541951985084,1.71516107848227,1.71680705389567,1.71798331292622,1.71938755096836,1.72174076862866,1.72061189159124,1.72136521582481,1.72034586943288,1.72002640538562,1.72067596284492,1.72144788399874,1.72259131610959,1.72526281508955,1.72326431230581,1.72335549270943,1.72048245936666,1.71832744360017,1.71855247999764,1.7185415536155,1.71993404460263,1.72209639731374,1.72149172813955,1.72193544018067,1.72325078816993,1.72490340412379,1.72668838755,1.72951936331621,1.72806780053373,1.72809845184771,1.72687070335416,1.72666091692207,1.72605422226122,1.72687702814193,1.72601761900039,1.72711231124934,1.72595836807751,1.72736319417966,1.72520671277962,1.72610818367623,1.72417385098374,1.72450242103046,1.72402608842642,1.72455482249665,1.7260296276232,1.72787426084436,1.72857349317801,1.72939924443369,1.73053047156126,1.73094002808737,1.73176428512694,1.73161997133548,1.73133488473158,1.72975552125,1.73015273594087,1.72783020651554,1.72966345995743,1.72618945325141,1.73702859591864,1.73738451174417,1.73856011321247,1.7382103460397,1.73994504958707,1.73928981050985,1.74088477317154,1.74055834896271,1.74108457629997,1.73865506663948,1.73982319160352,1.73853117791005,1.73965807328115,1.73901528009072,1.73935025629109,1.73760450713353,1.74035195858409,1.74006843918924,1.74263403796985
1.61904634415403,1.61978902244183,1.62171115210155,1.62426696433464,1.62504612827978,1.62628900046211,1.6273050647967,1.62902262050849,1.6305543760622,1.63266764584238,1.63406909126005,1.63607962853647,1.63578568936914,1.63480325520066,1.63369594836355,1.63267065847337,1.63264763706613,1.63245595745361,1.63300542771629,1.63342604879226,1.63578796546762,1.63812361212714,1.63974602371621,1.64096353320667,1.64187234737799,1.64261739874924,1.64306626658054,1.64361235162072,1.64410755530387,1.64481141700138,1.64523317348668,1.64583701540149,1.64655546705745,1.64745946381166,1.65073702846474,1.65440683796685,1.65548767424568,1.65577851836965,1.65643127875174,1.65655529007147,1.65726545698082,1.65793321666898,1.66200556104007,1.66432653636248,1.66670832538501,1.66881404012198,1.67055682222068,1.67273252212466,1.67345187022638,1.67524520562354,1.67601091324476,1.6781523762558,1.67781699021115,1.67893931504526,1.67843271391739,1.6793699971087,1.67866206856519,1.67921622475099,1.67984385025322,1.68215919758627,1.68481735719214,1.68823524840231,1.68913405267284,1.69014215245338,1.69017076956424,1.69063175464987,1.69127764694873,1.69238383387902,1.69363199578256,1.69512352899562,1.69556061878024,1.69627324422044,1.69664705244795,1.6973614230242,1.69691684489758,1.69675028910455,1.69627136519531,1.69583324616779,1.69703404533408,1.69570844558984,1.69567102074458,1.69665987367204,1.69767184863981,1.69761651679981,1.69774296541103,1.69769577526439,1.69735428983012,1.69686597497527,1.69715145634888,1.69722030189985,1.69885920814161,1.70068833854086,1.70400833191057,1.70575320972292,1.70744678325675,1.70902084664066,1.71048759175085,1.71136655076004,1.71499322447065,1.71661922447293,1.71827921836486,1.72003805971701,1.72081274638484,1.7213953188211,1.72153370472134,1.72164659122453,1.72162514208789,1.72153332713194,1.72157286615764,1.72148302577525,1.72253480851872,1.72326054301161,1.72322206461068,1.72261865726632,1.72131846307503,1.71956094283618,1.7196407486858,1.71917898471706,1.72075087009296,1.72140314862153,1.72247008103191,1.72264426009985,1.72463792301077,1.72592617310343,1.72768928397722,1.728635313567,1.72874983742097,1.72821892326673,1.72798259943211,1.72732706682124,1.72729615238767,1.72685473686568,1.72750824184961,1.72750169901792,1.72748417435743,1.72654919566312,1.72644947968733,1.72545683614808,1.72549617996096,1.72483490588795,1.72540966091509,1.72568024156328,1.72698029558603,1.72829878905047,1.72877904349845,1.72972086681579,1.73059468656214,1.73216199623812,1.73176086880477,1.73208951951649,1.73105304976146,1.7308216956235,1.72973047450547,1.72943113553592,1.72951409318088,1.73044283436292,1.73311831935164,1.73485836937556,1.73509164179295,1.73668151542365,1.73738632001346,1.73933065653968,1.73859139600469,1.74045010210355,1.74066806038896,1.73967560126322,1.7374284150806,1.73712938493369,1.73635053742332,1.73704381789751,1.73686356033133,1.7378287226764,1.73870446827438,1.74025455299022,1.74123450632574
1.61947422567158,1.61866304772331,1.62266756483741,1.62566351464159,1.62636881419152,1.62700876095249,1.62768293671613,1.62776300460701,1.62982472692902,1.63072523272349,1.63299862149052,1.64503226323932,1.63684551988426,1.6360018773032,1.63401458789178,1.63294577491683,1.63251652494731,1.63205259377062,1.63229455699043,1.6317385348364,1.63482158306696,1.63723431776316,1.63889300003143,1.63998810523513,1.64138988336616,1.64141947163375,1.6430849187896,1.64277001906694,1.64457977197271,1.64394517454308,1.64538293915495,1.64362973016285,1.64612415868054,1.64511352988793,1.65145483645418,1.65278482838756,1.65383085506883,1.65243712268144,1.65446046649443,1.65394294760044,1.65549285424319,1.65423253450738,1.66368815254743,1.6653294988729,1.66694658732415,1.66761122531657,1.67005422632206,1.67122118732175,1.67308802684176,1.67348556478024,1.67630085932344,1.67737723660551,1.67863626035354,1.67814107385002,1.67902014867594,1.67816333584395,1.67863729882745,1.67750809668899,1.67764632010621,1.6755157204325,1.6825503061369,1.68852827618493,1.68798969081703,1.68992340421185,1.68858889373396,1.68845120049708,1.68986988641603,1.6919109082674,1.69270176280895,1.69466630051692,1.6943141721446,1.69440465220727,1.69585200912161,1.69772604764941,1.69730297889612,1.69821175499842,1.69679538277264,1.69669072454807,1.69551921256674,1.69403012900711,1.69368193538768,1.69272605721344,1.69180273966131,1.69174199008803,1.69384636204405,1.69446031430178,1.69485995655664,1.69426966736655,1.69537889695836,1.69450637341431,1.69640801410248,1.69475419761984,1.70382742408377,1.70458105329328,1.70681166395611,1.70795672793236,1.70975553431573,1.71019250035725,1.7130833882356,1.71800794926892,1.71887922853779,1.72351727040449,1.72154805381467,1.72248008168877,1.72161752126724,1.72315761094158,1.72211230900046,1.72420618532398,1.72160128832226,1.72196808073106,1.72157156501398,1.72391316014363,1.72242323484299,1.72408944385452,1.72110854676027,1.72131290405433,1.7194767382593,1.72033555292632,1.72062676649281,1.72282280031501,1.72251897330045,1.72406145391917,1.7250651068598,1.72874808858093,1.72808753183464,1.73053555157811,1.72886072976993,1.72986706027914,1.72827398774462,1.72943923786967,1.72739307528905,1.72839026507304,1.72766556596993,1.73110347719179,1.72748696738182,1.72866675262274,1.72590188793365,1.72746126577987,1.72508567484195,1.72680080590894,1.72544822530064,1.72712827657089,1.7274388241145,1.7291340258903,1.72922322961637,1.72828730172754,1.73144087919326,1.7329051385992,1.73277313284986,1.73146127581605,1.73170802250385,1.73040809956759,1.73027947335555,1.72853876448791,1.73018053938767,1.73087718605947,1.73187191298377,1.73020178201649,1.73289282882851,1.7319389625665,1.73548293501139,1.73976023893612,1.73356046855349,1.72160248384458,1.72200484968893,1.72138737159852,1.73265307266206,1.73264704199199,1.73404484738729,1.73218654470714,1.73558597895955,1.73492332248283,1.73824530019792,1.73815954391418,1.74098906147559
1.61969359392384,1.6210959573947,1.62320943977713,1.62578451006545,1.62641334641191,1.62718953800907,1.62749607931729,1.62827532993128,1.62958546573225,1.63272541760478,1.63400366283296,1.63486450687628,1.63501981507265,1.63407639884835,1.63342171646569,1.63295874087753,1.6329297374427,1.63280321466194,1.63314728090366,1.63323735006428,1.6350321856648,1.63646184449956,1.63841065481706,1.6399312815986,1.6413136811256,1.64259183784125,1.64344268912823,1.64462185035268,1.64565789475987,1.64715092833428,1.64714258256492,1.64747681017625,1.64831390961814,1.64946822204145,1.65213626662645,1.65385426551692,1.65498876802555,1.65514123480853,1.65574293735348,1.65540136782241,1.65687782008197,1.65820123475245,1.6634361940165,1.66642422880229,1.66758526799829,1.6685648011884,1.66891949719883,1.67006864356031,1.67080769195187,1.67309772002307,1.67406287322079,1.67661669020174,1.67683764088349,1.67796889240602,1.6771020786276,1.67776274682197,1.6766970487204,1.67693687206861,1.6763643733043,1.67692209354882,1.67998832934006,1.68256338415475,1.68417133091984,1.68512836705832,1.68538756360191,1.68614465783423,1.68741121757207,1.68914118770546,1.69034090757678,1.69174589560515,1.69232740946851,1.69301490355699,1.69404426869068,1.69524185700008,1.69550100244706,1.69602688433876,1.69527003291284,1.69475165299009,1.6935800298397,1.69245418212224,1.69200870389896,1.69176962043676,1.69021728429741,1.69129292826128,1.69152868308512,1.69217508312758,1.69386214953332,1.69478780517594,1.69608548450767,1.69667477440926,1.69779860027587,1.69870186524178,1.70252522170995,1.70489817327529,1.70640686359411,1.70776432048504,1.70924902830425,1.71072376801581,1.71332426587268,1.71644661560856,1.71803254547195,1.71970672454821,1.71987911913359,1.71982699938605,1.72021985605854,1.72033547581258,1.72059800540653,1.72047805401481,1.72011468555027,1.71935298195362,1.71970933099114,1.71953296053272,1.71971207122849,1.72015403289016,1.71924995332643,1.71875858661838,1.71930691640612,1.71951386440251,1.72117279671961,1.7224969767692,1.7232192465492,1.72355091861809,1.72528890309093,1.72646612359576,1.72753881503926,1.72792374060443,1.72818181329219,1.7278579917591,1.72771781061861,1.72707762745121,1.72675070615744,1.72593518536104,1.72644403942027,1.72615945491254,1.72604712010015,1.72481613598182,1.72471772063305,1.72351027847674,1.72380149733835,1.72328200045349,1.72445849084738,1.72536303238601,1.72684140616216,1.72844188985135,1.72947412016321,1.73104745176141,1.73186185236564,1.73338271263285,1.73265304355159,1.73263831866703,1.73167142620361,1.73148181248706,1.73010880155669,1.72973012899587,1.7293072942205,1.73021852726882,1.72971711031944,1.73040724505296,1.72994129696137,1.73083751061711,1.72992408660316,1.72817476642238,1.72756156915092,1.7243282591805,1.72305260795623,1.72424829473221,1.72788742880167,1.72991047998828,1.73178994891919,1.73300433465833,1.73496151418398,1.73715600520005,1.73821204403732,1.73971600606887,1.7413159497253
1.61999292718031,1.62193680062695,1.6238787605395,1.62702814315326,1.62691388646383,1.62711363110179,1.62751460909763,1.62787552041037,1.62846355903549,1.63638159272657,1.63592753473377,1.63526935865005,1.63442245559688,1.6313537607435,1.63306007480461,1.63270048329469,1.63361489427344,1.63366590270458,1.63419041691962,1.63351724117477,1.63557452221423,1.63526354445191,1.63865856217431,1.63919915432729,1.64212224200368,1.6426765889192,1.64462453537556,1.64472325872118,1.64753496785211,1.65010502670279,1.64954818595023,1.64946762695394,1.65068899582888,1.65196247649951,1.65405081781625,1.6556451535714,1.6568111298565,1.6577683016587,1.65742752094736,1.65536873352829,1.65804601009091,1.65817055368403,1.66509158889052,1.66899170419275,1.66871250165114,1.66891265270265,1.66841629394283,1.66651421762099,1.66931640363057,1.67042528805549,1.67262455541037,1.67534373259874,1.67609765947826,1.67700760762714,1.6759848272287,1.67548143889919,1.67570371374243,1.67426356254365,1.67525700253371,1.67452600009924,1.67830572050506,1.68024551152524,1.68087065656426,1.67825179559385,1.68184957919446,1.68235916041046,1.68503343016895,1.68634253063016,1.68809533520871,1.68931929697572,1.69048701893237,1.69088451877831,1.69241981875435,1.69301227972506,1.69386249733859,1.69424929479091,1.69399972394361,1.69274243348299,1.69226949128935,1.68962184321282,1.6902559616876,1.68262680453471,1.68554209547213,1.68279394046172,1.6884867330254,1.68917081877273,1.69325099930952,1.69550766566009,1.69704278427239,1.69865342368138,1.69900612613683,1.69976715387944,1.70240814409525,1.70541924015559,1.70583043262328,1.7063451024503,1.70818069444802,1.70916876831505,1.71247897462357,1.71597231482543,1.71650385152928,1.71752287427225,1.71777968690979,1.71753918409099,1.7183523408812,1.71841357963025,1.71862496586527,1.71839805878889,1.71794753147776,1.71744169267036,1.71694860487116,1.7167188126677,1.71527111587953,1.71173028829921,1.71529608411917,1.71766926220034,1.71742796483904,1.71993851276825,1.72033479587792,1.7245635278681,1.72270215329576,1.7240263722474,1.72434898837313,1.72669957726655,1.72617129154732,1.7275572997935,1.72677677968163,1.72760744654459,1.72637433438787,1.72650261630054,1.72506849943246,1.72471309934892,1.72411047190776,1.72444561382508,1.72340966701766,1.72337402416767,1.72210797371741,1.72149656367937,1.72107349229568,1.7206278173661,1.72230791117581,1.72405064444821,1.72585728835544,1.72765787285298,1.72998970756784,1.73272409695425,1.73297814009827,1.73388297322377,1.73332497435366,1.7326453997383,1.73229694291605,1.73162136949692,1.73052434748425,1.72843711897973,1.7291806188273,1.72770191972077,1.72914435805649,1.7272192436553,1.72907684825868,1.72659252276756,1.72799239598947,1.72444403187774,1.72596847478197,1.72277803653857,1.72439723065322,1.72235367879026,1.72584007877935,1.7231489331341,1.73161057155632,1.73097392503644,1.73603105037717,1.7375631369143,1.73951260848853,1.73850490486981,1.74268194964215
0.687924260346212,0.687701718550896,0.687924259440758,0.688424319202799,0.688825350448406,1.14370211201309,1.14370200021932,1.14370200021936,1.14370211201319,1.63877658623618,1.6378240882214,1.63700094448676,1.63546307377543,1.63467499193003,1.63460737013248,1.63485984324422,1.63533052113505,1.63666447860699,1.63687998967129,1.63735423565315,1.63864945944961,1.63924398354444,1.64129037038123,1.6427635419598,1.64398328417587,1.64565739820881,1.64586508336908,1.64709184421843,1.64787088659018,1.6498176565661,1.65007815390283,1.65149362521968,1.65204181954548,1.65525068408665,1.65649811668501,1.65798235659681,1.65883492602539,1.66056563316591,1.6610106763989,1.66230669635548,1.66206669451076,1.66359504859212,1.66619026058853,1.66850149334619,1.66859878732551,1.66883018770248,1.66717711186807,1.66643464518449,1.66640447701462,1.66758361481404,1.66854557806984,1.67019688458084,1.67188945526366,1.67206268670701,1.67230522773006,1.6738599249161,1.67361533480705,1.67364498020737,1.67340229973206,1.67454679146147,1.6766109914331,1.67886114880261,1.67944528340199,1.67945505999661,1.68043118602406,1.68176356932279,1.68297984852882,1.68430586521487,1.68579180564934,1.68722772097321,1.68902168342723,1.69066603105667,1.69124863133778,1.69174997068223,1.69195713053002,1.69232416906035,1.69301138073569,1.69374171503989,1.6924912751557,1.69132486332211,1.69022556980124,1.68813026696282,1.68632260893151,1.68470975239962,1.68895184195984,1.69207601473594,1.69480108409396,1.6973773698148,1.6984869218124,1.69944299344045,1.69992305496365,1.70062884822296,1.70156620687005,1.70282551433667,1.70425483220082,1.70587084752965,1.70686568020262,1.70817948895382,1.71071600406351,1.71327815372278,1.71438681788993,1.7152350289438,1.71669934759466,1.71756565580371,1.71814074237449,1.71794203799482,1.71841879653883,1.71794529451231,1.71764535819198,1.71646674036293,1.7161764264799,1.7148397972993,1.71447755219668,1.71304700334324,1.71436846262795,1.71460016801002,1.71574610398729,1.71588146769179,1.71745133074574,1.7191723071195,1.72036885023217,1.7226399228589,1.72380077008013,1.72465012335517,1.72526435431251,1.72523525269545,1.72591796135807,1.72583678140658,1.72578051504042,1.72490760255312,1.72466953604168,1.72363782802409,1.72361848917419,1.72264143706703,1.72299361616108,1.72208368652172,1.72221679360176,1.72100005566193,1.72121288235048,1.72048110547499,1.72170937264061,1.72257243989629,1.72488301420688,1.72725906990127,1.72872597424233,1.73066207128868,1.73139571354832,1.73271293113241,1.73204585957923,1.73189412185827,1.73127956221109,1.7310424794141,1.72967470499649,1.72880017536845,1.72822108372814,1.72844497431124,1.72767611189468,1.72798981336283,1.72716829759412,1.72773896967791,1.72586706279693,1.72551563783554,1.72420132623182,1.72454262061895,1.72486157060966,1.72720438774093,1.7281875159934,1.73134141211995,1.7321497113281,1.73376559790591,1.73741470566856,1.74019677680189,1.74097182064658,1.74249013913549,1.74409792786655
0.0046899459432806,0.0045098426479938,0.0046846936174502,0.00425693913231875,0.205631465825407,1.73084999998193,0.742856495756214,0.00384330998281541,0.732267849110894,1.64207697215458,1.63972298238705,1.63920367130371,1.63602951244532,1.63710187812501,1.63613909541725,1.63671970869765,1.63616096523145,1.64096856935365,1.6394035617165,1.64059080455904,1.64238986906839,1.6459412006838,1.64478272241115,1.64558362430995,1.64623014864658,1.64850581956965,1.64732965256504,1.6482303918007,1.64814492830285,1.65010763055538,1.65011108711214,1.65371386489068,1.65128016746304,1.66049636044708,1.65921252912599,1.66122519612512,1.65996807188923,1.66616006072212,1.66367613062793,1.66583571339377,1.66469667648912,1.66725841962804,1.66770479741874,1.66992001252873,1.6690646091376,1.66920047429002,1.66670782520499,1.6627665371732,1.66442557074574,1.66285179504962,1.66307114501622,1.65986528088749,1.66167422345161,1.6641163845388,1.66832587562896,1.6725870908005,1.67270744576992,1.67184907295093,1.67163789857407,1.67235731843975,1.67576799954389,1.67813299674349,1.67899565970007,1.67914293032559,1.67947340865261,1.68015038884106,1.6817025355405,1.68119124801238,1.68409714662615,1.6842859135968,1.68805004333833,1.69111712755361,1.69049897495112,1.69023936729578,1.69031501252937,1.68948288167885,1.69229390446452,1.69625781475977,1.69303072325952,1.69272025870476,1.69159119178611,1.69352987529973,1.68661544525486,1.68093279301735,1.690143857236,1.69530752098618,1.69624313156769,1.70072489234527,1.69973015903303,1.70104892032234,1.7003134222483,1.70107634548651,1.70035634045464,1.69944317094435,1.70248708354894,1.70530256035352,1.70506697935214,1.7049857183265,1.70863433391788,1.71169124305431,1.71204473077878,1.71238915350181,1.7154713586657,1.71846861537127,1.71780731923691,1.71787563946497,1.7180786322116,1.71895573184566,1.7169602132391,1.71682961777035,1.71478153899918,1.71470980561902,1.71309906121566,1.71388697877167,1.71268673310339,1.71384154806978,1.71283609262115,1.71316798061433,1.71289798263621,1.71113249504434,1.71596813287657,1.72330158918681,1.72236406105482,1.72495800658016,1.72344687164803,1.72463374321092,1.72424528951639,1.72631474097527,1.72447236519357,1.72498465116249,1.72340689382139,1.72414368042704,1.72214891716805,1.72248067351361,1.72161623658337,1.72300478291689,1.72136318239427,1.72211364096417,1.7203147947653,1.72050001261857,1.72032989247613,1.72026915894603,1.72382535386384,1.72682134745992,1.72793886927512,1.72786113565269,1.73062279365506,1.73139334301125,1.73162207189919,1.72967931769074,1.73113965569809,1.72965021878142,1.72976866849197,1.72631676025257,1.72852406661996,1.72647027156231,1.72812268835667,1.72479193506316,1.72778132346064,1.72518879327602,1.72648773762176,1.72153787559251,1.72472017218684,1.72147232224456,1.72722189443852,1.72799107413547,1.73115144998785,1.73233195350169,1.73328851462445,1.7436151987181,1.741025786684,1.74232302055728,1.74340362718875,1.74373316392158,1.74602206377873
0.00476653196729306,0.00473188979451987,0.00479846147226495,0.00458509960135376,0.161613305014381,0.203242221093138,0.741216723962404,0.737901877875834,0.734159511360208,0.733087246135793,0.732657555700976,1.63529227735232,1.63246118760108,1.62959647339377,1.46323180584742,1.46323180663598,1.46323180584742,1.63851932436425,1.63933774471188,1.64258561372882,1.64414567226592,1.64579975481965,1.64561059738733,1.64579445479951,1.6455163997546,1.64586368688555,1.64530639371728,1.64649522148225,1.64554159354143,1.64697577794904,1.6462787627028,1.64584302934304,1.64795117372869,1.64895421589054,1.65015844779925,1.65204174878527,1.65515279433271,1.65854490179835,1.66155571712772,1.66249212445141,1.66425532606139,1.66663437644029,1.66745680202287,1.66820739694819,1.66770501750553,1.66754976789158,1.66545665141528,1.66427979454592,1.66274023990474,1.66238373272994,1.66114641146478,1.66049733637517,1.66064163321462,1.66178735031691,1.66327971934321,1.66419807987821,1.6648103955576,1.666898748206,1.66856233694402,1.67018933936238,1.67089499947666,1.67217414529741,1.67355294712401,1.67526341984829,1.67779008567152,1.6797756051399,1.68131086015775,1.68273663590246,1.68431741618922,1.68581582230178,1.68730431475572,1.6888741486671,1.68894367865998,1.68908631149651,1.6890519414279,1.68927412021756,1.6898883286868,1.68982023315879,1.69015188320413,1.6899201995014,1.68972711784552,1.69006584386699,1.68859947017215,1.68991159962208,1.69121350627908,1.69423442513695,1.69584034040039,1.69739367764982,1.69831085456396,1.69880388994821,1.6989100472472,1.69863798938976,1.69869989951473,1.69863319146227,1.70034743572754,1.70159778909868,1.70237342849075,1.70447743075598,1.70635390920736,1.70841300963764,1.7094806257547,1.71201729340087,1.71431912041253,1.71575863861302,1.71728519103129,1.71799471468929,1.71809452784503,1.71733160330747,1.71640511217931,1.71528244404332,1.71395914292483,1.71261148546593,1.71246450413073,1.71161071563815,1.71205215254419,1.71138374127856,1.71194903845222,1.71115115646163,1.71143150221239,1.71074083377396,1.71315291889018,1.71571320471234,1.71832601847217,1.72009226953473,1.72109763630918,1.72136664983348,1.72265289481199,1.72307175014781,1.72325389526738,1.72240177503994,1.7223498361174,1.72128052453009,1.72112220784738,1.72005881077118,1.72101512854045,1.72101741056307,1.7211229572992,1.72010012754089,1.71984601932692,1.71884396004648,1.72004032424086,1.72103867668282,1.72297230358658,1.72490618780331,1.72678608296018,1.7288065701466,1.72972941715075,1.73096655148663,1.73136169513189,1.7321115450325,1.73209020913473,1.73231213123135,1.73125783898282,1.73065823154735,1.729975491595,1.730228228911,1.72905513237771,1.72930788219096,1.7280777229343,1.72871049902557,1.72658505147581,1.72679374130515,1.72598358364997,1.7278080173544,1.72816035042217,1.73101123701671,1.73084188699027,1.7334631928036,1.73396730155772,1.73814988644018,1.73969856662371,1.74349269910212,1.74395174305543,1.74532474736127,1.74585548812658
0.00453603973041383,0.00430143318910933,0.00460634391533379,0.00422752767288334,0.114630183445042,0.0038763299828235,0.741469780416598,1.64978999998193,0.7342418101731,0.00412999998288566,0.190240194727515,1.63811076692601,1.62947030640981,1.62741464836225,0.748983960605581,0.0037940599828033,0.742863036668952,1.63534445545355,1.63684109735586,1.64633245619415,1.64550151951475,1.64694224319084,1.64610197047476,1.64543464120439,1.64476218984973,1.64275974686342,1.64236025396032,1.63877950484442,1.64114110995866,1.63962530512205,1.64247451124251,1.64326944500519,1.64304727174851,1.64296329994906,1.64364082517899,1.6465426112109,1.64517360932665,1.64649242616224,1.64531533832391,1.64567951650202,1.65685874327794,1.66795992830869,1.66760023433946,1.66740432097651,1.66661117715541,1.66636159035069,1.66508339839652,1.66356485019106,1.6622382914571,1.65994237592098,1.66035803231871,1.65880012196582,1.65966075390147,1.65825294246865,1.66000041619815,1.65844759097746,1.65937608259515,1.65812065173183,1.66029220760702,1.66078708861368,1.66019408731222,1.66033886700764,1.66046103848215,1.66110446273511,1.66509223326167,1.6673446183198,1.68123193806065,1.68332668754137,1.68490947853587,1.68667930065374,1.6868604228255,1.68766542568901,1.68761396789465,1.68759908967192,1.68783267344189,1.68801955734066,1.68818842410736,1.68810227277195,1.68782565882708,1.68653833259598,1.68767753018408,1.68843029245709,1.68827636034614,1.69112698613778,1.69069803401319,1.69462583998551,1.69517706094455,1.69486135218851,1.69665591789764,1.69635959441928,1.69703684945946,1.69516697743371,1.69659012811938,1.69525022449286,1.69536618992112,1.6927003148759,1.69797162970007,1.70333377965608,1.70337169934285,1.69987802106528,1.70482587623013,1.71155602546612,1.71303692412764,1.71271915030125,1.71641451423817,1.7187334253919,1.71790577279485,1.7167457096087,1.71544196223366,1.71561865872816,1.71183324254747,1.71199924168249,1.71040339891736,1.71145988115241,1.71011579065753,1.71129548771466,1.70998088622413,1.71133318941073,1.70917235120864,1.7086244389826,1.70947455768736,1.70884577873342,1.71483879350222,1.71841855127413,1.71813186373282,1.71978045103217,1.72006636000823,1.72268220158912,1.72125980839777,1.72158113833696,1.7204655201261,1.72017210484356,1.71903168318144,1.71849571131554,1.71928391998163,1.72190057395452,1.71997993786803,1.71997379992091,1.71851262656708,1.71673909504409,1.7192061879225,1.72117253119531,1.72231030118475,1.72200575457263,1.72660617959687,1.7288044207744,1.73002467439705,1.72917404644012,1.73215972557744,1.73339274225244,1.73406093245259,1.73433532162884,1.73373508434742,1.73255058571728,1.7325724966707,1.73166556637762,1.7315950823594,1.73003837476039,1.73052057607728,1.7283887696069,1.72903062894556,1.72588795077099,1.72885636835996,1.72865680344877,1.73059256785983,1.73028766091995,1.73206079113112,1.73185930343566,1.7336713114288,1.73418759906923,1.73721786626611,1.74666386663432,1.74473670786217,1.74518002226508,1.74578966285176
0.556317473423666,0.556404537899123,0.556353712951124,0.556512131500555,0.557208798292939,0.557944026132686,0.740092925434401,0.7377166392793,0.735300724442175,0.102562629913921,0.145034230557538,0.188400566077429,0.745809767652458,0.747248300093079,0.747217204097559,0.131400843878738,0.742227841137687,1.63421838664141,1.63582344637467,1.63932750814719,1.64406179211866,1.64544629753697,1.64544262060629,1.64479004744507,1.64399467206507,1.64292387810936,1.6417426238,1.64046239715241,1.64042805744718,1.64014798303264,1.64067957863957,1.64076940616615,1.64084221825079,1.64135179923003,1.64162813963551,1.64268975110287,1.64293009164451,1.64358572869221,1.64434544231569,1.64613959638835,1.64970019511512,1.6542455352221,1.65824625030021,1.66191759776911,1.66393733530767,1.6642211334239,1.6631709780936,1.6622395351059,1.66019862204602,1.65957609832905,1.6590051777593,1.65952647530968,1.65908430419546,1.65932023099107,1.65922703494671,1.65915342333779,1.65897446236659,1.65870520791836,1.65907460687716,1.65904172947687,1.6591033863932,1.65936499108866,1.6600439742756,1.661279769044,1.66328949337264,1.66438623133792,1.67982705243074,1.68472906681495,1.68454039762059,1.68522425081197,1.68512915109185,1.68561806622522,1.68569734424872,1.68619280829524,1.68610213765703,1.68634826762208,1.68610034123101,1.68598671882248,1.68587098855563,1.68589593371907,1.68563655242574,1.68567334014316,1.68511142369955,1.68527001571866,1.68599008070653,1.68439398877933,1.68359160573477,1.68353420420142,1.68435291616508,1.68575356960579,1.68737302178013,1.68890848832569,1.6903352140365,1.69175015108719,1.69299262381564,1.693717562569,1.69475438307839,1.6953175537743,1.69584643211732,1.69672915572338,1.69771942769134,1.6984516317294,1.69888144494907,1.69931567317475,1.69990987787863,1.70061128875534,1.70149883500364,1.70312700780524,1.70452901050118,1.70557930879893,1.70745465623334,1.708231611966,1.70865628853172,1.70885087321615,1.70922036399274,1.70843700826832,1.70898156057083,1.70827916624542,1.7085138710162,1.70760513806245,1.70863796169674,1.70896483238692,1.71139515927347,1.71324491162707,1.71476130419801,1.71569495512597,1.71796748143552,1.7190342046408,1.72022952936318,1.72025382541514,1.72045368031863,1.71958234974854,1.71912874099685,1.7178705277524,1.71860917261261,1.71873690480236,1.71959617079262,1.7196479424458,1.71955430880939,1.71869153904727,1.71977458195756,1.72100917457123,1.72259295062464,1.72418223550239,1.72665808159599,1.72907160513617,1.73013958208814,1.73165896626418,1.73258419879214,1.73414426757802,1.73449826171217,1.73547236412517,1.73459600728074,1.73458642873419,1.73300191488782,1.73274690909124,1.73115526594355,1.73129244654509,1.72961806635605,1.73010517435079,1.72816996454617,1.72894175407083,1.72763945907856,1.72934365401258,1.72819115612972,1.72987971532465,1.72891437468103,1.73058390448776,1.73081052774178,1.7333348071598,1.73646612835161,1.73967013399725,1.74158030306538,1.74322499822457,1.74401803356863
1.46024800508402,1.63440999998193,1.45784669198926,1.61675999998193,1.18901329768802,1.62909999998193,1.13369257728439,1.62891999998193,0.734604310457961,0.0103110999843995,0.102568435624571,0.00359631998275491,0.743207536913035,1.63346999998193,0.744174216430069,0.00436791998294391,0.741085780526092,1.63134575343313,1.63427558945582,1.63539712927848,1.64491856321335,1.64432696461053,1.64482810346841,1.64311133784489,1.6434852377563,1.64182389203086,1.64161111892085,1.64008232692888,1.6403059131304,1.63943685432066,1.63949968257997,1.63834170111171,1.63837844165746,1.63656947810533,1.63899086663993,1.64020134813784,1.64068175359785,1.64054795993923,1.64278518394052,1.64497632459707,1.64602450415006,1.64601326393385,1.65229941568958,1.66221217796455,1.66302549459146,1.66244061714464,1.66217851887892,1.6608565193838,1.65857577601489,1.65694692913054,1.65845574081918,1.65926594476367,1.65922395675862,1.6594931237174,1.65912452300879,1.65966741553447,1.65870459467931,1.65814187487491,1.65814637852794,1.65645425102609,1.65822493952902,1.65704704002649,1.66006754222426,1.6603742990652,1.6631656011924,1.66284762113763,1.67708115384057,1.68593583470464,1.68332009790287,1.68348603343491,1.68326961522583,1.68319167250611,1.68378573505761,1.68468478314022,1.68445878181099,1.68450919022104,1.68421613787214,1.68326868636274,1.68408684089802,1.68508077390914,1.68370563562863,1.68302283286089,1.68175461496838,1.67972843259307,1.67918500763407,1.67906205025408,1.67838663900175,1.67931426805767,1.67811396041093,1.67787091383817,1.67647652061349,1.67562723877547,1.67493493670043,1.67465444416444,1.67571312382664,1.67767662620005,1.67755728330931,1.6791829614363,1.67945668344345,1.68115615598875,1.68485589182306,1.68800196572615,1.68873177403181,1.69114808530406,1.69350875558704,1.69747393759263,1.69986996019382,1.70378811804957,1.70295793124496,1.70342298362745,1.70380492799992,1.70304217437612,1.70573353773218,1.70917931906864,1.70713154419404,1.70776700527537,1.70676105082829,1.70783223810467,1.70669395720565,1.70775811354236,1.70702578380317,1.70836323396719,1.70798743268435,1.70707004145021,1.71070224444085,1.71290345814658,1.71510765942617,1.71801940599835,1.7184001067552,1.72150089656316,1.7195213820489,1.72137974427051,1.71801807450889,1.71814844333051,1.71660056061192,1.71751316640648,1.71839639018771,1.72158517973108,1.72048011360244,1.71975874827061,1.71995220396191,1.72049441141147,1.72304851611229,1.72474444488543,1.7278920585058,1.72851277205921,1.73152448949972,1.73238884812527,1.73393806986306,1.73408721296376,1.73571061026856,1.73652426080035,1.73612952678924,1.73566710154442,1.73420981140006,1.73152652964321,1.73195729023551,1.72927967486987,1.73045630912045,1.7277737264562,1.72924129075026,1.72665247821336,1.72846866731913,1.72540086204733,1.72797027010095,1.72483417325854,1.72731580362293,1.72417994735703,1.72819215925443,1.72761398155503,1.7360248023761,1.73919757948549,1.73962940043185,1.73908021564434,1.74273463867164
1.46005326867361,1.45919931524613,1.45843247018454,1.45784669198588,1.18900660893544,1.13371012902853,1.13369842785594,1.13369257728458,0.737064251333946,0.737010276726676,0.737270424180566,0.73830112908251,0.740231550111806,0.740118859965003,0.740928468634418,0.739996386710225,0.739791618160254,0.739148060082745,1.14007795131408,1.64089452450729,1.645036517859,1.64536823369936,1.64530404401351,1.64448757649137,1.64388646768565,1.64298554770315,1.64194860053619,1.64116782658299,1.64055077259259,1.6401916821481,1.63945566291517,1.63862006115178,1.63802160917822,1.63731194032174,1.63788420890549,1.63825682404261,1.63939096145002,1.64003771429402,1.64171111622766,1.64305524771476,1.64410921479439,1.64430998536832,1.64404472442303,1.64504121927823,1.64674283658513,1.64901086630261,1.65135846566861,1.65342455445979,1.65527617040183,1.65644442390495,1.65692464654068,1.65767991258374,1.65777539221977,1.65805358275777,1.65766097622987,1.65780266466812,1.65782938772101,1.65799994233444,1.65823910005968,1.65853302156205,1.65902561369994,1.65999334801222,1.66143548779848,1.66383697360927,1.66584494523787,1.6698185155194,1.67379657467719,1.67569759151469,1.67873414697579,1.68043880011786,1.68030591873847,1.68050719513136,1.68063855708906,1.68127103314424,1.68173621257682,1.68251152203742,1.68221503073233,1.6818900081441,1.68156845815355,1.68116437196801,1.68048761465755,1.67979720801667,1.6787168591417,1.67780685620469,1.67712510852325,1.67718932391926,1.67671537500231,1.67733132928033,1.67717282784993,1.6774208889443,1.67629485808118,1.67577267440357,1.67504645760147,1.67519181173913,1.67529508261058,1.67617249699308,1.67625191364243,1.67718249057163,1.67855427091922,1.68079397598873,1.68355661648132,1.68648208615172,1.68791382575512,1.68988954792375,1.69269199810333,1.6959174857652,1.69844736438651,1.70023739380809,1.70085621823145,1.70168981643138,1.70167320880277,1.70214460117992,1.70368940790065,1.70440033652417,1.70546834330951,1.70528688825937,1.70586496777367,1.70519713980524,1.70604125300644,1.70566185198137,1.70632439310452,1.70581035177491,1.70678044772976,1.70681759118741,1.7095894954539,1.71278155803402,1.71441743095815,1.71537700447253,1.71664482464563,1.71722858958038,1.71760726494869,1.71714191593274,1.71635030723052,1.71478540964041,1.71484111510771,1.714823307784,1.71687931511038,1.72080053458285,1.7222447733713,1.72232623135469,1.72321126721875,1.72468080468216,1.72634386996259,1.72845177745008,1.7305603494255,1.73230131262889,1.73271530029149,1.73428078150966,1.73450160024981,1.73595763116374,1.73590627124208,1.73681847008415,1.73564136110503,1.7354480416037,1.73364845877942,1.73317300287753,1.73168019534035,1.73173258248689,1.72959419667488,1.72929399059063,1.72760584629479,1.72811886621909,1.72667632777873,1.72743942912182,1.72581319235421,1.72637943601167,1.72543971927054,1.72656505217256,1.72764729920394,1.73034295048659,1.73299540708002,1.73506989699577,1.73637129537308,1.73834916303958,1.74017418550396
1.46055010830936,0.00434870998293918,1.45919909601398,1.63989999998193,1.18899705505291,0.00431647998293129,1.06724082302568,1.63786999998193,1.01447067503046,1.62225999998193,1.06588805045866,1.86165999998193,0.739832249588868,0.00382755998281157,0.740017743043365,1.62686999998193,0.739317804815736,0.00402826998286072,1.14007783952029,1.83730999997988,1.75479584489471,1.84625999998211,1.75194197458055,1.83426999997938,1.64413738571847,1.64371136123925,1.64245295708448,1.6416549742617,1.64100841029205,1.6411405665302,1.63965713714849,1.6389408830208,1.63762959556509,1.63704243645902,1.63651840794049,1.63561712531335,1.63805565475037,1.63847786349713,1.64081787259161,1.64141688392376,1.64295468472342,1.64292758531838,1.64325987535713,1.64343342667036,1.64261908114078,1.64309763142886,1.64626664810134,1.65204048826003,1.65322638387571,1.65540835124756,1.65617529274029,1.65587426609245,1.65686468789769,1.65683638248368,1.65607719049567,1.65593303361325,1.65688326393913,1.65767108022027,1.65848972063589,1.65970531154549,1.6601287183145,1.66112305043464,1.66317801376361,1.66614349318022,1.66744403038631,1.6725963197095,1.67297995777497,1.67433972547828,1.67627926633223,1.67868142668705,1.67776026674393,1.67667902351673,1.67783226389571,1.67690225325794,1.67949516981215,1.68060017653286,1.68080886332377,1.67957254240249,1.67957213308747,1.67743607465845,1.67780405433752,1.67593887687003,1.67598989655578,1.67527116393535,1.67457818630538,1.67271704538345,1.67422364940892,1.67585630070308,1.67625259311727,1.67855917113995,1.67630588172279,1.67619082249168,1.67559186324738,1.67570315155229,1.67567137417523,1.67525373395915,1.67571580948457,1.67447258466288,1.67804980432982,1.68015556364608,1.68344013360727,1.68719819215609,1.68737621436066,1.688810402745,1.69164645979551,1.69607180054494,1.6972468384908,1.69915315478933,1.69805517552884,1.69566295105249,1.69877203972212,1.70121211712187,1.70112495126567,1.70198057222943,1.70306162772064,1.70508702755221,1.70405469576949,1.70423472440603,1.70446017710271,1.70557632712098,1.70481909067262,1.70447756617467,1.70491887753416,1.70523229782436,1.70688233872346,1.71527438862885,1.71323430171251,1.71477249260031,1.71392852852656,1.71558948802066,1.71463978365972,1.71623284219561,1.713410430577,1.71275846664488,1.71176429439628,1.71078116057819,1.71524707790195,1.73174803736261,1.72546151774922,1.74690108326952,1.73456188720897,1.74029780102698,1.73677133134401,1.73909798467733,1.73432401048848,1.73619853140982,1.7342475912158,1.73546119789974,1.73515743473569,1.73808009889778,1.73605638506863,1.73804940818537,1.73540468413274,1.73462854175035,1.73370403395992,1.73258444809935,1.73251832268894,1.73191181797443,1.73037110036387,1.72646002739785,1.72799402777849,1.72474973596067,1.72743715782923,1.72451048037941,1.72647542496153,1.72204563913562,1.72594510342119,1.72346005483674,1.72851824316205,1.72953526813599,1.73190789652199,1.73042873706126,1.73434376821098,1.73404467323028,1.73874654826546
1.46073316299677,1.46054989002577,1.46005290420365,1.4602474686613,1.18899023257976,1.06722716602488,1.06683971515127,1.01453529045559,1.01449773299544,1.01448723353163,1.06564706300857,1.06588805045866,0.739760645111238,0.739701968473807,0.739513901117907,0.739339161148876,0.739038251671283,0.738952890870097,1.1400778395203,1.62256713969931,1.62406664668531,1.62786089929032,1.44869468550429,1.44869468629284,1.44869468550429,1.63091419943563,1.63457078557448,1.64107058056974,1.64046356561344,1.64011844243876,1.63941170331168,1.63864689281477,1.63678726445731,1.635476492013,1.63549012990145,1.63552444337703,1.63822790032743,1.63971418435645,1.64128270268806,1.64222328229226,1.64305616415791,1.64315773547846,1.64285458101114,1.64238366735258,1.64195590459989,1.64233593686763,1.64414994801421,1.64666598762366,1.64985106906981,1.65438286979243,1.46886094540612,1.46886094619467,1.46886094540612,1.64843748163632,1.65123347009126,1.65389593168192,1.65584756638472,1.65708696315621,1.65790106897622,1.65858955058246,1.65970300830062,1.66119550179031,1.66248122094583,1.66481518369601,1.66661261819376,1.66969024946687,1.6706006076905,1.67206193475781,1.67262370655297,1.67346946376173,1.67443205494928,1.67552487839623,1.67558236977829,1.67629347294141,1.67768863126788,1.67922112436341,1.67951404374398,1.67922931116611,1.67845203916399,1.67713947093895,1.67610115464659,1.67462331019345,1.67318496617637,1.67370562582588,1.67299422758699,1.67228228763957,1.67140722445949,1.67261581737504,1.67292617871912,1.67316211872825,1.67378916939763,1.67445811809642,1.67457921426997,1.67543981915706,1.67539772251443,1.67612816877318,1.6757308015169,1.67633344421696,1.67800621692208,1.68067007407244,1.68266621711229,1.6850606628913,1.68613709617378,1.68747862167924,1.68992510945016,1.69407544414792,1.69615931718603,1.69763158897903,1.69741362115496,1.69659107390942,1.6975510560239,1.6980417537172,1.69955456690569,1.70030634207311,1.70220850371197,1.70314007382009,1.70386950519452,1.70374480071216,1.70480862413421,1.70530954173073,1.70546509908811,1.7053353851572,1.70542496550269,1.70539668387463,1.70619965162758,1.70675924512893,1.7089243481748,1.70954796902067,1.71037116472019,1.71083628336975,1.71158312498029,1.71166084372632,1.71142901318674,1.7101962566377,1.71065725200373,1.71065223190376,1.71340241240733,1.71667243857197,1.72286318425055,1.72536942722306,1.72951761814526,1.73114549471665,1.73203980802564,1.73081638065363,1.73130484165219,1.73147280677213,1.73139193740233,1.73190033024321,1.73136085631209,1.73050442913792,1.7315654494723,1.73114756879954,1.73196275788189,1.73241051921443,1.73149905735182,1.73152557040235,1.73046071426964,1.73062093481336,1.72893863546725,1.72877489182672,1.72743237193552,1.72791229703937,1.72716582566522,1.72822310304459,1.72644340516962,1.72666059567753,1.72584134905519,1.72738672088829,1.7273831474859,1.7296226011199,1.72948249357496,1.73114233242184,1.73210513157997,1.73469807663485,1.73603014091513
1.53232249135252,1.53274260072802,1.53316348118189,1.59580999812598,1.57431237331477,1.60695999994723,1.06579843304268,0.00384759998281645,0.141595196719682,0.00458339998299667,1.06499733700163,1.62088988599658,1.61187773706091,1.63595999940421,0.738988890307973,0.00436651998294356,0.738656337256463,1.62488999998193,1.14007795131411,1.62176847266667,1.62249644985895,1.63217697851295,0.265160602446076,0.00382505998281093,0.203684973577114,1.62614046454275,1.63092534322799,1.74427999998376,1.63994113497023,1.63962444069948,1.63946510184213,1.63955502938821,1.63497675857001,1.63240024517006,1.6335244199338,1.63220539654358,1.62494833591363,1.61317188150036,1.61469616850926,1.6183759217199,1.62334584537956,1.62854671350641,1.63607299572734,1.64180300248078,1.64132607562737,1.64083832725081,1.64206294651136,1.6417893060037,1.64563391121091,1.65777500217832,0.618389546175045,0.00376139998279534,1.12814520616953,1.64540461075401,1.64887431317534,1.6523636709786,1.6550188229933,1.65643478656169,1.65707368074421,1.65644142485764,1.65892799611403,1.66052024870781,1.66155849146042,1.6622521517035,1.66517769595021,1.668560542999,1.66845707245607,1.66968234785977,1.66934135775638,1.66835150452496,1.67178101236845,1.67371344217015,1.67401707823942,1.67361455569997,1.67672489620138,1.67828681249477,1.67884980100451,1.67810899572428,1.67759000880095,1.67534445115736,1.67480756400295,1.67248697434472,1.6688089471309,1.66365939581245,1.66323490391411,1.66307491790217,1.66706981136657,1.66920363073416,1.67004682066365,1.67010460899975,1.67169837823472,1.67215820685368,1.6737794637572,1.67472324891026,1.67555262556714,1.67657074847533,1.67607728762616,1.67557328690079,1.67817893139139,1.68076997212635,1.68229059715668,1.68401167758912,1.68479360409365,1.68549094504711,1.68611583952425,1.68366246392931,1.69436969381212,1.69814099398926,1.69663017242058,1.6962624864795,1.69607239231865,1.69520682652973,1.69756148540518,1.69940383446707,1.70084040218695,1.70376769251318,1.70281373482692,1.7046135967364,1.70412715972496,1.70716284459471,1.70514237198915,1.70755120252938,1.70477498544832,1.70596934484361,1.70459449255457,1.70540719210628,1.70544732932325,1.7062437239257,1.70642014094142,1.70680575258233,1.70794359456276,1.7100174250358,1.70854881698384,1.70920382108792,1.70842985448726,1.70909325585888,1.71225021060317,1.71429897111198,1.72199508688294,1.72426885959255,1.72723594510145,1.73207398845268,1.7294489752796,1.72838344757377,1.72844323461473,1.72792361260984,1.72845018797383,1.72830235298925,1.72840206946805,1.72782947077142,1.72855737688401,1.72862848988206,1.72934527051531,1.72990214310837,1.7296549011167,1.7292629456722,1.72905209910789,1.72795486916925,1.7285386492797,1.72796003517525,1.72831653041934,1.72691345380877,1.72901476805336,1.72852192327818,1.72881216614027,1.72566032422657,1.72795506503712,1.72636526012269,1.7283634601318,1.72632668842415,1.72904953212791,1.72752358464177,1.73149053190971,1.73240594206181,1.73475020359133
1.53065500568458,1.53240872141632,1.53326785416882,1.53307115035479,1.53297980504303,1.53195741176004,1.06484319230258,1.06418905681697,1.06389936260392,1.06397403131695,1.06437769417663,1.58505081037885,1.60200575208747,1.61420480794429,0.73848771832343,0.738289910739378,0.738710677680305,0.739599233136228,0.741740408969703,0.744958082032203,0.748288229547603,0.750420613358756,0.223531640200257,0.111542320698072,0.153186394226488,0.198779759839048,0.243501036541338,1.6080395436722,1.60831018424904,1.60857176233518,1.60810644972146,1.60773904046619,1.60785635581922,1.60846838118134,1.61030087708345,1.61258009939799,1.61245742444924,1.61240007409392,1.61191363438471,1.61078265189643,1.25234437315544,0.785503923977636,0.785779938206617,0.786055827516196,0.786055436680714,0.785778870071042,0.785502464394927,1.64085280082313,1.64018508643694,1.64005615209757,0.618860263882828,0.145849315215365,1.12814509437383,1.64333367109638,1.64373286372467,1.64423954119138,1.64811625843819,1.65198260622886,1.65527191520759,1.65725555414835,1.65843972403826,1.65799553968983,1.65957170565989,1.66062883129399,1.66199270903894,1.66218573775103,1.6641148052395,1.66544762559647,1.66601034466309,1.66714329179766,1.6693012515072,1.67103983977455,1.67115690351819,1.6704330322275,1.66826884751343,1.66730339790068,1.66638835379909,1.66580040733516,1.66542544764033,1.66501243628598,1.6643886090161,1.66343315086706,1.66215177124134,1.66142524604687,1.66138721405503,1.66198899248163,1.66379120970672,1.66561849917678,1.66681911662633,1.66817019716184,1.66965693727835,1.67140978292015,1.6724487671444,1.67391523959441,1.67405130430912,1.67483711445382,1.67482804453523,1.67579860133162,1.67695472087835,1.67898428534368,1.6809016817212,1.68300877477778,1.68357691244058,1.68412368881645,1.68542207160992,1.68702178197837,1.69128174898575,1.69398350318946,1.69507434652593,1.69615508591845,1.69612826938335,1.69632199882301,1.69742616102565,1.6984389226812,1.69978842398006,1.70070812478283,1.70118578448132,1.70118584493709,1.70134738118113,1.70134466251831,1.70110408996346,1.70068725832761,1.70120930790094,1.70169440834918,1.70182352998663,1.70172370852688,1.70258639824203,1.70353242292572,1.70357324435679,1.70360821770246,1.70503190031027,1.70627451905486,1.7063134189131,1.7061447432029,1.70762595827561,1.70847518602679,1.7118088441208,1.71538053720335,1.71971226763218,1.72218061421067,1.72400239745314,1.7238082492843,1.72545420142437,1.72531373994566,1.72544106503221,1.72510011005926,1.7251445661998,1.7251582622168,1.72519525268609,1.72518951784058,1.72550155775354,1.72560328785148,1.72596754771233,1.72634711770316,1.72663116624771,1.72711127629118,1.72655907923772,1.7264559128612,1.7264415634498,1.72729315127002,1.72706114426356,1.72807335519433,1.728515646602,1.7302786384174,1.72884500051429,1.72901435442197,1.72779440364852,1.72858569299116,1.72736377450098,1.7279941257246,1.72740179080607,1.72854257503315,1.729204596332,1.73142114361736,1.73191758712786
1.53382088974359,1.53305986987382,1.53422754256807,1.53298876484805,1.53398412441065,1.53106008044676,1.53970717371596,1.55782757405052,1.55906051197369,1.56015855186328,1.56010558914705,1.55949796145257,1.5914535047187,1.64621999990912,1.60090930350644,1.64085999994677,0.738970068888451,0.00407878998287307,0.100455924178094,0.00363348701800217,0.201928114402053,1.62296999998193,0.181902677954438,0.00342042796677692,0.00352901343825361,0.00386146857769808,0.201872125667382,1.6080538801263,1.60864457025471,1.60968814860354,1.60889942178365,1.60791864678082,1.60831536514204,1.60794237360818,1.61208309468269,1.61633640221321,1.61360228622828,1.6127428100228,1.61146953617117,1.61037250804874,1.25241375482243,0.00434021998293711,0.112347839448643,0.00415885998289269,0.100663180682871,0.00359100998275361,0.527622250695714,1.64115871276289,1.6405023628799,1.64076193824692,0.61988522929248,0.00441768998295608,1.12814509437115,1.64111451034354,1.64166227282898,1.64062991679749,1.63857732486901,1.63769727913463,1.63810484514576,1.63887752549898,1.6476586900474,1.65424469582693,1.65776383812946,1.65670846433157,1.66014326750714,1.65939629780354,1.66096570803833,1.65952281706754,1.66247289132255,1.66404100609212,1.66769831862404,1.66915949385533,1.66943660655762,1.66745833059845,1.66553110403451,1.66226862758312,1.65900113632658,1.65820206564714,1.65623051179617,1.65555288742095,1.65570106467708,1.65673688813323,1.65833329756512,1.6576190122583,1.6590915479475,1.65879239732701,1.66111195248292,1.66158004009499,1.66414112452061,1.66517881890957,1.66793158578631,1.67049138167166,1.67138535572413,1.67343188430296,1.67271945397484,1.67264519441357,1.67354932320221,1.67448810092161,1.67572725163953,1.67619405497268,1.67988654006609,1.68305075310857,1.68251274395005,1.68231248280931,1.68442934876923,1.68767709412522,1.68907346307145,1.69151776197538,1.69311901962461,1.6977180743289,1.69549465520763,1.6971789101885,1.69668261794435,1.69846515011813,1.69817162020092,1.69988819199269,1.69873100307571,1.69942028795355,1.69767612746179,1.69472185555031,1.69704317929409,1.69606803159213,1.69763821139824,1.69691852998408,1.69850985351329,1.69850263098985,1.69888757903992,1.69713578008608,1.69986709615672,1.70083520427623,1.70126111159051,1.69975657406063,1.70287106835942,1.70469693470969,1.70558056663489,1.7075275129659,1.71096176632012,1.71661857863826,1.71866980180594,1.72272752360629,1.72209169013151,1.72280665429787,1.7227953364248,1.72222370220898,1.72250766906064,1.72156600540331,1.72190492182714,1.7207538370755,1.72209245006558,1.72206945552973,1.7224634730247,1.7221158764467,1.7224956872851,1.72260337329499,1.72366952795359,1.72533692000605,1.7241945243931,1.7235635990675,1.7245873270147,1.7255267970863,1.72635513891614,1.72656961005517,1.72922039971519,1.73098125560235,1.73047436463832,1.72862375675671,1.72930170181481,1.72732819814373,1.72834646315947,1.72552724121822,1.72769873972958,1.72515352529003,1.72869472607478,1.72785024172815,1.73079314637346
