1.40102259451364,1.40023209042586,1.40275139674072,1.40088550971899,1.40199519259454,1.39928288307552,1.39705295157066,1.39679123857148,1.39408458591574,1.39637910712781,1.39525741633079,1.39685699592,1.39520595417494,1.39569687175508,1.39292345162207,1.39388199061696,1.39226532076416,1.39293513778401,1.39287252933282,1.39146996445694,1.39070357903776,1.38990482640373,1.39092955730199,1.38983329556006,1.39178272555078,1.39087698876747,1.39316119676041,1.39191584090209,1.39395738626719,1.39319832800953,1.39673478523576,1.39395805445935,1.39508740728132,1.39384466841278,1.39469451117128,1.39504106090766,1.39724561834485,1.3963814459613,1.39805496744991,1.39642871795654,1.39762867578035,1.39645896174838,1.39845258347748,1.39743134894996,1.39991447705866,1.39793366795045,1.3998413539324,1.3983019982554,1.40148076553431,1.40178898384545,1.40852283550973,1.40630291711516,1.40922559925301,1.40662803192243,1.40842695632725,1.40533696124346,1.40864420036786,1.40581782171709,1.4097290817559,1.40643178968174,1.40943661500339,1.40651196713742,1.40970748087935,1.40698249926028,1.40889625250672,1.40770068776231,1.40958194538768,1.40883621469272,1.40924903614232,1.40998952088822,1.41020767175292,1.41180091764859,1.41330317278545,1.41368439151887,1.41481593491445,1.41550895794142,1.41697214755256,1.41686084551574,1.41803745926271,1.42288125381418,1.42645185398244,1.42822935847044,1.42722502700375,1.42777971007189,1.42731673804569,1.43042638378178,1.43131657006702,1.4320842570434,1.43257851597966,1.43207926999794,1.43009383121493,1.42791788607614,1.42890082942436,1.4278943995358,1.43133324070844,1.43338867181252,1.43735590853109,1.43576964928922,1.43858439767079,1.43722721559999,1.44056567908206,1.43934310666895,1.44095878431584,1.43998826260292,1.44118161554554,1.43982417774237,1.44167875225019,1.44045430752116,1.44372421260999,1.44519593456366,1.45081543847156,1.45086025938628,1.45590032149353,1.45403333989443,1.45596822330589,1.45513601504197,1.45711223739387,1.45724793878094,1.45739973426461,1.45712866296139,1.45809208967927,1.45926176441054,1.46125576349779,1.47377678551462,1.62723000053712,1.47078790270145,0.00342713023195298,1.47535491404128,1.62264000053712,1.4760317500545,0.00400658022714976,1.47168163478828,1.61141755007438,1.60059469711375,1.60607221843448,1.60403841561881,1.61489834626459,1.61203213396557,1.61335829662036,1.49018869596067,1.49100228832893,1.49022288627887,1.49066287332808,1.48907329215941,1.48932812976639,1.48861306252057,1.48917861570882,1.48825724758434,1.48799916064771,1.48832616433059,1.48855447831998,1.4886562239643,1.48881928184705,1.48806431154862,1.48727096341729,1.48734976538404,1.48703863951379,1.48758287119822,1.4878028105132,1.49034593387612,1.49126852510966,1.49315280480332,1.49480546234628,1.49347219423105,1.49292065629187,1.49189077696948,1.47818293698896,1.47806007261727,1.47776139026702,1.48280377112479,1.49492065677639,1.49331363328222,1.49525415336892,1.47013155410288,1.45730476052676
1.39924035617768,1.40031724922083,1.40008995230462,1.40004819693142,1.39937913080481,1.39816369529793,1.39724181038165,1.39582725932032,1.39580865247192,1.39500567991637,1.39632766543676,1.39483759481008,1.3957349400566,1.39351682849228,1.39366051475223,1.39166712420295,1.39154328720251,1.39056308843748,1.39042437609903,1.38960152749045,1.38854765102095,1.38908761751328,1.38852240242617,1.389425780302,1.38852811519208,1.39049449296766,1.39012763548768,1.39174800342774,1.39088654525589,1.39249708852592,1.39171541316848,1.3927400776221,1.39160986421261,1.39274207454691,1.3922403001031,1.39381903336449,1.3939917725287,1.39497915716157,1.39456113864782,1.39481262871066,1.39374224217518,1.39456191588189,1.39399701178365,1.39558860873626,1.39531010718391,1.3964201779802,1.3953058067493,1.39708705798143,1.39620313833747,1.39822936403497,1.39638892397432,1.39917961519664,1.4005564319254,1.4021988063109,1.40249032979323,1.40186721030861,1.40062112550905,1.40206886303816,1.402401482098,1.40294273494693,1.40292879630789,1.40445734398543,1.4048057947601,1.40561696477564,1.40483750951805,1.40621529291433,1.40604914383454,1.4070899072685,1.40684499477266,1.40817678492954,1.40867797233835,1.41003427059818,1.41066830786662,1.4114277622649,1.41147990219327,1.4122196362814,1.41219107465775,1.41314380202011,1.41353700956772,1.41364812731441,1.4142368732081,1.41379099673335,1.41566967095081,1.42035425615372,1.42214781607139,1.42228237399503,1.42195123387565,1.42158896096547,1.42114917513479,1.4224026385392,1.42376448384142,1.4242739447738,1.42495563931653,1.42609018816098,1.42727806266159,1.43062959706081,1.43185967451499,1.43381356200986,1.43349739131182,1.43637475379172,1.43707416655042,1.43916425433187,1.43872618060291,1.44053937206334,1.44001496781261,1.44051027502216,1.43970547674516,1.44084889073183,1.44140352335684,1.44435739458901,1.44514121273615,1.44705062944265,1.44582705611316,1.4480775065188,1.45056275312876,1.45309716560537,1.45544301872312,1.45801828932862,1.45809794951412,1.45868420363292,1.45862788965798,1.45905286334092,1.45998521040273,1.46904933568074,1.47179501456545,1.4634597337693,1.44533581002692,1.44503830429541,1.44507284946141,1.44481371845843,1.44485280625136,1.46439063031578,1.59640304256837,1.59773044195674,1.59934955707744,1.60307817350059,1.60716995770852,1.60922913211043,1.6103393018541,1.48769837896656,1.4894089336806,1.48851583658826,1.4871942253948,1.4860107820103,1.48530618304195,1.48529915977007,1.4845927543754,1.48458941242927,1.48495166801579,1.48489817783663,1.48533503837012,1.48532169895699,1.48553718528591,1.48557552318586,1.48555161931447,1.48631753567564,1.48688691433486,1.487792752702,1.48845953472478,1.49331087218015,1.49363871726914,1.49669498329427,1.49715972316576,1.49660817414838,1.49355680003483,1.49264630288011,1.48808782107616,1.47920430689375,1.47922017829986,1.47926309962241,1.47818966843724,1.47580751555971,1.47190476765518,1.46666021046973,1.46062848776523
1.40068858596566,1.39932873221376,1.39996184560994,1.39873272684895,1.39778208936813,1.39736288419443,1.39572507560426,1.39588103397326,1.39362992742027,1.39539022221827,1.39381045769715,1.39508790770691,1.39248254307958,1.39349835612552,1.39052228644508,1.39106180399649,1.387769677882,1.38909353584057,1.38760996148723,1.38767271925908,1.3867122788652,1.38719047156119,1.38902365934903,1.38722548097212,1.38837982748721,1.38807486596799,1.39159289595087,1.38950642993815,1.39196920219833,1.3898402034523,1.39102107518534,1.38990649638585,1.39086661689297,1.39023872777144,1.39152273798497,1.3914854960317,1.39336168943724,1.39266053953482,1.39382396258951,1.39202602466693,1.3918876969056,1.39109455583183,1.39212874747814,1.39204224856279,1.3950180480155,1.39284689830518,1.39467896689748,1.39320684175959,1.39603261568228,1.39436179011077,1.39721530151146,1.39446368322316,1.39319013388644,1.39307452454976,1.39373631552173,1.3955213924313,1.39802914341793,1.396114582112,1.39595001944621,1.39669582757293,1.39874910720998,1.39987807711169,1.40436608810442,1.40236113275621,1.40415234761579,1.40296910507749,1.40583750444058,1.40396509201208,1.4060267610518,1.40539444985184,1.40823510178407,1.40740615609558,1.40981474518042,1.4083345101397,1.40894723400506,1.40835397942151,1.40829985710227,1.40883156403948,1.40905619939762,1.40851895204606,1.40836638617622,1.4092996388625,1.41191163935393,1.40855197118919,1.40805059218981,1.40841212986385,1.41118829579025,1.41097998851305,1.4133353137492,1.41352897118476,1.41694129198861,1.41932348817824,1.42214525573142,1.42230246457246,1.42533790915741,1.42626977635331,1.43094978552712,1.42940908355291,1.43269468546665,1.43279080773203,1.43850911807015,1.43672357367055,1.44042646532992,1.43928558483397,1.44246662464397,1.43937982141303,1.44106040742128,1.43865074004013,1.44197322086851,1.44074081569073,1.44502304079926,1.44291203947246,1.44493358364891,1.44398139958802,1.4438748233527,1.44232509260873,1.44133340277573,1.43849832159742,1.43993286649738,1.44574697429064,1.78174000053712,1.45354941867664,1.44750230054639,1.45347619130443,1.49116941997801,1.45297016859996,1.44561476060856,1.44442958749794,1.44554916600771,1.44432568426885,1.4449101259316,1.45877313127964,1.59512891031241,1.59539778316578,1.59362344707869,1.54632489637253,1.46784002864997,1.53181337764447,1.6354099883617,1.48323173496027,1.48011180673398,1.47980820960098,1.47934321255166,1.48212336066614,1.48141953500694,1.48303919318582,1.48058153615295,1.48155891857762,1.48102644229786,1.48205890508221,1.48138583004486,1.48253895571096,1.48203567993209,1.4832927397725,1.48345352461041,1.48471883058495,1.48789745620944,1.48834771999866,1.5021899163294,1.50001860458377,1.50316669531057,1.50096427047814,1.50324117148894,1.50146077441018,1.50815221358189,1.4999763654584,1.51367846881427,1.45755041409146,1.44370649503236,1.44342784386476,1.4425536656946,1.42871590235263,1.39991246171791,1.40876143929423,1.41050023555881
1.39878423577813,1.39943569053666,1.39890543012537,1.39838072575241,1.39747922745073,1.39646890244155,1.396039102699,1.39431980833392,1.39429076196962,1.3928418348304,1.3938192464787,1.39168804687029,1.39229994931998,1.38998703843026,1.39047112862269,1.38817766597167,1.38829919639771,1.38672338335919,1.386814878368,1.38594675562579,1.38588463220596,1.38586367909916,1.38585600003581,1.38609211129505,1.38572196702779,1.38704732426416,1.38733732483092,1.38832784061577,1.38814915180571,1.38926707741425,1.38932203480766,1.38950081590899,1.38886175539103,1.38911631047392,1.38895127254286,1.38970605895754,1.39015184106962,1.39075846974882,1.39082359874647,1.3902696010173,1.3890691360046,1.38933733060994,1.38875525425185,1.39002950134125,1.3898368334295,1.39099366669442,1.39029150953943,1.3921228466593,1.39169095123066,1.39370003915824,1.39271451954704,1.39371580784927,1.39180604744028,1.39290138826965,1.39201711857429,1.39412187543643,1.39315170006332,1.39448165543947,1.39282507242293,1.39468068915133,1.39402298593259,1.39552821277625,1.39497590870271,1.39720777735008,1.39986047966955,1.39942379377808,1.39993579975614,1.40016629165819,1.40042617543172,1.40147423007974,1.40158459975712,1.40303264261675,1.40386798901128,1.40455072973502,1.4050586922787,1.4053892083659,1.40544015520304,1.40600224144212,1.40623053310661,1.40660804978185,1.40692982286361,1.40815265630603,1.40902100714783,1.40842797884257,1.40789211146237,1.40851827619018,1.40953250288783,1.41072559952213,1.41197453398378,1.41326773408634,1.41458028804437,1.41698367928743,1.41774457092346,1.41980781467135,1.42012715775182,1.42303717134225,1.42516368946668,1.42648440493342,1.4269924471959,1.43002539092287,1.43279147619956,1.43464985151081,1.43786091991459,1.4401448256163,1.43986187221751,1.44061471151293,1.43844896670667,1.43892281979876,1.43784028199403,1.43974347249131,1.43931213204816,1.44159877358758,1.44170202828805,1.44346799845737,1.44235689146378,1.44247083887364,1.44061367099699,1.43883644488145,1.43781276055859,1.43662997048825,1.43721462660396,1.43829374608952,1.43759786510141,1.43864664659086,1.43957571860183,1.43999081857473,1.44147831678367,1.44208118023,1.44232203206839,1.44251643048233,1.44245907870442,1.45115815776099,1.48005149320534,1.48780836697863,1.50479965938013,1.50585367540758,1.48409976701648,1.48465823154062,1.48393317182298,1.48249338759613,1.48057723791385,1.48014902342389,1.47989004064327,1.47889363593182,1.47876320355783,1.48092645681826,1.48089526350982,1.47882951406115,1.47922169694224,1.47944725455475,1.48018741268483,1.48033123786486,1.48123276982854,1.48163996833759,1.48276717119362,1.48162216798409,1.49076405528996,1.49099777114701,1.50136006584306,1.50129821770548,1.5018842806667,1.50242249397445,1.50316703926587,1.49446596461487,1.48230663582961,1.47636186966104,1.46862437131681,1.44917490794634,1.43521095380066,1.42856802916277,1.42206666100135,1.41589878241668,1.41127022787095,1.4079417105799,1.40710932476576
1.40127143374717,1.39856263589679,1.40026456830925,1.39751300779726,1.39742447594156,1.39587141808008,1.39499432665409,1.39385503417793,1.39103792410733,1.3922846489904,1.38961961913782,1.39094608564673,1.38689465341733,1.38919046480492,1.38556237618047,1.38760517323181,1.38462135101755,1.38592003969879,1.38361018172727,1.38480010740202,1.38439969454656,1.38411378159841,1.38421961230287,1.38375642275828,1.38482194440181,1.38443041873232,1.38658176605846,1.38538853046729,1.3873784011539,1.38700874533137,1.39026090387305,1.3877547955576,1.38865152997764,1.3869877419462,1.38710355377378,1.38729387416049,1.38807106923575,1.38843403760929,1.39009215095219,1.38775067444053,1.38733700796054,1.38628953820592,1.38726702839023,1.38650428893704,1.38827242239592,1.38718904849137,1.38952190812392,1.38855133245978,1.39237025884873,1.39042015269519,1.39422679604514,1.39082081923181,1.3934030899955,1.39053480805918,1.39351776999465,1.39088840956154,1.39324349888628,1.39082248653017,1.39251784123827,1.39082876386023,1.39274974935951,1.39094362136983,1.39080676639702,1.39136410288108,1.39087451355866,1.39273508294705,1.39260407570664,1.39499332978446,1.39621940930962,1.39731295754593,1.39790927061114,1.39866267800125,1.39798742229237,1.40057707348016,1.40185104535246,1.40229911353797,1.40267677054438,1.40305169770699,1.40360217956416,1.40402093493843,1.40481641862115,1.40605009738311,1.40832201344928,1.40730035422256,1.40775331891004,1.4076404562111,1.40926811979245,1.40958919346318,1.41250097188774,1.41167584376833,1.41404579614456,1.41372523824651,1.41615013128929,1.41553015779382,1.41777727969906,1.41715724677231,1.41822381734743,1.4205906137607,1.4254366241662,1.42388373651236,1.42480138073468,1.42878446538784,1.43905786892024,1.44009495667079,1.44055780617156,1.44058582912553,1.43867622307126,1.43661661996689,1.43809031578603,1.43603130201332,1.43857939615398,1.43861226072743,1.440827398115,1.44253161472922,1.44190550478178,1.44229179594416,1.44080025434905,1.43799139040796,1.43794619246425,1.43552541334071,1.43673650454589,1.43337743735129,1.43357495848379,1.4327869976418,1.43339472470428,1.43572647270478,1.43937989668904,1.43924055226096,1.44055497477435,1.44020960659263,1.4405750226819,1.44065503400417,1.44194032579205,1.48324454390866,1.50528746130846,1.50479872087945,1.60721999083004,1.47265555536064,0.00340879023210507,1.4541721910595,1.46539241405423,1.46628661630993,1.4650397740564,1.46429083899212,1.46392138866729,1.46333742320599,1.46676616100041,1.47406482069499,1.47674819313897,1.47773277417186,1.47869706667078,1.47829904898776,1.48006727998826,1.47885267605417,1.47379243459629,1.47782009714633,1.49230951921084,1.49155372691738,1.50254830901448,1.50171403245623,1.50220903014703,1.50290669734908,1.50479665478211,1.46524795936014,1.44877490226833,1.45338766816484,1.45860143366928,1.43738265752602,1.41422641095208,1.41663075364308,1.40729355021818,1.41012013311799,1.41418616804722,1.40569419831855,1.4043741799489
1.39599998060311,1.39660576499226,1.39589343304068,1.39552855195572,1.39460357812484,1.39357187592271,1.39279087845261,1.39121328686769,1.39086374177072,1.3893040552899,1.3898635192631,1.38764715215919,1.388166344726,1.38599759340428,1.38680084350311,1.38461750894972,1.38526513646837,1.38317766706842,1.38349300999949,1.38213213361228,1.38247062976826,1.38128061393855,1.3811007297024,1.3812623722383,1.38175778904603,1.38181935569595,1.38177328903616,1.38222109151193,1.3824244847858,1.38270236015675,1.38285128600382,1.38339552349981,1.38399610049791,1.3840913142678,1.38436754189525,1.38471895744775,1.38517932123754,1.38549532849829,1.38544120972349,1.38488825457072,1.38369504911018,1.38408723789661,1.38350942451609,1.38469215575126,1.38423492192686,1.38547702081695,1.38465411938186,1.38684184641872,1.38663093099211,1.38909453637927,1.38868810039563,1.39006737914823,1.38859434010822,1.39010972808795,1.38895588052858,1.39046844759631,1.38923130659422,1.39040670128234,1.38895729982382,1.38998715244914,1.38858528191094,1.38955786166015,1.38852735824532,1.38992984660787,1.38976710447853,1.39095852046425,1.39102399773361,1.39261079245322,1.39355015297455,1.39431381877909,1.39478201529323,1.39541963686015,1.39619294276882,1.39730966346705,1.39866613610395,1.39878529105516,1.39923706823386,1.39962859631905,1.40057208946602,1.40098124301745,1.40221841556108,1.40346787583517,1.40533473596145,1.40612110653405,1.40662985617887,1.40701623565876,1.40733156291168,1.4084096640737,1.40893325972213,1.4102220445994,1.41054918630739,1.41214190884026,1.41218988401901,1.41389724120709,1.41349714156277,1.41522376329614,1.41458278089566,1.41779901138574,1.41829710538413,1.42018696884263,1.41961035608337,1.41854151051454,1.41996531144764,1.42215631419939,1.42307434245651,1.42310950325624,1.42516799900236,1.42965307350483,1.43129200218124,1.43351334083602,1.43314577095284,1.43371111357997,1.43324908207412,1.43299496454218,1.43273501189519,1.4329099431494,1.43309564817866,1.43316529957332,1.43281282752238,1.43271984020053,1.43237231568231,1.43168742298178,1.43168906466507,1.43183059369048,1.4322907050962,1.43395371223688,1.43519370665099,1.43705273594415,1.4379119581268,1.43899893878798,1.43919393210075,1.4399988703086,1.44049402887943,1.44100642676795,1.44159497125849,1.44166691174004,1.44128216680481,1.44153998903893,1.44128289253701,1.44906145694176,1.46761649479893,1.46713852393347,1.46576043300349,1.46423422556616,1.46295001263295,1.46302216627797,1.46642033262059,1.46937225567442,1.47080610253226,1.47137973607527,1.47279613271325,1.47334932453089,1.47086674636248,1.46947557419532,1.46675539595984,1.46446667600653,1.46157447504545,1.45789154444908,1.45469862535811,1.44971293161875,1.44524063117103,1.44066741421727,1.43647577280571,1.43286562862197,1.42976879219613,1.42695437396123,1.42426771987022,1.4217127757411,1.41929043458201,1.41755640089406,1.41120124603239,1.40957922294533,1.40808089863956,1.40629100724216,1.40423536369078
1.39581493235362,1.39330543821646,1.39437837727375,1.39264655904354,1.39286988345574,1.39132405774383,1.38954242428905,1.38962055636627,1.38721723581718,1.38826707564725,1.38592496410528,1.38690667376336,1.38391431924559,1.38556729677779,1.38279736001997,1.38413872310455,1.38154898204633,1.38229745752823,1.37988704030641,1.38057669190196,1.37912685106517,1.37876900987532,1.37684685002904,1.37840973133234,1.3801242361261,1.37854481065251,1.37785925700547,1.37832744436569,1.37863594394833,1.37776530082158,1.37519652894397,1.37866185502075,1.37986007891089,1.38108190534003,1.38117331208244,1.38228592748379,1.38226093005642,1.38276538112876,1.38206650532254,1.38166550236459,1.3806904442401,1.38079484775155,1.38180248476107,1.38140702488785,1.38375126073387,1.38181487180094,1.38319750032444,1.38278801088083,1.3855737035349,1.3852570503928,1.38946845587332,1.3864675756203,1.38897687514792,1.38668824525562,1.38965480281041,1.38739697049187,1.39029201134744,1.38764885179107,1.38962566378274,1.38708665969018,1.38791385950698,1.38654428504181,1.38770554876678,1.38758857032815,1.3902369881448,1.38882679929735,1.38938574320287,1.39021214869016,1.39141745617532,1.39159928550137,1.39069719073126,1.39275137627075,1.392391577847,1.39493586866822,1.39493053266378,1.39607898305008,1.39422402037533,1.39671182944321,1.39667575049026,1.39818242548066,1.39869437490918,1.40067666927511,1.40352363083559,1.40453671413925,1.40635428948816,1.40520975548602,1.40671532241937,1.40598442410024,1.40761372518846,1.40721520864405,1.40996648217327,1.40880654823956,1.41200230732519,1.41021082577011,1.41353827239096,1.41108235548776,1.41348102938876,1.41310728393293,1.41702200835934,1.41528117718408,1.41628428187416,1.41426261604575,1.41638471340256,1.41624219827526,1.42134494257201,1.42347938170486,1.42542661194692,1.42828365209552,1.42707666390173,1.43141280174658,1.43096403581578,1.42991466452137,1.42499426053166,1.4212867276698,1.42264817721034,1.42146494510985,1.42500332531546,1.4264579028379,1.42993243517174,1.42894904931883,1.4289383215571,1.42898361459513,1.43058100693772,1.42964049918471,1.43138451433362,1.43105221271102,1.43288130263056,1.43405243028855,1.43784234849479,1.43693356372299,1.43941633828741,1.43839775745494,1.43966722660316,1.43995464223169,1.44163484228383,1.44080580068076,1.4396982555553,1.44056086257629,1.43983530361712,1.44680811263005,1.59272999475966,1.50216160716946,1.54328996898927,1.46277005775555,1.45982767341054,1.4602800579511,1.45744752104805,1.45973917668723,1.46189795975728,1.46837085879566,1.47170484134539,1.47174867006315,1.47007372073247,1.46414492620425,1.45688170651508,1.45718420129507,1.45725754748577,1.45677023338985,1.45552145854868,1.44868068900669,1.44005054298736,1.43861374475732,1.43659051608086,1.42424542055838,1.39361048864407,1.39337265140289,1.39265193210867,1.40499258384309,1.42365003155378,1.42288196672723,1.42785942707224,1.39538297386326,1.37908722957344,1.38918839883239,1.39195809763966
1.38979004552776,1.39090681641667,1.39004430746751,1.39062614188897,1.38981506897857,1.38959669872913,1.38877947746143,1.38789511212051,1.38749685751882,1.38531344955376,1.38476863371969,1.38286341713957,1.38339531607283,1.38138912573537,1.38210451934823,1.37968054430692,1.38002386873124,1.37787760619021,1.37834180073109,1.3762244262112,1.37626268201813,1.37478308224823,1.37482413192318,1.37427179799501,1.37403988310022,1.37424039251642,1.3743213465573,1.37443656418858,1.37471669204308,1.37441575121058,1.37433167958761,1.37560747808779,1.37724028327816,1.37798495524686,1.37913107454966,1.37999423621666,1.38109795052988,1.38117138682864,1.38091819943764,1.38048349366189,1.37927743166571,1.37985606832087,1.37903139938568,1.3803184985689,1.37938894074824,1.38111376844667,1.38026069614145,1.38277263129545,1.3825005335311,1.38473542153448,1.38393502315282,1.38546928375254,1.38409305458807,1.3860089222379,1.38521541912275,1.38673285488475,1.38573713170006,1.3871380750087,1.38625833639518,1.38681578483382,1.38534777466988,1.38585048062688,1.38480375647269,1.38580327513665,1.38576490952913,1.38637761220022,1.38659518927537,1.38761692120129,1.38877030172694,1.3889093364862,1.38970771402099,1.39028539421726,1.39204080606403,1.39228695423231,1.39379427818058,1.3934856055884,1.3943740772275,1.3935309441291,1.39401101799176,1.39407215948758,1.39637398863118,1.39582027728097,1.39640101301011,1.39940845964785,1.3997810763931,1.4011676974619,1.40305279694987,1.40355845060448,1.40381907415651,1.40470917723877,1.40643273169548,1.4062189307217,1.40628381361863,1.40775115202903,1.40737131934423,1.40925806365313,1.40879959148862,1.41135732050594,1.41121319485941,1.41319701873586,1.41225176931339,1.41321434879337,1.4127547512727,1.41386593031229,1.41500092190426,1.41603642016164,1.41677653792917,1.41768155005191,1.41802623380591,1.41783693227269,1.4184257556043,1.41957445085536,1.42187768370003,1.42001789231075,1.41989969518737,1.42033343389774,1.42146729123748,1.42302459553644,1.42509022032884,1.42539396164704,1.42743974921077,1.42600588719427,1.42720478314912,1.42661481124341,1.42683173381394,1.42861854538084,1.42953962501071,1.43173072160982,1.43284325186173,1.43483560116047,1.43589590844989,1.43684644027878,1.43708839824665,1.43820169787042,1.43897709035283,1.44014922119012,1.44033365841881,1.44079829509824,1.44093267969599,1.44294140687767,1.44227431391454,1.44250230234216,1.44364546637095,1.44534812032573,1.44724968325536,1.44920417649111,1.45212651212383,1.45080658117163,1.45017859484134,1.45031554627941,1.45103320424458,1.45370744975947,1.45556523008153,1.45668786569449,1.45708750950872,1.4567421333762,1.45559500182801,1.45387384943245,1.4506373868231,1.44723805736358,1.44219115646729,1.43960449587951,1.43809191764514,1.4141841923438,1.39437419964726,1.39375578740984,1.39248489628061,1.38899077411359,1.3856116968531,1.38268884089851,1.38055391003172,1.37939458783839,1.38022277440748,1.38473734086888,1.38920122078164
1.38837217243233,1.38689026572885,1.38888099821225,1.38753378712851,1.38864659142344,1.38772641183844,1.38775783170655,1.38694536917015,1.38629088616105,1.3838936205635,1.37916657683208,1.38101975816109,1.37793795143648,1.37990153886847,1.37650471172455,1.37789309769314,1.37341593671551,1.37575865636001,1.37315550428073,1.37366472689547,1.37010415212763,1.37207100333459,1.37011611939291,1.37120746576895,1.36877927357038,1.37081572941079,1.36927458569404,1.37136704171483,1.36995960186509,1.37197181568368,1.37083101983197,1.37353605047271,1.3735164849454,1.3758757376152,1.37550220720548,1.37850950815622,1.37997450832453,1.38008597589316,1.38056677860965,1.37897898156301,1.37871952422661,1.37782160735801,1.37877940474092,1.37769601996561,1.37861384052111,1.37830733720495,1.38129186219701,1.38027680161101,1.38485622630317,1.38170351027495,1.38421628880152,1.38179582835257,1.38395615769906,1.3826248942705,1.38611095869219,1.38352852184797,1.38580470533043,1.38434856664938,1.38767962999927,1.3846265962372,1.38602386205351,1.38349860682327,1.38374342216312,1.382873704128,1.38275410174261,1.38336882981597,1.38338736261369,1.38512645088117,1.38594490748207,1.38687689601191,1.38638106925381,1.38877221767838,1.38984326989319,1.3910102120154,1.390448866558,1.39252808559742,1.39214619170001,1.39187117924807,1.38771371989268,1.39034782420218,1.38734924912165,1.39034765701715,1.38950677148653,1.38973826814639,1.39115446500638,1.39633458372263,1.40114703646912,1.40024525335543,1.4017721748265,1.39967646353816,1.39831804030288,1.40069395226907,1.40432461115425,1.40307402712389,1.40608302062979,1.40469274059295,1.40897106138391,1.406816649409,1.41100349230962,1.40867797261758,1.41261579292503,1.40942693292458,1.41227828627704,1.40959472792811,1.41057846916124,1.40735358958817,1.40890722487453,1.40801876825921,1.41139263920027,1.41018244810409,1.41144821010917,1.41146223489422,1.41307704584442,1.41586149065056,1.41873144803623,1.41731260114711,1.41722563979905,1.41775400918107,1.41601765341683,1.41845724859782,1.41596905037165,1.419494952627,1.41908592314089,1.42183830407459,1.42336273773834,1.42493360128059,1.4283326371117,1.42795462798069,1.43090551391432,1.43116238838483,1.43497042498974,1.43421408773912,1.43535947365351,1.43538867035337,1.43610940125048,1.43921774979065,1.44076079919911,1.44009338862425,1.44022253259517,1.44002987960887,1.43953759708352,1.44092879902046,1.44295952456206,1.44311327108207,1.44373294666076,1.44651135825947,1.4506270699362,1.45156471816159,1.45034107608692,1.44987860261861,1.44855955258792,1.44024056509537,1.43252504965408,1.42264573315858,1.37859422441345,1.38334765259682,1.37684584982752,1.37895494822667,0.00366275022999988,1.34102380032992,1.34111121623856,1.39674132708925,1.46710997667549,1.40520468815502,1.39566734243117,1.39466380182412,1.39444075531618,1.38294389866257,1.37352333353144,1.37520817503114,1.37753073163969,1.37773489621283,1.37874760562572,1.38062304514866,1.37591952148759
1.38381800661573,1.38534631910698,1.38463980704086,1.38634930340924,1.38629249800614,1.38680842263418,1.38621850171667,1.38483495475963,1.38335663263834,1.38096744596668,1.37959046276188,1.37800991074679,1.37823442446977,1.37633061925776,1.3766521583903,1.37420605082402,1.37416329005096,1.37168816908724,1.37192151192558,1.36933976618447,1.36931333244693,1.36832335195274,1.36925436839275,1.36820044725151,1.36871516471063,1.3683410767947,1.36924386942792,1.36919559165638,1.37014327164836,1.37007176527864,1.37105424110688,1.371422769278,1.37302457425657,1.37385280218775,1.37566551109864,1.37668439123648,1.3781672629795,1.37828915909095,1.37824783080719,1.37791821455557,1.37689217837427,1.37796397467053,1.37757761798664,1.37904788676234,1.37824977935717,1.37954068468971,1.37826372270824,1.38024053354599,1.3794310730162,1.38125634726071,1.38008208701227,1.3816136896485,1.38035199310054,1.38207555479922,1.3811893008559,1.3825365938964,1.38149343763355,1.38312549117265,1.38267182514027,1.38343167348527,1.38236181440527,1.38262399704216,1.38150605446116,1.38187348487159,1.381365055657,1.38181070991716,1.38201606859656,1.38256168688051,1.38357682797533,1.38358968810911,1.38479015423572,1.38487986694542,1.38671827214632,1.3869077146984,1.38914103842215,1.38878574517272,1.390553423997,1.3887669911007,1.38904777515895,1.3874547847834,1.387886490444,1.38711510486497,1.38847714958531,1.38770173296442,1.39006237268115,1.39110360114694,1.39160943512548,1.39460961657799,1.39500420937814,1.39616540624485,1.39580177480576,1.3974018939893,1.39756047244804,1.39983471565489,1.40159841170514,1.40231137163681,1.40215726103768,1.40439030618595,1.40422540480428,1.40653488192866,1.40647355027001,1.40751348218405,1.40601823503741,1.40712650880903,1.40690939156415,1.40653550713725,1.40677151120073,1.4080758267891,1.40941831090471,1.41077684005656,1.41135789673515,1.41236098762088,1.4128986581897,1.41472572788789,1.41499579621822,1.41542188618203,1.41492748295674,1.41572940736134,1.41641665841839,1.41759556232981,1.41714315504091,1.41806591663886,1.41830081339413,1.42015259400732,1.42073629793688,1.4226495837425,1.42297888740128,1.42486276660675,1.42517172034341,1.42690046542534,1.42821954264018,1.43131584373267,1.43341777050735,1.43269364436903,1.43880638969243,1.44003521960606,1.44141549758766,1.43925558321715,1.43787005810267,1.43803602193563,1.43766381024351,1.43939309793876,1.44059964697538,1.4418725741163,1.44208859980268,1.44215201572305,1.43858142590484,1.43532882577355,1.43466684899539,1.43380960770936,1.43361640925813,1.42771338279043,1.421823191228,1.41364945937732,1.3909857495372,1.38678100235607,1.38094277378511,1.38081069940169,1.34049184376608,1.34060337542251,1.34045295250928,1.36274683285624,1.36330349978069,1.36291653566804,1.36391927618076,1.3644415944312,1.36668722039542,1.369636963249,1.37258156193334,1.37481495559621,1.37657494730669,1.37624298902908,1.38127311757697,1.38365012727374,1.38609352448521
1.38344400954968,1.38157519081858,1.38387507606216,1.38355696557984,1.38720541267552,1.38528893247744,1.38658429283568,1.38308631632237,1.37949853208221,1.37924823111892,1.37571283752365,1.37701695707195,1.3741979414493,1.37538388265641,1.37208387231595,1.37336965335277,1.37000062461982,1.36958368091402,1.36375564216413,1.36664706990036,1.36360845382134,1.36665691322498,1.36521334681029,1.36676402336862,1.36569884961436,1.36709578378414,1.36665307000156,1.36830287125389,1.36818414247727,1.36935205222952,1.36859624911307,1.37038941789496,1.37000272639971,1.37300916597313,1.37388981098187,1.37596402814864,1.37630568253052,1.37708473657486,1.37679564491219,1.37637035485744,1.3760026193303,1.37667811060768,1.37986809183425,1.37837447632984,1.3828567840899,1.37813328395942,1.37998062840616,1.37738419026248,1.37960457496846,1.37822210080064,1.38121207830071,1.37891991583554,1.38120351005773,1.37923199413028,1.38085513939918,1.37946761511398,1.3806813030157,1.37999099378986,1.38189160119027,1.3806501880143,1.38183693455357,1.38050401274324,1.38091814114004,1.38017690583394,1.38044136586932,1.38018638481991,1.3797969133985,1.3805538173853,1.37980277897564,1.3813709783333,1.38036177915792,1.38208474955359,1.38021524205338,1.38426795209581,1.38484726060378,1.38714715845144,1.38630133843317,1.38796718700938,1.38575753336135,1.38704816000353,1.38351908123563,1.38506703126747,1.38065891539702,1.38439390654622,1.38253577071871,1.38767924393142,1.3904122810405,1.39193631170852,1.39237072863211,1.39296143219443,1.39392500709707,1.39322034551892,1.39486136280864,1.39396929150405,1.39447018433906,1.39631868190688,1.40125909979855,1.39899804875914,1.40222440235237,1.40188973513023,1.40592953172074,1.40306842638214,1.40480277154335,1.40176851074813,1.40227096567943,1.40280249046621,1.40659996120952,1.40655539418916,1.4091925763128,1.41098010411056,1.41173469253519,1.41284263897723,1.41308936842361,1.41366646899573,1.41376122962761,1.41218647822059,1.41315045652605,1.412489994329,1.62267000053712,1.45156107042758,1.50060996456484,1.41630746820153,1.41705077033598,1.41778003138167,1.41978323661163,1.41925507335113,1.41996741589816,1.42044404779675,1.42213964918367,1.42150905000801,1.42113775296288,1.42094927732385,1.4209379849135,1.42820537925913,1.58554000053712,1.44946417482789,1.44871475860112,1.4370111792475,1.43543770648039,1.43560216857619,1.43493519057729,1.4369792187257,1.43912408540762,1.44030574147546,1.44085599755972,1.44054343864842,1.43947408669103,1.43529414079232,1.43371205279984,1.43318283170833,1.43285821406534,1.42358778350731,1.39784987270534,1.39605741814655,1.39527941846368,1.39214464027637,1.3939998726389,1.38272852268418,1.34000088708965,1.34007768795884,1.33938454413212,1.36218187139821,1.36409332051944,1.36132620459499,1.35848972045886,1.36207358470081,1.36578610703736,1.36004944805178,1.35634521140749,1.36416340424308,1.36681331668297,1.36957559803557,1.38640019519559,1.38667574481129,1.38867061789021
1.37905031617032,1.38053434701832,1.37962816148803,1.38216239744391,1.38278315851506,1.38355866416017,1.3829975808056,1.38161663379026,1.37989432574478,1.37818343393663,1.37718234801766,1.37513692259254,1.37463874587576,1.37226140837578,1.37226198206658,1.36991178295591,1.37007627858358,1.36686512412018,1.3658576590231,1.36421014003993,1.36485658838562,1.3634652895276,1.36400750233848,1.36259542207957,1.3635355161246,1.36318710362397,1.36488475296738,1.36541994274791,1.36739567604103,1.36697673947707,1.36796310916471,1.36781059873583,1.3694629778879,1.3709397940168,1.37394592945271,1.37477614544015,1.37629007212006,1.3764197408176,1.3765006571374,1.37653568287092,1.37618458871612,1.37717872587804,1.37693158939667,1.3781283064333,1.37722053171493,1.37784857234019,1.37604540098707,1.37783114700545,1.37703393620759,1.37867992146242,1.37776464070315,1.37887546729194,1.3779338870523,1.37928024353486,1.3789793500529,1.37960701833557,1.37871403591429,1.37944194673805,1.37875846773818,1.37986186540546,1.37966980681353,1.37998595900535,1.37931867056938,1.37934149392156,1.37890011293762,1.37874410606873,1.37865639875383,1.37815018781926,1.37835152460607,1.37799158959742,1.37897044733397,1.37830402662582,1.37949857295058,1.37976239407904,1.38198852448238,1.38208313163273,1.38447943929961,1.38395349946083,1.38609884388763,1.38411739772614,1.38478460976207,1.38284947155764,1.38334172905572,1.38249477749771,1.38362464238295,1.38419577500199,1.38588815983346,1.38922031666726,1.39024232770435,1.39091828907402,1.38961937898556,1.39028316300778,1.39008214783119,1.39163327750374,1.39105501790655,1.39391718991925,1.39389440030398,1.39635631072058,1.39688051163801,1.39655785941702,1.39520559622009,1.39746439290224,1.39761924902875,1.39904292925101,1.39811741825223,1.39972715446196,1.39979925063099,1.40110369878988,1.40247631121288,1.4039636338225,1.40433997351794,1.40553948015943,1.40658211693405,1.40727521755387,1.40780509660188,1.40814126335099,1.40855857827214,1.40944693323927,1.40917277648796,1.41053143587528,1.4121062296836,1.4143470025615,1.41484066293592,1.41686706503624,1.41735777299586,1.41855275498979,1.41789487130026,1.41896706953052,1.41812611220581,1.41912960831294,1.41831231636513,1.41938917301696,1.41982655353028,1.42263382830315,1.45064685928878,1.45003069247795,1.44930229534969,1.43723303569629,1.43586541215043,1.43573803268667,1.43522927059021,1.43591968918953,1.43831449904157,1.44021674967295,1.44018268810001,1.43995988434148,1.43813146955543,1.43363268646264,1.43210961360113,1.42738337735058,1.42497635023624,1.41879126248598,1.39807184016006,1.39491938760801,1.39331721847693,1.39183630081138,1.39176645660492,1.38528165969975,1.3712486955338,1.35974860701741,1.35780400297062,1.35949230167216,1.36016477510865,1.35964677933346,1.3586311097349,1.35968610279541,1.35901395756073,1.35847284963307,1.35735364941221,1.36105525606471,1.36354829457902,1.36667970458691,1.37106839157413,1.37516469031854,1.37920901145702
1.3786822070721,1.37713281033504,1.37824663770198,1.37899814601976,1.38254498002724,1.3810618377081,1.38199764199077,1.3802452381209,1.37924605008856,1.37802611417595,1.37606055687143,1.37491397159401,1.37124270977953,1.3713423160831,1.36791878788967,1.36868924123912,1.36753180711707,1.36633224372714,1.36284239090324,1.36348428231998,1.36274869215205,1.36258292876902,1.35912559332273,1.36016600499708,1.35757824224888,1.36060721906901,1.36014282724906,1.36360340328112,1.3660090608658,1.36550811712395,1.36488743515086,1.36603702270192,1.36541219151164,1.36941895809738,1.37367575387287,1.37407851788736,1.37640917215155,1.37609888562066,1.37650801907589,1.37622784670144,1.37775948424506,1.37622707129451,1.37772539207656,1.37580827505829,1.37693144278909,1.37497164269444,1.3761289499198,1.37565596710778,1.37945736288576,1.37682590299491,1.37898262782033,1.37660123493018,1.37814528044284,1.37740156993028,1.38083423665514,1.37816270576636,1.37952546814113,1.37745542432474,1.37772915735739,1.37792849522034,1.3801759329281,1.37863378737022,1.37909668061952,1.37807097934496,1.37760045703004,1.37750050031479,1.37664653733112,1.37658172200564,1.37432086238988,1.37603765239124,1.37442096340827,1.37626065975763,1.37417539898855,1.37734837618768,1.3757517960564,1.37951506498268,1.37823008604938,1.38233201174984,1.38396634215184,1.38353215797128,1.38108664066583,1.38293449967095,1.38119905236225,1.38244224509928,1.38008165282175,1.38217882424445,1.38025597053801,1.37818263983667,1.37197551307195,1.38480516524976,1.38517019734639,1.38632920618308,1.38770157783366,1.38785359040776,1.38992044051603,1.38954752798918,1.39284900292006,1.3905640030966,1.39109779385951,1.39120561112528,1.39389422197589,1.39268998440618,1.39548558105621,1.39403775918375,1.39700430600149,1.39486879540281,1.39528852844207,1.39394867238631,1.39371787381918,1.39017328362265,1.39113898978961,1.39144144959055,1.39570931555904,1.39585079465967,1.39861438064345,1.40204261182803,1.40454647239416,1.40595232348502,1.40863173205249,1.40912729915732,1.41255014709399,1.41209760054559,1.41409169290389,1.41456046992978,1.41845743216322,1.41638605944042,1.41876674332981,1.41611369686682,1.41648680289872,1.41579255317746,1.41614764037048,1.41654817637758,1.41719198373273,1.41870419654314,1.45115971588533,1.45064624997908,1.53605997628972,1.42416419003758,1.41999198997071,1.42034463597466,1.41910418068185,1.4328795040268,1.47210048608635,1.44070033373609,1.44040037756273,1.44015259411545,1.43973223226584,1.42798041373805,1.42431638741141,1.424568590977,1.42305451060009,1.41026047041271,1.40141165025907,1.3923863360335,1.39006840714648,1.3898674581446,1.38781840626121,1.38814329360019,1.38751904806485,1.36195424252512,1.35483835808756,1.35765703841155,1.35702362356992,1.35811988231352,1.35691064009457,1.35856060940275,1.33741740411037,1.35707242514499,1.35512732870922,1.35844872700444,1.36100609887666,1.36227193327877,1.36265939728255,1.36233835580263,1.36242738060075
1.37678999972414,1.37781465656202,1.37667770808265,1.37827281647521,1.37820788696419,1.37916825660374,1.37899199971097,1.37854855619093,1.37790853071367,1.37642931337834,1.37571938598577,1.37273642262714,1.37125375000481,1.36835906353565,1.36751435291617,1.36407986821126,1.36343731824808,1.36312329087309,1.36277630529277,1.3590504314474,1.35976472239715,1.36048895024509,1.35989137681301,1.35623617167303,1.35658363141219,1.35695667236138,1.35906542467507,1.35956815022246,1.36025340147318,1.36123156407112,1.36237451673245,1.36242270068604,1.36371261819352,1.36489578927584,1.36753257704127,1.37001487266124,1.37187364166065,1.37415962507234,1.37514889308183,1.37515040786524,1.37526181279022,1.37576294208748,1.37538374286786,1.37605449887337,1.37485811732719,1.37572877339794,1.37454897708758,1.37605978845683,1.3756877575125,1.37633872590276,1.37542805205849,1.3754948642302,1.37464468691265,1.37508088987147,1.37503492658517,1.37574488185332,1.37605172322347,1.37614766047025,1.3759384124659,1.37655505387336,1.37692349022724,1.37716946239979,1.37719895955055,1.37698273914463,1.37679154622213,1.37621742029165,1.37599467216356,1.37470380537098,1.37424833846413,1.37323966623741,1.37352451126685,1.37251877571737,1.37316393580834,1.37298825942237,1.37471291545667,1.37479638931372,1.37705073121928,1.37658971057352,1.37681916925883,1.37808229495731,1.38014302541435,1.37904854450662,1.38062343660999,1.37909940983895,1.38004290759124,1.37896281764532,1.37933500412071,1.37756233358441,1.37722801222999,1.38101463255156,1.38242549887602,1.38424491980488,1.38540282875333,1.38696520661902,1.38689646403249,1.38864816237055,1.38783633224557,1.38924239451591,1.38766933592164,1.38986170598535,1.38898650509757,1.39102167889425,1.38984203627909,1.39192721500962,1.39104057893893,1.39251800188319,1.39136236960246,1.39192636418196,1.39029278537836,1.39047131574226,1.39040442464512,1.3918144278833,1.39287759839324,1.39526557437002,1.3963705292492,1.39978943469167,1.40099457294021,1.40397552616667,1.40490410180031,1.40769225059472,1.40866106999038,1.41091682032273,1.41115989277706,1.41336771688943,1.41338008068727,1.41488526142254,1.4140758979038,1.41518536684581,1.41416317679601,1.41527207200291,1.41448622686869,1.41550736440511,1.41517363517437,1.41663012237416,1.41848824556953,1.41984387438492,1.4205705196503,1.42119105065838,1.42264419267434,1.42278664967522,1.42253524700366,1.43074028176428,1.44104939381146,1.44077491316352,1.4402888379822,1.44086562334974,1.44122607455138,1.42737824036198,1.42458428302448,1.42035228229154,1.41378352528405,1.40563852183078,1.39766232066071,1.39119832227874,1.38997823353155,1.38643627697569,1.37884091881844,1.37036234494203,1.36805107594463,1.36403836321035,1.36393616097195,1.35942109697029,1.35852395649066,1.35886560603305,1.35757750398815,1.35899146807211,1.35914524132583,1.3583445866939,1.35716855684666,1.35835621169659,1.35825805450272,1.35944036145819,1.36222589100182,1.36369011986635,1.36423994111026
1.37911760586683,1.37642245064081,1.3779324615239,1.37600986671953,1.37655138637372,1.37666207711652,1.37762740611321,1.37695356137336,1.37628142440702,1.37558282053814,1.37421058189323,1.37207000684914,1.36808522533369,1.3669400966159,1.35836149961142,1.36002644224569,1.35798315251329,1.3624516509122,1.36230301336159,1.35204063961426,1.34704110101378,1.3468380553055,1.34612218417471,1.35073291583693,1.34935864285329,1.35446376451068,1.35579838803104,1.3572445522286,1.35604357617393,1.35835738554318,1.35787992228405,1.35988421577938,1.35879946115144,1.36069565422531,1.35852450129199,1.36048532270258,1.35931598544049,1.37300553188767,1.37379244892864,1.37375106184177,1.37382887131317,1.37443051064518,1.37580345364761,1.3749749187422,1.37611150537215,1.37461836906045,1.37615161780505,1.37446065433525,1.37622761919858,1.37413202611704,1.37507820438225,1.37286156401129,1.37277208348122,1.3716765592868,1.37079857195247,1.3725841626652,1.3744756191699,1.37400725849669,1.3749245682332,1.37442009514944,1.37511581263231,1.37524131463413,1.37617156242458,1.37582786674462,1.3758424642132,1.37544240617457,1.37444612994214,1.37388160465565,1.37123966657342,1.37206404637154,1.36900285071369,1.37095005144218,1.36686511061492,1.37127784733565,1.36849233122284,1.37240821625259,1.36938385557368,1.3741113225345,1.37238988742134,1.37631349319636,1.37459810598394,1.37757952126539,1.37589085065018,1.37800829479851,1.37547772940179,1.37802648469824,1.3757790456461,1.3778366074084,1.37679865455497,1.37931860220983,1.3786437090119,1.38213311156292,1.38517450933316,1.38500826170272,1.38743268787484,1.38572764417148,1.38812526076696,1.38544935678163,1.38797815058793,1.38563687005943,1.38945188728629,1.38630160579465,1.38906600387718,1.38719977507972,1.38981162935205,1.38842284420729,1.390267300308,1.38852715739959,1.38885778518238,1.38865801452642,1.391011782031,1.39025562939192,1.39200265199338,1.39284275771313,1.39546609757576,1.39661675223726,1.39969920148313,1.4007897955893,1.40354106272809,1.40477120722347,1.40787630299756,1.40813863313271,1.41135900832279,1.41037313032623,1.41247325650898,1.41159773291438,1.41316312463558,1.41258882993391,1.41464015531495,1.41349690884513,1.414458770835,1.41361410348629,1.41318895129376,1.41325907215628,1.41140887345698,1.40973803199309,1.40749222761659,1.42016991737998,1.42562844397067,1.42512389356743,1.42659398362147,1.42872711546001,1.43925268477793,1.43985658003482,1.45363810271839,1.44187881428062,1.44309766265177,1.40265950139321,1.38416312288819,1.382217768588,1.37471133696785,1.38130254710492,1.38670591277371,1.38149610937969,1.36320145456055,1.36656905677926,1.36561609330897,1.36755899880711,1.36565778236051,1.36588524149054,1.37063003882063,1.3570427057506,1.35849642638374,1.36121913388182,1.36776984089009,1.36050831357253,1.36052382399083,1.35872253353073,1.35873861267981,1.35845025621841,1.35586316007824,1.35460714643376,1.35167069302403,1.36576654330258,1.42534996261219
1.37610020900254,1.3762796162296,1.37490575927994,1.37528755272068,1.37458587144722,1.37530843181336,1.37532872119837,1.37509452099549,1.37472852322284,1.37292682436556,1.37161830431912,1.36905903246239,1.36734409202644,1.36398331427169,1.36029305806488,1.35681273466929,1.35696533708923,1.35271455901066,1.34999577427156,1.34772309763659,1.34684691309807,1.34623205492583,1.34786125645671,1.34882335335062,1.35090242952822,1.35236899274475,1.35451088552587,1.35466118731439,1.35504845202639,1.35590870517158,1.35683140165499,1.35746826001344,1.35827692113207,1.35882885252987,1.35958675189345,1.36075866986832,1.36288701388694,1.3681791203711,1.37092001242775,1.37173273362136,1.37282623704653,1.37401162143946,1.37504004218366,1.37551630213772,1.37518042261442,1.37500085361005,1.37381435612735,1.37373757764044,1.3726499811561,1.37218442127333,1.37086957326768,1.37006243794584,1.36897560810039,1.36882187651005,1.36887625199349,1.36955733147761,1.37054665420783,1.3707745710654,1.37137922463311,1.37142472980791,1.37195935371573,1.37260991959204,1.37369885100382,1.37372322168188,1.37418456932106,1.37359831748411,1.37363887818558,1.37220535611752,1.37180193444556,1.37056036516691,1.3708085807783,1.37003029997386,1.37101269941794,1.37041010114664,1.37171865537419,1.37103339578698,1.37223304284841,1.37170251027732,1.37312550179358,1.37250874070082,1.37403688367785,1.37331097458465,1.37484306524078,1.37454990520969,1.37645676315877,1.37563670407268,1.37685363930502,1.37639773145167,1.37789934264833,1.37786682799632,1.379024047775,1.38050070022245,1.3823719357644,1.38344154626213,1.38382523748871,1.38445316651424,1.38345907152254,1.38420687590849,1.38257755171645,1.38405676766984,1.38266463633853,1.38447153366339,1.38330562109549,1.38586540109309,1.3856532544262,1.3876317587217,1.38700192068593,1.388324738821,1.38734770755396,1.38897834866968,1.38865038338368,1.39097767022328,1.39118791921576,1.3935953314331,1.39365178958175,1.39689854498637,1.39766316106281,1.40142195677897,1.40246641637362,1.40550243942267,1.40574618137006,1.40822866733167,1.40798608294431,1.41050420482954,1.41031975770932,1.41215886177484,1.41141391605377,1.41311575696696,1.4126442504315,1.41412162967616,1.41388289685677,1.41417996929066,1.41316308229663,1.4133613473448,1.412529745128,1.41191248499519,1.41333107143138,1.41928553115249,1.42249626767539,1.42490809263409,1.42692607118211,1.4299895358815,1.43478546954542,1.43874000239597,1.44147272543928,1.41686265754739,1.40376994759456,1.39455817730779,1.38264406197222,1.38127686560678,1.37886884262874,1.37995031786396,1.37930202154343,1.37861500857222,1.37736868057579,1.37262799617847,1.36891113854269,1.3686661783901,1.36566869220625,1.36140110414375,1.35839445635517,1.35610837012127,1.35669588018162,1.36038211847425,1.36354457891198,1.36155594664657,1.36019774529337,1.35880705569876,1.36065310461966,1.36269285257773,1.36460667520591,1.36649852609674,1.36765858635882,1.36861562281835,1.37049648819643
1.37732732771434,1.37458773115465,1.37407787108826,1.37349813941545,1.37348632271917,1.37376877513755,1.37355476569328,1.3738496542815,1.37279515150315,1.3714835823723,1.36671350661178,1.36785606957861,1.36407893702224,1.36390429689395,1.35929398154524,1.35114887049192,1.3448074435884,1.34337043128152,1.34383964536064,1.34506128973619,1.34289397783415,1.34590835121985,1.34617548708064,1.34871490046544,1.34920741222207,1.35202974228588,1.35229459626254,1.35331015992687,1.35192757508758,1.35441412120327,1.35434483356403,1.35639474378922,1.35525314395479,1.35862570430286,1.35825344034629,1.36162240011407,1.361505966306,1.36678763420038,1.36762397734824,1.37057877540946,1.37120176359576,1.3734817538255,1.3763239580027,1.37535190765942,1.37693917822881,1.37430505373063,1.37346832521827,1.37213528831097,1.37076532047959,1.36996438915024,1.36709953080814,1.3673712645434,1.36388432961312,1.36630688107944,1.36517601839014,1.36703567236992,1.3662327838141,1.36786381713417,1.36757104419226,1.36843450931496,1.36807423476139,1.37003452413568,1.37144236261804,1.37200251600253,1.37202408240882,1.37253865853185,1.37176847591626,1.37162858397205,1.36958633736773,1.37043399747926,1.36897450801837,1.37090776614309,1.37113468775351,1.37178096572283,1.37052568806097,1.37209174581299,1.37076655278777,1.37186225189097,1.36854984547244,1.371463169422,1.36841124652509,1.3717275910771,1.36854561858718,1.37367018385864,1.37345287221113,1.37555097446621,1.37365406409357,1.37655540578302,1.37600281500426,1.37763828778341,1.37676751769426,1.37925044271676,1.38078872972917,1.38128664340123,1.3833455996227,1.38156831836311,1.38303797474045,1.38052774717622,1.38185813788615,1.37961087167386,1.38122807644051,1.37981384616235,1.38193466192713,1.38204917439211,1.38643702013247,1.38488026436451,1.38786657764248,1.38632988433512,1.38860015451151,1.3872258982553,1.38889500625793,1.38965515477729,1.39383285135963,1.39236673236814,1.39466345765407,1.39520489704639,1.3989251912456,1.40018011858662,1.40574919110993,1.40436400398584,1.40785654621848,1.40625215514855,1.40856518603756,1.40848427727938,1.41293069521139,1.41064977680938,1.41358728763792,1.41173207917427,1.4139635930179,1.41323891539155,1.41639113235156,1.41352265637377,1.41401262235933,1.41291240764656,1.41439494925258,1.4120152140485,1.41407648852842,1.41175836516585,1.36413018773515,1.37763077347049,1.35405937843781,1.38957522200025,1.39994023622578,1.41405788953487,1.44474238444021,1.3997061955313,1.38096130601434,1.37885234946358,1.35431591298402,1.36269856590522,1.35706246401558,1.36494025704264,1.35879293205879,1.37662797355281,1.37720449637522,1.37749083549575,1.37952345020473,1.36975137546762,1.35450399354111,1.35546445087006,1.35111566909337,1.35318484966382,1.35188740695108,1.35985507050701,1.38199318058849,1.36186956543014,1.33794900389126,1.35323991612352,1.34553774030126,1.36603500311024,1.37206862710882,1.37401032002274,1.39310546306563,1.37127741498789,1.37352173453178
1.37430421098334,1.37423755154439,1.37325813455164,1.37343164618238,1.37319202585432,1.37330870472976,1.37334660676888,1.37267246716953,1.37225231352675,1.37054389484515,1.36942752171081,1.36774420132038,1.36667673129632,1.364777612738,1.36268395709573,1.34583349617906,1.34464910315978,1.34293002903503,1.3436364630327,1.34262670239051,1.34407082831992,1.34228001293519,1.34450709876626,1.34575547911783,1.35002614712588,1.3509715697463,1.35247018744124,1.35281566248421,1.35342529554365,1.35461928699024,1.35583671127689,1.35704472210113,1.35840243997144,1.35929031682259,1.36107755662557,1.36235024129057,1.36511291634203,1.36635690826696,1.36866694476277,1.36926485871067,1.37092084858838,1.37164054619542,1.37303982242126,1.37343408944512,1.37392229763353,1.37331837131334,1.37258492628767,1.37171534593441,1.37081520913422,1.36979126350585,1.36884801200646,1.36704279212787,1.36577976665561,1.36497774069271,1.36521402872657,1.36457965930467,1.3649813149326,1.3646656702958,1.36513826074062,1.36499345542487,1.36551983669465,1.36656326426195,1.36819594777174,1.369106335465,1.37052662601111,1.37039921198812,1.37096296191742,1.36976023090165,1.36963878797492,1.36855468154211,1.36899991266611,1.36859328503218,1.37000390507439,1.36939826165268,1.37074422137513,1.36974296336829,1.37082530513258,1.36966238727581,1.37057898419061,1.36946951969056,1.37039321474567,1.36977719406889,1.37130234474066,1.37137247095153,1.37360086450114,1.3730395218665,1.37473841575867,1.37450940729684,1.37641088636133,1.37577218671639,1.37683608303652,1.37698308553164,1.3780981577468,1.37834994488239,1.37851440569144,1.37905467612999,1.37850650769529,1.37899696332798,1.37753236243493,1.37875935820681,1.37748995564472,1.3794692815332,1.37881389587508,1.38132466447707,1.38143050825138,1.38410777859471,1.3845612485415,1.38634185904202,1.38617529956549,1.38796027196854,1.38804986011806,1.39070031594501,1.3914250361117,1.39368996644002,1.3937932846318,1.3971465698759,1.39803490223931,1.40171713933976,1.40254975185955,1.40552218841566,1.40563099236935,1.40761093747026,1.40682651988356,1.40916492990314,1.40891537137387,1.41077787585819,1.41039518526823,1.41215603654589,1.41219877169874,1.41282488506433,1.4122487008964,1.41213837625313,1.4116271407776,1.41099263571543,1.41082961953666,1.4081729579994,1.40446665270502,1.40279782980029,1.39299878111973,1.38837267808956,1.38576195554087,1.38502513879983,1.38441541989344,1.3830784380622,1.38096228905133,1.37839557692119,1.37632442937597,1.37641788627432,1.37414748118564,1.3700870309248,1.37147139062767,1.3704201492377,1.37247061851589,1.37455074811692,1.37714449566485,1.37948086631447,1.38154396969663,1.37065304474089,1.35469804117128,1.35553852688704,1.35471656942356,1.35397456770498,1.35340040163979,1.3591942979406,1.36181098157422,1.36239956534052,1.34934572036245,1.35403267682815,1.35646248317084,1.36998515024643,1.37232296567884,1.37406079249703,1.374235694388,1.37280904119448,1.37315410089896
1.37398309334765,1.37297495298594,1.37350446399752,1.3727251561855,1.37338626003762,1.37288626952164,1.37305514357723,1.3722333433451,1.37060202253805,1.37075331152236,1.36922750262714,1.368906155602,1.36695196767344,1.36714913810718,1.4420399658874,1.34125403399146,1.33474471559815,1.33468598194044,1.33320279542971,1.33377322630242,1.33189568161573,1.33687525876931,1.33716881135702,1.34248503451847,1.35065306802533,1.35109100293365,1.3521243869464,1.35274530477042,1.35398284013156,1.35492705829875,1.3571242036669,1.35805650842166,1.36048997289543,1.36070091591909,1.36107244134966,1.36421204115204,1.36623213050695,1.36781486554168,1.3674152171514,1.3693912905253,1.36875476757251,1.37054696978971,1.36950685196968,1.3718980141007,1.3718140994678,1.37251997914956,1.3717645593625,1.37164567510906,1.37008101963058,1.37063009964399,1.36921915177856,1.36815375777615,1.36381166827461,1.36516560832541,1.3622644048496,1.36366907856226,1.36094600053445,1.36283822916499,1.36061635112497,1.36251302967514,1.36040384329395,1.36384175144754,1.36378621456251,1.36710815528522,1.36834735653792,1.36931930218159,1.36906966298669,1.36902524557006,1.36708979122298,1.36785399651941,1.36559077703153,1.367665670015,1.36588845645063,1.36874348238582,1.36765848280044,1.36939132858242,1.36696978218094,1.36973520844537,1.3681862376934,1.36992695723699,1.36738218653368,1.37020775695949,1.36897031246989,1.37142819994306,1.37005044991175,1.37268318692603,1.37152944210379,1.37441131183902,1.37389415371132,1.37553861635855,1.37383248845752,1.37578808147083,1.37452775914588,1.37579293235425,1.37430874917028,1.37600888647359,1.37665700052065,1.37610524249887,1.37636455250574,1.37594183393002,1.377513436034,1.37685244920077,1.37968475685589,1.37825005157245,1.38048857033512,1.3812436227689,1.38589538685076,1.38436418967395,1.38740964751121,1.38653982893084,1.39037643014499,1.38958032035945,1.39374012905889,1.39257875618582,1.39671134760485,1.39635831022375,1.40212059385758,1.40069669330844,1.40484310378163,1.40419577578137,1.40911517619312,1.40639782556099,1.40946908756545,1.40726463853777,1.40994960479124,1.40846286371426,1.41136457937255,1.41051538255277,1.41458743173735,1.41115358258748,1.41020625346631,1.41027881604249,1.42617467664925,1.40785858124063,1.40451034450778,1.4050686357139,1.40260215002555,1.40187258635954,1.39933647938824,1.39023892097192,1.39170641134576,1.36862677357499,1.35403798814908,1.3571956163259,1.3589315087267,1.36704147324917,1.37499649218462,1.37646433842844,1.37561693410494,1.37211810635176,1.37369068629931,1.37245417869276,1.39757857146868,1.38755153785882,1.39343298338214,1.38170965672597,1.38456386318427,1.3715398056209,1.35509999054518,1.35741262612991,1.35823412127858,1.35494942712415,1.34921169523172,1.36189835869089,1.36421976280254,1.36278473177545,1.34696086176504,1.35710284743771,1.35992118427641,1.37422307055717,1.38036527215618,1.37676436830655,1.37737765357509,1.3741864461991,1.37385675715147
1.37221075136109,1.37203069778908,1.37155715468511,1.37147220739335,1.37161119898476,1.37136450519208,1.37151956471128,1.37076575752212,1.37058018409533,1.36969318059843,1.36956340801301,1.36861667813084,1.36835923687656,1.36827097930376,1.34481858325976,1.3363561625599,1.33383555788008,1.33242520359784,1.33190742710836,1.33116069095523,1.33210354700134,1.33470186091834,1.33753016697553,1.34095328642326,1.34648630261619,1.34821412581357,1.35048518153387,1.35162776935165,1.3530206174812,1.35432753779723,1.35564371114069,1.35733782936653,1.35931087478333,1.3599425811224,1.36179911237584,1.36342837709245,1.36703810976635,1.36664514069655,1.36840563281021,1.36773514415856,1.36920696425064,1.36898492567596,1.37044588836373,1.37069960058801,1.3720528928933,1.37156169956388,1.37196831046224,1.37102689198447,1.37129426438144,1.3703872009529,1.37089683430809,1.36833379641128,1.36745994526368,1.36472792951672,1.36403631781751,1.3621544476075,1.36218286308686,1.36121028008915,1.36163521510494,1.36109118909322,1.36158013170903,1.36227207502399,1.36376118052179,1.36490503327836,1.36657245927092,1.36681426767564,1.36759915981489,1.36699589622551,1.3672540910681,1.36640570460688,1.36674918896301,1.36619423500447,1.3670435292967,1.36700050273242,1.36839300043839,1.36760494492787,1.36842684491077,1.36814515114868,1.36961974109627,1.36850477330492,1.36929161335968,1.36846897731444,1.36972727878657,1.36903501924893,1.37025934140453,1.36980208096052,1.37128397140582,1.37160749746562,1.37384943156783,1.3733061623231,1.3744869387187,1.3739906981859,1.37481562018303,1.37444200346066,1.37468061877269,1.37513994511139,1.37538663056597,1.37604047330927,1.37566083289267,1.37660500819889,1.37595411284032,1.3771113517655,1.37633592627641,1.37792345294314,1.37749477586469,1.38050913849118,1.38141196676346,1.38347253768527,1.38357276577427,1.38607341173432,1.38680915692858,1.38959079090098,1.39040751743871,1.39310089631403,1.39363911050821,1.39717541584588,1.40011699909057,1.40249890017984,1.40251336143332,1.40523653155026,1.40542349314182,1.40713053525665,1.40639953919988,1.40785003541115,1.40709590653796,1.40835480229839,1.40787885537398,1.40907318905255,1.40926270060169,1.409840812474,1.40948194880503,1.40942461421621,1.40856938006036,1.40755029519314,1.40576725571672,1.40491892224772,1.403807184116,1.39435940521861,1.38722408500036,1.37961061638456,1.37473168675459,1.36750340338712,1.35592089755143,1.3584744561143,1.36112815886226,1.36507921453828,1.36644247908532,1.36560375702911,1.36591393120617,1.36862409907507,1.3720193595992,1.3730846737603,1.37769571412005,1.38102093889402,1.38077516520456,1.38226489709348,1.38485864113266,1.37223007545904,1.36666253114462,1.36046940174227,1.35726376518512,1.35851917009869,1.36116303801946,1.362629192134,1.36478516068679,1.36805264770134,1.37158301363128,1.37563958714102,1.3762289526353,1.37718080148827,1.37770659738832,1.3751903939717,1.37398191934241,1.37325674034615,1.37345490717365
1.37162331699142,1.37052800039676,1.37022116985161,1.36963172786603,1.37026404802124,1.36976720721503,1.36974434975877,1.36972699063544,1.36899240996435,1.36920500449594,1.36785349227965,1.3686127987239,1.36729934178413,1.36895056664992,1.3356335457372,1.33415288412229,1.3308748758318,1.33053688837593,1.32605953864873,1.32873057654598,1.32543388704385,1.33475671555548,1.33388295679532,1.34003483427335,1.3426905671219,1.34628215043823,1.34854099531804,1.35069048983291,1.35240253216046,1.35335886393868,1.35434767750777,1.3563369264884,1.35868195728597,1.35923312572424,1.35977166600488,1.36292631780094,1.36763769789344,1.36659965162088,1.36688643517419,1.36754882781198,1.3664380895623,1.3688453511202,1.36866638627497,1.37082019751055,1.37110652017276,1.37179290869332,1.37051705310441,1.37149961043832,1.3699957258535,1.37165056504586,1.37089857882639,1.37042852279422,1.36737776056745,1.36619263226876,1.3612992915603,1.36244807591506,1.35944222517405,1.36121997936593,1.35981426523523,1.36088732879745,1.35976424369587,1.36163083028451,1.36176056432327,1.36377506218775,1.36381910911303,1.36553408557314,1.36472216565702,1.36618044026746,1.36523635187,1.36619808762136,1.36496761246528,1.3661538776048,1.36463068609738,1.36709945018145,1.36620668594541,1.36790170212872,1.36535997166972,1.36878751270857,1.36771799832052,1.3693071518002,1.36679459330895,1.36881873897811,1.36637998856213,1.36895167366842,1.36597596227771,1.36930901557032,1.36588803183788,1.37122792613152,1.37042726580253,1.37338321146557,1.37144722216083,1.37406921966802,1.37256360354166,1.37429150547459,1.37343599190023,1.37456505158684,1.37492775584305,1.37536833691336,1.37716276155506,1.37587682246149,1.37766304723996,1.3755625824989,1.37634881807047,1.37568087016913,1.37676139953996,1.37808538397209,1.38121868344762,1.38088246246142,1.38270026355792,1.38365378102412,1.38685148500319,1.38751231066264,1.39156995103471,1.39087213813138,1.39479145020103,1.39415388727515,1.40409150325715,1.40163596877253,1.40585660284709,1.40329992014377,1.40797764147377,1.40502979210388,1.40857555295488,1.40570598510111,1.40898354242916,1.40583493683473,1.40814989672948,1.40570862033286,1.40640040114138,1.40810437888725,1.42652375129132,1.40577298304887,1.38344829345248,1.3821950533412,0.00378265022900599,1.37079555593254,1.43673997344874,1.36143969267814,1.33459369172597,1.33325910959186,1.33289918113706,1.33178875292995,1.33130091425746,1.32979652171871,1.32974505749696,1.33139281779147,1.33303395316726,1.36474168828297,1.36441433522682,1.36432844463588,1.3620557911338,1.3729038582729,1.37541119512162,1.37935868497258,1.38077989480991,1.38165114412941,1.38512142777477,1.37175830418602,1.37237649075268,1.36411249310253,1.35165930400819,1.36052776021033,1.36166526625092,1.3627026446412,1.39413052719663,1.3798980630548,1.39557944091909,1.37910325294323,1.38358965039109,1.38042359811446,1.3927692118139,1.37281444551803,1.37066154833919,1.3718585690823,1.37298535457999
1.37059206239445,1.36902324491286,1.36719450189819,1.36685872487502,1.3665197658579,1.36714340417694,1.36773898058276,1.36791826742746,1.36820343234394,1.36810443339636,1.36832201691642,1.36846978286827,1.36903602577979,1.36968410755714,1.33397890745693,1.33309596208702,1.33065081606014,1.32988534338425,1.32934974362964,1.329242617022,1.33005376596005,1.33275708636829,1.33567046704411,1.33753935306741,1.34068327036393,1.34289750464707,1.34590283599736,1.3496021237637,1.35185383579335,1.35287506697025,1.35373605250139,1.35500171750005,1.35629745069342,1.35666649412381,1.35775100932858,1.35801381038704,1.35801322898173,1.36073493401044,1.3633616927291,1.36378205359098,1.36613856103383,1.36581704533386,1.36807843197988,1.36819982643226,1.37059999241667,1.36986239959935,1.37096204253865,1.36993134164458,1.37105124497809,1.3700455213063,1.37130332491986,1.36903107638032,1.36900367415201,1.3650184960106,1.36324776813681,1.36096505383502,1.36072235144216,1.35959501984534,1.35995066502079,1.35932926825057,1.35983247099268,1.36007272173893,1.36123016939911,1.36227031425844,1.36395868537329,1.36428616201685,1.3652151102158,1.36490323118288,1.36542784608258,1.36485155622657,1.36537336413347,1.3649229184587,1.36586281066747,1.36600072887578,1.36764929938098,1.3672396391934,1.36856520024635,1.3682798378282,1.36987898400125,1.36837076289081,1.36881385381821,1.36775121215747,1.36879997972716,1.36844845351383,1.37007680446148,1.3693742068319,1.370706835135,1.37058266390896,1.37261887708542,1.37211751813039,1.37371132270743,1.37294231198629,1.37409586531448,1.37312763739221,1.37374639298323,1.37349868238649,1.37425339784307,1.37453748799826,1.37503307486496,1.37530266143215,1.3751214594327,1.37562478600015,1.37521076672176,1.3767036449844,1.3769600144187,1.37891967919788,1.37936682941662,1.38117962197539,1.38142624092693,1.38421998743943,1.38538692443414,1.38780121001613,1.38832365450871,1.39075616932196,1.3910616159385,1.39425369261156,1.39660482932011,1.3994691817377,1.39987565295914,1.40208387889285,1.40211063358684,1.40379650780612,1.40332437626213,1.40421207117897,1.4030795798154,1.40352348079149,1.40252223524063,1.40232159568559,1.40204090958948,1.39740095348993,1.39480846695173,1.39393486318804,1.38086107437501,1.38139810728343,1.32721244452655,1.3275740779238,1.32783939860699,1.32975416599624,1.33215168390184,1.33219295422949,1.33221338564828,1.33114229382776,1.33024329264554,1.32849412011626,1.32921453634504,1.33096027647257,1.33140149360116,1.36351154327559,1.36305104154514,1.36231343338641,1.36101135541849,1.36771704160765,1.37864135509906,1.37940425483162,1.37892852444926,1.37631221781093,1.3717630394173,1.37030124945414,1.3683140172584,1.36655237313089,1.3671832753463,1.36502569301663,1.36484523241324,1.36364674586977,1.36234470000757,1.36105938765439,1.36007309246896,1.35962567130968,1.36031549863098,1.3619606316395,1.36479587031798,1.3669923808289,1.36827861399523,1.36851341739391,1.36630646974379
1.3710101509866,1.36743893843164,1.36317695191805,1.36387304995512,1.36187640890162,1.36463630385045,1.36553753800359,1.36641024710717,1.3664874210209,1.36717146648826,1.36713496667974,1.36774410353775,1.48929998237991,1.39248793010764,1.33342788330111,1.33396971200885,1.32801497595056,1.33040117205891,1.32872084550013,1.33114881788368,1.32920375535567,1.33369410783856,1.33305029163121,1.33702267044383,1.33553014726317,1.34080764292344,1.34106798889792,1.35051848288709,1.35240665998863,1.35265136846253,1.35298683805473,1.35383035586188,1.353752402313,1.35478419517592,1.35319430240316,1.3559804586333,1.35461594830715,1.35831991894371,1.35694475123924,1.36166927459009,1.36318525545073,1.36453339214003,1.36371278584068,1.36712845501741,1.36908070143447,1.36935121494917,1.36850051082893,1.36996166960537,1.36860933048995,1.37031792631963,1.36892378306885,1.36994859610834,1.36787887326038,1.36617406186705,1.35937199014161,1.36163472744088,1.35714923671779,1.35994693535896,1.35669608832637,1.35916468802055,1.35706134931815,1.35941639880954,1.35843086395445,1.36164303579425,1.36320455601037,1.36399300401232,1.36448895660359,1.36454792991549,1.36388936354849,1.36446271023994,1.36342294145543,1.36475106977508,1.36390138696758,1.36633790064405,1.36639714614317,1.36829862197774,1.36796728168735,1.3697263258788,1.36935130999105,1.36949771832448,1.36645469825741,1.36862265923772,1.36673590803611,1.37007519644853,1.37047022393755,1.3716936800701,1.37061187842899,1.37227328444771,1.37074442582785,1.37323935637954,1.37202012236541,1.37389759840696,1.37252615377129,1.37334942975894,1.37158329687682,1.37293891649033,1.37304511153964,1.37340477683628,1.37438995589151,1.37370499123267,1.37487642038523,1.37420837968684,1.37612097598962,1.37613488148699,1.37977216783243,1.37830602267625,1.38054817327587,1.37999703149129,1.38214260433478,1.38321976632118,1.3875381290849,1.38643639942286,1.38858422568362,1.38833537674369,1.39035632193238,1.39159038521924,1.39583428188817,1.39555091695383,1.39938367631179,1.39808729251798,1.40159650648319,1.40004691981438,1.40338752303807,1.4004672851107,1.40161389118296,1.3995341496756,1.39979516409928,1.39685076052337,1.39233482180943,1.39453919359143,1.39216520954306,1.39468458047848,1.37815341832204,1.38140819602599,1.32576969763445,1.32650080408869,1.32508893681753,1.32846571777847,1.33183669291458,1.33099921338585,1.33283275743151,1.33031606587937,1.4443699859799,1.32507685798502,1.32240355065006,1.33104756130086,1.32956168344893,1.3621219782779,1.36102435000768,1.36025345045765,1.35736071218772,1.36475944288079,1.37895289860414,1.38018532786119,1.42166997475346,1.37366024419422,1.37159077381346,1.37013081212406,1.36261293984275,1.36601168340471,1.36857054068579,1.3673081984671,1.36856735785635,1.36452607866593,1.36190181960005,1.36048033794185,1.35871176402077,1.35867162359639,1.35931973247133,1.35783226995679,1.35720486377391,1.3550996964808,1.34245475584056,1.34504795947994,1.34208470626089
1.36909990139767,1.36687849220979,1.36454765858739,1.36397481928917,1.3632910553953,1.364093105107,1.36450550555873,1.36532111338255,1.36573020705031,1.36614889510144,1.36631683953394,1.36670632392662,1.43037438071107,1.41179533467511,1.39001242293942,1.34310478036132,1.33591194497576,1.33385163453276,1.33348763597573,1.33319797635244,1.33414589140881,1.33466431598857,1.3367715543264,1.33712119517978,1.33894576530927,1.34073755778981,1.34382910276975,1.34816298293475,1.35162774550002,1.35200757442836,1.35271984064328,1.35284549806444,1.35347861570501,1.35289932804273,1.35326113044384,1.35330522884394,1.35496674424598,1.3551363896654,1.35719178818628,1.35756695565741,1.3598513535005,1.35999690680476,1.36285057284643,1.36238575089827,1.36376393388076,1.36510652158144,1.36740764817644,1.36674185783557,1.36806739807912,1.3671512125335,1.36842856001419,1.36701676374367,1.36776826948475,1.36519724782763,1.36478508215993,1.36284482775114,1.36297151613788,1.36107184857654,1.36073692508445,1.35971438774856,1.35983692724762,1.35934191849541,1.36013706444249,1.36040383507931,1.36197103452003,1.36177952052172,1.36261180478902,1.36249651398274,1.36323252925329,1.36287861502314,1.36340892516771,1.36333934702549,1.36444183870304,1.36484477524587,1.36671726629423,1.36657364383154,1.36824287692305,1.36767699072834,1.36920275139793,1.36790792375177,1.36889839717015,1.36761783158522,1.36890989365482,1.36867312385804,1.37103144228284,1.37009352662816,1.37178259716305,1.37056289801761,1.37214664253415,1.37135641581134,1.37319125273275,1.37187469210325,1.37275029036731,1.37121314570631,1.37141480348686,1.37061072659471,1.37095785779898,1.37081688913302,1.37113828205536,1.37138609891601,1.37161075415904,1.37273868141486,1.37357262483621,1.37522889442356,1.37640007227474,1.37758973799087,1.37820905908551,1.3799136761943,1.38101919112757,1.38304898603819,1.38431161484413,1.38606543750009,1.38651645300717,1.388325652819,1.38852882130662,1.39102451834711,1.39159432808658,1.39362380730985,1.39363370635713,1.39566993430006,1.39573070478206,1.3976640349968,1.39760918243393,1.39857893562958,1.39794844455133,1.39748148822926,1.39777257279709,1.39489313769052,1.39432354318929,1.39673791224296,1.39568925763721,1.39716188632698,1.39259670657838,1.38446165060663,1.32705559832678,1.32683492006161,1.32622323294063,1.32686454079805,1.32784795188949,1.32779731546432,1.3290647965787,1.32729872646705,1.32525463908554,1.32325293225838,1.32169273688384,1.33784414851514,1.34569618615341,1.36092521437599,1.36035998652691,1.35958166810055,1.35938456282594,1.36191678817942,1.36230876745866,1.36291733138846,1.36484150480662,1.36703083373243,1.36819512444362,1.36687722831756,1.36455159238193,1.36516456743025,1.36625478197634,1.36617953851748,1.36498890923427,1.36377248710797,1.36195133326496,1.36036148242698,1.35899848844271,1.35836896560295,1.35792978199156,1.35671627150399,1.35586941891764,1.35410928924249,1.35229989088177,1.35066418804197,1.35417262025913
1.36861664570712,1.36628313768774,1.36464386702469,1.36376038328121,1.36386357459837,1.36340987751638,1.3635434623005,1.36412869750345,1.36505286114046,1.36493221774475,1.36492815590734,1.36549384937559,1.46129023544116,1.42807459326746,1.5226999811832,1.34752156010556,1.33767361262038,1.33598242713352,1.33596753210147,1.33585469847496,1.33516053627408,1.33711949216846,1.33729887322252,1.33874583673914,1.33813121127346,1.3415816128665,1.34350773933706,1.34740632585285,1.35322028200155,1.35174753396509,1.35229585549217,1.35231979955958,1.35239175217684,1.35222643245844,1.34935869579421,1.35257888745638,1.35051881368382,1.35462172748257,1.35235803983618,1.35575371137188,1.35196633418388,1.35671108495425,1.353737144953,1.35943338660397,1.35801378769645,1.36348270999495,1.36310021400278,1.36595379887505,1.36322792027263,1.3664719827732,1.36367897598266,1.36682266061779,1.3638720728585,1.36681863447755,1.36507092708177,1.36635056503772,1.36475385590835,1.36423443152174,1.36081858835986,1.36169461937878,1.35999482643567,1.36003493385953,1.35990025953412,1.35973991551694,1.360234140167,1.36014535083659,1.35948402650345,1.36107575960955,1.36127230138289,1.3621093529866,1.36116102790791,1.36282565889271,1.36206902983674,1.3645450811721,1.36451314970178,1.36634515083798,1.36536854626678,1.36736548412543,1.36592798137528,1.36813375342831,1.36749981937944,1.36819669502591,1.36653825265641,1.36885486021959,1.368740100814,1.37017577980482,1.36942385156816,1.37054452489759,1.36920178113144,1.37138346101662,1.37089485418676,1.37188301610624,1.36953203094187,1.37080417862699,1.3678483487063,1.36945736078446,1.36686670289481,1.36877440021658,1.36743484456092,1.36888305469164,1.36852046970939,1.37047554322882,1.37229912609372,1.37322008912905,1.3755991257523,1.37557068213572,1.37761609486979,1.37837085427385,1.38206902930997,1.38137661946872,1.38374468769519,1.3839293289831,1.3861955615559,1.3860948955562,1.3881304902111,1.38847472460136,1.3905061106122,1.39002140485681,1.39115931639246,1.39146887529596,1.39342700277682,1.39349876899458,1.3963375317146,1.39495389767211,1.3976860226651,1.39210584895724,1.38774825482213,1.38968025394703,1.52300000068662,1.4027159070163,1.40869506407068,1.40127415300798,1.40698462588419,1.3874464749432,1.32815010340913,1.32703286726716,1.32576523278904,1.32477110512918,1.32135727773775,1.3239967239489,1.31588850689445,1.32454938703872,1.32141326584027,1.32160974761283,1.32077163718215,1.34472347558073,1.3611006864867,1.35948480481192,1.35903390817847,1.35834770006444,1.35844814934713,1.36161665178633,1.36292908558596,1.36355128835489,1.36462902627321,1.36638453314278,1.36617845094347,1.36497550544318,1.36292810940295,1.36430986836183,1.36418150513089,1.34739024701882,1.30751361889371,1.31793190232358,1.31708684675019,1.31927727962141,1.31644936734691,1.33596579792003,1.33400926343818,1.35555101766915,1.35677549224171,1.35334446021984,1.35169737752385,1.35073583909979,1.37167345212823
1.36675660977866,1.36514497465477,1.36363093357385,1.36335537886507,1.36306724285857,1.36320114105775,1.3629713108078,1.3635551218517,1.36357532591836,1.36413620779226,1.36406961010012,1.36463404407887,1.40193346961955,1.41086411055873,1.45857941028225,1.35853854868311,1.34952774218948,1.34324586155813,1.33938056531765,1.33692591052822,1.33744605361656,1.3371527492381,1.33826277916636,1.33805814050251,1.33943696284683,1.3407622152496,1.34370363164772,1.34565775821341,1.34804996124089,1.34842989626834,1.34934294884509,1.34981940761544,1.35123366360614,1.35066859565447,1.35161962033421,1.35143403840801,1.35345968170556,1.35315814980312,1.35533697352546,1.35443412738926,1.35586946030117,1.3556511276336,1.35753589085085,1.35799817159072,1.36026290381247,1.36160895606092,1.36439760935324,1.36420156922342,1.36533808893438,1.36500919345531,1.36630869538582,1.36562327853706,1.36672045351161,1.36606893979968,1.36744512686759,1.36614682013313,1.36680874563748,1.36485902469701,1.36445367125423,1.36228012567023,1.36097239415378,1.35856074394056,1.35836507591359,1.35631093564742,1.35811369517554,1.35701290170699,1.35817991631281,1.35888191818563,1.36057754673777,1.36073083035699,1.36156306317247,1.3617199304937,1.36275264192576,1.36280743274242,1.36420769462795,1.36399965322449,1.3654575494495,1.36475080762096,1.36596552490301,1.36499523354188,1.36624494736904,1.36484525511183,1.36589545749596,1.36521969027858,1.36703719436117,1.36609672484146,1.36758724998255,1.36642927550377,1.36772864620339,1.36746396868285,1.36940771978479,1.36900349088403,1.37036148397085,1.36936117705111,1.36970055244403,1.36871060576933,1.36861295881677,1.36790764231951,1.36764083082334,1.36773477712493,1.36798521965302,1.36909466269932,1.37013908811797,1.37120939679354,1.37203807525393,1.37328022769505,1.37425648121228,1.37598912977519,1.37740558795681,1.37887571301451,1.37967889040884,1.38161258827872,1.38232822371331,1.38396871339739,1.38512616421974,1.38690968303635,1.3872545997307,1.3885963919708,1.38868659823889,1.38993012717935,1.3898168662678,1.39118842435442,1.39093075549341,1.39026162172095,1.38688180943827,1.38742361862705,1.38608857721246,1.38762503505381,1.39019108619191,1.39165898657447,1.39400871852121,1.39681525498606,1.39658062076957,1.39057572392774,1.37521218666013,1.36374084687535,1.35132482235937,1.34121823471785,1.33278450943756,1.33674615484286,1.34061183586898,1.34385884449881,1.34659328924391,1.34934127381476,1.35212616242267,1.35584647189185,1.35884251418068,1.35640529933061,1.35820320309031,1.35646852952911,1.35894744374231,1.36340785920132,1.36510832066506,1.36424678825375,1.36532862559114,1.36644939078891,1.36546421662442,1.36375802729887,1.36271078049971,1.34658465827372,1.3403352253042,1.33178653584363,1.31391020594714,1.3190673801952,1.32217188715733,1.32478028382264,1.32918273086375,1.33782153117113,1.3417795514725,1.3537327350442,1.35328161531669,1.35201216150002,1.35055753988547,1.35063665401987,1.36740101094795
1.36560298062393,1.36386986304177,1.36195816909295,1.36225827833511,1.36314851419919,1.36218937747421,1.3631638086604,1.36217166980207,1.36295986164557,1.36271944277857,1.36332748406895,1.36361764349011,1.36348609827497,1.39825602707126,1.67194000053712,1.37445446482988,1.38917166662098,1.38347752354075,1.56621000053712,1.33835287676722,1.33755768280051,1.33822262482636,1.33637447479795,1.33840457716628,1.33735649908301,1.33985500514921,1.54385000053712,1.34430091432724,1.34344120292148,1.34586456473754,1.34488018757562,1.34822893821108,1.34905125222821,1.35048782797194,1.35018681380628,1.35224660190857,1.35215852508198,1.35432991300009,1.35392281961394,1.35598815715086,1.35475119484348,1.35750688831513,1.35628079538162,1.35928001969573,1.35741364379709,1.36231497855044,1.36263068695959,1.36543643448969,1.36261252630484,1.36642569116542,1.36424883799423,1.36731364856588,1.36441448064968,1.36793183618967,1.36574718925667,1.36820885579735,1.36553452045731,1.36726143427498,1.36534982489878,1.36430561343738,1.36060545241741,1.35696070221127,1.34879995323343,1.35088660803255,1.34918819353789,1.35335101239355,1.35516957853172,1.35723800396506,1.35922074679584,1.36003712943566,1.36029815922188,1.36142052330237,1.36119165548866,1.36219685539626,1.36116212092519,1.3631843563473,1.36242340309372,1.36404529767189,1.3620720081153,1.36388375273516,1.36121126551646,1.36339502478505,1.3605398539225,1.36339605748518,1.36174072753204,1.36384466083975,1.36208241747194,1.36404702784603,1.36149751145621,1.36535384791814,1.36421597689674,1.36804809658397,1.36813721737455,1.36972203840483,1.3685044786802,1.36945464497082,1.36793806516953,1.36809352964088,1.3658870129266,1.36707177428997,1.36619964168776,1.36778657684689,1.36833835236023,1.36905606794755,1.3688168225144,1.37060514147885,1.37117108215613,1.37313587282277,1.37396960813297,1.37557366394958,1.37568362144219,1.37767047045128,1.37970310164502,1.37984564830323,1.38406998178547,1.3838245750047,1.38512952536899,1.38620357037212,1.38810499543266,1.38745165802587,1.38810596124889,1.38799955720059,1.38924604176754,1.38681170488089,1.38561616542856,1.38420499994914,1.38207050955263,1.38404312344347,1.38284788047159,1.38669106466217,1.36065933430106,1.39617061597619,1.39648936448819,1.39451731153362,1.39812724140791,1.38444785321583,1.39594109576817,1.34789064652948,1.32923969004227,1.3446811193126,1.35614099517007,1.35310718787387,1.34976003721983,1.34960119042257,1.36621043813888,1.35806774529881,1.36041924136133,1.34897267137922,1.34673944716227,1.35090911651767,1.3734902878328,1.36900058067943,1.37007897955231,1.35709914991583,1.34910059519797,1.35690167990526,1.3907514237945,1.38308540284226,1.39141476640745,1.33823790498518,1.31677128847131,1.32092619145056,1.30971155387461,1.32221456848644,1.3486924525468,1.32909177131402,1.33414455778518,1.33610392521103,1.34852102101278,1.35084217909675,1.35121902422916,1.3508879494931,1.3488393293959,1.35287401767612,1.37853240230773
1.36367645958864,1.362741480003,1.36220387396149,1.36169357265749,1.36106489478421,1.36108490679005,1.36044644017868,1.36103107016782,1.36080884942389,1.36207861870234,1.36258566307787,1.36365396223741,1.3648484069251,1.36910638454944,1.37205883659133,1.3742100122305,1.37515280789718,1.37666630055075,1.37619742346316,1.33935970404048,1.33928882013579,1.33859374218982,1.33846620375545,1.33852315447849,1.33927925224693,1.34011752032335,1.34140350022305,1.34276253773603,1.34385425332992,1.34443773091518,1.34552187755077,1.34630365807441,1.34775287915637,1.34797140992167,1.34967871396703,1.3495233457358,1.35178396173884,1.35147600661979,1.35398084857073,1.35409315613772,1.35648347112356,1.35664934831898,1.35924862450266,1.35928364302165,1.36098292319887,1.36211149490407,1.36642715670898,1.36672134609367,1.36796295393148,1.36780264755628,1.36936620072672,1.36856678512738,1.3696362108608,1.36898652904774,1.37020839681082,1.36930775246936,1.36995738376705,1.36831918481568,1.36778330803122,1.36545963879507,1.36401192612151,1.35190914895177,1.34801639995682,1.34784491290263,1.3483228214978,1.34963080774889,1.35197917877746,1.35332206505195,1.35582272521586,1.35768046544364,1.35977140598758,1.36010569114928,1.36055757188196,1.36027561194372,1.36068245088312,1.36057061624246,1.36217574311845,1.36132468467909,1.36220789145251,1.36101587427586,1.36199271730884,1.36051752660397,1.36119477150309,1.35958481840738,1.36022348000431,1.35923006580126,1.36034672298925,1.36019218055937,1.36192338750243,1.36252948705754,1.3644240278204,1.36566365039543,1.36778676678671,1.36843178020343,1.36977702609859,1.36913348676319,1.36914529310511,1.36818327412698,1.3677076552611,1.36704164568291,1.36664475317609,1.3668626865262,1.36709474554696,1.36762052960177,1.3680122083671,1.36911731979465,1.370153980956,1.37172406270557,1.37322978922992,1.37428676772026,1.37466195696146,1.3755370839527,1.37597622356305,1.37681637862752,1.3790725089117,1.38167649628468,1.38347304827879,1.38476866530346,1.38538408525117,1.38588640857124,1.38598723711317,1.38575470365075,1.38468911751065,1.38380715102934,1.38258016627253,1.38234351902847,1.38262793796936,1.38395245055083,1.38515110456586,1.38975371203089,1.39333734231177,1.39524186381986,1.39658045751012,1.39266451686488,1.38125173698575,1.37379738788243,1.36775875715268,1.36109492955738,1.36022241383131,1.3583306418887,1.35599141612367,1.35385234615272,1.3514809257326,1.34985013970337,1.34877425493791,1.34734178462333,1.34676684150362,1.34665609275071,1.34595889383053,1.3441198266157,1.34028566203249,1.33636286168159,1.33288681627792,1.33070459447514,1.32881013180009,1.3271685629652,1.32414958087944,1.32214456331983,1.32042829081236,1.31842824592309,1.31911331484135,1.32312354415474,1.32550298349071,1.32506638272515,1.32628610300037,1.32855740106744,1.3329876931155,1.33611239183012,1.34821438927738,1.34969526760706,1.35094232063123,1.35196579455589,1.35359939618786,1.35534668495639,1.35767582128304
1.36143674694862,1.36143517951849,1.36297409811681,1.36050721908707,1.36005793150477,1.35908337171682,1.35876627424418,1.35884515671561,1.35934423883627,1.36048344069495,1.3628082822024,1.36245668678446,1.36339164895629,1.36125007621333,0.00351334023123839,1.36422573229581,1.37369214270044,1.37545712723194,1.37550811919366,1.34077353553148,1.33937092048764,1.33993565473794,1.33807380563161,1.33955533403463,1.33928182702682,1.3413500812956,1.33997763404458,1.34328307959264,1.34194580468535,1.34469362339135,1.34390628545595,1.34589717497877,1.34466659109141,1.34694311367109,1.3465525319798,1.34841091521767,1.34835832788754,1.35031510547613,1.35113348607495,1.35407776886845,1.35550005341268,1.35699799112782,1.3599866659595,1.36057898655718,1.36079681678269,1.36143702029774,1.37015220927339,1.3700324355455,1.36994158407794,1.37100685873276,1.3714270908815,1.37175793242254,1.37078742251136,1.37199670017718,1.37102333549439,1.37226598996486,1.37161188547409,1.37067701831572,1.36832509445623,1.36611466096846,1.50080000061061,1.35144330860967,1.34360996440217,1.34522717565799,1.34365505439253,1.34675466849402,1.34686503843777,1.34971702885386,1.35105991218211,1.35521688734987,1.47896999907566,1.35964278309998,1.35889600471761,1.35956907733727,1.35735634842285,1.35937100939847,1.36002062665575,1.36043001366543,1.35881749310434,1.35982558510301,1.35994907316641,1.35945134461804,1.35780280881035,1.35774454395507,1.35412473872045,1.35631348214557,1.35391955065678,1.35789834645634,1.35835939619044,1.36134927375971,1.36081601865618,1.36475104719381,1.36501501950621,1.36854958186512,1.3696398035382,1.36998469983872,1.36858522054874,1.36923422353881,1.36771746109269,1.36781299231518,1.3651137488207,1.36672879603615,1.36455548610226,1.36696940213935,1.36558781263954,1.36824363376293,1.36789048366782,1.37083491437859,1.37241960450414,1.37326540887027,1.37342710706384,1.37369652398318,0.00323748023352509,0.128975759228211,0.00349350023140285,1.38064301532748,1.3835223497248,1.38316898715001,1.38398149524358,1.38386316763347,1.38539848168725,1.38337612350484,1.38103338619386,1.38019500380918,1.37888539454164,1.37978783370995,1.3819618757114,1.38469916192686,1.39998871669088,1.39440788351104,1.39526610392363,1.39479043069736,1.39561142953849,1.38974865947426,1.36263063708313,1.36040884190098,1.35960889515359,1.36099215126894,1.3637524576636,1.35759769739056,1.35661542011737,1.35394555109902,1.35310699510178,1.3487660757231,1.33751731121347,1.33635647946945,1.33501022574064,1.34520808241125,1.34738095140343,1.34546280553831,1.33272341112803,1.3342531460704,1.33303432248601,1.33197086478925,1.33098088772478,1.33001285043675,1.31109241692802,1.3182907836788,1.31297811807343,1.31543895806931,1.3094395378132,1.3270903297903,1.32754710673188,1.32709989266343,1.32385942023446,1.32655984861556,1.3224954108608,1.33656022888004,1.34718066256893,1.34842022026578,1.32704146672972,1.35224232670952,1.35810689243692,1.35721004071295,1.35933155724363
1.35872330153792,1.35842919472613,1.35943393753696,1.35859446565209,1.35838330743922,1.35859090712776,1.3580462986283,1.35863231376727,1.35841921274681,1.35974273222502,1.36033651676477,1.36123110557853,1.36114339467844,1.35954810511916,1.35666185882458,1.34869170066943,1.34674935930457,1.34468451687298,1.34350518084654,1.34235803732743,1.34229333343477,1.34211823599945,1.34196003234836,1.34149875692424,1.34311929176936,1.34413558503676,1.34507799570314,1.34504619644425,1.34607978301175,1.34564324175127,1.34555754536268,1.34631407549183,1.34579244567408,1.34541846549213,1.34545895690296,1.34483117966633,1.34572738683858,1.34617003325596,1.34984862414718,1.35189596418523,1.35175755288904,1.35271639634251,1.35386592219896,1.35873178158119,1.36085130532742,1.3610339318386,1.37080435410827,1.37037740131534,1.37125933662211,1.37083656415961,1.37214431931938,1.37153053589571,1.3726831856545,1.37221526066093,1.37344096179184,1.3724452978617,1.37287491616091,1.3710383005542,1.36966479507317,1.36240700682732,1.35950153231423,1.35215286894583,1.3431754950802,1.3434396515337,1.34343104301362,1.3437011653982,1.34458845624422,1.34548305321449,1.34764100709657,1.34562320266619,1.34625225475988,1.34891526753553,1.35218027338899,1.35575637127882,1.35728168525706,1.35661524219669,1.35835128896893,1.3572550021527,1.35678269784907,1.35502846683358,1.35500598326585,1.35448916646779,1.35513517712714,1.35337868429567,1.35319467305267,1.3525608895297,1.35334704316327,1.35472860471963,1.3580172807025,1.36003528577732,1.36230169984382,1.36442029305831,1.36643515152771,1.36833830704563,1.36993355360869,1.37001346698074,1.37059781672251,1.37021962209346,1.37042935634155,1.36951838684799,1.36921951295348,1.36877012073023,1.36889979539851,1.36852384848162,1.36873107101768,1.36875474952118,1.36947622415345,1.36995331074777,1.37117310478051,1.37173446521009,1.37234999034138,1.37209025824968,1.37103890490108,1.37030970573542,1.37297858589541,1.37714296968866,1.37996228804588,1.38061919240711,1.38107480519057,1.38060712558372,1.38024148984664,1.38099587587236,1.3778436442622,1.37671077395697,1.37734850885306,1.37640821472637,1.38645872415239,1.38794675537039,1.38932908833312,1.3919047305974,1.39342540475724,1.39345579928952,1.39409766909735,1.38568474982372,1.36642039649615,1.36021568169828,1.35920891413698,1.35957426248031,1.35979781152962,1.35768534904521,1.35508653772973,1.35385089080074,1.3488137463155,1.34657469757969,1.33993277184981,1.33878945675314,1.33859909812304,1.34189632780224,1.34253723840555,1.34292116482954,1.33916334067728,1.3372254792857,1.33527494381031,1.33392610612062,1.33248596189668,1.33257166274162,1.33230295775315,1.33282686410446,1.33302929088526,1.33388864505936,1.33174821662152,1.33025061194917,1.3287671574542,1.32906433875449,1.32982737960259,1.33077543242614,1.33561706066084,1.33751738996732,1.34169113019703,1.34719164797092,1.35081093124986,1.35250131063339,1.35459902175277,1.35574349722006,1.3715247872061
1.35346112474525,1.3546624222226,1.35223259643545,1.35553770766546,1.35816536203789,1.35731144587241,1.35847815445648,1.35750368642711,1.35802281506507,1.3582241488544,1.3593129266674,1.35971635185083,1.36105824609918,1.35845975267744,1.36049751297585,1.34423571495934,1.34431274116749,1.34363950919305,1.34175148397535,1.3435209207669,1.34307504362456,1.34482576481367,1.4404399679971,1.36080018160644,1.36520147612071,1.34879144346849,1.34754490105819,1.34898457550019,1.34801716785538,1.34883366489056,1.36779577577124,1.34909761900538,0.00351500023122463,1.34533774509311,1.34227640266808,1.34268258068897,1.33988398472881,1.34180061626394,1.33957945991577,1.33877458354778,0.00361697023037937,1.34916243018678,1.35038476339168,1.34582915873997,0.00402162022702508,1.36111549442771,1.422659957939,1.37062545861031,1.37193229052258,1.37075510768673,1.37172046007967,1.37176937366196,1.3725587501043,1.37304814482024,1.37441448405857,1.3733114217333,1.37326609615723,1.37212981418325,1.43662994620319,1.35853224940269,1.35574862756629,1.3520919480866,1.34228119813773,1.34301577753051,1.33971986188695,1.34224357532388,1.33866793307687,1.34126730729319,1.33758441467381,1.33836811637971,1.33723025688003,1.33752046280251,1.33723220905388,1.33857397882042,1.34207826796166,1.3469227310404,1.51607000053712,1.35492535418362,1.35010208961442,1.35081881407499,1.34884509761987,1.35112463476723,1.34961134513056,1.3509506679106,1.34733807817123,1.3504979585437,1.34790395186453,1.35185111219583,1.34952351109065,1.35931927171193,1.42367123868799,1.39681932449996,1.52530999018721,1.3691063877947,1.36974525606207,1.37060238383702,1.37150724645598,1.37178063480268,1.37227791899892,1.37182363243022,1.37158384474145,1.37153096411194,1.37179689197223,1.37090771814415,1.36988274011617,1.37006545069479,1.36909779634524,1.36986528619073,1.36847555137919,1.37093640603593,1.37091125197931,1.37251347215107,1.37394060291639,1.37267034112283,1.37568857518523,1.37670684974577,1.37813067052004,1.37879886336629,1.37861318327234,1.37802013159006,0.00382135022868519,1.36955485540104,1.37144958903833,1.37065166892112,1.36722095727775,1.37282830132682,1.39478049154446,1.39069836075291,1.38831796539409,1.39040461438713,1.41891800185348,1.41122900632527,1.4181811612139,1.38054847234826,1.37484134408252,1.35816131876881,1.35799118269885,1.35834181793189,1.35831333742514,1.35702910312517,1.35388899947696,1.35554103817557,1.34315342880003,1.34418880334228,1.32566337422128,1.33929100144667,1.33777691917219,1.34034232072858,1.32620079840299,1.34313005814365,1.34574241087095,1.339460788123,1.33742727586221,1.33552327128507,1.36394120153272,1.33538443846992,1.33247665917415,1.33280396750144,1.33229347556866,1.33550795818442,1.33853164926039,1.33499884025826,1.33810595599098,1.33306815573839,1.33137405635129,1.33300069330401,1.33502307704995,1.3365329060553,1.33465573437381,1.34706323713819,1.35150368001493,1.35210197276104,1.35183385890841,1.35512935670805,1.44508034634145
1.35502754300338,1.35402126157385,1.35299180315952,1.35412205146016,1.35467858423917,1.35596064365956,1.35647121429251,1.35681388094209,1.35715137009146,1.35778843899477,1.3583768890583,1.35887148774059,1.35760001558056,1.35200684938567,1.34792636922184,1.34386554971664,1.34403262109853,1.34183445174314,1.34163476433689,1.34418933060148,1.34686993955962,1.34790366796706,1.354625423507,1.35616493009248,1.35540132018765,1.35213297601979,1.352195905652,1.35090065173073,1.35219168467826,1.35131897556982,1.35248984366661,1.35118179129119,1.34853542040561,1.3473666804784,1.34406344304047,1.34165120307491,1.3405044303838,1.33966284457111,1.33925940337862,1.33940351062591,1.34108333577211,1.34378841687882,1.34244193455259,1.34255208371935,1.34173297030392,1.36108272669752,1.36211122800135,1.36356672172169,1.36518884270306,1.36731094582191,1.36873211275903,1.36931013234274,1.37030022477955,1.37085772295911,1.37198053144561,1.37106972559574,1.37200280688409,1.37092737379512,1.39835344158895,1.35675567383386,1.35230159880818,1.34977771977007,1.34617018817733,1.34432895006918,1.34419420738708,1.34273941437014,1.34270234104256,1.34073950820629,1.33977025654225,1.33875515658709,1.33903541315157,1.3383128353223,1.33890851388917,1.33897427457795,1.34083947636854,1.34198442321972,1.34298004638028,1.3426889782877,1.34580268884072,1.34606056794868,1.34701860156544,1.34753142437117,1.34942238466065,1.34894166861907,1.34944658725653,1.349832171773,1.35114236916647,1.35279076308999,1.354514594671,1.35769412696388,1.37458705876124,1.37833023944601,1.45111552958751,1.36839961595629,1.36885253061644,1.36959837775709,1.37083357916955,1.37128874687047,1.37231009604059,1.3719361014023,1.3724426606206,1.37182379416107,1.37230291036082,1.37097114421671,1.37079796926928,1.36973942849214,1.36984989365195,1.36913587220696,1.36960133219934,1.36990298721836,1.37118602583539,1.37182354855372,1.37305427046859,1.37273875558075,1.3742778852209,1.37497781081683,1.37638099286213,1.37586936234338,1.37599304029491,1.37402362145418,1.37138245654582,1.36940080450566,1.36942697889675,1.3669770835021,1.36381551823746,1.35961801156338,1.35876719811046,1.35848260856328,1.35835705509862,1.35758941086055,1.35744276537327,1.35703494250092,1.35687404640162,1.35630211419849,1.35602062993372,1.35665968632764,1.35682670524397,1.35776350411843,1.36018327327723,1.35906850607017,1.35614174121607,1.35690838851463,1.35294507240516,1.34907413244127,1.34560795352227,1.3428556688025,1.34101220055704,1.34009864071556,1.33981475343645,1.34003898745626,1.34001247255538,1.3383665458389,1.33722598560746,1.33619592740925,1.34816613482921,1.33758104965052,1.33506654743521,1.33460921877325,1.33524545528636,1.33662475469763,1.33702081149549,1.33223796630166,1.33148032471659,1.32978405727916,1.33055042267796,1.33068167329542,1.33305335366402,1.33715627589107,1.33894235613728,1.34725382515628,1.35230528403581,1.35212503743056,1.3520626175096,1.35355108119022,1.39055727206338
