1.90950587573414,1.9094209251951,1.90939691953707,1.90972873130926,1.91051044187394,1.91093979852572,1.91133033950701,1.91245659903144,1.91435336769566,1.9166332234678,1.91948526761634,1.9199105482481,1.92024172002762,1.92234222514733,1.92539164568263,1.92845659151436,1.92874299883161,1.92941699287577,1.92951698462837,1.92844957884902,1.92710623588874,1.92566221640958,1.92438516283658,1.92314267258546,1.92268869885382,1.92141072679939,1.92027902064898,1.91816217961539,1.91644932073629,1.91482179030771,1.91375702596601,1.91228918200744,1.91125971536375,1.91037564958757,1.90990256671668,1.90964439411717,1.90977318796226,1.9102266102253,1.91144515323072,1.91547584600191,1.91867335933799,1.91927589435078,1.92098605654048,1.92364962201682,1.92425361111127,1.92528396011314,1.92624017433203,1.92613586290578,1.92680331068773,1.92920358175668,1.93175214644659,1.93187923387346,1.93210830313839,1.93184578385549,1.93206942123138,1.93181171174798,1.93216510217771,1.93232912443718,1.93308853217413,1.93300542152371,1.9333819248818,1.93287225650204,1.9327023109867,1.93191097963302,1.93162537535148,1.93102504760721,1.93105790847805,1.93153942331329,1.93260689828486,1.93262302636872,1.9334363908076,1.93451491596033,1.93643179252848,1.93709283421874,1.93837359573331,1.93821428758598,1.93867880550697,1.93846767735152,1.93908676238954,1.93991145652506,1.94153475027731,1.94148329033617,1.94212725711356,1.94335155985621,1.94502417445067,1.94384333641215,1.94309711935615,1.94210391538231,1.94199449542032,1.94218546962583,1.94303593924351,1.94300916860282,1.94352948718719,1.94552691906215,1.94748832411584,1.94720110823081,1.94743257145033,1.94752422591406,1.94848750661954,1.94834380286354,1.94904173478493,1.94851196777592,1.9488575540157,1.94885920320724,1.94953178973563,1.95012958874094,1.95124807355459,1.95203048047953,1.95336409395775,1.95316034925932,1.95362722910222,1.95414915356293,1.95532614896576,1.95606904406422,1.95718478430769,1.95680498521404,1.95687606731043,1.95702653895393,1.95761103505861,1.95690649902351,1.95646136722173,1.95524354292685,1.95442284759954,1.95336172901979,1.95298093327071,1.95242611681472,1.95397235649598,1.95503028865347,1.95671521960487,1.95867670309144,1.96337004874165,1.96389299523836,1.96437980589896,1.96412561024069,1.96434190165414,1.96357422551218,1.96357177959509,1.96363294716631,1.96470987489645,1.96588864678696,1.96772487825619,1.9672599330265,1.96747586707041,1.96688177723545,1.96715584823608,1.9668112509311,1.96713531845373,1.96638830535439,1.96618965671445,1.96564645121785,1.96570433265456,1.96516360380826,1.96518435216706,1.9649637193395,1.96532423374875,1.96572601320819,1.96658576674994,1.96627023849658,1.9664009581892,1.96621943127303,1.96671881403485,1.96777707944432,1.9695524257933,1.97070401209986,1.97250609506185,1.97322633066643,1.97457820579644,1.97533323284041,1.97669725096923,1.97666929005909,1.97750921126016,1.97814710988006,1.97969756918354,1.97933277242428,1.97982411536457
1.9118592498284,1.90875874206598,1.90526026537909,1.9075589026506,1.90833757118125,1.90992549393651,1.91001208918887,1.91036992870989,1.90734221114883,1.91459510151722,2.05865000495506,1.91851844582912,1.91690663969356,1.92023220936465,1.92455401820183,1.93250184797254,1.94640465431296,1.93295025288671,1.93175361267378,1.92980678853509,1.92749666804731,1.92630311793649,1.92486837408303,1.92262750840371,1.92337669666869,1.92156427642782,1.92034982890038,1.91871927406325,1.91834135666731,1.9158457939168,1.91522403757521,1.9132636655369,1.91320052627435,1.91105730346264,1.91081407454337,1.90941587268027,1.90874935929107,1.90940305108382,1.90876737594401,1.9155847605353,1.92028858416047,1.91895666827159,1.92037755947083,1.92053581067618,1.91934588803597,1.92239838823811,1.92415001520585,1.92380976278573,1.92270981378038,1.92838783880059,1.93359111826141,1.93218302238941,1.93312115799104,1.93155830034431,1.93167172346388,1.93097937430835,1.93166443441759,1.93102019880995,1.93115225203127,1.93178488605544,1.93249295862931,1.93231009230045,1.93196411949231,1.93127740394714,1.9309125371586,1.9306603551071,1.93105020112592,1.93166230111216,1.93378837296165,1.9329113281365,1.93448589958616,1.93533714368324,1.93878736355133,1.93772104817021,1.93874401748822,1.93820718904811,1.93909093657274,1.93835497354424,1.93899509213385,1.94040283008485,1.94419202158714,1.94291521729307,1.94457407343406,1.94510799626974,1.9484850650192,1.94564552946236,1.94561529378446,1.94353420145582,1.94344859911721,1.94256792274195,1.94230015870693,1.9424692095201,1.94128642745554,1.94627820595808,1.94945616193999,1.94781764177828,1.94840034425738,1.94731019824175,1.94801313913787,1.94802977804366,1.95023985495164,1.94870024179723,1.94949095075443,1.94884076996544,1.9488721318035,1.95041916689199,1.95294495532311,1.95282088105745,1.9552953094075,1.95374123854712,1.95427124740953,1.95520389469733,1.95816921772734,1.95783256657246,1.96086061870572,1.95871575666617,1.96042385566491,1.95841278274406,1.95917249172155,1.95770745545645,1.95767984897404,1.95621162178465,1.9563906896373,1.95265889448095,1.94954477927072,1.94859507827656,1.94540523595174,1.94402935092174,1.9425527642368,1.95306352317753,1.96783191056,1.96585529069475,1.96692135312034,1.96622964051609,1.96760699812137,1.96546915573539,1.9653298585039,1.9645917714584,1.96420734113242,1.96795812617232,1.97263624966943,1.97068325276009,1.97197443450523,1.96984679918349,1.9705876537227,1.96913530824936,1.97017881477549,1.96842338186217,1.969242652236,1.96753344639359,1.96832600412955,1.96681420956079,1.96738464895847,1.96624553189489,1.96684532824703,1.96686328276667,1.96890552397803,1.96738119203841,1.96780537216052,1.96709079885132,1.96725151280009,1.96814476656772,1.96887355323536,1.97106858198626,1.97352335403732,1.9747614947934,1.9777596195045,1.97732349107616,1.97908268440248,1.9785317325895,1.98013318087027,1.9800771195352,1.98209725110012,1.98128487521928,1.98212001608054
1.90045764369338,1.90207101264429,1.90338289304286,1.90659924087034,1.90863118181561,1.90985155762264,1.91126131028456,1.91122276358147,1.91071228008758,1.91257668814709,1.91360247424136,1.91701433184114,1.91853552532573,1.92001096712768,1.9293731310434,1.93653582713436,1.93976794703742,1.93579487994666,1.93413417179215,1.93148275060996,1.92970133973825,1.92738900874601,1.9260936258689,1.91916188655241,1.91503612672004,1.91065902203242,1.90675468927745,1.46181877874128,1.41680531721325,1.41680531722728,1.41680531721325,1.46165660078846,1.91211505277358,1.91084914032393,1.9101509652204,1.9094121645582,1.90938597681654,1.91021816999529,1.9118617174819,1.91396751532806,1.9160642548283,1.91645867898992,1.9179000599585,1.91869617760103,1.91940311320663,1.92125011597567,1.92288554659444,1.92304830881049,1.92368179533181,1.92664297720051,1.92959979587016,1.93028890012828,1.93028846088755,1.92964122412091,1.92882525475166,1.92890696928222,1.92889437832594,1.9290882332714,1.92957205259638,1.93082007715651,1.93233794197334,1.93238644669566,1.93203145220883,1.93073868679938,1.92999962340026,1.93002067879139,1.93078003810248,1.93072205455478,1.93129381433335,1.9314000292734,1.93241828601695,1.93440759086456,1.93679753884626,1.93716484422574,1.93781976538736,1.93765058011241,1.93789858977927,1.93770540022789,1.9381472742241,1.93934721420701,1.9412192483339,1.94227821126332,1.94396690705447,1.94493466199539,1.94645495957212,1.94559548932994,1.94519556876409,1.94393330584964,1.94335716152119,1.94326567430709,1.94368829538581,1.9442250410723,1.94507665427951,1.9467168495507,1.94810472734597,1.94733241916356,1.94683793594483,1.94638404776758,1.94642520740892,1.94656728260733,1.94715728418196,1.94757717684933,1.9485198693278,1.9491892114155,1.95037193174109,1.95089258706199,1.95198145500342,1.95235241988586,1.95330134425847,1.95371227072913,1.95472157242316,1.95573408258557,1.95718996816736,1.95770303284371,1.9585405432337,1.95817935995213,1.95819812237476,1.95840303930734,1.95891902598698,1.95843270167692,1.95803229837731,1.95688604253538,1.95573264763333,1.95271474250346,1.94977117634112,1.94785681819355,1.94598531928786,1.94460657290345,1.94461458847397,1.94750319251665,1.96205232125459,1.96552860829022,1.96760168745406,1.96741247629505,1.96748726248492,1.96654793780483,1.96624297328441,1.96633581896551,1.96716615034502,1.96958638919917,1.97227977817377,1.97198733493193,1.97208450669505,1.97114829218333,1.97090691781388,1.9702921023396,1.97026896279743,1.96933038635469,1.9690118560742,1.96844636594758,1.9685472669789,1.9679634087643,1.96798165181667,1.96740006101997,1.96744383417373,1.96758210065521,1.96822939300802,1.96809912230928,1.96842203394171,1.96854855121577,1.96915200350966,1.97001254575036,1.97125582140623,1.97236922640472,1.97391014699284,1.97559052638518,1.97773610854852,1.97803636944275,1.97886373478511,1.97904662064922,1.97994138399209,1.98066806215275,1.98200502303697,1.9822967806698,1.98323093666362
1.85235827512782,1.87437574941897,1.89943848177841,1.89489814389788,1.89158299899014,1.90065311144978,1.97798971630206,1.94479951109363,1.9732994808879,1.91062405603494,1.90806074370644,1.90548619232135,1.90287738712048,1.90899131794222,1.98294994844007,1.95200376312144,2.0275699020018,1.95221239192346,1.98003634000134,1.97885188654641,1.9786438309947,1.94560509106968,1.97628995131406,1.91230706163084,1.90456771726363,1.90361155188395,1.90393718395152,1.46181877875532,0.00474382803201235,0.130881258056683,0.00432220802664342,1.46165660080249,1.91313290832751,1.91120313078931,1.91042100456851,1.90963796109407,1.90964646985172,1.91072166561103,1.91441697652899,1.91253336623982,1.91389881693071,1.91400024864699,1.91679169721988,1.91760394332171,1.91864229328998,1.9212347412222,1.92389651173375,1.92255098104291,1.92284633770447,1.92513992232228,1.92788777639584,1.92895589606967,1.92797980353409,1.9277960657683,1.92499702274965,1.9269811664569,1.92586310838533,1.9269888600167,1.92737236356502,1.93014654696653,1.93400029121023,1.93369712429557,1.93353102131264,1.93049276784897,1.92870435429024,1.92934175067117,1.93167996304816,1.92994069426682,1.92982888982939,1.93008983692281,1.93023946255104,1.93437662653369,1.9378197971928,1.93764590958809,1.93868305900845,1.93788092467577,1.93802674363389,1.93756681546806,1.93738456367789,1.93879072396024,1.93990912108308,1.94225159644545,1.94496405288665,1.94551259231665,1.94772689558835,1.94640952707523,1.9465560592997,1.94485515448904,1.94361538606546,1.94444702537015,1.94570208176244,1.94662660639722,1.94900551212951,1.94853376917289,1.94996489917845,1.94777510124388,1.94626423411313,1.94614157216529,1.94573572236971,1.9458303312763,1.94520053294829,1.9470835917602,1.94875965338814,1.95018026735635,1.95354630087444,1.95202841657581,1.95293005877795,1.95259313636799,1.95324884170224,1.95432123419889,1.95666838363633,1.95681150072622,1.95864801983932,1.95798900690444,1.95886855549517,1.95776740597346,1.95717092633403,1.95848191792612,1.96104457312187,1.95953640270077,1.96052795863898,1.9582026589205,1.95836541178723,1.95352559149582,1.95044712271708,1.94828258158873,1.94727348232085,1.94527910303766,1.94470141441565,1.94435443127502,1.9424164479906,1.9642063242727,1.97137490341704,1.96942738583303,1.9694382648609,1.9682274534369,1.96779827371622,1.96860036944996,1.96954205464809,1.97219560887147,1.97590431619246,1.97425198968472,1.97426746007007,1.97312341430641,1.97273264413176,1.9722667166353,1.97252458130184,1.97104228713328,1.97037263799339,1.97009166113226,1.97086716843029,1.96987614351245,1.97063781071467,1.9692711593162,1.96941918252951,1.96912401384537,1.9697751917344,1.96970065726319,1.97061409394174,1.97088619347274,1.9720782624498,1.9728856038956,1.97493847498969,1.97466853462226,1.97520922830756,1.97740384316287,1.98048511163348,1.97966711998514,1.98009838428175,1.9802769424545,1.9806426400705,1.98206424896354,1.98365097205315,1.98405054835112,1.98504908092248
1.85197597211723,1.86057477694126,1.86639219629018,1.8661879059366,1.86725942868967,1.87005842482135,1.87437382093015,1.87949133601798,1.88462083146621,1.88926623103015,1.8933389303484,1.89691416235657,1.90001416794832,1.90523612528763,1.91267095852993,1.91912796761421,1.93083680178635,1.94659910184345,1.97897938983335,1.97861953644766,1.9787422019087,1.92943861458028,1.91308991109239,1.90750477859124,1.90321690381701,1.88765508979734,1.88099353929106,1.46181877874128,1.41680531721325,1.41680531722728,1.41680531721325,1.46165660078846,1.87105133447029,1.87667621699914,1.88269945804043,1.89286718078592,1.90956289358472,1.90881205491983,1.90805695177195,1.90918806527462,1.90993544267633,1.91077399472,1.91455737886409,1.91706204189723,1.91960297415959,1.9217562681234,1.92326028412616,1.92099233429488,1.92227555332145,1.92325464931115,1.92901837039878,1.92923172823735,1.92874251257449,1.92817004012426,1.9272218553984,1.9278907236224,1.92751045470152,1.92552458735366,1.92717762697713,1.92865230521332,1.93582784071101,1.935243245294,1.93425207633916,1.92942937076192,1.927223310247,1.92713696047416,1.92734293818314,1.92780815030792,1.9283325773787,1.92964499180877,1.933358034356,1.93556343291787,1.93769339777173,1.9378997146521,1.93818427090291,1.93800360263297,1.93808137335893,1.93790586508613,1.93829865562958,1.93931316743323,1.94111769371976,1.94263188730747,1.94445047617615,1.94521801397843,1.94616473156198,1.94660380951728,1.94708827953024,1.94601513475196,1.94560771822945,1.94571965754155,1.94731149611857,1.94806881763489,1.94914523769375,1.94923005137054,1.94958446423292,1.94842484933924,1.94762069824677,1.94707636562826,1.94706240968138,1.94666555432059,1.94681843052548,1.94756828988556,1.94887634476288,1.94998617072303,1.95124567089059,1.95169298906156,1.95268324436772,1.95293379287365,1.95350791048421,1.95494038560933,1.95695941187884,1.95745789696707,1.95791714265008,1.9580795700693,1.95864157226195,1.95820382047075,1.95799593839674,1.95859656987354,1.95936144946699,1.9594720693068,1.95961571577841,1.958456970956,1.9572865002962,1.95407638792028,1.95117828771464,1.94907654839377,1.94757366375104,1.94595266884326,1.94489557533184,1.94389968330768,1.94316463105361,1.96350537759354,1.97195215665492,1.97031834577857,1.97009402988922,1.97000923366992,1.97087596351903,1.97152600904848,1.97274738628376,1.97449052840354,1.97611080771101,1.97567957293209,1.97563619353628,1.97523860574513,1.9753883315237,1.97453009160907,1.97430032890843,1.97305226378448,1.97250351236031,1.97185562233014,1.97196242494844,1.9712593768872,1.97127265672298,1.97087515899024,1.97124485369138,1.97095632680057,1.97131215350665,1.97150729059298,1.97223196182146,1.9734398323453,1.97510074672982,1.97557231632069,1.97654149029102,1.977131731385,1.97825771523461,1.97920096187897,1.9805084439051,1.98079851554101,1.98143294009203,1.98197210955631,1.98284150488941,1.98390802332586,1.9851501361159,1.98582609149024,1.98692978192346
1.85174583542103,1.85771440516675,1.86742342004722,1.86136730090345,1.85584971795605,1.85365530099321,1.852700776803,1.84879152387332,1.85125542204546,1.86084271560546,1.87652560791287,1.87637438588793,1.87633468068419,1.87553486044831,1.87491526585947,1.87787421968949,1.88101425761433,1.93722841074322,1.97902628605425,1.97886970980016,1.97970653701719,1.92000290755406,1.89109741898642,1.8924560048651,1.89433014278869,1.8818882523279,1.87008583872233,1.87202295509784,1.87504683568983,1.87460661492696,1.89322934507513,1.86803801360266,1.86703525002425,1.86519285468681,1.86303092286558,1.86864967782795,2.02057998779209,1.90695652174833,1.90491996663505,1.89866271230117,0.00399681802249982,1.90848081079291,1.91554943459903,1.91772948237094,1.92156914365511,1.92331134655683,1.92677729674789,1.91645238815903,1.91262558322335,1.91873233614834,1.98132994363915,1.94499363731162,2.13566999956763,2.04870011630607,2.13518999877313,1.9293748570931,1.93037212827112,1.92038501701809,1.91508599637925,1.92348013639231,1.93886765391422,1.93767318351548,1.93919923240828,1.92638298724045,1.92384160862408,1.92479066268528,1.92350495731707,1.9258654974318,1.92650101299976,1.92797932470684,1.9388625915961,1.93800922769468,1.94045750870195,1.93915274876338,1.93890568806775,1.9386996434885,1.93901816402333,1.9385065825274,1.93924169151148,1.94000301500104,1.9432504078959,1.94351745446878,1.94553434328528,1.94558744179339,1.94574245436009,1.9477090971685,1.94981188049617,1.94724224647374,1.94744371737126,1.94595158065695,1.95000303501862,1.9495259729538,1.95067160404751,1.95028575880266,1.95135644453805,1.94955184445139,1.94946648195683,1.94836596347991,1.94950578152415,1.94779993999803,1.94847660160207,1.948247940229,1.94972767430566,1.95040255025919,1.95043216721697,1.95176728601614,1.95404621339349,1.95362939046732,1.95365274394449,1.95586254976484,1.95957473951667,1.95856481973665,1.95837983792336,1.95815983515644,1.96054223262374,1.95880400224875,1.95915686624783,1.95874038508256,1.9594687439104,1.95966193675498,1.9612687684699,1.95929965019733,1.95965196179489,1.95520037565768,1.95260764465021,1.95039416996848,1.94943510846237,1.94722566084803,1.94633875538774,1.94467771424567,1.94427668422885,1.96288176836785,1.97473376397954,1.97057395158575,1.97131608527584,1.97173550090055,1.97485228144796,1.97481544430613,1.97938464720052,1.97771765952357,1.97894148259248,1.9776652996395,1.97803977065583,1.97782384905778,1.97983564931345,1.97731822618134,1.97799173178578,1.97558437960068,1.9756998561253,1.9741203407934,1.97488251476549,1.97315549711232,1.97336096304199,1.97290358273832,1.97476816956138,1.97328240678837,1.97400680657905,1.97386608146503,1.9743323198098,1.9766278972015,1.98024541132653,1.97881849740931,1.9794062710768,1.9800713203942,1.98229536695601,1.98157200323187,1.98223428393069,1.98241958327489,1.98341486304519,1.98410482801931,1.9853337204104,1.98636614514428,1.98769908076171,1.98794038264062,1.98808100318093
1.8435127710517,1.84568008789757,1.84698045497788,1.84679918475628,1.84527074463455,1.84440497270829,1.84618314304077,1.84519590138101,1.84929088001243,1.85380210066574,1.85768590479506,1.85934393071831,1.85874368289602,1.85719757140688,1.85641398399344,1.8577115209852,1.86126500517611,1.86604022001124,1.87033669127359,1.87284096936159,1.87328368782669,1.87167045827666,1.87009204858753,1.86891730651353,1.86893136334332,1.86844327029284,1.86918996545357,1.87124631645346,1.87343824844672,1.87347640061706,1.8714878008098,1.8684632688209,1.86518939952477,1.86364047784492,1.86610638260833,1.8730221185864,1.88309768876654,1.89129070990747,1.89622976361692,1.89834274498782,1.89937488665726,1.90204948939185,1.90695502054958,1.90973057564555,1.90792910777318,1.90304374042433,1.89783592114523,1.89445065541975,1.89411824330313,1.89648765040723,1.89967370061758,1.90138911783587,1.90050196981137,1.90194005724887,1.90243929281549,1.90237224719954,1.90297732293942,1.90561618196738,1.91076921718198,1.91246601624395,1.9148033276423,1.91653320742209,1.91713501659619,1.91670888507493,1.91602470129932,1.91611952179397,1.91779726959686,1.92107010817003,1.9254471825098,1.92980320056008,1.93436741828126,1.9376371094909,1.9394249579839,1.93961367364306,1.93938429904443,1.93908090480963,1.9386093099281,1.93846173373248,1.93859499471561,1.93870771969275,1.9403927723479,1.94278886333919,1.94493278370061,1.94588173515374,1.94802917429736,1.94904299455712,1.95032781635255,1.94604601531423,1.94421770999018,1.94089344349068,1.93475019899224,1.92905866263983,1.92862521611709,1.71283054621207,1.71340140272309,1.7128305433606,1.94842969179853,1.94801407714405,1.94794990675079,1.94707689634924,1.94678168082627,1.9475713269899,1.94965139205604,1.95181668128087,1.95274059776202,1.95157686310906,1.95280223065661,1.95400941242667,1.95516851766287,1.95729944806966,1.95903163784765,1.9589071468866,1.95785203397628,1.95622239131023,1.95818884913483,1.95822279857698,1.95833269807829,1.95862207567217,1.95883939659815,1.95938892727297,1.95938638975426,1.95888945892389,1.95769265797139,1.95560982387509,1.95341348174241,1.95168542513349,1.95011390344898,1.94843720402539,1.94703433176736,1.94576669588166,1.94540589201987,1.96147034855925,1.96258185495842,1.96642148598287,1.97032251951737,1.97136122708288,1.97265986499257,1.97418694411039,1.97822431153754,1.97849265142756,1.9788183015414,1.9784566353275,1.97862435577922,1.97872208079255,1.97924252454495,1.97759859732411,1.97740182441645,1.97626331135634,1.97577591689043,1.97483570828358,1.97473962165106,1.9738948899668,1.9736871051642,1.97336961840752,1.973836966627,1.97408032451937,1.97511396097349,1.97621929337815,1.97819124338955,1.97921324787575,1.9807326268428,1.98078279482651,1.98134747812453,1.98213981303759,1.98320641757888,1.9831789291369,1.98324091335804,1.98366780029741,1.98436366055145,1.9859818000254,1.988227955155,1.98889448774338,1.98984625134454,1.99049388207608,1.9917485254987
1.82740238487457,1.82844496952344,1.82836607018309,1.82622689671035,1.82532028179514,1.82197584372698,0.00443940802813587,1.83707278687499,1.84036495042201,1.83901354795397,1.84060745839977,1.84105391518998,1.84215961351084,1.84555453786512,1.85165649228433,1.84955197262264,1.84761357584291,1.84637329524839,1.84554120675324,1.85111610464116,1.87418723966876,1.8711753281973,1.86738197998766,1.86886767023253,1.87078935792731,1.86865851084622,1.86779140714643,1.87082500453316,1.87388975919149,1.85667531319045,1.8468108699023,1.84917214797721,1.85181881887493,1.85277031480718,1.85154238950112,1.85115912283483,1.84962113587666,1.84978081125999,1.84970240899487,1.87646826520715,1.94885994630203,1.894536355012,1.88878404591181,1.88894760188593,1.88956209938523,1.89114428235596,1.89279713916989,1.89337156835078,1.89404349384501,1.87504757074364,1.86123492918537,1.88199688767085,1.89633205779457,1.89360833640852,1.8889938831087,1.8883584032299,1.88747037181555,1.89610978845639,1.91081446595599,1.9074921379249,1.90470125193905,1.90297676079269,1.90154244988951,1.89929417864149,1.89853905444785,1.90095724553489,1.90576969101698,1.90535447311564,1.90612099577999,1.90404033142756,1.90314550697484,1.90154524519058,1.90010577069596,1.8988076610573,1.89755899870107,1.90693072965172,1.95913148592354,1.95251167032958,2.07062000176363,1.93635321420325,1.93467544413969,1.93172780093266,1.92796282260059,1.94425699572742,1.95121526758596,1.95022653091657,1.95649535130701,1.94255052809598,1.93898334693751,1.93565785641407,1.93107035214137,1.92516780549058,1.92905341384427,1.71136737751812,0.00437364802729852,1.71136737290436,1.9482211162878,1.9478376789487,1.9476245298344,1.94622895301666,1.94427391279625,1.94585359081049,2.17120999956763,1.9546576243254,1.95738781468604,1.94688196462976,1.94133691141519,1.94235605249621,1.94042001055126,1.93843590501696,1.93862419003933,1.94201999683127,1.94624193203005,1.9509244389907,2.0785299583837,1.95784930532142,1.95794967879376,1.95868649951402,1.95852464422341,1.95968782835118,1.95865180494354,1.95926156556462,1.95725481618405,1.9562980524737,1.95440880212987,1.9531686023356,1.95169434006954,1.95012837454903,1.94890129417264,1.94775325486246,1.94721136663998,1.95882743964749,1.95937336141464,1.96266141111774,1.97255989948497,1.97146342155726,1.97092107228667,1.97199696157754,1.98138784090084,1.97976603194595,1.97971470031988,1.97918202371684,1.97962826458596,1.97977170098675,1.98129582968322,1.97717295461451,1.97818230399429,1.97683300582864,1.97677664614813,1.97555869292255,1.9759242768941,1.97473569433753,1.97461843498466,1.9736477251254,1.97352630012598,1.9744806578211,1.97638950633252,1.97797196188135,1.98331342870221,1.98178608950063,1.98320967858914,1.98276804177942,1.98356673606685,1.98429858541283,1.98566399792709,1.98500025129557,1.98422200649785,1.9847694671024,1.98448438186575,1.98721646179109,1.99280674545027,1.9913535339766,1.99248539331651,1.99257257832027,1.99475958476602
1.82855245144734,1.82868908418256,1.82773359610298,1.82577657014263,1.82433318029897,1.82368020048983,1.83016172841437,1.83368058579657,1.83688191726067,1.83813353442881,1.84022697680573,1.84091638586246,1.84170516210954,1.8429441896227,1.84279418928532,1.84400618195929,1.84578316045769,1.84617859407242,1.84666703707755,1.84821135532378,1.84912218325112,1.85028508329014,1.85074275693207,1.85040583320364,1.84950993389774,1.84874517716357,1.8486110063395,1.84898565969918,1.84925206809049,1.84893939616481,1.84827141342554,1.84913004795131,1.85187393973405,1.85265903654806,1.85249296996661,1.85182226014751,1.8507210516427,1.85028502954998,1.85063942434017,1.85256092107803,1.85409125530957,1.85614967187595,1.85929493845957,1.86135435624572,1.86262674105702,1.86344211924525,1.86433159912406,1.86589339862616,1.86838757406133,1.87141545946334,1.87420073220503,1.87446659264495,1.87448699737483,1.87592807741983,1.87910812738359,1.88336646751909,1.88768450553372,1.89143359991708,1.89434865999531,1.89641606289196,1.89763515853391,1.89808999920418,1.89812765447165,1.89839060921337,1.89843557923011,1.89915451681676,1.89969482055399,1.90112989569377,1.90225435841302,1.90285143482852,1.90419598645363,1.89451249797051,1.88938170050622,1.08995020661733,1.08995004820053,1.08995001238935,1.08994990290962,1.08994993739268,1.91415548084121,1.91884688712155,1.93326592586491,1.93254598411925,1.93315510404265,1.94073438533209,1.946157374059,1.94966010786295,1.9525277400609,1.69891277208721,1.69891306334073,1.69891353615545,1.9193204873685,1.91517300697867,1.9157332018299,1.70965187163755,1.70933335362306,1.70965186702373,1.91857825391161,1.92252553171898,1.92621103992864,1.92984124033153,1.93353174620104,1.93831630133127,1.94406133553804,1.94931903643542,1.95395961489512,1.95879651830303,1.95914346828517,1.95661088270991,1.94180442564313,1.93820133289267,1.93903788642739,1.94209524327547,1.94693684358086,1.95160661018546,1.95497474024882,1.9570405757779,1.95842477904609,1.95999357355416,1.96030410184598,1.96235233697738,1.96127208690888,1.96220585702121,1.95941091700854,1.9577111332783,1.95603064820952,1.95460645950981,1.95304576531214,1.95153124347326,1.95031320182706,1.95010181531344,1.9525545255326,1.95558683699152,1.95471884129407,1.94967969427485,1.94746187962084,1.94610495850647,1.9468351608673,1.4614284737045,1.4165029331547,1.41650293316873,1.4165029331547,1.46192413749411,1.96156477256756,1.96363041356284,1.96734132505768,1.9719261219904,1.97548109824496,1.97603678093763,1.97604571081927,1.97482898404419,1.97524777857126,1.97474047135452,1.97428478673385,1.97315713636003,1.97227136690638,1.97387450503842,1.97649831324769,1.97836066540527,1.98045241544854,1.98158939597881,1.98293468253895,1.98379596411227,1.98492370592577,1.98578826101046,1.9865788588332,1.98692948272488,1.98657271657527,1.98666821940412,1.9865016669089,1.98849672481126,1.99168391044458,1.70130609547171,1.7013056226565,1.70130533140217,1.99651395539629
1.92060993878525,1.81707392501665,1.81072449810234,1.81845941419733,1.82466540463765,1.82258764602,1.83787944253736,1.83552328957964,1.83844742708724,1.83903650812004,1.84258079070111,1.84136356994625,1.8410586330802,1.84189268076304,1.84174915857809,1.83213896928566,1.82122815253834,1.81964785404975,1.81819481600257,1.82882857324959,1.84795770510108,1.8498839814566,1.85060253652042,1.83498862264201,1.82986598033752,1.82992147015137,1.82793373362509,1.83057996647146,1.83194369788247,1.8317399530693,1.8309879820408,1.84720612100612,1.85377807691198,1.85332833942438,1.85365334865498,1.85278250760324,1.85109921063549,1.85041938635489,1.85015463634705,1.85163390738799,1.85245312163496,1.85377383518074,1.85320345209179,1.85259638045436,1.85274646744904,1.85415762304517,1.85568536612947,1.85549301434728,1.85547173076691,1.8642801423784,1.87760827739015,1.87533770903676,1.8742251666827,1.86842056003597,1.86023783233968,1.86777524461518,1.8738547111275,1.87408186475118,1.87442834237798,1.87355424197665,1.87287560952556,1.86914821312028,1.86770567973883,1.87079186113139,1.99017995649205,1.89850559021979,1.88806792107316,1.89160656090688,1.89639457374273,1.90096348999217,1.9065813194913,1.88940436060871,1.87816955698514,1.08995026732724,0.00397542668183962,0.0037532818940857,0.00402852897396418,1.0899499145686,1.89368014721429,1.91415548084118,1.96221977110782,1.91281592695802,1.88496551230835,1.88589951230725,1.89428805607781,1.92468588294132,1.95627679313487,1.69891306334147,0.00460815803028474,1.32087391914369,2.05922999956763,1.90809942044177,1.9106074465073,1.70875451508459,1.90990999956763,1.70875450761937,1.91432676822841,1.91398780825935,1.91356928773403,1.91721295160639,1.92096998492739,1.92232902877949,1.92298094746635,1.93628703498607,2.03516999956763,1.95398312073776,0.00474102803197677,1.95858062210623,1.94097980808818,1.93756885511315,1.91734696397467,1.93413707058406,1.92237760357467,1.92791103855742,1.9241962404664,1.92417147061281,1.92120434256847,1.96239273012629,2.07319993823469,1.96731087764339,1.93603010240904,1.96756267847836,2.07668988014718,2.04040424512283,2.07299109090245,2.07657230921043,2.07986788743267,2.06856331917693,2.07257803030425,2.07220564449503,2.07293992530071,1.95631814098071,1.94512093053206,1.9479500306774,1.94446597616507,1.94408319339184,1.94711560418524,1.46142847371854,0.00493727803447587,0.131167230408718,0.00440074802764349,1.46192413750814,1.96036745622796,1.9627876963266,1.96493306778247,1.96807109686607,2.04296990779888,1.96887876334659,1.95983106970373,1.97127870644734,1.97546412861833,1.97461131828225,1.97442123377204,1.97213963581778,1.96821508026239,1.97185818738936,1.97691462809621,1.97800988411291,1.97825992541203,1.98104854130491,1.98316389469357,1.98444559805444,1.98618832813684,1.9865259228533,1.98718141065119,1.98862747131898,1.98797716161582,1.98808362321633,1.98583793550064,1.98791881621533,1.99325848723282,1.64877315762379,0.00421194802523934,1.70130562265563,2.13409999956763
1.81184814769119,1.81168544228675,1.81024325943474,1.80969551862897,1.80914748877437,1.8101993159778,1.81198121607042,1.8115016415711,1.81245838964932,1.81435722715589,1.81658447417129,1.81861859112897,1.8200349001949,1.82060021090041,1.82041204591203,1.81990782530426,1.81955152044768,1.81939589657448,1.81893069483891,1.82572236523133,1.8295887319973,1.83308269563707,1.8370967330108,1.83410480351858,1.83116997659782,1.8309951634736,1.83045723111353,1.83130102318955,1.8319740322154,1.83223017188538,1.83333928413393,1.84478941535886,1.85348706434755,1.85279439229403,1.8541985834478,1.85376337979369,1.85208295048521,1.85019132026205,1.85021431235596,1.85118623547919,1.85225223527505,1.85279724792958,1.85255497897632,1.85192440433775,1.85140201039193,1.70138112225627,1.70138064944132,1.70138035818743,1.8233068416286,1.82788037198461,1.82968150935183,1.83243047329221,1.83656294530599,1.8402952104944,1.84386961889651,1.8475219028359,1.851391315349,1.85545541112163,1.85944560800343,1.86299347941697,1.86604505139482,1.86691216312698,1.86610415312981,1.86559662967206,1.86559032410116,1.86468288834877,1.86363574154891,1.86199429933779,1.86074236570266,1.85984727015984,1.85921046661029,1.85854899344282,1.85868351218611,1.08995041613878,0.00386239876017039,0.00368831374534776,0.00376055016039452,1.08995003387146,1.8724912468515,1.87200933739901,1.87056991336995,1.87020375116196,1.87574158356877,1.87659230496588,1.87772764574138,1.87996310561403,1.88210754701617,1.69891353615664,1.32087391914369,1.32027267144112,1.31950221684682,1.31873584822599,1.43029782248851,1.43029783698175,1.43029785144685,1.47417564578625,1.89141847439239,1.89207250610377,1.89419476444857,1.90088244777217,1.9120264149101,1.92660869274051,1.938403885122,1.9368828936724,1.93088737266515,1.94006983738377,1.9533024784898,1.9546452330118,1.94089404592087,1.93684277953952,1.93501879643359,1.9332040271439,1.93079305859444,1.92827158840959,1.92606999047502,1.92416856988034,1.92258375259509,1.96377056306594,1.99831218186589,1.97025446396808,1.97047498545193,1.97048022431856,1.99564686848082,2.02411256662142,2.07560766080964,2.07816234319547,2.08015803080706,2.06572693025081,2.06472524267523,2.06531736559556,2.05764912480102,1.95673447178875,1.95640827844758,1.9523267000199,1.94850537375265,1.93861685324939,1.93644101869549,1.4614284737045,1.41592894205397,1.415928942068,1.41592894205397,1.46192413749411,1.94026256070591,1.94547625957347,1.95057168383595,1.95575772663646,1.96309476280696,1.96294150451835,1.96378626701733,1.96885445240798,1.97150477639084,1.97354061874508,1.9736916309158,1.97217269330969,1.96970592931681,1.96798379881149,1.96426947240554,1.96181657099952,1.9602887498178,1.44751222852503,1.44751222853906,1.44751222852503,1.96850592453725,1.9730860020631,1.9905575800019,1.99097971740692,1.99065357655425,1.99089604828104,1.98910425289676,1.70083644433133,1.64877315762379,1.6487731581361,1.64877315762379,1.70130609547031,2.07833726629782
1.79067755999477,1.80797234703537,1.80865539067699,1.80945914510305,1.80909049799855,1.81041744147002,1.81539445710258,1.80975806847446,1.79370217863085,1.79438785115025,1.79368623455407,1.79476909911449,1.79357640357957,1.79369706274902,1.79166373855553,1.7917218678694,1.78959866861991,1.78909213227125,1.78670252749176,1.80410110956532,1.80499694965044,1.81245599037812,1.91775993977892,1.81159334033385,1.80734867846616,1.80773298854679,1.80659746594847,1.80737876283638,1.80616935134448,1.82555637675035,1.83655461842603,1.84120334288745,1.9378899560687,1.84483934178167,1.8381313822869,1.83672662743028,1.83642345100277,1.84453298663158,1.84902469561127,1.85019451322682,1.94765995051232,1.85250418598726,1.85236434755345,1.85127076490719,1.84963843597703,1.64858092188902,0.0041777680248042,1.70138064944132,1.81970188808082,1.82707714338635,1.828458443145,1.82984726357823,1.83173604003633,1.82942242113422,1.83128901849878,1.83118971333897,1.83182788783881,1.83073046422207,1.8303594871507,1.8454606840818,1.86795233092243,1.86641371744963,1.86442072077234,1.86555265237978,1.86697650129201,1.8653131559393,1.86460424096486,1.84535519506567,1.83164913355201,1.84896866875906,1.85510445017931,1.85748193117263,1.8584668561336,1.08995042894767,0.00434875528954976,0.00386964961579104,0.00399684605806257,1.08995007618919,1.8697030735949,1.87132564921361,1.87147635516305,1.85786594815802,0.00420074802509672,1.86196219457885,1.8727202178552,1.87836934054087,1.88170163683358,1.88332631792328,1.88793616708167,1.31950221504107,0.00461868803041886,1.31834159913916,1.95584999956763,1.32360938863075,0.00427317802601904,1.47417566027976,1.89075065612385,1.89129796762442,1.89142216273479,1.89781250293292,1.90233334992229,1.91477401798278,0.00392853802163033,1.92027941946407,1.90445315286063,1.91574849320297,2.00099997096091,1.94239927377048,1.96716965625012,1.95842153551284,1.95867671280626,1.95860818708978,1.9594774584515,1.95865954112656,1.96471435830656,1.9450656340606,1.91117016651814,1.96344449806861,2.04272971246452,1.97039048660874,1.96804831059283,1.94113422841838,1.91542229168425,1.97416212579363,2.11494998601089,2.08028209813756,2.082388684967,2.0250649573239,1.97830012107943,2.0408796248845,2.04138519172115,1.95744766530966,1.95999335008279,1.9562133786076,2.09664999956763,1.93391903594098,1.92720653290858,1.9259008031571,1.92471644788473,1.92770863897048,1.93931405520218,1.93540904153836,1.93454207229785,1.93204355993648,1.93219255161645,1.94742967652474,1.96462984365237,1.95794613371377,1.94530123672587,1.9424657064445,1.94003263433398,1.95608732250476,2.08651999956763,2.02208365387383,2.08174999956763,1.96566894063212,1.96309289750123,1.96130392485937,1.95935316471329,0.887328843716396,0.00446920802851538,0.883975514277288,1.9648580642094,1.96849419149926,2.08036999956763,1.96935169789529,1.961410032729,1.99403033162198,2.08002999956763,1.70083597151178,0.00419722802505198,1.64877315762379,1.97325913751899,1.96264703712169,2.23213999956763
1.79701961705544,1.80535758614452,1.80890148807,1.80977723377169,1.80881074286949,1.80716868843099,1.80413555912951,1.80227310372404,1.79541878183966,1.79542913490058,1.79562328779836,1.79605345558145,1.79528240121687,1.79474495949116,1.79362339462388,1.79303047602214,1.79166291908659,1.79079950768867,1.78967806434753,1.80263391838527,1.80674009704789,1.8074964764734,1.80800710681594,1.80865803554209,1.80845095000973,1.80891998894279,1.80919096072594,1.80919375080793,1.80906043888814,1.82238496715361,1.83654473697487,1.83552164700164,1.83306866993488,1.82925477416387,1.8248917558808,1.82109046721728,1.81870940547525,1.81793580757406,1.81826444442115,1.81889294296295,1.81930554319613,1.81930288755004,1.81895910912544,1.70059838444903,1.64858092188901,1.64858092240132,1.64858092188902,1.70138112225627,1.82143514223226,1.82434779928039,1.82682324051669,1.82729592571971,1.8282605666824,1.82606229544579,1.82901034457241,1.83036531382974,1.83077417048013,1.82977004860339,1.82803232884697,1.82691981064711,1.82628216641087,1.82600266841051,1.82582088773304,1.8265777626491,1.82786102355529,1.82953013143947,1.83182882249263,1.83211649318266,1.83232002376252,1.84398657188727,1.84905597236477,1.84350053265008,1.84082612313345,1.08995050610073,1.08995044060664,1.08995043762089,1.0899502953159,1.08995023687631,1.84810281255921,1.84844883439988,1.84890331584383,1.8506065848661,1.85151983143163,1.85664285810866,1.86334494445688,1.87224294060248,1.8788922636153,1.88273283142537,1.88398252409165,1.31873584567213,1.3183415973334,1.31857131365827,1.32071285461976,1.32299785921348,1.32360938863099,1.47417567474528,1.86459858289673,1.86659328126809,1.87031277833062,1.87768339772343,1.88759293741128,1.9010030194535,1.9006329176952,1.90704851727609,1.90114916907206,1.89968937373738,1.89394010558953,1.91541681464624,1.95932026008781,1.95851556321598,1.95824130276952,1.95789924413001,1.95717270525495,1.95803038393251,1.96109076622712,1.96089453915813,1.96120945030757,1.96186070506731,1.96081927795545,1.96060710478133,1.96113723820702,1.93423223913871,1.9328693215612,1.94670115548068,1.95671454332143,1.96315500636344,1.96403370787083,1.95848850192768,2.01250130525748,2.02251348479483,2.02244679126271,1.95364639249091,1.95164283846376,1.95095256481511,1.9468587366763,1.93008339600204,1.92636162921199,1.92614352507797,1.92681052228802,1.92956077972385,1.93391297671704,1.9335190166498,1.93304688188938,1.93033721488957,1.92969874693178,1.92739318401781,1.92576850866468,1.92427498318934,1.92208692235069,1.918982711519,1.9173606571929,0.794811516743057,0.794793567690138,0.794665045785979,0.794362881321277,0.793968096153711,0.793683881978547,0.939076829861014,0.939075191133028,0.887330480672325,0.101232254015311,0.883977151276838,1.94790582029413,1.94730894694281,1.94764925016984,1.95043384610818,1.95528250124355,1.99604217435012,2.02346015238328,1.70083568025043,1.70083597149686,1.70083644430719,1.94867589229931,1.95244375124809,2.0526759812297
1.79633022547538,1.78611502192627,1.75811985223511,1.77780326506242,1.90391994033056,1.80521373256347,1.80304420458523,1.80058502361501,1.79649939676002,1.79580920422569,1.79669987463581,1.79705956920742,1.89749987704318,1.85105671058575,1.96051999956763,1.79407460860109,1.79284654018399,1.79234519733367,1.79117146687226,1.80082355109126,1.80701906678251,1.80650821018057,1.8065898027031,1.80834856546923,1.80822648593203,1.80979555466126,1.81176354368343,1.81093094706572,1.81162597919217,1.81760832913708,1.92006996102853,1.80602986227511,1.7988985641574,1.8003151147625,1.80221373367947,1.80116520864927,1.80110830115819,1.80111046378016,1.80108442773789,1.80141424221278,1.80217298358356,1.81093260998875,1.81832457655224,1.70059791163409,0.00423349802551371,1.64858092188901,1.94059000498822,1.82007842602231,1.81977252612801,1.82132032105551,1.81981273042363,1.82405431757522,1.94236996926947,1.81903897939827,1.8125778271895,1.81231623173619,1.81605829752664,1.81918894852033,1.82345355211482,1.82451813679963,1.82623632742977,1.82602938115148,1.82508093865823,1.82644686837659,1.82599658932474,1.82908643195109,1.83434707542558,1.83314115777845,1.83367433059388,1.83991535007746,1.95323997487548,1.84082592423798,1.83846812701397,1.83158255462806,1.83422467627312,1.8337292486752,1.8400993681957,1.83705011728055,1.84636103432195,1.84810313141216,1.85039520782156,1.84974813416995,1.85316705848952,1.85475860861138,1.85978179548355,1.85795468691153,1.85803687315883,1.86746575634817,2.25197999956763,1.87996632872967,2.24812999956763,1.31755111246333,0.00373805801920471,1.32360938863099,1.86428421182576,1.84647974422605,1.86314606039348,1.86599870143465,1.86775381305061,1.87465590425358,1.87843255653387,1.89009176651971,1.88338136963116,1.89689443755325,1.89007853631094,1.89014492754671,1.88427951622538,1.89734094748755,1.96049521161306,1.9138708003495,1.88923403144698,1.91146668901515,1.95356406664852,1.95560111931739,2.01532978668189,1.98510876540057,2.01092970623294,1.93324585497504,1.87859880512649,1.94166981256526,2.01504994867669,1.90992491945769,1.88632080691613,1.87310968095627,0.00483652803319289,1.87607387814582,1.88624586229736,1.94387300231258,2.02221934374101,2.02234736202201,2.02217604930476,1.93754336997663,1.90305010929858,1.89656975315951,1.88952108187497,1.89801143942087,1.90669920921513,1.92384236222868,2.04151999956763,1.99611267827557,2.05873999956763,1.95086194165954,1.96239936270862,1.92489673883641,1.91263320084968,1.91138595175117,1.9100539995427,1.9126175948377,1.91511465319008,1.91654073899227,1.91499992255439,0.769529376663145,0.00470595803153021,0.0998317130005453,0.0055820780426869,0.102082424879671,0.00404366802309642,0.93907784627988,1.92533999956763,0.88733149422394,0.00420231802511671,0.883978164899033,1.94990958069629,1.94843774217898,1.94781911503235,1.94479749644636,1.94135472158693,1.99830392776626,2.03533999956763,1.93629380135704,1.94355318346499,1.93778401433761,1.93608557300064,1.94708076876774,2.01319265104546
1.78588369558395,1.78013567401118,1.77141454359578,1.77317492283393,1.8505538391819,1.80473216743104,1.80300807662998,1.80042338793778,1.79722987302885,1.79462493728279,1.79523581067278,1.79630538793964,1.79779199721617,1.7986326205354,1.79827340897265,1.79659562619669,1.79539199661256,1.79449373875017,1.7950009132247,1.79919375493759,1.80161360918996,1.8041637317039,1.80833801507213,1.8090339313489,1.80929850383984,1.80985244473306,1.80991015143206,1.80945980957145,1.8082395121411,1.80600861473756,1.80305516514884,1.79977201607608,1.79882676421833,1.79973574016356,1.80063470915371,1.79990429920986,1.79738701215172,1.79411300254078,1.79019285426155,1.78587676728729,1.78137940607692,1.77776307668541,1.7760398171288,1.7005976203802,1.70059791163409,1.70059838444903,1.81777726983306,1.81941852349624,1.82026501334556,1.8204670596651,1.82189831834896,1.82377580651412,1.87586024097977,1.81463095422774,1.80982272134273,1.81135512139313,1.81554195529361,1.818936706416,1.82248050095675,1.8241508754505,1.8257086492614,1.82661954042812,1.82711447581343,1.82802782996658,1.82860272143758,1.82944246797875,1.8291583212993,1.82852872355392,1.82777704130324,1.82706136459651,1.82669444582688,1.82687972923942,1.82771973782063,1.82893833658124,1.83143097040355,1.83289848825374,1.83365118178029,1.83472349837936,1.84567408128213,1.84663417590523,1.84771109035552,1.8477774429229,1.84912365195073,1.84837698774029,1.84710382472184,1.84541152188563,1.84426717122277,1.84247924392197,1.8413550990897,1.82430347603017,1.81856037308343,1.45686012621857,1.4568601262326,1.45686012621857,1.8230445999768,1.83067854569341,1.86571081093413,1.86778380366288,1.87004155215981,1.87295799141234,1.87479829659444,1.87586081892868,1.87665947516875,1.87662928901209,1.87570617614641,1.87378364478996,1.87050238495496,1.8655336861835,1.85931883376666,1.85342307515865,1.8500195925972,1.84909066597956,1.85061751444663,1.85344431630988,1.85680190978737,1.85847224160528,1.8596466969302,1.86297436030366,1.86623264956557,1.8703512846378,1.87400086227026,1.87450872945759,1.87054867576801,1.8646983808289,1.85890960252051,1.87011028883949,1.92823697822643,1.92643838202015,1.92580767091748,1.43800492460474,1.43849152333617,1.43848966353231,1.43908188871797,1.39989095828192,0.890404689837427,0.890406326762352,0.890407340263799,0.890406326664797,0.89040468967958,1.44547197041968,1.88520362905899,1.88584139294053,1.88594774796956,1.88470260561866,1.88249623290421,1.87938910613905,1.87562486225933,1.87434275182507,1.87372719736921,1.1226811890601,0.769511807022824,0.769812217215845,0.190794144940086,0.143807798677942,0.0948115877475971,0.146099637522339,0.193422536250068,0.939076835598295,0.93907520041614,0.887330480675104,0.102124306121237,0.883977151420777,1.67789739491864,1.67877546399974,1.68049959875445,1.68195541136463,1.99271565650496,2.00242354368938,2.00581657784931,1.93097669718386,1.93123258655086,1.93420567215623,1.93507027443675,1.94299957319701,2.01271075310876
1.92421999956763,1.77447400499666,1.76571625496084,1.7698464847254,1.98373999956763,1.78442593768892,1.74806048128193,1.77302984919782,2.17897999956763,1.79039498061843,1.78631620928251,1.77158206627598,1.76330210315458,1.76612256565236,1.7683344989768,1.77054567228703,1.77283183094053,1.7793345029349,1.99803999956763,1.78641575316419,1.7787766982809,1.77991664431091,1.98627999956763,1.86470832014808,1.91066994279651,1.78682762472887,1.78350109143935,1.788032165837,1.79254137168036,1.79417744096367,1.7959416958972,1.79747695817788,1.79693775258383,1.79907308087374,1.80046776813847,1.7857475594684,1.77425886683916,1.77513828558015,1.77806984228658,1.77837786848971,1.78100172887792,1.77728449436637,1.77609775746075,1.77286021364026,1.81356672530401,1.81538578940006,1.81515088252011,1.81836057364868,1.79559009660424,1.81315531151117,1.80575565242154,1.81322996777482,1.91604994345984,1.81326152087062,0.00438875802749088,1.81184220085932,1.81816627578759,1.82014825041997,1.82421996593656,1.80691028728491,1.79309785991109,1.80035547858735,1.81269634849527,1.81238593213667,1.81233943540125,1.80717999559811,1.8013444895181,1.80106297082657,1.80036239838958,1.8081384081522,1.82675366487594,1.8269647394694,1.82789026126879,1.8252706095485,1.81931709080604,1.81773031933296,1.81720369986566,1.82589047642088,1.84275974147229,1.84364019875123,1.84047171141683,1.84551498739702,1.84870981344776,1.84811925452467,1.84835285595666,1.84487779538541,1.84088678239964,1.84112665508006,1.83958823633598,1.82172905045017,1.81212489756671,1.81035403355804,1.81053076200929,1.81071817220092,1.81266421335219,1.82347556070502,1.91753991190155,1.85079282764441,1.84282175382443,1.84257442443478,1.84232147283399,1.8317639918721,1.82217320426697,1.82067000692928,1.81951570083175,1.83473008718969,1.84567302503141,1.84859306960189,1.85157573354766,1.85164247680958,1.85172678287384,1.85000435689312,1.84891011014623,1.85247299401962,1.85717310374765,1.85744782041477,1.85664184391228,1.85700824904436,1.85712850884387,1.85914840831103,1.86121016134067,1.85951928955547,1.85801255176889,1.85889587410746,1.85640010016482,1.86743144216069,1.93064542341196,1.92790040087464,1.92845169239012,1.43714331894143,0.00446780802849746,1.43747249572554,2.03689999956763,1.39989161097091,0.00425308802576323,0.104308691524699,0.00546799804123418,0.0995068635738193,0.00370286801875659,1.44547197043371,1.88382034927814,1.88558158836149,1.88653479722954,1.86990869617777,1.86326477940956,1.86679439095138,1.87275255064185,1.87333836082561,1.87275327024412,1.1226811895518,0.00453190802931378,0.770592215483565,1.97032999956763,0.191887748430885,0.00397253802219064,0.193610107422232,1.90085986054018,1.91241162828156,1.97363999956763,0.887328843720891,0.00434548802693989,0.883975514510186,2.01233999956763,1.67841683589601,0.0036787380184493,1.68250534014878,2.11478999956763,2.00581662197103,2.01171101198253,1.92453099086251,1.92371636849258,1.92239305160781,1.92127425139583,1.94070173859024,1.97014871384449
1.7338526011792,1.73461577076987,1.73562050132075,1.73713850036854,1.7403637682431,1.74318002256953,1.74546061007022,1.74605681824088,1.74624277002156,1.74993318569827,1.75316584293048,1.75554846031224,1.75729563359184,1.75831746368182,1.75966640884445,1.76135069569573,1.76317083580781,1.76493138717344,1.76647390075219,1.76777177436034,1.76874311313757,1.76925123884876,1.76909515253254,1.76984153867862,1.77044298207716,1.77115854754632,1.77145218595394,1.77171697830062,1.77208721260307,1.77261668029603,1.77313002720521,1.77347060792658,1.77352116780183,1.77332757454748,1.77332744916932,1.77273340274972,1.77290285199162,1.77367839532714,1.77464967042664,1.77648425195493,1.77729690255747,1.77549075653303,1.77447526320784,1.77229699355799,1.81562326755982,1.81658755364734,1.81744404452031,1.81895661884965,1.81847781493615,1.81468228212142,1.80891197090418,1.80383681887505,1.79602330435449,1.78973107489221,1.78257059422629,1.78473878777269,1.78963276933599,1.79480727931562,1.79757014745101,1.7970505574053,1.79467972034307,1.79341739250109,1.79305888592725,1.7931440997958,1.79404705964617,1.79571802379222,1.79864384365001,1.80100221685081,1.80263864171446,1.80553635241283,1.80706330285077,1.80819891956755,1.8100824494445,1.81092612561746,1.81118917411522,1.81208290427314,1.81376582451776,1.81351940939503,1.81367531678303,1.81385664147685,1.81445681299645,1.81578861147961,1.81766841590079,1.81789288229537,1.81734854398161,1.81641075640976,1.81466361114399,1.81237633254709,1.81041434540633,1.80939394152893,1.81027940487303,1.80956537074477,1.80999074083639,1.80995272710767,1.81084145704136,1.81104054876018,1.81261069397677,1.81472219571699,1.816713715647,1.8184761277005,1.82057391628747,1.8205606740146,1.82125464207572,1.82083209735455,1.82120262682347,1.82284607286247,1.82613923685883,1.83002720164092,1.83421561607614,1.83913221432523,1.84314550053035,1.8460704678116,1.84841475088688,1.85035178790694,1.85684364185441,1.85690212803689,1.856463995399,1.85613213956147,1.85618062235189,1.85614127086272,1.85531932571746,1.85342505663559,1.85111624636089,1.84902370144926,1.84786570540872,1.84677227710008,1.84650192258015,1.6995288564638,1.4358451460294,1.43617974963363,1.43612430431591,1.43639453481295,1.43588599979557,1.39989226362788,0.89045184177828,0.890453478697419,0.890454492189507,0.890453478581144,0.890451841590142,1.44547197041968,1.88165685174733,1.87858570678984,1.87443220154546,1.86941075513639,1.86397988116769,1.86227041110188,1.86036697078604,1.85952671440547,1.85955936756537,1.12268118955612,0.128185648066326,0.771315293192477,1.12255370424436,1.12255370473249,1.12255370473175,1.12255370424258,1.91398802192978,1.91735729005759,1.92150686733397,1.41997099809198,1.41997099810602,1.41997099809198,1.67777275759667,1.67869843769845,1.68042256788763,1.68190780490947,1.87980099032632,1.88081998143927,1.88283829626716,1.88546596609767,1.88806084820585,1.70063440834735,1.70063393553605,1.70063364428806,1.90908927103685
1.7328069180528,1.73348269165858,1.73430480491191,1.7346942394653,1.7331488920546,1.73374549206895,1.7320825464232,1.7406410676805,1.74084750172621,1.7399628148567,1.7400899640197,1.74619334475573,1.75727750785396,1.75411788255595,1.75031227047033,1.74909487570946,1.74673083544612,1.74727021447481,1.74665696191789,1.74594613635073,1.74447232193779,1.75234879389972,1.76750424260837,1.76921765957204,1.76976105003067,1.75056315844084,1.73444580160679,1.75222986370587,1.76606902227328,1.76676289614513,1.76696943861044,1.76923445237546,1.77207466874253,1.77319554780033,1.77431647428453,1.77270204114718,1.77155994927993,1.76868851425229,1.7654216936372,1.75772047840922,0.00427696802606732,1.76867399880614,1.77590613775412,1.77235003936661,1.9634299777466,1.89319808378411,1.97074997067064,1.90143600744884,1.96943997909182,1.85295239087206,1.88668957009042,1.7946338709469,1.7869557657783,1.78607479764106,1.78387052608835,1.78342073466284,1.78295290156354,1.78435049009034,1.78440322684645,1.78606854748957,1.7860236389275,1.79252479857857,1.79297725246834,1.79298759324209,1.79303489434774,1.79498969099143,1.79651643841859,1.79112368850777,1.78679216936225,1.79459929036368,1.80637670308203,1.80649622214623,1.80440799960159,1.80361040195373,1.80336140106826,1.80633087003736,1.81039221413969,1.81076024618112,1.8120601443306,1.80888332454562,1.8064506733365,1.81351251458048,1.81966649278984,1.81828757454916,1.81730831617961,1.81265743153144,1.80811361880883,1.80577016226033,1.80445390739576,1.80581260779828,1.81121118325574,1.80923400151308,1.81119869262325,1.80958100189252,1.81068295490332,1.81060156142335,1.81248912318932,1.81174609759028,1.81307453344758,1.81855651339116,1.82334179042042,1.82097387745948,1.82204872660238,1.82093094307237,1.82211482035392,1.82176007050036,1.82282812818759,1.8265224575021,1.8300912980723,1.82795999153756,1.82562352089895,1.82552303806763,1.82530278324222,1.82575300249662,1.92125992366002,1.83079933537641,1.82058295723694,1.82774958567898,1.83510069911618,1.83740005919072,1.83946876894751,1.84000426614537,1.84134251323068,1.83750141124592,1.83553289993192,1.8405013518229,1.84637559769144,1.69952838364628,0.00441312802780131,1.4358451460294,1.99354999956763,1.84566211933452,1.85073513333819,1.84239581883678,1.8431818252548,1.84383270444968,1.85090536435209,1.84016738062199,1.85234260973158,1.83635622398026,1.93690994241866,1.85723290984026,1.85170611265063,1.85632567851574,1.86106087496666,1.86077290340874,1.85929493874052,1.85954761469151,1.86044100200009,1.12268118907053,0.00599404804793302,0.771746744850881,1.86508760084104,1.86628633447386,1.86702784392612,1.86763714986856,1.93204672041772,1.92688753939521,1.93228340749068,1.89130871521775,1.87154120777131,1.71025706661075,1.92856999956763,1.71044518833939,1.88383863926525,1.88061738997491,1.87997780464604,1.88109207513692,1.8833554260088,1.88655684102148,1.89155201393047,1.41495766863104,0.00400886802265325,1.70063393554786,1.90193470876328
1.73165081363866,1.73241053641565,1.73373764273361,1.73408400438809,1.73388365368594,1.73542124748559,1.73677695207965,1.73945855762904,1.73930903441566,1.73854974542722,1.73685993037302,1.73496789022939,1.73476641599984,1.73534083084575,1.73682074045793,1.73838817063378,1.7398779436954,1.7405500007472,1.74042140390536,1.73998543839512,1.73985569416429,1.74034003151717,1.74073068786125,1.74020903531856,1.73843013425697,1.73694567771455,1.73551105754212,1.74504054847737,1.75222749448555,1.75954290769099,1.7668151813443,1.7661182400877,1.76450689280107,1.76255711900784,1.76057975282383,1.7587256043406,1.75691083772587,1.75488420513318,1.75298476616379,1.7524115176848,1.74992180628307,1.7616749698208,1.77049455093441,1.77085196832868,1.82938657040156,1.86017368389996,1.88499902884339,1.86933835339153,1.85159994602484,1.83550466084992,1.81284174528067,1.79380730155823,1.78671471379862,1.78548163123208,1.78399931147699,1.78349310407073,1.7839239842795,1.78507838400755,1.78580738781824,1.7865956591127,1.78889086241366,1.79143159518797,1.79257898224246,1.79291394300026,1.79280048030326,1.79203760842084,1.79072406288268,1.78915187820253,1.78691377440414,1.78533093997598,1.78633860605621,1.78810003175279,1.78934616304067,1.79012581248499,1.79080985185871,1.79182483473485,1.79307175347868,1.79417711567303,1.79488419383407,1.79527940336597,1.7956703143394,1.79630875167262,1.79706751107653,1.79753143387701,1.79741289182267,1.79693323851094,1.79641013578987,1.79720681944074,1.80016593772196,1.80300353251215,1.80619495038335,1.80667583842039,1.80664755194845,1.80762531117681,1.80844403939956,1.80891296886482,1.80971696700937,1.8102722138863,1.81245767522738,1.81472938772028,1.81708574084643,1.81864069027184,1.81923553370352,1.81923945952551,1.81960928477973,1.81946780931534,1.81988946616306,1.81969694316036,1.81872780174031,1.81752336054573,1.81658648764205,1.8161423118448,1.81614371585901,1.81634196494657,1.81651281130959,1.81688846327436,1.81763303151333,1.81851310339176,1.81920262747289,1.81902946354507,1.81810005127072,1.81709836234427,1.81679212654014,1.81761636618784,1.81948088469782,1.8190192559175,1.81833032518984,1.69952809238821,1.69952838363792,1.69952885645029,1.83532871146743,1.84057901662695,1.84487163527682,1.84214683883719,1.84308899696153,1.84376519310399,1.84351973382163,1.84198001740006,1.84068046951418,1.83911511976511,1.84019232691095,1.84173685240296,1.84371738155795,1.8457348655992,1.84750976654123,1.8490860847989,1.85079598430514,1.85311056237824,1.85634226894136,1.46198546165247,1.4619854616665,1.46198546165247,1.86600005689444,1.86592535309624,1.86536463964181,1.86674077140562,1.92858834892457,1.92641139309779,1.91074675390549,1.90183577050594,1.89130871521775,1.71118632638065,1.71092759446281,1.71130380887225,1.88088737414178,1.87861726229033,1.87690251855191,1.87412516583845,1.87291349040007,1.41493610905499,1.41494022646036,1.41494943371113,1.41495766863104,1.70063440836645,1.88087591569972
1.73137738325617,1.73154505128818,1.74841896160203,1.73399362366807,1.73252674336371,1.73662314467354,1.73929670497345,1.73999929881513,1.73767524078695,1.73779298037157,1.73382020189707,1.73418738672686,1.73027873318617,1.73133186728035,1.72972391576553,1.72924697414107,1.72690507613132,1.72606270484075,1.72473792155574,1.72472722475788,1.7248820017541,1.72402386335075,1.72303782198256,1.72989394981099,1.73756118726642,1.73655376410795,1.73512690017699,1.73530805018451,1.73470007957186,1.74288272754318,1.94475999956763,1.75858602002808,1.75321003062313,1.75241516092618,1.74570877641396,1.74818637721442,1.74849783074835,1.75033095035047,1.75146270652939,1.75108000107969,1.7498781044379,1.75471636408117,1.76104000468297,1.75649077702178,1.7519939379892,1.82333225727187,1.9269898820925,1.82708067346885,1.74546668430549,1.75786938093179,1.76369420012529,1.76543222513588,1.76681741823837,1.76243032155917,1.75763128331522,1.75419705723665,1.75267139499734,1.75095761649949,1.75014211803951,1.75974346956287,1.89231996102804,1.84504671374288,1.89154995606,1.77870928585171,1.77401763432029,1.76437992332338,1.74475631908094,1.77614173779186,1.78115623278863,1.78294038580317,1.78548147566682,1.78227023052534,1.78095866510024,1.78065642977395,1.77987674518168,1.77770289410852,1.77408003976188,1.78328855495637,1.78543189959914,1.7874019343543,1.78955822422919,1.78956539864161,1.7899115079501,1.79056059289103,1.79099448792899,1.79280827187455,1.79585245090501,1.79649787848841,1.79791969510247,1.79344863360126,0.00422598802541813,1.8027121752554,1.80497167851347,1.806744156887,1.80723754464357,1.8074911149335,1.80595886594399,1.80767809934206,1.80752546777351,1.81136688063906,1.81812691247306,1.81769189238861,1.81743840891251,1.81774782300878,1.81782338643927,1.81658253323902,1.8123816044415,1.80932003284635,1.80589816604588,1.80595515384914,1.80659413218753,1.80512211498035,1.80518608314049,1.80652184932517,1.80869059903376,1.80782545495895,1.80760207031172,1.80929824406625,1.81205408291181,1.81005184125123,1.80945535089164,1.80743795901679,1.80554669357299,1.81383786280751,1.82243806437245,1.81972120702142,1.81799861051032,1.81558489837545,1.82825067513231,1.81439804061856,1.8250727878946,1.83532871826677,1.99318000042746,1.83073953442744,1.82032738456926,1.81799431314074,1.81668743950577,1.81609483531003,1.81595641835021,1.81548593774458,1.81480877310897,1.81914555159764,1.82446356680974,1.82871060347595,1.83138248884034,1.83123508252641,1.82933645359793,1.83449357538293,1.93058994858746,1.83801572021961,1.8514700200827,1.85014161603779,2.18162999956763,1.86473799796858,1.86046431458878,1.86532363700426,1.98333987682936,1.94947519945191,1.85152012120876,1.9094769045223,1.98016998397673,1.71289463194139,0.00426180802587429,1.71301408275769,1.94128999956763,1.87688877109494,1.87585051993867,1.87404197436048,1.87321017013525,1.41494022711146,0.00357668801714974,1.41494022646048,1.94141998120336,1.86678139247586,1.87689283499649
1.73081418617809,1.73160905702497,1.73280506735386,1.73459215399486,1.73565866862404,1.73821378977361,1.74055950279585,1.74261120471808,1.74200286932144,1.74120744441479,1.73928935191005,1.7380399458068,1.73597997902177,1.73428060402913,1.73352753311652,1.73214982727823,1.72847147260061,1.72764004820085,1.72477862314578,1.72457801361073,1.72422142745635,1.72391204507712,1.72351808600606,1.72452301805725,1.72615915924283,1.72825144609664,1.73175218754889,1.73513489697451,1.73793144070111,1.7426417874629,1.74599214341258,1.74864646847957,1.75302302475554,1.75223000574683,1.75054916787126,1.75042175287721,1.75068283097307,1.75088346137915,1.75130830953834,1.7512861306705,1.75139909691219,1.75279278218067,1.75162544426937,1.75054093419555,1.75029245310206,1.74896474118774,1.74901556070567,1.74907026313413,1.74889650923252,1.75079467199251,1.75315277366179,1.75418393030699,1.75426708865362,1.75433608781941,1.75689381822547,1.75245726421647,1.75150627873426,1.74996692811448,1.75027616581407,1.75157365157326,1.75280392868664,1.75544586159869,1.75704758008788,1.7575972312678,1.75727628818299,1.75782098722445,1.75852539924509,1.76985780397725,1.78042406517927,1.77982507953518,1.78009379240714,1.78045775059187,1.78077677813363,1.78070838196675,1.77995701479913,1.7785486396215,1.77720734061313,1.78011328986251,1.78598087402054,1.78708033248913,1.7877411777284,1.78864649047128,1.78961369872223,1.79038871805625,1.79088224788561,1.79089074524316,1.79003715032434,1.78878212189052,1.78981986087525,1.79163716993047,1.79447335412237,1.80072329119055,1.80435946967245,1.80667528148704,1.80763593738678,1.80760238261969,1.80662492729324,1.80685241507701,1.80893292681744,1.81214190824605,1.81481485353244,1.81661232227906,1.81698310210921,1.81669580579476,1.81540222254959,1.81395683332299,1.81209245983402,1.80950911369308,1.80698873931119,1.80568946657225,1.80454289695095,1.80415391091185,1.80485594952021,1.80595687191166,1.80705082311679,1.80739967592367,1.80771946335333,1.80840987751344,1.80846487605953,1.80883918896222,1.80834478020553,1.80766679746401,1.80791729552828,1.81100831854097,1.81408153321948,1.8163546183084,1.81712885025008,1.8167341816455,1.81717057867833,1.816809700062,1.81712952630612,1.81575962923861,1.81298919792724,1.81467679882134,1.81553974643173,1.81585868592801,1.81607108985772,1.81591250781975,1.81575075973124,1.81515637193471,1.81461480846102,1.81628485497118,1.81579856267538,1.81643339486161,1.81904201991081,1.82289119504367,1.8278837626686,1.83225011310828,1.8362950913084,1.83976186712268,1.84388139918131,1.84750530086001,1.95402901459301,1.86611717020871,1.86515605950507,1.86661492622597,1.95809991265924,1.95194556997298,1.94769318487223,1.92426630565351,1.92555308580102,1.71437499434256,1.71498112414355,1.71444957076771,1.84156156321445,1.84311779518196,1.8442782302366,1.70079760509535,1.41495767013699,1.41494943485803,1.41494022711158,1.41493610905515,1.84756760864491,1.84980286800903,1.85306290466903
1.73092335535105,1.73133228275005,1.7316494718218,1.7245016664177,1.7152164192167,1.71486364249711,1.71245691925464,1.74633133600942,1.74630881245477,1.74572017184895,1.74842179234164,1.74305004794784,1.7538985717797,1.73692053800533,1.7386881802484,1.73830032695326,1.74308918241384,1.73236671259017,1.72266873693605,1.72448471512951,1.72326308881801,1.72361165746876,1.72212358745722,1.72204943557669,1.71864814044854,1.71939625739756,1.71680382941959,1.7210274662243,1.7214228814746,1.72161066332043,1.71961278400001,1.7312928367731,1.75411132078983,1.75339826439147,1.75401999313142,1.75240903651399,1.75285436338397,1.73975955650758,1.7239103776486,1.72498844695372,1.72634164191824,1.74371015953417,1.75130259121646,1.7494798691213,1.74672939340901,1.74824211209992,1.74959315679407,1.74952884595933,1.75008516766823,1.74934732267134,1.74669226582347,1.74440305778694,1.74282683244664,1.75190096034045,1.76356527491073,1.7477364136621,1.745219349929,1.74693353283903,1.74905797262913,1.75056178005152,1.75035831810202,1.74555878090628,1.74005584449953,1.74587552271218,1.7556830326143,1.75758066327319,1.75879073136977,1.76432345347977,1.90895999956763,1.77616144663307,1.77042686734721,1.77587672018983,1.91260000060765,1.77070854454427,1.76256429571427,1.76864384562661,1.77549036917648,1.77811930309827,1.88279997976367,1.77714831254326,1.76704281204748,1.77525999873068,1.78159715711138,1.78142963657206,1.78155118523203,1.77188036986041,1.75834915219683,1.77505618396469,1.79144071450873,1.79141947727449,1.79253472424886,1.77994422862784,1.76169731078121,1.7631813171022,1.76648429523661,1.77987064506674,1.8055246122194,1.80388648428415,1.79928831780822,1.79797865447689,1.79792780270443,1.8079231394274,1.94833999956763,1.78294768449078,1.75175974497169,1.77954392959898,1.79951786437244,1.77817642649164,1.76289308026915,1.78220616543289,1.80221353416874,1.80281462963152,1.94232999956763,1.80602406013105,1.80645847162021,1.78483185897814,1.77261473567558,1.77277786630835,1.7718886373,1.78669167578289,1.8077477902491,1.80746910471298,1.91007998319064,1.78935040723419,1.78472889374745,1.78352626066158,1.78381626136673,1.78549183387804,1.78611324958327,1.79094028671929,1.79417257316036,1.80073054027092,1.80756418137499,1.8025843044726,1.79755250182441,1.79636561223278,1.79330612446556,1.80349664681487,1.95851999956763,1.81394756879404,1.811387129658,1.81475877711241,1.81424779846174,1.81533721342843,1.81580124880037,1.81589790584108,1.81649566696378,1.81634642498066,1.81655971131831,1.81886717144929,1.82293604927896,1.82878368503888,2.10334999956763,1.84074387728535,1.81490605141385,1.83871843475952,1.98327978138473,1.95417141592594,2.09681999956763,1.92555308505231,1.92890178413244,1.83084016843528,1.84078607032138,1.83327269620888,1.83899057338962,1.84242987560385,1.84441606597262,1.7007971322843,0.00443423802807015,1.41495767013699,1.85160874640994,1.84830733230056,1.84579012201569,1.84918394393465,1.85259226300455
1.72974510574805,1.72874392335079,1.72675680127138,1.7232537603762,1.71863579241561,1.7169171254076,1.71712473155194,1.74804485472958,1.74750124554418,1.7467697720787,1.74617311647118,1.7430685295445,1.74028849271234,1.73844667732572,1.73888618350254,1.73949341150994,1.74026862978046,1.7367774579112,1.73100315066431,1.72702397315399,1.72637526514296,1.72466823883131,1.72326842437063,1.722450603148,1.72127416536474,1.72194256889764,1.72362046338691,1.72426779107953,1.72477721954294,1.72328348737462,1.72259126600092,1.72402355763421,1.72471829159669,1.72493432794,1.72464916779182,1.72378846423767,1.72277247096668,1.72242842627014,1.72355364184321,1.725650803467,1.72756512155678,1.72842564398207,1.73089749286469,1.73411018753445,1.7374937559882,1.74038623932042,1.74259203239362,1.74401638252087,1.74457606349099,1.74442683282325,1.74402249655479,1.74377950382847,1.74316478034343,1.7487902881679,1.75498245229071,1.74441972763959,1.74336911674087,1.74360034815925,1.74397374187362,1.74472432997768,1.7456060436108,1.74552224617736,1.74406501738097,1.74569258687232,1.74686752272867,1.74804582240797,1.74960170443259,1.75069783619804,1.75220901028636,1.75374124802606,1.75483220270948,1.75517601859609,1.75488363269931,1.75516710057157,1.75580957242885,1.75640697288289,1.75707932363215,1.75730942351088,1.75673564471258,1.75553435240648,1.75412028679192,1.75290466201894,1.75221565853832,1.75233662494541,1.75336546929268,1.75513081675046,1.75717086893756,1.757884604329,1.75814545125199,1.75874580399971,1.7591254052029,1.75971763723684,1.76081116696318,1.76172186986677,1.76255988321219,1.75881503269745,1.75556207084396,1.75310473221318,1.7516933050857,1.75130925927071,1.75174990596964,1.75273535147177,1.75393323078649,1.75433308255842,1.75423161170981,1.75556395010425,1.75646409693367,1.75801783791886,1.76065900304324,1.76050713288335,1.75991796672487,1.76059694473154,1.76184129533642,1.76326014675245,1.76402504956492,1.76438511024326,1.76481989093303,1.76623217406,1.76895217031571,1.77208912404159,1.77487277172308,1.77639818629148,1.77698955432543,1.77765630740016,1.77931891923828,1.78215545411933,1.78406271401396,1.78593888292986,1.78724755089687,1.78931201852714,1.79608521946183,1.79753642445577,1.79821785456796,1.79851151608341,1.79832356215009,1.79788762107,1.79812031043953,1.80230858479364,1.80428653644785,1.80519669617015,1.81519422445772,1.81557552716471,1.81427986152003,1.81459998538895,1.8142091561899,1.81472490349378,1.81465503951913,1.81563137428284,1.81656106957754,1.81743877271763,1.8174955504652,1.81808116867749,1.81853267727401,1.81811199817522,1.81659231762926,1.81569156393226,1.816027544338,1.81902232933573,1.82125913980123,1.82340963005228,1.82638261610456,1.82803475046572,1.8284293086724,1.82791670448453,1.82656153863494,1.82542715165511,1.82612884894127,1.7007968410367,1.7007971322969,1.70079760511573,1.84957863734657,1.84749735734942,1.84631551937726,1.84852710810096,1.85049402529456
1.70078417625942,1.70530987664177,1.71054291863883,1.7059914102727,1.70206010529753,1.70908183188219,2.08743999956763,1.7794362717587,1.8312799536463,1.70639911163053,1.68855161523008,1.68740704361192,1.6853587230075,1.68024441690596,0.00383275802041065,1.73309882913337,1.83406995907401,1.77663977286292,1.82054994371531,1.72905039137882,1.72982315517387,1.71433737675576,1.68970409117443,1.70086597411735,1.74068225085141,1.73216797082425,1.81242996037644,1.72711985333773,1.72977725847558,1.70457651205099,1.69714768785325,1.70011260625921,1.70272356257677,1.70429922214663,1.70611689535055,1.70629931402552,1.70731119184311,1.71980370699212,1.76669942595622,1.72768655731233,1.73069152521695,1.72805332579758,1.72682252000402,1.72393795554826,1.71788530593717,1.72011282322398,1.72119272419225,1.71990487573078,1.7178688216762,1.71479014841468,1.71068534236535,1.70758658352873,1.7028218649411,1.72797160738574,1.78576947795889,1.74181414728977,1.73978183362368,1.74033160284513,1.73792470832137,1.73496695302577,1.73103599726948,1.73088941258277,1.73064693408845,1.73023662671013,1.7304418757756,1.74274220651239,1.75047874430546,1.73396291805452,1.72509782924574,1.72416338736237,1.72328317613114,1.73055333661271,1.75422706424183,1.7550329480595,1.75597253650149,1.73871129226331,1.72945555509346,1.72963097090015,1.72784498921649,1.73977462207205,1.75052579873685,1.74713835056724,1.74295511918534,1.74115227566858,1.73921097002927,1.74255540131023,1.74666237518797,1.75032111716987,1.75353358442682,1.75193572374467,1.74974315565643,1.74831467704841,1.74815492249523,1.75649779331726,1.94110999956763,1.75635562878769,1.7508683974905,1.75090796453795,1.7510107503801,1.75119518831987,1.75151916355082,1.75282396472168,1.75468499337566,1.75457320428304,1.7549448865531,1.75528937728473,1.7550119707766,1.75606533198212,1.75551575591511,1.75651553810192,1.75822185081343,1.75955973433342,1.76124204199251,1.75907034602783,1.7571295629789,1.7548478683747,1.75276577447974,1.75397987278171,1.75491968696674,1.75638742295414,1.75876569370436,1.76060080115687,1.76147174567561,1.75823622926849,1.75507530243359,1.75813056723961,2.01142999956763,1.77688259635752,1.76833745982355,1.77453549160457,1.96154999956763,1.78584153442972,1.77905698263498,1.77880587256212,1.7788077622813,1.77916189290148,1.77950675071581,1.77875143911064,1.77907410465743,1.78006153772861,1.95653999956763,1.81495465783672,1.81078786380934,1.81324113321287,1.81081340421382,1.81329856685826,1.81096771697563,1.81400188122486,1.90415993595378,1.80570616729623,1.79984047073357,1.80162530233873,1.80111546507709,1.80514624620534,1.80836534451841,1.81210686230599,1.8108189387288,1.81645234064225,1.81884034831277,1.82048406402007,1.81804300722242,1.81770951992034,1.81740582006664,1.81920103954358,1.82158634962027,1.82478676359151,1.82831149294465,1.82908416933538,1.83818830636867,1.83871733677667,1.93075996142156,1.84555892312112,1.84308510072507,1.84755817565773,1.8478997323572
1.67535575881447,1.67323743489436,1.6724198538556,1.673251971675,1.67400168890523,1.67344934940677,1.67318112942911,1.67260496645059,1.67117621587018,1.669227999442,1.66801984020657,1.6688640472878,1.67114323859432,1.6741946155132,1.67317621051184,1.71459454768732,1.7829478739621,1.75513076611128,1.73321372398848,1.71695609377164,1.71234459783558,1.70911145003132,1.6878123101597,1.68793774712641,1.69004340394856,1.69280140586335,1.69476878014279,1.69554148531801,1.69578011222802,1.69647044825133,1.69786372452412,1.70004689465124,1.70241502395181,1.70402749738202,1.70523540328058,1.70578492054706,1.70628875042687,1.7137215981107,1.73817161355618,1.72761152067195,1.72820343710775,1.72696761121916,1.72543865104715,1.72322098003786,1.72067659911502,1.72082561994766,1.72095299308436,1.7199497291594,1.71797606599207,1.71517457120673,1.71180473119838,1.70875348064254,1.70610257470489,1.71438865088552,1.73551892939006,1.73681200197577,1.73897317587133,1.73955384546072,1.73800528206039,1.73547315450269,1.7326146408059,1.73114119354963,1.73028052082473,1.72996062120408,1.73008257184975,1.73020537779286,1.72974839476786,1.72834214477173,1.72617398215081,1.7245689958878,1.72372445440683,1.72379056534768,1.72424961241612,1.72493056532427,1.72592227340697,1.72744845806145,1.7294250283766,1.73125888165981,1.734164617178,1.73665156892857,1.73807049939957,1.73946845822382,1.7404352534319,1.74090465047156,1.74067200298711,1.74177370004243,1.74390906507558,1.74349919992742,1.74346126970358,1.74530974920811,1.74735694229508,1.74708767984153,1.74865804881899,1.74879753396132,1.75066795517783,1.75161645375363,1.75128844617527,1.75067336959071,1.75070726667073,1.75089397655686,1.75120500540765,1.7521311992595,1.75301240454398,1.75418967166258,1.75524424389948,1.75529531624367,1.75501752572451,1.75523643258768,1.75492203943414,1.75524421578794,1.75527149008399,1.7548338306734,1.75396927071898,1.75430728523516,1.75458260559614,1.75421530264995,1.75356093176276,1.75376683171771,1.75393317052243,1.75492800495621,1.75469155105151,1.75412180828849,1.75345446672916,1.75378195982322,1.75409538275899,1.75427508335069,1.75475066691691,1.75512713628037,1.75581060888195,1.75720742396895,1.75939446763402,1.76219360073515,1.76517808928446,1.76796662406974,1.7704032780846,1.77266870142965,1.77504163300062,1.77761706880427,1.77897134902197,1.77983101339503,1.77992465764414,1.78634952932579,1.81418632837582,1.8148988941464,1.81448448649893,1.81505536620799,1.81441920369529,1.81286827267314,1.8106222453105,1.80682029739185,1.80344158791537,1.8031196628919,1.80314258363238,1.80447477717494,1.80518835656148,1.80541440583258,1.80545445768975,1.80554102891023,1.80605113797447,1.80691776791176,1.80825713129038,1.80940454134129,1.8127815742473,1.81397090101167,1.81597945079315,1.81953046814071,1.82443115940044,1.82970771587027,1.83468114366162,1.83805415331294,1.83928366389922,1.83958547527273,1.84752704137433,1.84941159972656,1.85060650930578
1.67353595722043,1.67392624564116,1.67290730351387,1.67434476159259,1.67604876362585,1.67345571437563,1.67051203049278,1.67044002850257,1.66878236353498,1.66777854573119,1.66759625110036,1.66917509135743,1.67114984294356,1.67180882873048,1.6714666241277,1.69168015554894,1.82489996995084,1.72995249630146,1.67917005468288,1.67925918839108,1.67920972852535,1.67855883319006,1.67736366734199,1.67875969618676,1.67936167344371,1.68296715226902,1.6862549799216,1.68574987387398,1.68527525621479,1.68954998858727,1.79288997368402,1.69255899814199,1.68758643082593,1.68423284694862,1.68089747872242,1.67962924912199,1.67804551513047,1.6947254891068,1.79264994957677,1.70459770164309,1.68867961789572,1.6908915357147,1.6944544387526,1.69528442765824,1.69620473217586,1.7041986869361,1.80847997898408,1.69106323049604,1.68655689518753,1.68878778712565,1.69099107187054,1.68962857593565,1.68788072142806,1.70305929071573,1.73428243926763,1.73551894296501,1.90000999956763,1.7280539888167,1.71891467263574,1.71764736626721,1.71648444391992,1.71006940487402,1.70258772324747,1.70161130812179,1.70106133714592,1.70743552141084,1.71327064993408,1.71158712895494,1.71015357539593,1.70806370132217,1.70594278018828,1.7055723702525,1.70495072980947,1.70641758580886,1.70792371941277,1.71769603991744,1.81061926413724,1.77218629922179,1.96708999956763,1.72134872470843,1.70998397794311,1.72339202307103,1.73047231453676,1.73047317405975,1.7300009660305,1.73842283362512,1.74361868858246,1.74286665864506,1.74157577893353,1.74146981908021,1.74002824047649,1.74408302468972,1.75068123999382,1.74667155623741,1.74075256079737,1.7401496605571,1.73941462234672,1.74970975839813,1.75021375942119,1.75034876704503,1.75010620162224,1.75123855885104,1.75089603635724,1.75372398044065,1.75644727840643,1.75539657824442,1.75441181066916,1.75463681409047,1.75336624995939,1.7537892257501,1.75243710506845,1.75312317255127,1.75182137450803,1.75285336992856,1.75204904132419,1.75326742013362,1.75300059684574,1.75295655759837,1.75155095019303,1.7500053990247,1.74677458579636,1.74883311715973,1.75014371747184,1.75241119369855,1.75252863163243,1.75311752566862,1.75173164626227,1.75182486920352,1.75104293439278,1.75393158532333,1.75625595218022,1.75786210541528,1.75908591138792,1.75886199844541,1.75843630490068,1.75865435262759,1.76149370308005,1.76279194505829,1.76405886744104,1.76169076924774,1.76093036683965,1.782644928819,1.89562971790101,1.86096526664025,2.01519999956763,1.88909967623661,1.95296997184015,1.79004539227983,1.76876662795139,1.77755263042979,1.79243047368796,1.78910538876762,1.78650882656101,1.78750215885519,1.78874047487187,1.79317611051312,1.79670044046392,1.79889136079177,1.80060205644931,1.80047646709308,1.80010671635409,1.80638115964467,1.80555120262398,1.80507416219162,1.80635448267095,1.80441951862222,1.80551806618371,1.80568718575079,1.80912422855286,1.80739260251639,1.80845938469152,1.81227745583222,1.911629910582,1.82830042841749,1.81987648432
1.67631087024765,1.67582145423581,1.67506664653116,1.67504517295291,1.67519308654765,1.67375714640738,1.67205896796136,1.67094290403227,1.66914959733639,1.66690243325257,1.66880166403855,1.66958064559543,1.67020460193258,1.67011536356507,1.67102547587523,1.6709093158202,1.67027617388025,1.66953999247475,1.66935595908381,1.66996835787431,1.67095085889881,1.67209403672279,1.67269489240125,1.67248807100783,1.67159861586417,1.67110920556109,1.67074274754659,1.67012708891315,1.66951254156809,1.66921360617698,1.66952828390712,1.67119908031447,1.67358943618176,1.67636691355825,1.67906213703694,1.67946835205587,1.67906484123261,1.68230565675992,1.68464668868997,1.68616884682624,1.68732012381738,1.6873129468397,1.68687851162396,1.68724357343832,1.68813819344762,1.68895620134184,1.68915374671899,1.68860806677656,1.68742645635226,1.68633966227829,1.68491118564344,1.68350292696718,1.68258501826092,1.68196354837462,1.68167032681537,1.68121159209655,1.68056750204486,1.68013060871693,1.6803035335162,1.68132105771561,1.68325042097604,1.68601278029783,1.6893966051122,1.69308588784886,1.69671023683239,1.69989398226177,1.70228617336972,1.70364634328172,1.70400835116658,1.70377819431179,1.70349725564721,1.70392886690491,1.70496046237705,1.70622964663852,1.70720262098614,1.70994014134937,1.77661743286241,1.76159739345464,1.74682593090557,1.71736250618572,1.71509450154313,1.72188945853493,1.72706058304475,1.73053939426881,1.7328970918656,1.73734919034613,1.74032280710735,1.74207114938138,1.74223069961975,1.74229422097034,1.74255984248466,1.74453544152492,1.74563218351471,1.74464792642849,1.74211713771464,1.74057440113415,1.7397408975,1.74893308358453,1.74952681533801,1.75023778840368,1.75106319937172,1.75158002762145,1.75201471027464,1.75325105318969,1.7538514744276,1.75557089289298,1.75615079367117,1.75560720052914,1.75012385438407,1.7006750311203,1.7006753223794,1.70067579519757,1.74759426242756,1.7467780482375,1.74672948460293,1.74711085328887,1.74756916391922,1.74785255108179,1.74772592180934,1.74701590614778,1.74598083147303,1.74454696940827,1.74363410338438,1.74350196966465,1.74421929508861,1.7458169623549,1.74780459948734,1.74967889413929,1.75110592387593,1.75205450921768,1.75259789287012,1.75283623314003,1.75309367947267,1.75393810717043,1.75529542398175,1.75585516823637,1.75613323869201,1.75650369122964,1.75695699946933,1.75817009464946,1.75867467095463,1.75782260200109,1.75844788431805,1.75907801679798,1.76025746867177,1.76152479799777,1.7636001645769,1.76675089156025,1.76932700424202,1.77225907995091,1.77538969459682,1.77899515430241,1.78292357293132,1.7866941418785,1.78985830536083,1.79350052275871,1.79671823202663,1.7988449393162,1.80013927994082,1.80039006749573,1.80218467617677,1.80435202066251,1.80448978995113,1.80388633007343,1.80376441388845,1.80305543647249,1.80338302696889,1.80409875811484,1.80524878972872,1.80538074211588,1.80739665281327,1.80887302182766,1.81045013744896,1.81231997930937,1.81462356543815
1.65192715819949,1.65522219440853,1.65828459608368,1.66343748360291,1.74903993560376,1.66507008203093,1.65908367357092,1.6580652196889,1.65783470192459,1.66195924322321,1.67120310527323,1.67021813196072,1.66986186938746,1.66705863206619,1.66100526257049,1.66021312842642,1.65937646399255,1.65931615635338,1.6588603494999,1.66168603635979,1.66421929445359,1.66345327677501,1.66285281504549,1.66657473604261,1.67066416903628,1.66952489673284,1.66795025582007,1.66707138169951,1.66628391644594,1.66724610658958,1.6683814392087,1.66728200407848,1.66624322229707,1.65756684736991,0.00385249802066202,1.66017735459995,1.67571702336659,1.67386293619195,1.67142206318658,1.67642409974081,1.73374955728596,1.67587870682597,1.66922192251739,1.66923091654321,1.6682909800292,1.66894028952189,1.66834050633846,1.66898001421309,1.66859046575147,1.67002488945325,1.6701475494714,1.67079862119506,1.66993440124505,1.67023487714109,1.66943781730799,1.67088149323826,1.67193143998827,1.6733546009695,1.67479742609372,1.67399050102098,1.67316017146164,1.67273890639809,1.67193975608347,1.67233271812218,1.67203211761404,1.67177892708187,1.67186607943244,1.67209694726094,1.6724102154527,1.6791354907057,1.69490169294963,1.69043336919756,1.68491145417572,1.68707792303795,1.68888986954199,1.70583549548114,2.01046999956763,1.74657025702596,1.69755013701637,1.705800947354,1.71313955213405,1.71015902541932,1.70722095708214,1.70714072099228,1.7073336150985,1.71048096428389,1.71380696255556,1.72236532642723,1.81823996442212,1.71754071725554,1.71132231986203,1.71038916348922,1.70950541542762,1.703925841801,1.70038885831007,1.70849351844178,1.70986835435432,1.77000858967439,1.778086953915,1.77753243265257,1.77774761411248,1.83465174629942,1.93942995519611,1.83192387779459,1.75031702853461,1.75719714810818,1.75937335347423,1.75716982333305,1.74593219505429,1.70067532236899,0.00394416802182937,1.64829719775491,1.74915505279589,1.74148173100696,1.73209750269969,1.7294110347959,1.7274045074667,1.72532788011933,1.72450097226719,1.72489782464396,1.72688167943567,1.72749628037318,1.7306209436508,1.73260061828512,1.73615593049337,1.73561056058568,1.73634128624182,1.73584328579197,1.73610863976106,1.73441581552012,1.73323012650946,1.73951359827787,1.746884696002,1.75014458001516,1.75327588102774,1.75363522248553,1.75201147358756,1.75242104715609,1.75344101138148,1.75472715289521,1.75581476806817,1.75497987540718,1.75126806570996,1.75668836546008,1.75827620638153,1.75901245833491,1.75580704102088,1.75593747995079,1.75493456623226,1.75837086148802,1.76057965336831,1.76073730533101,1.75945132691033,1.7602194780258,1.75963830911626,1.76075652597333,1.76033085445858,1.7607063715843,1.75996753716123,1.77425181656239,1.9168599719126,1.85889098075772,1.91408996496946,1.79954521122819,1.78275723805083,1.77319063503059,0.00413645802427803,1.79464578208412,1.80390784274383,1.80252093778733,1.80015976105404,1.80226785115603,1.80399680246519,1.80604504793919,1.8073164017835
1.65001028807745,1.64953866302649,1.64914771309572,1.64893290251334,1.64863907763573,1.64806531217933,1.64724112357607,1.64659789001005,1.64657773490241,1.64727877527933,1.64830654737054,1.6491363948025,1.64952958505348,1.64971797953752,1.65006024380943,1.65072555044175,1.6515389274381,1.6522986939708,1.65277175584488,1.6529087570285,1.65268326678489,1.65230341907894,1.652010351989,1.65187517979612,1.65168243444833,1.65105561638029,1.64991189562681,1.6486004275556,1.64770087829309,1.64766066794529,1.64842125633066,1.64935091584824,1.64946837444346,1.64850622400097,1.64716053748959,1.64615595033414,1.64606169426028,1.64620879430078,1.64713215072179,1.64805286805528,1.64942405273503,1.65127260222814,1.65340122192115,1.65534308986446,1.65690341467532,1.65789439173575,1.6585409735386,1.65882734995532,1.65914996481887,1.65969812716904,1.66037466773241,1.66122950445904,1.66182974212321,1.66216968353319,1.66236202127341,1.6627445411824,1.66355300072683,1.66463548750121,1.66561792599537,1.66631774038517,1.66695297470213,1.66791349082806,1.66909330323322,1.67018454747691,1.67043079196902,1.67059989822362,1.6703374514028,1.67133399242351,1.67203229932503,1.67236250156017,1.67329825212386,1.67388969856437,1.67466368791313,1.67607725250887,1.67808683838971,1.68033868762098,1.68229585225835,1.68364004035518,1.6842007484512,1.68399174785512,1.68324829034128,1.68250086445989,1.68255168198866,1.68337932081554,1.68547475036712,1.68834024495973,1.69118862144747,1.69340319624251,1.69472560307626,1.69540529551687,1.69599825219129,1.69712553443357,1.69914847354725,1.70197182466465,1.70296410466848,1.70601576247357,1.74253898798131,1.77929471445231,1.78252539905733,1.7869646772393,1.83507848329272,1.86900628314976,1.88857764924331,1.872478393225,1.85293442839647,1.83481428628085,1.81201889528471,1.78736413775318,1.77435725509492,1.70067579518071,1.64829719775491,1.64829719826722,1.64829719775491,1.70032203365918,1.7189233718314,1.72104322275126,1.72285231041668,1.72401920367483,1.72398272965669,1.72435317666457,1.72530406337184,1.72604382288171,1.72689972816166,1.72531698454691,1.72415390089238,1.72228732711014,1.72078545196418,1.70149233818105,1.70149186536611,1.70147978623093,1.73297500872283,1.7336967574669,1.73470338060079,1.73539247892417,1.73649171237613,1.73806056634137,1.73987550177395,1.74170124527542,1.74331907325557,1.74455377323794,1.74536121422087,1.74584583337881,1.74614416592369,1.74640114125264,1.74670607100418,1.74711868588876,1.74753118792751,1.74775083303861,1.74813325009107,1.74847411071075,1.74920143673555,1.75196896396626,1.75499751280186,1.7579577562699,1.75992372664063,1.76080815253351,1.7607935873965,1.76117881107346,1.76147248579832,1.76299657569409,1.7639180934063,1.76474239601183,1.76585687350635,1.76565472263857,1.76507123133751,1.76589568023392,1.76373909021809,1.79046345729575,1.802048405697,1.80156915705034,1.80126121394086,1.802628246461,1.80444034574279,1.80629695696643,1.80771245192503
1.64759936309181,1.6430518572271,1.63850359971169,1.63805692861343,1.63802124741254,1.6371228964135,1.63686901407104,1.63619358484249,1.63700513341602,1.63535002020391,1.63570214273363,1.63454933470399,1.63550468228703,1.63393799619806,1.63458704434383,1.63746978721021,1.64217907945308,1.64269633705288,1.64279516199498,1.64433420028665,1.64506497191646,1.646478704183,1.64702515466355,1.64807942512726,1.64852829856413,1.6460171610442,1.6430238488815,1.64427975146779,1.64549023668801,1.64536822319907,1.64491469556494,1.64771509801552,1.64963699355869,1.64725530460304,1.64664503600391,1.6458448519805,1.64641510224342,1.64610014941625,1.64757967128292,1.64667816182844,1.6477699366768,1.65019537998044,1.65383142489994,1.65504825655858,1.65566647650534,1.6571890212992,1.65809768846463,1.65849468165778,1.65813410582931,1.65798760981284,1.65748121758003,1.65684590397856,1.65618659255673,1.654160618184,1.65184349726499,1.6521711424046,1.65213191206348,1.65435938634261,1.65643493517048,1.65633115741697,1.65617970305332,1.65530301099597,1.65425724510705,1.66139286442317,1.66821632232861,1.66881220598335,1.66677165496418,1.67004879000916,1.67141810081388,1.67117420646577,1.66935267985531,1.67007038794999,1.67097587881791,1.67118410893754,1.67155412260335,1.6709818727516,1.67027750885035,1.67116381159721,1.6717792165812,1.67569833783557,1.67948727694653,1.68166444501517,1.68369308150827,1.68385944664128,1.68376870419119,1.68405049227555,1.68396327890075,1.6853820329057,1.68452083249302,1.6860348594963,1.68537184145244,1.68401497940548,1.68128448446638,1.69421180528046,1.70294942722915,1.70525558742047,1.79314147316608,1.78625101368549,1.79538934252796,1.79131068796274,2.04561999956763,1.91503956808254,2.09561999956763,1.89189869418554,1.94375996243717,1.87055017744068,2.13806999956763,1.85653912385969,1.96183999956763,1.73356571990625,2.14125999956763,1.64829719775491,0.0038709980208976,1.69969809563843,1.71643294430389,1.71483726149885,1.71396785960058,1.72068842992502,2.22535999956763,1.80694599202553,1.88038998218678,1.72578442141518,1.72656379409641,1.72558757413321,1.72542174119457,1.72235786453591,1.71963124876793,1.64929158464688,0.00446280802843373,1.7011524965393,1.73212496066611,1.73368279911133,1.7354013672702,1.73190257736134,1.72883188097186,1.72666130292941,1.72465873050024,1.72640058006372,1.72773445818234,1.72710930589512,1.72689533488049,1.72574874734384,1.72701920633657,1.72532290582823,1.72888177360594,1.72547055037679,1.72661340322962,1.7425478997695,1.74434875040098,1.74589256576248,1.7473214217692,1.74505615450252,1.7429089259453,1.74123012110637,1.74141489116403,1.74911306842172,1.75971039926929,1.76083886632482,1.76104999711343,1.7625406810513,1.76289066416539,1.76300079725457,1.76082182951695,1.7626138813658,1.76480250614933,1.76450816715153,1.7644651941163,1.78146937547531,1.93349999956763,1.77482389913372,1.76609507524436,1.77006140306001,1.93989999956763,1.77559357397899,1.77062461720587
1.64291804494914,1.64038552589872,1.63803570933967,1.63730798754722,1.63722491009923,1.63633280763769,1.63525202854413,1.63493752736394,1.6347555270416,1.63374138949712,1.63312945107641,1.6327456914224,1.63287371486608,1.63218528141051,1.63211472344644,1.63242742178562,1.63396672221417,1.63543604384652,1.63603472590655,1.6357630720667,1.63505871444945,1.63467201145453,1.63516181818289,1.63626191268183,1.63792103382961,1.63994737128038,1.64180438501657,1.64168564318089,1.64046288496696,1.64256255496455,1.64372036672429,1.64347018675731,1.64324004262441,1.64387440075928,1.64446838746319,1.64427917684076,1.64448043690438,1.64441687897693,1.64454203617885,1.64468454695073,1.64504076887811,1.64565841908661,1.64745401899128,1.64896835076282,1.64976087260675,1.65020382593071,1.65023327285824,1.65017984327624,1.65066474948094,1.65171646935771,1.65171020428266,1.65109738704699,1.65043957677962,1.65006383380352,1.64975650662119,1.65180990127988,1.65286898296093,1.65370473539462,1.65378974767994,1.65368769965339,1.6537724104239,1.65401933215876,1.65413911174849,1.65380704638389,1.65298565226389,1.65221365804838,1.65197268610634,1.65255659826967,1.65351024799095,1.65486928554247,1.65647339981175,1.65862565414834,1.66122467500803,1.6638268349728,1.66600166620739,1.66762140748598,1.66890183004375,1.67028475422361,1.67202107866966,1.67410650588755,1.67618255116323,1.67805653948126,1.67973899264542,1.68134346897798,1.68284876362203,1.68381965435592,1.685962953536,1.6865380061411,1.68655179644892,1.68688280940574,1.68615808158535,1.68478282664077,1.68336791777204,1.68644350354115,1.68453692795539,1.68256248714259,1.68089965422281,1.67970677289149,1.67971745238874,1.68055611567512,1.68127935120026,1.68126662970078,1.68022345820154,1.67994539819381,1.68029043516484,1.68130859522002,1.6833994624062,1.68670340008869,1.69036298844271,1.69284160070837,1.69254420648646,1.69652125487515,1.69655226157337,1.69447490643075,1.68254262851962,1.67981368881916,1.67981465283227,1.68052510427844,1.68132663625328,1.68202917854181,1.68402540381474,1.6871118333652,1.69081020741696,1.69262279872995,1.69386759634057,1.70064355415452,1.64929158464688,1.6492915851592,1.64929158464688,1.69758074251767,1.69111351047596,1.69289023791469,1.69495362457536,1.69694320412955,1.69944368783426,1.70311479478145,1.70834916941123,1.71470098041295,1.72063188174918,1.72455655860523,1.72548849482196,1.72461845362747,1.72398084742676,1.72201849987852,1.72060650312951,1.72278424625491,1.72578431105061,1.72886348123464,1.73226192150826,1.73493936049684,1.73669457871534,1.73817749947303,1.73989956903991,1.73966879385737,1.73939411158643,1.73983503810053,1.74141529408728,1.74328493776868,1.7450824832047,1.74699356085344,1.74904256114061,1.75095016820947,1.75225840126883,1.75276587715995,1.75289982535788,1.75339548470262,1.75495872052352,1.75752104239165,1.76058431290271,1.7634221250639,1.76562627252762,1.76706240558602,1.76753835587862,1.76726436020082,1.76972938882977
1.63339297616108,1.63314513289788,1.63246569379813,1.63566330365237,1.63687082396274,1.63534640018409,1.63273450140636,1.63364872361735,1.63360228739221,1.63218538825691,1.63075626463786,1.63065738541224,1.63144523972793,1.63011906562008,1.62967582097207,1.62901031941821,1.62831573184063,1.62660342333149,1.62711311460895,1.63038859334491,1.63438418114594,1.63354670080383,1.63314266776778,1.630579949112,1.62883434077564,1.6267078387625,1.62721853620909,1.62987714659526,1.63598767797355,1.62999808145683,1.62806761116459,1.63077902415919,1.63573536383431,1.64047973979609,1.64326517760209,1.64230145828545,1.64271905952359,1.64244101123286,1.64131754235611,1.64234915117509,1.64191327903263,1.64199184971377,1.64108471631085,1.63912081770429,1.63907721530728,1.64288811031881,1.64693335096405,1.64885880121963,1.64936889932996,1.64477407884207,1.64001164447877,1.63993245978896,1.64255053794696,1.64378592540503,1.64492731480017,1.64123577961156,1.63775160079516,1.63536759778519,1.63460473772833,1.63275066411478,1.63202510366627,1.63642578635346,1.64109392643054,1.64468510250273,1.64856634526191,1.64908413118589,1.65032061410331,1.65148320154161,1.65345996723333,1.65148050832639,1.64941021930901,1.65194430184371,1.65356311672035,1.65359174034664,1.65255334971614,1.65407005213251,1.65447221207755,1.6519173731902,1.64818332957495,1.65331807332826,1.66071188439946,1.66233083664952,1.66371447364558,1.66486940578929,1.66612129791284,1.67133000045309,1.73773009257721,1.71732929419158,1.75653991253311,1.67140837398676,1.66760131454177,1.66992196809727,1.67231137543009,1.67342797137188,1.67470699523957,1.67606658346403,1.67760164427637,1.67987503917872,1.68079311419875,1.68157525876721,1.68246439818124,1.68237178372766,1.67283547840654,1.67257797874011,1.67509170683977,1.66902105505751,1.67125741914764,1.67108364415076,1.67888721078966,1.67703875537826,1.68079550046208,1.68238456470446,1.68243687217693,1.68187345280468,1.68016741956765,1.67862374373325,1.67916439061109,1.68050434232817,1.68173142635647,1.67894989533445,1.6754843872791,1.67954426271589,1.69265267356972,1.69299796527313,1.69339988420337,1.69847016576072,0.0039474880218717,1.64929158464688,1.77838999956763,1.68481544570177,1.68745955207677,1.68661926370989,1.68564438027293,1.68991794132129,1.6934933909532,1.69606959401404,1.69831296959205,1.69921937450305,1.70013625378118,1.70928715196609,2.22375999956763,1.72387235971435,0.00430601802643725,1.70152447298541,1.71136764473447,1.70313254662951,0.00416496802464109,1.72234380268639,1.72859372071795,1.73149051922225,1.73374946398148,1.7370094594952,1.73895162744146,1.73867792954806,1.73672130587538,1.73880244503628,1.73934684173639,1.73864599623733,1.7372428249077,1.73687830010745,1.73581327829954,1.73777841504452,1.74090831441419,1.74028155532714,1.74176137915069,1.74329872058452,1.74663221987411,1.74782985155005,1.75037721688898,1.7522130410091,1.75340931126955,1.75616298719465,1.75832209511966,1.76398850557731,1.77036147060167
