1.40214589503003,1.40162160435375,1.40213700140378,1.40799429656185,1.40282740032217,1.40252511256744,1.40402539808705,1.40281264254602,1.40482368834371,1.40255733444386,1.40510439605504,1.40311821020907,1.40526298405725,1.40304290270023,1.40576044289502,1.40377942380295,1.40628556101509,1.40537745695265,1.40729335480056,1.40781804454714,1.40790418764502,1.41010950089684,1.41065160618621,1.40986070322622,1.41009453097787,1.40932440138433,1.40918134566424,1.41000000085864,1.4092628942543,1.4119689720716,1.40933140031394,1.41026105625729,1.40922830277873,1.41055982978553,1.40974067271347,1.41196545540933,1.41174827135425,1.4093157835537,1.41189502983402,1.40917686230112,1.41193829986321,1.40952989888664,1.41177299305364,1.40995345921858,1.41168993013571,1.41140322894888,1.41259504678394,1.41118840512996,1.41289915948774,1.41098836867433,1.41288964376287,1.41260603914873,1.41302226642045,1.41400044440203,1.41297486977718,1.41527794852116,1.41321815830839,1.41569389119436,1.41334467701049,1.41552676622764,1.41355836733976,1.41604432649659,1.41495823731617,1.417248486457,1.41600109694577,1.41818515589279,1.41666699707549,1.41734347399118,1.41664128579111,1.4171662054718,1.41699119915283,1.41736902635162,1.42722081942914,1.47508840610207,1.47514211424809,1.47915265358432,1.47108396752998,1.47272455764232,1.47191543143702,1.47074466097987,1.47520578522145,1.47550537605265,1.47516956098911,1.4757322266276,1.47494996857022,1.47538153395121,1.47451910905757,1.47536731965051,1.47434835957614,1.47507092134524,1.47437352175083,1.47523615800645,1.47478406656423,1.47581609775407,1.47543723044589,1.47662144441503,1.47571090694881,1.47647708770186,1.47641574472203,1.47824615034832,1.43723178954668,1.42593979328223,1.42622488179142,1.42570775941315,1.42608779394701,1.42541242346754,1.42606904897206,1.42533878530841,1.4258321190582,1.42693096417092,1.42724391582352,1.42780901151781,1.42666891257821,1.42588321416554,1.42564021300148,1.42483727668523,1.42737803312767,1.42744929397371,1.42721112248095,1.42810595046793,1.42756735553391,1.42832866053512,1.42803794739879,1.42724925245785,1.42846899988669,1.42767417777396,1.42893533981916,1.42755604838751,1.42904787613256,1.4280430183974,1.42917164713368,1.42866758243614,1.42927171692128,1.4289733952836,1.43068692616825,1.43123583956171,1.43156216950132,1.43154635347652,1.43170590955734,1.4318930758671,1.43223912007506,1.43233486050023,1.43242245347771,1.43171364689077,1.4326156311108,1.43269395766774,1.43283269758766,1.43237798501869,1.4324255138891,1.43278840613568,1.43299211757235,1.43355222707076,1.43413855471766,1.43498941142159,1.43461758205234,1.43479534570549,1.43461702526493,1.43520231279728,1.43515286016184,1.43573144737667,1.4360695845066,1.43837967822865,1.43580732138585,1.43534901115308,1.43520193082965,1.43560798802975,1.43575590915375,1.43647351357084,1.43679679808973,1.43737598469659,1.43747817034931,1.43747131431064,1.43798741325059,1.43848426770249,1.43859375192538,1.43910093004879
1.40143463227972,1.40167727279166,1.40211753219149,1.4019517606614,1.40279102180785,1.4026012979858,1.40342449081627,1.40495495533967,1.40343678164577,1.40637071157585,1.40360120955129,1.40600550355121,1.40402613618922,1.40596342554755,1.40450780296713,1.40684309015433,1.40498582509698,1.40586906566772,1.4074254025875,1.40847912944358,1.40753825615489,1.41090661785929,1.41036670169857,1.41045558414132,1.40971285264355,1.41039090096496,1.40956615259447,1.4084281945309,1.41004719085183,1.40820527834249,1.41028898873384,1.40823642396737,1.40976116848862,1.40897140535238,1.40960029566136,1.41001451984288,1.41002187018499,1.41265917922413,1.41016628872029,1.4134681731274,1.41024593271573,1.41300884486317,1.41047276897821,1.41253520535548,1.41090095373152,1.41277614290208,1.41111466994934,1.41278240043688,1.41118463431075,1.41360440557138,1.41186143982919,1.41530873286368,1.41304223859244,1.41233491680494,1.41338193413533,1.41255647816505,1.41419255589449,1.41209393143914,1.41474993013043,1.41235569287437,1.41496734176493,1.41221033505132,1.41540988805852,1.41407013817571,1.41616330565791,1.41620217347302,1.41708118801723,1.41611750189322,1.4168774389838,1.41640189033484,1.41708168157843,1.41720143168349,1.41731753434803,1.41756246116047,1.41726171799948,1.4171209275763,1.42709007779634,1.48012135349539,1.4715861631388,1.4704084424581,1.4752422300631,1.47637300717089,1.47552051371579,1.47649331381547,1.47506655195587,1.47536068670848,1.47439715503703,1.47505520509921,1.47429665212465,1.47525883855553,1.4744058628151,1.47545601827922,1.47468622776154,1.47586948535832,1.47516270788125,1.47640361805758,1.47552832729895,1.47649025978761,1.47633014589138,1.47724241104554,1.43414111578433,1.42589717869638,1.42614544012658,1.4267585888205,1.42567876004027,1.42684218880343,1.42636089385678,1.43044568732756,1.4250596866259,1.42546354965085,1.42490906898704,1.42521438819891,1.42537714464586,1.42648166920906,1.42619258512616,1.42686971581914,1.42718039733358,1.42672262788845,1.42738499197441,1.42701432360255,1.4275482753049,1.42805534961442,1.42754912506543,1.42873894616661,1.42766325878808,1.42930671793901,1.42785758135927,1.42956231222084,1.42803959778969,1.42896117053387,1.42842974727482,1.42943908150692,1.42897163828631,1.4293291075705,1.42971403014245,1.43189842174599,1.43189664233774,1.43224627189758,1.43147015783955,1.43161565623069,1.43135101834797,1.4318526543634,1.4314184748748,1.43210678718991,1.43171018087975,1.43252091537609,1.43188198808235,1.4322347333534,1.43190516637028,1.43249406058351,1.43267735853203,1.43376593486643,1.43361569293887,1.4342572943333,1.43394908447265,1.43426448252666,1.43418515113234,1.43464108295029,1.4347368125289,1.43457967078136,1.43467907698118,1.43484463689966,1.43515287824987,1.43515361139639,1.43547692204414,1.43576210871681,1.43597975095084,1.43653052594423,1.43669987483684,1.43771729257706,1.43711116410749,1.43758866005065,1.43743271809287,1.43825129576672,1.43808821313965,1.438716705316
1.40189293004554,1.40357748227631,1.40260222854441,1.40260373739686,1.40228186543119,1.40337325349218,1.40324280814895,1.40268805713289,1.40442585696439,1.4023504348188,1.40511327988792,1.40323040829825,1.40520445428066,1.40603282733808,1.40624119247918,1.4038440985504,1.40584895318081,1.40527934642116,1.40827218486946,1.40694666608121,1.40805041666678,1.40727330408184,1.41104227038448,1.41080042372703,1.41085966530568,1.40961179329353,1.41004478963669,1.41050795008381,1.40929106671374,1.41074355878764,1.4092708630742,1.41034747787124,1.40936701561851,1.41358530135227,1.40962136280508,1.40903183445722,1.41038455910176,1.41072105012396,1.41209108376554,1.40880120330276,1.41192579720066,1.40916569547348,1.41198995794527,1.41043429177946,1.41198161453531,1.40993746639549,1.41204749494244,1.41015163604346,1.41235865457869,1.41037421366939,1.4126777886898,1.41278302230549,1.41321508353932,1.41378152510394,1.41304409616819,1.41595399687561,1.41319585098551,1.4152262510967,1.41323705261385,1.41614981558417,1.41345568792413,1.41630323097178,1.41362768008683,1.41626945181189,1.41455686624049,1.41626577105263,1.4149872210577,1.41629266544753,1.4153995787565,1.41640621785569,1.41635234193955,1.4175206893782,1.41702896478687,1.41703998773938,1.41693180642867,1.41728354657609,1.4170856650783,1.41762565482563,1.41753651256316,1.41827780368145,1.42804526333475,1.47608003859616,1.47527570108658,1.47595860426937,1.47477157746862,1.47528605179392,1.47434753711307,1.47525617270797,1.47438845523043,1.47562839159685,1.47458629938415,1.47504128509063,1.47489730691704,1.47708870505181,1.47567276711271,1.47608010805834,1.47561338566811,1.47671434498369,1.47630499879394,1.47996486493438,1.43086458955509,1.42449346090229,1.42418124518169,1.42309100557106,1.42492721429389,1.42739629611843,1.42734514952449,1.42777536326535,1.42444818762701,1.42441582750718,1.42503313558033,1.42472754665931,1.42578053068629,1.42651890721809,1.42686570054749,1.42723452651071,1.42735080978954,1.42751648731154,1.42737048289095,1.42749109200304,1.42701033685412,1.42634277902863,1.42718539597838,1.42717209404322,1.428137934607,1.42701320512944,1.42837063014499,1.42730642624207,1.4285463457556,1.42816619331393,1.42867942681073,1.42862672192474,1.42901523766456,1.42936881168881,1.42939549893112,1.42971977428085,1.42932101244039,1.42951002970353,1.43075179467419,1.43125186863043,1.43112178109092,1.43134223143134,1.43136549303266,1.43117295420967,1.43167246652691,1.43157049751341,1.43183016312818,1.43153333942265,1.4318411284637,1.4317805883728,1.43244377106361,1.43273504125357,1.43327853537771,1.4331393670689,1.43352942857478,1.43324754308299,1.43351889941897,1.4378854321057,1.4341515390399,1.43496282092353,1.43441054602868,1.43510465978893,1.43484612425355,1.43574245641415,1.43520547886715,1.43591187546961,1.43572449104173,1.43608537288155,1.43619415326573,1.43674462110752,1.43670194866476,1.43675125918147,1.43716706244052,1.43741555955171,1.4378641468539,1.4383399588755
1.40130448679756,1.40255119683832,1.40240574699905,1.40207975845133,1.40295229552045,1.40233740119154,1.40340780213172,1.40444600931859,1.40383675620196,1.40563078094117,1.40399502203907,1.40547717132386,1.40418077547209,1.40613041554466,1.40471230018317,1.40610848946784,1.40575438197009,1.40838532733422,1.40799510589548,1.40933456773021,1.4081858146152,1.40971830635488,1.41119491176352,1.41235980938158,1.41126031800316,1.41130556115749,1.41054516073916,1.41002955579503,1.4104389784254,1.40914881172845,1.41010834366997,1.41490566465858,1.40993386634467,1.41023606770512,1.40989363630166,1.4091054078247,1.41012202733797,1.41185495964424,1.41021595746853,1.4129765665242,1.41038867194102,1.41290906606565,1.41036770233092,1.41208104378179,1.41049861740469,1.41264604378366,1.41057086364576,1.41218331365425,1.41072056237777,1.41303109253688,1.41125253261907,1.41256657480539,1.4119870198909,1.41251015771846,1.41272780953611,1.41323254866788,1.41364780231916,1.41224487254708,1.41417800349727,1.41252107400056,1.41466448034057,1.41276390942525,1.41508429518508,1.41309484246724,1.41533011780067,1.41355658413385,1.41553317791861,1.41404646011948,1.4158454156556,1.41494398956512,1.41628058965466,1.41648335864339,1.4167300182793,1.41649942349159,1.41677441657862,1.41620175849551,1.41690667337285,1.41676799911273,1.41697477212925,1.4198436461635,1.41961976537713,1.41888707582253,1.42865028870849,1.47574659434205,1.47502098396308,1.4762730459733,1.47475967737126,1.47564613347067,1.47415440869587,1.47435972462274,1.47342825107323,1.47466990966409,1.47354052392773,1.47461547383944,1.4739517519939,1.47564831805456,1.47531221782526,1.47646029614895,1.47603461391109,1.47754344547086,1.42839325074372,1.42694363033813,1.42401292176757,1.42454353475184,1.42382309778254,1.42406584292439,1.42446271542652,1.42434699133377,1.424229806325,1.42520885986687,1.42508521056301,1.42606487493804,1.42561526936444,1.42561872615329,1.42442154087223,1.42434642345162,1.42395199176521,1.42452177708875,1.42424896455655,1.42483175627165,1.42480894612891,1.42563208760824,1.42632703131069,1.42793309106245,1.42720501059976,1.42858096420751,1.42734898772992,1.42854890280429,1.4275141922409,1.42840203171514,1.42775807664806,1.4283064524691,1.4285014894749,1.42909438518802,1.42900383062503,1.42914679120453,1.42926571766703,1.42931739693435,1.43004823364788,1.43026353714092,1.43029256995441,1.4306588676905,1.43054155015739,1.43148942624959,1.43089958304888,1.43157485659695,1.43103598025769,1.43164036065917,1.43135883057944,1.4321203565815,1.43205966201885,1.43319310355202,1.43292456363798,1.43386899467281,1.43328537136467,1.433850421438,1.43352389169275,1.43405130164152,1.43404191473141,1.43416433496026,1.4343289779214,1.43425615960822,1.43469789704888,1.43497450048799,1.43497194393377,1.4376680574427,1.43564183878724,1.43559482592725,1.43549673575465,1.43591981299038,1.43583209817785,1.43664922256801,1.43635182018699,1.43735820718091,1.43722110857457,1.43841648289313
1.40212193632636,1.40192958102201,1.40273982000159,1.40368292929694,1.40325945942104,1.40442965294516,1.40388302169647,1.40378105829802,1.40468848718774,1.40475982462424,1.40537483179455,1.40384119918515,1.40522606274166,1.4039162091305,1.40580123447125,1.40540638565117,1.40637819684398,1.40744335463419,1.40821714219715,1.40764852884669,1.40812909426989,1.40776451024057,1.4113068561697,1.41118351030254,1.41136768080542,1.41119520001519,1.41133289409645,1.41155874473822,1.41089963980345,1.40752258988394,1.41029925579917,1.41072981136894,1.41031749844399,1.41069312078834,1.41034880390811,1.41005727251198,1.41093033267925,1.40991584027449,1.41159741269926,1.41014831315837,1.41174498283951,1.40995866031424,1.41162793301373,1.40997070832051,1.41156885685775,1.41005382968751,1.41156068078858,1.41008072353435,1.4116501159646,1.41026855433096,1.41182485833642,1.41053190930531,1.41197257500051,1.41137468855777,1.41218151092703,1.41245999641009,1.41259901784152,1.41364584765495,1.41294781567783,1.41425257761919,1.41346059020013,1.41531204194129,1.41370433117385,1.4147948289276,1.41379931099106,1.41520847656921,1.41429425732597,1.41582920487364,1.41478775328961,1.41561512577948,1.41522846307888,1.41558380605302,1.41597063926601,1.41697066971037,1.41637361921665,1.41688668975513,1.41640889631738,1.41703736068019,1.41650307724652,1.41678200696507,1.41622942010654,1.41652609337832,1.42388470207723,1.47616600949099,1.42774679565553,1.41774538481538,1.44452926438434,1.47306017119042,1.47335514797445,1.47369192797767,1.47434998164455,1.47545563601792,1.47471133809051,1.47507885968036,1.47485650485117,1.47573473985758,1.47507136987206,1.47980329308283,1.43113157919438,1.42203570355096,1.42195795671522,1.42230920062776,1.42252276311006,1.42297478607257,1.4233226928288,1.42649448642657,1.42551791697328,1.42715197833281,1.42378604687265,1.42257395370784,1.42270752637167,1.423152374103,1.42295235927516,1.42327692979877,1.42348481720007,1.42363155473528,1.42379953658003,1.42399647412608,1.42403802683612,1.42425501640045,1.42448578356028,1.42467248766971,1.42567951094007,1.42604468104331,1.42706554883647,1.42661344402923,1.42748762563545,1.42702476690921,1.4274908028209,1.42716692975587,1.42730684344868,1.43133841751065,1.42803703161155,1.42834907107671,1.4285557519714,1.4293083307978,1.42930194461504,1.43091923077295,1.43001145578797,1.43054075509282,1.42965676274096,1.4348396855869,1.42973407463386,1.43031318946211,1.43023876702057,1.43037033041314,1.43055058847644,1.43114785164236,1.43113207481169,1.43155255580503,1.43168732685825,1.43222825777709,1.43255930921813,1.43327153113145,1.43308707878534,1.43375348967709,1.43345976572162,1.43452057946399,1.43388254765695,1.434811655455,1.43391656855823,1.43448031748924,1.43401554991015,1.4348186832959,1.4343867196069,1.43522921029725,1.43481926950319,1.4350474471499,1.43480409251229,1.43525251336826,1.4351761498784,1.4355557010737,1.43576870734792,1.43642917276945,1.43657359482563,1.43746236868502
1.40180807273643,1.40276998580953,1.4029286628918,1.40298440081876,1.40354651323703,1.40351086952406,1.40397176758659,1.40416253623934,1.40458282688704,1.40538404177312,1.40512243087572,1.40531080516665,1.40504899411066,1.40531649945618,1.40557024847902,1.40617982759768,1.40645164159226,1.40714273925286,1.40955071830341,1.41118161946805,1.41168404684117,1.41130063666396,1.41084935163597,1.41071555713691,1.4106494591367,1.41077723464805,1.41094305228202,1.4112671405463,1.41146001343169,1.41093369815681,1.41099657982876,1.41076664374898,1.41056645940702,1.41063275334133,1.41062036332727,1.41080271704323,1.41083662172713,1.41147897482976,1.41104695587723,1.41171224474855,1.41097566146654,1.41170188185504,1.41085253807063,1.41156313578823,1.41084619146154,1.41160692001348,1.41094305034492,1.41150518677816,1.41094164139332,1.41163895115495,1.41107287587678,1.4118751626438,1.41145077038461,1.41216750033173,1.41204123180042,1.41259493331617,1.41271034807374,1.41308672050325,1.41315084347915,1.41331815220258,1.41353756773577,1.41377234213065,1.41383937480259,1.41381025218295,1.41407107262544,1.41411325014696,1.41450032469866,1.41443587640845,1.41500176703016,1.41491892071545,1.41538471897838,1.41512966914456,1.41589421492445,1.41592173653932,1.41631545049857,1.41588878211789,1.41636326975326,1.4160647849844,1.41635925377894,1.41605208480189,1.4160877342575,1.41620535840458,1.41647563256495,1.41709272598152,1.41742420955532,1.41793148988703,1.44463382046876,1.47577325579604,1.4763805054757,1.47628362657952,1.47699973063266,1.47710227309963,1.47729894984144,1.47725767026513,1.4774931829248,1.47795136346413,1.47575168284634,1.47558832818851,1.42894825351045,1.42175892546363,1.42189735396482,1.42256115567207,1.42255860166088,1.42295415403344,1.42313925185175,1.42386991239719,1.42452241661505,1.42435948508907,1.42350959374563,1.42307435817093,1.42248032516959,1.42283997373454,1.4226206164681,1.42326734186275,1.4231558437839,1.42370046638692,1.42354123981957,1.42409231209767,1.42379022740912,1.42422198133183,1.42402322240569,1.42456518432505,1.42458234782459,1.4267573394517,1.42694120275743,1.42739773196227,1.42713884007761,1.42725711875092,1.42703007416367,1.42753590320806,1.42730990526798,1.42738520552419,1.42763090527767,1.42781342961966,1.4280821955957,1.4290984986528,1.42917242698666,1.429487723901,1.42921149939762,1.42927105196029,1.42881665606483,1.42859702542096,1.42906453128801,1.42974447557999,1.429490302341,1.42946515137452,1.42968976219207,1.43030496311925,1.43041912106508,1.4308283484891,1.43079180556869,1.43129413300991,1.43160099269995,1.43225380868036,1.43216938997524,1.43260912309488,1.43262056747082,1.43313698783779,1.43319528844029,1.43360018039658,1.4334210389079,1.4335705339191,1.43354632318425,1.43372956363087,1.43377731997344,1.43440212139963,1.4341771034996,1.43428039664822,1.43425019839854,1.43456958203993,1.43457152488204,1.43498521780813,1.43505655584772,1.43560518558261,1.43568905046714,1.43622432711567
1.40200664683776,1.40337962355224,1.40293785595781,1.40396182416444,1.40298662902375,1.40412102066545,1.40358741829367,1.4043181923123,1.40477517089229,1.40519609923443,1.40575499198763,1.40604687012064,1.40567007358435,1.40497352179784,1.40614718763673,1.41041488688786,1.4067060665754,1.40671044721223,1.41562177472521,1.45690685421537,1.46602311479051,1.46644897191444,1.46958316505683,1.47037689168658,1.46981985712476,1.47483005515527,1.46751206278998,1.45816242933386,1.42078558704634,1.41081845436551,1.41213901341154,1.41419374162629,1.412823422044,1.40847888933589,1.41082440704512,1.41093665164956,1.41151521650521,1.41134603214893,1.4117528836116,1.41053533396841,1.41185072240124,1.41025654885926,1.41185958868916,1.40984226469979,1.41184225257191,1.41025282961188,1.41174694446796,1.41102965315929,1.41161551291539,1.40995347940709,1.41197304363695,1.41046821734539,1.41235007128907,1.41101188497742,1.41269249616439,1.41251010758833,1.41316433333876,1.41317198989057,1.4134207080102,1.41313107214492,1.41359640684141,1.41294206143901,1.4139106229923,1.41337813832561,1.41413600278276,1.41401399723005,1.41428774965955,1.41475399578348,1.41458253130743,1.41588608300044,1.41482155792273,1.41636587989741,1.41513024842602,1.41695861618712,1.41560261974112,1.41677998106674,1.41557940421132,1.41699703223225,1.41578407215596,1.41665105291577,1.41596818576474,1.41622286994794,1.41695615407869,1.41763506160006,1.41787387901468,1.41886843126056,1.4447581020535,1.47508170678126,1.47649247963851,1.47553557625713,1.47690112205774,1.47500811818262,1.47721033199141,1.47645208204029,1.47784749098625,1.47700018927862,1.47586409068912,1.47579700056335,1.42568020419889,1.42198366463096,1.42168418766081,1.42362455529452,1.42304286792167,1.42286919528831,1.42327513135899,1.42386472465682,1.42478774820727,1.42530379195852,1.42340312283628,1.42268546386605,1.42294243950264,1.42183062464276,1.4230251821693,1.42276867187911,1.42364957963272,1.42308997071759,1.42418211777144,1.42371186820723,1.42443583145935,1.42339956261092,1.42448706635694,1.42349385511326,1.42436876258974,1.42782744455124,1.42755654433327,1.42805998714372,1.4274947234734,1.42714409761914,1.42699620657713,1.42844990691519,1.42792501059185,1.42842954935443,1.42766927371547,1.42770923308844,1.42743140101141,1.43056715416466,1.42933275169516,1.42904890314131,1.42906397873996,1.42855068498198,1.428836717997,1.42909764589175,1.42926982645626,1.43095363220484,1.42980489884981,1.43518243613309,1.42984248089113,1.43062422091215,1.43042385409235,1.43087610415478,1.43054087792638,1.43569188678037,1.4314858555593,1.43225544563741,1.43205042859231,1.43227736129974,1.4325859900261,1.43306538597177,1.43326486504104,1.43398566172797,1.43359712836636,1.43417279009622,1.43371643483269,1.43417065595167,1.43338252823174,1.43752780260179,1.43404711669204,1.4346780627341,1.43448810460441,1.43527506792446,1.43489154968768,1.43572861891434,1.43532316036981,1.43620651654378,1.43586224934546,1.43686750066915
1.40159516470578,1.40198770757859,1.40301279232652,1.40217247652591,1.40386875197804,1.40264455671198,1.40428040461145,1.40374748653399,1.40503647593716,1.40564340297264,1.40550945630064,1.40590426306823,1.40566137264806,1.40563164586604,1.40665596834124,1.40710756188071,1.4072506650437,1.40803257086988,1.42067985112058,1.47225111254341,1.46959873832164,1.47080684191155,1.47039721620279,1.47188523746564,1.47073832172935,1.47236505997609,1.46810891010387,1.45933693814319,1.45903479612858,1.45953953344585,1.42330645164118,1.41505394845478,1.41308384898605,1.41238047211747,1.4126947080036,1.41263328575657,1.41187835313013,1.4121516264002,1.41110311800663,1.41189332815694,1.4108628294597,1.41349818525469,1.41093941725768,1.4127580962175,1.41097414438853,1.41339214936822,1.41129528150346,1.41402831269874,1.41104538503859,1.41329049694236,1.41098450172187,1.41361116745195,1.41129605341619,1.41370745266897,1.41133150676889,1.41277874572558,1.4115787291059,1.41331736577948,1.41195867503479,1.41306977235001,1.41227555967822,1.41439039950389,1.41275565299012,1.41465480635923,1.41316552790697,1.41460617777673,1.41385367934744,1.41408486590975,1.41459445724824,1.4136717937205,1.4151565092562,1.41334709171918,1.41528590515769,1.41654967105782,1.41655133841611,1.41465998935792,1.41644300665216,1.41585074811245,1.41659068238113,1.41561229724151,1.41628780415807,1.41644547631989,1.41653800850275,1.41788679292572,1.41725943314166,1.47345001105635,1.44482929315003,1.47545523497778,1.47726913334949,1.47573311643948,1.42675452584992,1.41950678742479,1.42700440561579,1.47612616214693,1.4774575518238,1.47579150282619,1.42784407459738,1.42092402566027,1.42130932512508,1.42078810048748,1.42129183348794,1.42070365006469,1.42103205334857,1.42113716542403,1.42281841090432,1.42436673693367,1.42283480212247,1.42255716438766,1.42168557426221,1.42315764945614,1.42183859939095,1.42357521566659,1.42226407339516,1.42389851097226,1.42281686075214,1.42494908752089,1.42330267323057,1.42540463138982,1.42341529661194,1.42537938633092,1.42341189661191,1.42576490838446,1.42367268077241,1.42498009247307,1.42401782997775,1.42507020142032,1.42446127426188,1.42554147193533,1.4267891176338,1.42755992785119,1.42807670219062,1.42782901578065,1.42785713510094,1.42764331138779,1.42761732190346,1.42832798374443,1.42830222893845,1.42913470597633,1.42844994101803,1.42966900754536,1.42862736032652,1.4291600583372,1.42915770573661,1.42972077429151,1.42993519316147,1.43113945812951,1.43025817292753,1.43041090609327,1.4304843569757,1.4313837944573,1.43082824995651,1.43125834899653,1.43117931474985,1.43636185599057,1.43185205567881,1.43289305486968,1.43237495079914,1.43313092255039,1.4330594407288,1.4338733942784,1.43347642730605,1.43421408651828,1.43395747279732,1.43397280520621,1.43366971211918,1.43438103931742,1.43424122787712,1.43482056275842,1.43466552719056,1.43504407318353,1.43500886179745,1.43546421916845,1.43533921826544,1.43581342017372,1.43580884208798,1.43649725336022
1.40235438960945,1.40260512502451,1.40247688168934,1.40413038974218,1.40274018730259,1.40439380005255,1.40424460155875,1.40495395214023,1.40504175361887,1.40543809773746,1.40564824886219,1.40566266526186,1.40620980954568,1.40705269046812,1.41723108456529,1.46576010335499,1.46359451860685,1.46882782339691,1.46761790120927,1.46793440488779,1.46778281595086,1.47217989362698,1.47039211516539,1.4713006074658,1.47050789311974,1.47089233075885,1.46800560154415,1.46861887470859,1.46781354297411,1.46030669565076,1.46635513097439,1.46728914953739,1.46713151859162,1.46825343643899,1.46643693797468,1.46366040842934,1.4218373532225,1.41111076052329,1.41168779921174,1.41114442471588,1.41217963299906,1.41035369467102,1.41243369014505,1.41231602085204,1.41224821843237,1.40986028435805,1.41200507495082,1.41053529514833,1.41209801084112,1.40997027478564,1.4123609763144,1.40961932716287,1.41228111345908,1.40975026726144,1.41241791964368,1.40938108651599,1.41255772832474,1.41050614393658,1.41283471610241,1.41074166752251,1.41311063994024,1.41100919020264,1.41345280749907,1.4113273396348,1.41380967726341,1.41250962866605,1.41412821218821,1.41406840287334,1.41408208410036,1.41537655510976,1.41386211969261,1.4160826867974,1.41420171984592,1.41617842497626,1.41472920622177,1.41672127461628,1.41462965625861,1.41590843139324,1.41504689864853,1.41701614319261,1.41584879645568,1.41580552978993,1.41682725038111,1.41599239583047,1.41745866462309,1.41727135109507,1.41748213400529,1.41689509750809,1.41753626920717,1.41714281831529,1.41812557339028,1.41870353489524,1.41873853275128,1.41931997924439,1.42019375133725,1.42213986384296,1.4215382927447,1.42131193384893,1.42025751439555,1.42219320762526,1.42024982784315,1.42195026466488,1.42058231131747,1.42182670273336,1.42227868195063,1.42371217395278,1.42276621416731,1.42105968941713,1.42197554032925,1.42077386126205,1.42237327111859,1.4214020274393,1.42258588780064,1.42154575891076,1.42322273985674,1.42232067527809,1.42396552401882,1.42275784358431,1.42429288412022,1.42210602938195,1.42455190339085,1.42239321672994,1.42462630429007,1.4227396476444,1.42463383827226,1.42315660886388,1.42492206733511,1.42479612629832,1.42604664907949,1.4290534788148,1.42834113910283,1.42810894389763,1.42731485035061,1.42780704887181,1.42724976832242,1.43162299257841,1.42823827382894,1.42778174414904,1.42897172534361,1.42833755542543,1.42916220811831,1.42879292055752,1.42925875144346,1.4293375655399,1.42957231490609,1.42975270509429,1.42994233452914,1.43057792726344,1.43009602247426,1.43435548654166,1.43074568600039,1.43116097131276,1.4311355960221,1.43126273631634,1.43141789219021,1.43170095847731,1.43233175208375,1.43328214327413,1.43317427425333,1.43346282344791,1.43318779881569,1.4338687202608,1.43415758691672,1.43283171359379,1.43318607608956,1.43360041720236,1.43403782469907,1.43473753750986,1.43473098996599,1.43549698878453,1.43498755256467,1.43543617265523,1.43504895688992,1.43538931326864,1.4352784804938,1.43580581936321
1.40142589577684,1.40131458858159,1.40320070451673,1.40184090838562,1.40340383054778,1.40219001465662,1.40499926400614,1.40737704630923,1.41408556673762,1.46393448293277,1.41811562310443,1.40782380647855,1.41824700958731,1.46449344773917,1.46376778154036,1.46435280762822,1.46349474660738,1.46423988159198,1.46707546001661,1.4680354892089,1.46761301004693,1.46835148597574,1.46901187343995,1.47046167460434,1.46988676099753,1.47156984867657,1.46735026992747,1.46679207187722,1.46758026317266,1.47252230950023,1.46663673772215,1.46837740918301,1.46771557438452,1.46868613001035,1.46687834399024,1.46836029876332,1.46432070715144,1.46545519186195,1.41961180216022,1.41134710742536,1.41095082865815,1.41212764884809,1.41074526831105,1.41126313654054,1.41089835015099,1.41332409337735,1.41076706919833,1.41267314910132,1.41095359186447,1.41351013463633,1.41098097757521,1.41331119381456,1.41060104853261,1.41359164532836,1.41073052109287,1.41358808548606,1.41119291765133,1.41267451023848,1.41162244474552,1.41355526659644,1.41155664268198,1.41414628597307,1.41175425368595,1.4144281973134,1.41207078435111,1.41414608264525,1.41315700451953,1.41472925412195,1.41423324047187,1.41376042216891,1.41486071136833,1.41265234819203,1.41543757189493,1.413172436482,1.41583981899731,1.41330268773641,1.41566447373045,1.41315929092068,1.41586246749053,1.41436516575468,1.41597589643269,1.41640973598612,1.41600760936033,1.41789992711183,1.4164863480042,1.41786632545786,1.41685208465282,1.41799209647754,1.41705964923774,1.41856896785482,1.41750003458184,1.41797790890196,1.41841779409169,1.41809665003763,1.41892583766198,1.41856821304631,1.41951594777269,1.41892894980107,1.42078286138831,1.41912179777783,1.4210982688884,1.41945841517056,1.42075237606937,1.41945509541063,1.42024939549539,1.42044040033171,1.42058559380656,1.42177832415793,1.42089952464343,1.42212907882959,1.42108830751128,1.42183105920395,1.4214216293213,1.42271999989853,1.42181803111992,1.42337475982336,1.42201966498434,1.42377585461333,1.42241159550849,1.42529629272987,1.42314229814273,1.42630665100786,1.42338680630246,1.42531313524712,1.42330939373916,1.42601161489732,1.42381814693982,1.4267432067047,1.42559425918391,1.42560578929873,1.42546364970034,1.42563359052801,1.42692566740252,1.4267596080409,1.42733282471102,1.42804534652609,1.42775100940801,1.42921459136208,1.42800454721503,1.4293762070291,1.42853672686463,1.42963898541777,1.4290850311804,1.42929479561177,1.42969019305177,1.43019134419147,1.43006407717398,1.42959033603076,1.43019102494693,1.43040959688499,1.43096344627521,1.43160615861059,1.43129506079901,1.43134760756897,1.4312314305945,1.43183728526627,1.43158214050996,1.43164405489606,1.43170299020446,1.43205891679416,1.43215772998903,1.43682749184503,1.43519943674689,1.4361347192786,1.43329721539392,1.43392140242541,1.43383828224063,1.43460146916947,1.43421419461482,1.43437330261083,1.43444330497457,1.43453747137893,1.4347345466997,1.43479305415888,1.43499310269265,1.43491067970516
1.40212801414238,1.40247397787196,1.40247959579163,1.40365879039286,1.402896457724,1.40338005555436,1.40512271216958,1.40512203913881,1.41970726851275,1.46361909407731,1.46241073277659,1.46311107213858,1.46262336791161,1.46926294431859,1.46562145952096,1.46412874870194,1.46545030083549,1.46831550038349,1.46747489048123,1.46804130237411,1.46782197772969,1.46863293275768,1.46831229343759,1.46887118114714,1.46860270568472,1.46903016349014,1.46797409693188,1.46884088745588,1.46894053884788,1.46980202463714,1.46631177565191,1.46779053019866,1.46753202822528,1.46806152750971,1.46556333717269,1.46555875125167,1.46478757468179,1.4654743860539,1.42482930817075,1.41223976158522,1.41185258201119,1.41055143019573,1.4117909235657,1.41051403234788,1.41200473731023,1.41001179123275,1.41201272059411,1.40950424071379,1.41184168501267,1.40989211255643,1.41191462749162,1.4094390301923,1.41225148137319,1.40983700832637,1.41280925475203,1.4104470649034,1.41256111717556,1.41425221689473,1.41292866206684,1.41083532185619,1.4131450943177,1.41036084310573,1.41315231607064,1.41052054106737,1.41340931629524,1.41104351919189,1.41389896611385,1.41299639664142,1.41434092106219,1.41497439199621,1.41412473393214,1.41555405637963,1.41405824245932,1.41687094079377,1.41423163407542,1.41659284189703,1.41408463594657,1.41655658503296,1.4144711177113,1.41673821039305,1.41555015492232,1.41580631435007,1.41650831922733,1.41503355320375,1.41716400060106,1.41588204763335,1.41787034792368,1.41677159986592,1.41811906336036,1.41622180377108,1.41792600665649,1.41731202973293,1.41801569739264,1.41961779096022,1.41805146213328,1.41989585104443,1.41796137064455,1.42055542776437,1.41840171858775,1.42082499543295,1.41879912503444,1.42079205675638,1.41922004010212,1.42141156041549,1.41989304003637,1.42120868921454,1.42055725010863,1.42043692996971,1.42098569303691,1.42050735608117,1.42137859866386,1.42153203428339,1.4217438506911,1.42140125149656,1.42211287360461,1.42117511627754,1.42261161087944,1.42088474583641,1.42332919569864,1.4215837924286,1.42412146439537,1.42307488816387,1.4242447946809,1.42307925902352,1.42414082871476,1.42238463259865,1.42454824139336,1.42381190254863,1.4249907456166,1.42492641412652,1.42510623263495,1.42570442428316,1.42661579375159,1.42751181262455,1.4268440491178,1.42653243263872,1.42791598788599,1.42710904704487,1.42854890522085,1.42769078688236,1.42907071267021,1.42878424486905,1.42952634297492,1.42971887248387,1.42977383476867,1.43015038483936,1.42982826768027,1.42993492003235,1.43011640815742,1.43097915805389,1.43104772447694,1.43193307054775,1.43136607713365,1.43127708652094,1.43123823990134,1.4309770852785,1.43139995823916,1.43119884730691,1.43162474249904,1.43173971785273,1.43171914984128,1.43190353348513,1.43181347264311,1.43239959758349,1.4323040142454,1.43293506384471,1.43333781546369,1.43349270591182,1.43386933129256,1.43392602536223,1.43429442180789,1.43460344166968,1.43462690563211,1.43477038735002,1.43484280977804,1.43508454901483
1.40230381657529,1.40259137699108,1.40330535084091,1.40325393472626,1.4040785318581,1.40457240977917,1.41289081538854,1.46485548992771,1.46240399638337,1.4628514614166,1.46163929370849,1.46609771018253,1.46399406785794,1.46915525562087,1.46682382981879,1.46796153757852,1.466407295375,1.46879614974486,1.4677942140093,1.46900223083896,1.46818609092708,1.46905812675872,1.46799628525866,1.46806878074213,1.46803829246533,1.46875908349536,1.46782854320852,1.47234662946803,1.47074882006866,1.47211688590751,1.46554680033141,1.46613822255911,1.46518736430366,1.46501898529505,1.46460629509501,1.46516234461869,1.46453437002872,1.46510553843326,1.46464585937064,1.46543175350631,1.42201640062869,1.41197123972819,1.41144224594231,1.4120101903471,1.41142493427133,1.4128690031785,1.41091216494975,1.41242633955179,1.41040026935688,1.41206580100913,1.41035637361153,1.41251269040566,1.41067795382086,1.4125699028771,1.41106880568859,1.41423744669305,1.41164071758255,1.4140447237573,1.41220738841962,1.41482305720125,1.41172756418491,1.41420807042427,1.41139288493555,1.41421417649934,1.41159013438094,1.41442157726256,1.41216392436212,1.41422582865282,1.41303113378353,1.41397991107336,1.41400025019797,1.41507832286848,1.41490873060661,1.41310799532964,1.41530678321728,1.41370777225265,1.415518347562,1.41299241606283,1.41565380667815,1.41429528729271,1.41586701785759,1.41622495404703,1.41567322662367,1.41738042913876,1.41581654753076,1.41823811123609,1.41629809822907,1.41885180947203,1.41645170694761,1.41854083497811,1.41679174924545,1.41767039178749,1.41780124444226,1.41838753962965,1.41910503254159,1.41711785599477,1.41931175149036,1.41683687911764,1.4197014481473,1.41785682259943,1.42011476334463,1.41780368700093,1.42037457128624,1.41828843529676,1.4202952519172,1.41946628868086,1.4204283856047,1.42038221277523,1.42060881162502,1.4207614887239,1.42092880188253,1.42083000454093,1.42128869734673,1.42118530491065,1.42150825178976,1.42209162085754,1.42174446328823,1.42337808969025,1.42209871376675,1.42414191264424,1.42230596852711,1.4239375844476,1.42274329154165,1.42796707083522,1.42279930752153,1.424676407536,1.42342076642845,1.42576590454848,1.42439133600935,1.4251041188106,1.42575566700521,1.42530234145119,1.42666917360802,1.42625904946473,1.42702558931607,1.42756137403842,1.42743761985624,1.42829588976204,1.42817509505126,1.42890936035275,1.42896698850073,1.42996338423045,1.42961273880269,1.43002378718498,1.43003821389349,1.43046977896041,1.43062712858104,1.43056655782065,1.43079997772424,1.43126893210431,1.43092641755421,1.43079525966974,1.43123248512802,1.43187547846226,1.43125960930653,1.43118778353383,1.43135739893999,1.43243480175621,1.43169366271046,1.43174162711574,1.43156705672672,1.43159598665182,1.43153683388692,1.4315503625849,1.43189123447608,1.43246983014811,1.43271230253313,1.43353179981857,1.43329756903845,1.43392947885608,1.43389980393665,1.43472918161417,1.43451946071152,1.43524607618561,1.43494713245061,1.43571248365065
1.404551090782,1.40425792501996,1.40439218997998,1.40475989785793,1.40499908680975,1.40544842706747,1.41831143265734,1.46161455675214,1.46184596161668,1.46232108641926,1.46165674888151,1.46262621581076,1.46220939981499,1.46351764814297,1.4645381643862,1.46641674271119,1.46605424494466,1.46656065683815,1.46702324064404,1.468563118205,1.46797554559208,1.46901771128189,1.46799752217237,1.46872067819091,1.46810347372764,1.46881035084768,1.46836051081104,1.46933090697616,1.46838923277181,1.46387828065856,1.46312408760571,1.46428478532427,1.46325076420391,1.46453727521116,1.46395490383339,1.46498003566491,1.46416649578343,1.46496412316698,1.46453084004884,1.46561483674807,1.46504665367624,1.46611786229418,1.41898766387437,1.41289691323221,1.41247005622773,1.41117481376093,1.41227403600607,1.41080492219533,1.41228024891031,1.41064368740345,1.41218564766843,1.41019224935068,1.41175767372219,1.41347394190981,1.41234666454242,1.40971485590887,1.41251036968958,1.41072871201565,1.41292473252992,1.41072232006951,1.41298498753531,1.41006967804063,1.41281363147891,1.40998219865161,1.41312042247714,1.41060775966876,1.41366224868731,1.41171238699785,1.41358275586628,1.41192933516029,1.41283456004706,1.41302784146881,1.41321969797912,1.41452977243182,1.41346368823881,1.41547818077192,1.4135660235683,1.41605506776546,1.41398814233209,1.41613024391453,1.41489766353904,1.41548874972311,1.41577323732441,1.41489286355545,1.4164934031137,1.41534324570183,1.41731038112682,1.41575551114546,1.41746737748349,1.4150959283369,1.41712813145599,1.41675608255302,1.41722454275077,1.41838582075832,1.41703370402763,1.41884464427551,1.41767936302623,1.42031512065176,1.41874690291183,1.42150886319746,1.41914733240281,1.42110237720495,1.41883553502772,1.42083007841879,1.41908712012164,1.4205562157759,1.4197102291089,1.42075706653284,1.42009640952751,1.4207601580475,1.42030873201301,1.42124208032133,1.42083205700095,1.42197407155183,1.42136239557635,1.42161135042383,1.42174876100709,1.42122632177795,1.42228351540354,1.42130633874073,1.42280328317955,1.42123857050427,1.42269179074138,1.42212430213003,1.42296032083968,1.42158449723182,1.42396759106584,1.42329871563338,1.4241377867055,1.42753298808454,1.4264307595234,1.42731442944382,1.42634485012967,1.42711572718491,1.42714547366465,1.42777805249545,1.42816737196228,1.42819221214793,1.42895489459306,1.42991941398057,1.42960572705547,1.42965544380829,1.4298460508603,1.42962927126353,1.42982757590898,1.43152539122004,1.43062150392804,1.43134314405906,1.43022911938827,1.42996092500545,1.43007703527534,1.43060866467892,1.43063519607918,1.43136676155972,1.43097748744725,1.4311535009568,1.43092969259812,1.43118883314852,1.43119810742671,1.43176058235301,1.43123610342851,1.43142251662103,1.43113383302897,1.43147750048436,1.43158528556463,1.43181742091255,1.43227622765349,1.4324157529832,1.43300114909624,1.43322258185383,1.43372118246545,1.43421558172604,1.43399355576043,1.4339829279041,1.43404052305457,1.4342414841729
1.40418914321775,1.40413096917334,1.4146047395698,1.4579404263004,1.45739109691279,1.45867795085364,1.45683622198021,1.46451525794971,1.46156331319507,1.46221301818318,1.46169063184721,1.4641941141393,1.46244972052148,1.4635472513012,1.46305396076864,1.4649052017466,1.4657254559634,1.46705600361969,1.46654389208664,1.46816114218333,1.46731720892739,1.46822839567055,1.46754655982652,1.46846352513544,1.46799487658977,1.46916591886892,1.46858974594562,1.47009579020929,1.46802557005233,1.46357189397802,1.46232297179807,1.46360293464148,1.46243927594857,1.46379458447382,1.46314668198813,1.46433168986714,1.4636458072194,1.46466024924496,1.46409719267955,1.46509747288976,1.46470194701441,1.46590795173579,1.42309894335619,1.41213493738568,1.41213281209242,1.41282962071304,1.41196823108073,1.41324069210455,1.41165859472849,1.41333383023147,1.41105070302648,1.41253528644811,1.41089891744445,1.41198740740546,1.41098241364149,1.41326303770563,1.41091624500854,1.41304216569079,1.41133466543943,1.41389255331919,1.41142535886256,1.41342855558943,1.41137728849984,1.41420270214573,1.41168888002679,1.41443888676431,1.41217887776663,1.41439565164359,1.41225515098969,1.4135531201621,1.41214721894112,1.41261601389074,1.41265692834872,1.4164736763645,1.41391873319537,1.41273916989501,1.41454458767179,1.41263847709518,1.41478709869907,1.41335330035083,1.41508449132121,1.41494971100495,1.4148735880059,1.41532170399494,1.41473855765878,1.41605133293136,1.41516173300238,1.41694538619318,1.41557832633413,1.4174457458453,1.41612645484108,1.41688880703494,1.41744756401668,1.41609674747062,1.41789510347511,1.4157005432316,1.41829341280386,1.41720622245883,1.41891782160481,1.41818461281058,1.41930025927351,1.41777505158442,1.41955317058573,1.41805299171154,1.41967829147337,1.41886480826687,1.41981377531641,1.41921722185373,1.41994985284472,1.41943444827423,1.42030959947453,1.41966192818954,1.42067869419003,1.42002779689496,1.42113683791789,1.42157779176636,1.42145076781328,1.42192179417467,1.42146669574997,1.42262952006392,1.42159398365726,1.42293452527464,1.42172994748353,1.42289959842037,1.4219961092046,1.42388803574631,1.42303533483283,1.42426189921835,1.42371514276593,1.42716093636385,1.42640031084033,1.42570414313498,1.42646399445517,1.42769953843814,1.42765246427486,1.4282958985323,1.42819098146157,1.42865249633162,1.43148921326871,1.43488865812053,1.43298590954655,1.43171601312199,1.43035570247627,1.42943015542353,1.42983389768204,1.42978883497179,1.43023956464337,1.43038905920633,1.43027594230938,1.42983460701445,1.42995032274684,1.42961686950096,1.43027700301492,1.43091284701072,1.43068931188979,1.43060490636196,1.43049364763971,1.43035905282985,1.43078130632703,1.43098205401735,1.43101026589987,1.43091110332373,1.4309799290026,1.43113155932773,1.43154173786186,1.4318133807235,1.43180612462046,1.4326387449251,1.43227732558515,1.43317401869721,1.43283030457103,1.43342940908321,1.43308566737225,1.43355864592496,1.4333069371958,1.43379402432641
1.45468101232327,1.45496968577661,1.45513856239301,1.45691697478571,1.45649392102371,1.45864598818977,1.4572138175296,1.45890748606616,1.4603578643725,1.46241046965415,1.46078613141567,1.46181166702197,1.46059574246796,1.46172908688705,1.46184806962064,1.46354823248943,1.46531982392488,1.46665330500391,1.46561977458224,1.46617822542823,1.46621215311753,1.4679663362079,1.46684291938142,1.46813040176345,1.46739204454312,1.46881073500897,1.46751851118054,1.46211734658381,1.46071860114744,1.46210011291552,1.46107991477864,1.46218818666792,1.46120681114103,1.46257786515614,1.46170249523356,1.4635931334562,1.46237720197032,1.46440109398157,1.4632098978852,1.46470296717732,1.46416117328688,1.46649089241288,1.46848953924805,1.46778687136052,1.41922430628989,1.41210637924357,1.41226261033134,1.41165602695368,1.41219569000782,1.41121013647964,1.41184190200819,1.41050528027017,1.41161476385229,1.41012217092552,1.41172418328014,1.41008812920173,1.41202046579288,1.41064171070261,1.4122151104493,1.41065282177351,1.41231612064149,1.41091872631124,1.41254274762482,1.41107561277127,1.41267033443573,1.41088975811411,1.41259157342788,1.41140395914759,1.41244519749047,1.41094187750996,1.41231985727456,1.41181886741368,1.41244758756286,1.41281048689597,1.41294404398964,1.41402377083645,1.41323177078913,1.41452930821668,1.41370121164212,1.41512738852406,1.41436393604011,1.41506824867357,1.41476221015021,1.41432067708477,1.41515620401778,1.41453122694687,1.41562146467245,1.41461117685556,1.41580230824841,1.41507979427812,1.41582894921397,1.41885566544483,1.41716689767142,1.41808209298206,1.41668557894763,1.41812507615548,1.41691159002036,1.41889463850237,1.41769123827982,1.41916186109328,1.41838672528797,1.42007630845915,1.41856227382023,1.4194281137468,1.4187198977341,1.41961595580944,1.4190309674681,1.41956058946292,1.41921478074049,1.41968324086075,1.41956829799463,1.42051043347685,1.41994487977414,1.42049131444316,1.42013276385709,1.42073252887483,1.42067465408037,1.42094137850966,1.42108342358478,1.42078676621533,1.42134275522258,1.42081718940628,1.42172627024847,1.4213773819918,1.42233101028395,1.42196504052644,1.42336157305683,1.4238661965117,1.42387957446947,1.42425730075551,1.4252063327816,1.42602452592191,1.42579408276663,1.42781829676334,1.42735212215458,1.42708839162248,1.43316485796711,1.47262107433685,1.47321576578556,1.47228374440684,1.47295509396171,1.47266102309442,1.4354228610128,1.43075734466264,1.43043139622149,1.43088124917242,1.43007744277353,1.43081732394227,1.42997209005933,1.43043926536114,1.42960429380913,1.42974347603534,1.42956791043274,1.43183234361668,1.43016438156903,1.4299769661814,1.43006968133248,1.43108219569093,1.43049812702226,1.43116225516744,1.4306782355217,1.43135236654202,1.43059996931958,1.43355752896975,1.43179859605815,1.43215220052273,1.43147750040587,1.43124551990023,1.43173316620639,1.43224660884534,1.4323861287664,1.43280421409799,1.43227019084818,1.43180248147905,1.43218420230744,1.432848539089
1.45457963186518,1.45466401538333,1.45491720220147,1.45528001388699,1.45538234775509,1.45670084421991,1.45639462124208,1.45716807018353,1.45870595118268,1.45932264486523,1.45931027032213,1.45980764632059,1.45938477926393,1.45995798620295,1.46050723879282,1.46135541301172,1.46521288601727,1.46563386758143,1.46508286608945,1.46543629477781,1.46553843819238,1.46627755707342,1.46611325426764,1.46667970070547,1.46656500093456,1.46671186903696,1.46665187255113,1.46020152972117,1.45951972876384,1.46008761709526,1.45934295691468,1.45999606911384,1.45939641411332,1.4601911777727,1.45997265084058,1.46106290775397,1.46093493994582,1.46193663000673,1.4621234701141,1.46300245365025,1.46350151176503,1.46529413475343,1.46808075843217,1.46847587444107,1.42441881593674,1.42366775940299,1.42042118143954,1.41790555083265,1.4151636994776,1.41160824073343,1.41130803798554,1.41162242594434,1.41129557980148,1.41176502723815,1.41125934750122,1.41196176354689,1.41129540925137,1.41212739519742,1.41145404963964,1.4123232925025,1.41156169777269,1.41232214897435,1.41165128352971,1.41239754426735,1.41173689994534,1.41246748471555,1.41172528527174,1.41226530503973,1.41170166650474,1.41227040749468,1.41187347932474,1.41244524942604,1.41219781753309,1.41269805776199,1.41280268518663,1.41311443289608,1.41337765814287,1.41351591948227,1.41390354940169,1.41402245861461,1.4143805955096,1.41434745273229,1.4145926380854,1.41463968134503,1.41475056835796,1.41492935995347,1.41496075647244,1.41510634806275,1.4152560185619,1.41537939231496,1.41569901435629,1.41577982963181,1.41671526733767,1.41639855009438,1.4169820029478,1.41660637851865,1.41727035514365,1.41720937682136,1.41776462353753,1.4178705011869,1.41821823831609,1.41851170593677,1.41845915092717,1.41868081814588,1.41858399002529,1.41882701180384,1.41887553362035,1.41902750763475,1.41918878290958,1.41946560474586,1.41962360936585,1.41984369817912,1.42024612613028,1.42008770404744,1.4203151771642,1.4200976679167,1.42062179580979,1.42066027379895,1.42083627664805,1.42089604122132,1.42095283213666,1.42120704637818,1.42133871060476,1.42178984630502,1.42194103952994,1.42285765764929,1.42305381118871,1.42357982767674,1.42335348231099,1.42377866213962,1.42442812097751,1.42493327512916,1.42531625633628,1.42718450185443,1.43250844245997,1.4355259567484,1.4367468280938,1.47243658561584,1.47241290848389,1.47277553444377,1.47226383819207,1.47237110789933,1.44066329247598,1.43890343807411,1.43599254615688,1.42972832248747,1.42952553250587,1.42984390549815,1.42977869506725,1.42991344731086,1.42959893845414,1.42921642548139,1.42925441244059,1.42938408726018,1.42961386398896,1.42959239938314,1.42969218965254,1.42990597658832,1.43001249369677,1.43016774738604,1.43029678011756,1.43044293443175,1.43024972550722,1.43014554498037,1.43080120280798,1.43119009667262,1.43097743965381,1.43108007078161,1.43108330966628,1.43151967234973,1.43154505914538,1.43194886309467,1.43161356918163,1.43162324283396,1.43152600189623,1.43178855337094
1.45468671203523,1.45523013409744,1.45498534862171,1.45601466083468,1.45551805960875,1.45682236188466,1.45657297722741,1.45777043557103,1.45734046502319,1.45892195768089,1.46001894437134,1.46117480451501,1.46029469135127,1.46178635165636,1.46120146684554,1.46272343541675,1.46616626247126,1.4674100177837,1.46629365721564,1.46762056274133,1.4668235143685,1.46815913740702,1.46724701035214,1.46838807941958,1.46751920492524,1.46226031248284,1.46132893673588,1.4615820654174,1.46091712356866,1.46214218856728,1.46070278843955,1.46205402918069,1.46071739812504,1.46215216220053,1.46119122165229,1.46282102904329,1.46204813450756,1.46341427494793,1.46299811383768,1.46440556950238,1.46408467063876,1.46480059846091,1.46658737363857,1.46674324429184,1.46601985705296,1.46654671353654,1.46666726404004,1.46845598510125,1.41922876910154,1.41108683899704,1.41147586335675,1.41138702998855,1.41199093640402,1.41148275055121,1.41209653231822,1.41132998074582,1.41210961722181,1.41063338752738,1.41241938616908,1.41170264119672,1.41253954716762,1.41081739891061,1.4123518595526,1.41094551083267,1.41243398469073,1.4113327893895,1.41252085233133,1.41085341991027,1.41256143955556,1.41147092454716,1.41272148033827,1.4115447408694,1.41279772061144,1.41156651012763,1.41310542795178,1.41235710505553,1.41361623263486,1.41306924387094,1.41396507966092,1.41408971044348,1.41413495256052,1.41483026970707,1.41428008616374,1.41515476704344,1.41445845666944,1.41542974867704,1.41459862748551,1.41552955105877,1.41493514007773,1.41625345986208,1.41541778854136,1.41697622474576,1.41591320898132,1.41748156250658,1.41619891610203,1.41767349435638,1.41675314902346,1.41759942261352,1.41749347995628,1.41711221374498,1.4181939567747,1.41745992563348,1.41872985752767,1.41815252629377,1.41875860143979,1.41867330403546,1.41880920981196,1.41911092679502,1.41920094061668,1.41992269108056,1.41963040648631,1.42250571353414,1.42042051970089,1.42074105078772,1.41992387368757,1.4212549930784,1.42016798956071,1.42146147849379,1.42065411200977,1.42137498032594,1.42104080053791,1.42145978176931,1.42144911837887,1.42217351759191,1.42188824695674,1.42373742762,1.42340248058721,1.42368663873534,1.42324075121695,1.42793808501207,1.42419887845825,1.42467097797131,1.42517381320043,1.4273207704756,1.43307507035619,1.47049060898316,1.46964082674767,1.4706257517085,1.4705481003629,1.47121576544374,1.47036920153395,1.47068046773084,1.47017277320802,1.47190320118633,1.43666586093707,1.42959129722776,1.42951718213624,1.4305095175991,1.43015139791707,1.43107102253719,1.43019778951731,1.42916161995918,1.42938959850209,1.42983803828118,1.42975249308742,1.43016144985863,1.42968159841187,1.43023694525335,1.42981206897067,1.43080911158024,1.43013427768671,1.43108383236759,1.43022092911733,1.43042733493732,1.430621148437,1.43172195466908,1.43108498025686,1.43147987599031,1.43123455498106,1.43144344043499,1.43165672757572,1.43208422831328,1.431902359986,1.432156600868,1.43165847892667,1.4314977217688
1.45480889252418,1.4544994657657,1.45529518505191,1.45506614724328,1.45557676403074,1.45561918511695,1.45633967059802,1.45755286140788,1.45718319901886,1.4641206452691,1.46072883868107,1.46167631539203,1.46040731384343,1.4665363220028,1.46489205520083,1.46757057419103,1.46691790592536,1.46827847340889,1.46716066891234,1.46817271899033,1.46792360737702,1.46888673897641,1.46825128944957,1.46911095040488,1.46868742628161,1.46916794092077,1.46184290622979,1.46281537078677,1.46171543376498,1.46188759582986,1.46131425693497,1.46222692041718,1.46126062607943,1.46195789128163,1.46165697098264,1.46352784977824,1.4626066173754,1.46425228577123,1.46358018781326,1.46523810695056,1.46523989911366,1.46639102389133,1.46610907596466,1.46616459374899,1.46570601965782,1.46610286618349,1.46622738215175,1.46680105936512,1.42185335222335,1.41338027981845,1.41303869442384,1.41316752294335,1.41203556567811,1.41235776588231,1.41122616344683,1.41157319843679,1.41073259564574,1.41272243328046,1.41089327279514,1.41269866969356,1.41112326910441,1.41351222329053,1.41132070295114,1.41306781760418,1.41132978452181,1.41299723415712,1.41155353970917,1.41409975327821,1.41211031640958,1.41447112456744,1.41212987442407,1.41404725272829,1.41198503726469,1.41413903027593,1.41253801219513,1.41436805520145,1.41322932890221,1.41510436740582,1.41363591527956,1.41433256555569,1.41414295765925,1.41430837657455,1.41443459285362,1.41336453796105,1.41462333152516,1.4137349943205,1.41507983528377,1.41388704320561,1.41562971770326,1.41450817511197,1.41638607172296,1.41486983801047,1.41670855949008,1.41573751062539,1.41670151839869,1.41531746133004,1.41667610843012,1.42026404787976,1.41713547932375,1.41816956228901,1.41730785597789,1.41962952618602,1.41726698975062,1.41894172695116,1.41715396176998,1.4182925049813,1.4173409851434,1.418102210841,1.41807199751715,1.41932794813759,1.41818194014033,1.41862197045026,1.41836297636434,1.41850423153913,1.41968588824027,1.41886407628298,1.4204087442745,1.41934135347899,1.42047998741033,1.42156725189039,1.4212753500107,1.42130772297668,1.42174133567858,1.42198957262613,1.42220682386267,1.42275138464701,1.42315345283103,1.4226685724964,1.42321815650773,1.42375426211874,1.42417288098317,1.42465633744841,1.42536440897363,1.47193195826884,1.47229911368001,1.47110391988394,1.47025155249361,1.47085218814572,1.47008361236072,1.47203107170972,1.47071532155128,1.47183339188615,1.4711979975974,1.47256079550712,1.47189774064735,1.47472910759221,1.47169688013118,1.47217691310116,1.43649364023676,1.43078071640079,1.43058213711938,1.43173254534215,1.42992861753959,1.43033138437419,1.43028231602387,1.43070819445307,1.42996056366689,1.42997506737295,1.42999083188528,1.42948174501479,1.43023044813474,1.42970529574321,1.43029510823004,1.43046236476055,1.43060538598264,1.43093880654992,1.43108046743228,1.43170306802367,1.43123370182475,1.43154545910644,1.43160647646918,1.43255088308864,1.43187077486872,1.4321536902656,1.43166481470652,1.43221718277463
1.45406475856752,1.454905757009,1.45476097431934,1.45590778158108,1.45519203587005,1.45559441109898,1.45538167952519,1.45938623439787,1.45846121543639,1.45969284654821,1.46027940716005,1.4619559029115,1.46095649971832,1.46413305512572,1.46444890051738,1.46506691631159,1.46040498968937,1.45185708548646,1.46248262497909,1.46864179005918,1.46827492656099,1.46882170517612,1.46693975256133,1.45999421631185,1.46336725822956,1.46437625543735,1.46301168918515,1.46387225913554,1.46187506361515,1.46281782344562,1.46151389168779,1.46212682096286,1.46172782636117,1.46222668705731,1.46212568105948,1.46275487597308,1.46267713052859,1.46291241176817,1.46294678302229,1.46599626312179,1.46566315729491,1.46582738061861,1.46569870825018,1.4662671393928,1.46559820898958,1.46616853978818,1.46604808265515,1.46713943262456,1.42636549272721,1.41365599134574,1.41324144992317,1.41220445765854,1.41220403221835,1.41174293115125,1.4117144558517,1.41047665835833,1.41186581939076,1.41019689909304,1.41233398093619,1.40989825032427,1.41265088199686,1.4102120271441,1.41289200618162,1.4109551373904,1.41295796286933,1.41050400014564,1.41303567562645,1.41083316584049,1.41334658834143,1.41133236668688,1.413358153331,1.41065414363502,1.41319957450762,1.41121124741634,1.41311599612022,1.41173607009827,1.41349946931316,1.41252257355367,1.41394978109248,1.41273360480464,1.41384932100959,1.41377843519925,1.41366849586361,1.41451184855865,1.41383501872779,1.41535196024696,1.41413748717539,1.4156983741679,1.41456114181637,1.41694748390485,1.41521666453726,1.4176969596188,1.41489638737787,1.41622270916434,1.41486400061166,1.41677111773729,1.41644870576115,1.41761968949221,1.41766533919833,1.41695842800784,1.41826221115781,1.41594562446068,1.41837306288359,1.41542539113852,1.41817449651261,1.41567197054561,1.41806007756871,1.41623528797662,1.41848639737123,1.41732911097166,1.41867208214318,1.41835948597211,1.41852491543268,1.41875105925462,1.41896286762317,1.42086542725371,1.41933547912276,1.42064461913214,1.4194055370928,1.41979122893881,1.42014129904157,1.42120460967981,1.42107556060065,1.42218104566161,1.42141260571163,1.42589775694663,1.42443057255847,1.42746680036062,1.42324381459638,1.42363964570924,1.42420142303149,1.42408966679103,1.42527720039185,1.42481164784312,1.47212461840442,1.47153106175096,1.47033237401751,1.47031101599447,1.46980772444189,1.47004835240418,1.4703343177995,1.47148752174037,1.47097276624897,1.47176137365452,1.47154667722678,1.4723123195031,1.47186990381603,1.47295407398659,1.46460862943656,1.47475833286663,1.429710677616,1.42986011873126,1.42964882321443,1.42980493807759,1.42989002958006,1.43193631957687,1.42919341549949,1.42902982647614,1.42947928730536,1.43088617974456,1.42990815697821,1.43117050703835,1.42978486112279,1.43013761323608,1.4298225366768,1.4303269044878,1.43045511619165,1.43115680223409,1.43123618007627,1.43162597280018,1.43182023401939,1.43213305112246,1.43197310398578,1.43166313863147,1.43171828415933,1.43163853256939
1.45339954485819,1.45403511465001,1.45461670905697,1.45498090550288,1.45541868599384,1.45652658635393,1.45539141163671,1.45875347150271,1.45849151884322,1.45825479336223,1.45688538514074,1.4570056431322,1.45553653561971,1.45333981657763,1.45244013057565,1.44963912270786,1.45370733750562,1.45164289636904,1.46079899186946,1.46828803242166,1.46433426708518,1.45503089670169,1.45411410263358,1.45288552093192,1.46165573757476,1.46267240719334,1.46138056799451,1.46097723534694,1.46140744575659,1.46164597271731,1.46167526065413,1.46515532902935,1.46193858410654,1.46305588243828,1.4620445455688,1.46339205396404,1.46269854103474,1.46376266394865,1.46298934215975,1.46307538561166,1.46216180030733,1.45720854152049,1.45637289993102,1.45684960018823,1.45634566163387,1.45747777941492,1.45725880102893,1.45818240264711,1.45705301818958,1.45781120543906,1.45733304432818,1.45907690861879,1.45842148051134,1.45935512522546,1.42214142571661,1.41201761794016,1.41154861381205,1.41268145505449,1.41123425237977,1.41276312179963,1.41132193714569,1.41396344177749,1.41174932512412,1.41397422288502,1.41193689099496,1.41378723826865,1.41194446913813,1.41411731966536,1.41207076757659,1.41417036075804,1.41210252683172,1.41457044984781,1.41198571584131,1.41406543915934,1.4120854735427,1.41265159477196,1.41223072465371,1.41433171231908,1.4129273743611,1.41475384629672,1.41366077081005,1.41410724278855,1.41371572229396,1.41366168217695,1.41408751576931,1.41362754754638,1.41447098668281,1.41384262502682,1.4146383473072,1.41589464627634,1.41631226615459,1.41430456393023,1.41617571601036,1.41323924623627,1.4160485350738,1.41456388894572,1.41623911036841,1.41714753484464,1.41755015163942,1.41844655342438,1.41666666330095,1.4187806391084,1.41634384731501,1.41921180765498,1.41640031374803,1.41918271500894,1.416569490682,1.41928649041967,1.41689447387289,1.41890308426262,1.4173329659529,1.41884091615735,1.41787391172877,1.41864986982279,1.41880920439738,1.4188925937907,1.4196066889345,1.41895632421852,1.41955266286143,1.41891822583308,1.41971019219907,1.41963855095955,1.42039422868209,1.42015859212749,1.42091004320283,1.42138664140674,1.42313237317751,1.42234171028012,1.42341136974222,1.42286809235404,1.42497687267539,1.42542601486032,1.43447315623366,1.47113474095534,1.47089138648337,1.47173033477137,1.47055248690048,1.47109795698299,1.4703643854474,1.47172375913821,1.47066358832516,1.47154960244615,1.47089286006873,1.47183165562673,1.47132376266838,1.47228258761129,1.47182210618254,1.47311467536431,1.46463406412642,1.43161492459816,1.42915346882575,1.42928849028724,1.42867729025323,1.42773228336887,1.42770549610772,1.42782519268591,1.42753682281898,1.42711553973808,1.42935684112859,1.42883076465625,1.42986944062045,1.42935644350486,1.42969353223941,1.43384822113609,1.42966417782766,1.42978704400212,1.43028770340833,1.4307564428758,1.43088705915682,1.43154843272889,1.43145148398044,1.43237568540589,1.43181081711485,1.43220000482002,1.43166495162029,1.43192634894642
1.45294025772043,1.45485541307365,1.45418789992386,1.4559928740914,1.45571967202422,1.455957206996,1.45491620792729,1.45890844884904,1.45855386781342,1.45893807852433,1.45267568443272,1.44572859006437,1.45281800117627,1.45907490389217,1.45308762767692,1.45548821279393,1.45426585281147,1.45515007500551,1.45867027846862,1.4606412016425,1.45966138943255,1.45587277869408,1.45419676470155,1.45912789727118,1.45837155745185,1.45196429010401,1.46127168519637,1.46582305511639,1.46119226252208,1.46298092574776,1.46189970833295,1.46244245142488,1.4621282939322,1.46159997461935,1.46175327171285,1.46143708378073,1.46223981438937,1.46290225095,1.4622098950734,1.45716222719128,1.45661825243974,1.45700774267719,1.45587073801622,1.45658793487902,1.45566564054937,1.45668290757251,1.45552033906832,1.45642554783523,1.45625340944946,1.45726475786652,1.45685353651978,1.45819196775473,1.45755931092784,1.45852884909371,1.45792324014458,1.45920285554974,1.42232226718115,1.41174929824902,1.41230801974852,1.41165407782992,1.41280368458749,1.4111936485262,1.41293151318317,1.41169761580821,1.4133835430735,1.41258368275597,1.41366204940746,1.41174417352456,1.413075010516,1.41173338690073,1.41298297024182,1.41111506049275,1.41313338969453,1.41157572721396,1.41335802764077,1.41326534406279,1.41356499270184,1.41215297388766,1.4135518262344,1.41467341794607,1.41417056216458,1.41300170361699,1.41386264375023,1.41331786512793,1.41392831923213,1.41377632429696,1.41395860248363,1.41399124208474,1.4139481061668,1.41417601003472,1.4139626518444,1.41606108243119,1.4139046829483,1.41680119968,1.41395282949819,1.41526016601778,1.41561402096242,1.41775517878547,1.41799817059012,1.41798567978991,1.41670860369952,1.41468599815911,1.41726935222527,1.41466897852153,1.41763222405607,1.41518418058601,1.41786679051148,1.41516195896945,1.41818231582458,1.41584042479557,1.4183534998111,1.41620776752551,1.41841888312746,1.41741515708522,1.41864357288976,1.41868547912721,1.41867568790929,1.41889898937296,1.41884654716745,1.4193793645469,1.41920533762216,1.41977031836586,1.41964151642192,1.42107344500289,1.42019788401948,1.42454559117599,1.42377335134398,1.42541550485642,1.42458795267634,1.47325026726852,1.4351963052333,1.47199084938916,1.47218700446418,1.47189785005814,1.4708504192333,1.47179290645847,1.47059571537229,1.47088622689666,1.47047277076278,1.47136593425562,1.47068154175185,1.47143257989062,1.4708517577748,1.47181747918567,1.47125348929045,1.47221038808062,1.47177098398836,1.472912720259,1.46465814884764,1.47322862551574,1.42854104504695,1.42863424263929,1.42795026063855,1.42799259788687,1.42752817221923,1.42818055946246,1.4279630032254,1.42932819429709,1.42921933077633,1.4310520201191,1.42950349223806,1.42979556372557,1.42920062547143,1.42971884485633,1.42922902524582,1.42931728786467,1.42951633098155,1.42981339841258,1.43019767880383,1.43090702736435,1.43090042019787,1.43328103146188,1.43109032761687,1.43109071381173,1.43110189188325,1.43118153749621
1.45307479366846,1.45286061003077,1.45343851339216,1.45656394520326,1.4562503618369,1.45688432945476,1.45021421741986,1.44515835541308,1.44807830064002,1.44914319270603,1.44928924308294,1.44943009474758,1.44914746184566,1.44885360884987,1.44769102437993,1.44334564719849,1.44852410399012,1.45811552269641,1.45116565842641,1.44502898671341,1.4520853661058,1.45272503261327,1.45321583743274,1.45498006310817,1.45381589101235,1.45169844485387,1.45883660845042,1.46115924550261,1.46122143550424,1.46216840483949,1.46178845757686,1.46502277462704,1.46248372573631,1.46355905057035,1.4616040486054,1.46155722493909,1.45985401434454,1.45600899628189,1.45662610631472,1.4579342137765,1.45697463309177,1.45773192113145,1.4551914074648,1.45534044634214,1.45532406299356,1.45560997320261,1.45538161335456,1.4556542497084,1.45557313856295,1.45584809700846,1.45595284703472,1.45629055746981,1.45655489087468,1.45723482161272,1.45697235905,1.45777085948965,1.45705002322663,1.45813200062224,1.42264751897472,1.41296537289954,1.41225042256397,1.41262039650045,1.41293835292919,1.41393951414765,1.41321627290686,1.41399757139195,1.41320951375812,1.41433828554679,1.41296643746495,1.41755094815697,1.41264368614908,1.41351493537362,1.41200152058627,1.41381258924665,1.41217982025001,1.41349790438428,1.41196397620599,1.41313677134858,1.41134676397298,1.41227434102668,1.4115511050125,1.41352346393154,1.41249703266131,1.41475040056824,1.41310066960918,1.4143139944218,1.41324860595338,1.41419749963483,1.41359422917311,1.41356699210791,1.41451735658471,1.41304921987193,1.41547478581579,1.4133607950362,1.4152852559784,1.41324029826718,1.4155695352051,1.41492864158375,1.41548506932934,1.41548079562479,1.41550814643049,1.41770827316352,1.41548510173779,1.4182248462443,1.41573286491054,1.41849902284077,1.41600920531239,1.41902183782328,1.41663207362584,1.41963918508528,1.41694406267835,1.4192166249304,1.41701513679232,1.4190899421526,1.41758486292304,1.41875862723679,1.41816251656252,1.41857441419941,1.41837045006672,1.41845443001365,1.41871211213085,1.4187993749222,1.41951833284821,1.41897494136372,1.4202252245366,1.42012116189112,1.42091311738965,1.42137812629723,1.42181103809525,1.42248003766655,1.43009178994942,1.46683906952526,1.47036272809205,1.47042612086987,1.4706044993181,1.47185525120988,1.47068217199463,1.47091845246853,1.47057368944526,1.47128925811149,1.47059286080315,1.47127248332743,1.47072618566194,1.47180574443834,1.47097671670337,1.47256636467613,1.4528176997721,1.42832030858302,1.43641633610573,1.47310212111678,1.42798480102222,1.42732751517702,1.42725153042578,1.42698282113086,1.42755574871609,1.42747981102949,1.42810835348984,1.42881812337613,1.4292936901327,1.43070014844296,1.42918215963337,1.42818180588433,1.42850231668562,1.42849065098158,1.42896861819425,1.43058447314031,1.42948079277748,1.42913274524286,1.4296133583349,1.4300941344502,1.43004483200977,1.4304811385764,1.4305910786332,1.43069098641497,1.43087365286694,1.43104631645797
1.45079754438399,1.45639900057248,1.45297566771641,1.44933828871095,1.44344825958854,1.43731336887439,1.43778485035229,1.43798626656561,1.44004273387583,1.4394770548072,1.44466154607365,1.4461282042095,1.44718135948717,1.44869259984261,1.44673982533959,1.44232213108496,1.44129370919066,1.44137399158387,1.44802454252355,1.4487622750427,1.45169840453218,1.45286590622944,1.45198034253192,1.44730676740726,1.4532193407576,1.45633535143014,1.45487072799513,1.45256456928384,1.45203767106473,1.44858472210161,1.44989715874694,1.45047360562227,1.46172506836392,1.46354064045057,1.46241191519067,1.46260142119107,1.45912490269228,1.45846836559361,1.4572414770773,1.45764599282186,1.45647571099019,1.4566876449874,1.45494607805451,1.45541260292907,1.45465814166556,1.4560323343887,1.45461219635216,1.45604565914841,1.45468866072556,1.45617882096068,1.4548423775413,1.45643318906062,1.45524925959183,1.45652320319126,1.45584779841348,1.45671209717902,1.45622907282325,1.45718278415141,1.45630291093817,1.45774958314924,1.4230905801091,1.41377587652998,1.41522466395638,1.41675836373752,1.4147984770857,1.40612652015128,1.4136518553323,1.41324618014345,1.41312972347545,1.41322538587881,1.41269749558542,1.4102724190119,1.41190739612565,1.41084414277273,1.41255148469725,1.41224565767585,1.41252399430096,1.410134295307,1.41224042328248,1.41017759781701,1.4125584300531,1.41074647889545,1.41334133041336,1.41193548848783,1.41351113261883,1.41162045381786,1.41344944710333,1.41203926853018,1.41353890432319,1.41361498134039,1.41336784795302,1.41509696811021,1.41319176011206,1.4153574198245,1.41346628141025,1.41496010024905,1.41506512411795,1.4168865179228,1.41513066425241,1.41555201139992,1.41544290778052,1.41490794181134,1.41621705403918,1.41424734760121,1.41674649478325,1.41453372044715,1.4172293455694,1.41515229324415,1.41782004792872,1.41574066441817,1.41816854002251,1.41584447041637,1.41843125851411,1.41618087112815,1.41840789244178,1.41672516866814,1.41831419381542,1.41764922982482,1.41837162527929,1.41800780247249,1.41846671964531,1.41858125347871,1.41866623850309,1.42009203169836,1.4194043998814,1.42129848868875,1.42043361728911,1.42145294483435,1.42144014361282,1.42401356185779,1.42294769315682,1.42166232912798,1.43054362051641,1.47262094755702,1.47096072954436,1.47117570422506,1.47094344822937,1.47192447375379,1.47106582920839,1.4717678308106,1.47065390149601,1.4710441479941,1.4703249645694,1.47055835780309,1.46966443313138,1.47632911450028,1.45238851272937,1.42803594009257,1.42721454100254,1.42677680519976,1.42742941349272,1.43113934991643,1.42657753408021,1.42755612752297,1.42741297192124,1.42769238648669,1.42725042735293,1.42696197486367,1.42652546812215,1.42704774178831,1.42666584907414,1.42768027824215,1.42750811974734,1.4285266021639,1.42810951961495,1.42846030219814,1.42844359249546,1.42862550818664,1.42874775536354,1.42899989032468,1.42924536262708,1.43006153939064,1.42994179092003,1.43039651605144,1.43025682499123,1.4308153795255
1.44612753513857,1.44122860744355,1.44107344983537,1.44121159061021,1.44114962859425,1.43790622572884,1.43813743563635,1.44280962559285,1.44110957748792,1.44888864754372,1.44399388158648,1.44370321440086,1.4436721436126,1.44450166964356,1.44255933079785,1.4420283019931,1.44103863520387,1.44768298803518,1.44789284139034,1.44847670587053,1.44847604912784,1.44910615849074,1.44748705275263,1.44654183632887,1.44497755324875,1.44442979193645,1.4439259063306,1.44512256733113,1.44474231267372,1.44577064722051,1.44928908079034,1.46068197340864,1.45900876388507,1.45641198474979,1.4553085759199,1.45144081068937,1.45122236473147,1.45200218763911,1.45612438559866,1.45758760898223,1.45637740649028,1.45567679704881,1.45481055295061,1.45498843855325,1.45436700432608,1.45489096757146,1.45430525321997,1.45455965545996,1.45432419664295,1.45461719168563,1.45434556271456,1.45454115713443,1.45455283107785,1.4554878350544,1.45486420252922,1.45590166448474,1.4552617151824,1.45634928116674,1.45554844303691,1.45639713702507,1.45565762938712,1.45721381724096,1.45666876519361,1.45826017910559,1.45799056917956,1.45969919955026,1.42056639627764,1.41056359469327,1.41228005833998,1.41156253904406,1.41189583991636,1.41485184063585,1.41111560399569,1.41245800482793,1.41124682590031,1.41148835150814,1.41121401494058,1.41276327565157,1.41118686947127,1.41352706175861,1.41134228566231,1.41323052757236,1.41153870543281,1.41332159908443,1.41170356476593,1.41377917195922,1.41200168847586,1.41405601644353,1.41262070833842,1.41314688054286,1.41341505882169,1.41222411761849,1.41417977640245,1.41239448083809,1.41406339789111,1.41736260010493,1.41524006800596,1.41459615752057,1.41542998704404,1.41461697536685,1.41483874835146,1.41822217013515,1.41522930589581,1.4171313672643,1.41544629414435,1.41744243357325,1.41607673521375,1.41823078167543,1.41661107463536,1.41857152769199,1.41686094247323,1.41919503390446,1.41717804736506,1.41948760076822,1.41726628221568,1.41910160431367,1.41745538184564,1.41851219992677,1.4175974368376,1.41834337085093,1.41801240778793,1.41845975386258,1.41874518254916,1.41824291764312,1.41920147236056,1.4206670294342,1.42020787231722,1.41905331206933,1.41944357989374,1.4195649894912,1.42001288075133,1.42052626677324,1.42085548754507,1.42138892830684,1.43137398494054,1.47212240683172,1.47133896408441,1.47212194428178,1.47086797550508,1.46788562136438,1.47060465314769,1.47195506556655,1.47046857691841,1.46988064550056,1.47009757843347,1.47105094447315,1.45176681925594,1.42580524503273,1.42550772005972,1.42583371768182,1.42529164982706,1.42550209346445,1.42573119772151,1.43172379649778,1.42788699447854,1.42839767517342,1.42724686343101,1.42697444952125,1.42663015361811,1.42662963157019,1.42684052937926,1.42655963083582,1.4274217123157,1.42724462658776,1.42782583183292,1.42801289588519,1.42811903519601,1.42819753879236,1.42840604010302,1.42860894274105,1.42879720958041,1.42889622018793,1.42942489831032,1.42979549051711,1.42991000102864,1.4300043793945
1.43733901751837,1.43782063714908,1.44066074932665,1.44204328632109,1.44145950501159,1.44151674643994,1.4391695629833,1.43990928840434,1.43825760730972,1.43345225791516,1.4439072271491,1.44414319247697,1.44308611454723,1.44251415377515,1.44114230605652,1.44178434342601,1.44058074650431,1.44128850729063,1.44036868191957,1.44111738893298,1.4396309941639,1.43971727569044,1.44137098274461,1.44252348392696,1.44371530695896,1.44881531838415,1.44276147612162,1.44346550926248,1.44349077354063,1.44399027657927,1.44896056433654,1.45249009622078,1.44990047342471,1.44878878990964,1.4493046681217,1.45163076322022,1.45119334797353,1.45264255570031,1.4510606534025,1.45197931297587,1.4515644964569,1.45485602879607,1.45363282328171,1.45653754049712,1.45331054742216,1.45396491248827,1.45319079063673,1.45473250506453,1.45298856012168,1.45438893153425,1.45288003481787,1.45442388019071,1.45310330100289,1.45430196643105,1.45360035886615,1.45542737951646,1.45412950103494,1.45560803288875,1.45435623903254,1.45609169856146,1.45480506025348,1.45695419495516,1.45598917003812,1.45775573147814,1.45735379815833,1.45838771642429,1.45835463365512,1.45916996487004,1.41726981902238,1.41252683239299,1.41196784565107,1.41126040713527,1.41156099711683,1.41077991967161,1.41186336227524,1.41118095525401,1.41196468394082,1.41082914518484,1.41231095998324,1.41099253339767,1.41252866229554,1.4111012472921,1.41272380420293,1.41143446624111,1.41266227369133,1.4106346293935,1.41262275826998,1.41151597401854,1.41288048342895,1.41257605758539,1.41287520158151,1.41379065573174,1.41287367998784,1.41427221652154,1.41327856062999,1.41420161208677,1.41401705631216,1.41501893355816,1.41413207669686,1.41492273784479,1.4142299424063,1.41436792540314,1.41508490329162,1.41482620449707,1.41570972590233,1.4149142785881,1.41608457456792,1.41587399559614,1.41696798933524,1.4163318265636,1.41730729366315,1.41639712927164,1.41751155521486,1.41628968356772,1.41795668263669,1.41721571790012,1.41791487922684,1.41674168568415,1.41774513273384,1.41734056798501,1.4179222999874,1.41789930518734,1.41812915276561,1.41883964291097,1.41855340814606,1.41912444266552,1.41912270742897,1.42003848172182,1.41911097584873,1.4200079148629,1.419678542143,1.42066689185099,1.42056805758093,1.4213322550288,1.42691910073852,1.46752983555407,1.4663479920809,1.46672186087496,1.47025342440343,1.47295724452074,1.47151623354624,1.47247694264104,1.47130480490598,1.47273225604668,1.47150089193844,1.47322022641474,1.45131717137519,1.47286076688225,1.42511540391172,1.42513460927913,1.42507521555362,1.42529056832952,1.42531841038887,1.42603667650512,1.42514409969021,1.4250699933029,1.42510870488227,1.42567306634881,1.42586661146825,1.42672011402006,1.42653150372845,1.42822002830425,1.42708868988204,1.42755449184999,1.42709661552669,1.42768418228462,1.42742329002049,1.42808337891406,1.42780530993561,1.42839852919133,1.42816640404211,1.42872060198875,1.42871194483457,1.42939915776995,1.42913170408208,1.42958239729085
1.43725138672826,1.43779547474367,1.43871030033401,1.43918551017345,1.43913694631237,1.43883380485449,1.43867508455288,1.43819595836476,1.43758633158773,1.43702240092654,1.44108263898815,1.44052480006185,1.44036237331081,1.44065665317878,1.44004878335387,1.43987914850807,1.43953277023863,1.43987971673142,1.43938982608727,1.43931246238912,1.43869580286477,1.4384806040362,1.44111744553776,1.44369253515625,1.44322218381992,1.44218345115116,1.44202186774724,1.44232231542499,1.44248202788262,1.4458704242746,1.44858795005133,1.44800826698375,1.44729713731846,1.44720250047707,1.44818520120777,1.44899165642173,1.45020686700349,1.45144937781336,1.45023602274434,1.45043485749113,1.4506734815404,1.45214562630172,1.45206522558043,1.4526926385279,1.451923344294,1.45267953168212,1.45177706797092,1.45207174700037,1.45141029968974,1.45181492317262,1.4512780384422,1.45182344506838,1.45131860498622,1.45201138502084,1.45177066333642,1.4528581597626,1.45242608355189,1.45315640185386,1.45289433070465,1.45364384397257,1.45364276454801,1.45463331753944,1.45512366334761,1.45627144207911,1.45680647021063,1.45760445553808,1.45784308513455,1.45810125036628,1.42087132518353,1.41205727674305,1.41185748593397,1.41177543639217,1.41161056145551,1.41194716197564,1.41162161688377,1.41188411844809,1.41163041155346,1.4122126233665,1.41191890395008,1.41266053664212,1.41196982220655,1.41251098635893,1.41188703766316,1.41266811968424,1.41181343927275,1.41237228022493,1.41183179188681,1.41259722259135,1.41230012852636,1.412856722414,1.41294685008431,1.4128842018519,1.41345136037182,1.41294236240138,1.41377599365007,1.41359810474216,1.41436262051551,1.4138818291151,1.414463120612,1.41386513235682,1.41419391956348,1.41424619763543,1.4146650534445,1.41502727280864,1.41510954636718,1.41519180715365,1.41548306714403,1.41596934589132,1.41609397084492,1.41665614047476,1.4164041454174,1.41681903707051,1.41656546607972,1.41725412700645,1.41690574363275,1.41777780994737,1.41708892360192,1.41761249028758,1.41715297072493,1.41775780955288,1.41738041306255,1.41782089201123,1.41776354234546,1.41814428204072,1.4183532091851,1.41863188651299,1.41903996276286,1.41899811658003,1.41938387498132,1.41914598887611,1.41979649828942,1.41981453926265,1.42044598291765,1.42072944626454,1.42206584047215,1.42277877624873,1.42326860960861,1.42383482524388,1.42454605183327,1.42515880092544,1.42558240536235,1.425832347752,1.42592264026864,1.42587171945525,1.42569526212299,1.42538078167073,1.4249771032699,1.42471288376486,1.4247271918621,1.42483123503231,1.42455565246833,1.42507708084979,1.4248995970496,1.42535858528405,1.42495471159998,1.42511525808101,1.42520814756883,1.4255015372349,1.42570963553762,1.42586417552354,1.42610893219403,1.42607795457839,1.42650829533688,1.42652197032457,1.42677629378278,1.42672929499628,1.42698448199683,1.42702928468935,1.42734350505408,1.4275354998187,1.42768540927249,1.42797809159653,1.42827825341769,1.42863777403756,1.42868430938196,1.42886506583156
1.43659821857951,1.42968233908112,1.43266217822765,1.43208246074608,1.43765238805455,1.43800278623815,1.43798648844571,1.43855291935537,1.4379848271429,1.43782954429915,1.43690467647612,1.43664820225386,1.44065543944971,1.44135893771214,1.43997394332994,1.43920097007725,1.43945213080227,1.44052561765931,1.43944424790304,1.4389706733326,1.43802551301379,1.43806715269965,1.44124717746952,1.44573672740958,1.4439016980596,1.44068660120153,1.43924022689829,1.43883271733092,1.44292886471225,1.44800055204737,1.44623021816984,1.44504159861284,1.4448192696388,1.44552001517037,1.44610672191464,1.44754262016201,1.44927445842416,1.45483300014867,1.45085905141322,1.45207955854688,1.45138109535169,1.45408192802659,1.45276148072162,1.45363072607178,1.45233430778029,1.45590716999111,1.45305673443096,1.4542318147619,1.45294694580154,1.45448944466799,1.45294014921525,1.45422043207103,1.45307113738473,1.45407926795641,1.45345485620308,1.45532706419858,1.45374354310789,1.4550920592234,1.45397122367155,1.45530918154342,1.45432616177874,1.45585497802876,1.45558458189522,1.45786958172923,1.45733501825032,1.45824195343539,1.45755528030296,1.45708267632249,1.42426876893706,1.41160318499763,1.41183129906528,1.4118336830834,1.41194509910327,1.41206418970621,1.41197376588408,1.41136454421354,1.4120474827704,1.4116538159846,1.41270353597161,1.41224881076372,1.41277078441877,1.41113014372062,1.41255061754931,1.41115551383781,1.4125953292946,1.41099038226991,1.41256527357152,1.41121875802986,1.41275050332928,1.41246601404771,1.41300126650135,1.41403762531819,1.41305041736587,1.41459862861678,1.41320616703237,1.41522680314544,1.41370350104026,1.41580970608827,1.41376452948106,1.41482114881912,1.41374122873226,1.4143576016872,1.41430595801316,1.41585598814072,1.41464184557394,1.4155771704797,1.41506117022303,1.41612384665323,1.41569894756984,1.41633403991831,1.41613496285126,1.41666113845256,1.41666745967768,1.41601924601417,1.41735844080447,1.41619244614125,1.41770804158452,1.41628920124503,1.41776756999828,1.41663089454885,1.41781425863556,1.41657841068476,1.4179667151884,1.41746695483185,1.41835921488059,1.41864849045978,1.41880279352499,1.4202498137588,1.41894791426499,1.42048284062133,1.41918875749035,1.42106077724788,1.42000224964384,1.42121629914423,1.42054761905573,1.42101979061002,1.42091828514237,1.42135558269961,1.42195814837144,1.42249523114392,1.42299699214761,1.42370678746769,1.42412379151551,1.42428646332298,1.42393823646159,1.42344398622261,1.42415954832486,1.42389296219006,1.42432058742019,1.42377258043882,1.42483807661916,1.42478337187643,1.42529519697938,1.42520131319525,1.42532474830213,1.4254125228511,1.42572406171727,1.42610229258687,1.42575101318664,1.42629292866651,1.42572474372604,1.42645022128964,1.42605401393462,1.42742681591494,1.42638349354793,1.42750244367662,1.42659288544203,1.42734272590068,1.42709501865065,1.42797683391706,1.42752775070628,1.4280719196867,1.4283328638282,1.42893785894522,1.42877658465475,1.428948681496
1.43257142709288,1.43385931003436,1.4338208041162,1.4348724650565,1.43478878595559,1.43554088964154,1.43752792578053,1.4393812766616,1.43816725193739,1.43467779702785,1.43626838446659,1.44214800366104,1.43895860591799,1.43428794801176,1.43449206960202,1.43503120945084,1.43884506688202,1.44100286675565,1.43905072635117,1.43460500023732,1.43443791025198,1.43338503425897,1.43616707314532,1.43633461855129,1.43913741423225,1.43995352471934,1.43894336090263,1.4487614379103,1.44439735554958,1.43920846574455,1.4437779875326,1.44422219078345,1.44433790463202,1.44499928132133,1.44510645843766,1.45270610757464,1.4499396742339,1.44275343172134,1.44683764555579,1.44767433640682,1.44713338990861,1.44806303534978,1.45306200944799,1.45387827020802,1.45290015617373,1.44823074118148,1.4537033860573,1.45456862380279,1.45427666960771,1.4544424402661,1.4541832260562,1.45511877613824,1.45437458865611,1.45664961864023,1.45494324879836,1.45518926893606,1.45468418952666,1.45556781635325,1.45473279321974,1.45560347631049,1.45456947223585,1.45451436951553,1.45434279661512,1.45526563846171,1.45500646220182,1.4558256025956,1.45589509129973,1.45574464192466,1.45530276767765,1.45584436572837,1.4216301076533,1.41130839734459,1.41171436862663,1.4121683069141,1.41180197206162,1.41192476453837,1.41164408070547,1.4123436965592,1.41230264513073,1.41405331456856,1.41214035213776,1.41314961992144,1.4114259655923,1.41320831374632,1.41167075318873,1.4138054454679,1.41174969898402,1.41332385216361,1.41194802278057,1.41269634142753,1.4132418965218,1.41269449278613,1.41417690761825,1.41226421703076,1.4144915045618,1.41214560698272,1.41477908242694,1.41260916229954,1.41470960608266,1.4127862025685,1.41407079812696,1.41777484544288,1.41448800140866,1.41332639988463,1.41517816876151,1.41344001613091,1.41518304532458,1.41412782277399,1.41508985177942,1.41446157248811,1.41525844990274,1.41508755388865,1.41576495536523,1.41728214552584,1.41627849236487,1.4187756854437,1.41638329323018,1.41875976850826,1.41650788155615,1.41883639781833,1.41672381232349,1.4188240001851,1.4170447798073,1.41875484430609,1.41784885738368,1.41877672081576,1.41885008591436,1.41820625476235,1.41953506308303,1.41782229985089,1.41997045954111,1.41834679546237,1.42018191145202,1.41897688344758,1.42045037006116,1.41997542445314,1.42089386184848,1.42096755705136,1.42165883737843,1.42300398062219,1.42202694637621,1.42241860629689,1.4218207282563,1.42325267786903,1.4228724778967,1.42492766653737,1.42331360869462,1.42511140538181,1.42344153161257,1.42521475403969,1.42375495328013,1.42542232997889,1.42435935972105,1.42576076706102,1.42490018287983,1.42728509623682,1.42617115751679,1.42627141783749,1.42580674975605,1.42526063323776,1.42566144784654,1.42486558897995,1.42621434991576,1.42540995792323,1.42685610277635,1.42592256453774,1.42712502621529,1.42660447703356,1.42754228909271,1.42780523736755,1.42754397215496,1.43140560276312,1.42840549684583,1.42933328774945,1.4286590561408,1.42894587468087
1.43207563833474,1.43514082366363,1.43450387481165,1.43496152968298,1.43379731091624,1.4282202051288,1.42911783443308,1.4283832176557,1.4314577331656,1.43089476748083,1.43278899781628,1.43293027773155,1.43271327717369,1.42970813123633,1.42979672743538,1.42997546922427,1.43067276729893,1.43117977372258,1.43629011184492,1.43849386158856,1.43450852314078,1.43291903985739,1.43591171830357,1.43727557025212,1.43618182373698,1.43665654036874,1.43838034353779,1.44197555229483,1.44417990818131,1.44440982979132,1.44404725841339,1.44472384448272,1.44404120568055,1.44739282043588,1.4456442985488,1.44361193707058,1.44421546473739,1.44595458324831,1.44632384750702,1.45244318797959,1.44602581183802,1.44399843482427,1.44749057276935,1.44853837527728,1.45289493555692,1.45609715190714,1.45441598029219,1.45513923511249,1.45423716693729,1.45594264900477,1.45435994584015,1.44898965695554,1.45452895352782,1.45540558396077,1.45468226805379,1.45584847766641,1.45414743596994,1.45465878774044,1.4535123150975,1.45358895623219,1.45327180169206,1.45424366250156,1.45352251745038,1.45383998293773,1.45363987189724,1.45439884093935,1.4550651364387,1.45550361705407,1.45522538343699,1.45553005136518,1.45520862581079,1.456127177946,1.45572841419693,1.45609524503662,1.42243108926504,1.41218193607864,1.41201561754196,1.41154969309729,1.4126347291927,1.41206086516041,1.41267539504237,1.41101359487162,1.41210010089844,1.41062586974865,1.41266695497543,1.41145565002167,1.41327317309298,1.4116164829827,1.41319442402586,1.41216436595669,1.41307513286761,1.41486859470905,1.41318343519612,1.41525006217714,1.41303263108976,1.41580236532838,1.41323095348152,1.41624680645734,1.41334884764612,1.41504531521223,1.41336373802427,1.41455038915662,1.41362383084039,1.41601217340667,1.41397021476305,1.41632353868631,1.41462472758637,1.4167949149505,1.41521955295439,1.41927187664568,1.41504457492391,1.4155560995754,1.4158677394356,1.41590766941541,1.41763053132312,1.41541966198587,1.41786747585774,1.41478110271635,1.41778156500316,1.41534415574132,1.41793835514974,1.41546661326898,1.41819389173887,1.41639527157512,1.41850383195068,1.41775522892685,1.41860563553283,1.41956621725519,1.41845957015126,1.4205756873446,1.4184241967698,1.42085094174299,1.41895312697647,1.42130493367563,1.41966480269933,1.42116885810532,1.42047300441561,1.4211410039714,1.4214559559603,1.42123258343387,1.42191091838839,1.42042514971191,1.42211704547065,1.42160365594335,1.42380240086355,1.42190909560303,1.42411567157565,1.42231575955643,1.42410957066339,1.4226965163068,1.42446016543133,1.42312458747,1.42492912624409,1.42390346506104,1.42522763916746,1.42517258952509,1.42599239941332,1.42584092387745,1.42556745677231,1.42592230530251,1.42546622332376,1.42683411243302,1.42592006997814,1.42750211484339,1.42629757469256,1.42780928335435,1.4266689845299,1.4277330758506,1.42719974738871,1.42803419074933,1.42761824518492,1.42790190696456,1.42820034363628,1.42791440571371,1.428595833368,1.42876957160747
1.42501868595831,1.42403071217072,1.42906389100969,1.43228050333315,1.43182460798922,1.43187663885449,1.4314772738532,1.43161612449519,1.43166743493974,1.43192745316993,1.43250028475404,1.43276876432849,1.4325124487725,1.43226834059951,1.42980243370793,1.43048420720277,1.43059628073829,1.43119081291034,1.43441646736122,1.43587540180382,1.4352723972737,1.4359360240045,1.43580839687248,1.44241828721353,1.43527383844091,1.43562691759779,1.43607864529393,1.4366014692475,1.44014145175907,1.44148846073088,1.43975808318719,1.43328217933706,1.44398513451232,1.4479226827865,1.44540636768522,1.44234601677062,1.44127181430042,1.43877560943995,1.44317021517287,1.4504483579832,1.44615826674817,1.44744039892364,1.44706696077095,1.45619189068639,1.44946006942508,1.44458523407386,1.45129578111632,1.4535262517882,1.45379832340538,1.45553445437337,1.45517083038708,1.4560141846021,1.4550590063391,1.45503492227473,1.4547449497038,1.45447216538305,1.45386102819465,1.45429307600351,1.45344649186553,1.45305446182783,1.45346400642145,1.45362982648364,1.45342242582537,1.45347539887534,1.4532789603991,1.45430822413321,1.45436741440584,1.45543684963554,1.45468475460155,1.45512816245637,1.45460970119364,1.45673821330052,1.45563311051756,1.45580024131159,1.45517280207409,1.45859530367098,1.42338616688449,1.41349737375319,1.41281410863377,1.41287363690194,1.41221925862549,1.41231871630653,1.41181446482176,1.41225598690644,1.41206724410802,1.41329722811352,1.41215019462498,1.41426532054527,1.41243440929245,1.41278436790251,1.41304912669417,1.41401894371858,1.41484252217737,1.41353246846778,1.41485002113789,1.41219894236604,1.41467826911371,1.41207093839192,1.41479135004172,1.41321938647768,1.41465978989264,1.41268328557381,1.41487341718837,1.4128614344596,1.41548689657963,1.41334614100256,1.41608637967984,1.41429079932243,1.41617103391828,1.41698967116112,1.4153436901345,1.41470227508234,1.41550046531253,1.41794647763551,1.41669827838591,1.41891810619388,1.41624521024056,1.41911572385226,1.41616600144558,1.41909716254018,1.41648291669111,1.41948378907672,1.41689650063619,1.41959609161868,1.41761566378524,1.41949467163763,1.41860420502061,1.41893373860141,1.41934565123498,1.4174709148488,1.41952442893589,1.41714383248763,1.41977529741338,1.41891315408995,1.42059847750763,1.41922118469478,1.42082659613208,1.4210908855675,1.42086661208463,1.42159911829755,1.42070367282812,1.42246460352745,1.42110819472331,1.42422981962042,1.42325761577272,1.42526927564548,1.42263701091787,1.42420244269798,1.42231431536784,1.42406176618606,1.42288741289962,1.4251705999027,1.42363181838202,1.42542106169242,1.42429403261597,1.42690005532051,1.42585829516527,1.42638291146312,1.42544643354882,1.42468742424526,1.42553215691477,1.42496180661243,1.42595119872814,1.42540895623353,1.42612652458125,1.42557711277794,1.4266038946973,1.42660544024085,1.42715732116006,1.42731153610493,1.42735432879813,1.42803286321583,1.42784510283055,1.42901875105118,1.42802144190988,1.42832014235631
1.42570200568317,1.42604566007757,1.42568101704108,1.4251311088014,1.42855738613523,1.43155672712363,1.43144154850683,1.43147729196593,1.42920456834889,1.42585159349067,1.42927734061241,1.43132510703614,1.4321163382807,1.43261002281402,1.4292805195171,1.42885333160052,1.42946153633391,1.43507293918219,1.43148516570678,1.42792312319162,1.43231537288178,1.4388824882488,1.43388940949126,1.42849480297439,1.43413278138664,1.43498203757451,1.43468079927898,1.43347506930488,1.43291207486048,1.43277032250424,1.43948290930389,1.44529139501933,1.44411030535517,1.44081527682057,1.43974191951073,1.43859030114803,1.43813676624706,1.4355502281117,1.44095808116095,1.44221969760434,1.44118803317482,1.4390545006025,1.44482895753164,1.4487970895215,1.44720637167926,1.44209210465688,1.44912651652609,1.4562125143319,1.45300662518249,1.44415896238709,1.450397584307,1.45147993093114,1.45501571134399,1.455239819302,1.45448549155283,1.45777862509932,1.45260936515547,1.44990791603738,1.45304645555595,1.45401802197077,1.45343229131264,1.45432094504602,1.4530162614054,1.45813851399367,1.45238672751924,1.45326708241057,1.45333459191306,1.4538337923629,1.45395152740457,1.45446695552378,1.45427069101296,1.45503360334152,1.45495432022716,1.45569622588222,1.45533183929487,1.455956944577,1.45595615615632,1.45766804312266,1.45721975209407,1.45829086121642,1.45781377098349,1.45880532686927,1.45848736360883,1.45939684086975,1.42006627539091,1.41169037936893,1.41289753720379,1.41172192275228,1.41350694084148,1.41310882931777,1.41316818182326,1.41374275789674,1.41305727588758,1.41491383786532,1.41317164298235,1.41469807238641,1.41309833822051,1.41548937919061,1.41323200040942,1.41506430999191,1.41329990508462,1.41562755078159,1.41368499680548,1.41528219546751,1.41442236343247,1.41706455600456,1.41476059451542,1.41702049942108,1.41501472017508,1.41590389863328,1.41482564461674,1.4158297127342,1.41530092203039,1.41533805417064,1.41666306895132,1.41492319988542,1.41737354457453,1.41435812460179,1.41773047189714,1.4151501680215,1.41792777065656,1.41524543809908,1.41834233052003,1.41628041898822,1.41877998774717,1.41720395254686,1.41872466753712,1.41865978178465,1.41833369818297,1.42004087497568,1.41808346367642,1.420291081141,1.4185296967614,1.42120532578657,1.41924045814001,1.42134284419864,1.41990538163512,1.42087642209118,1.42044833788778,1.42005154561923,1.42115820089179,1.42027655517525,1.42180754236799,1.42149307317126,1.42319844981949,1.42293601551509,1.42309590252769,1.42112933210848,1.42309325698627,1.42165359249756,1.42366630849523,1.42264280003874,1.42427560118212,1.42303849459409,1.42433090548047,1.4258786976329,1.42541783401924,1.42449432011247,1.42477721654793,1.42517686784885,1.42499290583939,1.42626454652263,1.42505016448345,1.42542348825474,1.42525015807514,1.42621055416775,1.42624073376121,1.42696937020136,1.42725896942328,1.42716266301839,1.42766174333441,1.42705075668988,1.42768469548843,1.4270026291844,1.42775861189916,1.42719592418533
1.42349484007896,1.42176087445037,1.42204882628049,1.42255996399259,1.42309911374462,1.42345653271121,1.42505656607147,1.42711298844635,1.42743512918997,1.42774579852458,1.42772947709488,1.42289945757975,1.42503464565393,1.42492527211405,1.425605754117,1.42593996379345,1.42909087606585,1.43063340226353,1.42854893275508,1.42686209451693,1.4296875994509,1.43138302182027,1.43061677441427,1.42936228565097,1.4326712243554,1.43979920887744,1.43486660575039,1.43556292910714,1.432626909365,1.42955690123348,1.43772512562675,1.43786696916062,1.43722830122571,1.4367691167852,1.43595266333447,1.43554473163261,1.43783471399442,1.43790351639058,1.43850690377135,1.43973250343233,1.44015014680365,1.44280431942328,1.44014730711507,1.43875130863533,1.44427326715207,1.44545737151741,1.44655058106882,1.44724066767965,1.45103799222643,1.45204579711133,1.45006702990443,1.44754562227604,1.45442558571039,1.45498551501404,1.45424315406283,1.45390109992534,1.4530673281612,1.45334735571223,1.45279488355411,1.45276289628643,1.4523110288802,1.45198849357817,1.45196029961697,1.45257655898549,1.45238525623317,1.45339143999428,1.45322852268495,1.45408466577088,1.45379182397011,1.45438636480993,1.4542394667405,1.45451952065925,1.45451092504269,1.45504232662874,1.45499688645338,1.45611584427418,1.45578939828623,1.45710739322562,1.45677071327235,1.45803601802011,1.45743315856689,1.4582192939808,1.4580555467645,1.4588505680684,1.42532200772571,1.41300854422837,1.41281732914397,1.41385969235396,1.41344431004443,1.41408222565813,1.41347436121836,1.4123005305335,1.41386322220721,1.41227799912848,1.41378598136949,1.4167013039502,1.41371687550252,1.41217853915422,1.41416473951921,1.41354641487681,1.41414204707869,1.41318897310405,1.41464345986508,1.41683286029653,1.41585400984251,1.41353182671913,1.41569567632612,1.41332306051138,1.415586518998,1.41368404789218,1.41575101780093,1.41445200912781,1.41572458839469,1.41653391007819,1.4155803779387,1.41804678746164,1.41577609496153,1.41920667324035,1.4162121450178,1.41895366359808,1.41636117675987,1.41907976681741,1.4167784760314,1.41955306170202,1.41726589814508,1.41944357562153,1.41767314790547,1.4180561554479,1.41841658327405,1.41716623138509,1.41916734561727,1.41753570930257,1.4196431712007,1.41786588983826,1.41997144981725,1.41870941684751,1.42018811054263,1.41949319794306,1.42004734371129,1.41996836272873,1.4202642752749,1.42210008643332,1.42072132279753,1.42214214828276,1.42071064801001,1.42127192456221,1.42148355457716,1.42313317821226,1.4220052365744,1.42342857061115,1.4223444300413,1.423801944008,1.42286642677921,1.42447796321335,1.42367584671183,1.42443900595207,1.42439529419003,1.42451827588163,1.42449377648088,1.42438731334294,1.42455485127875,1.42436359593825,1.42459862868572,1.42448786782461,1.42491969535681,1.4255410582898,1.42576152174861,1.42701326337636,1.42707476872476,1.4275858314513,1.42738454546136,1.42785508230166,1.42701851004896,1.42786927209789,1.42700509159376,1.42789865906372
