1.35851754255438,1.35891498278481,1.35894093381341,1.35957230688149,1.35954490777495,1.3609613173481,1.35965832867237,1.36013797988256,1.36031357003008,1.36038717399192,1.36043180696077,1.36086633780467,1.36113260275739,1.361358400338,1.36167190978786,1.36152531053575,1.36213891329815,1.36125538876108,1.36124110299534,1.36146711275042,1.36149662693839,1.36146953955744,1.36164757791649,1.36604499207977,1.36263147754702,1.36260930389514,1.36368445920585,1.36384932210262,1.36316074263763,1.36321294913535,1.3629294625644,1.36313311641189,1.36352926409638,1.3634923618048,1.36393674766125,1.36419427900605,1.36827693598035,1.36810361898714,1.36460931329003,1.36473767847461,1.36508459640708,1.36494582981538,1.36484990333434,1.36489760968794,1.36659736221775,1.36678897210221,1.36603024752247,1.36649296218408,1.36623845105718,1.36664857878281,1.36684743223213,1.36689088109385,1.36714283226088,1.36686726315733,1.36737479779217,1.36746087573991,1.3680884136365,1.36778397616431,1.36855909857697,1.36885635189133,1.36922377259002,1.36924400223077,1.36934910572147,1.37102576536502,1.37040189999814,1.37008662303655,1.37022610796782,1.37083332675093,1.37042116841308,1.37063495568287,1.37080897399853,1.37121322863523,1.37091120132708,1.37175322160721,1.37153581726209,1.37207609418293,1.37186590563082,1.37182965504524,1.37305300405178,1.37278883823737,1.37303661629002,1.37261156691006,1.3728742995243,1.37425501575206,1.37401901477564,1.37380954848217,1.37411330074252,1.37438632399207,1.37421729655026,1.37451879481511,1.37497077234463,1.37526532162022,1.37557685395045,1.37545578813959,1.37608280999757,1.37618313603284,1.37646512434777,1.37657012155528,1.37673752100423,1.37650887242076,1.37664757960405,1.37703878149206,1.37736500241732,1.37713052044028,1.37796823470457,1.37831136165128,1.37907491456648,1.37914767196185,1.37937627221187,1.37930765905648,1.37939510798595,1.3799063481661,1.37958673831912,1.38019343442304,1.38029273297399,1.38037898488581,1.38045854776111,1.38065838123251,1.38217538949047,1.38181520322437,1.38197511992557,1.38230621223882,1.38193780774022,1.38189427125914,1.38205158423678,1.38205473970998,1.3821425879705,1.38205929057253,1.38240545235481,1.38239376335291,1.38254272371821,1.38253662530663,1.38337975072302,1.38351905055579,1.38362550624953,1.3837962589227,1.38446020758745,1.38402686280852,1.38484827829411,1.38493809143507,1.3852329694231,1.38524568939966,1.38584493973616,1.38566330177982,1.38623789270751,1.38595190272303,1.38620219346982,1.38632792442942,1.38790525373168,1.38776600584756,1.38817785758608,1.38828750309708,1.38853672746727,1.38922850186368,1.38948743955527,1.39237269359905,1.45457364093381,1.45445810194966,1.39134990692175,1.3913864853587,1.39139877893911,1.45431543926656,1.45283618530705,1.45271432543036,1.45545610430018,1.45346049781012,1.45265029283034,1.45324770403066,1.45432913744221,1.45223583136577,1.45280372548638,1.45256379260958,1.45278523423751,1.45235258247528,1.45232403254192,1.45236053245455
1.35839973825485,1.35851298916697,1.35885550761285,1.35907332508439,1.35936857396505,1.35938481163914,1.35965716592247,1.36020928807134,1.36020784021949,1.36023436005641,1.3603166891824,1.36069409783374,1.36085989720269,1.36098371423603,1.36103380882167,1.3612272812613,1.36119176119981,1.36107507816099,1.36103649209377,1.36124267267087,1.36137901699749,1.36155710759772,1.36191007017908,1.36255431946061,1.36287805470387,1.36310044081675,1.36330753958327,1.36328236197786,1.36313497407585,1.36304530186599,1.36296091790444,1.36298279722051,1.36317290150467,1.36343659213678,1.36363443986643,1.36369146294709,1.36384350397655,1.36407452182448,1.3641816883086,1.36428944048739,1.3645278406731,1.36482910446502,1.36495876917783,1.36510392534838,1.36554386831716,1.36589016478793,1.36600256012814,1.36654831205352,1.36662836113094,1.3666732988307,1.36679889232855,1.36687507143243,1.36699975849597,1.36717026862233,1.36712484392195,1.36737989981071,1.3673863892312,1.36782317644834,1.36805766841791,1.36845907291297,1.36865353242045,1.36888469239088,1.36898626838973,1.36956892191063,1.36983266921342,1.36962242812347,1.36967081709962,1.36971323099883,1.36993704430142,1.37007794583933,1.37027158312352,1.37058431894794,1.37082499244641,1.37102901882602,1.3711939190817,1.37132197876151,1.37139121566808,1.37144775451891,1.37264947639415,1.37233557136321,1.37230527966657,1.37236347617739,1.37254966340098,1.37288539751753,1.37325572897835,1.37352538869906,1.37370916258786,1.37406027862397,1.37406463150809,1.37424793627847,1.37452663785736,1.37493583438919,1.37514458512394,1.37539205825345,1.37560361281015,1.37599195979824,1.37591916875259,1.37611699000465,1.37608266145378,1.37613463848011,1.37615733219041,1.37667671222469,1.377004992396,1.37754945143843,1.37785906558624,1.37843531393105,1.37859448462451,1.37876507429728,1.37877266392203,1.37887209060599,1.37908944004962,1.37963612473726,1.37959839080264,1.37965947318561,1.37992258227055,1.38006153896845,1.38016885576123,1.3802654601421,1.38038988390449,1.38102909325008,1.38141379399918,1.38174490417429,1.38189819747237,1.38204527020086,1.38193499651553,1.38192389928532,1.38187084099722,1.38198707874583,1.38208292642259,1.38225319411924,1.38244976270425,1.38288641362209,1.38302433507618,1.38352493747277,1.38355542934111,1.38385126357051,1.38386031704299,1.38427543955012,1.38452251936859,1.38485189526159,1.38499490188385,1.38523604053114,1.38586347517871,1.38611619755884,1.38593366504325,1.38612704112023,1.38624418562832,1.3866394444761,1.38710427851584,1.38736726541313,1.38758390098296,1.38773951029089,1.38809796016314,1.38899883310266,1.38962558565201,1.3902034535241,1.39037758546836,1.39050359757359,1.39096520943918,1.39119445809477,1.39152622728921,1.39542564661328,1.39914831851492,1.40218483209955,1.40521214838061,1.4077167858958,1.45294131610029,1.45251297432822,1.4525815181755,1.45195556757232,1.45252996404412,1.45295322345346,1.45307420845651,1.45242542839088,1.45213240012977,1.45212598195061
1.35814837808266,1.35826625125062,1.35845993815391,1.35890459673912,1.35887394933446,1.35915457195648,1.35908809760513,1.36096235219174,1.36014476697765,1.360040026154,1.36006145187793,1.36060599303696,1.36090175773042,1.36050471664918,1.36070169239943,1.3642599123549,1.36082038631151,1.3600918134811,1.36076395688968,1.36108065392578,1.36129547677768,1.36155694904527,1.36202164539757,1.36265813709727,1.36315628101137,1.36367265123069,1.36305985755199,1.36297961469311,1.36291744000176,1.36292416395281,1.36297889378822,1.36245383670616,1.36295990543118,1.36591642183614,1.36364667546201,1.36314742510392,1.36380478414271,1.36403724075331,1.36384783220644,1.36386514256873,1.36357285342386,1.36495925147705,1.36502206093357,1.36497290601853,1.36504327575046,1.36546178602314,1.36528039129391,1.36714362257304,1.36700021915083,1.36658733477914,1.36691708877163,1.36660163633251,1.36705584535594,1.36732884621754,1.36711084913955,1.36690702029515,1.36739615525629,1.36719437278151,1.36791838849521,1.36794648559103,1.36818335788461,1.36857925335881,1.36830496678969,1.37000282639836,1.36835794750404,1.36874231879405,1.36914571225133,1.36927789572987,1.36905932882469,1.36958271435478,1.36963750118535,1.37022699747593,1.37018567609372,1.37090325468144,1.37056869323964,1.37079278753269,1.37097084220877,1.3706154213309,1.37596533382597,1.37174177719208,1.37183180871086,1.3718329154306,1.3723362557719,1.37249698729614,1.37296488629371,1.37285574070262,1.37354656539162,1.37365257365227,1.37385546661567,1.37390235940559,1.37419550766204,1.37454220453708,1.3750104457118,1.37525078741896,1.37865237598499,1.37620200134561,1.3757097813566,1.37575909112645,1.37583276165447,1.37575466648579,1.37580028299757,1.37616914272586,1.37675403018493,1.37794603328698,1.37807143735337,1.37845652725143,1.37850804980681,1.37820937016786,1.3782819622264,1.37832358749314,1.378393374168,1.38010220738645,1.37916394051284,1.3792316521437,1.37947546995562,1.38002303871899,1.37981704577341,1.37996078534647,1.37998237406259,1.38054009363584,1.38088114931324,1.38135175839085,1.38186327786307,1.38232597731331,1.381850683911,1.3817051246608,1.38169752422515,1.38171968943798,1.38193833077504,1.38211713739631,1.38255607637878,1.38263365712881,1.3835657625593,1.38308452922565,1.38387218340406,1.38348458286067,1.38393742804801,1.38388421196978,1.38478944001383,1.38464777639395,1.38497104852205,1.38443995264657,1.38693578313818,1.38650789389269,1.3860247876293,1.38583642056399,1.38669893049432,1.38647580209339,1.38664372597627,1.38691337188527,1.38720316061537,1.3871302869396,1.38730016730062,1.38735684374782,1.38738009842687,1.38708102216719,1.3902224838085,1.3900147126565,1.39085525751307,1.39055267068899,1.39005555810148,1.39119402382421,1.39353505972493,1.39114697047512,1.39163369473615,1.39239755862325,1.45503058963785,1.45838880829838,1.44961480027613,1.45115180926179,1.45300853373149,1.45331931473477,1.45375691560235,1.45234439433314,1.45180036809021,1.45244548366305
1.35843590119078,1.35824323549561,1.35838629093755,1.35837165006888,1.3585547951409,1.35853917845834,1.35890273545571,1.36014770142611,1.35993012445873,1.35980955727344,1.36007320655668,1.36040182644245,1.36048188387027,1.36025481246775,1.3601496567319,1.36025009676464,1.36041368987971,1.36052129471113,1.36079960313049,1.36106999106478,1.3612988640036,1.36153473301211,1.36189131383263,1.36220061396692,1.3628575377448,1.36305112039717,1.36327128338585,1.36270915781274,1.36267260441723,1.36273413924278,1.36293063677691,1.36306239995955,1.36327596957788,1.36314052334453,1.36292355572066,1.36302865397107,1.36327895255653,1.36366050880959,1.36380616039782,1.36380610001367,1.36386049581547,1.36429414852715,1.36457080030242,1.36453064265694,1.36469089879101,1.36496136827735,1.36471020617072,1.36469480667768,1.36513295899815,1.36580301630061,1.36653662668068,1.36686020056754,1.3666646599567,1.3665117010608,1.36642534158305,1.36671278498887,1.36671559984153,1.36706592601907,1.36716988253313,1.3675601957342,1.36770646743731,1.3679338586355,1.36772205823727,1.36780561688302,1.36800978111491,1.36844984478294,1.36885223867603,1.36902986834152,1.36911869458007,1.36925957461441,1.36946035605028,1.36961519676554,1.36983843404864,1.37014487722853,1.37038792566082,1.37046746723076,1.37074012983947,1.37083645305061,1.37114019512083,1.37133834420468,1.37147340706477,1.37177384329195,1.3719565931691,1.37237692499009,1.37303310668988,1.37310414301008,1.37297922110415,1.37318528130422,1.37324845366339,1.37344193478311,1.3736631692197,1.37416046820158,1.37445258144493,1.37477543110207,1.37476528236029,1.37482487038044,1.37513989986114,1.375386768056,1.37544289624611,1.37551519244254,1.3756190357544,1.3759816209453,1.3763081752928,1.3766917697656,1.37741091785079,1.37825690350949,1.37826739146698,1.37791421289445,1.377833074808,1.37788054702962,1.37788155353536,1.37789439750402,1.37847716689224,1.37892768964196,1.37920349973735,1.37960138882565,1.37968200543313,1.37990225801104,1.38002444888811,1.38018585375632,1.38044456690048,1.38087473148406,1.38119237919341,1.38111766280618,1.38138556696862,1.38141525267707,1.38150018218643,1.38160643073703,1.38175767980518,1.38191938836338,1.38212345107676,1.38256441195083,1.38279563991132,1.38321610349773,1.38330170865348,1.38347666699495,1.38341542082303,1.38383569469158,1.38409795804497,1.38430282884658,1.38437086585639,1.3843947985159,1.38462183878949,1.38540150197311,1.38566326723671,1.38589639021733,1.38603990730868,1.38634488819261,1.38644608748869,1.38673181272793,1.38693405128602,1.38711947566637,1.38712388980346,1.38722009719019,1.3872670181314,1.38739088892445,1.38876995079308,1.38951321828834,1.38998271347392,1.39012199084945,1.3900587927404,1.39022738951783,1.3904852949268,1.39082905978993,1.39162119089509,1.39206947374304,1.3954857264328,1.39869025714512,1.40194088512419,1.4048259804182,1.40708489549159,1.45245715563577,1.45123924250549,1.45085740672951,1.45101988327697,1.45126492973474
1.35935384169904,1.36118619956474,1.35702306921884,1.35787094753996,1.35802803861807,1.35827850787146,1.35851603073457,1.36025793187397,1.35975557456528,1.35929591639523,1.35820588106544,1.35842225785341,1.36060726417199,1.35900087746045,1.35963503213744,1.35999432361754,1.36033989180889,1.36049008723816,1.36100957701448,1.36111276399782,1.36138380539975,1.36147414558636,1.36181142719223,1.36143317319051,1.36121923051488,1.36252402307189,1.3640832559052,1.36203681941596,1.3623068332804,1.36249809902616,1.36280972434055,1.36366582312035,1.3639604789084,1.36321959862586,1.36278212343017,1.3626390885582,1.36303992200684,1.36316251557035,1.36414772513262,1.3636625713775,1.363694147105,1.36389117595848,1.36426293214797,1.36408585605774,1.36411195454605,1.36369968858383,1.36421729467902,1.36462412295657,1.36458921126101,1.3649332824251,1.36475484478041,1.36755096338081,1.36623128953513,1.36576316563113,1.36635455669017,1.36595079077151,1.36670101300645,1.36649579709355,1.36675057538695,1.36704844093618,1.36730963201723,1.36745836269985,1.36735710692958,1.36701856517832,1.36766751622127,1.36714512357718,1.36895583843707,1.36892300481824,1.36900442890714,1.36907790752299,1.36904779850206,1.36925682124885,1.36914921280562,1.36952028346597,1.37021047309301,1.37024081369756,1.37040481111541,1.37104960421265,1.37116201049761,1.3711292024234,1.37134766215576,1.37140198239184,1.37195939434181,1.37159224839233,1.37395123567167,1.37307624473634,1.37269821774244,1.372560679734,1.37247317897294,1.37284353987416,1.37302964252621,1.3737633666139,1.3741714283849,1.3743198476709,1.37478342013735,1.37445290386744,1.37513984201105,1.37496262798577,1.37534769389585,1.37529768980105,1.3753950250266,1.37559570774582,1.37588180175086,1.37599286406389,1.37655833299316,1.37852944649857,1.37581906028668,1.37726909626032,1.37733462867282,1.37749230309672,1.37755869415067,1.37762050357521,1.37829795179896,1.37837467439307,1.37920959929901,1.37921553964348,1.37956488738805,1.3798442908832,1.38003581994453,1.37983530459072,1.37943773334622,1.38067263602492,1.38070314077355,1.38065707029985,1.38102532414723,1.38103655601744,1.38124234953734,1.38147966518682,1.38160968411266,1.38162605548682,1.38188203816417,1.38206961730594,1.38266957568446,1.38247830010502,1.38311013197431,1.38274276610682,1.3833146603478,1.38334775591666,1.38391787706765,1.38387612672327,1.38396197685791,1.38414747696392,1.38432126731531,1.3853773814812,1.38561676975403,1.38551048853008,1.38590672375156,1.38593338525421,1.38633272149861,1.38652008366315,1.38703206797724,1.38689748962194,1.38732965214931,1.38671689528085,1.38756057663905,1.38764578602957,1.38816278585367,1.38928343359624,1.3897243257148,1.38966230436866,1.38974234839623,1.38964353705056,1.39020463163172,1.39014438183632,1.38970874928526,1.39007893528428,1.39055286007659,1.39243918465072,1.39248855858282,1.39229210314407,1.39230747877258,1.45285918014506,1.44903924444783,1.4474026733044,1.45001366801566,1.45522295167755
1.35744956279455,1.35753916404109,1.3576228444543,1.35797474513298,1.35794887453833,1.35813764103969,1.35844227476855,1.3596855444353,1.3595172866728,1.35911996720285,1.35864510991751,1.35873943110015,1.35945201123635,1.35934969066066,1.35951902552051,1.35981000532502,1.36004669712519,1.36067146129172,1.36101300101852,1.36110486861073,1.36119655552313,1.36124074573686,1.36127671602653,1.36125799610929,1.36122467544788,1.36158201477338,1.36141114339676,1.36171133405745,1.36191499164362,1.36203064392019,1.36205959568142,1.3620160685666,1.36216944541218,1.36262367923928,1.36268843970944,1.36277838133741,1.36266358467127,1.36272009938592,1.362851252845,1.36309862045194,1.36325372429425,1.36343654061748,1.36374750242032,1.36403149769699,1.36415093867535,1.36394988209851,1.36407599891634,1.36432175468505,1.36452581260701,1.36471641603983,1.36481958888986,1.36507587527641,1.36538462316552,1.36542994833584,1.36544111208908,1.3657134887852,1.36585509415182,1.36621236821727,1.36652070268684,1.36677620137444,1.36684796530217,1.36697029085451,1.36670180309767,1.36667979772715,1.36699168820144,1.36703717484521,1.36856587016476,1.36884803729968,1.36884304317795,1.36886785332106,1.36900082408508,1.36896124881777,1.36901190250399,1.36912756122301,1.36952557248617,1.36958833593196,1.36993342285482,1.37050046759779,1.37073095367294,1.37076200804676,1.37080218328759,1.37123266034041,1.37135400635534,1.37146008245804,1.37136282334523,1.37190352099648,1.37207992703658,1.37220417696073,1.37222632964279,1.37246520066879,1.37269810085493,1.37313109192645,1.37343786325801,1.37398043145548,1.37412410074207,1.37417399258723,1.37439286571016,1.3748037413267,1.37493753923951,1.37511835226164,1.37520959211389,1.37540183373902,1.37557238545542,1.3756950894549,1.37592889316547,1.37596939078403,1.37624291861173,1.37680403739758,1.3771454950848,1.37730930435654,1.37748922321972,1.37797780560272,1.37809116065571,1.37849074510213,1.37854334920918,1.37891458992242,1.37906185077865,1.37945962134296,1.37956681725689,1.37955566993605,1.379590451485,1.37990248928935,1.38024686123668,1.38039521317245,1.38054264452699,1.3805725634134,1.38079028185506,1.38081643188939,1.38102959759053,1.38123178056737,1.38145693464738,1.38178872744281,1.38192455530664,1.38247165432575,1.38255268828563,1.38271642677249,1.38272360928353,1.38306587639377,1.38333224260374,1.38356865116474,1.38368553762895,1.38387180387937,1.38413101323847,1.38471192557669,1.3850033523457,1.3855203821244,1.38564163245317,1.38583733082285,1.38598842511319,1.38621723382816,1.38642586789051,1.38664611703876,1.38670005769033,1.38692751358213,1.38707630866856,1.3875103580986,1.3878171307624,1.38794009603618,1.38836090209829,1.3886968289953,1.38925880105987,1.38919260908647,1.38945957581585,1.38966580369383,1.38978354905019,1.39036651167197,1.39046036317609,1.3908358594055,1.39167363317021,1.39197533857601,1.39228346510612,1.39759695220384,1.40114752706448,1.4048204601207,1.40794686507193,1.42414224996946
1.35733542425436,1.35762471037337,1.35790594289137,1.35889507481058,1.36104284807856,1.35793427991293,1.35818185623677,1.35982037510807,1.35971801344776,1.35910970209479,1.35851849995209,1.36190492859081,1.3593414549582,1.35927911680505,1.35952793480829,1.35955453696609,1.35954747539017,1.36102949787479,1.3614233371144,1.36103338686083,1.36128693901289,1.36074339491129,1.36119954659857,1.36071190624355,1.36115871226775,1.36109890080315,1.36138765644219,1.36126092874324,1.36180826448783,1.36163090897474,1.36158771748213,1.36153505521226,1.36158548372664,1.36157412357669,1.36465930355118,1.36290835924684,1.36240147020599,1.36217087732518,1.36198172740116,1.3626163361653,1.36277790150496,1.36291258584799,1.36313389483283,1.36429124392843,1.36441314111726,1.36404445889382,1.3637013787326,1.36423277314072,1.36452856599739,1.36462419214952,1.36494274434645,1.36508554620782,1.36518504996396,1.36478524770458,1.36544770461301,1.36504263524891,1.36548637568063,1.36558050840333,1.36879604717555,1.36654080952434,1.36653985583919,1.36632061819257,1.36653499211718,1.36610121723985,1.36625823322225,1.36657458192466,1.36813332083619,1.36922038741511,1.36856604441152,1.36863460753681,1.36888374397672,1.36897656267559,1.36839502688035,1.36878784127415,1.36892038115037,1.36910812426241,1.36950254544625,1.36990698935236,1.37048040022944,1.3704499530203,1.37062787905342,1.37070230617379,1.37120203278373,1.37115263423792,1.37154775502096,1.37152163829918,1.37193295683714,1.37182549869304,1.37193237446578,1.37209189528233,1.37225801161523,1.37252159916644,1.3726842623814,1.37385999686734,1.37384175706054,1.37350999801748,1.37405741369417,1.37426157525046,1.3749077739854,1.37486253161871,1.37500686941354,1.37515581476976,1.37541530165027,1.37538595261353,1.37544770773204,1.37624745460932,1.37617872051972,1.37685967660002,1.37706561485233,1.3771776578494,1.37723089617232,1.37838003616373,1.37825764794795,1.37803432283319,1.37857177685316,1.37815482733081,1.37898467679434,1.37896851921273,1.37939065241228,1.37927965686828,1.37942592913602,1.37905894359852,1.37886906076593,1.38027108827008,1.38027102249955,1.38008310209438,1.38375745975673,1.38024232503071,1.38025172766679,1.38082404144111,1.38122717349192,1.38140634784892,1.38143915016753,1.38187454334612,1.3825332129244,1.38219847008252,1.38242160146413,1.38243307833662,1.3830683587774,1.38325109398053,1.38357710926831,1.38328926251979,1.38395262110419,1.38409195046954,1.38436552518247,1.38571224916516,1.38549115513886,1.38560965805122,1.38570877349102,1.38586938083767,1.3861484935397,1.38592958392107,1.38671905101911,1.3865375957397,1.38701495039351,1.38705915478181,1.38746675799674,1.38751381354843,1.38753505011103,1.38796857463123,1.38781759242957,1.3885190084625,1.38887082308247,1.38911577125095,1.38946303903945,1.39183142759455,1.38963908829914,1.39034859593555,1.39159244341596,1.39140234116035,1.39105275405922,1.3915528566797,1.39185262967671,1.39207487669387,1.39217353659739,1.45473091965809
1.35787566470951,1.35794950052604,1.35817106749645,1.35834624490215,1.3581801560952,1.35821212511216,1.35852001311368,1.3593307692234,1.35939775338021,1.35911756931223,1.35869672137246,1.35878415558014,1.35905579095116,1.35931599898994,1.3595290201583,1.35973601606814,1.36001956828666,1.36073139402724,1.36096863281279,1.36057827250202,1.36058488091852,1.3606466215716,1.36056436063384,1.36056056760806,1.36052317337014,1.36077151096016,1.36078015002587,1.36103142652658,1.36110782025813,1.36124680864312,1.36135554354581,1.36139709832489,1.36137031635418,1.3613966678006,1.36146673501666,1.36156341273672,1.36187418538435,1.362295866419,1.36240703762901,1.36266707618832,1.36292245120725,1.36299192069648,1.36311242675869,1.36353709182884,1.36373005660066,1.36377773231558,1.36374744275326,1.36394093259797,1.36422655855595,1.36439233594443,1.36460087928068,1.36484023321773,1.3648303016758,1.36493775536593,1.36495597764251,1.36522779879171,1.36543784136788,1.36580940310068,1.36618694275919,1.36633968028327,1.36629238846899,1.36644045463113,1.36623673389986,1.36627188138041,1.36627737372109,1.36665065172948,1.36707164339002,1.36718440876395,1.36774309498399,1.36805469551432,1.36836790198536,1.36843217656991,1.36854461664109,1.36853658801108,1.36876654897559,1.36885423216087,1.36918781007501,1.36966178536876,1.37012187047839,1.37026110954805,1.37034242890237,1.37057968751524,1.37074501259259,1.37101885163981,1.37105786856001,1.37164469199478,1.37158153058358,1.37168063394538,1.37175986539786,1.37186472934906,1.37200840605484,1.37224382485484,1.37259444063726,1.37316686402455,1.37345358212341,1.37347841283489,1.37359155402391,1.37387593992245,1.37423006690565,1.3745588269006,1.37510948235349,1.37527242314324,1.37539097708006,1.37539768341943,1.37562678257777,1.37592569766918,1.37640137042363,1.37677161287915,1.37689461264549,1.37698732240913,1.37728144573889,1.37806527439191,1.37777733460582,1.37797078569359,1.37803468068637,1.37831150080705,1.37854694883576,1.37878675002817,1.37890198039056,1.37892242200458,1.37892629925433,1.37892006185808,1.37900814424401,1.37958650806909,1.37976943619979,1.37997378747814,1.38011274574937,1.38038953370277,1.38045342746704,1.38070022864784,1.38092684845289,1.38116000512068,1.38128934806883,1.38177233852673,1.38199548154555,1.38208831576944,1.38218862844837,1.38246748876333,1.38285053616067,1.38298712555068,1.38305227263968,1.38327770090852,1.38349484882159,1.38392263910552,1.38431357205874,1.38490530978824,1.38517411859392,1.38528923384298,1.38535389135693,1.38551058164339,1.38567841283831,1.38581117718801,1.38600035842223,1.3861813653438,1.38643010454002,1.38681302069913,1.38705176751335,1.38739901087469,1.38754407273047,1.3878580634627,1.38810557699867,1.38842571745552,1.38848625877693,1.38868243425174,1.3891189785847,1.38949159089802,1.38994209225996,1.39031575483008,1.3907861395664,1.39091905447916,1.39094117437268,1.39121136611628,1.3915231005789,1.39172454150884,1.39188586495645,1.39217089027354
1.3581985497358,1.35814170702469,1.35841062179942,1.35842475964864,1.35819868914064,1.35827492276573,1.35832109082001,1.35951689795106,1.3594869085157,1.35911189724178,1.35841373080256,1.35869289473941,1.35886895394566,1.3593765829281,1.36169456297643,1.35974019135999,1.35996877621987,1.36510511660951,1.3591899851114,1.35970329357602,1.35994530205089,1.36038332182794,1.3603261980039,1.35981509424078,1.36044341387866,1.36004001343685,1.36065617003726,1.36050540611276,1.36064686371701,1.36085441099945,1.3613225483545,1.3613964206206,1.36116624629888,1.36106493458539,1.36077434170632,1.36131811015228,1.36130441998745,1.36275626051604,1.3627647337613,1.36268804910822,1.3633945330839,1.36284892940651,1.3629173742444,1.36286782242139,1.36330143026138,1.36353260852666,1.36360657041658,1.36352939800307,1.36409764328768,1.36411333400144,1.36437578388054,1.36479404905915,1.36827407915266,1.36471506244766,1.36507750069277,1.36517383260472,1.36536152204512,1.36612254586495,1.36640700571955,1.36620950461894,1.36613913874668,1.36633654131943,1.3665533653242,1.36583176339793,1.36635842863908,1.36641338818104,1.36685081701793,1.36677342618035,1.36723208567675,1.36757565103512,1.36784417894908,1.3682797402935,1.36830802404384,1.36850080200094,1.36838642027986,1.3687575061834,1.36870461788458,1.36942280556602,1.37017844945501,1.37016558999551,1.37028087275812,1.37017331005739,1.37058941470075,1.37079117994106,1.37048574560718,1.37237964952355,1.3749690818237,1.37504229914568,1.37182376409793,1.37170552403907,1.37164868573865,1.37198311801161,1.37227443108362,1.37265461090962,1.37359773241366,1.37326069190736,1.37322837602713,1.3733168566484,1.37369185604293,1.37392476113256,1.37556516739335,1.375513254342,1.37531073607942,1.37559425865666,1.3754259403237,1.37571774446176,1.37647901100673,1.37710487673445,1.37654937625468,1.37662917415272,1.37678480371912,1.3788116875553,1.37694320082086,1.37743073431711,1.37830037993084,1.37761390571659,1.38242707748717,1.37846943240339,1.37861147602456,1.3785903543393,1.37863971865467,1.3785328162392,1.37876791944529,1.37913925736902,1.37947235849336,1.37977118043575,1.3800782889466,1.38068570089937,1.38055508604693,1.38057057750897,1.38086239321541,1.38074256089419,1.38112172817342,1.38166688977974,1.38184553292197,1.38181948092467,1.38184741727737,1.38236771178913,1.3829431998037,1.3827340744091,1.3826868034252,1.38278431456973,1.38335415715085,1.38348972174676,1.38414728974164,1.3844700951348,1.38485292566962,1.3851797619572,1.38480491004453,1.38521329164861,1.38535425383478,1.38545924167851,1.3854880607495,1.38572092628541,1.38588464443772,1.3865171901457,1.38665220896248,1.38725816869057,1.38752797388055,1.38790238165967,1.38841386664383,1.38861743342703,1.39220007964239,1.39234675846638,1.39253758477915,1.38931050856679,1.39017623703558,1.39006463804456,1.39031613246474,1.39045606525202,1.39051018183063,1.39087460913509,1.39125895801175,1.39150304701276,1.39150762240151,1.39161282454925
1.36475206680834,1.36297246461033,1.36194925639278,1.35843916287216,1.35856848062356,1.35872007470992,1.35895702300235,1.35946951477746,1.35961686980226,1.35940700252076,1.35894673884208,1.35872956406856,1.35880535952381,1.35912022771374,1.35953898119974,1.35955223675346,1.35927921270888,1.35905516359062,1.3590675904998,1.3592693754139,1.3592881455129,1.35924998843272,1.35950464979462,1.35953682064685,1.35970706316155,1.36003154324529,1.36004139420037,1.36017497035746,1.36018256285019,1.36044312095682,1.36067126877952,1.36093895269928,1.36108421344431,1.36112025042189,1.36101777376844,1.36130117603158,1.36152177985921,1.36204990445404,1.36203990610168,1.36208221514963,1.36199993907466,1.36222506384213,1.36231138739661,1.36245842591217,1.36253874134226,1.36289735219259,1.36296377204368,1.36324083542607,1.36345070015213,1.36368081142751,1.36393668239263,1.36424410814538,1.36405056338637,1.36429258084152,1.36467755622853,1.36507187518018,1.36526729088559,1.36564825854879,1.36591099058377,1.36607074771802,1.36621994825254,1.36617639109987,1.36584132435416,1.36581988854931,1.36583581073981,1.36610390707099,1.36624146713346,1.36639582661939,1.36665320294655,1.36712226173977,1.36764055940764,1.3680317406076,1.36839390351397,1.36847939765967,1.36851161927172,1.36854735798693,1.36881832187928,1.36927285449205,1.3700601667676,1.37007065755726,1.36996454127997,1.36995584412304,1.36998995657256,1.3703199387841,1.37044673225551,1.37062970419459,1.37082626201483,1.37112703029567,1.37141875158562,1.37149255829627,1.37165635181946,1.37189093070304,1.37212108369121,1.37211164403638,1.37230828284459,1.37269151870119,1.37289530414263,1.37298062375792,1.37323624371978,1.37353212193745,1.37409456757281,1.37460195197958,1.37498817329162,1.37517120825836,1.3753735343064,1.3757585820842,1.37595941494614,1.37631273522411,1.37632463465227,1.37617711671165,1.37635270181907,1.3762550249351,1.37663569042255,1.3771740603377,1.37758719208778,1.37751718956548,1.37745478580089,1.37786160004871,1.37832289820489,1.37829825071575,1.37822852565221,1.37836734506545,1.37846788679277,1.37887694336915,1.37907467981076,1.37948778505335,1.37964043929792,1.37977568273961,1.38001963201026,1.38037911137697,1.38071186649473,1.38087174496514,1.38096588523215,1.38121511716386,1.38165364454586,1.38179031358217,1.38174700440244,1.38201156954472,1.38232089189258,1.38243366884127,1.38250341756125,1.38278451021616,1.38306534101088,1.38371254727123,1.3841332006535,1.38425680179955,1.38455495055575,1.3846758941992,1.38485315067228,1.38503463988645,1.38531384741275,1.38544127235478,1.3856668802414,1.38581197955341,1.38601747784136,1.38633027477429,1.38668151901839,1.38721363105381,1.38757440346865,1.3878527484933,1.38815294707492,1.38834811510346,1.38830831829593,1.38850884512396,1.38903099957097,1.38980160860058,1.39005927953441,1.38995934137588,1.38999011197024,1.39002473607564,1.39024647957131,1.39038802968543,1.39081006208145,1.39111634216752,1.39156675198613,1.39181900815762
1.41612126675949,1.41711942147772,1.41735894207683,1.35837948537335,1.35892223691158,1.35901559642754,1.35925656388333,1.36074361733392,1.35997263066216,1.35968493468022,1.35910413259199,1.35844897020228,1.35842188531914,1.3585889229108,1.36000201119973,1.35926463907324,1.35900318259829,1.35875454935367,1.35876436753905,1.35900805730939,1.35885784253193,1.35857840870062,1.3589439647422,1.3586636722891,1.35942449766051,1.3596365451165,1.35995214867711,1.35957205630534,1.3597246810354,1.35996846652333,1.36011994120988,1.36043498979085,1.36136669059924,1.36124596133137,1.3610498573034,1.36139624721539,1.36161236570441,1.36537193907688,1.36140185938827,1.36151217249452,1.36168061726511,1.3614947326035,1.36208344665104,1.36173784776364,1.36233843757145,1.3622073730186,1.36247064543399,1.36263084526368,1.36302897832561,1.36314665736354,1.36346048280317,1.3640713516481,1.36363380663978,1.36376577388697,1.36441562612752,1.36513231221025,1.36498503643324,1.36499324882457,1.3654984167188,1.36576460425266,1.36663987834948,1.36608210199009,1.36525265301628,1.36519311047957,1.36563371488652,1.36557703250977,1.36524692977843,1.36539435315393,1.3659119032538,1.36673472609321,1.36738624021581,1.36809433777133,1.36844571890109,1.36869768322741,1.36830526192444,1.36834045717265,1.36854757765339,1.36883075582222,1.37072065994799,1.36994513769709,1.3697873215084,1.36937465793323,1.36957336870696,1.36962085463224,1.37065640207558,1.37063167430496,1.37077538135827,1.37111058299149,1.37125489913477,1.37135563936373,1.37146456276486,1.37208456324225,1.37186658890234,1.37181388758134,1.37185707866896,1.37240415219833,1.37243621205377,1.37262860861397,1.3726628533759,1.37292217004836,1.37284533354277,1.37291827443126,1.3737431918746,1.37819921927177,1.37525093633176,1.37595710905068,1.37550697565899,1.37579159360465,1.3788433325467,1.37557105353039,1.37528456188617,1.37567861037471,1.37627529949507,1.37680099142152,1.37722130174253,1.3770590808794,1.37730855490601,1.37724067623032,1.37866444577381,1.37802768822148,1.37787543641212,1.37787509379736,1.37843684626756,1.3783735177495,1.37892923226261,1.37880890042271,1.3795288070072,1.37913875298236,1.37962551328219,1.38006487924947,1.3809726449617,1.38097921395337,1.38057819433447,1.38051199415703,1.38194729124484,1.38201094128395,1.38119462812177,1.38170622721856,1.38193239915001,1.38214539988356,1.38227528060723,1.38256507975087,1.38270392859558,1.38386532665236,1.38449476554658,1.38400634358059,1.38410903650667,1.38447744857559,1.38462217445308,1.38490593993044,1.38525883034925,1.38557176278566,1.38570277634692,1.3860818462017,1.38584884797802,1.3861694290984,1.38652055946599,1.38911675624311,1.38754800328231,1.38778616299045,1.38803944301316,1.38837528303659,1.38769666053713,1.38769003969375,1.38893734766698,1.39080984882241,1.39037478175383,1.38965287200392,1.38973658872196,1.38952442949477,1.38897946410716,1.3898576108347,1.39036493231693,1.3905868647861,1.39180634411948,1.39197724009169
1.41573480422588,1.41647965018095,1.41691335716542,1.37979514042552,1.37402046682339,1.3689438220154,1.35947754310152,1.3598306516276,1.36001094520365,1.36009998725967,1.36038027396701,1.36041224356187,1.36025840393606,1.36014330110814,1.36005726996508,1.35968443791217,1.35923939892994,1.35892326358343,1.3589321341325,1.35928890105036,1.35922366561388,1.35906350891068,1.35868559788081,1.35886141250673,1.35934695496989,1.35957331207553,1.35951027757454,1.3595894329085,1.35958332800731,1.35971066451926,1.35981040190637,1.36007405943931,1.36041320140647,1.36064000390848,1.36083163898486,1.36116322279044,1.36122747444449,1.36093881456173,1.36094025544185,1.36106607732574,1.36122326175679,1.36149188646463,1.36155140644727,1.36177236949736,1.3618808178889,1.36212740772389,1.36201702405664,1.36227975351156,1.36241312721517,1.36262314626544,1.36278182028168,1.36271503268141,1.36293675537781,1.36345755843642,1.36408187510889,1.36428350679059,1.36436673480917,1.36466082439895,1.36477975681636,1.36476855538338,1.36470062989777,1.36494901375441,1.36484204243199,1.36497766279732,1.36537808201175,1.36551074541735,1.36546259586869,1.36561338212398,1.36585672022255,1.36625220231435,1.36658668306648,1.36663347560274,1.36705023671808,1.36730326007668,1.36803510596408,1.36820643987659,1.36847409291833,1.36870546592693,1.36886384204324,1.36927600527934,1.36932575390772,1.36928879474944,1.36921121807872,1.36944144909708,1.36996821965178,1.37030648650122,1.3709599862362,1.37108032803319,1.37112655084417,1.37118990656873,1.37140513783641,1.37167370693955,1.3716522574683,1.37132634156523,1.3716176474334,1.37240223812013,1.37260660797841,1.37247011022006,1.37247966635463,1.3726634857182,1.37285507869003,1.37304532236776,1.37338253611153,1.37372087793128,1.37412915763594,1.37433136527793,1.3748178155987,1.37505057474387,1.37503326150114,1.37535454854858,1.37587943941037,1.37605252678843,1.37617490060396,1.376462682875,1.3766075807992,1.37673830301615,1.37675377367827,1.37708183420507,1.37731126569689,1.37761851542383,1.37769220697234,1.37798727080136,1.3779496861863,1.37822378372148,1.37833363813145,1.37876662255879,1.37883740580062,1.37901620032474,1.37915518973914,1.37959646871701,1.37969341982379,1.38009128657046,1.38008782716557,1.38043316228748,1.38094466155349,1.38139649956166,1.38154415604772,1.38174739929737,1.38187441933985,1.38203272235331,1.38226779861933,1.38271543675116,1.38336537325425,1.38381697589286,1.3839465696196,1.38364262502152,1.38372098294643,1.38384780260015,1.38428092013391,1.3845234829723,1.38478801719461,1.38506615842547,1.38535591003354,1.38569106708209,1.38590614237531,1.38609953649378,1.38611349822118,1.38856930508496,1.38769998400844,1.38758848671847,1.38777434689489,1.38801434423957,1.38804327187306,1.38804789309294,1.38818775607433,1.39078988289497,1.38990830898103,1.38948130797,1.38935046992553,1.38922066805117,1.38919833308793,1.38951493181437,1.38997119663143,1.39047708630817,1.39147684380459,1.39202142150419
1.41490006995217,1.4163076908327,1.41778777929576,1.42084270360974,1.41776440570697,1.41819239866801,1.35931213562144,1.35911150320159,1.4075499860328,1.37274330259419,1.36154938165088,1.36128320049633,1.40680950273601,1.36025222967183,1.36048672702489,1.36025074951372,1.35932625425265,1.35885171365149,1.36079520053486,1.3599803133606,1.35978001732272,1.35964363956767,1.3582259789752,1.35853232284155,1.35981819681815,1.35957435838482,1.35910062815711,1.35955538289754,1.35938667079856,1.35946055089097,1.35940302656117,1.35952841196023,1.35926860125349,1.35987629811385,1.36071228257087,1.36485934664253,1.35987584514936,1.36063596418917,1.36042502281856,1.36065850500637,1.36097223344602,1.36122690432977,1.36166959642893,1.36107534586459,1.36229757118286,1.36168991692095,1.3618834242951,1.3616064362344,1.36210733734923,1.36208859441292,1.36195137406387,1.3620971603839,1.36242401105972,1.36235405726514,1.36439692096132,1.36382521334377,1.36400339944006,1.36416292244418,1.36393312068566,1.36426897455343,1.36440391481297,1.36470097357041,1.36422718984583,1.36443313766275,1.36569590461574,1.36543891346256,1.36556504544832,1.36553212469634,1.36570086328894,1.36586604296125,1.36608035290399,1.3660775868201,1.36617089804405,1.36648543235704,1.3664408279954,1.36816788132717,1.36836020449977,1.36880929982978,1.36876561842658,1.36898016176605,1.36914042162945,1.36894090686725,1.36881360651159,1.36843395533971,1.36878214340286,1.36913952003182,1.37222010307313,1.37112988420296,1.371032656916,1.37097420509492,1.37121521113728,1.37188820473836,1.37012374959605,1.37037545917658,1.3708253024964,1.37309889485393,1.37291878558147,1.37230599689256,1.37206004502386,1.37243926004014,1.37305546944546,1.3728306538408,1.37321274390487,1.37341516522978,1.37385129997822,1.37380049374531,1.37400182573316,1.37465115511735,1.37474816248622,1.37496277500243,1.37702550133967,1.37639983030177,1.37623115603179,1.37578055369956,1.37561407977856,1.37568980823277,1.37655979131405,1.37652897686305,1.37715967172194,1.37711716336368,1.37752440464824,1.37793489929958,1.37790338195006,1.37759294050239,1.37829306543031,1.37793566458031,1.37865952563042,1.37836045080828,1.37895961395727,1.37910337293679,1.37931929266139,1.37967763065703,1.3801060539639,1.38006497266882,1.38022020032211,1.38118035531616,1.38170131597494,1.38175895460621,1.38183936268488,1.38187001524283,1.38193202457068,1.38284522352175,1.3841923045196,1.38392962678699,1.38335958914764,1.38354711580498,1.38339332098412,1.38358607799465,1.38381019751258,1.38411401628858,1.38425222101007,1.38465358957946,1.38493703323344,1.38536317644417,1.38610970940904,1.38619872274476,1.38588607912195,1.38888447718895,1.38688717335795,1.3871634761794,1.38761656166543,1.38767264255653,1.38852573050794,1.38847788321689,1.38776643281144,1.39138738760164,1.38907373773447,1.38886474641927,1.38908106110894,1.38898011800346,1.38904376775669,1.3923569953832,1.38964190281325,1.38973479897571,1.38931950529152,1.39266557917025
1.41474464025051,1.41596525924804,1.41714449811943,1.41843795887806,1.41811921902514,1.41814612925475,1.41481116625689,1.41333209116771,1.4107242242526,1.38046194713264,1.37484975705885,1.37043659841366,1.37665500078086,1.36034863700768,1.36057157566421,1.36010274502795,1.35953752340037,1.35984051419573,1.36016718911543,1.36001912158067,1.35982690470987,1.35960725724241,1.35946638860978,1.35931279011318,1.35971205315441,1.3597346257246,1.35953496782674,1.35941611534043,1.35928434526916,1.35933698268301,1.35941468405192,1.35935010677404,1.35934205256968,1.35948908491457,1.3603689810199,1.35995435751529,1.35973948192182,1.36008523385077,1.36019564474961,1.36031887604425,1.3604971727879,1.36074594648109,1.36106619923373,1.36123470274938,1.36146527424946,1.36174128614784,1.36162571027516,1.36186397389382,1.3618271841746,1.36183146813958,1.36175634828353,1.3618908743015,1.36224259882956,1.36246148960343,1.36282893237607,1.36333013014347,1.36354185320321,1.36378339703736,1.36378953553153,1.36393484279097,1.36402713404348,1.36412654120966,1.36416586075297,1.36441551186499,1.36494134530826,1.36508201581586,1.36524240034083,1.36547725136204,1.365429369588,1.36552044871954,1.36558582654599,1.36586801450891,1.36614492941276,1.36647744652209,1.36669994322802,1.36739408085801,1.36782404627949,1.36816384663525,1.36856202482962,1.36879911415813,1.36890672681835,1.36849035324589,1.36842706465274,1.36851256070675,1.36871715081661,1.36914064167377,1.36971027842118,1.37031604908589,1.37041808534058,1.37046569201015,1.3705645294998,1.37044995740861,1.37028027959163,1.37035420511691,1.37052425308584,1.37074552617034,1.37117591992965,1.37163232537902,1.3717816350922,1.37207089565177,1.37243906689385,1.37266617375946,1.37268159692377,1.37306426134686,1.3735290882345,1.37387331158516,1.3743876964979,1.37465207716384,1.37468315027365,1.37473555180961,1.3768982235921,1.376490150762,1.37570990804052,1.37564329464702,1.37542816389436,1.37579914619778,1.37585704734251,1.3763030245561,1.37648555617282,1.37659272121923,1.37681327238102,1.37704298721732,1.37745533588177,1.37750412001132,1.37758389742419,1.37790765912456,1.3780349140244,1.37848273792969,1.378700491546,1.37891287857943,1.37916736503531,1.37936194683273,1.37968617378911,1.37994849669864,1.38022762453194,1.38055972028322,1.38079503765569,1.38117156180442,1.38138194307688,1.38160061883235,1.38189329680415,1.38223702741434,1.38236723094904,1.38283031147001,1.38305479329914,1.3829565523145,1.38306273353338,1.3831985094756,1.38354188129951,1.38386964350181,1.38409727865561,1.3844862678778,1.38474476374899,1.38522666718844,1.38550980020926,1.3857909106016,1.38571078705925,1.38588303579458,1.38637168724521,1.38676517352081,1.38699465966761,1.38706877369634,1.38705137221262,1.38723401826646,1.38725514711767,1.38749815862975,1.38793240096082,1.38834744789577,1.38855711353296,1.38867519704269,1.38878137609394,1.38891477829551,1.38925542278262,1.38938189614438,1.38946820026188,1.39010932972131
1.41461513419609,1.4160886098843,1.41673015275346,1.41885688142324,1.41951710563097,1.41973833526813,1.42032535344994,1.41869894589717,1.41911853840429,1.41882209564958,1.4185010550722,1.35970656796704,1.42357921402916,1.36012035239613,1.36128483982923,1.36187764576687,1.35877246849827,1.36149570561567,1.35987704459614,1.3599189733384,1.36522235483175,1.35935910228611,1.36114100060439,1.35953867730531,1.35994983942576,1.36023051829129,1.35992197064276,1.35930878197885,1.35896122858895,1.3592201879913,1.35950139416594,1.35921709026412,1.35913140846796,1.35895664630763,1.3622632850992,1.35963845989818,1.35918192616191,1.3597085687768,1.36002880106961,1.3599831534013,1.36008823774063,1.36017085755164,1.36367141462475,1.36094417430665,1.36132181815647,1.36128719033879,1.36181624775683,1.36149036084259,1.36193363011315,1.36157242681998,1.36141735838482,1.36145249573425,1.36233503736078,1.36223127319696,1.36267848613658,1.36299631915686,1.36336869309555,1.36355644341728,1.36354242131169,1.36363634422752,1.36373809462512,1.36363136303379,1.36411369688421,1.36758507671454,1.36821068058749,1.36478219356096,1.36501124702713,1.36561918631286,1.36508965609002,1.36515332530642,1.36493902795282,1.36550301064135,1.36618874632559,1.36641612587144,1.36658754040216,1.36691123341797,1.36683517520295,1.36742930102586,1.36862105033875,1.36876316816433,1.36922766773407,1.3676698413733,1.36810484747483,1.36829418379783,1.36864035489649,1.36890037352659,1.36965221078271,1.3700093922961,1.36982146869002,1.36993510056607,1.36999597118405,1.37031764146688,1.37003276163582,1.37021755818413,1.37024316075183,1.37075182600016,1.37126453190166,1.37133710046137,1.37134619882321,1.37168381344019,1.37209566209451,1.37236000519233,1.37234352319312,1.37209860799751,1.37350971747239,1.37374098746083,1.37488207989739,1.37515429732781,1.37440425623503,1.37456208806022,1.37749594371158,1.37678115769727,1.37495076152395,1.37512809996032,1.37550039980339,1.37502684510262,1.37599830853227,1.37551873590817,1.37597606522392,1.37589974602704,1.37573385785885,1.37545493351743,1.37571663477532,1.37691737273553,1.37732194277467,1.37718961611229,1.37768437389823,1.37851020716639,1.3786799880901,1.37863456825264,1.38148712162205,1.37911534735999,1.3797446951401,1.37963903782353,1.37998974067681,1.37959964447966,1.38018349201255,1.38047323158412,1.38097551403766,1.38127610612969,1.38164941378389,1.38205711246771,1.38209305851607,1.38261504176768,1.38244529953958,1.38278697696949,1.38262179318969,1.38301239821982,1.38323965192532,1.38366740579864,1.38398580596784,1.38424263356665,1.384838232317,1.38478564323532,1.38538206858362,1.38518731823116,1.38555888797689,1.38558524153493,1.3863747386549,1.38644086337953,1.3866152066019,1.38661358920927,1.38657815290481,1.38683401259483,1.38719463359762,1.38718053293676,1.38774039783272,1.3878747823033,1.38839178222239,1.3883718416564,1.38858338202243,1.38884364541572,1.38915613521188,1.38918654001971,1.38934853178463,1.39023479433347
1.41543977158777,1.41564946966413,1.41661662954752,1.41851192330119,1.4188266057985,1.41900548908726,1.41832387288723,1.41828443869618,1.41867189020844,1.41878091668166,1.41879953689674,1.41882472591072,1.41901894205615,1.37592050550815,1.36129315013642,1.36164222265063,1.36147257688194,1.36072524328397,1.35993384397329,1.35964522759742,1.35951742187425,1.35967932832031,1.36000924224455,1.35939191819341,1.35930723546153,1.35915262855245,1.35909689220678,1.35894244931296,1.35891256186286,1.35898747004587,1.35905353300601,1.35895267569711,1.35903826767116,1.35899304791943,1.35907239028372,1.35926865953135,1.35892145968631,1.35911206914703,1.35931332941737,1.35956488193795,1.35981999032895,1.36000316179998,1.36011533894162,1.36049020354239,1.36129989401553,1.36145859336531,1.36131052152037,1.3612121630978,1.3612739080912,1.36134683467577,1.36132239641686,1.36151345550964,1.36186162491106,1.36235436964053,1.36248467710365,1.36283742954605,1.36305111362614,1.36332606653081,1.3634089937523,1.36342641001117,1.36345344356587,1.36348864280136,1.36383507098208,1.36396218591909,1.36449720043962,1.36504332809523,1.36474685267448,1.36499244020479,1.36499481464172,1.36506339490855,1.36518521947224,1.36560257274355,1.36601974883228,1.36626478969599,1.36635021259202,1.36646730514301,1.36647490904626,1.36675326211577,1.36667792855872,1.36695434260866,1.36739334543563,1.36765416280638,1.36804288298547,1.36831790407631,1.36829671608635,1.36857160341812,1.36894244436007,1.36932806917289,1.36934524634566,1.36937831705118,1.36950125600556,1.36957419143476,1.36973524798515,1.3698273461107,1.36997714320596,1.37019642293536,1.37062473216294,1.37092417740453,1.37098967161007,1.3712743188365,1.37167720529507,1.37204972201699,1.37213087395995,1.37224525056229,1.3728583407216,1.37331737611062,1.3750620425082,1.3746565373576,1.37434264396039,1.37398586646134,1.37382713676995,1.37394969022485,1.37423208650771,1.37479498999115,1.37491199435765,1.37521298269881,1.37513913001212,1.37527711575098,1.37532309971688,1.3753734528451,1.37548354564217,1.37565859636399,1.3763352609081,1.37683163755735,1.37700640099704,1.37728238489367,1.37793636063532,1.37818157231507,1.37838940372238,1.37840858979265,1.37855027066769,1.37892889829333,1.37932219236272,1.37967215476144,1.37965238260814,1.37982082681949,1.37996886726844,1.38035220108213,1.38060513732748,1.38095014845145,1.38125059851098,1.38149863024518,1.38176667503233,1.38212381606812,1.38245317638067,1.38259699322312,1.38283585311379,1.38311328156004,1.38355057123529,1.38365958919711,1.38379383071619,1.38411583120773,1.38439516289874,1.38479084524012,1.38490785274387,1.38513686538499,1.3851686380461,1.38564380044349,1.38592065270129,1.38639610342452,1.38666891290461,1.38688338111237,1.38641330374893,1.38639631475821,1.38642391718389,1.38706777551589,1.38733430465174,1.38776246563604,1.38785897272475,1.38807473733535,1.38829775943273,1.38865710159798,1.38897202758886,1.38907956596758,1.38932045934009,1.38961608246938
1.41610266405276,1.41533902229333,1.41706177885495,1.41796467352114,1.41801619274601,1.41925761886788,1.41767003945817,1.41763327909406,1.41874550484573,1.41889129098175,1.41943491438645,1.41957938382399,1.42038747346334,1.42024567267319,1.36095213587782,1.42412595760304,1.41625441569438,1.36002295951649,1.35875487587777,1.3592300274976,1.35914503614095,1.39703756622971,1.35990288603913,1.35875980213098,1.35862624404353,1.35861826626798,1.35847521106279,1.35843143418713,1.3587056954543,1.35879141469019,1.35859845947457,1.35874909075254,1.35888720001094,1.35908444299139,1.35897877287813,1.35953408363678,1.35827785535038,1.35823864470967,1.35864027258079,1.35920641855327,1.35957699860742,1.359794576806,1.35996880592685,1.35986316213388,1.36207636545686,1.3616843611027,1.36091744397998,1.36061389237057,1.36090587235927,1.36100836846608,1.36124073135292,1.3611546571068,1.36142443794902,1.36279414767918,1.36212952504734,1.3627353823253,1.36280518585153,1.36318713348351,1.36347906520328,1.36315608638191,1.36324923255592,1.3630172932788,1.3621937755698,1.36354042471584,1.36443601715558,1.36610364565363,1.36404213333376,1.36452469241611,1.364935229091,1.36492876940694,1.36499005542948,1.36579461222173,1.36823923555305,1.36608593119709,1.36622344812002,1.36586163094149,1.36600903741154,1.36616975400207,1.36644768211209,1.36650585021486,1.36621758236282,1.36739090121258,1.36835135441762,1.36857094283806,1.36779285083091,1.36800533693968,1.36820604987152,1.36914065218568,1.36881369308787,1.36885470699979,1.36853722905653,1.36896184389606,1.36928818498098,1.36959851786572,1.36941998348906,1.36954672335508,1.36917199377145,1.3696042094658,1.37050355520173,1.37090645107411,1.37136568311791,1.3717249408606,1.37210205755299,1.37175549725296,1.37181797173882,1.37162420813802,1.37553705188663,1.37407778947993,1.37241565346303,1.37258974278844,1.37280233482772,1.37327919406231,1.37397221553631,1.37426079013705,1.37483879893197,1.37453419284938,1.37496898663226,1.37439556691795,1.37457922312143,1.3748955723833,1.37499143440653,1.37545984944154,1.37757712232431,1.37703058143403,1.376681451923,1.3769469140277,1.37858116493542,1.37816025278143,1.378163195261,1.37811505628092,1.3784351742538,1.3788712624382,1.37913197509426,1.37916613653777,1.3795659745363,1.37945005124161,1.38000888707463,1.37999550602847,1.38029204546876,1.38063818417894,1.38101761044455,1.38110536901994,1.38116074704266,1.38565632395313,1.3823456867793,1.38276130283733,1.382736357689,1.38321380807155,1.38420833453716,1.38366659767285,1.38358907881957,1.38377107332927,1.38418923223122,1.38461492102092,1.3849265990523,1.38444343446517,1.38510946536807,1.38514396644791,1.38591856576895,1.38633260493332,1.38702294242606,1.38769919765994,1.38588323273189,1.3861485279048,1.38639157262933,1.38675223471655,1.38743267959384,1.38741566199018,1.38752910426891,1.38775906817961,1.38796829356621,1.38857936560005,1.38902737193788,1.38891756407237,1.38920355190885,1.38933830643189
1.41654992530919,1.41679786770424,1.41710453630442,1.41753568247487,1.41798347144792,1.41845913105484,1.4182462979122,1.41828762209496,1.41867008917233,1.41895447524593,1.41944696723573,1.41987649268181,1.42036992843964,1.42068162556375,1.42093011519356,1.42063424959238,1.41981000870158,1.38122414671444,1.37795200338982,1.37643465640487,1.3738381132837,1.37087926345193,1.36818290907415,1.36595547728396,1.36389505836441,1.35872712045519,1.35855619157455,1.35851374650401,1.35855041161144,1.35872077726289,1.35877869127643,1.35876890805833,1.35888192955176,1.35874024506938,1.358815545717,1.35892380977943,1.35854000902025,1.3583742209662,1.35870086165668,1.35904346659866,1.3593721124033,1.35952042107908,1.35939937402991,1.35939792434123,1.35932996938037,1.35983350553648,1.36041441889245,1.36062698391114,1.36070778380796,1.3607705423224,1.36082617114605,1.36110539566245,1.36130169303533,1.36148790021839,1.36167858333361,1.36190153690679,1.36215735997212,1.36226934723449,1.3622666197039,1.36256475909029,1.36265921991077,1.3627404112334,1.36272585492717,1.36329608631986,1.36365882608284,1.36371016317223,1.36397145374525,1.36430077998862,1.36450729631675,1.36468352126428,1.36484801976305,1.36511339874598,1.36516030526425,1.36543272070891,1.3655130971686,1.36583626039417,1.36592065677713,1.36611427200579,1.3660760801558,1.3663124539559,1.3665668342783,1.36716345411335,1.36728766040605,1.3671936789981,1.36747024106329,1.3677144494601,1.36803367503737,1.3683266373432,1.36845112989899,1.3684981596653,1.36854118455857,1.36860366707321,1.36883352017642,1.36892991710144,1.36909507197401,1.36914893664744,1.36939170767697,1.36978431338377,1.37028117009083,1.37054889752497,1.37092419755864,1.37146930769734,1.37169005242726,1.3719123539746,1.37186948913048,1.37185888415571,1.37186916087526,1.37193699988681,1.37219504178013,1.37255849290353,1.37302923401121,1.37365484165531,1.37373233410103,1.37413102058661,1.37425698464519,1.3744966823174,1.37428722513434,1.37450579090719,1.3744874216218,1.37468033322972,1.37490661291122,1.37515662492363,1.37608041696286,1.37662027624534,1.37643975541247,1.3768816411627,1.3770994739509,1.37756466579211,1.37775537617263,1.37761809324499,1.37785482865249,1.3782083457669,1.37851872794916,1.37890454309414,1.3788224645479,1.37926458141533,1.3796424355342,1.38011604077045,1.38020818507572,1.38044280804291,1.38062208661672,1.38091764305714,1.38113783264552,1.38154219907993,1.38195169617714,1.38266096594639,1.38299107838047,1.38317374005093,1.38346611708865,1.38337722473518,1.38324818246247,1.38343017916036,1.38353562183186,1.38370290951087,1.384264914026,1.38452599586712,1.3847957319928,1.38532314401176,1.38560367464967,1.38600975640026,1.38622844758662,1.38579429505618,1.38581819286826,1.38598777750676,1.38620849908258,1.38664785985833,1.3868828908275,1.38727502208705,1.38729162300443,1.38760393908445,1.38791157091952,1.38837569588793,1.38867115277088,1.38880831903016,1.38891276206733,1.3891119596878
1.41712838975441,1.4171864674122,1.41707153692422,1.41746473487858,1.41782274883205,1.42435643030907,1.41869385289922,1.41880135683506,1.41918369212299,1.41925764444568,1.41987183176398,1.42018433804643,1.4207268901733,1.42110569903114,1.42142997935844,1.4213734738859,1.42418622756198,1.41694556003827,1.41646593233369,1.4154355368259,1.41601191082476,1.35909769586437,1.40126980049333,1.41182024851012,1.39672816410177,1.35646987403068,1.3584132874695,1.35850640525211,1.3581786392112,1.35868479195589,1.35880855257533,1.35876036825924,1.35902037468197,1.35844100607891,1.35844166240688,1.35918590311652,1.35856047464385,1.35788565823424,1.3589513032287,1.35895706033484,1.35971334758545,1.35819052863308,1.35906836960541,1.35913194631337,1.35907076908327,1.35911671338846,1.36041375259698,1.36063725789867,1.36067512137235,1.36049811008679,1.36022846709954,1.36102838667041,1.36122862144176,1.36105685558632,1.36124608815288,1.36120776276572,1.36121650821094,1.36125961144121,1.36167311987603,1.36212291880664,1.36215645927711,1.36249330398642,1.36283884783821,1.36318391854447,1.36343704738759,1.36357072142938,1.36417702598064,1.36401747009328,1.36430591636782,1.36442235793281,1.36459641000878,1.36465902879919,1.36511079242057,1.36496963212169,1.36538008378567,1.36543601687411,1.3661576144155,1.36590991587579,1.36564425578349,1.36606389755863,1.36634303065846,1.3674889448222,1.36686468540777,1.36672294090029,1.36701874620423,1.3675464454443,1.36758715604662,1.36793553720208,1.36801410833734,1.36822605391405,1.36825544078089,1.36836948838153,1.36815377459685,1.36860230853932,1.36848231048641,1.36895736351853,1.36926290993714,1.36991682760745,1.37023652045827,1.37027590433692,1.37025755570039,1.37122389108233,1.3717478033039,1.37187995969019,1.37210382737885,1.37203135675086,1.37189770507625,1.37188609731599,1.37200326470504,1.3724544454919,1.37309713813704,1.37486978453578,1.37333747695242,1.37377066498238,1.37448036710085,1.37348895406801,1.3742820308662,1.37400408451397,1.37451691306599,1.37444328918195,1.37460453374215,1.37466491694383,1.37607836897637,1.37647937386787,1.37570425235386,1.37719429165377,1.37694082070939,1.3763923770286,1.37650336607393,1.37697133048038,1.37731721207616,1.37733368978542,1.37801016036066,1.37831219629192,1.37853095446979,1.37873051549306,1.38237321723672,1.38036888942906,1.38013695176899,1.38025933006293,1.38029877712222,1.38052410829988,1.38114345519952,1.38138447324337,1.38138290191894,1.38299150753557,1.38354434905075,1.38275038969318,1.38334381168321,1.38302490908526,1.38293753892779,1.38272253804145,1.38313263191511,1.38303180629832,1.38314051655857,1.38423622384176,1.38483115183002,1.38521180040144,1.38550473051712,1.38562540923963,1.38632793415207,1.38551491338555,1.38595840834794,1.38565078754585,1.38624128423618,1.38602163026753,1.38693048070846,1.38649746382941,1.38733712519375,1.38732191286119,1.38773334553889,1.38825989681622,1.38850776194651,1.38851341965523,1.38877789750925,1.38867017217001
1.41726808895586,1.41731635595268,1.4174048131126,1.41784285639918,1.41800623846751,1.41969773375229,1.41937386525492,1.4193329231948,1.41942939216779,1.41949878326518,1.41993919176614,1.42032103348133,1.42044080808733,1.42071745794975,1.42106942006258,1.4216446757642,1.4225221413173,1.41589964125769,1.4153549878513,1.41455861405025,1.41465150601197,1.40813577961824,1.40276747605659,1.40281300212283,1.40042172704516,1.3709187186067,1.35816643957295,1.35837406518582,1.35860074061782,1.35880665182601,1.3587173720513,1.35845187483692,1.35811107004203,1.35807678507345,1.35846470227356,1.35867888391022,1.35851887873786,1.35816001893233,1.35831568377896,1.35836650797936,1.35819623852277,1.35836908450924,1.35847966087058,1.35877292981438,1.35872410579065,1.35883740075031,1.36068665903,1.36030772893049,1.36023014625094,1.3602416723625,1.36032513522003,1.36059696406757,1.36074846232682,1.36098285181022,1.36097914847533,1.36115089888757,1.36125276138544,1.36147552726531,1.36179141851241,1.36210371661825,1.36236420022517,1.36254695990268,1.36257500523926,1.36272544753718,1.36276857306001,1.36327787710137,1.36350899328499,1.3638639932619,1.36402734198924,1.36427920985727,1.3645482047616,1.36486097304007,1.36477023133336,1.36477541680069,1.36486005899552,1.36531275251746,1.36606327124574,1.36600228108385,1.36583107522734,1.36596022992654,1.36626021949144,1.36695647995028,1.36647932646057,1.36660840204827,1.36700612473437,1.36756305058046,1.36780674232104,1.36769288599794,1.3677845830584,1.36795462071055,1.36824905174285,1.36838730129909,1.36857144139038,1.36851022894619,1.36868033320792,1.36873558025973,1.36910165675957,1.36931357535462,1.36969912983107,1.36986242072122,1.37011442742273,1.37076556908133,1.37113392228618,1.37156572852617,1.37179121996005,1.3718913491081,1.37176105158306,1.37175926792466,1.37190179575952,1.37220775439517,1.37256600768196,1.37273355555151,1.37312059869931,1.3737439689227,1.37356853604562,1.3734521465384,1.37348183548023,1.37383784940415,1.37383349213941,1.37408121030771,1.37419295841771,1.37429619980431,1.37447641759675,1.374887090236,1.37507837139942,1.37525148138128,1.37551642034318,1.37585682683614,1.37608358134883,1.37643590521288,1.37666533186891,1.37683013448048,1.37818965689826,1.37833627574647,1.37837037717289,1.37848730556068,1.37926268124881,1.37988802082705,1.38012591959444,1.38020376615733,1.38019226250107,1.3803157077885,1.38059847764207,1.38111241533739,1.38156919993546,1.38227733079113,1.38255247952544,1.3826437416277,1.38263446456123,1.38279439105096,1.38278642227053,1.38301090630443,1.38307037158124,1.38324728283376,1.38333438598133,1.38383374955071,1.3841494112742,1.38457461959904,1.3848368933633,1.38509331816611,1.38520344721786,1.38542851198521,1.3853716367965,1.3856640502473,1.38568138527598,1.38610796125736,1.38609967159017,1.38648073948466,1.38663102748182,1.38692252184862,1.38713707174296,1.3875705638254,1.38775789298149,1.38798962586915,1.38804198895355,1.38838108890037
1.41785224485597,1.41731386854631,1.41907688637741,1.41873528604005,1.41825295883811,1.41992888892237,1.41980131120665,1.41993523057215,1.42000756249383,1.41986482089959,1.42048244538171,1.42104525996262,1.42382111614149,1.42045513630294,1.42053461042092,1.42162629673983,1.42342737579127,1.41519888287448,1.41517204837143,1.41391758555469,1.42100383204622,1.41400030440687,1.40307812388678,1.40325406092858,1.40506500802511,1.40539552156404,1.35773399528261,1.35819748444739,1.35889021778237,1.3589613114782,1.35529898228174,1.35714864633728,1.35755419048055,1.35741027677851,1.35677134378976,1.36203318061828,1.35856570477294,1.35789339973902,1.35789514022826,1.35789480484596,1.35802846695878,1.35784349253825,1.35853613533659,1.35823893707105,1.35861819193618,1.35848476553938,1.36148741784301,1.35939638846827,1.35984800044741,1.35983860581261,1.36031814688859,1.35998175978081,1.36051031713515,1.36071451372726,1.36076935111918,1.36081787260405,1.36132429310194,1.36134325918907,1.36198280279403,1.36206474129908,1.36277935235962,1.36268005374255,1.36237790822896,1.36208035565895,1.36259298584718,1.36257543460602,1.36338129066793,1.36343489954464,1.36387681172112,1.3640868303228,1.36438502343791,1.36544654973391,1.36461100296157,1.36432928839476,1.36449287275682,1.36405997724236,1.36676720334496,1.36597124312156,1.36582991328663,1.36565613737965,1.36561967297073,1.36766360803119,1.36570124436901,1.36607027711905,1.36673973996031,1.36815709295141,1.36810397303092,1.36740134530571,1.36730812963331,1.36772586778596,1.36800764582927,1.36880570918806,1.36872032854602,1.36871795339553,1.36828329677479,1.36899249918786,1.36859475633774,1.36889546552315,1.36921030896154,1.36952334596213,1.36956981834912,1.36933915823255,1.37041334746577,1.37152629694843,1.37174163279722,1.37198680595406,1.37142994844235,1.37154078483312,1.37164395157499,1.37194714825695,1.37227463953083,1.37260488983543,1.372785406014,1.37438373300793,1.37302887581501,1.37257460844055,1.37331570304362,1.37318266784461,1.37344709522718,1.3736124285314,1.37389117510398,1.37364321568953,1.37442058627264,1.37448772508805,1.37492634536472,1.37492776288258,1.37536605743235,1.37543205749891,1.37575276159547,1.37599970020028,1.37607246559679,1.37624797472884,1.37859360920495,1.3788540719481,1.37788040649446,1.37823240284992,1.3791238282968,1.37964192426478,1.38028287783944,1.38017880269717,1.38020471612402,1.37978169026168,1.37995196059454,1.37944567330494,1.38155288451674,1.38179936181933,1.38246146437089,1.38209298008742,1.38219041175154,1.3825006695596,1.38275006895437,1.38303789996875,1.38350829281028,1.38313436071377,1.38341024476518,1.3833200622425,1.3837106826538,1.38391758959966,1.38420972282557,1.38454984391512,1.38489348440215,1.38486886408507,1.38554341578338,1.38486136340861,1.38575127122941,1.38552520402394,1.3861527849145,1.38579713729109,1.38628298067664,1.38644447328486,1.38660775570643,1.38700981400735,1.38685127818237,1.38703267525594,1.38779704834944,1.38774248196839
1.4175295336063,1.41745029537225,1.41834256857633,1.41854514356438,1.41881597288966,1.41941361054462,1.41962087846092,1.41978468273731,1.41978967369315,1.41981783779621,1.42017609100979,1.42055150004733,1.4205950072746,1.4207243791007,1.42116886559286,1.42195883722921,1.42292268151078,1.41953849282748,1.41357992615082,1.41316938456124,1.41312444641542,1.41343442904713,1.41138116594506,1.40860630108595,1.40675795910033,1.40324938199643,1.37853262497545,1.37292312356745,1.36814384860401,1.35884645839575,1.35834492179424,1.35773537182238,1.35742956076303,1.35697642904161,1.35688523133816,1.35699312660141,1.35702990864643,1.35740627801777,1.35735491459017,1.35749444056573,1.35777153249335,1.35806689434146,1.35803889338575,1.35830171560782,1.35824336345558,1.35846806364866,1.35853678527696,1.3588521233955,1.35915847723401,1.3591909231471,1.35928424340668,1.35956415232607,1.35984184455726,1.36017311578645,1.36014099474452,1.36047646524794,1.36095970922986,1.36117525112018,1.36136203702841,1.36153947611508,1.36151667369383,1.36175614580961,1.36180893572338,1.36194943100391,1.36205132330238,1.36244950800294,1.36277250246529,1.36332622502817,1.36366596016951,1.36376498397576,1.36390088242804,1.36406209218591,1.36432646305315,1.36422425368625,1.36427088113498,1.36450591999835,1.36494584061373,1.36521602290213,1.36523506828435,1.36524330953134,1.36523580823553,1.36524790952833,1.36548617754712,1.36573573433932,1.3659047574146,1.36605625521823,1.36619176273717,1.36677126478539,1.36716409192901,1.36736880630336,1.36767768657234,1.3679755485529,1.3684462949083,1.3683496372165,1.3683606495094,1.3684327138604,1.36867368381075,1.36885568848117,1.36922698343863,1.36940278272924,1.36961367768309,1.36958815471199,1.36982981265297,1.37020554990794,1.37069355130037,1.37120001305506,1.37123867889772,1.37122888147806,1.37141731502715,1.3716427255136,1.37194817320492,1.37234615537973,1.37268071608063,1.37312338794979,1.3732362262643,1.37317947720532,1.37305261728002,1.37322607403993,1.37320918016047,1.37341403844479,1.37352404158898,1.37379068377044,1.3738778949394,1.37414275949539,1.3742365568277,1.37478091564605,1.37501251441934,1.37541384660817,1.37555181635088,1.3758780599225,1.37604174872447,1.37617791256887,1.37824387312616,1.37831085649481,1.37816130467131,1.37842765531339,1.3789254815738,1.37948402272436,1.38009332405296,1.38018772384112,1.38030351650161,1.38033410878692,1.38072258093696,1.38127712805985,1.3814444346194,1.38162425504786,1.38200922692632,1.38223274139643,1.38229109183656,1.38250196346379,1.38265954958149,1.38300006721098,1.38317738020775,1.38340548942631,1.38341366162746,1.38351976073684,1.38363670587581,1.38382107957619,1.38398025370897,1.38425256624036,1.38441934419889,1.3846656175549,1.3847738681381,1.38484123021091,1.3851443462416,1.38552508525961,1.38555275453018,1.38589623770718,1.38600419428784,1.3862428441813,1.38641008295279,1.38675496414459,1.38690983069307,1.38712213465609,1.38711405085913,1.38743710179689
1.4146488797881,1.41704167511272,1.41799493099554,1.41863622280742,1.41895049113543,1.41934069594866,1.41961526924509,1.4199121884095,1.41979018594868,1.41979096509284,1.42014403322065,1.4206716594033,1.4208664187842,1.42093830921208,1.42137642250776,1.42220633572318,1.42346308722081,1.42392023709278,1.41347820797815,1.41321606386953,1.41357197377776,1.41331812576009,1.4136374128308,1.41552517009481,1.41685984508915,1.40118507164721,1.3999625126269,1.41371673784483,1.40613075420282,1.35886069465734,1.35825772684515,1.36007333205574,1.36189232386409,1.35621186402475,1.35667068416467,1.35724394758577,1.35653287388873,1.35607528538278,1.35672448552239,1.35713988273125,1.35772691925202,1.35790696663077,1.35812965675978,1.35777308552439,1.35831564411616,1.35799045670604,1.35848776596986,1.3579482638006,1.3581481861085,1.35850971654177,1.35854349878732,1.35862193841622,1.35938918654768,1.35958940122514,1.3596594332181,1.35977046652653,1.36102447635587,1.36088773795681,1.36081557182799,1.36108022485515,1.36106484088505,1.36118214492262,1.36144016584464,1.36147198160413,1.36193505254446,1.36188558269611,1.36243008489502,1.36313755414573,1.36378526037843,1.36341443110401,1.36327932387293,1.36248879889333,1.36253152240039,1.36402894262151,1.36388850458529,1.36456887890818,1.36527378154318,1.36464757296614,1.36471644416652,1.3648552617599,1.36488706564474,1.36534493127661,1.36527840461839,1.36546730864248,1.36537035513513,1.3654778716638,1.36588678191663,1.36653683635332,1.36703554769661,1.36710727587277,1.3672214953486,1.36729741672832,1.36703301246292,1.3719148697943,1.36793154572761,1.36832466668048,1.36854469211758,1.37248428010539,1.3694284417885,1.36940257957184,1.36987842343615,1.36953123897117,1.36913908585722,1.36970811641903,1.36995623121909,1.3709171286845,1.37092395472008,1.37085297402793,1.37109603833128,1.37130331854579,1.37156533760925,1.37195070630566,1.37263602370164,1.37277438006976,1.37380868293511,1.37333159725952,1.3732590539076,1.37293417365596,1.37315179802053,1.37320037630333,1.37340270352218,1.37337542635201,1.37420510387531,1.37341581648729,1.3739712626168,1.37466775739108,1.37507034360146,1.37508516400253,1.37568705725877,1.37585831989876,1.37604567691807,1.37633626455221,1.37761989324413,1.37781939292302,1.37815816405139,1.37834456638255,1.37880047024464,1.37919369449794,1.38062946444814,1.38032184497925,1.38068608288546,1.38079106863507,1.3813421326725,1.38156017849165,1.3815723145807,1.38092254503035,1.38223800954079,1.38230098210039,1.38239646139603,1.38252709905569,1.38261395957727,1.38255367842754,1.38335688371294,1.38340586281028,1.38366930328912,1.38338913580927,1.38378630494532,1.38356414507228,1.38382171335496,1.38396746888888,1.38420723201975,1.38408989199417,1.38455624302503,1.38409696969891,1.38544348577003,1.3851135317265,1.38564389841385,1.38553783251552,1.38607526549351,1.38602047335526,1.38636569270106,1.38654258241282,1.38703428051361,1.386843750753,1.38714185711588,1.38670403290258
1.41695238305439,1.41725136217001,1.41772127181006,1.41828781958006,1.41876121724738,1.4192262463723,1.41915134861981,1.41957840378831,1.41960123295265,1.41966881692529,1.41994380703759,1.42023542516202,1.42014741473214,1.41971326710966,1.41918693758633,1.41874594985446,1.41849544394851,1.41842658656692,1.41845930381844,1.41799476977573,1.41760549837248,1.4172519676629,1.41691723871292,1.4164784483188,1.4168847254249,1.40677031148456,1.38015068133893,1.37422205377916,1.36900491292077,1.35907860024802,1.35904763684406,1.35953060869936,1.35940639775013,1.35693618462679,1.35683360388122,1.35706984292894,1.3567512181107,1.35644999297787,1.35661552597126,1.35672852458611,1.35705347921018,1.35762077452601,1.35751120013347,1.35756271585918,1.35743366283154,1.35807546618712,1.35795174340313,1.35801033031151,1.35797704683336,1.35819775648593,1.35832277666638,1.35860235392829,1.35884109406307,1.3592198396814,1.35956991645464,1.36030107952375,1.36080795282835,1.36091476751156,1.36086393219581,1.36092583405006,1.36099233496433,1.36120513588798,1.36129496258203,1.36157096416381,1.36168135738018,1.36194253739541,1.36223642746726,1.36254715643631,1.36250146970001,1.36282171256029,1.3628967664692,1.36290476480875,1.36317476193107,1.3640632549929,1.36428845556673,1.36422019168546,1.36430091923947,1.36439225885057,1.36437563061143,1.36457476195327,1.36476765828602,1.36491182061995,1.3650776688371,1.36519183497551,1.36556519316528,1.36570568995328,1.36600371868419,1.36624454403238,1.36657476077596,1.36670659681653,1.36692654639386,1.36722813007538,1.36759164248455,1.36792269624867,1.36797214134901,1.3680441434099,1.36827096633839,1.36846999624,1.36882555538525,1.36896502760601,1.36912737327664,1.36906980657059,1.36905961169396,1.36935743902216,1.3698207973762,1.37025864024361,1.37051834982271,1.37046526780631,1.37067174950272,1.37086089643817,1.37108343744724,1.37172772429182,1.37179753377915,1.372001737262,1.37189394669004,1.37230030745542,1.37262341433256,1.37272805568278,1.3730473254727,1.37305362148989,1.37308130197878,1.37342797567174,1.37345809731569,1.37382564205986,1.37393020798708,1.37449426572356,1.37476442308025,1.37529230080831,1.37567038529284,1.37606899038758,1.37643194877867,1.37682199174796,1.37758122623783,1.37804462952568,1.37827860994977,1.37845340249443,1.3786518549503,1.37895677851047,1.38013408911447,1.38019738329436,1.38056501159751,1.38097382201963,1.38133790353372,1.38161637687925,1.38186877904014,1.38229890403196,1.3825064211242,1.38260917198083,1.38252401721396,1.38262036912476,1.38261903287787,1.38285236333214,1.38303752842522,1.38320475977541,1.38323039283541,1.38314275301916,1.38344298293025,1.38365096915242,1.38360662648267,1.3837712084766,1.3839295050918,1.3845545424673,1.38457135455363,1.38462025602129,1.38493803871681,1.38497215835416,1.38521609881373,1.38555806423126,1.38564708436351,1.38585696237581,1.38600689079066,1.3863764714064,1.38653576855697,1.386855504704,1.38718960022766,1.38722647204095
1.41683408770111,1.41720630477941,1.41760887393818,1.41792213883302,1.41867375934851,1.41973309196157,1.41823208506887,1.41967510575002,1.41952692231862,1.41951128728119,1.41990390818156,1.42032784818477,1.41978794427589,1.41890124764595,1.41839895973989,1.4177643518528,1.41730127019051,1.418509428718,1.41893814840626,1.41796888200381,1.41994580770951,1.41938297534552,1.41705055792755,1.41638673674164,1.41715613226012,1.41792116573586,1.36195246797708,1.36110381682524,1.35845174985081,1.3589205628369,1.35905747230553,1.35943424430001,1.35892353328456,1.35719643769549,1.35992883159198,1.35783450012703,1.35686215919371,1.35651585870106,1.36169058489983,1.3563826134324,1.35629987123079,1.35720173123949,1.35732993065688,1.35702555499659,1.35756013941489,1.35714971840906,1.35788150231227,1.35756678479055,1.35783606667637,1.35794269535755,1.35811141855718,1.35822009352007,1.35874584625365,1.3586136481297,1.35922127278702,1.36138092772572,1.36096550434002,1.36108398968893,1.36077995653868,1.36074921437264,1.36080613564726,1.36121528716833,1.36119098269314,1.36151913361629,1.36167714455522,1.36162962354576,1.36217023409827,1.36212244490722,1.36202803939981,1.36238853924502,1.36255626839078,1.36308957992269,1.36330664625644,1.36524517853314,1.36479421130094,1.36367491233575,1.36395478096012,1.36389607810073,1.36400324675071,1.3642910696677,1.36455837450408,1.36470677120075,1.36469917604571,1.3649610158556,1.36560380055198,1.36631775656497,1.36572916348341,1.36623905189237,1.36608304552378,1.36635553515208,1.3663914566274,1.36731152377298,1.36810031578313,1.36822797039986,1.36782364327187,1.36792757300234,1.36774404664078,1.3685525510121,1.36830220931987,1.36861532551204,1.36866514339287,1.36878486280357,1.37226260539935,1.37240178863398,1.36966288462272,1.37005156611812,1.37031718953753,1.36989605651372,1.37017722610083,1.37039862867697,1.37028800155983,1.36974797054454,1.37128539035928,1.3715329294799,1.37184522201075,1.37165647091429,1.37168666841787,1.37206401138818,1.37495257604381,1.37261940994512,1.37289977974023,1.37282938539041,1.37363901544463,1.37347896060557,1.37428643383751,1.37415073829877,1.37483836176308,1.3749589647353,1.37610462010207,1.37626845403074,1.37677401389513,1.37726015063189,1.38238645506822,1.37856535445232,1.3786353585436,1.37839515422251,1.3784057237786,1.37912640762583,1.43893058202607,1.43734238080787,1.43899884964465,1.4396160200378,1.4402457421719,1.4407292649818,1.38205937640441,1.38261536117151,1.38288609152497,1.38328697735089,1.38518663693301,1.38510073680576,1.38488074300213,1.38279972440175,1.38308979830243,1.38286301657343,1.38310305534944,1.38236041938898,1.38198017656778,1.38394558282394,1.38330798555202,1.38359030838285,1.38337507623101,1.38530466055977,1.38505393026867,1.38477997739916,1.38343246532639,1.38363252459852,1.38536336951994,1.3853469248855,1.38548937339937,1.3855682276836,1.38585176869528,1.38589248992664,1.3863657232644,1.38620340017994,1.38795697946613,1.38713841784743
1.4165418428562,1.41694434877127,1.41707923888513,1.41744876057519,1.41861062422778,1.4180765444883,1.41838598418978,1.41907294720585,1.41931806373183,1.41910439845258,1.41874128715784,1.41865875908607,1.41865885652,1.41856384223843,1.41831235196211,1.41779459698247,1.41747211819712,1.41712748495176,1.41693877312301,1.41712731929581,1.41693465058861,1.41713734724453,1.41714865494881,1.41255639124665,1.38200976251613,1.37671350426054,1.37290579410828,1.36849852204887,1.35854289689339,1.35881234255739,1.35882540149539,1.3588541460304,1.35869644237052,1.35807494117763,1.3580624060685,1.35765983878523,1.35705414915553,1.35651888048513,1.35612236152424,1.35612701674888,1.35627934537368,1.35669232052475,1.35679330983098,1.35698734135399,1.35695632693355,1.35734832003188,1.35734514575301,1.35773976291249,1.35772622171414,1.3578818058524,1.35795771654936,1.35828899638904,1.35856746453522,1.35872969311261,1.35892862844709,1.35953386598103,1.36046331947972,1.36066157041669,1.36052060737519,1.36046800732517,1.36052511516842,1.36072892306087,1.36093894532688,1.36149460013621,1.36150533387029,1.36158220755436,1.36166803156719,1.36173175371664,1.36190752994486,1.36207628413427,1.36226446841617,1.36270768541621,1.36317145478573,1.36368243700199,1.36425027146686,1.36409871488793,1.36391220828179,1.36383398122408,1.36384379103031,1.36404614309266,1.36426587563099,1.36434188210706,1.36462111956845,1.36480422082904,1.36532799416523,1.36559194957377,1.36581143936935,1.36587764858372,1.36603706408697,1.36598058923988,1.36605062184678,1.36640235073601,1.36648741820373,1.36701005954544,1.36745409573465,1.36765770982165,1.36794555182401,1.36803059805937,1.36818158685757,1.36851863976395,1.3689657786874,1.36920106350153,1.36916186349949,1.3691879033901,1.36928581439993,1.36958314860232,1.36990601651752,1.37001624125731,1.37019688352131,1.37020390761828,1.37020319870277,1.37026284248274,1.37078407547116,1.37118512534677,1.37134763039819,1.3714525669571,1.37147271609812,1.37154283564902,1.37164407417317,1.37212704978404,1.37246445249352,1.37297682496051,1.37311600531752,1.37374959975969,1.37385651338323,1.37437501327632,1.37449502237417,1.37485893264757,1.37618454057678,1.37628125206482,1.37648914681096,1.3767935121586,1.3776471194269,1.37802704579259,1.38463453313399,1.38847076234951,1.39212152407725,1.39567224140851,1.43622477606363,1.43648786300222,1.43734793178254,1.43756137274414,1.43757966637268,1.43761355081578,1.39863027239316,1.39281748303192,1.38309052481121,1.38390460525357,1.38472909790235,1.38489947847714,1.38467477992644,1.38351824137712,1.38324955274844,1.38321478005087,1.3828888701055,1.38264031381358,1.38266843492688,1.38338808969265,1.38381362359116,1.38395728665699,1.38401409059411,1.38420381706699,1.38410974316895,1.38407001986061,1.38379338113345,1.38393428286367,1.38453111567267,1.3850056366477,1.38512430084729,1.38527685475881,1.38540516183939,1.38558877499396,1.38578496854643,1.38583262284668,1.38600199681542,1.38657331580511
1.41431329382089,1.41465452974716,1.41637351651534,1.41615580653459,1.41927369733357,1.4175197539599,1.41711963463058,1.41905626406967,1.41967776861251,1.41909069168282,1.41710060442895,1.41509427544109,1.41470130449516,1.4152731495025,1.41569338050719,1.41755272303076,1.4140002991954,1.41474085691921,1.41583244604033,1.41614468277632,1.41709323693192,1.41761435030789,1.41735110006215,1.40858626059516,1.35768681766238,1.35761796793851,1.4011805316827,1.40242698008329,1.35820503412416,1.35698257751099,1.35579272388121,1.35595946621059,1.35585374514148,1.35830912958765,1.35841257282783,1.35541750464531,1.35514823438204,1.35516032761645,1.35588537852896,1.3558718007821,1.35618602876001,1.3562278316405,1.35684098274893,1.356515274045,1.35710207258635,1.35672986652772,1.35767944415018,1.35742717853343,1.35790246882899,1.35772817414173,1.35779115309201,1.3580777009565,1.35885351380748,1.35847776340932,1.35863796924307,1.35907958588971,1.36085548602651,1.36060368933256,1.36013466983982,1.36008064482283,1.36005989233225,1.36021176343067,1.36023718624587,1.36320242346927,1.36124566058648,1.36140239056374,1.36119287021226,1.36132670154824,1.36170331275389,1.36181772089652,1.36178393054674,1.3614668624161,1.36322155433969,1.36221636359302,1.364429946736,1.36441898252154,1.36396763882249,1.36347726294927,1.36361701023277,1.36377986847416,1.36392250039992,1.36414070983587,1.36421213710326,1.36477646881044,1.36483840852298,1.36538431921431,1.36527978088942,1.36608624362515,1.36578821651667,1.36563790860074,1.36533870439314,1.36565696962339,1.36591276541334,1.36666343917185,1.36715327584746,1.36781819394193,1.36784553267741,1.36791277049972,1.3677427378114,1.36825669815927,1.37037169358181,1.36985856515112,1.36941680299358,1.36932590044375,1.36895544997566,1.36894618592396,1.36984192980185,1.37004007746651,1.37040639095415,1.37003415680168,1.37014836109732,1.37023194202946,1.37082150949587,1.3708904519579,1.37114299125397,1.37150874174415,1.37495026742045,1.37090229981031,1.37140783812711,1.37180712921977,1.37235239072017,1.3725464886047,1.37336577994182,1.37311972170588,1.37435106497797,1.37394021246514,1.37456156230544,1.37471872124802,1.37972767810504,1.37621371792322,1.37618113432417,1.37668366432707,1.37737255026114,1.3779054194189,1.43697030723864,1.43688081723224,1.43687820081885,1.4368564925538,1.43672301178213,1.43647326034929,1.43698633657375,1.4372126049857,1.43742496586922,1.43775199805265,1.43945177297386,1.43998177627826,1.38267023300659,1.38444968712069,1.38476849347501,1.39391959327301,1.43860073641583,1.38351876239189,1.38583383678969,1.38389867737184,1.38276312744051,1.3825764720929,1.38271672273,1.38313997354279,1.38461805368616,1.38420531698383,1.38544638363032,1.38284378408419,1.38338791703123,1.38367126689503,1.38364287553953,1.38362655394051,1.38383054037507,1.38500028914971,1.38485840353771,1.38496229898161,1.38511388452312,1.38512816706498,1.38486826731553,1.3854208417333,1.3856722419772,1.38615321205037
1.41402104473761,1.41458184504411,1.41535017289722,1.41582469218912,1.41610565027247,1.41657918020543,1.41671098781689,1.41822262285005,1.41952813691072,1.41881956117011,1.41796286864531,1.41646545434588,1.41506139827568,1.41543694317865,1.4159535357814,1.41646988077855,1.41406550395352,1.41484509519242,1.41557785706629,1.41604223732336,1.4165973623528,1.41068300681054,1.40937664394433,1.40694716850767,1.35805350219576,1.35789412247082,1.35745591672574,1.35647421877974,1.35597406921519,1.35540528487814,1.35540444741963,1.35539077570346,1.35519744295929,1.3548506033363,1.3548317138536,1.35509929106685,1.35524568341851,1.35520843884828,1.35533749024929,1.35551857381003,1.35577248722953,1.35645980893054,1.35673734140697,1.35674035713759,1.35664173135188,1.3569271957947,1.35706972814908,1.35758109109227,1.3576342850737,1.35761723968045,1.35760226643405,1.35780747024402,1.35840647342037,1.3586024111457,1.35906800449952,1.35942149372199,1.35977455806183,1.35980113559591,1.3598261449041,1.35964210753822,1.35966937892476,1.35995461932384,1.36028278303808,1.36096408134149,1.36114333452945,1.3613373002687,1.36136708741958,1.36147689580324,1.36174112950484,1.36165437959593,1.36152403176076,1.3615486795877,1.36169170580537,1.36185841439435,1.36186151856929,1.36213016865946,1.36277090578675,1.36306583047303,1.36325142878309,1.36347737353113,1.3637360874658,1.36382737053639,1.36412004328395,1.36420748454142,1.36464880764349,1.36472130046091,1.36504593179755,1.3651690751264,1.36530597923115,1.36525895670694,1.36537289621374,1.3658995224375,1.36603729686138,1.36642103953982,1.36689607592002,1.36707457831564,1.3673733986871,1.36776216952178,1.36786757370591,1.36802571272654,1.36979657007622,1.36934727462306,1.36904749286546,1.36900170952891,1.36894440588855,1.36899978223604,1.36908720973171,1.36921103973767,1.3693260940047,1.36954786576159,1.36963360404682,1.36979379530995,1.37013288264331,1.37074252667692,1.37098735370392,1.37112807036944,1.37103494750036,1.37110920304243,1.37131813470625,1.3715799272611,1.37190581490391,1.3723883632914,1.37262821999924,1.37320660560992,1.37349533118931,1.37383879552878,1.37422799772245,1.37480723952898,1.37521153167048,1.37556425794179,1.37581249893116,1.38419700493156,1.38932743736848,1.39488021597025,1.43652363057398,1.43644039882096,1.43638623525057,1.43634751696416,1.43629702513942,1.43630147869385,1.436770690331,1.4370151992104,1.4372328253982,1.43738633384066,1.43681013985987,1.43667738895008,1.41624723408546,1.41633389372707,1.4164419044352,1.41650532037813,1.41651972142376,1.39473676081922,1.38407443174964,1.3832044730648,1.38276677294774,1.38260085478215,1.38267497098091,1.38285247803852,1.3828749348706,1.38320586349888,1.38338125575279,1.38337200319632,1.38333386096734,1.38337497547331,1.3836659075331,1.38385758806485,1.38413692890603,1.38450334979358,1.38460821590383,1.38470994424589,1.38484905805098,1.38490927662494,1.3850424457306,1.38517933614502,1.3855190076144,1.38571254735986
1.41375715694053,1.41428714645786,1.41484833305229,1.4157202040521,1.41583126297415,1.4152504999205,1.41617886327366,1.41759206648112,1.42025042773877,1.41884587124687,1.41904261277284,1.42096451868769,1.41500649382691,1.41538576164592,1.4161318862162,1.41668874644538,1.4121055471612,1.41517796702508,1.41612503075552,1.41625861932233,1.41698622914748,1.35524116243853,1.35519310356442,1.40383130109785,1.35499385305771,1.35452793090834,1.35477016561337,1.35534801805805,1.35516758550818,1.35497356924276,1.3546918790157,1.35513656849894,1.35463182130034,1.35450521568606,1.35470632939458,1.35495889080871,1.35568401053371,1.35506093983925,1.3548998418946,1.35507853506045,1.35519234085403,1.35685609012955,1.35756044524771,1.35637072449137,1.35659964817463,1.35632632314389,1.35709380520094,1.35752164688785,1.35760367273946,1.35742029504163,1.35733773927824,1.35699564701351,1.35863986451299,1.35829462299064,1.3596663769567,1.35969258319488,1.35973091755763,1.35910391733305,1.35846432900478,1.35903354416842,1.35904772779923,1.35960706573216,1.36020969590533,1.36132342908123,1.361259797725,1.36138364784102,1.36112899572501,1.36174072087991,1.36204000997789,1.36146664909097,1.36115866303912,1.36122830235901,1.36156465608053,1.36160785249237,1.36195421035196,1.36199554262018,1.36239904541651,1.36269573233814,1.36293566626985,1.36318614335216,1.36342354406736,1.36379164680997,1.36366988794055,1.36402097485563,1.3638394838364,1.36459399956825,1.36436620960454,1.36480808601526,1.36464671207857,1.36487982153571,1.36501298126512,1.36664164258837,1.36955816060531,1.36946495310414,1.36554034887703,1.36645929631737,1.36669331603796,1.36811740310577,1.36782818421332,1.36780510343847,1.37128500662875,1.36833888576597,1.36820952513308,1.3685146527473,1.36920298235011,1.36856301439237,1.36860618176472,1.3685138344295,1.36883466220933,1.36900965749743,1.36931036179103,1.3691635474613,1.36988262692164,1.37013069337597,1.37107828231954,1.37080293530373,1.37083210138611,1.37107697726514,1.37127662300114,1.37131865414151,1.3717026232347,1.37183007854073,1.3724610423483,1.3723803833724,1.37333127546002,1.3731593343316,1.37288891627624,1.37260446368983,1.37294978978928,1.37319669267598,1.373474010733,1.43565795275155,1.43578037897426,1.4359896528874,1.43599474446065,1.43590228410552,1.43592307447751,1.43601356012728,1.43602877299398,1.43593473239128,1.43709958750765,1.43697748608506,1.43718185474562,1.43784684133536,1.43669861925094,1.43706817750251,1.43842337594831,1.43778861274911,1.43570642625733,1.43532406272098,1.43562356051298,1.43602671149535,1.38321335522758,1.38291746086809,1.38155915979548,1.38136867530527,1.38612308271373,1.38282888602688,1.38223908428733,1.38222009444765,1.38178276200217,1.38511367460983,1.3830113712822,1.38304135333148,1.38345585894015,1.3842516476257,1.38424316256326,1.3842437519475,1.38441214136018,1.38442947798288,1.38455568727311,1.38493058960301,1.38466209592343,1.38525220759573,1.38515073078448,1.38552874926665
1.41358529519238,1.41395355964412,1.41454201557739,1.41479125572114,1.41510368293662,1.41515822903241,1.41519819654889,1.41440878006725,1.41405202911708,1.4140847981248,1.41471068294634,1.41500637296833,1.41472767876895,1.4144801606223,1.41334149867264,1.41256479347133,1.41221312396227,1.41585924379864,1.41613034112744,1.37334686465481,1.36660138805917,1.35518397719481,1.35501428930363,1.35468721938043,1.35453042577615,1.35426689237094,1.35455484132704,1.35499674465102,1.35490037624292,1.35462761443559,1.35447667501196,1.35470496045368,1.35446096638057,1.35433798235355,1.3542910003482,1.35465581201652,1.35492846626072,1.35495635395455,1.35478104337833,1.35482040287805,1.35502230586085,1.35524089518843,1.35543284070528,1.3559396199312,1.35614942281542,1.35667740914905,1.35678762280649,1.357207020895,1.35715811218272,1.35713345981976,1.35706021867717,1.35716331886456,1.35755022882621,1.35783767015269,1.35783302202333,1.3580475530989,1.3582809106782,1.35864475804218,1.35875899891445,1.35895662458082,1.35918543236036,1.35950771832001,1.35981684747144,1.35992559715322,1.36048567779399,1.36078260229853,1.36090295009399,1.3611685783825,1.36124620682369,1.36111936330381,1.36096113800744,1.36098154427927,1.36102140089392,1.36128588295024,1.36146382122726,1.36178299852473,1.36208131605263,1.36233520068425,1.36254307808427,1.36276314336892,1.36302344729203,1.36317867764773,1.36338705797283,1.36330768944665,1.36373776744385,1.36385583792829,1.36406505002684,1.36403521688473,1.36423978720643,1.36459221180617,1.36534095622523,1.36679901544822,1.36619554832432,1.36611410335264,1.3661964960166,1.36639325895107,1.36655709562079,1.36681185223267,1.36726936276294,1.36759941746235,1.36799901698776,1.36809528566629,1.36794575722749,1.36814721390248,1.36824995500849,1.36847610959636,1.36838706041076,1.36858385836047,1.36849265953069,1.36864215620799,1.36870622287087,1.36899178405706,1.36919191154251,1.36956921801394,1.36960928782783,1.37011470465793,1.37034527861041,1.37053100984188,1.37067275750644,1.37088688353682,1.37113358828901,1.37157950050949,1.37198179183504,1.37290349084819,1.37313789502889,1.37300836398203,1.3729118778072,1.3728927362912,1.37298681741472,1.3732046888494,1.37339639572303,1.38595716451729,1.43607949170003,1.43623680245035,1.43597816742232,1.43570287601923,1.43571715384045,1.43600624043626,1.43579775724171,1.43509418997808,1.43526314286397,1.43607302472706,1.43681387077663,1.43735848080124,1.43745526194503,1.43767968086773,1.43775207841667,1.43707086354517,1.43606763364722,1.43547318936384,1.4355121585355,1.43533867310741,1.38265734026677,1.38256227437991,1.38210819086394,1.38211340270038,1.38250023407345,1.38231133418623,1.38221436872136,1.38213304707412,1.38203092825464,1.38213864285042,1.38248094975587,1.38274188110711,1.38300232915367,1.38309084046762,1.38346920968757,1.38364141579963,1.38384072820171,1.38393979622098,1.38406610461072,1.38419423950933,1.38434196267577,1.38452785908552,1.3850289601243,1.38525252202983
1.41349347234484,1.41363472182578,1.41290383674054,1.41289650531882,1.4130000491929,1.41490931784354,1.41457616731136,1.4137232896642,1.41465377407756,1.41473275290496,1.41574868014664,1.41593817467161,1.41474133318608,1.41454180338047,1.40400467652575,1.41067155559078,1.4110642028118,1.41669990131445,1.41695598184861,1.36647291742117,1.35441642425457,1.35406363090277,1.35406603696073,1.35451266127142,1.35420564300155,1.35398627249542,1.35400251388558,1.3550795283323,1.3547472772812,1.35416012845228,1.35378575807709,1.35890313824296,1.35422830928313,1.35398910016803,1.35379560688504,1.35432591087387,1.35457818757778,1.35521356588224,1.3578779237599,1.35457347882517,1.35474090670643,1.3549902831618,1.35520395368256,1.35527608456119,1.35635300296202,1.35632651470011,1.35713713178826,1.35646406336111,1.3568848528612,1.35682933985893,1.3566610655597,1.35692218115774,1.35704083114244,1.35750597588139,1.3575978432438,1.35774814665658,1.35790612587198,1.35843705676149,1.35880700927186,1.3589061108234,1.35917026415931,1.35944199347725,1.35948007902647,1.35941533611479,1.35993546230241,1.35950643748924,1.35953954019363,1.36097935838448,1.36086303751782,1.36073214300942,1.36071409071688,1.36053891074732,1.36041244216624,1.36093536422457,1.36100544743618,1.36154976335241,1.36187195874178,1.3620540482533,1.36206786441115,1.36239735467188,1.36238301041847,1.36292610418017,1.36278244646001,1.36302468100314,1.36266535120233,1.36366877140098,1.36348773182285,1.36358488972656,1.36367960592076,1.36403423403994,1.36630193499415,1.36780894994249,1.36614389958567,1.36592993469249,1.36706463628918,1.36629754904209,1.36622649304194,1.36642288936284,1.36676820145679,1.367404431127,1.36859503183834,1.36782372723598,1.36768746074808,1.36760326015461,1.36796421414229,1.36788719078104,1.36875462053802,1.36834257791543,1.36826400317347,1.36825028117817,1.36824812296692,1.36844172090409,1.36893038408804,1.36900473109302,1.36917814048167,1.36964424753996,1.36997503391357,1.36999940434714,1.37005849262675,1.37041837820173,1.37063231980167,1.37093567741565,1.37162581749988,1.37345951009431,1.37402807664274,1.37241744438919,1.37290738401757,1.37298111779531,1.37295888165623,1.37316115349978,1.37349010120668,1.37395393578263,1.43731949434604,1.4368454207565,1.43567548624392,1.43511275937607,1.43527720194335,1.43672838840352,1.43693587873253,1.43412530575577,1.43364629504846,1.43541691063884,1.43690228298969,1.43743023058645,1.4377934393226,1.4380575021872,1.43781874703782,1.4365741920103,1.43657468769815,1.43599424398971,1.43697932351398,1.4351232246399,1.38212711336926,1.38083655390589,1.37998824610252,1.38234969578487,1.3831587560138,1.38149954372406,1.38222130645487,1.38213127940876,1.38220330911195,1.38204446940459,1.38217007779362,1.38258107434715,1.38249322194366,1.38258127241301,1.382884232628,1.38300451561836,1.38334515718604,1.38349172913252,1.38350670637783,1.38362752340434,1.3838200563817,1.38441768656259,1.38441314044947,1.38560668365895
1.4130240252381,1.4129034826824,1.41271716906807,1.41261185626063,1.41327035457816,1.41407040452681,1.41443099420031,1.41473446034948,1.4148983880773,1.41506586045728,1.41565944220074,1.37487076105301,1.37108585567299,1.36966664089795,1.36796858587254,1.36586478386817,1.3631790689819,1.36054841203171,1.35863006086613,1.35691079638083,1.35437477358087,1.35424231592266,1.35423309341609,1.35427241807594,1.35379242907908,1.35340555357981,1.35357706354728,1.35336821668741,1.35325751763983,1.35346109208395,1.35350421178175,1.35371794372989,1.35393741158261,1.354069858401,1.35394763488923,1.35421048710032,1.35430167027599,1.35458742717721,1.35450021754181,1.35449332682491,1.35449869245599,1.35466602794141,1.35471671664625,1.35529814212205,1.35555064493276,1.3562256961349,1.35632605050408,1.3564032116019,1.35655783456006,1.35676172187417,1.35697183339895,1.35724248141151,1.35734777030094,1.35718458484885,1.35726391582437,1.35748437026132,1.35764768748608,1.35792533221592,1.35829880104089,1.35855516191393,1.35891339252884,1.35943429467441,1.35949355993197,1.35954180239769,1.35962701091428,1.3595242285347,1.35968059821482,1.36018991591589,1.36038569922706,1.3603839959303,1.36036740429269,1.36049381348681,1.36064128954984,1.36095154980717,1.36119029296547,1.3614907053518,1.36172258406054,1.36184007051262,1.36206421869953,1.36215942479984,1.36224943697302,1.36225764790603,1.3624813927297,1.36234527170323,1.36259813761901,1.36283293340078,1.36331121336019,1.36345960420459,1.363625830621,1.36378717394978,1.36401109838479,1.36449182154009,1.36501209334959,1.36526207101416,1.3651477297666,1.36556804287435,1.36557656401593,1.36592695158047,1.36683805022739,1.36701102445853,1.36693493045541,1.36713594046299,1.36702854122633,1.36736477544616,1.36748618918152,1.36794337646704,1.36804431238413,1.36816785717646,1.36801178767448,1.36812134752729,1.36825975730917,1.36868914626155,1.36912515182672,1.36902939351353,1.36908769291931,1.36935275107968,1.3694678453396,1.36961964692603,1.36983689544141,1.37013498772722,1.37040589186292,1.37074107108735,1.37100138790929,1.37111842636364,1.37150194078265,1.37234419319082,1.37274919159317,1.37294276338106,1.37286967446677,1.37301038095286,1.37319671637573,1.37362342212825,1.38147304338834,1.38636270733986,1.3919313675856,1.43332706762292,1.43299720488024,1.43297002794029,1.43314960199417,1.4330357923175,1.4330688631009,1.43337077364024,1.43397524336468,1.43425791229956,1.43374404431451,1.43256892993878,1.43143955614785,1.43112917697018,1.43127895726975,1.41897998869907,1.39398870045093,1.38912963699591,1.38175186461234,1.38144298534261,1.3816752658164,1.38192137789674,1.38208091291844,1.38196441142822,1.38224537718574,1.38207146776858,1.38207568254526,1.38227649617563,1.38262418947944,1.38293790802787,1.3826089409645,1.38267960525699,1.38264176390636,1.38278027893255,1.38299142146957,1.38313181812574,1.38324192734805,1.38340658247883,1.38369899338992,1.38398352273506,1.38454573967937,1.38503512006683
