1.65080058146599,1.6727157687836,1.72572000288268,1.67311790840457,1.64905447627364,1.72542079701261,1.7232454526615,1.72426289844474,1.72459030625765,1.72397440991738,1.72633655239629,1.71763130390786,1.71699206205165,1.7190969380556,1.72075709849028,1.71378657454737,1.71525394275356,1.69286308657778,1.63360999711732,1.71222261130427,1.73018231031485,1.71547964104382,1.73153115058797,1.70626461958036,1.70619784741862,1.67861151745518,1.73336000288268,1.70770606907857,1.70815829451646,1.70787565689588,1.73435000792419,1.62731613731811,1.6251385840515,1.62720082520889,1.62661938509648,1.70501397798529,1.73087009354598,1.70684209444456,1.62838069456045,1.65516136826142,1.73058000288268,1.65742635767203,1.63178820479809,1.67193569317127,1.71342781819848,1.71182855807494,1.64056166450466,1.71039191235768,1.7025460482584,1.72450510381665,1.70319919838062,1.72718606983277,1.70067999502693,1.78315489108063,1.77942485273863,1.77889032835881,1.77795549674125,1.77816260710025,1.77799109414186,1.77682164776753,1.77363835375083,1.77270724284709,1.77342156083477,1.72859445676314,1.69431166520006,1.75489548574859,1.77287994163415,1.76517966996773,1.79251000288268,1.77502957377078,1.79423001235204,1.76755669525336,1.76604916002089,1.76668044860652,1.76672101317698,1.76607717894824,1.76556372356967,1.76652314701283,1.76489588941704,1.75650629188145,1.75933900225826,1.75898527932764,1.76079247034617,1.76042936555326,1.79377000288268,1.72262212758322,1.68139999711482,1.75830844658783,1.75956968120811,1.71607688245957,1.68307846575614,1.76483602368488,1.76404492033378,1.76251802624102,1.7638370400569,1.70593946859855,1.68634925160278,1.71523594701473,1.76741436647696,1.76676505583741,1.76915060772959,1.76739078204255,1.69682999711181,1.77587668848029,1.79241154037831,1.78713548929177,1.79601464339901,1.83490309380956,1.86624065609363,1.85104798358841,1.76971876304177,1.78885139627384,1.77004874468959,1.8647956942936,1.86677939473319,1.86481255175439,1.86660246342638,1.85508165120838,1.85135485530246,1.79959954328276,1.85199000288268,1.77272405193768,1.77207293519657,1.77110072102879,1.85627173037455,1.85792788608525,1.85450229908664,1.8568962841763,1.86564234426865,1.85544298474838,1.84955765319512,1.85552993512791,1.86194792222763,1.86052768769573,1.85989995798331,1.86201518398542,1.77127983160096,1.83417874586077,1.86277770605029,1.78959238878488,1.76945114454587,1.77175136579144,1.77057105825827,1.76916082045947,1.85813334155479,1.79599732231346,1.84508000288268,1.80873594890149,1.86151315811029,1.85935022640035,1.86055785747811,1.79702096255013,1.76871034585193,1.76595282837404,1.76609915985052,1.76599941502089,1.76577295067067,1.76618084691078,1.76568764639493,1.76544237450923,1.76191795985441,1.76380368621378,1.78705932304163,1.78520803658883,1.78660294971988,1.77779058248964,1.77835244451818,1.77033189126936,1.77663338865206,1.7343654641248,1.69709999710239,1.76901640844706,1.77786233305667,1.77518199526232,1.78512143178142,1.77471890621419
1.72784233041391,1.68229451957406,1.64677999711735,1.68470136065862,1.73059789800565,1.72456173235064,1.72426593758282,1.72348835356588,1.72368519235512,1.72320742353316,1.64410999711732,1.71614613708181,1.71882941556717,1.717199075125,1.73236365102158,1.71323277606795,1.71400561257418,1.71329487012821,1.71338625891893,1.71186292016482,1.7102025353771,1.70919649428602,1.70769241491661,1.70679450483789,1.72868055609521,1.66790669369168,1.62751682709014,1.66402767458374,1.73062100580276,1.66159459237222,1.6265131112371,1.62682747491592,1.70340998839518,1.70362509092336,1.70435971741004,1.70467174498339,1.7047519297975,1.70568368473002,1.62686374298383,1.64713535448097,1.63005800933544,1.64947336246832,1.63221709623603,1.66273590237799,1.72878122287959,1.7121388930424,1.71995738209685,1.71416648266092,1.80957000288268,1.73535028219069,1.78091196152637,1.77785302704728,1.79216106317746,1.78190052482229,1.70049999710992,1.77743705510403,1.7775120168236,1.77714884117057,1.77651469484077,1.77627178888957,1.69816994081634,1.7232980491305,1.69593934588107,1.71763348598759,1.69431833186682,1.75436421875697,1.79151006268986,1.76515814127856,1.69258999711005,1.76552611474414,1.76762737369903,1.76704091704852,1.7682485056175,1.76590742507696,1.76548822770228,1.7268090139466,1.68555108723386,1.69632846344868,1.6852880622861,1.70474965429009,1.68527561345121,1.75905891992499,1.76025688788958,1.76038384473024,1.76080894435507,1.76015724656926,1.79364000288268,1.7573458674026,1.68185953080867,1.70461380572566,1.68072152911366,1.7666140511158,1.79411000288268,1.76213884963864,1.76222068075991,1.71251053774313,1.68511028920012,1.72495685895052,1.76547773437456,1.76529434601893,1.7689277614371,1.76768348745175,1.79411096697645,1.7765799858126,1.77772249554833,1.78420491565948,1.91135000288268,1.83492956585104,1.85193934823038,1.85104883717336,1.85910000288268,1.79622766669157,1.85704908451241,1.8631674869923,1.86119965820722,1.86232598107238,1.85675423848171,1.85604893731001,1.8560675422894,1.80099331700232,1.77174967675465,1.77180427926223,1.77074361474646,1.77009954854882,1.8561990528883,1.85954174858559,1.85930042363014,1.85914476571401,1.86080420263451,1.85403628380483,1.77257965935863,1.85486176926975,1.86652187144996,1.85941095061976,1.85668579290992,1.85935891184703,1.86055666882867,1.83423100341758,1.77007736024718,1.78057719652685,1.77125133379846,1.77201000225473,1.87147000288268,1.76909168965774,1.77099234314797,1.77149590550083,1.77182491703853,1.80837739942038,1.85589426733096,1.85731102034008,1.8566989976533,1.84552052880394,1.84754447718533,1.78788025523071,1.7691606327307,1.78242536478297,1.83924000288268,1.78596218295357,1.83768000288268,1.76325196762136,1.76431482014312,1.76211325414269,1.78338304341556,1.78468067759642,1.78538553389415,1.77848891136225,1.77941493545238,1.7323600195447,1.69738330386814,1.72678594926117,1.7751387863469,1.76907361166753,1.69720999713766,1.73258728148302,1.78501040617503,1.72219226901356
1.73056767391011,1.69325443649103,1.72403472845792,1.72254802517103,1.72622421800424,1.72552194746371,1.72586678759942,1.72428373321423,1.7235608779897,1.72309135765784,1.72175275057761,1.72023327385578,1.71981212404352,1.71670699335225,1.71493759914237,1.7128645854539,1.63589921737974,1.7128966294926,1.73074097821999,1.71214056661981,1.63372366761343,1.63455623279525,1.63002837702703,1.66600941731546,1.71090605467423,1.65900698506943,1.62792429037085,1.65201035608854,1.70294000144134,1.6495974983562,1.62394651497064,1.62729807382924,1.70279722259046,1.70311097330522,1.72910076927125,1.70450128051616,1.70457165073952,1.7047044871292,1.62652555356411,1.65923660936134,1.70795000144134,1.66159870743872,1.63160420479828,1.6547839949177,1.6362588401921,1.66419494461994,1.63883998429445,1.70192238471176,1.70439411419527,1.72029750888815,1.79289119278545,1.77684998266065,1.77879559329804,1.7775725924819,1.78919506814435,1.78548326474852,1.79233662051414,1.78181193697241,1.77570954740675,1.77553751754345,1.77224623876287,1.77092689681791,1.77037114685466,1.77121661078537,1.77262961326742,1.75432614533194,1.6920099971196,1.76514318216774,1.7664474617969,1.76587934286196,1.76815806571135,1.76655480699253,1.76513886963511,1.76520963500715,1.76516921008227,1.71796513919104,1.68615763647926,1.70142524504605,1.76371000288268,1.71288899788347,1.68219397724301,1.75934116491595,1.76078812215828,1.76004416061976,1.75916011114889,1.76006429310926,1.76009625827485,1.75845383698243,1.75855386817978,1.72291734658347,1.76045912734951,1.76343738849357,1.76140572494396,1.71637366550128,1.68188666443472,1.71782778698884,1.76157644448119,1.76049159765643,1.76454438419524,1.76451647327878,1.69096999711877,1.76675578215007,1.77219552751661,1.77692644046665,1.778390553579,1.77715557022036,1.70935999709345,1.74592766232564,1.72176975490694,1.76789248702199,1.7667535629832,1.78462744157391,1.85696455054797,1.86201386167819,1.85544107891142,1.86027031020805,1.86209605619278,1.85791180345999,1.86070626430949,1.80221474126589,1.76918435073595,1.77103930992831,1.85241000288268,1.76933047224535,1.77038729331146,1.77964158696935,1.76998686885536,1.789712225482,1.77024884150431,1.85406961323721,1.86994575531053,1.85483864758075,1.77140988374525,1.85730559159202,1.84838877839121,1.85653302019245,1.86070333549534,1.83428274346646,1.85272000288268,1.79586505383671,1.85571000288268,1.77181434679387,1.77114005288531,1.76983794867623,1.85556000288268,1.7712176859508,1.7691300448531,1.80823939651278,1.85959771071191,1.85745970744852,1.85641626911605,1.84413426482996,1.83990404881004,1.83877542596115,1.84088311185183,1.78941896909492,1.76450190544841,1.77117425053744,1.76288088191313,1.76327231528698,1.76117315548614,1.76266214962764,1.78514736404983,1.78312603554674,1.78064989901281,1.77868414802149,1.7789604170108,1.72303991500114,1.6973166449213,1.72061919944914,1.78534121797711,1.76912513236253,1.78383000216201,1.72246134294746,1.69697286734539,1.69775118153621
1.65122742199009,1.67325626873509,1.72402755351935,1.72257345186778,1.72690356142863,1.72456841584187,1.64510999711732,1.72317597735143,1.72435080253962,1.72326642823623,1.72614727767466,1.72517717343477,1.72833869841848,1.71613038561555,1.71322869897831,1.71323312270449,1.63392077829624,1.71261523587505,1.71200121693577,1.71177870242331,1.63199790225836,1.63405917356026,1.62836245520248,1.6539104708602,1.70901354190775,1.65164371025804,1.62718609503541,1.62523191624685,1.62443288615986,1.62498758086602,1.62503345978904,1.62872920442162,1.70237324716732,1.70290547228124,1.70674255573344,1.70460346601599,1.70246865138499,1.70401513766131,1.70305661651549,1.70231417990068,1.72731040111372,1.70856030550849,1.70842130885356,1.70936028236847,1.71148893472887,1.7204658331657,1.81689193907411,1.70059307372929,1.65507999711736,1.70601698639329,1.70027630578468,1.72666726647414,1.70177989470842,1.77372678648748,1.7756222442096,1.78134359137642,1.78910146458396,1.78386199898079,1.88052000288268,1.77503706557864,1.77569701455802,1.77483443820973,1.88020000288268,1.77238188275461,1.77083225511342,1.75454518781515,1.77107000288268,1.76514355547038,1.79003000288268,1.76584395789818,1.76706515118665,1.76582849750871,1.6885599351543,1.71365846321776,1.68550995111302,1.71250061065419,1.76211000288268,1.70654811551903,1.68338973091482,1.72299339699278,1.76081560189656,1.76025270028681,1.76240360982991,1.75870350021107,1.76086082648643,1.75935830284573,1.75994481084337,1.7587984573361,1.75898257535317,1.71316895872679,1.67946999712717,1.70635068488022,1.68183951027696,1.70478959748052,1.68203333110141,1.72501576576636,1.76243007134184,1.7608510934293,1.6883799971137,1.76490849674931,1.76770715096539,1.76730878569665,1.77092447743534,1.77090704921527,1.69948999715155,1.77674569798731,1.79098000144134,1.77627135246013,1.7706522006042,1.76818413094635,1.76767698520157,1.77507287027,1.76748091144267,1.7870676525905,1.76888867024662,1.85804102088971,1.85608323376358,1.85587863015958,1.8491974386673,1.80295091296516,1.7703437702025,1.77039280404078,1.76977808271892,1.76983091264422,1.77082375306564,1.78749938269325,1.86467000288268,1.81503973509036,1.86094652305193,1.86356927712051,1.86283490714985,1.86077051067342,1.85834633249222,1.86311241062129,1.865930291101,1.79119375269332,1.77191577336602,1.77270695126069,1.77296897895093,1.78754885503321,1.77372947611101,1.77170277607346,1.77058058067606,1.77066455523893,1.77108807359167,1.7710684838943,1.76898122158476,1.80882896167142,1.84087251607011,1.83905922283131,1.84163071017042,1.84245106461859,1.85473140332178,1.84052756787554,1.84380394597752,1.83837391016193,1.83965780320636,1.77667219139261,1.76418968311475,1.76278955623445,1.76326451980509,1.73259188632916,1.70502000149629,1.72650635329174,1.78834440582043,1.72315010670789,1.69907275946404,1.71603752230663,1.77597000288268,1.7129087211669,1.69799680818675,1.72116521644073,1.78263000216201,1.71423066758853,1.69646271931128,1.69801675474834
1.64850304397935,1.65004954668937,1.6489603590267,1.6490163662062,1.64769712822864,1.72382762454228,1.72338948367315,1.72264329067218,1.72670745268718,1.72144826824273,1.64361999711732,1.71710051646115,1.71478812266052,1.71399111564299,1.71475854828707,1.71202583989115,1.72844470241415,1.71287547686786,1.71300491019356,1.71094091742833,1.70990338418608,1.65450296766121,1.62773673494927,1.6267363679094,1.62743721795601,1.64483294499293,1.70228000288268,1.62402861656443,1.6247476715979,1.62476033432531,1.62367686668028,1.63018845118455,1.62378865711516,1.70304411753673,1.70380081205395,1.70362119328835,1.70508956703839,1.70278921382833,1.70367161354516,1.70253095028898,1.62785999711732,1.70925297194469,1.70888771966041,1.71949990839894,1.7290395477285,1.72889989093767,1.81328806524991,1.70038461736268,1.70068331845745,1.71035830210648,1.77816277209685,1.77578913238248,1.78567159907466,1.77383549885845,1.77578083022979,1.77550213788787,1.77613758216699,1.78107118387756,1.79050616308027,1.77445406148062,1.77447929649907,1.77459968985728,1.77565403957842,1.77254653063164,1.78922170271976,1.72737393101294,1.69095866016279,1.70626480745055,1.68913813312334,1.71106883622395,1.68956932218893,1.76476431662321,1.76487212090843,1.76324014369796,1.76496493946102,1.70602962191044,1.68505134355981,1.71171714480556,1.76156698539015,1.76080286527825,1.79168000288268,1.76043595465741,1.76056171278556,1.7581642060067,1.75633448900521,1.75511240606969,1.68135125450529,1.68098386983673,1.67849960911457,1.70794946941183,1.75845600740253,1.75778437161587,1.7579361432202,1.7570498622578,1.76456590427535,1.75941800755764,1.76084232399969,1.76100973160348,1.76764074670997,1.76613046992704,1.76628590073716,1.76872293466841,1.77245662752417,1.7716039749786,1.77527031513829,1.77659538142021,1.8765012522383,1.77942250409824,1.76652463281387,1.76728366399172,1.76672042630929,1.777522045962,1.85086000288268,1.79583420487928,1.85898000288268,1.85791733447921,1.87030184884067,1.85518166757878,1.85381757665966,1.8032614480376,1.76831642038552,1.76998518078205,1.76985224907864,1.77963630536318,1.84737630050036,1.79397521225645,1.76884897244368,1.81468308127018,1.85784109352335,1.86129022733619,1.85981501757304,1.86062210563087,1.86356864154502,1.86515246950096,1.77167541298876,1.78338008789563,1.77180434219534,1.77246605685171,1.86649000288268,1.79496138334793,1.85825000288268,1.77153278365074,1.77131696301398,1.77095031962963,1.77032922617088,1.77065418211021,1.76984708398778,1.80996465030154,1.84208300202839,1.81775073112354,1.76805559515005,1.79080641446573,1.83896074983279,1.8422831082809,1.86214047907885,1.83718150821217,1.83946724783163,1.7821351110003,1.76235080364018,1.7619451585798,1.71681627593162,1.7170799963792,1.70480324585631,1.7043045069964,1.70248108445273,1.70194225487072,1.70046798784971,1.69910486145284,1.70060995401108,1.69894314926623,1.69822667154551,1.69842115379642,1.69844267165188,1.69780303707882,1.69870350104184,1.69840301683455
1.65021755613152,1.64875476890844,1.64842291142173,1.6498917219426,1.72711402267143,1.72432942996676,1.72255903150782,1.72145542812883,1.64064999711732,1.72066135241498,1.7206482330708,1.71904348402764,1.63925998652883,1.66462660719467,1.63693999711732,1.71146666232578,1.72917771529453,1.71250738455461,1.63389998523959,1.65925987784705,1.63219999711714,1.6664252042759,1.70766000144134,1.62677950079415,1.6276825135193,1.62867708933741,1.62446861020169,1.62318092901265,1.70389000288268,1.66025783790978,1.70298229855184,1.70243052222611,1.72820060705364,1.70244305097831,1.62158999711732,1.69994694474311,1.69929300822567,1.70214518245141,1.70249314687188,1.70217111014624,1.7103015860824,1.70998737334597,1.8094386088676,1.73829837595079,1.72829419642729,1.72897977164355,1.72086594401655,1.69983889685671,1.69661907600977,1.71452396034201,1.78940293322629,1.7753835186734,1.69930999713645,1.77498393264358,1.77655916347993,1.77603636647796,1.77586500564712,1.7752806876554,1.77349337981072,1.77358028134381,1.69657999710817,1.77208701296817,1.77107775259443,1.76878111313853,1.69290629490075,1.71816975674488,1.77018000288268,1.71396890242851,1.68941132663162,1.72170847149455,1.76829150989777,1.76472799961074,1.76425053341483,1.76184357919824,1.68566827460441,1.69900822979212,1.68285456901492,1.71613507094764,1.75945793218449,1.75999023652258,1.76182123803956,1.72128193336593,1.68047333117312,1.75298545445443,1.7551263024289,1.75431054199312,1.76097634742109,1.68053627115921,1.67899405120394,1.70132194426933,1.7590067688533,1.75776764449695,1.75769477562337,1.75712679255008,1.75787191415897,1.75815199555732,1.75960848904484,1.76088859806497,1.76524610958193,1.76475255757943,1.78924050172176,1.77236927867108,1.69520953821483,1.77314616821001,1.77693517036,1.77555780402857,1.86654875208572,1.78477834755678,1.84757000288268,1.78730733739104,1.86136000288268,1.7812163526334,1.76769754005821,1.78533097094381,1.76592885413715,1.83209829413336,1.85768811080079,1.85673165770036,1.86047617242899,1.80287636664366,1.76812197670855,1.7689786543559,1.76904057466162,1.78339165041263,1.84437370382365,1.79878515192764,1.86367000288268,1.81462560739533,1.76886902031356,1.82080822691442,1.85319177600394,1.85795774377013,1.85879564152875,1.86391513989134,1.85844234614461,1.79008867613727,1.77084810406257,1.77164252728312,1.76995655845316,1.77052835188916,1.77064520636634,1.77138913687065,1.85517000288268,1.79138648568127,1.85732000288268,1.79127885776322,1.84216000288268,1.81088657964733,1.85217377201918,1.81751173802836,1.76848266297509,1.78413937473733,1.76508881411447,1.84460795613086,1.8421346061496,1.83728776927155,1.8488870544045,1.78633855186664,1.76556574544721,1.76112465455778,1.71727487455253,1.7171129901385,1.69994222065528,1.70006292612811,1.70249346801356,1.70008654001571,1.69949745203158,1.7002127948316,1.69722822781683,1.70013867250995,1.78120000288268,1.69877077493203,1.69669528844778,1.69870985724947,1.69610643424459,1.69741936378779
1.6484094843773,1.64840484561075,1.64752751952015,1.6492772187772,1.64308876037716,1.7256445127944,1.72741582040574,1.7208985879916,1.72132743809529,1.72073392173652,1.72691252640363,1.72007586564357,1.71785973606253,1.71801766361914,1.72834240764323,1.71188808741008,1.71225580952152,1.71164833080641,1.70992676563838,1.67738069650982,1.70720241477292,1.70611653151098,1.72791000288268,1.62697115840974,1.62809671324977,1.62882917571311,1.62433483014828,1.622413956584,1.62228851494398,1.64808104983026,1.62449968144063,1.7017047016919,1.72971939727038,1.70166016955382,1.70099021562741,1.70023686512318,1.70253834138656,1.70110316124981,1.70221440247644,1.70248872501346,1.70339126194068,1.70624630850098,1.80636139545642,1.74780700415682,1.81061000288268,1.72958239798715,1.73008020668641,1.68575216050043,1.65439976692627,1.71879864926532,1.77812881015651,1.7766162089684,1.78850322952174,1.7748237560294,1.77572164484974,1.775105163718,1.86264000288268,1.77488658404295,1.77382264677888,1.77494676865889,1.77316859041647,1.77336156774597,1.78981212873222,1.76747901867986,1.69213311373737,1.71110975903034,1.69051917558573,1.71997991052176,1.77066000288268,1.73432733209786,1.76543930807845,1.76445751686323,1.79104000288268,1.76055879291294,1.76224841271966,1.71184748235947,1.68278350979818,1.71996263409868,1.79111833549534,1.7592702085651,1.75900079183458,1.7116737828212,1.68056666450645,1.7529790205355,1.75822384516623,1.71224408814347,1.68133937284128,1.68096283903118,1.67859414065645,1.69372865311449,1.67852873355267,1.75693629790298,1.75769759117972,1.75717548831057,1.68203999711621,1.75870194294444,1.76132240370537,1.7611147915129,1.7647868840698,1.76539634982116,1.76683224174838,1.77123033875028,1.69099045749582,1.77459140544417,1.7748681855142,1.77463525513742,1.70290999716285,1.7678801701488,1.7669472330054,1.7775741391952,1.76525729934292,1.78525653041007,1.85161000288268,1.7951649005074,1.85915376666579,1.8323892198811,1.76742844952427,1.78415821252059,1.76780435467401,1.80189003215607,1.8625390937368,1.85335873881955,1.85401000288268,1.78736051970234,1.76696773586919,1.77914746224924,1.77012529480169,1.81522115096702,1.8504652404656,1.82115198622114,1.76884925088344,1.85002098761393,1.86680619876455,1.8629492830501,1.85504945714696,1.79516949440982,1.87156000288268,1.79119848802635,1.86149000288268,1.77036465660581,1.76888092923663,1.7694921526964,1.76822397108969,1.78146737132721,1.76869649806987,1.78180911041716,1.76922685423082,1.76973122958521,1.76868226718906,1.81735242728336,1.84078731228446,1.83767270773198,1.83957590563799,1.8462409601663,1.76492967687317,1.78942764810038,1.84093642318681,1.78937845229394,1.83556000288268,1.76161835479659,1.7630480643072,1.71678805826457,1.70810397853241,1.70025326465802,1.69791605588185,1.69983070197573,1.69685607447849,1.69798569172422,1.69956655864816,1.69760735504299,1.69894317296324,1.69805807433264,1.70026205050361,1.69729496490059,1.69975369196887,1.69805414037642
1.64891064688664,1.64855640674736,1.72700000288268,1.6743085943824,1.72766738277329,1.72637807820531,1.72668896155673,1.72058491946434,1.7211245205087,1.72075413400801,1.72647226466636,1.72203279996423,1.63811333117132,1.71570265792934,1.71313136419341,1.71257960471713,1.71313767168053,1.67546342099067,1.63172631652421,1.66624256225681,1.70769644285621,1.70663575011379,1.62796585755336,1.62773118364586,1.62852872813589,1.62912489377128,1.62381603588815,1.65140995979455,1.70222000288268,1.66027838505733,1.7015845038279,1.70152065548686,1.69936664487938,1.66922570650733,1.62373787493963,1.62523833690562,1.62069371025712,1.70081987511422,1.70167089174014,1.70198232760285,1.70383616805155,1.70501052350671,1.7065848322597,1.72641765785559,1.72723299776227,1.7289674052918,1.63790999711732,1.674026811438,1.65379986167488,1.7218850365515,1.7771081863768,1.77548730331732,1.77577565116151,1.77503359284345,1.77561522862969,1.77474171981118,1.78885209523162,1.77419683622461,1.77561697180931,1.77249650995078,1.77513932399212,1.77046405029463,1.77118660872241,1.76895922647834,1.77044825706697,1.76963061948111,1.77023120502103,1.72800344676947,1.69192999715601,1.72409597906388,1.78875004227195,1.74897452976858,1.68640999711718,1.76028578895386,1.76069642409231,1.72444387278294,1.76472000288268,1.72551278429136,1.79227166882868,1.70670947752668,1.68153570538409,1.70481591088719,1.75737283122895,1.75298558461634,1.67834948761603,1.70081184143149,1.68010735183016,1.70681943092738,1.75597095383231,1.75601403482736,1.75547211260148,1.7565852599749,1.75699739714548,1.75754956642615,1.75932942246231,1.75822877274071,1.68294999711313,1.76118804809296,1.76245561748479,1.76121359280049,1.68817999711723,1.77095734087469,1.76995788893221,1.77626993924073,1.78945182953993,1.78367172953335,1.79006079972432,1.76991824475948,1.76786156101172,1.78504940024753,1.83901911216889,1.78900908874449,1.76712605592796,1.78542766562788,1.85098623765822,1.83267959537958,1.85398578525395,1.79072448104879,1.76754396767224,1.80108035898446,1.86177404326657,1.85345516025602,1.76770901407977,1.79172606452114,1.84967000288268,1.78715830119957,1.76987172312176,1.81592347049165,1.85584252701656,1.82163102225347,1.76582029267413,1.85011146111877,1.85413433462899,1.81937467306483,1.77015434200046,1.77032841452446,1.76970589914324,1.77064721015978,1.76968328313042,1.77012435732845,1.76991849582597,1.76970247851191,1.76940754685486,1.78822175553102,1.85885170502221,1.78859990720481,1.76892339921149,1.7700307874716,1.76647197895755,1.81736608812654,1.85901764320664,1.8505548356541,1.85570062108909,1.85232373944855,1.85314061360976,1.78118793522066,1.76262912289493,1.76209542082499,1.76236894650724,1.76126485660011,1.76005103006488,1.71629816463887,1.70351408320885,1.69992872569975,1.70080932476314,1.69793797070585,1.7002557797473,1.69735466070314,1.69654746775691,1.69820459901977,1.69690125715924,1.69888102682041,1.69586021366137,1.69907081230622,1.69393411977582,1.69833876360543
1.64680081622707,1.64828986083006,1.64742263887186,1.64684276992569,1.64494184862096,1.71878998491595,1.71948735639168,1.7184882186531,1.63864999711732,1.72035463598352,1.72640732216664,1.7216551140599,1.63696666450466,1.71456122954597,1.71067387961315,1.7112995137175,1.72685269418092,1.66463767628104,1.63138107678557,1.65659050514011,1.70862629424456,1.70768822796479,1.70883072943055,1.70282016333946,1.70207517590619,1.70342396679889,1.70447197803205,1.6625315024451,1.62121998520987,1.64657972235228,1.62048999711784,1.70270061258861,1.69929877768083,1.65872000509065,1.62415407315311,1.62499929897121,1.62443024584806,1.70009265901961,1.70171185593299,1.70064018631144,1.62490999711732,1.6706774569951,1.72586688388378,1.72590008107637,1.80265000288268,1.73706303720541,1.81048000288268,1.7354611845011,1.81367000288268,1.72712602715727,1.69932999514307,1.7749322482176,1.77565558339046,1.77493229605759,1.77476581424182,1.77450607058838,1.77478678130563,1.77437247270279,1.77346257706619,1.77382439046559,1.77076642463938,1.77164423172497,1.76916848671843,1.7696882072603,1.76849452567035,1.76907020810411,1.76859372385447,1.76597597594547,1.76800000288268,1.71788473908348,1.68578999713933,1.74864004750035,1.76471650519976,1.76127600913582,1.76233301785118,1.71355750970126,1.6813595483166,1.68201321954799,1.68167386133185,1.68155850634048,1.68166444226127,1.69837654680385,1.75895717309507,1.75300130155579,1.75757000288268,1.71228454341824,1.75747199413121,1.75621185740333,1.75714803522841,1.75652880962626,1.75741688911276,1.75773240662364,1.75644035744556,1.75920865657057,1.75821465807529,1.75855392961665,1.76152736038078,1.76126601814545,1.76094252137448,1.76095421654101,1.76697588955522,1.76861941565804,1.79041500216201,1.77725076595789,1.7776864106745,1.78094376774212,1.70645999739697,1.77253233748877,1.86563000288268,1.79070911434367,1.8471974080405,1.79315782837317,1.76474082914755,1.76538417016293,1.76833631169587,1.81743962981398,1.85786279880592,1.85818853028708,1.85576614895049,1.8577864702252,1.86154709701832,1.85228976416494,1.84742893573365,1.7966733819555,1.7657395821488,1.79454547689037,1.85900139545642,1.85965727699827,1.85882303083997,1.82197022369611,1.86088000288268,1.85734162008897,1.86516510705236,1.81968330584934,1.7689412032578,1.76968060445318,1.76991493999383,1.77090774965924,1.76679735225554,1.76958144035293,1.76911779294932,1.7700983277465,1.85462000288268,1.79697750769516,1.85439816114361,1.80718484125593,1.84578000288268,1.83070656520801,1.8646809959326,1.85887869722475,1.85627122573207,1.84769919401966,1.84272250268926,1.84500790839538,1.84050316102724,1.77428004731091,1.76338745335331,1.76290463888863,1.7604027555746,1.76195421790156,1.75770217785872,1.71572034699821,1.70409501292026,1.70024517729882,1.69752875311264,1.69878023353234,1.69532524085286,1.69870613192355,1.69674621699835,1.69746148459597,1.6981355294687,1.69703990832989,1.70162418864273,1.69681715749391,1.70043030958221,1.69741910312895
1.64679320455097,1.64730018418686,1.64736947167393,1.64714130483106,1.7213897331118,1.72062389204053,1.72085269417752,1.71857729169884,1.71844611479103,1.71745474759268,1.63788999711732,1.71901561218759,1.7186921404783,1.71678945115827,1.71701333151723,1.71073778510913,1.71120470107069,1.65555416377788,1.63150980608142,1.6478911711261,1.62833903113203,1.65243474150894,1.62589999711733,1.70179009115539,1.70501802709078,1.7009863626515,1.70105496668933,1.69814849283096,1.69867332892672,1.69852991889031,1.70231059196086,1.70367891557911,1.62077029802627,1.6501894898951,1.72424730543953,1.7118093622069,1.72797087836046,1.69986771455929,1.70050546656823,1.70066820976599,1.70145933590423,1.65923519493847,1.62767140068589,1.6657592223457,1.70933870310243,1.71569378824634,1.72503340635873,1.73676976780443,1.7789401264665,1.77839616402867,1.77732850484167,1.77518212887467,1.69765999711844,1.77396427004916,1.77503381445994,1.7734938823154,1.69549664185792,1.69562315310594,1.69467266042242,1.76909302293236,1.77243741797189,1.76978739486297,1.77227804575715,1.76838697317635,1.77090225701963,1.76838005631476,1.76761607175833,1.76586728773022,1.68804786138575,1.71150194138135,1.78922000288268,1.74842412632867,1.68376995522352,1.70897313807778,1.68413912177876,1.70433837775067,1.68308386165567,1.68301836096213,1.68202118537909,1.68206687503646,1.67899300945843,1.68097441587428,1.67983928217468,1.68118153725236,1.67755556364361,1.67923587441661,1.67889194891846,1.75552705679378,1.75655239122906,1.75641221563994,1.78842000288268,1.75851940060102,1.76104387137175,1.75985145957084,1.67974666450357,1.75865571450366,1.7607026238064,1.76097347670872,1.76136315751508,1.76081858915077,1.76665651385512,1.76690660003339,1.79127500216201,1.72093642309876,1.69770019202605,1.78238761224812,1.90052000288268,1.77562546797073,1.76486870715554,1.77874452017423,1.85560348555597,1.79576831350851,1.84173000288268,1.7636588319385,1.76443958946074,1.81785248998354,1.85543411493857,1.85800538784767,1.85588015487942,1.85643927887811,1.84970106559854,1.84985133566304,1.84333249587546,1.79937470616462,1.85230934216918,1.83464555499224,1.8620786088676,1.85681513384903,1.85010772064249,1.79307757937136,1.76872920822051,1.85460425214157,1.85252558014377,1.82015613750952,1.76951088854923,1.76967968558193,1.85344000288268,1.78755914466541,1.85775000288268,1.78725056164064,1.85366000288268,1.77033650785031,1.77027546256987,1.78669931496937,1.87535013959953,1.80699598111785,1.76597940783287,1.83061398553442,1.86206900839142,1.85725016408071,1.85287350293748,1.7848003367044,1.76446672791402,1.76412333153297,1.76164633334951,1.76129683762484,1.76179947336047,1.7611454921235,1.76240432549572,1.76133052119012,1.7611886847467,1.71513332577107,1.70003329592781,1.70052805514374,1.70277736423004,1.69726786295072,1.69806374873034,1.6970003703451,1.69910103863372,1.69701045549016,1.69574214851881,1.69826765119687,1.69486412911358,1.69908950660413,1.69571763207089,1.69948103242261
1.64517909482342,1.66566478749251,1.88094000288268,1.64284650839962,1.64054720563427,1.72241662839078,1.7211995664286,1.71960138297234,1.64048999711732,1.71687362863895,1.71666849912546,1.71625981311477,1.71376946083358,1.6791407690899,1.63298567036377,1.63272585207777,1.63196008177863,1.64760904016131,1.63097140353022,1.65798784039124,1.70818192117471,1.70383017761503,1.70645804086279,1.70300020999206,1.70386115674392,1.70062353700093,1.69976125706016,1.69905107003754,1.70003759908022,1.69874676725914,1.69864421721337,1.70308082031479,1.62027912388351,1.64358241529875,1.72423410092603,1.70450319037073,1.69796550106184,1.69740495462884,1.62230999711731,1.64929810855522,1.62423981046552,1.64874960515205,1.62887817681593,1.65360649786285,1.63048886729242,1.63765245312004,1.63778413419373,1.73810582968186,1.88611000288268,1.78172896906932,1.78129985508031,1.77466361985557,1.77535082062375,1.77380172464038,1.77427210350165,1.77317785833137,1.69541368817485,1.69576155490292,1.69530966962168,1.76909714210413,1.76922108599399,1.77055221624869,1.76827583063976,1.77006680503634,1.76588395458639,1.76907750370519,1.76509084357584,1.76570343168536,1.68824139067318,1.7039504162299,1.68713893830468,1.74861020605625,1.76105153021048,1.75793670698611,1.76067851892389,1.75844930167269,1.78901000288268,1.70729082889124,1.68096096803152,1.68175180725522,1.67930483445624,1.68074375724683,1.68110769536816,1.68114015828808,1.67911808838117,1.67944751410084,1.78885000288268,1.75444593465576,1.75476865037871,1.75530776643243,1.75489401905673,1.75541783204959,1.75667068038782,1.75994362248716,1.67909333117023,1.75769853301754,1.78790003290809,1.76119200943692,1.76219207247569,1.76193397571845,1.76353998657477,1.7183055497496,1.68998847307922,1.70573381637631,1.69670718983292,1.78179712819081,1.7887684474468,1.77842659828687,1.7184999972228,1.77557246365199,1.7621506665738,1.76373526524601,1.76556293804317,1.76301014258357,1.85330833549534,1.8185341959562,1.76453905904436,1.78610367298437,1.76678828671466,1.78735714391062,1.76576803340556,1.77934856868316,1.76614563599998,1.79462120116911,1.86627090535912,1.83448127569972,1.76610888556327,1.76649587750247,1.76575883435197,1.78979819294882,1.86908056716466,1.85218336263266,1.84154285442111,1.82051718101727,1.84411000288268,1.76839221522766,1.76614503514439,1.76678382689586,1.7676659679622,1.76741468543662,1.76706030771096,1.76951124500701,1.76952797108374,1.76903299502553,1.76799329512908,1.80708679844858,1.86539112543767,1.83051982345027,1.76448173221467,1.7631721472514,1.76457147327024,1.76422252414794,1.76440647573236,1.76378821385882,1.7610610549987,1.76251184840351,1.76165047580543,1.76150904978973,1.76097202374046,1.76073231002331,1.7621731488792,1.71461006481002,1.69963114871174,1.70005091672753,1.69762453206762,1.69692755265598,1.69907858787468,1.69631394319292,1.69619922584781,1.69739362713218,1.69642944713604,1.69680267863361,1.70012991998607,1.69651447824212,1.69936083297791,1.69741319894113
1.71893012830358,1.67566283553965,1.64309110383434,1.64257804982766,1.64148266083389,1.72482508131823,1.72696004338563,1.71978100161528,1.71785613701657,1.7172216676157,1.72440392008857,1.71423044199193,1.71421945736798,1.66897529935985,1.63233807114963,1.63263086992981,1.63088229323504,1.65776978707261,1.7237574772488,1.66911922669974,1.62720999711732,1.70287380008061,1.70264546748124,1.70216587440028,1.62619999711732,1.70055867238819,1.72410019750993,1.66689300910394,1.62063166450466,1.69540688621639,1.69965398111253,1.70203389951713,1.61841003127042,1.63687832922856,1.61756904022234,1.69840424473589,1.69983324358075,1.6978920102301,1.69953442707257,1.66610477879068,1.70181883514307,1.70108502336702,1.72717087343776,1.70511463882024,1.70571642943092,1.63660195908725,1.63547598129243,1.73873676961849,1.8102087261804,1.78207201659301,1.77489504005548,1.77491990530068,1.69655999713784,1.77281983729525,1.77549895511076,1.77317333153816,1.78519894094296,1.769734742621,1.77082345343703,1.76942187676746,1.78580386724491,1.76867948330452,1.77085078419031,1.7678139437095,1.77015548209571,1.76825081942737,1.78863568495798,1.76563298030637,1.76576000288268,1.72122127184864,1.76536000288268,1.74892616255959,1.76423847411354,1.75787202172967,1.68235999712725,1.7584584534902,1.7603286516308,1.75677821110208,1.757042516082,1.70599668410072,1.68150462075452,1.70601420158623,1.75653000144134,1.70505187866941,1.67760260969821,1.67860441621187,1.67668443203054,1.71826781464548,1.75491762502271,1.7561077290106,1.75508438002427,1.75491051844094,1.67900999711618,1.75815778544476,1.75737878446603,1.75740509914003,1.7599580327494,1.76105664067487,1.76238104893966,1.76220226610521,1.68667907621049,1.70673723200891,1.68965248844141,1.71359886969551,1.7724890548209,1.77973129505181,1.78852171649317,1.78008484844029,1.76332411433147,1.77874471262172,1.85523235016561,1.76302007026192,1.76273059723799,1.76180653818521,1.85278166882868,1.81908765258051,1.84518000288268,1.81875637472801,1.85314311465189,1.85643050724886,1.85644060622228,1.78768242092325,1.76601223821142,1.78914739991232,1.84977975823705,1.83431813600821,1.84871000288268,1.76730671545027,1.7657619605612,1.78583171828223,1.84923177750333,1.85165474834412,1.85102358327588,1.78594208922369,1.76789700512587,1.76738723727771,1.76648196079626,1.76691768530177,1.76613914422989,1.76780054675894,1.76738061594088,1.76858917133536,1.85688000288268,1.76844112810708,1.76733084976784,1.80780250700685,1.8541965976582,1.85871750728599,1.86268244245698,1.76338166384926,1.76562960856969,1.76482703240875,1.85760166882868,1.7627995001895,1.76142196240078,1.76180332210794,1.83752974291926,1.76045459597313,1.75931067332134,1.76072537031728,1.75942907141683,1.71419148390883,1.70027103184601,1.69860267305128,1.70121147873217,1.70003544628464,1.69675823011735,1.69743666576002,1.69596439011951,1.69741024142649,1.69921966579202,1.69873050038596,1.69596011408621,1.69838790136433,1.69502725542972,1.69808702517232
1.7179376843386,1.686866447367,1.72321000288268,1.64277861511635,1.64200324868153,1.72473588531045,1.72390165158032,1.72045889513522,1.71677557879299,1.71501256453756,1.71430309055625,1.71372158127196,1.72083843314836,1.66097140219035,1.63373231876368,1.63406032180238,1.6286125123626,1.66881586211141,1.72217303129094,1.70831386662482,1.70507494589832,1.70287425709332,1.70291148456794,1.70149966039642,1.72389006451183,1.70067571336315,1.70045828432253,1.65604152265654,1.62047833117132,1.69505894445345,1.72161000288268,1.69993712111657,1.6994881181428,1.69870533285066,1.69790006799128,1.69934752683297,1.69971161588952,1.66368221459405,1.62286887057484,1.65432267682233,1.70186714869062,1.70107268329991,1.70554851205976,1.70506224567369,1.62956898848409,1.63596875585261,1.63421444835332,1.73865226756921,1.80840127670227,1.78234634395189,1.77607100362883,1.77769423158055,1.77909289250447,1.77155986416995,1.77243538782862,1.77247152943525,1.78975373027132,1.76982756922089,1.77087451233431,1.76958035731099,1.76815994294952,1.7686601825215,1.76783511692573,1.76890304960685,1.76779086048954,1.76872375876472,1.78674556824857,1.72399414036242,1.68544973434386,1.70937042041507,1.68484938979431,1.70697608102332,1.68571256287771,1.75779650924025,1.7590392405401,1.75786350480097,1.75892391030366,1.75680958485736,1.75777425688946,1.75642329496413,1.75579172653241,1.75664270951813,1.79145000288268,1.75387760430536,1.75563090591159,1.75827812113485,1.78626000288268,1.70835493927836,1.67679999714042,1.75748646606817,1.75540536146938,1.75510493881237,1.75523200996052,1.75663495731671,1.75632129431112,1.75718821573282,1.76122708383299,1.74073558134805,1.6821199971131,1.76298801726484,1.7630186978709,1.71512005277939,1.6887137032523,1.72002007173032,1.78598009092911,1.78118690397602,1.69996999713804,1.78144326990344,1.85305000288268,1.78840671896597,1.85001765415841,1.76321230277192,1.76288100122697,1.76218245892266,1.76405698516145,1.78489157419876,1.76437891280909,1.81810146984076,1.85331189064988,1.85540271098466,1.85272958555828,1.7931655618731,1.84578000288268,1.78355619388317,1.76592961903933,1.76621725240882,1.76605277556165,1.76621143516328,1.76780068483437,1.78201020750345,1.8667156442679,1.85544413122882,1.8572190033637,1.77852850046538,1.76638060746716,1.76615352149703,1.76521556369787,1.76626194404785,1.76803097056289,1.76782551275655,1.76773045618622,1.76812506760165,1.76706108292393,1.76770836622867,1.76643507383671,1.80893243624572,1.8552501144803,1.85764775998524,1.85527061583524,1.76194298653261,1.76412651793356,1.76340598428118,1.85828833549534,1.76239931910397,1.76174673326186,1.76194239126136,1.85471026140475,1.75973049716478,1.75984410855778,1.75806544876934,1.75891621811408,1.71386280643751,1.69846789220196,1.70093385861494,1.69574697852792,1.69827069088338,1.69853668366698,1.69583408319867,1.69580533870929,1.6964671183892,1.69829152049205,1.69648700491836,1.69995931948505,1.6964266256381,1.6982544802365,1.69714666479895
1.64275912870931,1.64355763269645,1.64384944654769,1.6427024505983,1.64127025655779,1.72339181324268,1.72761556729244,1.72039337299088,1.71431004885208,1.66813973109818,1.63706009532547,1.6564748034392,1.6336688384073,1.65329091960322,1.63330405951519,1.65940097805474,1.71081941208964,1.70309696022817,1.7100372687607,1.70981930289545,1.62602999711732,1.70337512362715,1.70366108565667,1.70125093511633,1.62131979967922,1.64561213677433,1.62040625115131,1.64678768370048,1.69986000288268,1.69483053611055,1.61983999711732,1.69823940301774,1.72652020354325,1.70335587087456,1.7231407585229,1.69931961719208,1.69998482730913,1.65250769790294,1.62023983885549,1.64336230285844,1.70181712716773,1.70077712729283,1.7247752714956,1.71356265800659,1.80211000288268,1.71741518570946,1.72172193366988,1.7376882044249,1.78273066076771,1.78261484255463,1.78201403126911,1.78138925274682,1.6951733311882,1.76919818940192,1.77120417402001,1.77172733272758,1.77131721131466,1.7701723577253,1.7860431051727,1.76903781381135,1.76782961706766,1.76821682973182,1.76871405520909,1.76807327606722,1.76802889389746,1.71435103148007,1.68648728451169,1.71469859906404,1.78749000288268,1.76085868492758,1.76165612483789,1.71776345639109,1.68235732453273,1.75775440371913,1.75737611399702,1.75760563001648,1.68087999711715,1.75733732122555,1.75689000482388,1.75727935699283,1.78554000288268,1.75676874785995,1.67787999711698,1.75362154753318,1.755260203026,1.75744289235085,1.67711385103753,1.70098003926678,1.78548000288268,1.75907605400042,1.67582999711436,1.75485879100335,1.75587983395514,1.75525473689179,1.75586723360712,1.70684538457757,1.68003850636196,1.74047440899407,1.76020193396754,1.7644043488437,1.76546649029357,1.72540644277559,1.68960436908518,1.72482328384762,1.78693658942982,1.78914720366204,1.78737051484653,1.78213244907348,1.76161751910222,1.77949424480455,1.76168691499029,1.76426119005721,1.76638553564336,1.78531674177903,1.85885974690844,1.8598576366486,1.86099985407632,1.81727302178709,1.76535134164697,1.76572790146898,1.76496832757331,1.76563883689505,1.76498713116772,1.77812599637141,1.85473000288268,1.76642101375383,1.76502160864138,1.7668897420724,1.76448455571166,1.7778777473858,1.85853092045471,1.78901741260375,1.765316237182,1.76605236409708,1.76503980775942,1.76568091032687,1.7642216023421,1.7656016122695,1.84186907551133,1.78375525053048,1.76761597371966,1.76788190559188,1.7673504479593,1.76748553726743,1.85802000288268,1.80980582774302,1.83882997462337,1.78760505503706,1.76215087925885,1.76079859562037,1.85691000288268,1.76289565107947,1.76217745682911,1.76268344429651,1.76219194025364,1.76196606197907,1.76114221798094,1.76003337679022,1.75800887587497,1.75878876175244,1.75583933002664,1.71355066426801,1.70123001681332,1.69775349498533,1.70322618035884,1.69596170910033,1.6994309617964,1.69718404647528,1.69873610554951,1.69787894805875,1.69515747745063,1.69787539321226,1.69476732069914,1.69749584933348,1.6959809269219,1.69708363280289
1.72007000288268,1.64364329838472,1.64080715967188,1.64258955000558,1.71986982352464,1.72074162298247,1.72684618298337,1.71980793701548,1.6378288451257,1.6564269809916,1.63430818769406,1.66690336570091,1.71489910527668,1.71070568523742,1.7099134946987,1.70874230280306,1.723752123278,1.70282125103646,1.62698333117132,1.70888245786073,1.70560513978836,1.70370867800263,1.62677999711732,1.70076576257152,1.70056162551803,1.65779467553913,1.62015308994202,1.63864551536069,1.61942980178091,1.69501347866616,1.88997000288268,1.69760330304583,1.61723999711732,1.6452738248112,1.61986999365917,1.69914309880408,1.69827571789174,1.64262391138496,1.61967745721937,1.62161296826996,1.620850373721,1.69997674169081,1.70439056375766,1.70493866608073,1.70616118863184,1.71048732200611,1.71302084074354,1.73576428292992,1.88620000288268,1.78296465355248,1.78288062358773,1.78217332584642,1.69494666452153,1.76970028326004,1.77156120037335,1.77211318396,1.69227166449803,1.75296394144843,1.76992552514935,1.76888548850621,1.69239995394528,1.71759652385943,1.6905098092058,1.71495093946184,1.68868733505551,1.68833304485621,1.68716334292376,1.70851096922758,1.76271682395551,1.76152522524235,1.76203021546336,1.75535090013139,1.76135465364972,1.75793445505186,1.75906996151601,1.75726808273081,1.75811243977011,1.75617040147168,1.75697112156757,1.75592632764452,1.75701859166967,1.75752297577915,1.7538990253603,1.7534555342326,1.75371015146819,1.75618170409018,1.67583554005104,1.69440937092385,1.67467908172716,1.75742085049099,1.75534509415218,1.75518284092791,1.75474603023287,1.754339413007,1.67735872126515,1.68224092157639,1.68168591740728,1.7403942440027,1.78392126489503,1.76871217224909,1.78332225965005,1.76505553649481,1.76703273853649,1.73524631277343,1.77196710226019,1.79084968033366,1.87271628801275,1.85328050600509,1.84530270266405,1.80566833165389,1.84845000288268,1.78871413380626,1.85073370434851,1.85448161372132,1.85643521595222,1.85983718660474,1.8513367331164,1.81675359274004,1.76540937027834,1.7657487560286,1.7646220465248,1.76565568202914,1.85793000288268,1.77327709817195,1.76574753002294,1.7660551409814,1.84068000288268,1.76594794963474,1.76694650035725,1.77410594529036,1.8558140621585,1.78378812447563,1.76573018155771,1.76608819892156,1.76741823215922,1.76588251558502,1.76528176029351,1.76552698198358,1.85418092881269,1.8303225133331,1.85847001430161,1.78429505106364,1.76577008646873,1.76638270051489,1.76474229851585,1.76412614962544,1.76455521513447,1.77967717840262,1.85929000288268,1.76136959846922,1.76300849824152,1.76291115859571,1.76287974102048,1.76292388423883,1.76314228386787,1.77802330129905,1.83248000288268,1.76539781037511,1.7584913591219,1.75783408376219,1.75695911186896,1.71314637055179,1.69759958060605,1.70027287085928,1.69188926478199,1.70004374589759,1.69343604733272,1.69849001510045,1.86878000288268,1.69659794589244,1.69815777186848,1.69528719418531,1.69755615279937,1.69562324074978,1.69671682247889,1.6967693129539
1.64405836201134,1.64356924414285,1.64190959323569,1.64248819178343,1.72306531205046,1.71903081782336,1.71842180069141,1.71924060037861,1.72114146662442,1.66566903630777,1.63501136901264,1.67832799577019,1.71371757117217,1.71212975224504,1.72356285606158,1.70867782477067,1.70962302548027,1.70273885954587,1.62707666450466,1.70921804526279,1.72098884252868,1.70368423389364,1.70077648126762,1.70051437535013,1.69978300228006,1.69847724808048,1.72451015913043,1.65081460288086,1.61846966236665,1.69533045112095,1.69689541348004,1.69737112619907,1.6981758434168,1.69637744675461,1.69700410785069,1.69849418855218,1.61878216815989,1.6192830725015,1.61965897757623,1.62249139764431,1.62203486476212,1.6997155591404,1.70377517568312,1.70383371441153,1.70460076387874,1.7090483683167,1.80418000288268,1.74555014514786,1.80414000144134,1.7794259215922,1.77555165051959,1.77735015392601,1.77449839020955,1.77056282570187,1.7836137480024,1.77294907017391,1.6931183311647,1.75263782464423,1.76950224907034,1.7683656281612,1.76870101626927,1.76720967719152,1.7853811773336,1.72843403299223,1.76498000288268,1.68757044726811,1.68592162159119,1.70183764606331,1.68540820640508,1.70659593590594,1.683704996071,1.75484649178839,1.76001664567109,1.75915803549378,1.7576969735301,1.75813064804199,1.7573311164913,1.75624066374263,1.75462411655921,1.75573338673866,1.78348021008048,1.76062375977772,1.67503499783701,1.7523333410053,1.75533803527343,1.75439350924862,1.754678797253,1.75391483611452,1.75445364575062,1.75580236529958,1.78341113576572,1.75621633312567,1.75443182732203,1.75423170088352,1.75504939272726,1.68153671956051,1.68005840742343,1.7407390521434,1.76100813955928,1.76239087729738,1.76420989463015,1.76453377710506,1.76442936520051,1.72325525987831,1.69334309810324,1.7900364957072,1.87925683159643,1.85769926034195,1.85384963528778,1.8054155777702,1.7603949510825,1.77879318318236,1.84750128402132,1.85343456446552,1.86362058393248,1.86207744827917,1.86028653797124,1.83439007762454,1.84564000288268,1.77225765528171,1.76511300463208,1.76572448783856,1.76574778662126,1.76582460421919,1.76415823400884,1.7662395093427,1.76499715555209,1.76657399513143,1.76441798774157,1.76968104670766,1.7655866242514,1.77549813486003,1.76423665513106,1.76609765620117,1.7653827927181,1.76621631951771,1.76530791428107,1.76561382362334,1.76567259859205,1.83017180935795,1.85396694888951,1.83887285152285,1.85615000288268,1.83127312522861,1.85398613028994,1.76333896088797,1.76413517483358,1.76392742077638,1.7629441936335,1.76250536788213,1.76263015531297,1.76368160874671,1.83458000288268,1.81693520441608,1.83453360713532,1.78465550617577,1.76025782917067,1.76892834349361,1.83288000288268,1.7585853736348,1.75855563160173,1.71260054987099,1.70064599265187,1.69704663732417,1.70379927505342,1.69586009174372,1.70143141055096,1.69698362208018,1.69713400864943,1.69702905675249,1.69490775101413,1.69647427117626,1.69300710478941,1.69643561372464,1.6963909190968,1.69631725221128
1.64208719541278,1.64339557738131,1.64339517241801,1.64329018149354,1.63996176690657,1.71879535878555,1.72285246406365,1.7181439299246,1.63678999711731,1.67647215240688,1.7104393810871,1.71007157023218,1.70837841108786,1.7087958861191,1.70860573272272,1.66668426611859,1.62796333117132,1.70311447820688,1.70517590573777,1.70744020928725,1.72503432288985,1.70306300475139,1.70272317101478,1.70188426590343,1.71956183652281,1.69690048870672,1.69757851646427,1.69720604174451,1.69879731471668,1.6973979952706,1.69540494814849,1.69647907680739,1.69642961811687,1.69553821358722,1.69540433458818,1.69665969232522,1.61775472398585,1.61891069042406,1.61851420980955,1.64762897602322,1.70032348624584,1.69969447948435,1.72105950933513,1.70279623802619,1.62734999711732,1.7085968578383,1.72412839121786,1.73421066885737,1.69681982703825,1.72131380757794,1.69698979906408,1.77632759966191,1.77289176264363,1.77123579514868,1.77150001622536,1.77199974350262,1.77075510490325,1.75243539225313,1.69149999736268,1.76706819101055,1.85955000288268,1.76664036699164,1.76809614843165,1.71770025787634,1.68692475854318,1.68733617343987,1.6863148294778,1.71384032295084,1.76317566623225,1.71805892263,1.6844849960718,1.75421679425405,1.75943190786684,1.75841795256404,1.75974069418985,1.75756427759507,1.68015942899985,1.70233173688704,1.6775383305726,1.71098934484171,1.75910830693333,1.76019491059288,1.67509499783701,1.7526181909961,1.75309439903485,1.75458293229345,1.75306358691163,1.75375127660668,1.75221315885565,1.7545317939302,1.78516886855829,1.75830551071194,1.67689938196775,1.67794441921598,1.67794225811344,1.68028707871047,1.67929982117686,1.74116556099363,1.76046370009352,1.76207309515584,1.76242565514751,1.75010889825109,1.69142942797235,1.7136070528833,1.69331652549951,1.78824999560613,1.87959688615617,1.85896682992025,1.85506378297825,1.80543269658111,1.76120006721702,1.76251604664523,1.76270710189344,1.76286642889173,1.76259995154578,1.78517208818918,1.8551048143455,1.83438180141267,1.76135890418368,1.77661143783995,1.84829000288268,1.76584125037963,1.76434853872586,1.76560893892479,1.76561046253493,1.76548240156958,1.76616282156432,1.76590993368865,1.76636630540186,1.76806666899091,1.84830000288268,1.79684662835148,1.85228377193257,1.78241074334292,1.76547188416324,1.76582536645965,1.85822000288268,1.77686731453617,1.76531624369386,1.8300213463095,1.85412753256427,1.8392554056693,1.76484990400429,1.8312468675549,1.86209387403408,1.76225100054501,1.7638060351032,1.76361263938212,1.76269420802474,1.76419676606105,1.76498506056035,1.7644736669183,1.76396954627931,1.81680518706591,1.8412363971887,1.8346401364875,1.83231323858183,1.77318091862831,1.75616970967586,1.75643882162757,1.75400019211319,1.71202679247706,1.69975091565091,1.69859894056425,1.69247640531147,1.69854816409718,1.69656968298171,1.6975022797061,1.69661011212573,1.69594102721318,1.695572609443,1.69482015386724,1.69592301989008,1.69557948778438,1.69666090039636,1.69624872639568
1.7228617281529,1.66758263281024,1.6382089197826,1.66998693741187,1.72438249677856,1.71856052961549,1.71751448521928,1.71596291010156,1.71366486716258,1.70896993420294,1.71169476695117,1.70917272542967,1.71066800684456,1.70804251794617,1.6306997412847,1.65465800475915,1.62685666450465,1.70357856521891,1.70632509541396,1.70738842517795,1.71999840376256,1.70165436919656,1.62288999711732,1.6985941700618,1.69999308708884,1.69633884535237,1.69487507992401,1.6969538619965,1.72183153689302,1.70522439204399,1.72265150198794,1.70526584112079,1.72012134404751,1.69500861378028,1.69478588638883,1.69587979569732,1.69601241230738,1.69661771126153,1.71989869982615,1.69873901894374,1.69820993822635,1.69965996803145,1.72097326074164,1.7028746430746,1.7030947940982,1.70840617202228,1.79972000288268,1.74300008371166,1.78018000288268,1.73296827435752,1.7741516933884,1.77672497612264,1.69434999711146,1.77097713783548,1.78279437468469,1.77166778162365,1.69048999710356,1.75263497467581,1.76912342050206,1.7675287209005,1.77153536032226,1.76558000702057,1.68842910554773,1.70853663274994,1.68598061428459,1.70712662801287,1.76433084291499,1.76310741455996,1.76234076498093,1.76142254317589,1.78187002197717,1.75382884923167,1.68026999711498,1.75756132514902,1.78335035296191,1.75706004214319,1.75686619039928,1.71352484772568,1.67665166390564,1.69918376981227,1.67562967233839,1.75586957560948,1.75232728579542,1.75170201860607,1.75312474168398,1.75275187531939,1.75462726621815,1.75316419928439,1.87219000288268,1.75383274485242,1.75351774648074,1.75689507415015,1.67640019764405,1.67771799614283,1.67767950300968,1.70509404650702,1.75652992058213,1.75862356838992,1.75941058087112,1.76336456298215,1.68502999711711,1.74974088488092,1.76654000288268,1.72641123466114,1.7750766944715,1.78593510165763,1.78374943332747,1.81635228164397,1.84913765467565,1.80598589907174,1.76088140182066,1.76270679290313,1.76206273382203,1.76275546233369,1.76169185559462,1.77990966477683,1.85604188761497,1.83437570083752,1.84977000288268,1.78158693453831,1.7642220423911,1.76462879970027,1.76574345360445,1.76513333039056,1.83858000288268,1.80422188236026,1.84786069725965,1.85342408699711,1.8559321473815,1.76622384841605,1.7628690545803,1.79853618640041,1.85313692197,1.819639357982,1.85836000288268,1.76495956805528,1.76346302966489,1.78515574984214,1.85188476841029,1.84134015091719,1.84466591200178,1.83973814648413,1.84941000288268,1.83121985214124,1.83358000144134,1.76174075976526,1.76178671927589,1.76599311920686,1.84744727957959,1.81537119562307,1.84736000288268,1.826295423513,1.85286833549534,1.81670994869777,1.75898995926564,1.83563729159667,1.8526419111997,1.77782910437223,1.75658914810622,1.75604403342869,1.71265067463996,1.71164322008128,1.69947138629075,1.69726202446403,1.69790861311037,1.6967605003468,1.69471447385891,1.69845471502195,1.87158000288268,1.69540557419287,1.69466466459377,1.69505979500982,1.69319613429339,1.69572200458983,1.87462000288268,1.69647143135586
1.71845756249995,1.71684191159682,1.71665074082539,1.71694546464448,1.71887324894522,1.71889340363636,1.71416867885938,1.71475063533646,1.63410499783799,1.70869717994912,1.7100964027407,1.7090169977942,1.63076999711732,1.70799851019902,1.72042276154462,1.70243040006353,1.70262120654402,1.70310988056738,1.70570154708488,1.70340022964986,1.69915423250565,1.70048645221104,1.70036307545686,1.69873963175245,1.61980999711732,1.66281685645143,1.69840362382047,1.69666857153581,1.69694174987788,1.70136943883754,1.6164998662503,1.64117305529059,1.61517903788233,1.63391158628776,1.61638475561766,1.65404774564333,1.69544133366814,1.69664775732456,1.72025198149985,1.69778681673606,1.69853980174335,1.69716993733084,1.62456999711732,1.70234945863768,1.70553554018879,1.70792848390059,1.71697576406085,1.71345117271876,1.69250996551699,1.71799445242006,1.6925199967315,1.77709545299401,1.7773069698271,1.77216664023006,1.69291999712505,1.77021167464253,1.76968929089346,1.75295932222054,1.68976999712566,1.76651960424856,1.7664185142328,1.76579348870481,1.76574793140639,1.7668773693228,1.76552213616617,1.7152750949239,1.68512999728875,1.76265953591965,1.7618112846586,1.76146516157516,1.76137958776777,1.75848401809176,1.75876523798737,1.75761100638482,1.75672413318014,1.75676636830302,1.78516000288268,1.75452990333539,1.75538217684097,1.75230858967375,1.75250569654315,1.75340263883341,1.75373859566821,1.75227445244977,1.75173118302767,1.75261276588104,1.75197763845263,1.75314573784138,1.75365698719752,1.75311337426515,1.67464999711686,1.75520994412276,1.75358327631488,1.75337682439919,1.75384385867208,1.7538724200228,1.75613301055395,1.75854725631713,1.67905833117046,1.76581719235563,1.76570042166692,1.74947525891746,1.68661446460489,1.71514678622179,1.78368209944791,1.78470216371639,1.78418982355312,1.81573975246722,1.83418820397134,1.80660182499662,1.75856573650578,1.7768386385609,1.85155000288268,1.76236531194801,1.7614634453244,1.77200285858109,1.759987595494,1.82619862338633,1.82960000144134,1.78632983999617,1.76329505795526,1.76452569972548,1.7631054492447,1.76466640368793,1.76310076953489,1.80402253897237,1.85851086988345,1.85496313004284,1.85179274662074,1.76480021799956,1.76270908882283,1.80014244245213,1.84213931186279,1.81961708092321,1.76277382156829,1.76399414613456,1.76317085087118,1.79056804250351,1.83877964892647,1.84082998662736,1.85468828163125,1.83988163049745,1.76377969994154,1.76420955988776,1.76210106935213,1.76187520735632,1.76212179635994,1.76476250926826,1.84916272474443,1.8150249565747,1.76132952699148,1.8259223066161,1.85218166882868,1.81670671196605,1.85777000288268,1.83655384239249,1.84201768390163,1.78152728807802,1.7568667412385,1.75527314237105,1.75323262621396,1.71053970651337,1.69644355945767,1.69730646265975,1.69575200261593,1.69520486547449,1.69723920945708,1.69376439638867,1.69431021510662,1.69505450038678,1.69446706329969,1.69550140278801,1.86238000288268,1.69536876549237,1.69390277870281,1.69453125084246
1.71850881044051,1.71731556463132,1.71764234035786,1.71746948700876,1.71904385059648,1.71922311360999,1.72005739482226,1.71456181375612,1.63404499783799,1.70862206133674,1.70952590566676,1.7079224497844,1.70783212156595,1.70799395788883,1.70822674408307,1.70301427036627,1.70493209189519,1.70309244173671,1.62319999711732,1.70023824827111,1.70220844859835,1.70069088697208,1.69979290911496,1.69876894151739,1.69921956417432,1.65133718998524,1.61835333076884,1.6958320003719,1.69617689936986,1.70478805723174,1.71920108930284,1.65353375517308,1.69217000288268,1.64099955867939,1.61564458243089,1.64203312314981,1.61809973693635,1.6970681428398,1.69697618422338,1.6971076283254,1.69777900307824,1.69725269508543,1.70070757439422,1.70156650270886,1.70359365854825,1.7073513789502,1.70766722510808,1.71083870267387,1.80032456311544,1.78155353128125,1.85493000288268,1.77510838822928,1.77627711617672,1.77336176361252,1.77030692440966,1.76950969617832,1.7761729118502,1.76909969643122,1.77161248841876,1.7662270283622,1.76577272007035,1.76516831841356,1.76741398707446,1.76761240424087,1.6838399971123,1.72537628045388,1.75943456721384,1.76148499634484,1.68406878408474,1.70230692176405,1.68218766822233,1.75813018234076,1.75878144491445,1.75800920637195,1.75800698132643,1.75018109868229,1.6781499971161,1.75520956854173,1.75571086857247,1.75292000094024,1.67522999711689,1.75234776513402,1.75313476910909,1.75205362047754,1.75235574758926,1.75189126465008,1.75268301321724,1.75234448962195,1.75260356573549,1.75224769789557,1.75312651680102,1.75425579286428,1.75363070787571,1.75416293807632,1.75284847364235,1.75460639740535,1.75508485406709,1.75795867617928,1.67929166450379,1.76358772260062,1.76223178858841,1.74961664898345,1.68763468693978,1.69190863741718,1.69315392542682,1.71683443578927,1.69935863889331,1.81488082249789,1.85049312422178,1.85186589167563,1.85070126958575,1.78485261794437,1.75951368755567,1.76078112758048,1.75942038972062,1.78102568514804,1.82351673134603,1.82574178970923,1.76122948841715,1.7902063822404,1.86512244245698,1.78094874004705,1.76306680541215,1.77756091917,1.85438000288268,1.80393648497547,1.76186863597053,1.78250158800034,1.76343807409484,1.76449851104985,1.85827000288268,1.80108439054093,1.76285899921881,1.81958396635984,1.86004000288268,1.84255977388486,1.83776630551797,1.83593178169206,1.83745086004654,1.84181879998426,1.84518674405533,1.83744389560444,1.76318641319287,1.76418706216187,1.76432837288998,1.76312093711984,1.85199161608015,1.76298914001074,1.7611957793091,1.81465312490061,1.84752073138323,1.82555113974388,1.75815724211511,1.75818239681825,1.75659750079174,1.83727516132545,1.84108499643044,1.78380854709728,1.75539144707103,1.7544472098534,1.75385173047352,1.7097955248203,1.69685119171576,1.69668427868234,1.69394062166626,1.6958006599007,1.69451510931306,1.69381454373011,1.69441953238266,1.69433246716028,1.86561000288268,1.69567506409967,1.69472154354928,1.69497739853158,1.69400996784194,1.6936079641971
1.71843263023478,1.66666669598004,1.63984893786049,1.71751668481097,1.71980232830257,1.71905549524645,1.7189895630642,1.71481673564519,1.71263460307587,1.70900519007025,1.63275999783799,1.7153305297003,1.71677381913467,1.71184078248584,1.7036658237578,1.70312950692536,1.71709262268737,1.70244830990889,1.70265904935258,1.69988489389575,1.62146564811239,1.69679400148976,1.69848826910018,1.69775481503015,1.61908937981905,1.64087834398835,1.61756666410202,1.69502601991345,1.71898091768866,1.70801450513065,1.61475981795786,1.63915672635642,1.61421166450463,1.64700830218047,1.69856836621285,1.69863639026621,1.69781749534164,1.69705856219368,1.61678999711732,1.6957041461245,1.6989105411391,1.69654340292112,1.62029999711732,1.69981677630718,1.69971729025219,1.70668087573028,1.70634540416455,1.70880012861525,1.80337544120858,1.77819211829487,1.77019887478535,1.76931821901474,1.77018464311928,1.77403469429991,1.77401554369402,1.76895031679642,1.76827479467599,1.76805893107337,1.76792354918728,1.76623677855253,1.78126701642831,1.76521331421312,1.68585999711338,1.76623680616439,1.76503877642363,1.76037830792247,1.76143584733669,1.76169860378305,1.76290073308448,1.70896432073629,1.68118033317892,1.75759737472256,1.75967539769413,1.73645251574152,1.67833257326286,1.75014278528302,1.75583264630295,1.75465280645412,1.75565424968439,1.75342497457686,1.75437256767824,1.75194121876161,1.67477999711727,1.751834257991,1.75019712083203,1.75191962255218,1.78167018573196,1.75191138126307,1.67442999711693,1.75098671034998,1.75215785511432,1.75272106085291,1.75354404688968,1.75306525254191,1.7550667523769,1.7536172030235,1.78518000288268,1.75831685391282,1.75901819163097,1.76141263310307,1.76142600108366,1.74990721230927,1.76554000288268,1.69062769197276,1.69246477773324,1.72485939185926,1.88365000288268,1.81429038167747,1.84386613633627,1.8504977261659,1.85014510031826,1.83862897551664,1.83486323133679,1.83838730074545,1.85711117871259,1.84833374135902,1.84739364175638,1.826491274814,1.83529000288268,1.79318531703193,1.85621756186703,1.79180707033533,1.85157830450462,1.78515835670146,1.76177876770843,1.80428065146705,1.84820000288268,1.79137955119252,1.83194000288268,1.76540925453514,1.76292822188479,1.80118531767117,1.85853000288268,1.81955907547045,1.83921398250888,1.84322655000095,1.85602039940148,1.85510085299331,1.85503550181816,1.84090459241826,1.83666611607752,1.83404334189542,1.85107145755929,1.77804884871303,1.76193770699115,1.76225674860396,1.84771838824387,1.76176546557064,1.7613024501609,1.81447559824597,1.84692436775595,1.83025940411875,1.83072000288268,1.7578629810577,1.75779079353608,1.83763773875451,1.84042291157312,1.78626740350965,1.82532000288268,1.75366640574174,1.75264174200512,1.70919217825363,1.69649480803573,1.69565993587015,1.69656138010481,1.69377119917204,1.69168085246078,1.69423195690535,1.6943078035994,1.69375984830361,1.68972793853407,1.69517534871294,1.69524922095243,1.69500735454829,1.85648000288268,1.6946211641395
1.64103879068174,1.6391452568592,1.63682008706024,1.71672863927549,1.7166714656271,1.71507296643524,1.71650886185705,1.71398641597664,1.71517750305465,1.70947320043682,1.63179999783799,1.71663836239616,1.71728494877157,1.71304650865456,1.70606264635239,1.67320931287106,1.62671728891859,1.65353925454766,1.7205204969025,1.69969478480939,1.62430434756359,1.69614142801915,1.69695138021609,1.69660368957468,1.69593615368027,1.69569166719439,1.69641629384392,1.69503350449007,1.72039039709511,1.71111946822708,1.72111116102938,1.65138818153046,1.6146983311713,1.6549859712929,1.69389323482286,1.6967446841362,1.61407999711732,1.69577684102929,1.69711205040123,1.69481238696386,1.69438189634917,1.69503823834381,1.71997062170767,1.70766925808047,1.71596953654923,1.70633171418538,1.70592618816607,1.70769318691135,1.64582999711732,1.71718062905999,1.69258983785971,1.76900627487405,1.77707594020086,1.77527337609007,1.77638780734798,1.77099844176506,1.76754476581159,1.72931343733205,1.69039999713531,1.76543593369169,1.78004677449263,1.76528392791711,1.76523585003019,1.7630447131912,1.76275156351201,1.7609050138742,1.76076578381881,1.76168919548091,1.76190366076941,1.71814126425844,1.68037167270376,1.75719589260667,1.75909545169085,1.73554970187306,1.6784228477339,1.75010435168806,1.78219166882868,1.7547998288087,1.75354844967965,1.7546670945033,1.75396294418019,1.75127125363725,1.75112828120087,1.75092771663016,1.752653444775,1.75116811072213,1.75238986985442,1.75145957751915,1.75188154408688,1.75062903564467,1.672169997119,1.69837521539886,1.6730099862625,1.75269233568401,1.87338000288268,1.75315420091426,1.67675999711717,1.75748521088749,1.75785101822609,1.76048561918197,1.75856244520891,1.71758889769898,1.68540767438184,1.68809796457945,1.77117000288268,1.73534115828567,1.77946810592027,1.7830902066116,1.75412919895299,1.83958743503213,1.83255785944189,1.84088646925969,1.84084035885166,1.83949915387586,1.85373882561142,1.84368052054678,1.75721889911759,1.7764939758427,1.7593853334778,1.76702800439909,1.75838836586311,1.78256112695964,1.84829169981939,1.79075953507447,1.84776000288268,1.80499465394531,1.76056864493095,1.78003234476206,1.75983845699902,1.76687736658134,1.85208000288268,1.80043811526584,1.76115869147016,1.78222071966437,1.76111914128261,1.84419181055032,1.83764937664513,1.85225506817531,1.85607118325961,1.83999482125483,1.83533162636729,1.83362491315112,1.83600027565138,1.78493295802566,1.76190918922321,1.76201987780732,1.75941789419502,1.76188826989901,1.85917000288268,1.85155294254825,1.85328511308714,1.82989656515053,1.75550919905258,1.7573294981001,1.83676383664711,1.83989519979852,1.83772974636682,1.77639169092992,1.75308723879771,1.75310188700273,1.7764211524912,1.70841221737515,1.69598802274354,1.69530478592082,1.6920861977872,1.69373753083415,1.69397026100204,1.69244196296556,1.69082655372566,1.6942707430523,1.69216907087471,1.69431902164477,1.69382892028616,1.69421103127506,1.69305338560345,1.69251205184934
1.6384181604769,1.63769194417366,1.71713858602834,1.71705456061161,1.71947195522605,1.71497017186316,1.71115316401294,1.71428346325927,1.71843378024189,1.71617378906893,1.71834339287573,1.71751916543687,1.71689759228423,1.71437380751213,1.71700578222876,1.66277350028438,1.62621454491961,1.63694119857536,1.62329871709392,1.69993405440984,1.70285271638397,1.69644604540497,1.69781455434992,1.69690636813781,1.71630279186888,1.69595539679108,1.69421206853679,1.69504087891627,1.61501833117132,1.6914252591706,1.69371669729131,1.69258385694343,1.71490086866511,1.66531213690372,1.61305999711732,1.69456558518415,1.69254879343962,1.69348075268843,1.69279401004973,1.69371419484669,1.61678330862122,1.62148759183953,1.62027742360382,1.69646507163789,1.70191241128623,1.70441941710118,1.79639000288268,1.7198139109006,1.80022000288268,1.77556808052667,1.77241149397322,1.77063448328273,1.77012068627683,1.7735767081495,1.78152515107491,1.77456265601937,1.68968164232992,1.71948254279711,1.76466969971573,1.76533519158497,1.76723343471445,1.76567084207226,1.76673249682741,1.76158747213739,1.76056970276493,1.76137902011899,1.76180359811227,1.76094515409376,1.85742000288268,1.75561307940051,1.75822060689464,1.7572679605172,1.75806688691458,1.73448338408465,1.67804457326321,1.75008831179144,1.78127833549534,1.7543401078687,1.75521614196826,1.75376892655757,1.75385180476687,1.75139835930781,1.750933516812,1.75156822496686,1.75016287545174,1.75129168076493,1.75177636449812,1.75041052507116,1.74946772777937,1.75102730711231,1.74940359075301,1.74967430714476,1.77998000288268,1.75253437823382,1.75266022914079,1.75339830282363,1.75473345354884,1.75629632223463,1.75997719154576,1.76171188145735,1.68362954492931,1.70647822985922,1.68552118489672,1.68759572729578,1.68941483531464,1.72306063786492,1.7800702092305,1.78588402786076,1.85558114671384,1.84454532362552,1.84801092898263,1.84638116794583,1.84734516705216,1.84038916617417,1.83235464873983,1.8338823976558,1.84103644068355,1.78416896262452,1.76017184356275,1.77367828221393,1.85343000288268,1.77578963848114,1.76072750425407,1.77314933268673,1.75992838004423,1.80559775789301,1.85102853086815,1.7902951100384,1.85499000288268,1.768100295825,1.75968877371686,1.79890492660388,1.84953500216201,1.81769344093054,1.85549000288268,1.84880740920261,1.85265094253136,1.84817058797252,1.84439899539923,1.84224015021657,1.83664752989174,1.83388206180218,1.85515150489555,1.85541114849795,1.85898854747936,1.77971044117583,1.75969783605918,1.76327576572577,1.84131676631089,1.84448989491228,1.84074933081303,1.82953091268746,1.83484000288268,1.75687454507947,1.75633903794229,1.83789544606014,1.83100235314094,1.77232509436811,1.75388077725357,1.75190081379118,1.70907531696492,1.70738896609472,1.69431816116011,1.69489376125606,1.69430764381636,1.69396955138571,1.68776952662294,1.69139535641917,1.69424958880373,1.69103463655447,1.69246465959806,1.69322523753814,1.69380436663945,1.69379097133714,1.87346000288268,1.69375524104346
1.71622930098883,1.63616351499213,1.63705870366645,1.66377391815646,1.71229284951259,1.71212830889627,1.71444356826709,1.71102385698348,1.71057767764238,1.71555528463028,1.71798855197107,1.7171041009218,1.71760607966374,1.71173323355591,1.70557541723161,1.65382326319922,1.62287017017792,1.6446184865992,1.69989352831038,1.69950661143158,1.69774385374419,1.69649154453185,1.69751358660085,1.69629513178235,1.69715125477439,1.69427092207614,1.69676580557503,1.69281726740691,1.61577166450466,1.69217664920527,1.69098366900587,1.69343230292849,1.69549299706313,1.68986384491923,1.69042842517689,1.69225272531579,1.61277999711732,1.69268514328855,1.71715001744348,1.69424856780988,1.69620532817439,1.62151925178695,1.62063531322117,1.69612272531948,1.70266553734287,1.66716724707872,1.62718969247325,1.69803471519554,1.69387905165991,1.77451648759216,1.77181108242741,1.76998995871968,1.77133796025295,1.77198121597058,1.77512384751857,1.77494599031578,1.68960831640704,1.7119222511329,1.76413337144453,1.76485915721977,1.78066313581609,1.76382825083177,1.68513999711659,1.7612750461201,1.76281437573253,1.7621287585178,1.76069503488978,1.70566736075953,1.68037631637234,1.75544337987613,1.75778446299767,1.7566403474868,1.6788799972772,1.73409342001741,1.7541889083753,1.75259522926065,1.75658332611826,1.75438340415813,1.675929852959,1.70052961918619,1.67413999703103,1.75058892193039,1.77942028757966,1.75102890947283,1.75200321640577,1.75158645998609,1.74807465694084,1.75123659886184,1.67217999711721,1.75433330003926,1.77867000288268,1.75004188245933,1.75079225855447,1.74942151331319,1.67136959548829,1.69450696484268,1.67637806200828,1.70176486175514,1.6800193544774,1.76394242470685,1.77626000288268,1.76621277795075,1.76363367792471,1.7150484131431,1.69014076462291,1.71295201959826,1.69238916050998,1.78866938153647,1.84485885761018,1.7797796934028,1.75504876825624,1.77472361758693,1.75762852026798,1.84130636068926,1.83349424101604,1.83056279965008,1.85152120960966,1.82667983654441,1.82995317571061,1.78064672715051,1.75745992100184,1.75835707158665,1.75791607012313,1.78206232978413,1.85410330885067,1.85478251952038,1.85146014063913,1.78045820394944,1.7590784044744,1.76899107726783,1.84968000288268,1.79739910257287,1.85063500216201,1.81762636129697,1.75954929358551,1.78165138788505,1.75994851977203,1.77951298229677,1.75853917270569,1.84623025868157,1.85379436134816,1.83533597519793,1.84293339667708,1.85035537493443,1.86080145684466,1.78980502232747,1.8549713070562,1.76515627540529,1.75761045022371,1.7726529597437,1.75621746251488,1.76799150934636,1.75650494266314,1.75712106845016,1.83228051081425,1.83955146020084,1.85218634350456,1.76708423065315,1.75016007781076,1.74946383460587,1.70924750288068,1.70603991426806,1.69487356629235,1.6941092130535,1.85488000288268,1.69322007711663,1.69264687598619,1.69073414872324,1.6886186920776,1.69176110867685,1.87224000288268,1.69205306754251,1.69056276163009,1.69187664517931,1.69234926928292,1.6914928561939
1.71390070333519,1.63612712860736,1.63560245944935,1.63417104827533,1.63401256739633,1.66254901419864,1.63716998890583,1.71080289218102,1.7165276596999,1.66652933202131,1.62878495768722,1.65042838991579,1.62494999639468,1.65131125165573,1.62745881572843,1.64595280930127,1.62350721197451,1.65089469807918,1.69874700331272,1.66748933474084,1.62269999711732,1.69596439884851,1.69752740562532,1.6971315022107,1.6936606066228,1.69763621299506,1.69450380017559,1.6949195374755,1.69500323583921,1.69074685690248,1.69251555765818,1.69142544258575,1.69264123900281,1.68975162275671,1.68985933590426,1.69122596626331,1.69196897461947,1.69219968231322,1.61428999711732,1.64173078480206,1.61804701264641,1.62101748272361,1.62063287640844,1.69589689220438,1.70043257973834,1.65565109720506,1.62623204191422,1.70099478955057,1.76827926478803,1.77249245319751,1.69258999711955,1.76978555443001,1.77716700446276,1.77069418161713,1.76923419646233,1.77068089720689,1.76716873118338,1.70538905172964,1.6867563423928,1.71089553567542,1.76450649245506,1.76321391003421,1.76311586454323,1.76189992135497,1.76140475538893,1.76518276620573,1.68088565795642,1.68047831221212,1.67968608719812,1.75521551947926,1.77939034763475,1.75688008726076,1.75709063139743,1.73457422597492,1.67827999712853,1.75226383489817,1.75290734500258,1.75332103829947,1.75389973065338,1.71286460368595,1.75091966305166,1.75046788089878,1.75054564208087,1.75092203406599,1.74979530386028,1.74909636280852,1.75209841880254,1.74890896167567,1.75088994130133,1.75569306032714,1.67350999711678,1.74940791496013,1.75091310953309,1.74941552737731,1.75070213998154,1.70284905486404,1.67617120498409,1.71275644367859,1.75794226944945,1.76068063879676,1.68019999711322,1.76445955607331,1.763383004335,1.76106825326775,1.77891339837215,1.7782341031967,1.87003000288268,1.79018783363327,1.75416849344887,1.77230023477137,1.75353002343511,1.78177408625353,1.84754083104833,1.84720744466602,1.84663111709715,1.82782681630298,1.83143229469044,1.82736922552762,1.83069421348624,1.7857714382688,1.75768507110125,1.75867352949592,1.83103000288268,1.78695025216344,1.85001494106799,1.85221858158074,1.84830714249196,1.77415713344456,1.75844569885113,1.75919768781595,1.75864869975343,1.7594364012998,1.75917617672457,1.81749624253811,1.84807726167891,1.83068067934094,1.84108000288268,1.7874770890536,1.83855356818549,1.84574383603346,1.85817587821582,1.83455318828344,1.83598973471682,1.78424917936024,1.76232408388702,1.77884578262058,1.84541869726782,1.76663053732998,1.75757700769426,1.77990622104847,1.84816074032544,1.77650718631637,1.7541885820628,1.75843038702448,1.85261000288268,1.84412479835873,1.84545366081946,1.76133751603478,1.75138623614321,1.74895860726561,1.74937834305095,1.70448621412866,1.69227844480843,1.6935096290019,1.69332346431416,1.6929789191407,1.69109131192263,1.69062825185662,1.69044098968501,1.69011925417104,1.69041551372519,1.69133236115132,1.77187000288268,1.691327850813,1.69056353876321,1.69157626887751
1.63858284558574,1.6366168568403,1.63355593409446,1.63291719790513,1.71782378734151,1.71376521909881,1.71637438750636,1.71045256746897,1.63044975260444,1.65447277612074,1.62776492955517,1.6628317834395,1.70621461825464,1.70464962248429,1.70362446309526,1.70407641743767,1.71662612499545,1.65648576333266,1.62031036387628,1.65693860090212,1.70228576830752,1.69487146594592,1.61961999711732,1.66742130264365,1.69648509226337,1.69379784023691,1.69567591885367,1.69254209023661,1.69283933675646,1.66332266132009,1.61286999711732,1.69160641188672,1.69034898747847,1.68978456708332,1.61345499783799,1.69072046060606,1.69140547866734,1.6917216966216,1.71760120728886,1.70057372574167,1.71751079913285,1.69442019600544,1.69564394110337,1.69606979436839,1.62338495565289,1.64506128441944,1.62655768425999,1.70335462084022,1.77157463519059,1.77042027579294,1.76944917429873,1.76876655113188,1.68752999711184,1.76969019926628,1.77583299007013,1.74614375499661,1.6870920334838,1.68724251607834,1.68750686988104,1.6871407355683,1.68387873557186,1.76230643775704,1.76722583342881,1.76118258885574,1.76204134245952,1.7655287012482,1.67960749167641,1.68000390251839,1.67901501301736,1.75506295445617,1.75875990894825,1.75795482952229,1.75684524965067,1.73522256741943,1.75438929364426,1.75323926739823,1.75420103913076,1.75339966727411,1.67478996032948,1.70001982707802,1.67443999729802,1.75020407699311,1.75113674478139,1.7506465164801,1.74973236278533,1.74957420914892,1.74757221244275,1.74960533518161,1.78069000288268,1.75980374703187,1.77582000288268,1.7483443091288,1.74753373606663,1.74709816960721,1.67163999711644,1.7130718734368,1.75333976174665,1.75194284462011,1.75637910434696,1.75854593209792,1.75832489434776,1.76090083280201,1.68247999711208,1.76100592249131,1.78001884916359,1.77821303763535,1.77902138081639,1.79074869162884,1.84062096151402,1.82887872669519,1.82821151181266,1.82913175683965,1.82856326334929,1.82320093852856,1.75505283115748,1.7776951432547,1.82963436447393,1.82647279154027,1.84838641666205,1.78864848187564,1.85077000288268,1.75873943889008,1.75752723242439,1.75825971535808,1.75796660509673,1.77607667543487,1.75627457938668,1.76727313177643,1.75933095555078,1.75873126240104,1.75832174098651,1.75880721003462,1.84155000288268,1.81737890117961,1.84419391949809,1.83071302515397,1.75743843526151,1.77136259088729,1.75882433047469,1.75885490987199,1.75689235964042,1.77772159245049,1.8552305263197,1.77602723456431,1.75577076316526,1.75656619241184,1.75647934757449,1.76501930802625,1.82789000288268,1.78780462426762,1.83370989272925,1.78251387352305,1.75447337047923,1.76052778115864,1.75177761198176,1.76842104987784,1.75116370192686,1.75032076057042,1.75136962099331,1.74864509623168,1.70682015752612,1.70290293997015,1.69251641695213,1.69191663241311,1.69053937039543,1.69160035041331,1.84506000288268,1.69021693884512,1.6887027302959,1.69002742710532,1.69017348739253,1.69026183846713,1.69008498154062,1.69034375729359,1.68990884618861,1.69014904524581
1.63948244723293,1.63668937875509,1.63272623396551,1.63204303823812,1.71235625481801,1.71088680697488,1.71035068484605,1.70981206161791,1.70721923983065,1.70662960009627,1.70529035919805,1.70487366008891,1.70525126806395,1.70531596206338,1.70590162993776,1.70511902380124,1.71290062437187,1.66219696730418,1.62437198666091,1.64822953806998,1.69638586446555,1.69476347483767,1.69429275325625,1.65733406549471,1.61653666450466,1.69466410658884,1.69315705676157,1.69333091594628,1.61342999783799,1.65329024592145,1.69219208554877,1.69171864117187,1.71654186962325,1.6891823201792,1.61311499783799,1.69017506190848,1.72019078741289,1.69148332938803,1.69195874907945,1.69165765950092,1.61556999711732,1.69377545168956,1.69738042380562,1.6962640909753,1.62220492766181,1.65717646196787,1.80315000144134,1.70467387719022,1.77273080992354,1.76840668782668,1.76831700374363,1.76716107796533,1.76692504485346,1.76602175464835,1.76735210090212,1.7457729416016,1.686551151582,1.68724790353711,1.68577064503701,1.68680898623829,1.6841146799911,1.75994796425473,1.78252147836287,1.76019807565005,1.68133999711505,1.76279678068783,1.76133867090772,1.75891379914308,1.78367000288268,1.75788224854625,1.75778252559294,1.76157520101571,1.67601273933936,1.7014539198861,1.75309806068156,1.75251710947253,1.77894000867152,1.75806413674527,1.77995000288268,1.74983361756789,1.75090976656718,1.74989392205252,1.77735124644285,1.76092269063182,1.77780120333812,1.74910432041422,1.74949388702458,1.74886535184817,1.66898999711696,1.71138073588095,1.74878540579612,1.74811215112976,1.74834366550709,1.74664336479408,1.75280608680329,1.75301402480123,1.75199104555817,1.7515982410585,1.67540999711743,1.75767642140012,1.75798759760551,1.75842540994893,1.77458021052137,1.76088768702464,1.68832999710674,1.77644036083486,1.8613588726851,1.83238098203839,1.82343508986157,1.82954418404644,1.82885957247167,1.83163528598478,1.8460490935222,1.8234517555143,1.75531874557698,1.75627005053754,1.75593271893198,1.77573784167297,1.85391363078339,1.77353205572623,1.75500251104792,1.75653621092125,1.75764326531823,1.75773147610938,1.84849000288268,1.78505106327658,1.85477000288268,1.77255553199775,1.75729710898092,1.75855707921693,1.75782341878206,1.75825372942219,1.75713230500621,1.78021816995436,1.83435621752082,1.83074629610743,1.84437000288268,1.77988268119664,1.7577787130591,1.75844863202975,1.7578508769926,1.75718308971258,1.75613227635699,1.76959512970325,1.85197000288268,1.75658038004278,1.75644287434275,1.75627891947912,1.75566402596518,1.7756670957717,1.82499558882774,1.82685854199978,1.84033880343073,1.83263464883587,1.83044396487057,1.77513038556187,1.75116691263314,1.74915400173654,1.82458000288268,1.74817223320807,1.74679256121966,1.70139499272236,1.6916350116626,1.69141911637091,1.69152160624223,1.69053453733934,1.68949219219525,1.68944716825114,1.68814330820487,1.68922583191051,1.68841923977378,1.68962099929816,1.68911284447421,1.68979782366006,1.69022829444833,1.69065378462061
1.63680206012439,1.63614116071688,1.63430582158482,1.63275587535772,1.71134323259072,1.7105990949502,1.71595127583938,1.70916357836743,1.7098075258183,1.70742050630716,1.62904166450466,1.70396586766022,1.71439286218541,1.70379972143987,1.70290384789878,1.70082216218625,1.69976984182537,1.6722215329845,1.61976738388172,1.64078016518059,1.6211390305401,1.69482116771762,1.69453019741357,1.64986194689603,1.61572333117132,1.69431968966963,1.71479408620018,1.69191325641809,1.61334999783799,1.64816457514129,1.69117165536582,1.69149740457242,1.71361815320483,1.6888926394937,1.68891540607466,1.689543104275,1.68972104694867,1.69037146991354,1.714122361047,1.69219996150741,1.69296122340813,1.69392372696734,1.69544558178077,1.69551342087283,1.71397292633415,1.70365207662402,1.89198000288268,1.6710030653873,1.6415410907492,1.7152248109592,1.7674723505445,1.76612907007604,1.68871899852558,1.7082455188799,1.68845601765851,1.74550365760201,1.85199000216201,1.71205764277911,1.68553186243007,1.70845224051118,1.77921009052259,1.75986580425937,1.76152815364744,1.76064185199999,1.76109087486269,1.76117562755186,1.75945784630452,1.75970653161793,1.75866920457487,1.75825749171142,1.75857155987044,1.7626073235814,1.67684002092805,1.67728700178226,1.67641906687956,1.69709625544022,1.67368965514051,1.75055880379608,1.75165986244036,1.75014015177951,1.75040227802274,1.74984891199531,1.67190999711735,1.74881808848635,1.74925361279087,1.74843941523897,1.66970999711717,1.7483745628119,1.7486453132594,1.70156126193487,1.67048333144817,1.69381221591288,1.67151932650562,1.69540984234241,1.67460040823163,1.75394268039987,1.77509274839028,1.77441863943957,1.77526901473944,1.76786233930654,1.77639230941417,1.75671893719175,1.68172999711656,1.76009119455153,1.7766651174886,1.77585924087946,1.87219113163892,1.84083429068873,1.84423138450517,1.83571770636035,1.75130998674823,1.84073563144589,1.84672231896571,1.8237028828898,1.85081000288268,1.75675401348025,1.75532308181834,1.75671986680802,1.75732933039999,1.75580513820903,1.75585076664206,1.75588156435571,1.75612779590158,1.75693389664328,1.755495588089,1.77235112324176,1.75487826150354,1.77905048221594,1.84118000288268,1.78383925089682,1.84475000288268,1.7576831146604,1.75580979981478,1.7731209856897,1.83777260850888,1.78565344254849,1.75675994550721,1.78502095690746,1.8462171271061,1.84867336060945,1.84614903773705,1.75678640331599,1.7554054966943,1.75569835831033,1.75543478504004,1.75567016317252,1.75486183391144,1.75596970128499,1.75459261970815,1.7646094935021,1.75378681592171,1.82713179226331,1.84550687637701,1.83149626240232,1.82719802376596,1.81891137903128,1.8231698314583,1.74769694296605,1.74771299381161,1.74758283667777,1.70954068383663,1.69999237600948,1.69102113323576,1.69125625273924,1.68969702221037,1.68998971250501,1.68862659819962,1.6891329678642,1.77160000288268,1.68950392792242,1.68896068566751,1.68928174516586,1.68950214815624,1.68895270790518,1.76484000216201,1.69026105365409
1.63672573563501,1.63661669126191,1.63412072285578,1.63353799478215,1.63295192274459,1.70577590819686,1.70961294987806,1.70796037550916,1.71398145554356,1.70724643663651,1.62800833117132,1.70364449513339,1.70413846661628,1.70364388142963,1.69978186286724,1.69976425827206,1.69875675000959,1.69793722568045,1.6975750986261,1.69593335084789,1.69612957652124,1.69505154251895,1.61559999698879,1.6442147044836,1.69576646351244,1.69478530793106,1.71392819241962,1.6916480967722,1.69168130082995,1.64284035921479,1.61303404859652,1.68942753404823,1.68790417664331,1.68860493251391,1.61042999711732,1.68937341152615,1.71510136204218,1.68961895713611,1.69019769050186,1.68877866036026,1.69098390322317,1.69350854146036,1.69570347022928,1.69498958516939,1.6954942299653,1.69881220439211,1.62362053184061,1.65980348119202,1.64266799460286,1.706450959638,1.68928854469378,1.76509820385459,1.76578714528167,1.71591986281278,1.68624383509516,1.74564248524255,1.85235000216201,1.76170454884767,1.76269405226552,1.71936380397061,1.68285999712974,1.76056615064225,1.76090648927816,1.76073011470644,1.76068668828177,1.7591607891521,1.75841457321106,1.76182014321528,1.68159295552684,1.74095872561654,1.78006026028057,1.76218492690785,1.67571094672556,1.67738319562434,1.67223986170405,1.70866477176218,1.75144194626201,1.75075631726585,1.75340679872235,1.74905792009691,1.74929841587518,1.75012078364665,1.77642097415141,1.75012414261208,1.74872314609874,1.74977065472977,1.74913132049859,1.74846425156707,1.74816431176798,1.69503305696767,1.67053666478208,1.70516412501803,1.77566000288268,1.70719585366477,1.67121941980629,1.75364742013016,1.77436882829646,1.77352827909335,1.75356091636234,1.75685244074824,1.75612133360593,1.75664638215108,1.75811994970714,1.75808488086039,1.76584382640142,1.76501450266944,1.689819997115,1.84124256946992,1.83445263147125,1.83727728320158,1.84169476207816,1.8437813291741,1.84572908643113,1.80778284391144,1.75254799720885,1.75660362806012,1.75578468382119,1.75587410013594,1.75514626906934,1.75503271833684,1.75403104762568,1.75540331328749,1.75585201459543,1.75634326075629,1.75601184014006,1.78022338951358,1.85152006906676,1.78433135539971,1.75557906805325,1.77592227233493,1.75769671769768,1.75801957515518,1.75433530608381,1.75514597033585,1.75649660314584,1.78161188610384,1.84958706322083,1.8525735111689,1.8500758015343,1.85138778893396,1.84933528618972,1.75610783557998,1.75546755277878,1.75555732270936,1.75562264115161,1.75537909521241,1.84159737677505,1.77328043346494,1.7521494160741,1.77196541926898,1.83443000288268,1.82708282708816,1.83941432595762,1.77628978702775,1.74799142330732,1.81849582995172,1.82219026956766,1.74655355307093,1.74825522150998,1.74618111456303,1.74497292584622,1.69885226799404,1.68992207509619,1.6896965866026,1.69121446092334,1.6897462319696,1.68830301885493,1.68887309751103,1.68905234965903,1.68924558770528,1.68816865696934,1.68898885426463,1.68915759570253,1.68759662132027,1.76492000216201,1.6900209191391
1.63582639580702,1.63657476260581,1.6334741094598,1.6333707597579,1.63287651083124,1.70770847760622,1.70500054506476,1.70695445824276,1.70573487694553,1.70654722961241,1.70596544711086,1.70334826090775,1.70309997336951,1.70275590493548,1.62241999711732,1.69915399190354,1.69992301474383,1.69783542443856,1.61973999711732,1.69522692453593,1.69628830398505,1.69525426702093,1.71436045491107,1.63781387440223,1.61519296463957,1.69462680250386,1.71429808665034,1.6910182894376,1.68995792948862,1.63726941805505,1.60957594707942,1.69031816892548,1.69289184772132,1.68901042583491,1.69006055485554,1.68918194946939,1.68957709069633,1.68831095034803,1.61207999783799,1.68916721572384,1.69017917151868,1.69374884809118,1.69522463691345,1.69478710062855,1.71362345496539,1.70091732021211,1.62664946383537,1.67100197765726,1.76836517192612,1.76624167936307,1.77268774805112,1.7650923961536,1.76515164433469,1.72575496953972,1.68591984213823,1.74593201430418,1.77517139703334,1.76213053443047,1.76327384326248,1.7595355095531,1.76082736995001,1.76043970238226,1.76051337938164,1.7601087665297,1.77887175938677,1.75875107951615,1.75787700297176,1.76170018326179,1.67701860500955,1.74058855795289,1.75593853441741,1.75829653293753,1.77860000288268,1.71797983371353,1.77707000288268,1.75748955929473,1.85864000288268,1.74885555845468,1.67223392507289,1.67230999932851,1.67044489665173,1.75155783996713,1.74990125418008,1.74954091808779,1.74831554012067,1.74805079391468,1.74847140233729,1.6978895332189,1.66743227472177,1.68863020629739,1.77455000288268,1.75082266390817,1.74855279464032,1.74900008938748,1.74948407095755,1.7523957802716,1.7728226947523,1.77269835607327,1.77302164502468,1.75674441215216,1.75752937842488,1.75648668046258,1.75772889295305,1.75743151881821,1.76506785705794,1.76430671435855,1.85816808914106,1.84537972143804,1.84313452641941,1.84016746408288,1.84523696041411,1.77374585951835,1.75117956733037,1.80823356447087,1.83691984433238,1.83515390701233,1.82627710807203,1.772130737219,1.753994129799,1.75430323808393,1.75335495567873,1.7544583575904,1.84065822779739,1.83821159038697,1.83027534932881,1.82928330812553,1.82999170432308,1.83760429758429,1.84951000288268,1.82677703614207,1.84446698278776,1.82476989089718,1.84159000288268,1.75423531438246,1.75491399450912,1.77562299929593,1.85649271087769,1.85458119158685,1.84956729795533,1.78225255079536,1.75517714816089,1.75528029630956,1.75475723949597,1.75497711104734,1.75509240046286,1.75442944571948,1.84202374611675,1.80028034104798,1.84236000288268,1.77808204915081,1.75391873483946,1.7747854662194,1.74914883634349,1.7679718894168,1.74751818295859,1.81808202525488,1.82319087122026,1.74598806902903,1.74520393165584,1.73491457231375,1.7065953373823,1.69838088745208,1.68829540745791,1.68883490285444,1.68770959258807,1.68802846889884,1.69006203717268,1.68724071657169,1.76619141425776,1.72300343590464,1.76599000288268,1.71233327603661,1.76863000288268,1.68554179475897,1.68730723135748,1.68791220482951
1.71465294086171,1.65312587671834,1.63063797468712,1.65564943715874,1.70953656018527,1.70727202317552,1.70245055543662,1.70549550962219,1.7054767424067,1.70531904348912,1.70357367209234,1.70258771762325,1.70235603417627,1.70144330196362,1.71073007295791,1.69886914184,1.69906362222203,1.69752788947247,1.69697622653846,1.69535195210123,1.69555898926843,1.69564428959283,1.61411888311548,1.63060673517124,1.6139264512661,1.69052967447335,1.68960695539733,1.69053061439235,1.61059953995396,1.63087182016366,1.69100038939852,1.69067360767657,1.7145476345647,1.68888229936917,1.68864079685229,1.68862312308568,1.68861324158224,1.68764786838497,1.61127999783799,1.68830671649073,1.69182431831193,1.68846221826084,1.61699999711732,1.6939501942168,1.69706202667097,1.70312060977007,1.79956000288268,1.7286921222427,1.88360000288268,1.76609535018049,1.76762462149239,1.76575267863318,1.76555275513996,1.76400686748951,1.7649834652217,1.76311237003345,1.76418135083499,1.76162768840463,1.68255999711707,1.75842873225176,1.77705290060555,1.76824685635702,1.77708243900981,1.75976569502374,1.67873999711709,1.7546263356867,1.75750494619523,1.75812077637938,1.67602843370218,1.74032014566483,1.75712651533011,1.75626399119142,1.75511089801957,1.70816665261865,1.67560999711975,1.74963086851551,1.75078274781929,1.74948665035552,1.67209739516923,1.67209308829086,1.67058613110651,1.75384310422497,1.77386809408696,1.77333300037119,1.77422921611385,1.75527140430281,1.66903856921118,1.68581040274708,1.66880527464214,1.681898617393,1.66770823368252,1.75002775679185,1.74878981751913,1.74711563968831,1.75074854022117,1.75072732426865,1.77283825837015,1.76236505665227,1.75515967652474,1.75537592983441,1.7558725733456,1.75499265014091,1.68222999711713,1.75782197079982,1.7597487208838,1.76321136979973,1.86165191518295,1.843539604326,1.83416396532412,1.77583317026228,1.75080717913742,1.75061153466336,1.75125018912562,1.80888578131645,1.85484015999164,1.8378412793116,1.84213786552853,1.78246758837127,1.84368000288268,1.75286189313664,1.7531580488897,1.75361401981834,1.84376177652662,1.84336327643352,1.84515501356887,1.83858774758143,1.83934114857477,1.83948869419389,1.75284999736796,1.82676121724437,1.84239339348421,1.82474872095677,1.7545301820522,1.75369163744905,1.84017000288268,1.76863057266062,1.75430883325418,1.8451192043369,1.84193600867787,1.77897699609028,1.75414704481199,1.75421308910514,1.75401336588934,1.75411654334047,1.75434445636273,1.75343465451732,1.83406888287356,1.80003758119294,1.75088996849957,1.78317039472111,1.8392282038093,1.83869784377272,1.83595002014813,1.82985310066236,1.82330824233264,1.82278879010622,1.82804903496049,1.74594830786276,1.74523460849033,1.73619991463236,1.69795078207271,1.69851293326329,1.68944840319158,1.6885714091479,1.68705178692139,1.68766818365925,1.68528286723327,1.68525110445004,1.76311859006626,1.71257905885272,1.68489794363141,1.68519559608382,1.68434003272692,1.68406680712012,1.76620000288268,1.68776093130573
1.71523369528172,1.66404085667923,1.63345678151276,1.66768700120427,1.70774041312319,1.70887890050491,1.70335315113973,1.70727483124898,1.70521212266638,1.7048866020339,1.62691999239094,1.65231720514494,1.62520999711732,1.70060528027525,1.70128449109884,1.69908731867805,1.69781737113744,1.69761268237336,1.61976190695667,1.69399386243561,1.69670517663518,1.69565543392741,1.71389057354274,1.69152702498183,1.69271896766214,1.69138409628347,1.71224187979667,1.69812758730482,1.71188099957566,1.62501543349363,1.61003384575658,1.69030422601883,1.71113243141885,1.68872991705211,1.60947333117132,1.6860423255422,1.68637867325574,1.68695838540438,1.68788119712631,1.68914948070021,1.6883807517299,1.68904454305186,1.69352667462009,1.69330686860468,1.69709895099496,1.70483274156603,1.7069058443603,1.71917342764599,1.78317000144134,1.73279700924963,1.68628999711875,1.76584955074135,1.7712593582238,1.76281027789206,1.76267190787086,1.76360712179357,1.76218837144783,1.76192102637439,1.76032574097265,1.75924171712764,1.76106310836313,1.75961676294691,1.68054999711619,1.75371469529585,1.75512309036701,1.75613352166075,1.75683240022438,1.75661393067235,1.75550847066733,1.7404596252823,1.67287659994643,1.67119682928294,1.67207500236183,1.70289239635759,1.75098840873314,1.75003100449151,1.77708025065604,1.75041395913554,1.75115879833422,1.74870856238627,1.74945787088713,1.75285812976693,1.77352694451505,1.77279171871671,1.84776000288268,1.75810970755496,1.76907170969928,1.6924059828215,1.66813249478417,1.68981487514241,1.74630878313302,1.74766766701233,1.66889999711717,1.74778663519257,1.74453268354532,1.75013814356966,1.74867482626875,1.75236615429945,1.75300404361851,1.75302881072283,1.75425883843752,1.75448639056292,1.75996183118945,1.76334804175829,1.76434369981483,1.76333201828957,1.68933999711493,1.78534044093753,1.82312914609565,1.76728717782643,1.75036862063034,1.74999809467989,1.85659000288268,1.80937709893261,1.82322960606095,1.83314323082219,1.84527213879549,1.7700659233161,1.75176119119816,1.75204505125125,1.75242333704992,1.75320448138537,1.75212403144397,1.77671675937821,1.84194553444322,1.84040576721626,1.84231792143494,1.83731211879359,1.83354762435108,1.82674537089276,1.82937962949339,1.82472746211607,1.82491000288268,1.753319772862,1.75445741449584,1.76392589274152,1.84276677778337,1.84372164992254,1.83984109714145,1.77443343709379,1.75218029612411,1.75315426308801,1.75270305450689,1.75365441069181,1.75361966118891,1.75274482759758,1.75140195950672,1.80008020719359,1.83970180573862,1.83905772732135,1.84080454875626,1.83991088537274,1.83649652321067,1.83340627702047,1.83375654306095,1.82254585810663,1.74522743505794,1.74462526348645,1.74403191917675,1.73757358046364,1.7063746259248,1.69952006445855,1.68837916819939,1.68804039687868,1.68767790502568,1.68681713318946,1.84438000288268,1.68341088435602,1.68494965075216,1.70384788073644,1.68373356606666,1.68494486346602,1.6854606216642,1.68494623188854,1.6840756281531,1.68610213247973
