1.38846959715819,0,1.38733189997232,1.38724208177343,1.38720216257393,1.3871722231743,1.38689278877777,1.38619420278644,1.39082482992894,1.38755145556959,1.38798058696426,0,1.38849953655782,1.38886878915323,1.38962725394381,1.39011626413774,1.38991666814022,1.39168309271828,1.38874903155472,1.38880891035398,1.38930790034778,0,1.39085476932857,1.39079489052931,1.39061525413154,1.3907150521303,1.39475687108011,1.39055537533229,1.39043561773377,1.39099448652683,1.39121404212411,0,1.39201242611419,1.3932199818992,1.39222200191159,1.39239165850949,1.39263117370651,1.39275093130502,1.39282078990416,1.39421796188681,1.39458721448222,0,1.39397844668978,1.39439759828458,1.39435767908507,1.39441755788433,1.39526584087379,1.395974406665,1.39544547727156,1.39561513386946,1.39617400266252,0,1.39844939703426,1.39865897283166,1.39958709422013,1.3958047500671,1.39692248765322,1.39913800322571,1.3985591748329,1.39885856882918,1.39875877083042,0,1.39885856882918,1.39965695281927,1.39927772042397,1.40017590241282,1.40178265019287,1.39971683161852,1.40112398340105,1.40423768096238,1.4013934379977,0,1.40309000397663,1.40219182198779,1.40141339759745,1.40232155938618,1.40309998377651,1.40496620635334,1.40229161998655,1.40241137758506,1.40279060998035,0,1.40282054937998,1.40332951917366,1.40377861016808,1.40502608515259,1.40483646895495,1.40487638815445,1.40618374193822,1.40611388333908,1.41036527808629,0,1.4083992575107,1.40580450954293,1.40628353993698,1.40932737889918,1.4067326309314,1.4072316209252,1.40729149972446,1.40818968171331,1.4081098433143,0,1.40843917671021,1.40845913630996,1.4106546922827,1.41045509628518,1.47116221893132,1.46888682455958,1.46938581455338,1.46876706696107,1.46969518834954,0,1.46994468334644,1.4695055721519,1.46957543075103,1.47003450154533,1.47089276433467,1.4718807645224,1.47017421874359,1.47100254213331,1.47107240073244,0,1.47110234013207,1.47143167352798,1.47139175432847,1.47183086552302,1.47105244113269,1.47007442074483,1.4720903403198,1.47448549229006,1.47178096652364,0,1.47448549229006,1.47189074432228,1.47295858290902,1.47809817984519,1.47782872524854,1.47585272487308,1.47666108866304,1.47615211886936,1.47654133106453,0,1.47784868484829,1.4788865840354,1.47869696783776,1.47799838184643,1.47920593763144,1.47920593763144,1.47919595783156,1.47653135126465,1.4763018158675,0,1.47708024025783,1.47561320967605,1.42517530110238,1.4763018158675,1.47490464388485,1.47528387628014,1.42492580610548,1.42465635150883,1.42633295788801,0,1.42551461429817,1.42486592730622,1.42501562430437,1.42489586670585,1.42353861392271,1.42446673531118,1.42545473549891,1.42534495770028,1.42702156407946,0,1.42358851292209,1.42442681611168,1.42544475569904,1.42610342249086,1.42659243268478,1.42607348309123,1.42751057427338,1.42637287708751,1.42777004907016,0,1.4272111802771,1.42697166508008,1.42705150347908,1.42802952386694,1.42781994806954,1.42790976626843,1.42844867546173,1.42766027127152,1.4283788168626,0,1.42871813005839,1.4288378876569,1.42945663524922,1.42961631204723,1.43039473643757,1.42931691805095,1.43061429203484,1.43055441323559,1.43002548384215,0,1.43089372643137,1.43168213062158,1.43116318102803,1.43170209022133,1.43181186801997,1.43199150441774,1.43267013080931,1.43285974700696,1.43314916120336,0,1.433258939002,1.43324895920213,1.43341861580002,1.43352839359866,1.43382778759494,1.43422697958998,1.43521497977771,1.43464613118478,1.43514512117858,0,1.43518504037808,1.43609320216681,1.43782968734524,1.43653231336135,1.43689158615689,1.43784964694499,1.43776980854599,1.43769994994685,1.43767001054723,0,1.43707122255466,1.43771990954661
1.38699258677653,0,1.38636385938434,1.38713230397479,1.38980689034158,1.38760135456897,1.3883398597598,1.3888388497536,1.38842967795868,1.38812030416253,1.38806042536327,0,1.3885893547567,1.3876312939686,1.38826002136079,1.38845961735831,1.38916818314951,1.38917816294939,1.38870911235521,1.38857937495683,1.38887876895311,0,1.38912826395001,1.38926798114827,1.39031586013526,1.39060527433167,1.39047553693328,1.39062523393142,1.39091464812783,1.39131384012287,1.39130386032299,0,1.39167311291841,1.39079489052931,1.39108430472572,1.3916331937189,1.39207230491345,1.39235173930998,1.39201242611419,1.39208228471333,1.39222200191159,0,1.39217210291221,1.3927209919054,1.3934295576966,1.39436765888495,1.39589456826599,1.39710212405099,1.39885856882918,1.3967228916557,1.39593448746549,0,1.39648337645867,1.39639355825979,1.39572491166809,1.39635363906029,1.39729174024864,1.39893840722819,1.39949727602125,1.39892842742831,1.39942741742212,0,1.39818992223748,1.39894838702806,1.40065493280687,1.40211198358878,1.40259101398283,1.3999763064153,1.40205210478952,1.40026572061171,1.40268083218172,0,1.40255109478333,1.40321974137502,1.40608394393946,1.40213194318853,1.40223174118729,1.40208204418915,1.40235149878581,1.40279060998035,1.40317982217552,0,1.40417780216313,1.40509594375173,1.4039382869661,1.40426762036201,1.40304010497725,1.40330955957391,1.40561489334528,1.40653303493388,1.40849905550947,0,1.40755097452124,1.40763081292025,1.4078603483174,1.464665369212,1.40735137852372,1.40731145932421,1.40738131792335,1.46496476320828,1.40991618709187,0,1.40929743949955,1.40947707589732,1.46550367240159,1.46626213719217,1.46878702656082,1.46960537015066,1.46897664275846,1.46920617815561,1.46903652155772,0,1.46882694576032,1.46879700636069,1.46912633975661,1.46932593575413,1.46980496614818,1.47013429954409,1.46996464294619,1.46951555195177,1.47095264313393,0,1.471671188725,1.4712121179307,1.471671188725,1.46832795576652,1.46971514794929,1.46876706696107,1.46890678415933,1.46940577415314,1.47052351173925,0,1.47747943225288,1.47423599729315,1.47591260367233,1.47454537108931,1.47627187646787,1.47662116946354,1.47637167446663,1.47708024025783,1.4768008058613,0,1.47773890704966,1.4774295332535,1.47808820004532,1.47806824044557,1.47786864444804,1.47897640223429,1.47941551342884,1.4793456548297,1.48024383681855,0,1.48172084720021,1.47466512868782,1.47570302787494,1.4756331692758,1.47557329047655,1.47608226027023,1.47670100786254,1.47614213906948,1.475134179282,0,1.47695050285945,1.47643155326589,1.42567429109619,1.42482600810672,1.4250854829035,1.42419728071453,1.42369829072072,1.42615332149024,1.42386794731862,0,1.4249158263056,1.42566431129631,1.42568427089606,1.42707146307884,1.42618326088987,1.42632297808813,1.42647267508627,1.42657247308503,1.42640281648714,0,1.43005542324178,1.43012528184091,1.42890774625603,1.42928697865132,1.4276702510714,1.4283388976631,1.42724111967673,1.42660241248466,1.42727105907636,0,1.42732095807574,1.42845865526161,1.42976600904538,1.43039473643757,1.42978596864513,1.42901752405467,1.42956641304785,1.42918718065256,1.43036479703794,0,1.43004544344191,1.43093364563088,1.43078394863274,1.43132285782604,1.43328887840163,1.43172204982109,1.43246055501192,1.4325902924103,1.43253041361105,0,1.43181186801997,1.43353837339853,1.43404734319221,1.43418706039048,1.43427687858936,1.43423695938986,1.43377788859556,1.43468605038428,1.43492556558131,0,1.43519502017796,1.43541457577523,1.43537465657573,1.43577384857077,1.43557425257325,1.43660217196049,1.43710116195429,1.43725085895243,1.43816900054103,0,1.43712112155404,1.43733069735144
1.385585434994,0,1.38549561679512,1.38592474818979,1.38589480879016,1.38537585919661,1.3860045865888,1.38638381898409,1.38970709234282,1.38947755694567,1.38999650653923,0,1.38760135456897,1.38716224337442,1.38774107176724,1.38801052636389,1.38768119296798,1.38855941535707,1.38715226357455,1.39303036570155,1.39268107270589,0,1.38895860735212,1.39015618333724,1.38955739534468,1.38918814274927,1.39016616313712,1.39665303305657,1.39645343705905,1.38991666814022,1.39003642573873,0,1.39095456732733,1.39208228471333,1.39030588033539,1.3962638208614,1.39175295131742,1.39198248671457,1.39223198171147,1.39357925469474,1.39236171910986,0,1.39241161810924,1.39260123430688,1.39384870929139,1.39394850729015,1.39457723468234,1.39549537627094,1.39533569947293,1.39610414406338,1.39545545707144,0,1.39797036664021,1.39755121504541,1.39674285125545,1.39653327545806,1.39691250785335,1.39870887183104,1.39968689221889,1.39879869002992,1.39862903343203,0,1.39864899303178,1.39966693261914,1.40050523580873,1.39933759922323,1.4006848722065,1.40102418540229,1.4011040238013,1.40112398340105,1.40182256939237,0,1.40229161998655,1.40267085238184,1.40202216538989,1.40215190278828,1.40217186238804,1.40226168058692,1.40214192298841,1.40250119578395,1.40327962017428,0,1.4071517825262,1.40409796376412,1.40461691335767,1.40495622655346,1.40367881216932,1.40438737796052,1.40520572155036,1.46094290385823,1.40641327733537,0,1.46220035864261,1.46009462086876,1.46043393406455,1.46009462086876,1.40800006551566,1.40833937871145,1.40910782330191,1.46422625801745,1.46285902543443,0,1.40925752030005,1.46267938903666,1.41122354087563,1.46298876283282,1.46428613681671,1.46471526821138,1.46605256139477,1.46870718816181,1.46733995557879,0,1.46854751136379,1.46897664275846,1.46881696596045,1.46870718816181,1.4690864205571,1.46940577415314,1.46937583475351,1.46873712756144,1.47040375414074,0,1.47133187552922,1.47058339053851,1.47035385514136,1.47174104732414,1.46882694576032,1.46886686495983,1.46788884457197,1.46813833956887,1.4684177739654,0,1.46871716796169,1.47449547208993,1.47423599729315,1.4755533308768,1.47537369447903,1.47643155326589,1.47722993725598,1.47711017965746,1.47833769504222,0,1.47753931105213,1.47773890704966,1.47815805864445,1.47803830104594,1.47816803844433,1.47819797784395,1.47852731123987,1.48042347321632,1.48082266521136,0,1.47777882624916,1.48158113000194,1.47458529028882,1.47526391668039,1.47448549229006,1.4746751084877,1.47475494688671,1.47474496708683,1.47478488628634,0,1.47617207846911,1.47618205826899,1.47716007865684,1.47500444188361,1.4229997047294,1.42421724031428,1.42414738171515,1.42382802811911,1.42407752311601,0,1.42428709891341,1.42644273568664,1.42647267508627,1.42536491730003,1.42500564450449,1.42632297808813,1.42569425069594,1.42741077627462,1.42788980666867,0,1.42698164487995,1.42655251348528,1.42614334169036,1.42738083687499,1.42635291748776,1.42685190748156,1.42738083687499,1.4269217660807,1.42701158427958,0,1.42682196808193,1.42772015007078,1.42956641304785,1.42882790785703,1.42854847346049,1.42884786745678,1.4281692410652,1.43157235282294,1.42993566564327,0,1.4297560292455,1.43035481723806,1.43254039341092,1.43194160541836,1.43108334262902,1.43174200942084,1.43337869660051,1.4311332416284,1.43191166601873,0,1.43246055501192,1.43303938340473,1.43348847439915,1.433258939002,1.43335873700076,1.43337869660051,1.43397748459308,1.43377788859556,1.4337180097963,0,1.4348457271823,1.43500540398031,1.43511518177895,1.43520499997784,1.4357638687709,1.43675186895863,1.4365123537616,1.43666205075974,1.43688160635702,0,1.43679178815813,1.43677182855838
0,0,0,0,0,0,0,0,0,0,0,0,0,0,0,0,0,0,0,0,0,0,0,0,0,0,0,0,0,0,0,0,0,0,0,0,0,0,0,0,0,0,0,0,0,0,0,0,0,0,0,0,0,0,0,0,0,0,0,0,0,0,0,0,0,0,0,0,0,0,0,0,0,0,0,0,0,0,0,0,0,0,0,0,0,0,0,0,0,0,0,0,0,0,0,0,0,0,0,0,0,0,0,0,0,0,0,0,0,0,0,0,0,0,0,0,0,0,0,0,0,0,0,0,0,0,0,0,0,0,0,0,0,0,0,0,0,0,0,0,0,0,0,0,0,0,0,0,0,0,0,0,0,0,0,0,0,0,0,0,0,0,0,0,0,0,0,0,0,0,0,0,0,0,0,0,0,0,0,0,0,0,0,0,0,0,0,0,0,0,0,0,0,0,0,0,0,0,0,0,0,0,0,0,0,0,0,0,0,0,0,0,0,0,0,0,0,0,0,0,0,0,0,0,0,0,0,0,0,0,0,0,0,0
1.38694268777715,0,1.38571517239239,1.38586486939053,1.3857550915919,1.38602454618855,1.38546567739549,1.38610438458756,1.38660337458136,1.38658341498161,1.38659339478149,0,1.38733189997232,1.38751153637009,1.38830992036017,1.38807040516315,1.38828996076042,1.38778099096674,1.3890085063515,1.38698260697665,1.38807040516315,0,1.38842967795868,1.38852947595745,1.38952745594505,1.39079489052931,1.39183278971642,1.39236171910986,1.39098450672696,1.38945759734592,1.38999650653923,0,1.3900064863391,1.38955739534468,1.38964721354357,1.3918427695163,1.39161323411915,1.3918028503168,1.39182280991655,1.39326988089858,1.39835957883538,0,1.39689254825359,1.39196252711481,1.39294054750267,1.39510616407578,1.39347945669598,1.39405828508879,1.39329982029821,1.39464709328148,1.39524588127404,0,1.3955153358707,1.39610414406338,1.39552531567057,1.39648337645867,1.39683266945434,1.39742147764703,1.39731169984839,1.39975675081803,1.39894838702806,0,1.39892842742831,1.39923780122447,1.40045533680935,1.40050523580873,1.40004616501443,1.39918790222509,1.39982660941716,1.39968689221889,1.40036551861047,0,1.40067489240663,1.40099424600266,1.40036551861047,1.40452709515879,1.40360895357019,1.40394826676598,1.40733141892397,1.40732143912409,1.40245129678457,0,1.40282054937998,1.46028423706641,1.40589432774181,1.40515582255098,1.457659549699,1.40409796376412,1.45807870129379,1.45773938809801,1.45820843869218,0,1.45831821649082,1.45917647928016,1.40970661129447,1.45982516627211,1.45999482287,1.40950701529695,1.46013454006826,1.46064350986194,1.4618710252467,0,1.46176124744806,1.46184108584707,1.46422625801745,1.46180116664757,1.46344783362712,1.46424621761721,1.46302868203232,1.46645175338982,1.46838783456578,0,1.46771918797408,1.46892674375908,1.46980496614818,1.46965526915004,1.47106242093256,1.46896666295859,1.46923611755524,1.46945567315252,1.47070314813702,0,1.4679187839716,1.47090274413455,1.47125203713021,1.46889680435946,1.46805850116987,1.46839781436565,1.46838783456578,1.46786888497222,1.46810840016925,0,1.46893672355896,1.46957543075103,1.47545353287803,1.46946565295239,1.47055345113888,1.47668104826279,1.47744949285325,1.47840755364135,1.47667106846292,0,1.47566310867543,1.47847741224048,1.47857721023925,1.47749939185263,1.47780876564879,1.47821793744371,1.47858719003912,1.47860714963887,1.47984464482351,0,1.47340767390344,1.47379688609861,1.47319809810604,1.47933567502983,1.47286876471013,1.47268912831236,1.4737170476996,1.47445555289043,1.47404638109551,0,1.47482480548584,1.47441563369092,1.47601240167109,1.47490464388485,1.47475494688671,1.42369829072072,1.42379808871948,1.42360847252184,1.42364839172134,0,1.42426713931366,1.42473618990784,1.42622318008937,1.42550463449829,1.42439687671205,1.42559445269718,1.42586390729383,1.42665231148404,1.42618326088987,0,1.42500564450449,1.42543477589916,1.42740079647475,1.42679202868231,1.42977598884525,1.43050451423621,1.42959635244748,1.42712136207822,1.42720120047723,0,1.42843869566186,1.42716128127772,1.42802952386694,1.42797962486756,1.42737085707512,1.4279197460683,1.4299656050429,1.42943667564947,1.42957639284773,0,1.42945663524922,1.43031489803856,1.42994564544314,1.43066419103422,1.43060431223497,1.43143263562468,1.43118314062778,1.43100350423001,1.43173202962096,0,1.43175198922071,1.43222103981489,1.43306932280436,1.4323407974134,1.43171207002121,1.43347849459927,1.43380782799518,1.43341861580002,1.43336871680064,0,1.43423695938986,1.43415712099085,1.43455631298589,1.4348457271823,1.43550439397412,1.43617304056581,1.43565409097226,1.43624289916495,1.43595348496854,0,1.43683170735764,1.43674188915875
1.3855455157945,0,1.38678301097913,1.3853359399971,1.38513634399958,1.38612434418731,1.38618422298657,1.38605448558818,1.38729198077281,1.38560539459376,1.38592474818979,0,1.38632394018483,1.38559541479388,1.3862540815857,1.38687282917802,1.38955739534468,1.38898854675174,1.38772111216748,1.3869626473769,1.38752151616996,0,1.38781093036637,1.38716224337442,1.38810034456277,1.38860931435645,1.38871909215509,1.38920810234902,1.38938773874679,1.38947755694567,1.39246151710862,0,1.39160325431928,1.3906751329308,1.39165315331866,1.39149347652064,1.39153339572014,1.39076495112969,1.39110426432547,1.3916331937189,1.39168309271828,0,1.39171303211791,1.39187270891593,1.39351937589548,1.39299044650205,1.3932199818992,1.39455727508259,1.39470697208073,1.39422794168668,1.39372895169288,0,1.45591308472069,1.45637215551498,1.39632369966066,1.39694244725297,1.39699234625235,1.45895692368289,1.40161299359498,1.40290038777899,1.39934757902311,0,1.40085452880439,1.40237145838556,1.40130361979882,1.40152317539609,1.40002620541468,1.40032559941096,1.40012600341344,1.3997667306179,1.4001858822127,0,1.40010604381369,1.40027570041158,1.4058144893428,1.40031561961109,1.40165291279448,1.40241137758506,1.45449595313828,1.40307004437688,1.45763959009925,0,1.45860763068722,1.45789906489602,1.457659549699,1.45701086270705,1.45761963049949,1.45756973150011,1.45742003450197,1.45717053950507,1.45742003450197,0,1.45753979210049,1.45775934769776,1.45783918609677,1.4584080346897,1.45845793368908,1.45823837809181,1.45779926689726,1.45856771148772,1.45897688328264,0,1.46088302505897,1.46130217665376,1.46155167165067,1.46201074244497,1.46197082324546,1.46242989403976,1.46284904563456,1.46763934957507,1.46279914663518,0,1.4714216937281,1.46894670335884,1.46873712756144,1.46297878303294,1.47054347133901,1.47109236033219,1.46605256139477,1.47091272393442,1.46922613775537,0,1.47263922931298,1.47200052212091,1.47107240073244,1.47141171392823,1.46526415720457,1.46560347040035,1.46591284419651,1.46838783456578,1.4700045621457,0,1.46927603675475,1.47083288553541,1.46977502674855,1.46997462274607,1.47236977471633,1.47868698803788,1.47720997765622,1.47615211886936,1.47770896765003,0,1.47832771524234,1.47850735164011,1.47784868484829,1.47811813944495,1.47841753344123,1.47862710923863,1.47985462462338,1.47821793744371,1.47840755364135,0,1.47796844244681,1.47267914851249,1.47239971411596,1.47428589629253,1.47591260367233,1.47343761330307,1.47317813850629,1.4730484011079,1.47363720930059,0,1.47464516908807,1.47428589629253,1.47338771430369,1.42609344269098,1.46747967277705,1.42498568490474,1.4269217660807,1.42681198828206,1.42559445269718,0,1.42702156407946,1.42519526070213,1.42489586670585,1.42681198828206,1.42560443249705,1.42387792711849,1.42438689691217,1.42627307908875,1.42526511930127,0,1.42639283668726,1.4260435436916,1.42618326088987,1.43007538284153,1.42664233168417,1.42618326088987,1.42638285688739,1.426253119489,1.42652257408565,0,1.42827901886384,1.42709142267859,1.42673214988305,1.42750059447351,1.42786984706892,1.42809938246607,1.42841873606211,1.42806944306644,1.4283788168626,0,1.42869817045864,1.429716110046,1.42970613024612,1.4299656050429,1.42992568584339,1.43016520104042,1.43036479703794,1.43157235282294,1.43102346382976,0,1.43135279722567,1.43212124181613,1.43213122161601,1.43361821179754,1.43286972680683,1.43284976720708,1.43323897940225,1.43327889860175,1.43324895920213,0,1.43393756539357,1.43366811079692,1.43414714119097,1.43471598978391,1.43546447477461,1.43602334356767,1.4369714245559,1.43558423237313,1.43578382837065,0,1.43653231336135,1.43727081855218
1.38649359678273,0,1.38619420278644,1.38537585919661,1.38628402098533,1.38408846501259,1.38537585919661,1.38595468758942,1.3857550915919,1.38496668740169,1.38569521279264,0,1.38598462698905,1.38671315238,1.38729198077281,1.38684288977839,1.38634389978459,1.38662333418112,1.38751153637009,1.38726204137318,1.38733189997232,0,1.3873817989717,1.38807040516315,1.38817020316191,1.38855941535707,1.38877897095435,1.38844963755844,1.38855941535707,1.38982684994133,1.39070507233043,0,1.39040567833415,1.39015618333724,1.38911828415013,1.38967715294319,1.39241161810924,1.38948753674555,1.39356927489486,1.39189266851568,1.39176293111729,0,1.39232179991035,1.39261121410676,1.3927209919054,1.39379881029201,1.39590454806586,1.39507622467615,1.39364911329387,1.45471550873556,1.39636361886016,0,1.39673287145558,1.39701230585211,1.46136205545302,1.45430633694064,1.45404686214386,1.45438617533965,1.45462569053667,1.45647195351375,1.45766952949887,0,1.44950605320025,1.39985654881679,1.45735017590284,1.45837809529008,1.45583324632168,1.40045533680935,1.40065493280687,1.40109404400142,1.40178265019287,0,1.40167287239423,1.40133355919845,1.40401812536511,1.4023115795863,1.40207206438928,1.45534423612775,1.45616257971759,1.45618253931734,1.45600290291957,0,1.4556136907244,1.45554383212527,1.45600290291957,1.45462569053667,1.45550391292577,1.45602286251932,1.45595300392019,1.45589312512093,1.45670148891089,0,1.45718051930495,1.45756973150011,1.45726035770395,1.45742003450197,1.45849785288859,1.45763959009925,1.45795894369528,1.45910662068103,1.45908666108128,0,1.46114249985575,1.46042395426467,1.46085308565934,1.46097284325785,1.46181114644744,1.4614119544524,1.46004472186938,1.46503462180742,1.46316839923059,0,1.46517433900568,1.46897664275846,1.46888682455958,1.46611244019403,1.46628209679192,1.46082314625971,1.46549369260171,1.46298876283282,1.46153171205091,0,1.46337797502799,1.46271930823617,1.46793874357135,1.46925607715499,1.46859741036317,1.46882694576032,1.46844771336503,1.46845769316491,1.46708048078201,0,1.46704056158251,1.46869720836193,1.46740981417792,1.46588290479688,1.46581304619775,1.4662521573923,1.47476492668659,1.47882670523615,1.47919595783156,0,1.47911611943255,1.478597169839,1.47806824044557,1.47803830104594,1.47965502862586,1.48112205920764,1.48195038259736,1.48265894838856,1.46468532881175,0,1.46448573281423,1.47349749210232,1.47377692649885,1.47189074432228,1.47321805770579,1.47274900711162,1.47190072412215,1.47295858290902,1.47349749210232,0,1.4744655326903,1.47425595689291,1.47361724970084,1.46820819816801,1.47011433994434,1.46852755176404,1.46761938997532,1.42693174588057,1.42586390729383,0,1.42565433149643,1.46761938997532,1.42724111967673,1.42546471529879,1.42589384669346,1.42598366489234,1.42659243268478,1.42638285688739,1.43104342342951,0,1.42442681611168,1.42405756351626,1.4252950587009,1.42572419009557,1.42502560410424,1.4267521094828,1.42638285688739,1.4262930386885,1.42682196808193,0,1.42663235188429,1.42748063487375,1.42693174588057,1.42655251348528,1.42761037227214,1.42813930166558,1.42842871586198,1.42811934206582,1.42825905926409,0,1.42874806945802,1.42920714025232,1.42912730185331,1.43103344362964,1.43014524144067,1.42985582724426,1.42999554444253,1.43014524144067,1.43015522124054,0,1.43191166601873,1.43148253462406,1.43148253462406,1.43191166601873,1.43224099941464,1.43284976720708,1.43330883800138,1.43303938340473,1.43342859559989,0,1.43681174775788,1.43389764619407,1.43397748459308,1.43461619178515,1.43487566658192,1.43435671698837,1.4344265755875,1.43557425257325,1.43594350516866,0,1.43818896014078,1.43781970754537
1.38631396038496,0,1.38695266757703,1.38532596019723,1.38480701060367,1.38546567739549,1.38589480879016,1.38586486939053,1.38798058696426,1.38530600059747,1.38598462698905,0,1.38540579859623,1.3885494355572,1.38577505119165,1.38701254637628,1.38684288977839,1.38705246557579,1.38796062736451,1.38912826395001,1.3855455157945,0,1.38633391998471,1.38720216257393,1.38729198077281,1.38755145556959,1.38724208177343,1.38760135456897,1.38846959715819,1.38860931435645,1.38777101116686,0,1.38990668834034,1.38993662773997,1.39052543593266,1.3897569913422,1.38915820334964,1.38966717314332,1.39033581973501,1.39072503193018,1.39100446632671,0,1.39581472986698,1.39124398152374,1.39236171910986,1.39286070910366,1.39229186051072,1.39424790128643,1.3939285476904,1.45555381192515,1.45521449872936,0,1.45516459972998,1.45620249891709,1.45773938809801,1.46204068184459,1.45950581267607,1.45752981230061,1.45637215551498,1.45800884269466,1.45706076170643,0,1.45750985270086,1.45969542887372,1.46008464106888,1.45895692368289,1.46052375226343,1.45789906489602,1.45593304432044,1.46055369166306,1.45198104356951,0,1.45684120610916,1.45410674094312,1.45378738734708,1.4544061349394,1.45522447852924,1.45418657934212,1.45396702374485,1.45675138791028,1.45454585213766,0,1.45456581173742,1.45445603393878,1.45470552893568,1.45519453912961,1.45495502393258,1.45669150911102,1.45558375132477,1.45548395332601,1.45543405432663,0,1.45579332712217,1.45593304432044,1.45610270091833,1.45666156971139,1.45743001430185,1.45755975170024,1.45848787308871,1.45843797408933,1.45816851949268,0,1.45860763068722,1.45892698428326,1.45676136771015,1.45717053950507,1.45752981230061,1.45898686308252,1.4590766812814,1.45934613587805,1.45867748928636,0,1.45791902449578,1.4585776912876,1.4634977326265,1.46057365126281,1.4609129644586,1.46128221705401,1.46123231805463,1.4622901768415,1.46081316645984,0,1.46097284325785,1.46754953137619,1.46567332899948,1.47169114832476,1.46939579435326,1.46348775282662,1.46337797502799,1.46538391480308,1.46921615795549,0,1.46333805582848,1.46327817702923,1.46421627821758,1.46519429860543,1.46574318759862,1.46663138978759,1.46624217759242,1.46823813756763,1.4725494111141,0,1.46594278359614,1.46658149078821,1.47862710923863,1.46502464200754,1.47447551249018,1.46581304619775,1.4722999161172,1.4788865840354,1.47212027971943,0,1.47083288553541,1.46572322799886,1.46427615701683,1.472798906111,1.47187078472252,1.47179094632352,1.47228993631732,1.47276896671137,1.47129195632971,0,1.47141171392823,1.47381684569836,1.4650845208068,1.46703058178263,1.42608346289111,1.46966524894991,1.42709142267859,1.42822911986446,1.42762035207202,0,1.4313827366253,1.42780996826967,1.42775008947041,1.42424717971391,1.42506552330375,1.42364839172134,1.4241673413149,1.42478608890722,1.42514536170275,0,1.42563437189668,1.4252950587009,1.4255445536978,1.42994564544314,1.42559445269718,1.42524515970151,1.42691178628082,1.42634293768788,1.42661239228454,0,1.42660241248466,1.42667227108379,1.42657247308503,1.42676208928268,1.42657247308503,1.4272111802771,1.42789978646855,1.42755049347289,1.42800956426719,0,1.42867821085888,1.42945663524922,1.42981590804476,1.43011530204104,1.42967619084649,1.43028495863893,1.43015522124054,1.43024503943943,1.43052447383596,0,1.43055441323559,1.43014524144067,1.43010532224116,1.4311332416284,1.43169211042146,1.43182184781985,1.43177194882047,1.43229089841402,1.4325104540113,0,1.43280984800758,1.43328887840163,1.43373796939605,1.43390762599395,1.43443655538738,1.43432677758874,1.43377788859556,1.43402738359246,1.43499542418044,0,1.43512516157883,1.43525489897722
0,0,0,0,0,0,0,0,0,0,0,0,0,0,0,0,0,0,0,0,0,0,0,0,0,0,0,0,0,0,0,0,0,0,0,0,0,0,0,0,0,0,0,0,0,0,0,0,0,0,0,0,0,0,0,0,0,0,0,0,0,0,0,0,0,0,0,0,0,0,0,0,0,0,0,0,0,0,0,0,0,0,0,0,0,0,0,0,0,0,0,0,0,0,0,0,0,0,0,0,0,0,0,0,0,0,0,0,0,0,0,0,0,0,0,0,0,0,0,0,0,0,0,0,0,0,0,0,0,0,0,0,0,0,0,0,0,0,0,0,0,0,0,0,0,0,0,0,0,0,0,0,0,0,0,0,0,0,0,0,0,0,0,0,0,0,0,0,0,0,0,0,0,0,0,0,0,0,0,0,0,0,0,0,0,0,0,0,0,0,0,0,0,0,0,0,0,0,0,0,0,0,0,0,0,0,0,0,0,0,0,0,0,0,0,0,0,0,0,0,0,0,0,0,0,0,0,0,0,0,0,0,0,0
1.38845961735831,0,1.38678301097913,1.3865035765826,1.38388886901507,1.38390882861482,1.38385892961544,1.38457747520652,1.38388886901507,1.38454753580689,1.3848768692028,0,1.38541577839611,1.38537585919661,1.38581497039115,1.38577505119165,1.38635387958446,1.38615428358694,1.38672313217988,1.38630398058508,1.38641375838372,0,1.38682293017864,1.38708240497541,1.38608442498781,1.38697262717678,1.38733189997232,1.38770115256773,1.38819016276166,1.38994660753985,1.39011626413774,0,1.38866919315571,1.38899852655162,1.38948753674555,1.39012624393762,1.38949751654542,1.38953743574493,1.38979691054171,1.39039569853427,1.39053541573254,0,1.39097452692708,1.3904655571334,1.39646341685892,1.39602430566438,1.39504628527652,1.3920922645132,1.3925513353075,1.45454585213766,1.45386722574609,0,1.45569352912341,1.45635219591523,1.45579332712217,1.45753979210049,1.45727033750383,1.45737013550259,1.4586176104871,1.45772940829813,1.45772940829813,0,1.45853777208809,1.45827829729131,1.45819845889231,1.4592862570788,1.45919643887991,1.45666156971139,1.46133211605339,1.45921639847967,1.45908666108128,0,1.45370754894807,1.45396702374485,1.45413668034274,1.45382730654659,1.45418657934212,1.45401692274423,1.45396702374485,1.45396702374485,1.45412670054287,0,1.45426641774113,1.45435623594002,1.45401692274423,1.45395704394498,1.45416661974237,1.45534423612775,1.45437619553977,1.45487518553357,1.45562367052428,0,1.45616257971759,1.45497498353233,1.45485522593382,1.45572346852304,1.4574499739016,1.45807870129379,1.4569509839078,1.45642205451437,1.4606634694617,0,1.45708072130619,1.45710068090594,1.45621247871697,1.46151175245116,1.45630229691585,1.45662165051189,1.45706076170643,1.45693102430804,1.45727033750383,0,1.4567414081104,1.4572004789047,1.45827829729131,1.46580306639787,1.45889704488363,1.45980520667235,1.45982516627211,1.46182112624732,1.46531405620395,0,1.45966548947409,1.46476516721076,1.45937607527768,1.45963555007446,1.45992496427087,1.46019441886752,1.46031417646603,1.46829801636689,1.46175126764819,0,1.46140197465253,1.46103272205711,1.46356759122563,1.46431607621634,1.46298876283282,1.46371728822377,1.46348775282662,1.46405660141956,1.46509450060667,0,1.46820819816801,1.46496476320828,1.47621199766862,1.47531381567977,1.47078298653603,1.47308832030741,1.46598270279564,1.4656234300001,1.47168116852488,0,1.46382706602241,1.46380710642266,1.464665369212,1.46472524801126,1.46595276339601,1.47295858290902,1.4735074719022,1.47485474488547,1.47552339147717,0,1.4655835108006,1.47175102712401,1.46957543075103,1.46204068184459,1.46205066164447,1.4239577655175,1.4241673413149,1.42704152367921,1.42785986726905,0,1.4253349779004,1.42393780591775,1.4276303318719,1.42504556370399,1.42419728071453,1.42464637170895,1.42524515970151,1.42472621010796,1.42467631110858,0,1.42482600810672,1.4248359879066,1.42724111967673,1.42655251348528,1.42591380629321,1.42549465469842,1.42557449309743,1.42530503850077,1.42618326088987,0,1.42628305888863,1.42666229128392,1.42694172568045,1.4270016044797,1.42712136207822,1.42677206908255,1.42706148327896,1.427460675274,1.427460675274,0,1.4290474634543,1.42958637264761,1.42863829165938,1.42947659484897,1.43015522124054,1.4309635850305,1.42998556464265,1.42994564544314,1.42988576664389,0,1.43075400923311,1.43057437283534,1.43003546364203,1.43198152461786,1.43199150441774,1.43175198922071,1.43187174681923,1.4315923124227,1.43706124275478,0,1.43126297902679,1.43288968640659,1.4337180097963,1.4339275855937,1.43370802999642,1.43409724219159,1.4351351413787,1.43415712099085,1.434386656388,0,1.43441659578763,1.43525489897722
1.38326014162288,0,1.38421820241098,1.38362939421829,1.38507646520032,1.38447767720776,1.38490680860243,1.38428806101011,1.3851263641997,1.38542575819599,1.38587484919041,0,1.38539581879636,1.38528604099772,1.38525610159809,1.38515630359933,1.38564531379326,1.38797060716438,1.38564531379326,1.3860045865888,1.3862940007852,0,1.38693270797727,1.38702252617616,1.38688280897789,1.38870911235521,1.39068511273068,1.38686284937814,1.38769117276785,1.38770115256773,1.38731194037256,0,1.38862927395621,1.38934781954728,1.38952745594505,1.38933783974741,1.38955739534468,1.39020608233663,1.39030588033539,1.38919812254914,1.38994660753985,0,1.39045557733353,1.39111424412535,1.39116414312473,1.39073501173006,1.3911342037251,1.39515606307516,1.45570350892329,1.45550391292577,1.45481530673432,0,1.45498496333221,1.45664161011164,1.45700088290718,1.45770944869838,1.45784916589664,1.45736015570272,1.45733021630309,1.45732023650321,1.45743999410172,0,1.45756973150011,1.45763959009925,1.45740007490222,1.45796892349516,1.45865752968661,1.45783918609677,1.45822839829193,1.45900682268227,1.46022435826715,0,1.45447599353853,1.45242015476406,1.45120261917918,1.45191118497038,1.45188124557075,1.45317861955464,1.45309878115563,1.45304888215625,1.45439615513952,0,1.45351793275043,1.4534480741513,1.45400694294436,1.45422649854163,1.45441611473927,1.45479534713457,1.45430633694064,1.45472548853543,1.45413668034274,0,1.45504484213147,1.4572004789047,1.45833817609057,1.45775934769776,1.45553385232539,1.4557833473223,1.45833817609057,1.45488516533345,1.45740007490222,0,1.45438617533965,1.45509474113085,1.45596298372007,1.45633223631548,1.45622245851684,1.45639211511474,1.45613264031796,1.45608274131858,1.45630229691585,0,1.45619251911722,1.45696096370767,1.45714060010544,1.45726035770395,1.45801882249454,1.45796892349516,1.45746993350135,1.45803878209429,1.45803878209429,0,1.45835813569032,1.45871740848586,1.45946589347657,1.46041397446479,1.46129219685389,1.4595357520757,1.45927627727892,1.46099280285761,1.46149179285141,0,1.46021437846727,1.4655435916011,1.46296880323307,1.46242989403976,1.46193090404596,1.46316839923059,1.46480508641027,1.46503462180742,1.46265942943691,0,1.46485498540965,1.4641663792182,1.46235005564075,1.4644557934146,1.47102250173306,1.47091272393442,1.46492484400878,1.46522423800506,1.47099256233343,0,1.46326819722935,1.4709227037343,1.4655435916011,1.46520427840531,1.464665369212,1.41979618896918,1.47185082512277,1.47176100692389,1.42295978552989,0,1.42148277514824,1.41969639097042,1.41909760297785,1.42111352255282,1.4236683513211,1.42314940172754,1.42271029053299,1.42316936132729,1.42322924012655,0,1.4239577655175,1.42467631110858,1.42442681611168,1.42339889672444,1.42453659391031,1.42359849272196,1.42394778571763,1.42446673531118,1.42422722011416,0,1.42415736151502,1.42407752311601,1.4236683513211,1.42381804831924,1.42457651310982,1.42465635150883,1.42517530110238,1.42473618990784,1.42540483649953,0,1.42596370529259,1.42599364469222,1.42637287708751,1.42680200848218,1.42664233168417,1.42702156407946,1.42884786745678,1.42769021067115,1.42744071567425,0,1.427460675274,1.42794968546793,1.42792972586818,1.43047457483658,1.42985582724426,1.42957639284773,1.42938677665009,1.42981590804476,1.43027497883906,0,1.4299656050429,1.4297560292455,1.42980592824488,1.43121308002741,1.4309635850305,1.43106338302927,1.43216116101563,1.43086378703174,1.43161227202245,0,1.43239069641278,1.43303938340473,1.43301942380498,1.4339675047932,1.43351841379878,1.43347849459927,1.43436669678825,1.43462617158502,1.43482576758254,0,1.43495550498093,1.43517506057821
1.38283101022821,0,1.38541577839611,1.3841283842121,1.3862141623862,1.38590478859004,1.38523614199834,1.38627404118545,1.38413836401197,1.38497666720156,1.38495670760181,0,1.3846672934054,1.38505650560057,1.3862940007852,1.38549561679512,1.3853359399971,1.38543573799586,1.38631396038496,1.38615428358694,1.38570519259252,0,1.38620418258632,1.3857550915919,1.38611436438744,1.38569521279264,1.3865035765826,1.38701254637628,1.38733189997232,1.38848955675794,1.38824006176104,0,1.38831990016005,1.38864923355596,1.38865921335583,1.38891868815261,1.38847957695806,1.38901848615137,1.38887876895311,1.3892580013484,1.38972705194257,0,1.38930790034778,1.39015618333724,1.39174297151754,1.39212220391283,1.39227190091097,1.45264969016121,1.4534480741513,1.45375744794745,1.45746993350135,0,1.45702084250693,1.45806872149392,1.4572004789047,1.45615259991771,1.45719049910482,1.45746993350135,1.45705078190656,1.4574100547021,1.4562424181166,0,1.45627235751622,1.45735017590284,1.45750985270086,1.45752981230061,1.45958565107508,1.45706076170643,1.45652185251313,1.45685118590904,1.45593304432044,0,1.45771942849825,1.45180140717174,1.45179142737187,1.45422649854163,1.45269958916059,1.45205090216865,1.45267962956084,1.45257983156208,1.45319857915439,0,1.45230039716555,1.45311874075538,1.45435623594002,1.45330835695303,1.45361773074919,1.45413668034274,1.45441611473927,1.45439615513952,1.45638213531486,0,1.45805874169404,1.45316863975477,1.45747991330123,1.45622245851684,1.45404686214386,1.45291914475786,1.45318859935452,1.4532784175534,1.45564363012403,0,1.4544460541389,1.45390714494559,1.45389716514572,1.45533425632787,1.45429635714076,1.45517457952986,1.45487518553357,1.45493506433283,1.45504484213147,0,1.45534423612775,1.4567414081104,1.45666156971139,1.45639211511474,1.45565360992391,1.45803878209429,1.45782920629689,1.45689110510854,1.45715057990532,0,1.45677134751003,1.45802880229441,1.45787910529627,1.457659549699,1.45764956989912,1.45850783268846,1.45798888309491,1.46086306545922,1.46127223725414,0,1.45958565107508,1.45919643887991,1.45888706508375,1.45969542887372,1.46080318665996,1.46115247965562,1.46126225745426,1.46119239885513,1.46288896483406,0,1.46319833863022,1.4620806010441,1.46184108584707,1.46811837996912,1.46524419760481,1.46565336939973,1.46381708622253,1.46557353100072,1.46486496520952,0,1.41297000585395,1.41474641023189,1.47499446208374,1.46523421780494,1.41493602642953,1.41735113799954,1.46680104638548,1.41527533962532,1.42012552236509,0,1.41997582536695,1.4194967949729,1.42008560316559,1.42476612930746,1.4241673413149,1.42323921992642,1.42350867452308,1.42400766451688,1.42361845232172,0,1.42355857352246,1.42341885632419,1.42323921992642,1.42305958352866,1.42326915932605,1.42635291748776,1.42680200848218,1.42378810891961,1.4250854829035,0,1.42376814931986,1.4237481897201,1.42389788671825,1.42344879572382,1.42411744231552,1.42426713931366,1.42405756351626,1.42505554350387,1.42535493750015,0,1.42566431129631,1.42658245288491,1.42658245288491,1.42679202868231,1.4264626952864,1.42653255388553,1.42839877646235,1.42676208928268,1.42747065507388,0,1.42779998846979,1.42843869566186,1.42830895826347,1.42878798865752,1.42893768565566,1.42987578684401,1.42977598884525,1.4297560292455,1.42956641304785,0,1.42943667564947,1.4292969584512,1.4302151000398,1.43023505963955,1.43332879760113,1.43225097921452,1.43152245382356,1.43139271642518,1.43153243362344,0,1.43457627258564,1.4337180097963,1.43297950460547,1.43337869660051,1.43322899960237,1.43401740379258,1.43404734319221,1.43349845419903,1.43427687858936,0,1.43569401017176,1.43597344456829
1.38608442498781,0,1.38596466738929,1.38347969722015,1.38333998002189,1.38206256563775,1.38241185863341,1.38409844481247,1.38340983862102,1.38376911141656,1.38350963661978,0,1.38419824281123,1.38351961641966,1.38373917201693,1.38435791960925,1.38492676820218,1.38496668740169,1.38624410178582,1.38517626319908,1.38521618239859,0,1.3853359399971,1.38524612179822,1.38492676820218,1.38594470778954,1.38620418258632,1.3862940007852,1.38641375838372,1.38654349578211,1.38768119296798,0,1.38806042536327,1.38777101116686,1.38749157677033,1.38758139496922,1.39100446632671,1.38902846595125,1.38839973855906,1.38839973855906,1.38877897095435,0,1.38945759734592,1.39043561773377,1.39263117370651,1.39186272911605,1.4532784175534,1.45391712474547,1.45539413512713,1.45451591273804,1.4578691254964,0,1.45652185251313,1.45470552893568,1.45777930729751,1.45693102430804,1.45585320592143,1.4558631857213,1.45559373112465,1.45599292311969,1.45673142831052,0,1.45637215551498,1.45646197371387,1.45640209491461,1.45754977190036,1.45626237771635,1.45584322612155,1.4560727615187,1.45584322612155,1.45676136771015,0,1.45663163031176,1.45249001336319,1.4523203567653,1.45263971036133,1.45198104356951,1.45100302318166,1.45288920535824,1.45177146777212,1.45271954876034,0,1.45234031636505,1.45188124557075,1.45268960936071,1.4548652057337,1.4525299325627,1.45475542793506,1.45541409472688,1.4578691254964,1.45220059916679,0,1.45296904375724,1.45435623594002,1.45243013456394,1.45342811455154,1.45265966996109,1.45265966996109,1.45224051836629,1.45262973056146,1.45271954876034,0,1.45295906395737,1.45408678134336,1.45330835695303,1.45315865995489,1.45389716514572,1.45400694294436,1.45406682174361,1.45560371092453,1.45501490273184,0,1.45545401392639,1.45487518553357,1.4544061349394,1.45467558953605,1.45518455932973,1.45438617533965,1.45548395332601,1.45732023650321,1.45634221611536,0,1.45760965069962,1.45718051930495,1.46111256045612,1.45833817609057,1.45631227671573,1.45673142831052,1.45774936789788,1.45774936789788,1.46113252005587,0,1.46298876283282,1.46225025764199,1.45825833769156,1.45871740848586,1.45862759028698,1.46017445926777,1.45955571167545,1.45972536827334,1.46051377246355,0,1.45845793368908,1.4618710252467,1.46268936883654,1.46381708622253,1.4627891668353,1.46375720742328,1.46447575301436,1.46546375320209,1.40990620729199,0,1.41906766357823,1.41683218840599,1.41552483462222,1.41572443061974,1.41671243080747,1.41785012799335,1.41905768377835,1.41883812818108,1.41967643137067,0,1.41956665357203,1.42157259334712,1.42184204794377,1.42115344175233,1.42015546176472,1.42032511836261,1.42092390635518,1.42352863412283,1.42125323975109,0,1.42149275494811,1.42351865432295,1.4218320681439,1.42276018953237,1.42284002793138,1.42228115913832,1.42300968452928,1.42316936132729,1.42340887652432,0,1.42357853312221,1.42369829072072,1.42325917952618,1.42367833112097,1.42388790691837,1.42410746251564,1.42479606870709,1.42495574550511,1.42546471529879,0,1.42535493750015,1.42498568490474,1.4250854829035,1.42490584650573,1.42569425069594,1.42664233168417,1.42733093787561,1.42799958446731,1.42801954406706,0,1.43019514044005,1.42845865526161,1.42786984706892,1.43044463543695,1.42997558484277,1.42911732205343,1.429795948445,1.42977598884525,1.42903748365442,0,1.43082386783224,1.42997558484277,1.42992568584339,1.43049453443633,1.43026499903918,1.43044463543695,1.43086378703174,1.43115320122815,1.43164221142208,0,1.43177194882047,1.43174200942084,1.43273998940845,1.43277990860795,1.43326891880188,1.43332879760113,1.43349845419903,1.43397748459308,1.43381780779506,0,1.43420701999023,1.43441659578763
0,0,0,0,0,0,0,0,0,0,0,0,0,0,0,0,0,0,0,0,0,0,0,0,0,0,0,0,0,0,0,0,0,0,0,0,0,0,0,0,0,0,0,0,0,0,0,0,0,0,0,0,0,0,0,0,0,0,0,0,0,0,0,0,0,0,0,0,0,0,0,0,0,0,0,0,0,0,0,0,0,0,0,0,0,0,0,0,0,0,0,0,0,0,0,0,0,0,0,0,0,0,0,0,0,0,0,0,0,0,0,0,0,0,0,0,0,0,0,0,0,0,0,0,0,0,0,0,0,0,0,0,0,0,0,0,0,0,0,0,0,0,0,0,0,0,0,0,0,0,0,0,0,0,0,0,0,0,0,0,0,0,0,0,0,0,0,0,0,0,0,0,0,0,0,0,0,0,0,0,0,0,0,0,0,0,0,0,0,0,0,0,0,0,0,0,0,0,0,0,0,0,0,0,0,0,0,0,0,0,0,0,0,0,0,0,0,0,0,0,0,0,0,0,0,0,0,0,0,0,0,0,0,0
1.38163343424308,0,1.38064543405535,1.38075521185398,1.38292082842709,1.38246175763279,1.38252163643205,1.38556547539425,1.38371921241718,1.38293080822697,1.38327012142275,0,1.38301064662598,1.3832102426235,1.38429804080999,1.38452757620714,1.38431800040974,1.38547565719537,1.38557545519413,1.38343977802065,1.38549561679512,0,1.38567525319289,1.38526608139797,1.38560539459376,1.38620418258632,1.38895860735212,1.38540579859623,1.38677303117926,1.38638381898409,1.38658341498161,0,1.38737181917182,1.3874217181712,1.39007634493824,1.38768119296798,1.39211222411295,1.38895860735212,1.38867917295559,1.38968713274307,1.39062523393142,0,1.3904655571334,1.39084478952869,1.39152341592027,1.3902160621365,1.3906352137313,1.45243013456394,1.45251995276282,1.45285926595861,1.45240019516431,0,1.45259979116183,1.4532784175534,1.45280936695923,1.45314868015501,1.45448597333841,1.45711066070581,1.45776932749763,1.45778928709739,1.45692104450817,0,1.45608274131858,1.45696096370767,1.45716055970519,1.45608274131858,1.45859765088735,1.46075328766058,1.4574898931011,1.45437619553977,1.45608274131858,0,1.45414666014262,1.45238023556456,1.45389716514572,1.45717053950507,1.45164173037373,1.45194112437001,1.45340815495179,1.4519012051705,1.45131239697782,0,1.45128245757819,1.45242015476406,1.45274948815997,1.45282932655898,1.45097308378203,1.45113276058005,1.45797890329503,1.45196108396976,1.4511527201798,0,1.45227045776592,1.45129243737806,1.45167166977335,1.45166168997348,1.45187126577088,1.4514022151767,1.45377740754721,1.45203094256889,1.45226047796604,0,1.45272952856022,1.45311874075538,1.45315865995489,1.45212076076778,1.45311874075538,1.45340815495179,1.45385724594621,1.45505482193134,1.45371752874795,0,1.45615259991771,1.45437619553977,1.45429635714076,1.4539869833446,1.45538415532725,1.45615259991771,1.4563222565156,1.45597296351994,1.45793898409553,0,1.45556379172502,1.45474544813518,1.45467558953605,1.45455583193754,1.45552387252552,1.45587316552118,1.45591308472069,1.45726035770395,1.46056367146293,0,1.45779926689726,1.45789906489602,1.45774936789788,1.45845793368908,1.458867105484,1.45820843869218,1.46102274225723,1.46223029804224,1.45878726708499,0,1.45996488347037,1.4639168842213,1.46373724782353,1.46126225745426,1.46160157065005,1.46321829822997,1.46315841943071,1.41976624956955,1.41846887558566,0,1.41744095619843,1.41567453162036,1.41630325901255,1.41783016839359,1.41936705757451,1.41782018859372,1.41809962299025,1.41893792617984,1.42369829072072,0,1.4230396239289,1.41942693637376,1.42000576476658,1.41991594656769,1.42237097733721,1.42015546176472,1.41958661317178,1.41988600716806,1.42126321955096,0,1.42224123993882,1.42197178534216,1.42202168434154,1.42194184594254,1.42192188634278,1.42216140153981,1.42293982593014,1.42269033093324,1.42215142173993,0,1.4234587755237,1.42293982593014,1.42294980573002,1.42580402849458,1.42373820992023,1.42469627070833,1.42429707871329,1.42455655351007,1.42528507890102,0,1.42484596770647,1.42424717971391,1.42497570510486,1.42749061467363,1.42618326088987,1.42630301848838,1.42669223068355,1.42678204888243,1.42797962486756,0,1.4277101702709,1.42765029147165,1.42753053387314,1.42843869566186,1.42821914006458,1.43102346382976,1.42813930166558,1.4288378876569,1.42903748365442,0,1.42944665544934,1.42991570604352,1.42993566564327,1.43056439303546,1.43130289822629,1.43036479703794,1.43127295882666,1.43132285782604,1.43095360523063,0,1.43103344362964,1.43249049441154,1.43166217102183,1.43250047421142,1.4330094440051,1.43263021160981,1.43433675738862,1.43772988934648,1.43361821179754,0,1.43332879760113,1.43419704019035
1.38084503005287,0,1.3799568278639,1.38115440384903,1.38348967702003,1.38255157583168,1.38413836401197,1.38333998002189,1.3829607476266,1.38283101022821,1.38280107082858,0,1.38307052542523,1.38367929321767,1.38356951541904,1.38342979822077,1.38285096982796,1.38283101022821,1.38373917201693,1.38442777820838,1.3848369500033,0,1.38495670760181,1.38480701060367,1.38816022336203,1.38586486939053,1.38501658640107,1.38581497039115,1.3857550915919,1.3860045865888,1.38678301097913,0,1.38656345538186,1.38633391998471,1.38698260697665,1.38871909215509,1.3885893547567,1.38876899115447,1.38902846595125,1.3885494355572,1.38840971835893,0,1.3885494355572,1.38891868815261,1.38970709234282,1.3915533553199,1.45290916495799,1.45267962956084,1.45254989216245,1.45288920535824,1.45273950836009,0,1.45317861955464,1.45227045776592,1.45273950836009,1.45448597333841,1.45637215551498,1.45505482193134,1.45595300392019,1.45622245851684,1.45633223631548,0,1.45546399372626,1.45565360992391,1.45585320592143,1.4546955491358,1.45432629654039,1.45453587233779,1.45403688234398,1.45615259991771,1.45803878209429,0,1.45310876095551,1.45058387158686,1.45261975076158,1.45370754894807,1.45020463919157,1.44964577039851,1.45054395238736,1.45137227577707,1.45037429578947,0,1.45080342718414,1.45075352818476,1.45450593293816,1.45173154857261,1.45131239697782,1.45193114457013,1.45142217477645,1.45215070016741,1.45166168997348,0,1.45241017496418,1.45145211417608,1.45143215457633,1.45145211417608,1.45204092236877,1.45109284138054,1.45180140717174,1.4536975691482,1.45106290198091,0,1.45147207377583,1.45233033656518,1.45313870035514,1.45217065976716,1.45265966996109,1.45314868015501,1.45222055876654,1.45225049816617,1.4521107809679,0,1.45310876095551,1.45307882155588,1.45201098296914,1.45527437752862,1.45476540773494,1.45355785194993,1.45474544813518,1.4544061349394,1.4536975691482,0,1.45645199391399,1.45468556933593,1.45405684194374,1.45420653894188,1.45499494313209,1.4562424181166,1.45590310492081,1.45521449872936,1.45626237771635,0,1.45659171111226,1.45758969109987,1.45739009510234,1.45767950929875,1.45800884269466,1.4585776912876,1.45876730748524,1.46484500560977,1.46046387346417,0,1.46051377246355,1.46093292405835,1.46043393406455,1.4602443178669,1.46444581361473,1.42164245194625,1.41349893524738,1.41735113799954,1.41819942098901,0,1.4188281483812,1.42010556276534,1.41860859278393,1.41675235000698,1.42203166414142,1.41650285501008,1.42023530016373,1.41894790597971,1.41740103699892,0,1.4171615218019,1.41902774437872,1.41989598696794,1.4197462899698,1.42026523956336,1.42034507796236,1.4195367141724,1.41985606776844,1.42030515876286,0,1.42314940172754,1.42052471436013,1.42080414875666,1.42079416895679,1.4211235023527,1.4209538457548,1.42055465375976,1.42225121973869,1.42260051273436,0,1.42246079553609,1.42228115913832,1.42369829072072,1.42306956332853,1.42306956332853,1.42334899772506,1.42357853312221,1.42386794731862,1.42390786651812,0,1.42481602830684,1.42486592730622,1.42450665451069,1.42542479609928,1.42946661504909,1.42772015007078,1.42653255388553,1.42622318008937,1.42644273568664,0,1.42672217008317,1.4267521094828,1.4271712610776,1.42739081667487,1.42743073587437,1.42757045307264,1.43008536264141,1.42991570604352,1.42965623124674,0,1.42913728165318,1.42921712005219,1.43032487783844,1.42988576664389,1.43005542324178,1.42983586764451,1.43014524144067,1.43030491823868,1.43059433243509,0,1.43176196902059,1.43137275682542,1.4318418074196,1.43160229222257,1.43233081761353,1.4323008782139,1.43285974700696,1.43195158521824,1.43516508077833,0,1.43414714119097,1.43399744419283
1.38056559565634,0,1.3811244644494,1.38098474725113,1.38255157583168,1.38266135363031,1.38206256563775,1.38190288883973,1.38189290903986,1.3823320202344,1.3827910910287,0,1.383250161823,1.38326014162288,1.3823320202344,1.38284099002808,1.38328010122263,1.38348967702003,1.38432798020962,1.38486688940293,1.38423816201073,0,1.38446769740788,1.38522616219847,1.38498664700144,1.38518624299896,1.38594470778954,1.38751153637009,1.38663331398099,1.38644369778335,1.38619420278644,0,1.38630398058508,1.3869227281774,1.38705246557579,1.38639379878397,1.3862540815857,1.38722212217368,1.38825004156091,1.38881889015385,1.38897856695187,0,1.3890085063515,1.38935779934716,1.38962725394381,1.39015618333724,1.45296904375724,1.45278940735947,1.45223053856641,1.45827829729131,1.45286924575848,0,1.45209082136815,1.45411672074299,1.45308880135576,1.45742003450197,1.45539413512713,1.45454585213766,1.45481530673432,1.45476540773494,1.4541566399425,0,1.45568354932354,1.45512468053048,1.45476540773494,1.45433627634027,1.45590310492081,1.45573344832292,1.455324276528,1.45528435732849,1.45645199391399,0,1.45767950929875,1.4558631857213,1.45584322612155,1.45231037696542,1.45172156877273,1.45332831655278,1.44876754800942,1.44905696220582,1.4488174470088,0,1.45426641774113,1.45301894275662,1.45078346758438,1.450653730186,1.45117267977955,1.45212076076778,1.45087328578327,1.45096310398215,1.4518213667715,0,1.45118265957943,1.45210080116803,1.45199102336939,1.45071360898525,1.45064375038612,1.45150201317546,1.45081340698401,1.45064375038612,1.44987530579566,0,1.45494504413271,1.45113276058005,1.45120261917918,1.45157187177459,1.45156189197472,1.45224051836629,1.45151199297534,1.45366762974857,1.45263971036133,0,1.45127247777831,1.4506936493855,1.45064375038612,1.45141219497658,1.45122257877893,1.4525299325627,1.45303890235638,1.45248003356332,1.45406682174361,0,1.45197106376964,1.45241017496418,1.4574898931011,1.45595300392019,1.45452589253791,1.45420653894188,1.45538415532725,1.45527437752862,1.45542407452676,0,1.45473546833531,1.46207062124422,1.45627235751622,1.45703082230681,1.45747991330123,1.457659549699,1.45814855989293,1.45764956989912,1.45763959009925,0,1.45796892349516,1.45838807508995,1.4609528836581,1.41625336001317,1.4649148642089,1.41739105719905,1.41618350141404,1.41705174400326,1.41684216820586,0,1.41652281460983,1.41792996639235,1.41594398621702,1.41608370341528,1.41535517802433,1.42107360335332,1.42009558296546,1.42072431035765,1.41765053199582,0,1.4164928752102,1.41800980479136,1.41915748177711,1.41915748177711,1.41840899678641,1.41863853218356,1.41919740097662,1.41943691617364,1.41976624956955,0,1.42008560316559,1.42000576476658,1.42213146214018,1.42305958352866,1.42159255294687,1.42123328015133,1.42135303774985,1.42164245194625,1.42130313875047,0,1.42225121973869,1.42271029053299,1.42314940172754,1.42287994713089,1.42271029053299,1.42304960372878,1.42308952292828,1.42343881592395,1.4243769171123,0,1.42408750291589,1.42346875532357,1.42498568490474,1.42423719991403,1.42459647270957,1.42522520010176,1.42566431129631,1.42561441229693,1.43033485763831,0,1.42532499810052,1.42681198828206,1.42658245288491,1.42707146307884,1.42756047327276,1.42747065507388,1.42768023087128,1.4281692410652,1.42842871586198,0,1.42861833205963,1.42882790785703,1.42900754425479,1.42910734225355,1.42961631204723,1.42981590804476,1.43116318102803,1.4320913024165,1.43077396883286,0,1.43094362543075,1.43095360523063,1.43127295882666,1.43176196902059,1.43218112061539,1.43210128221638,1.43418706039048,1.43313918140349,1.43324895920213,0,1.43319906020274,1.43337869660051
1.38053565625671,0,1.38080511085336,1.38094482805163,1.38080511085336,1.38088494925237,1.38076519165386,1.38218232323626,1.38192284843948,1.38327012142275,1.38186296964023,0,1.3822521818354,1.38237193943391,1.38261145463093,1.38269129302994,1.38338987902127,1.38561537439363,1.38468725300516,1.3841283842121,1.38430802060987,0,1.38463735400578,1.38482697020342,1.38502656620094,1.38485690960305,1.38505650560057,1.38518624299896,1.38574511179202,1.38693270797727,1.38671315238,0,1.38634389978459,1.38666325338062,1.38649359678273,1.38695266757703,1.38753149596984,1.38775105156711,1.38750155657021,1.38719218277405,1.38735185957207,0,1.3878807889655,1.38865921335583,1.38912826395001,1.39001646613898,1.39076495112969,1.39127392092337,1.45275946795985,1.45758969109987,1.45429635714076,0,1.45292912455774,1.45297902355712,1.45382730654659,1.45382730654659,1.45546399372626,1.45400694294436,1.45418657934212,1.45491510473308,1.45400694294436,0,1.45407680154349,1.45397700354473,1.45455583193754,1.45378738734708,1.45390714494559,1.45425643794126,1.45428637734089,1.45324847815377,1.45780924669714,0,1.45566358972378,1.45719049910482,1.44908690160545,1.44892722480743,1.44819869941648,1.44890726520768,1.44803902261846,1.44855797221202,1.45417659954225,0,1.45086330598339,1.45079344738426,1.45167166977335,1.44967570979814,1.44863781061103,1.44944617440099,1.45046411398835,1.45053397258748,1.45080342718414,0,1.4502345785912,1.44841825501375,1.45030443719033,1.44970564919777,1.4502345785912,1.45067368978575,1.45031441699021,1.45018467959182,1.45076350798463,0,1.45255987196232,1.44967570979814,1.44921663900384,1.45571348872316,1.45062379078637,1.44942621480124,1.4498154269964,1.45124253837868,1.45453587233779,0,1.4511926393793,1.45285926595861,1.45296904375724,1.45881720648462,1.45041421498897,1.45074354838488,1.45077348778451,1.45145211417608,1.45125251817856,0,1.45126249797844,1.45588314532106,1.45451591273804,1.45577336752242,1.45455583193754,1.45408678134336,1.45330835695303,1.45431631674051,1.45418657934212,0,1.4548652057337,1.45478536733469,1.46128221705401,1.45608274131858,1.45663163031176,1.45627235751622,1.4555737715249,1.4614119544524,1.45750985270086,0,1.45657175151251,1.4562424181166,1.45609272111845,1.46052375226343,1.45924633787929,1.41828923918789,1.41912754237748,1.4194967949729,1.4159938852164,0,1.41339913724862,1.41418754143883,1.41430729903734,1.41595396601689,1.41809962299025,1.41659267320896,1.41689206720524,1.41804972399087,1.41773037039483,0,1.41789004719285,1.41737109759929,1.41755073399706,1.41825929978826,1.41805970379074,1.41804972399087,1.41865849178331,1.41864851198343,1.41909760297785,0,1.41964649197104,1.42048479516063,1.41950677477277,1.41977622936943,1.41996584556707,1.42067441135827,1.42140293674923,1.42103368415381,1.42135303774985,0,1.42093388615505,1.42193186614266,1.4216224923465,1.4229997047294,1.42305958352866,1.42272027033287,1.42302964412903,1.42302964412903,1.42291986633039,0,1.42330907852556,1.42408750291589,1.42566431129631,1.42705150347908,1.42520524050201,1.4297560292455,1.42455655351007,1.42504556370399,1.42614334169036,0,1.42655251348528,1.4264626952864,1.42647267508627,1.42703154387933,1.42959635244748,1.42723113987685,1.42754051367301,1.42928697865132,1.42811934206582,0,1.42845865526161,1.42823909966434,1.42760039247227,1.42796964506768,1.42952649384835,1.42984584744438,1.43004544344191,1.4300055242424,1.43065421123435,0,1.43079392843261,1.43090370623125,1.43048455463645,1.432051383217,1.43108334262902,1.43202144381737,1.43219110041526,1.43173202962096,1.43197154481799,0,1.43224099941464,1.43243061561229
0,0,0,0,0,0,0,0,0,0,0,0,0,0,0,0,0,0,0,0,0,0,0,0,0,0,0,0,0,0,0,0,0,0,0,0,0,0,0,0,0,0,0,0,0,0,0,0,0,0,0,0,0,0,0,0,0,0,0,0,0,0,0,0,0,0,0,0,0,0,0,0,0,0,0,0,0,0,0,0,0,0,0,0,0,0,0,0,0,0,0,0,0,0,0,0,0,0,0,0,0,0,0,0,0,0,0,0,0,0,0,0,0,0,0,0,0,0,0,0,0,0,0,0,0,0,0,0,0,0,0,0,0,0,0,0,0,0,0,0,0,0,0,0,0,0,0,0,0,0,0,0,0,0,0,0,0,0,0,0,0,0,0,0,0,0,0,0,0,0,0,0,0,0,0,0,0,0,0,0,0,0,0,0,0,0,0,0,0,0,0,0,0,0,0,0,0,0,0,0,0,0,0,0,0,0,0,0,0,0,0,0,0,0,0,0,0,0,0,0,0,0,0,0,0,0,0,0,0,0,0,0,0,0
1.38022628246055,0,1.38218232323626,1.38099472705101,1.38077517145374,1.38115440384903,1.38192284843948,1.3815835352437,1.38063545425547,1.38194280803924,1.38297072742647,0,1.38331004062226,1.38323020222325,1.38269129302994,1.3827511718292,1.38350963661978,1.38302062642585,1.38297072742647,1.38255157583168,1.38263141423069,0,1.38335993962164,1.38410842461234,1.38470721260491,1.38480701060367,1.38509642480008,1.38514632379946,1.38517626319908,1.38502656620094,1.38488684900268,0,1.38513634399958,1.38611436438744,1.3872121423738,1.38774107176724,1.3883797789593,1.38657343518173,1.3857950107914,1.38673311197975,1.38780095056649,0,1.38871909215509,1.38928794074803,1.38855941535707,1.38871909215509,1.38901848615137,1.38972705194257,1.39036575913464,1.39103440572634,1.45437619553977,0,1.45422649854163,1.45412670054287,1.45384726614634,1.45280936695923,1.45237025576468,1.45401692274423,1.45316863975477,1.45425643794126,1.45400694294436,0,1.45437619553977,1.45393708434522,1.45399696314448,1.45400694294436,1.45374746814758,1.45278940735947,1.45382730654659,1.45399696314448,1.45459575113704,0,1.45520451892948,1.45526439772874,1.4551147007306,1.45581328672192,1.45659171111226,1.45549393312589,1.44830847721512,1.44821865901623,1.4483583762145,0,1.44818871961661,1.4479392246197,1.4520708617684,1.450653730186,1.45405684194374,1.44969566939789,1.44924657840347,1.44898710360669,1.4498154269964,0,1.4495659319995,1.44965575019839,1.4502744977907,1.45045413418847,1.4492765178031,1.45074354838488,1.44992520479504,1.44913680060483,1.44894718440719,0,1.45402690254411,1.45043417458872,1.45092318478265,1.4506936493855,1.44940625520149,1.4498154269964,1.4490669420057,1.44838831561413,1.44854799241214,0,1.44843821461351,1.4492765178031,1.45042419478885,1.45020463919157,1.44937631580186,1.44982540679628,1.45040423518909,1.45142217477645,1.45269958916059,0,1.45435623594002,1.45275946795985,1.45158185157447,1.45134233637744,1.45121259897906,1.45267962956084,1.45270956896047,1.4536975691482,1.45407680154349,0,1.45396702374485,1.45533425632787,1.45484524613395,1.45485522593382,1.45459575113704,1.45455583193754,1.45408678134336,1.45449595313828,1.45538415532725,0,1.45459575113704,1.45560371092453,1.45740007490222,1.45875732768537,1.45939603487743,1.42239093693696,1.42480604850697,1.41784014819347,1.41647291561045,0,1.41990596676782,1.4202053607641,1.42006564356583,1.41669247120772,1.4197462899698,1.41772039059496,1.41680224900636,1.4172014410014,1.4174509359983,0,1.41751081479756,1.41786010779322,1.41709166320276,1.41793994619223,1.41804972399087,1.41816948158938,1.41830919878765,1.41874830998219,1.41902774437872,0,1.41883812818108,1.41966645157079,1.4206644315584,1.42044487596112,1.42040495676162,1.41973631016992,1.42033509816249,1.42085404775604,1.42218136113956,0,1.42265041173374,1.42132309835022,1.42085404775604,1.42273025013274,1.42306956332853,1.42277016933225,1.42248075513584,1.42179214894439,1.42338891692457,0,1.42310948252804,1.42339889672444,1.42357853312221,1.42375816951998,1.4248359879066,1.4260435436916,1.42547469509866,1.42559445269718,1.42520524050201,0,1.4258339678942,1.42634293768788,1.42656249328516,1.42706148327896,1.42741077627462,1.42738083687499,1.42761037227214,1.42713134187809,1.42709142267859,0,1.43037477683782,1.42990572624364,1.42852851386074,1.4288378876569,1.42917720085269,1.43007538284153,1.43031489803856,1.42901752405467,1.42972608984587,0,1.43015522124054,1.4302550192393,1.43104342342951,1.43107336282914,1.43118314062778,1.43293958540597,1.43286972680683,1.43116318102803,1.43177194882047,0,1.43261025201006,1.43318908040287
1.37930814087195,0,1.38102466645064,1.38117436344878,1.37929816107208,1.37950773686948,1.38010652486204,1.38143383824556,1.38191286863961,1.38166337364271,1.38172325244196,0,1.38185298984035,1.38185298984035,1.38223222223564,1.38242183843329,1.38267133343019,1.38215238383663,1.38234200003428,1.38294078802684,1.38362939421829,0,1.38388886901507,1.38450761660739,1.3844177984085,1.38456749540664,1.38489682880255,1.38474713180441,1.38544571779574,1.38500660660119,1.38520620259871,0,1.385505596595,1.38569521279264,1.38585488959066,1.38643371798347,1.3869626473769,1.38627404118545,1.38556547539425,1.38682293017864,1.38755145556959,0,1.38748159697046,1.38786082936575,1.3885494355572,1.38938773874679,1.38891868815261,1.38873905175484,1.38966717314332,1.45447599353853,1.45366762974857,0,1.45350795295055,1.45399696314448,1.45392710454535,1.45385724594621,1.45152197277521,1.45343809435142,1.45375744794745,1.45273950836009,1.45391712474547,0,1.45266964976096,1.455324276528,1.45367760954845,1.45363769034894,1.45446601373865,1.45667154951127,1.45299898315687,1.45430633694064,1.45483526633407,0,1.45312872055526,1.45371752874795,1.45385724594621,1.45429635714076,1.45412670054287,1.44851805301252,1.45447599353853,1.44849809341276,1.44930645720273,0,1.4528193467591,1.45092318478265,1.45001502299393,1.44918669960421,1.45009486139294,1.44990524519529,1.45213074056765,1.44976552799702,1.45013478059244,0,1.45078346758438,1.45095312418228,1.45068366958562,1.45113276058005,1.45064375038612,1.45042419478885,1.45047409378823,1.45049405338798,1.45113276058005,0,1.44978548759678,1.44819869941648,1.45004496239355,1.45162177077397,1.45434625614014,1.44987530579566,1.44903700260607,1.44922661880372,1.44894718440719,0,1.44897712380681,1.44942621480124,1.44946613400074,1.44884738640843,1.44866775001066,1.44938629560173,1.44989526539541,1.44974556839727,1.45089324538302,0,1.45125251817856,1.45162177077397,1.45079344738426,1.45077348778451,1.45254989216245,1.45147207377583,1.45310876095551,1.45335825595241,1.45340815495179,0,1.45311874075538,1.45291914475786,1.45402690254411,1.45209082136815,1.45553385232539,1.45422649854163,1.454196559142,1.45621247871697,1.45736015570272,0,1.45651187271325,1.45646197371387,1.45640209491461,1.41943691617364,1.42096382555468,1.41759065319657,1.41613360241466,1.4155747336216,1.41612362261479,0,1.41710164300264,1.4176605117957,1.41794992599211,1.41743097639855,1.41641303681119,1.41597392561664,1.41644297621082,1.41789004719285,1.41831917858752,0,1.41868843118294,1.41797986539173,1.41767049159558,1.41780022899397,1.41957663337191,1.41858863318417,1.41838903718665,1.41918742117674,1.41976624956955,0,1.41956665357203,1.41919740097662,1.42015546176472,1.42172229034526,1.42035505776224,1.42021534056397,1.42304960372878,1.42108358315319,1.42074426995741,0,1.42129315895059,1.42150273474799,1.42155263374737,1.42140293674923,1.4225805531346,1.42403760391651,1.42334899772506,1.42310948252804,1.42352863412283,0,1.42291986633039,1.423917846318,1.42406754331614,1.42405756351626,1.42372823012035,1.42503558390412,1.42435695751254,1.42476612930746,1.42477610910734,0,1.42489586670585,1.42469627070833,1.42730099847599,1.42780996826967,1.42741077627462,1.42857841286012,1.42765029147165,1.43026499903918,1.42780996826967,0,1.42755049347289,1.42748063487375,1.42762035207202,1.42814928146545,1.42859837245988,1.43054443343571,1.42865825125913,1.4290474634543,1.42932689785083,0,1.42983586764451,1.42984584744438,1.43200148421762,1.43047457483658,1.4307140900336,1.4311731608279,1.43241065601253,1.43315914100324,1.43354835319841,0,1.43154241342332,1.43260027221018
1.37973727226663,0,1.37817044368608,1.37957759546861,1.37955763586886,1.38124422204791,1.38086498965262,1.38186296964023,1.38122426244816,1.38089492905225,1.38153363624432,0,1.38144381804543,1.38148373724494,1.38160349484345,1.38155359584407,1.38180309084097,1.38244179803304,1.38324018202313,1.38170329284221,1.38216236363651,0,1.38230208083478,1.38295076782672,1.38592474818979,1.38571517239239,1.38396870741408,1.3838788892152,1.3834198184209,1.38647363718297,1.38516628339921,0,1.38490680860243,1.38497666720156,1.38514632379946,1.38574511179202,1.38640377858384,1.3885893547567,1.38713230397479,1.38714228377467,1.38711234437504,0,1.38751153637009,1.387840869766,1.38768119296798,1.39283076970403,1.39142361792151,1.38947755694567,1.45431631674051,1.45378738734708,1.45350795295055,0,1.45370754894807,1.45359777114944,1.45291914475786,1.45410674094312,1.45389716514572,1.45766952949887,1.4518213667715,1.4532384983539,1.4534480741513,0,1.45464565013642,1.45685118590904,1.45200100316926,1.45222055876654,1.45197106376964,1.45225049816617,1.45188124557075,1.45168164957323,1.45216067996728,0,1.45325845795365,1.45459575113704,1.45280936695923,1.45075352818476,1.4514022151767,1.45429635714076,1.4550747815311,1.45479534713457,1.45418657934212,0,1.45451591273804,1.45491510473308,1.45189122537063,1.45322851855402,1.45340815495179,1.45104294238116,1.45061381098649,1.44985534619591,1.45040423518909,0,1.45042419478885,1.4504441543886,1.45029445739046,1.45024455839108,1.45058387158686,1.44942621480124,1.44883740660855,1.45003498259368,1.45171158897286,0,1.45098306358191,1.44915676020458,1.44945615420087,1.44976552799702,1.44898710360669,1.44822863881611,1.45011482099269,1.45083336658376,1.45059385138674,0,1.44878750760917,1.44949607340037,1.44838831561413,1.44849809341276,1.44858791161165,1.44913680060483,1.44993518459492,1.45043417458872,1.45112278078017,0,1.4513622959772,1.45179142737187,1.45151199297534,1.45037429578947,1.45105292218104,1.45124253837868,1.45138225557695,1.45153195257509,1.45296904375724,0,1.45288920535824,1.45380734694683,1.45439615513952,1.45535421592763,1.45376742774733,1.45383728634646,1.45423647834151,1.45510472093072,1.45622245851684,0,1.45860763068722,1.45742003450197,1.45430633694064,1.42732095807574,1.41705174400326,1.41683218840599,1.41577432961912,1.41453683443449,1.42059457295927,0,1.41656273380933,1.41623340041342,1.41613360241466,1.41656273380933,1.41970637077029,1.4165327944097,1.41583420841838,1.4159938852164,1.41610366301503,0,1.41688208740537,1.41841897658628,1.41783016839359,1.41687210760549,1.41669247120772,1.41768047139545,1.41775032999458,1.41904770397847,1.41772039059496,0,1.41885808778083,1.41853873418479,1.41883812818108,1.41933711817488,1.41927723937562,1.41885808778083,1.42120334075171,1.42086402755592,1.42101372455406,0,1.42113348215257,1.42346875532357,1.42222128033907,1.42165243174613,1.42164245194625,1.42145283574861,1.42132309835022,1.42246079553609,1.42263045213398,0,1.42305958352866,1.42306956332853,1.42316936132729,1.42332903812531,1.42461643230932,1.42433699791279,1.42458649290969,1.4244168363118,1.42453659391031,0,1.42511542230313,1.42472621010796,1.425125402103,1.42596370529259,1.42541481629941,1.42621320028949,1.42649263468602,1.42658245288491,1.42639283668726,0,1.42666229128392,1.42727105907636,1.42788980666867,1.42805946326657,1.42723113987685,1.42845865526161,1.42878798865752,1.42878798865752,1.42909736245368,0,1.42916722105281,1.42981590804476,1.42993566564327,1.43014524144067,1.42986580704414,1.43044463543695,1.43137275682542,1.43186176701935,1.43191166601873,0,1.43174200942084,1.43241065601253
1.37865945388001,0,1.37987698946489,1.37993686826415,1.37997678746365,1.38196276763899,1.38063545425547,1.38037597945869,1.3799568278639,1.38000672686328,1.3827511718292,0,1.38236195963403,1.38286094962784,1.38145379784531,1.38141387864581,1.38163343424308,1.38177315144134,1.38150369684469,1.38163343424308,1.38312042442461,0,1.38221226263589,1.38276115162908,1.38326014162288,1.38369925281743,1.38308050522511,1.3839587276142,1.38459743480627,1.38377909121643,1.38409844481247,0,1.38480701060367,1.38531598039735,1.38587484919041,1.38571517239239,1.38589480879016,1.38595468758942,1.385505596595,1.38578503099153,1.38761133436885,0,1.38789076876538,1.38823008196116,1.38821012236141,1.38816022336203,1.45455583193754,1.3918427695163,1.39044559753365,1.39018612273687,1.39105436532609,0,1.39100446632671,1.4544061349394,1.45304888215625,1.45183134657137,1.45618253931734,1.45463567033655,1.45242015476406,1.45443607433903,1.45408678134336,0,1.45422649854163,1.45257983156208,1.45250997296294,1.45274948815997,1.45286924575848,1.4519012051705,1.45185130617112,1.45196108396976,1.45174152837249,0,1.45188124557075,1.45435623594002,1.45397700354473,1.45205090216865,1.45234031636505,1.45290916495799,1.45325845795365,1.45275946795985,1.45427639754101,0,1.45477538753481,1.4492765178031,1.4548652057337,1.45506480173122,1.44824859841586,1.44891724500756,1.44997510379442,1.45046411398835,1.44969566939789,0,1.44987530579566,1.44848811361289,1.45015474019219,1.45031441699021,1.45099304338178,1.45045413418847,1.44863781061103,1.45009486139294,1.44943619460111,0,1.45156189197472,1.44979546739665,1.44913680060483,1.44798912361908,1.44752007302491,1.44817873981673,1.44806896201809,1.44792924481983,1.4502744977907,0,1.44924657840347,1.44845817421326,1.44778952762156,1.44806896201809,1.44888730560793,1.44865777021078,1.44980544719653,1.44939627540161,1.44942621480124,0,1.44959587139913,1.4504441543886,1.44960585119901,1.45055393218723,1.4514421343762,1.4504840735881,1.45064375038612,1.45108286158067,1.45184132637125,0,1.45109284138054,1.45205090216865,1.45321853875415,1.44920665920396,1.45249001336319,1.45205090216865,1.45551389272564,1.45454585213766,1.45383728634646,0,1.44409700166742,1.41871837058256,1.41844891598591,1.41838903718665,1.41631323881243,1.41574439021949,1.41485618803052,1.41367857164515,1.41698188540413,0,1.4164529560107,1.41626333981305,1.41587412761788,1.41587412761788,1.41579428921887,1.41604378421578,1.4159938852164,1.41611364281491,1.41659267320896,0,1.41625336001317,1.41663259240846,1.41723138040103,1.41698188540413,1.41750083499768,1.41734115819967,1.41868843118294,1.4192872191755,1.41859861298405,0,1.41817946138926,1.41816948158938,1.41852875438492,1.41933711817488,1.41968641117054,1.42018540116435,1.41970637077029,1.41987602736819,1.42071433055778,0,1.42031513856274,1.41988600716806,1.4207043507579,1.42063449215877,1.42083408815629,1.42201170454167,1.42265041173374,1.42314940172754,1.42661239228454,0,1.42301966432915,1.42304960372878,1.42283004813151,1.42357853312221,1.4234986947232,1.42638285688739,1.42419728071453,1.42476612930746,1.42475614950759,0,1.42449667471081,1.42614334169036,1.4252950587009,1.42542479609928,1.42581400829445,1.42606350329135,1.42639283668726,1.4267121902833,1.42647267508627,0,1.42665231148404,1.4265026144859,1.42677206908255,1.43003546364203,1.42779000866991,1.42830895826347,1.42907740285393,1.42974604944562,1.43023505963955,0,1.43020512023992,1.43022507983967,1.42915724125294,1.42977598884525,1.4302550192393,1.43174200942084,1.4309635850305,1.43073404963335,1.43127295882666,0,1.43198152461786,1.4325503732108
0,0,0,0,0,0,0,0,0,0,0,0,0,0,0,0,0,0,0,0,0,0,0,0,0,0,0,0,0,0,0,0,0,0,0,0,0,0,0,0,0,0,0,0,0,0,0,0,0,0,0,0,0,0,0,0,0,0,0,0,0,0,0,0,0,0,0,0,0,0,0,0,0,0,0,0,0,0,0,0,0,0,0,0,0,0,0,0,0,0,0,0,0,0,0,0,0,0,0,0,0,0,0,0,0,0,0,0,0,0,0,0,0,0,0,0,0,0,0,0,0,0,0,0,0,0,0,0,0,0,0,0,0,0,0,0,0,0,0,0,0,0,0,0,0,0,0,0,0,0,0,0,0,0,0,0,0,0,0,0,0,0,0,0,0,0,0,0,0,0,0,0,0,0,0,0,0,0,0,0,0,0,0,0,0,0,0,0,0,0,0,0,0,0,0,0,0,0,0,0,0,0,0,0,0,0,0,0,0,0,0,0,0,0,0,0,0,0,0,0,0,0,0,0,0,0,0,0,0,0,0,0,0,0
1.37807064568732,0,1.37814050428645,1.37849977708199,1.37852971648162,1.37890894887691,1.37894886807642,1.38018636326105,1.37968737326724,1.37960753486824,1.38005662586266,0,1.37922830247295,1.37976721166625,1.38011650466192,1.38156357564395,1.3816234544432,1.38146377764519,1.38174321204172,1.38185298984035,1.3825415960318,0,1.38259149503118,1.38267133343019,1.38358947501879,1.38353957601941,1.38318030322387,1.38334995982176,1.3837092326173,1.38376911141656,1.38407848521272,0,1.3841283842121,1.38517626319908,1.38505650560057,1.38562535419351,1.38768119296798,1.38570519259252,1.38573513199214,1.38624410178582,1.38627404118545,0,1.38651355638248,1.38707242517554,1.38770115256773,1.38827000116067,1.38826002136079,1.38818018296178,1.38842967795868,1.38939771854666,1.3906352137313,0,1.39043561773377,1.39094458752745,1.39165315331866,1.39275093130502,1.39217210291221,1.3923417595101,1.45234031636505,1.45457579153729,1.45078346758438,0,1.4546157107368,1.45374746814758,1.4527794275596,1.45269958916059,1.45184132637125,1.45105292218104,1.45047409378823,1.45214072036753,1.45246007396356,0,1.45248003356332,1.45188124557075,1.45173154857261,1.4520708617684,1.4521107809679,1.45079344738426,1.45113276058005,1.45259979116183,1.45043417458872,0,1.45240019516431,1.45508476133097,1.45296904375724,1.45683122630928,1.45435623594002,1.45072358878513,1.44982540679628,1.44989526539541,1.44969566939789,0,1.44960585119901,1.44886734600818,1.4486477904109,1.44969566939789,1.44963579059864,1.4502744977907,1.45032439679008,1.44880746720892,1.44784940642082,0,1.44802904281859,1.44825857821574,1.44782944682107,1.44936633600198,1.45102298278141,1.44712088102987,1.44699114363148,1.44714084062962,1.4478993054202,0,1.44765979022317,1.44803902261846,1.4483583762145,1.44894718440719,1.44907692180558,1.44866775001066,1.44895716420706,1.44908690160545,1.44940625520149,0,1.44917671980434,1.44924657840347,1.44970564919777,1.44980544719653,1.44991522499517,1.45052399278761,1.45000504319405,1.4514421343762,1.45075352818476,0,1.45062379078637,1.45062379078637,1.45122257877893,1.45380734694683,1.44787934582045,1.45248003356332,1.4532784175534,1.45503486233159,1.45192116477026,0,1.45195110416988,1.4519012051705,1.42083408815629,1.4456039514487,1.41542503662346,1.42036503756212,1.41973631016992,1.41515558202681,1.4146166728335,0,1.41552483462222,1.41502584462842,1.41535517802433,1.41679226920648,1.41663259240846,1.41587412761788,1.41604378421578,1.41619348121392,1.41648289541032,0,1.41681222880623,1.41595396601689,1.41617352161417,1.41629327921268,1.41623340041342,1.41677230960673,1.41654277420958,1.41743097639855,1.41751081479756,0,1.41715154200202,1.41816948158938,1.41854871398467,1.4183690775869,1.41914750197723,1.42118338115195,1.4216224923465,1.41976624956955,1.41991594656769,0,1.42341885632419,1.42001574456645,1.41984608796856,1.42034507796236,1.42042491636137,1.42117340135208,1.42090394675542,1.42293982593014,1.42281008853175,0,1.42331905832543,1.42399768471701,1.42347873512345,1.42697166508008,1.42285000773126,1.42398770491713,1.42403760391651,1.42376814931986,1.42381804831924,0,1.42472621010796,1.42411744231552,1.42445675551131,1.42474616970771,1.4248759071061,1.42545473549891,1.42516532130251,1.42575412949519,1.42567429109619,0,1.42628305888863,1.4262930386885,1.42653255388553,1.42709142267859,1.42939675644996,1.42813930166558,1.42788980666867,1.42810936226595,1.42830895826347,0,1.42847861486136,1.42832891786322,1.42894766545554,1.42962629184711,1.42989574644376,1.42993566564327,1.43026499903918,1.43023505963955,1.43120310022753,0,1.43216116101563,1.43130289822629
1.37813052448658,0,1.37802074668794,1.37989694906464,1.37936801967121,1.378579615481,1.37861953468051,1.37888898927716,1.37937799947109,1.37946781766997,1.38060551485584,0,1.38305056582548,1.37996680766377,1.38059553505597,1.38037597945869,1.37957759546861,1.38031610065944,1.38068535325485,1.38085500985275,1.38223222223564,0,1.38188292923998,1.38207254543763,1.38271125262969,1.3832102426235,1.38262143443081,1.38369925281743,1.38398866701383,1.38384894981557,1.38440781860863,0,1.38500660660119,1.38670317258012,1.38641375838372,1.38527606119785,1.38578503099153,1.38609440478768,1.385585434994,1.385505596595,1.38585488959066,0,1.38622414218607,1.38676305137938,1.38658341498161,1.38713230397479,1.38732192017244,1.3885893547567,1.38920810234902,1.38924802154852,1.38918814274927,0,1.39027594093576,1.39068511273068,1.38866919315571,1.38931788014765,1.38943763774617,1.39119408252436,1.39195254731494,1.39225194131122,1.39273097170527,0,1.39298046670217,1.39354931529511,1.39408822448842,1.45789906489602,1.45216067996728,1.45151199297534,1.45249001336319,1.45087328578327,1.45121259897906,0,1.45202096276902,1.45338819535204,1.45097308378203,1.45253991236257,1.45125251817856,1.45226047796604,1.45215070016741,1.45309878115563,1.45380734694683,0,1.45174152837249,1.45377740754721,1.45134233637744,1.45350795295055,1.45125251817856,1.45050403318785,1.44972560879752,1.44982540679628,1.45071360898525,0,1.45064375038612,1.44940625520149,1.44960585119901,1.44884738640843,1.44943619460111,1.45068366958562,1.44955595219963,1.45113276058005,1.45139223537682,0,1.44980544719653,1.45068366958562,1.44850807321264,1.44971562899764,1.44803902261846,1.44738035582664,1.44747017402553,1.44780948722131,1.44765979022317,0,1.44730051742763,1.44767974982293,1.44769970942268,1.44807894181797,1.44922661880372,1.44829849741524,1.44836835601437,1.44826855801561,1.44849809341276,0,1.44791926501995,1.44901704300632,1.44821865901623,1.45025453819095,1.44918669960421,1.4502744977907,1.44969566939789,1.44852803281239,1.44961583099888,0,1.4520708617684,1.45259979116183,1.45280936695923,1.45202096276902,1.45273950836009,1.45163175057385,1.44851805301252,1.44773962862218,1.45083336658376,0,1.43771990954661,1.44755001242454,1.44720071942887,1.41730123900016,1.41678228940661,1.41575437001937,1.41469651123251,1.41514560222693,1.41505578402805,0,1.41498592542891,1.41533521842458,1.41530527902495,1.41503582442829,1.41524540022569,1.41581424881863,1.41577432961912,1.41593400641714,1.41591404681739,0,1.41597392561664,1.41654277420958,1.41609368321516,1.41652281460983,1.4162433802133,1.41630325901255,1.42042491636137,1.41868843118294,1.41831917858752,0,1.41973631016992,1.41833913818727,1.41817946138926,1.41885808778083,1.42038499716187,1.41866847158318,1.41917744137686,1.41941695657389,1.41948681517302,0,1.42018540116435,1.4202452799636,1.42168237114576,1.42038499716187,1.42038499716187,1.42110354275295,1.42139295694935,1.42118338115195,1.42153267414762,0,1.42217138133968,1.42344879572382,1.42297974512965,1.42273025013274,1.42323921992642,1.42316936132729,1.42302964412903,1.4234986947232,1.42380806851936,0,1.42378810891961,1.42405756351626,1.42461643230932,1.42440685651193,1.42461643230932,1.42516532130251,1.42605352349148,1.42611340229073,1.42540483649953,0,1.42496572530498,1.42623315988925,1.42663235188429,1.42683194788181,1.42764031167177,1.4283388976631,1.42769021067115,1.42727105907636,1.42777004907016,0,1.42902750385455,1.42949655444872,1.43026499903918,1.43131287802617,1.43058435263521,1.43106338302927,1.43123303962716,1.43098354463026,1.43057437283534,0,1.43052447383596,1.4316322316222
1.37712256469909,0,1.37712256469909,1.37704272630009,1.37784111029017,1.37804070628769,1.37863949428026,1.379707332867,1.3788291104779,1.3799967470634,1.38029614105969,0,1.37886902967741,1.37985702986514,1.38131408064704,1.37993686826415,1.38105460585027,1.38054563605659,1.38123424224804,1.3813340402468,1.38143383824556,0,1.38170329284221,1.38170329284221,1.38217234343639,1.38317032342399,1.3827910910287,1.38281105062846,1.38269129302994,1.38326014162288,1.38375913161668,0,1.38362939421829,1.38404854581309,1.3836693134178,1.38549561679512,1.38582495019103,1.38526608139797,1.38540579859623,1.38573513199214,1.38584490979078,0,1.38708240497541,1.38703250597603,1.38699258677653,1.38701254637628,1.38658341498161,1.38778099096674,1.38791072836513,1.38868915275546,1.38951747614518,0,1.38970709234282,1.38932785994753,1.38994660753985,1.39019610253675,1.38940769834654,1.3895074963453,1.39025598133601,1.39183278971642,1.39313016370031,0,1.39193258771519,1.39541553787193,1.39660313405719,1.44728055782788,1.44887732580805,1.45447599353853,1.45466560973618,1.45060383118661,1.45215070016741,0,1.45178144757199,1.4523203567653,1.45300896295675,1.45202096276902,1.45155191217484,1.45157187177459,1.45271954876034,1.44967570979814,1.44974556839727,0,1.4491068612052,1.44987530579566,1.44818871961661,1.44909688140533,1.4492765178031,1.44890726520768,1.44961583099888,1.44894718440719,1.4495659319995,0,1.45052399278761,1.45121259897906,1.44869768941028,1.4506936493855,1.45191118497038,1.44873760860979,1.45137227577707,1.44844819441338,1.44833841661475,0,1.44823861861599,1.44924657840347,1.44872762880991,1.4485679520119,1.44755001242454,1.44746019422565,1.45064375038612,1.44733045682726,1.44776956802181,0,1.44734043662714,1.44755999222441,1.44804900241834,1.4476498104233,1.44772964882231,1.44834839641462,1.44745021442578,1.44807894181797,1.44929647740285,0,1.44855797221202,1.44844819441338,1.44818871961661,1.44967570979814,1.44875756820954,1.44873760860979,1.44953599259987,1.44819869941648,1.45055393218723,0,1.45155191217484,1.44689134563272,1.44794920441958,1.44840827521388,1.45163175057385,1.4523602759648,1.44580354744622,1.44855797221202,1.45454585213766,0,1.41759065319657,1.4167423702071,1.41615356201441,1.41771041079508,1.41552483462222,1.41569449122011,1.41584418821825,1.4160737236154,1.41610366301503,0,1.41575437001937,1.41481626883102,1.4169519460045,1.41530527902495,1.41546495582296,1.41592402661726,1.41531525882482,1.41545497602309,1.41453683443449,0,1.41514560222693,1.41610366301503,1.41930717877525,1.41723138040103,1.41683218840599,1.41675235000698,1.41652281460983,1.41654277420958,1.41668249140785,0,1.41743097639855,1.41798984519161,1.41811958259,1.41833913818727,1.41984608796856,1.41887804738058,1.42052471436013,1.41985606776844,1.41948681517302,0,1.41948681517302,1.42407752311601,1.42028519916311,1.42014548196484,1.41964649197104,1.42042491636137,1.4202452799636,1.42132309835022,1.42092390635518,0,1.42293982593014,1.42238095713708,1.42323921992642,1.42292984613027,1.42623315988925,1.42270031073312,1.42305958352866,1.42266039153361,1.42669223068355,0,1.42352863412283,1.4237481897201,1.42425715951378,1.42484596770647,1.42488588690598,1.42504556370399,1.42546471529879,1.42727105907636,1.42726107927648,0,1.4265425336854,1.42632297808813,1.42644273568664,1.42670221048342,1.42704152367921,1.42737085707512,1.42701158427958,1.42680200848218,1.42769021067115,0,1.42930693825108,1.42897760485517,1.43026499903918,1.42946661504909,1.42893768565566,1.42959635244748,1.42986580704414,1.43112326182852,1.43032487783844,0,1.43287970660671,1.43215118121576
1.37718244349835,0,1.37686308990232,1.37827024168484,1.37739201929575,1.37685311010244,1.37759161529327,1.37836005988373,1.37889896907704,1.37894886807642,1.37874927207889,0,1.37925824187257,1.37900874687567,1.37894886807642,1.3792881812722,1.37917840347357,1.37912850447419,1.37976721166625,1.38011650466192,1.38074523205411,0,1.38118434324866,1.38157355544382,1.38200268683849,1.38202264643825,1.3820825252375,1.38209250503738,1.38202264643825,1.38226216163527,1.38293080822697,0,1.38863925375608,1.38429804080999,1.38386890941532,1.38424814181061,1.38427808121024,1.38494672780194,1.38534591979698,1.38556547539425,1.38520620259871,0,1.3857950107914,1.38749157677033,1.38693270797727,1.38771113236761,1.38628402098533,1.38677303117926,1.38698260697665,1.38761133436885,1.38806042536327,0,1.38731194037256,1.38739177877157,1.38880891035398,1.38847957695806,1.38851949615757,1.38953743574493,1.3900064863391,1.3908847087282,1.39182280991655,0,1.39136373912225,1.39183278971642,1.45488516533345,1.39212220391283,1.39236171910986,1.39294054750267,1.45401692274423,1.45393708434522,1.45467558953605,0,1.45258981136195,1.45177146777212,1.45227045776592,1.45051401298773,1.45071360898525,1.4498154269964,1.45438617533965,1.44982540679628,1.45020463919157,0,1.45093316458253,1.45422649854163,1.44843821461351,1.44923659860359,1.44867772981053,1.45029445739046,1.44999506339417,1.4486477904109,1.44880746720892,0,1.44857793181177,1.44912682080496,1.45139223537682,1.4495659319995,1.45029445739046,1.45068366958562,1.45059385138674,1.44875756820954,1.4493164370026,0,1.4488174470088,1.44945615420087,1.44887732580805,1.44787934582045,1.4481488004171,1.44786936602057,1.44728055782788,1.44771966902243,1.44850807321264,0,1.44717078002925,1.44703106283098,1.44743025482602,1.44757995182416,1.44753005282478,1.44796916401933,1.44817873981673,1.44805898221822,1.44747017402553,0,1.44841825501375,1.44797914381921,1.44782944682107,1.44846815401314,1.44911684100508,1.4483583762145,1.44779950742144,1.44772964882231,1.44742027502615,0,1.44766977002305,1.44775958822193,1.44711090122999,1.4474402346259,1.44759991142392,1.45167166977335,1.45147207377583,1.44733045682726,1.4474801538254,0,1.44791926501995,1.44323873887807,1.44444629466308,1.41692200660487,1.41642301661107,1.4158242286185,1.41588410741776,1.41515558202681,1.4153651578242,0,1.41552483462222,1.41552483462222,1.41537513762408,1.41520548102619,1.4148661678304,1.41471647083226,1.41459671323375,1.41447695563523,1.41462665263337,0,1.41479630923127,1.41476636983164,1.41967643137067,1.41502584462842,1.41614358221454,1.41666253180809,1.41721142080128,1.41722140060115,1.41909760297785,0,1.41643299641094,1.41630325901255,1.41681222880623,1.41690204700512,1.4174110167988,1.42152269434774,1.42032511836261,1.41979618896918,1.41873833018232,0,1.41973631016992,1.41994588596732,1.41977622936943,1.42026523956336,1.41963651217116,1.41998580516683,1.42004568396608,1.42139295694935,1.42298972492952,0,1.42189194694315,1.42119336095183,1.4218719873434,1.42224123993882,1.4232092805268,1.42282006833163,1.42252067433535,1.42325917952618,1.42354859372258,0,1.42315938152742,1.42429707871329,1.42516532130251,1.42547469509866,1.42728103887623,1.4255445536978,1.42445675551131,1.42747065507388,1.42510544250325,0,1.42610342249086,1.42601360429197,1.42620322048962,1.42658245288491,1.42688184688119,1.42683194788181,1.42655251348528,1.42661239228454,1.42716128127772,0,1.42729101867611,1.42832891786322,1.42875804925789,1.42918718065256,1.43057437283534,1.4299656050429,1.42972608984587,1.42949655444872,1.42987578684401,0,1.43095360523063,1.43152245382356
0,0,0,0,0,0,0,0,0,0,0,0,0,0,0,0,0,0,0,0,0,0,0,0,0,0,0,0,0,0,0,0,0,0,0,0,0,0,0,0,0,0,0,0,0,0,0,0,0,0,0,0,0,0,0,0,0,0,0,0,0,0,0,0,0,0,0,0,0,0,0,0,0,0,0,0,0,0,0,0,0,0,0,0,0,0,0,0,0,0,0,0,0,0,0,0,0,0,0,0,0,0,0,0,0,0,0,0,0,0,0,0,0,0,0,0,0,0,0,0,0,0,0,0,0,0,0,0,0,0,0,0,0,0,0,0,0,0,0,0,0,0,0,0,0,0,0,0,0,0,0,0,0,0,0,0,0,0,0,0,0,0,0,0,0,0,0,0,0,0,0,0,0,0,0,0,0,0,0,0,0,0,0,0,0,0,0,0,0,0,0,0,0,0,0,0,0,0,0,0,0,0,0,0,0,0,0,0,0,0,0,0,0,0,0,0,0,0,0,0,0,0,0,0,0,0,0,0,0,0,0,0,0,0
1.37615452411112,0,1.37643395850765,1.37747185769476,1.37844987808261,1.37912850447419,1.37861953468051,1.37731218089674,1.37819040328583,1.37860955488063,1.37834010028398,0,1.37888898927716,1.37915844387381,1.37923828227282,1.37870935287939,1.37988696926477,1.38110450484965,1.37984705006526,1.38012648446179,1.38106458565014,0,1.38089492905225,1.38060551485584,1.38102466645064,1.38169331304234,1.38170329284221,1.38339985882114,1.3825016768323,1.38186296964023,1.38191286863961,0,1.38253161623193,1.38272123242957,1.38285096982796,1.38356951541904,1.38443775800826,1.38481699040355,1.38499662680132,1.38485690960305,1.38491678840231,0,1.38534591979698,1.38583492999091,1.38565529359314,1.38565529359314,1.38590478859004,1.3864636573831,1.38643371798347,1.38734187977219,1.38770115256773,0,1.38873905175484,1.39011626413774,1.38860931435645,1.38880891035398,1.39221202211172,1.39013622373749,1.38909832455038,1.38939771854666,1.3915932745194,0,1.39055537533229,1.39089468852807,1.39125396132361,1.39089468852807,1.39027594093576,1.39372895169288,1.39326988089858,1.39403832548904,1.39613408346301,0,1.45163175057385,1.45383728634646,1.45425643794126,1.45400694294436,1.45421651874175,1.45193114457013,1.45205090216865,1.4495260128,1.44919667940409,0,1.45050403318785,1.4516117909741,1.44970564919777,1.45039425538922,1.44763983062342,1.44816876001685,1.44904698240595,1.4478993054202,1.44818871961661,0,1.4488174470088,1.44948609360049,1.44937631580186,1.44933639660235,1.45009486139294,1.45072358878513,1.45026451799083,1.4499850835943,1.45052399278761,0,1.44840827521388,1.44936633600198,1.44951603300012,1.45030443719033,1.44838831561413,1.4485679520119,1.4488174470088,1.44670172943507,1.44820867921636,0,1.4483583762145,1.44791926501995,1.44732047702739,1.44818871961661,1.44741029522627,1.44833841661475,1.44963579059864,1.44843821461351,1.4469412446321,0,1.44790928522008,1.44809890141772,1.44976552799702,1.44795918421946,1.44827853781549,1.45076350798463,1.45067368978575,1.44644225463829,1.44783942662094,0,1.44878750760917,1.4470210830311,1.44622269904102,1.44614286064201,1.45008488159306,1.4514022151767,1.44610294144251,1.44212100129195,1.44106314250509,0,1.44227069829009,1.44366787027274,1.44480556745862,1.44543429485081,1.44622269904102,1.41570447101999,1.41515558202681,1.41374843024428,1.41487614763028,0,1.41441707683598,1.41398794544131,1.41404782424056,1.41462665263337,1.41453683443449,1.41402786464081,1.41387816764267,1.41487614763028,1.41561465282111,0,1.41563461242086,1.41503582442829,1.41459671323375,1.41580426901875,1.41585416801813,1.41591404681739,1.41647291561045,1.41779024919409,1.41673239040723,0,1.41704176420338,1.41703178440351,1.41682220860611,1.41721142080128,1.41757069359682,1.42417732111478,1.41794992599211,1.4186185725838,1.41869841098281,0,1.42355857352246,1.41956665357203,1.41993590616744,1.42036503756212,1.42022532036385,1.42170233074551,1.42030515876286,1.42061453255902,1.42094386595493,0,1.4209139265553,1.42097380535456,1.42131311855034,1.42176220954477,1.42226119953857,1.42261049253423,1.42305958352866,1.42307954312841,1.42326915932605,0,1.42302964412903,1.4232891189258,1.42335897752494,1.42325917952618,1.42386794731862,1.42439687671205,1.42402762411663,1.42433699791279,1.42503558390412,0,1.42538487689978,1.42566431129631,1.42616330129011,1.42660241248466,1.42647267508627,1.43040471623744,1.42714132167797,1.42707146307884,1.42715130147784,0,1.42759041267239,1.42727105907636,1.42775008947041,1.42813930166558,1.42875804925789,1.429716110046,1.42977598884525,1.43065421123435,1.43040471623744,0,1.43089372643137,1.42991570604352
1.3760347665126,0,1.37610462511173,1.37758163549339,1.37613456451136,1.37705270609996,1.37710260509934,1.3776215546929,1.3779109688893,1.37813052448658,1.37825028208509,0,1.37832014068422,1.37851973668174,1.37841993868298,1.3783301204841,1.37863949428026,1.37978717126601,1.37997678746365,1.38068535325485,1.38093484825175,0,1.38019634306092,1.37941791867059,1.38083505025299,1.38065541385522,1.38154361604419,1.38155359584407,1.38503654600082,1.38230208083478,1.38313040422449,0,1.38297072742647,1.38268131323007,1.38283101022821,1.38381901041594,1.38402858621334,1.38384894981557,1.38447767720776,1.38518624299896,1.38838975875918,0,1.38421820241098,1.38514632379946,1.38539581879636,1.38566527339301,1.38580499059128,1.38631396038496,1.38624410178582,1.38710236457517,1.38697262717678,0,1.3873817989717,1.3885494355572,1.38915820334964,1.38953743574493,1.38978693074183,1.39003642573873,1.38920810234902,1.38980689034158,1.38993662773997,0,1.39076495112969,1.39073501173006,1.39119408252436,1.39171303211791,1.3918427695163,1.39181283011667,1.39598438646487,1.39604426526413,1.39535565907268,0,1.39504628527652,1.39361917389424,1.39373893149275,1.39641351785954,1.39567501266871,1.39470697208073,1.4513622959772,1.45071360898525,1.45135231617732,0,1.4523203567653,1.45072358878513,1.44732047702739,1.44876754800942,1.4490669420057,1.451861285971,1.45024455839108,1.44777954782169,1.45178144757199,0,1.44918669960421,1.44854799241214,1.44787934582045,1.4490669420057,1.44819869941648,1.45049405338798,1.44994516439479,1.44995514419467,1.45125251817856,0,1.44935635620211,1.45076350798463,1.44917671980434,1.44934637640223,1.44919667940409,1.44979546739665,1.44820867921636,1.44547421405031,1.44394730466927,0,1.44978548759678,1.44728055782788,1.44599316364387,1.44715082042949,1.44687138603296,1.44726059822813,1.44746019422565,1.44724063862838,1.44721069922875,0,1.4469412446321,1.4470210830311,1.4474801538254,1.44633247683966,1.44628257784028,1.44689134563272,1.44638237583904,1.44678156783408,1.44552411304969,0,1.44674164863457,1.44799910341896,1.44352815307448,1.44335849647659,1.44403712286816,1.44455607246172,1.44530455745242,1.44638237583904,1.44756997202429,0,1.44299922368105,1.44438641586382,1.4153651578242,1.41580426901875,1.4153252386247,1.41496596582916,1.41354883424676,1.41375841004416,1.41466657183288,0,1.414656592033,1.41473643043201,1.41471647083226,1.41425740003796,1.4143671778366,1.4141576020392,1.41454681423437,1.41509570322755,1.41635315801193,0,1.41387816764267,1.41473643043201,1.41518552142643,1.4158242286185,1.41584418821825,1.41584418821825,1.41638309741156,1.41646293581057,1.41633319841218,0,1.41631323881243,1.41703178440351,1.41702180460363,1.41668249140785,1.41697190560425,1.41810960279012,1.42052471436013,1.41772039059496,1.41868843118294,0,1.4202053607641,1.41889800698033,1.41965647177091,1.42051473456026,1.4197862091693,1.4197862091693,1.41985606776844,1.41979618896918,1.42023530016373,0,1.42032511836261,1.42028519916311,1.4206644315584,1.42132309835022,1.42031513856274,1.42176220954477,1.42100374475418,1.42256059353485,1.42302964412903,0,1.42302964412903,1.4230396239289,1.42316936132729,1.42308952292828,1.42363841192147,1.42521522030189,1.42383800791899,1.42367833112097,1.42360847252184,0,1.4244168363118,1.42496572530498,1.42571421029569,1.42587388709371,1.42668225088367,1.42630301848838,1.42632297808813,1.42674212968293,1.42699162467983,0,1.42693174588057,1.42666229128392,1.42778002887004,1.42829897846359,1.4283788168626,1.42865825125913,1.42913728165318,1.4297560292455,1.43082386783224,0,1.42997558484277,1.43122305982728
