1.76706943426454,1.76694575229886,1.76613537007896,1.76527108943936,1.76532982280859,1.76684030549883,1.76760160028248,1.7677241842146,1.76790954988614,1.76785795033562,1.76738117525903,1.76696423075783,1.7674793089272,1.7686197817083,1.76932023800931,1.76992120128864,1.77085142276424,1.7599641596647,1.75975519105175,1.75969554769631,1.75998339327334,1.76033582914595,1.78272658175316,1.78281338690529,1.78506221741125,1.73263503760226,1.74390366946785,1.80543451694221,1.79815536282264,1.77888623718189,1.7775079409103,1.77520033104178,1.77623845519737,1.78002011317071,1.78064089103929,1.85826983036978,1.85824521712645,1.85842940011875,1.86128889730835,1.86073039339856,1.86276111625854,1.86443096022935,1.80763481510625,1.79461429591418,1.7997837921587,1.80586531375984,1.81174675631636,1.81693650619125,1.80650521651047,1.7980032056327,1.80721102741642,1.86158914850786,1.8645240733055,1.86983560206124,1.87004287982122,1.78615287834913,1.78515821185806,1.78375698832154,1.78364071089579,1.78522676100707,1.78683880629227,1.78814982125863,1.79463213962149,1.80210856768939,1.80818512772453,1.86329471784233,1.86189051207549,1.80063569237562,1.77594744033915,1.77592900175649,1.79796599478219,1.80911447379176,1.79802439862803,1.77128811297542,1.76985192179285,1.77005143389013,1.77312302839395,1.77292150867029,1.77230463657794,1.77275506687968,1.77271448973145,1.77269637007677,1.77181734490086,1.77234246348203,1.77086905524185,1.7720285434515,1.76984897749575,1.7684066633638,1.76645676273489,1.74246193357383,1.75555424790899,1.79348759699516,1.78902085868476,1.78714137622788,1.72641676029412,1.71614016764865,1.72661524542031,1.77165548729183,1.77055421967481,1.76623187497975,1.76600160516577,1.76568551152006,1.76546913373583,1.76454794782835,1.76212847612046,1.7587385386403,1.75849736209846,1.71272506051854,1.70088895381761,1.71104434877877,1.72544382684768,1.70792014364988,1.68187560126763,1.68217573847104,1.68220634169211,1.68249056051255,1.6822742261012,1.76303243595965,1.76382940859617,1.7632011116338,1.76151303545497,1.75964201907475,1.75742271357266,1.75497122844586,1.75336703522587,1.74884624369595,1.7484041216295,1.74797145659002,1.74787836420246,1.74798376642883,1.76031643825355,1.75920644174786,1.76002399370441,1.76159675997584,1.70907328792652,1.67927257503594,1.67993813101915,1.68055701000812,1.68142133781573,1.68131905919231,1.67981818970936,1.6795127949055,1.67947695828449,1.67893485697167,1.67838795619067,1.67840148384023,1.67790122465496,1.67754230960201,1.70849974793655,1.70295233618806,1.69919809576577,1.68187456756489,1.68221548323627,1.67791758531334,1.67768138870004,1.59469252902479,1.59482270434456,1.63181143794541,1.66635966785559,1.66565989648138,1.6628241153435,1.66213873395592,1.66205629076,1.66217465050121,1.61872251014007,1.65902209264836,1.65827869972601,1.65750143168454,1.65679669068452,1.65643687624386,1.65648681331706,1.65679159314498,1.65635381589202,1.65594098973976,1.62877471875189,1.61296269780755
1.77241279918356,1.76859818156274,1.76722991795571,1.69025293740419,1.76750269796938,1.76791581462828,1.76795274457601,1.76697365231309,1.76790947913683,1.76754535884973,1.76759605890503,1.767120455832,1.76835507534836,1.769410518035,1.77014906486086,1.88575000277215,1.7719404157999,1.77199853056938,1.69547001683306,1.77853880464808,1.81079999277766,1.7801400093933,1.80676005895432,1.80708090885357,1.78982876108776,1.71123009873589,1.88187714460802,1.88254571936923,1.8829971525241,1.78191958660116,1.78075328255617,1.86573108994698,1.87256616524083,1.78121201587979,1.78169320266746,1.85834667133667,1.78194346164633,1.85788598004728,1.85847184136202,1.85861017539524,1.87857771911836,1.88323221954998,1.78182277979645,1.78201393476576,1.78173863587279,1.88412956147691,1.86734628437712,1.86734556174578,1.78404472203633,1.77995928165468,1.78103955982544,1.85528532306652,1.86315971401059,1.86472105030723,1.86897422644221,1.78105230596564,1.7790271682608,1.85513392032581,1.85484720596065,1.86265188219252,1.77923551077305,1.77905409548118,1.77873129558362,1.87008962857245,1.8582775561944,1.85751957744652,1.88510997906889,1.7752222818164,1.77559856624235,1.77579179030164,1.86944992633574,1.85363390205255,1.86044437986694,1.77455773754807,1.77360276544638,1.77270555711625,1.7744308915789,1.77071723663553,1.77193589451161,1.77265831627018,1.77426502255178,1.77041073481145,1.7758748423959,1.76845318139378,1.77634606046035,1.76963327100585,1.77413219940719,1.77009709984243,1.77028036657239,1.72640024990565,1.79720047844962,1.79307153656889,1.70451174637179,1.78343090230736,1.79492992847101,1.69665426142046,1.69639110663682,1.77144573439881,1.77065135943622,1.76643656361191,1.68916001355322,1.88656000277215,1.68731000886522,1.87336000277215,1.7634635090668,1.79013665800137,1.76162820834072,1.68187202690756,1.68157068007989,1.76007773915455,1.75792411767068,1.76411783183689,1.68045423590495,1.68192384926129,1.68059111151094,1.68169947864562,1.68121805213048,1.76252884184724,1.76225838513366,1.76198044658823,1.76151553168364,1.76033028582495,1.77170221037373,1.68090000051135,1.84769000277215,1.76121000138608,1.68289488821546,1.68246940579429,1.76227278788417,1.6813200054407,1.76164526614776,1.7606614411929,1.67968000040773,1.76405676219649,1.68046701406649,1.67948392533577,1.68017474567397,1.757599844762,1.6822787320956,1.85527000277215,1.6807666397668,1.67830224789041,1.68036868475392,1.6763778960509,1.67910738082776,1.67738240256614,1.83388714478874,1.67721984879553,1.89301998813701,1.61404999806948,1.68873678760909,1.60635999722986,1.68344867817682,1.67812494659638,1.69877270747415,1.59481068612853,1.59445179166505,1.58941673927109,1.66647244522699,1.66531657592885,1.58457999722852,1.6601251570388,1.66104444440836,1.66129422859465,1.58112000024471,1.6889599949195,1.57943685521116,1.57870428403308,1.65658424996909,1.65545520671959,1.65541211335479,1.65690800728765,1.65669202488638,1.65546233473154,1.5762764575882,1.57798227546413
1.77111009959319,1.76661096292886,1.76757321086175,1.68965934426652,1.68966871182747,1.76553533419486,1.68917321055251,1.76735948122281,1.68666246963896,1.6916648891339,1.81140000162157,1.76881881231849,1.76776069760891,1.69177833125422,1.69221166458755,1.77205490297461,1.77170610987604,1.69520737809342,1.77385576603072,1.77810257007635,1.70036108214015,1.78134000962291,1.70331999722785,1.80621843181905,1.80666573777925,1.81105393558605,1.81038668974762,1.80762355516295,1.89796002534116,1.85596002136742,1.87581998140473,1.78439999722785,1.87035281969304,1.85484000450598,1.78172578966413,1.85961333789693,1.87801416098491,1.86929994976842,1.85715680608829,1.78362613556576,1.85653379380442,1.87025987319313,1.85737703948662,1.85504312740367,1.7823564717343,1.87452042779566,1.78199999722785,1.86893925247314,1.85678772107025,1.85872695601165,1.85800698986067,1.88525993828882,1.85952776248747,1.85792119884588,1.77978104156342,1.77999592532452,1.86973639915924,1.86365717257087,1.86333667178305,1.86225111708216,1.86491712832645,1.78065795078695,1.77911174444288,1.87142949856752,1.87220436052432,1.86864269617094,1.85972740095887,1.86689275176732,1.77571676562458,1.87302000277215,1.77800680696908,1.77743506116295,1.86104175925574,1.77697598927135,1.77776692396143,1.86955000277215,1.77337675703187,1.77430653607994,1.77551733346496,1.77452763623654,1.77257185519767,1.77354331531585,1.76661884778924,1.77691029365255,1.76678193274497,1.77799860039681,1.76855951141904,1.77232591913551,1.85918000277215,1.76917000761498,1.79077160768276,1.7850102244529,1.70497287458792,1.70372444644331,1.69975108431688,1.77906243486588,1.6954922484061,1.77121985494753,1.77102217214045,1.77088265655029,1.77146357967587,1.76661224146586,1.76672598853514,1.76485391061981,1.76452756640957,1.79064332457296,1.6831664699929,1.68274151237906,1.6829120269433,1.75903085010821,1.68134999722785,1.78506997333258,1.67841577249752,1.78259000277215,1.68256865461887,1.7593258103999,1.75938081516141,1.76068157216063,1.75751124135226,1.68160999722785,1.75991576021587,1.76153545179772,1.68431999722785,1.75811004209671,1.68164060655433,1.6807230230941,1.68181992203863,1.68164155492749,1.76513708225966,1.77216506298201,1.76181488610948,1.76076753453771,1.76007040559827,1.7591423724322,1.68018345616967,1.67950034744326,1.760859192633,1.76061177690238,1.68102386939109,1.6810757658618,1.67962173131951,1.68082422559279,1.68018225515892,1.67793945719434,1.67801305810012,1.83612714478874,1.83523571596683,1.67777811492623,1.87225052271786,1.61476999831995,1.69873276887153,1.68391000993244,1.60223619385343,1.67871738668288,1.6942472584065,1.59679739835527,1.67053713792969,1.67142849778723,1.67012995312664,1.66845786964432,1.66703909970814,1.66291921183643,1.58478999722785,1.65964372951143,1.65926858990721,1.65872998715516,1.65794660981286,1.57818885521116,1.68855999156396,1.65547423596702,1.65544617070793,1.65658469885248,1.65751495888362,1.68236498070435,1.68166498067006,1.57777036970467
1.76916696435694,1.90152000277215,1.68883790200486,1.6895577559524,1.68958275313539,1.68999093691597,1.69148936311947,1.68568065283019,1.76595147010482,1.68943263568283,1.76933697850558,1.76984731496759,1.76802325772808,1.76901411733927,1.77059127652387,1.77416433257091,1.69366465502244,1.69232796133982,1.7749328647923,1.69780328416876,1.69944535708048,1.69999308214015,1.78110874370287,1.78739209677404,1.70704942537223,1.80818983231112,1.71486999722785,1.88498000138608,1.91203996647395,1.78377436729263,1.78414305637164,1.88246329395309,1.88235663636262,1.78286999722785,1.86647326598075,1.783955525048,1.88234572130852,1.78343999722785,1.88123998590486,1.78334200863383,1.86832149816167,1.78333096531245,1.87231965124702,1.7797786081353,1.87476501462786,1.78078685117421,1.85754900061402,1.86236432915559,1.85804520295113,1.78038833125422,1.78114166458755,1.86972148035836,1.87232818950239,1.85656601259331,1.86585493498086,1.87177174634992,1.78179999792088,1.78011999792088,1.86875851368786,1.77853504175898,1.77918184268001,1.86223000277215,1.78113068762498,1.86806191737288,1.77827353252706,1.77851300277097,1.77975608098739,1.78013551071474,1.88201000277215,1.78129132166394,1.77729812855725,1.86082265543258,1.85926693831179,1.77584585923172,1.86594006185849,1.77514072432112,1.8493242873954,1.84850485907445,1.77457793247717,1.86320000277215,1.77531092158838,1.76892495753064,1.77773728081155,1.7657232731516,1.77739415307322,1.76665912877029,1.77718330383398,1.7720674805625,1.77370387736969,1.72682994741776,1.713420048424,1.7993572150552,1.88320000277215,1.78358000138608,1.69877985604785,1.77823212565075,1.6956824255107,1.77532806811183,1.7704444479877,1.68860999792088,1.68864999792088,1.76832129197572,1.76555498622422,1.76462242836994,1.79332998722248,1.86638000277215,1.68277730210744,1.76563535981732,1.76412599712756,1.76256580030891,1.76077348356871,1.76146540589762,1.68164700709311,1.68020482512172,1.75880393659495,1.78192996390315,1.76054298701836,1.75932869877219,1.67886999722785,1.76077607686163,1.76096845568223,1.7603199790453,1.76163931566075,1.76361640131426,1.76192142024732,1.68208060655433,1.76003299934029,1.75973577964131,1.75910848897626,1.75960891368185,1.76143664694578,1.76119351074429,1.68303666458755,1.68202333125422,1.75973000138608,1.83870000277215,1.68242999722785,1.759899192633,1.68033420854128,1.67955468538554,1.76120000277215,1.67907950493171,1.68096615554224,1.6783953958475,1.83725000277215,1.67736672283681,1.67669401054162,1.67718432655707,1.87937786483596,1.61492999806948,1.69309512962877,1.60912995570207,1.60210224825496,1.60065290696996,1.59574754706638,1.59576318219712,1.58952904623813,1.6711562379491,1.59041999722785,1.6673455480603,1.66522534337847,1.6633992105739,1.66289524508099,1.66252808388776,1.65843216599349,1.57946999722785,1.65747295729182,1.65722900740263,1.65836873278775,1.57844087239661,1.57704477644586,1.57836652084218,1.68619332188853,1.65653233798528,1.65792574742973,1.65725666976132
1.77056970575111,1.69121001140972,1.76943416078241,1.77065420871184,1.68951642788291,1.76811155181523,1.76837053001193,1.76850848144706,1.76872381637026,1.76861300857837,1.68947001883749,1.77041234206894,1.69153000787096,1.76924122006233,1.76982742564165,1.77247937869144,1.81047000237339,1.77471000138608,1.69656286957782,1.69853435713971,1.81181999758702,1.78115595507346,1.78569973331537,1.78585082482612,1.71069059479619,1.81070080955501,1.79655668390622,1.72084003302244,1.81022999330107,1.7826560856543,1.88737000277215,1.78335683577945,1.85468840345807,1.85556172026757,1.86648661583791,1.78271592536906,1.78272209882924,1.88571000277215,1.78400935110943,1.78272683779433,1.86961485017062,1.78484426764024,1.86581023537308,1.78070806003182,1.87906498953037,1.78103551026556,1.86663887295708,1.78240685375056,1.87281976730588,1.86217709496241,1.86081011590849,1.7810526207778,1.8566300804289,1.87313971045273,1.78204750830204,1.78236753659275,1.86644212998977,1.87453787416847,1.77806526052035,1.87565000277215,1.78081017010565,1.77955140648384,1.77662475842412,1.78103032270932,1.78061760767619,1.77975354170734,1.86914008005149,1.88147992410674,1.77854327583435,1.86301000277215,1.77790987536883,1.8652227530425,1.86396769679078,1.77676747590231,1.87025994229974,1.77574477050156,1.85120085907445,1.77285851906692,1.77087309839428,1.77482473688937,1.77456757549489,1.77406442807564,1.76868727397638,1.77492425752488,1.7686969403665,1.77514818315967,1.77002068660248,1.77326191297533,1.86563001163174,1.8852899925265,1.79555162568303,1.79764626566356,1.70548838953687,1.70420173613351,1.77837011271917,1.77646345988875,1.77535348018026,1.77329167159045,1.77209578585877,1.76953815258747,1.76854494214894,1.76771826269947,1.86682069649568,1.87619930766255,1.76479344789668,1.68560000460178,1.76378621692477,1.68288000087193,1.75956732774188,1.76079360621155,1.78619999590784,1.88361000277215,1.76043939973977,1.7585374651692,1.75920112100583,1.76143351765464,1.68286001464769,1.78243997448829,1.76391088093175,1.75989049167346,1.76078020789306,1.85152000277215,1.77509492031826,1.76280878575673,1.77519742606524,1.76176564311921,1.7615072472109,1.68272333960848,1.68201667292082,1.76855868262526,1.6826600147801,1.76083843057347,1.76159327537689,1.76132728349595,1.6816500137405,1.76544666006688,1.85167000277215,1.68017999914692,1.76083126721018,1.75970356507421,1.67957534983391,1.68012993112245,1.67932033180156,1.83623000277215,1.75939,1.678857903964,1.6784766987231,1.76083000138608,1.87348163123955,1.69963000138608,1.60980999767462,1.68923000277215,1.60240740952099,1.59995842076557,1.67629000837356,1.69780999107673,1.59386381477782,1.67132313355509,1.66803157957004,1.58773999722762,1.69303993070952,1.6641807701911,1.66293918869927,1.66236039726356,1.58121999722789,1.65893155027872,1.68925998957624,1.65986885830266,1.5814468664257,1.58064238488681,1.58071950400295,1.57885506422653,1.6860866551644,1.65680487524236,1.65501141746297,1.57777833125414
1.72348861528271,1.733873372748,1.76800195327116,1.76736225052782,1.76741819784136,1.76755034509651,1.76727898001375,1.76621653540392,1.76614860232724,1.76738332571069,1.71962196207097,1.76831802828557,1.76748528409156,1.76696829077039,1.7680177546318,1.76764524162753,1.76710613630528,1.72751011500176,1.71718327401609,1.72745194341718,1.77755354548711,1.77939304266722,1.77656349934375,1.77694189348522,1.7775462584061,1.77802232858345,1.79864504710335,1.79603655983978,1.79020046856402,1.78438908160882,1.7825048390583,1.78224850331256,1.80208029821055,1.8102715569106,1.81735827079404,1.80139145795896,1.81058256695408,1.81813504247274,1.81069758857344,1.80126830511286,1.84475553960268,1.84467950531774,1.84485169662482,1.77886287960801,1.77807355745644,1.77902848079928,1.77878237450723,1.7798287194427,1.86938592269053,1.8679228357063,1.86519870330012,1.86101570015049,1.86138630132666,1.81234173930362,1.80540054405645,1.79790013591944,1.86311952045089,1.86310470856813,1.80297378697023,1.81378647971179,1.80655148978294,1.79746980613096,1.77868868179922,1.78105481008751,1.78042234573272,1.79368217332819,1.79915932610513,1.80602685107728,1.81099213740809,1.85921272453375,1.85887681346109,1.86490673692346,1.86730164118285,1.85512761591275,1.85515148353738,1.77448796432674,1.77243669409036,1.7709931194443,1.76907216598942,1.77069537618977,1.77288836068178,1.77305051901329,1.77251218831282,1.77239589657579,1.7728202201544,1.77309695944892,1.77339225836676,1.77315399717333,1.85547237206702,1.85589131745844,1.79592684848878,1.73459964038999,1.71316505283822,1.72097317858387,1.72987347709371,1.73780273845039,1.74298913598672,1.77003437992679,1.76963202348935,1.76884513995964,1.75817229313621,1.75808599834852,1.75792310663107,1.75777898386144,1.7619508229881,1.75984691763496,1.75966585787339,1.75936719613083,1.75957617219819,1.75951048733028,1.75767025387747,1.75524241466178,1.75864740391119,1.7597852947991,1.76122983154194,1.76196067817531,1.71688706319569,1.75946649084158,1.76057669450829,1.7602744500762,1.76026828835207,1.76641476768107,1.7700499147757,1.76227471027874,1.76189593992311,1.76201888849389,1.7622050640328,1.73999666255636,1.7406913497081,1.74140534028018,1.7414304110409,1.74051444359234,1.73896892121881,1.73770229452485,1.71585898180169,1.75922440456766,1.75776771645672,1.75808467297811,1.75967750287477,1.75913811548384,1.6798767433316,1.68050785944906,1.67993050798381,1.68048551840334,1.67943539391089,1.67933071417262,1.68294499054329,1.68703289231397,1.69151689704339,1.66692804502414,1.65087556630755,1.63829226502716,1.62600664691177,1.63587697967129,1.64871936290791,1.6714996597897,1.67130282006498,1.67092867144227,1.66940804878486,1.66903684215371,1.67748291950903,1.66446059500775,1.66377405145959,1.66268926282081,1.66122931738637,1.65910912079808,1.65771691536394,1.65811944473204,1.58047511399006,1.58019259384358,1.58002302840255,1.57932789412647,1.66526904676746,1.65496428370125,1.65516223966266,1.65529774910694
1.69284835132273,1.77124584201904,1.77013267210347,1.81292000120663,1.77098934415652,1.76927917939653,1.76894301997786,1.81413000081624,1.68883000580679,1.77049384720631,1.69014041775964,1.77011009747778,1.77107755659507,1.88849000277215,1.7706456096425,1.81066999976566,1.77259585702537,1.6957689961887,1.69772507178925,1.81066000207912,1.77944450285075,1.78121756621335,1.70452549940834,1.70600513611139,1.81066000277215,1.7132400269647,1.80973327300809,1.80950658683338,1.732000056308,1.78311685501317,1.78238643516866,1.78212369729604,1.78353879116153,1.78423083787704,1.85585000277215,1.78531981572817,1.86877086746541,1.87534156916393,1.87666254648584,1.78517035820244,1.87372378063521,1.87497117021353,1.8684500920518,1.78170285534523,1.78153974714607,1.78271266009916,1.78238532926599,1.78205550235801,1.86118992427657,1.86635592172587,1.86041466744622,1.8819662554077,1.88209054842029,1.7819750236364,1.85925496108716,1.7835490814128,1.85960713862355,1.86529731211595,1.78000698721947,1.86591841515816,1.87439621755414,1.86481006180712,1.77858988635385,1.78409657773814,1.77994629324414,1.85440000277215,1.78179197092135,1.77834206019277,1.88520998218636,1.86900994481662,1.8562804720972,1.85708580249676,1.88282997979198,1.86319732833177,1.86899268773548,1.77740847119281,1.77574266113768,1.77398921474441,1.85955148715337,1.84799002214507,1.77390764775244,1.7714238623713,1.77582559282098,1.76876543968437,1.77623061788311,1.77232334311898,1.77313915459633,1.77317807163747,1.86366000138608,1.89144238204801,1.79759975808788,1.70740543567544,1.70790837531215,1.78280561450208,1.70035090243739,1.69650657967,1.69651255743181,1.79604999590104,1.76879611435579,1.76797591791188,1.68703196986281,1.68718955495142,1.68645937038466,1.68635381490004,1.76427781830051,1.76220972322191,1.78881998186778,1.76144509019799,1.76143005611556,1.76143057664981,1.76199485537781,1.68289357291627,1.75991266698757,1.68208922557873,1.68197072464931,1.76192748008015,1.6816800131914,1.76046550442276,1.76095091059815,1.76119906947186,1.76001907861878,1.76095333610395,1.7760896712366,1.68159000191693,1.68159000191595,1.76967925665352,1.76148879149369,1.76711728117737,1.76129598532018,1.6826866707718,1.76327600308096,1.68066042188418,1.68243458825758,1.7685283475578,1.68241001467845,1.86327000277215,1.76164209930575,1.76043069594356,1.76220952237311,1.76461488018023,1.68023266091964,1.67986027220909,1.6824581614923,1.67775860329033,1.67980520554712,1.67777668439194,1.83616000277215,1.67715486002192,1.6985736946246,1.61815999719077,1.69271002236165,1.610344438944,1.60559482404768,1.69855000277215,1.59901999721744,1.67362968185181,1.67252348046264,1.67399188081134,1.67031177160322,1.66948841504538,1.6953899629563,1.66546053555542,1.66477614730581,1.66413257460228,1.66236481400562,1.6595178816978,1.58121999722761,1.69202998997269,1.57654001186982,1.65828649674286,1.65911240414915,1.57923911075857,1.68955999344229,1.57523999722782,1.6567352262992,1.65681368397962
1.81466524621139,1.81713761454278,1.77039510938877,1.77094530242757,1.77150906555064,1.69355999722785,1.76751640964927,1.77066540702701,1.88749000277215,1.69112433095232,1.69090191553764,1.77027734518384,1.77170639382126,1.77203788008029,1.77310559052913,1.69276833125422,1.69368166458755,1.77634000277215,1.6983911508081,1.81138000207912,1.70404034138601,1.70448171397232,1.78616000277215,1.71079977350967,1.71094196288029,1.7958828425046,1.79731730181216,1.88666000289974,1.91481000125849,1.86379000138608,1.78548368570999,1.87188663399514,1.85589004522066,1.88145999120488,1.78560999722785,1.87331000277215,1.78377608457701,1.86997736878411,1.87175016908061,1.7848970024686,1.87376447859676,1.87490370638908,1.78555259006443,1.78364578421986,1.87818063628933,1.78334470932667,1.86841166874578,1.86733833541245,1.78431765385733,1.85990700862462,1.85917716289845,1.88339727404932,1.88343292206532,1.86253414236202,1.85894309016812,1.86849831163161,1.85231567793484,1.85827395721406,1.8678965058826,1.85760467520641,1.87394287645755,1.7832598251557,1.78237439748741,1.85477000568691,1.78153988389061,1.78139388097518,1.86756694592225,1.77843042134989,1.77969648402539,1.85366907127318,1.85717570782988,1.856978349036,1.77781666258549,1.77831583891189,1.77855053268062,1.86940572604024,1.86035834879593,1.85883261246578,1.85735723845369,1.77427839458079,1.77262248003054,1.77628384008197,1.76814750370193,1.77816286678363,1.76729705542929,1.77722262571949,1.77788009511759,1.86769000277215,1.77279328363577,1.89269573240896,1.88395283689547,1.71063763105575,1.78745026773474,1.78335952217872,1.78188849606984,1.780492822104,1.79813997763467,1.69520985986694,1.69345229902227,1.77126611041609,1.76928046923904,1.68907784251179,1.68630990947357,1.76588596140072,1.76494842845533,1.68611999722785,1.76492335107552,1.68391301839136,1.68236511443962,1.68324203109397,1.68291656030517,1.68423146668789,1.68023627758294,1.68160642858084,1.78448998384805,1.76249591675446,1.76328163755277,1.68315999722785,1.78004992744839,1.76088107588851,1.68152666458755,1.68227333125422,1.77585895635099,1.77479256311377,1.77503385719223,1.76078640484586,1.7639580076941,1.76945391269286,1.76136286202146,1.68239333750237,1.76796594596539,1.68252792161532,1.68354713268038,1.76204431558341,1.76355570691367,1.68134999722785,1.76095069714181,1.76031899517271,1.68304412294537,1.68470931496574,1.67874006398561,1.68184756817805,1.67604405906937,1.68319707161782,1.67656937943803,1.6792610415981,1.67734653096593,1.67831837759651,1.78403842403629,1.69718065619474,1.7032363970024,1.61027075684004,1.68893000277215,1.60252033263262,1.67851144221254,1.67733564495761,1.69832995489397,1.67206040122856,1.58897999722785,1.66947987767464,1.66229487281092,1.66530070006568,1.58181999722785,1.66175292465952,1.66203058844119,1.58177999722785,1.65832031626172,1.66133073403552,1.66107157660438,1.66081154747705,1.66089691335304,1.57534510639891,1.65500702413041,1.65612600411969,1.65764424378678,1.65714563383389
1.81452714478819,1.69361457278124,1.81250999763969,1.77200384546424,1.77216754125167,1.77268025157974,1.91454000277215,1.77206505739659,1.69252161192813,1.69244274687701,1.69236835777063,1.69123261905454,1.69210720917525,1.69307227510899,1.69396645888268,1.7746933347567,1.77426666801545,1.69657893495578,1.69665908649932,1.69867491606736,1.78230824441762,1.70416994926644,1.70573798844483,1.78852575894766,1.71099866101373,1.71444497032924,1.72061291095848,1.72035109956297,1.73785999833565,1.78653636284598,1.78492476693793,1.87299094505728,1.78354383871761,1.78545464443025,1.87306000277215,1.785773235342,1.78489422655455,1.87159675024301,1.87274001711717,1.87475350667509,1.86089854626542,1.87265683019527,1.78583470976786,1.87293010455025,1.88258925983755,1.78456299579157,1.7848231593253,1.78449297378354,1.7848710576794,1.85853113782659,1.88881828956795,1.87517311534716,1.78256999722785,1.85716016774524,1.78306999722785,1.86453939083751,1.85916046735558,1.85890287294796,1.87621995704682,1.78152312949185,1.78273402109208,1.78244515724742,1.85645000777336,1.87337973355242,1.86204667056732,1.85629399395218,1.86905608327458,1.87194492807129,1.86990175149143,1.85547369008177,1.85631254096348,1.85588169681412,1.87560993762728,1.77842756718504,1.7789993002033,1.87603410932883,1.85088856390138,1.84960190280431,1.77631248036202,1.77654630453817,1.77807607031766,1.77063519201374,1.77793917590022,1.76729084744712,1.77930431778136,1.76965383348777,1.77589298120211,1.77223129465756,1.77254370997738,1.88152054427303,1.88366181198864,1.78779550929478,1.79836561083563,1.78395361959105,1.78094684400389,1.69747167169789,1.77559986540073,1.69325893507159,1.69333652653361,1.77152065961126,1.76856367012232,1.68920429379576,1.68539326519978,1.79485999289378,1.68505999722785,1.78924998003822,1.76361668426349,1.79407998767594,1.76413872780703,1.76151224500231,1.76140428579203,1.68280557291256,1.75795545244874,1.78536998369805,1.68250999722785,1.75924766469002,1.76087226901472,1.76171542528408,1.76141850027672,1.76162397535904,1.76148559821931,1.761246318484,1.76054860119228,1.7614707824102,1.68250999722785,1.76240577819867,1.76388569751034,1.76293694301196,1.76335895861781,1.76056517948445,1.75975852218793,1.76115921312309,1.68430737387413,1.68237713550333,1.76154114330829,1.84450000277215,1.68168999722785,1.84192000277215,1.68284931140339,1.68355516751868,1.6813177650926,1.67677369749081,1.683599085781,1.67623741678231,1.68353042914471,1.68175015001015,1.83781618751611,1.83263381664212,1.78610157734979,1.69870380136901,1.69521853035465,1.68851000936077,1.60307965409661,1.60279319782929,1.67837210439486,1.67824579981654,1.67356891312138,1.67308133281913,1.66874821485118,1.66732409193247,1.66644171424567,1.66567568708063,1.66335525032068,1.58049999722785,1.66249975185449,1.66082819557463,1.65607025816791,1.69028998228808,1.57850999722785,1.65889871385289,1.57905999722785,1.66079520614484,1.68719996924005,1.65851950911392,1.68176995793214,1.65777987941777
1.77450323582783,1.69307286296308,1.69338258115401,1.77239964030485,1.77240096195223,1.77260411810416,1.77393027031899,1.69283673320168,1.69266136029827,1.77046171621731,1.77142857310969,1.77086971621731,1.69116544203534,1.77356000207912,1.77236000207912,1.69379002414632,1.81724000277215,1.77747514185963,1.77558800262809,1.70240188820076,1.78304630328006,1.78265717851691,1.78640882475316,1.78636369978713,1.7099379428725,1.71573298834889,1.71931965924917,1.71933959082935,1.92696000277215,1.78589929767547,1.87965639165582,1.87562463745176,1.87885136650309,1.78652959167665,1.78639731413453,1.78585600342088,1.7866532259634,1.87601924498209,1.8749413614165,1.88025365578886,1.87303913675988,1.87426987668869,1.85964000560144,1.78344527207874,1.86390000625325,1.78414303356975,1.78480366055274,1.85966845074403,1.88236999635253,1.78225207810844,1.78587027778971,1.8864415745912,1.85908000138608,1.7851249909183,1.87693981055552,1.86333903884439,1.88990998443491,1.7825446027623,1.88884990638793,1.85983400165995,1.85961000155612,1.8584260014882,1.78208610854761,1.85755996196656,1.85649187099196,1.85788475951712,1.85593091484541,1.85582605068053,1.85593860583087,1.85698360953067,1.85686988107601,1.85561032577981,1.85418972471218,1.77847222794323,1.77786869476184,1.7767767032569,1.77528322304071,1.7753693491775,1.85124000277215,1.77738825790885,1.77467218257376,1.77496871438753,1.77077194415045,1.77683760643687,1.76933020944453,1.77605856627179,1.77243180171842,1.8641116680985,1.86155833469047,1.88667205581422,1.8856346448713,1.78627544060769,1.70627502300832,1.70433502413333,1.78274301290086,1.69883833828943,1.77592838294857,1.69740238152279,1.7709968249967,1.88320000277215,1.68989000525951,1.76704150775178,1.76572031391713,1.76427004393379,1.76551541393625,1.76476209330242,1.68496000251491,1.76117047894901,1.76177031914203,1.68190000353786,1.76231668908479,1.76158108421278,1.76161129436667,1.76117546662905,1.76169594610502,1.76060701911631,1.76166745901056,1.68205000147278,1.76089831054962,1.68300000250726,1.76192666679058,1.76278242045564,1.68228500492892,1.68182500495025,1.76206486025968,1.76486847003709,1.76320111671809,1.76395068437461,1.76857377699616,1.76872418119666,1.68259000318239,1.68267000317637,1.85937000277215,1.68199542789095,1.76172933802373,1.68210000601911,1.76346343698945,1.7632410148621,1.7640179609172,1.76201033401859,1.68000083971587,1.68212065096865,1.67803267813745,1.68333862318393,1.67679851483833,1.68248935558399,1.67681567567282,1.67903855308514,1.88190000277215,1.616869997247,1.69566363163427,1.61048462709839,1.60791109318749,1.60174109084749,1.67738791356022,1.59718999722826,1.6749855758327,1.69924996910419,1.67017755249975,1.58863000637587,1.66753257462297,1.66510610671729,1.66424649552393,1.66330090646054,1.58200999722795,1.6663869000319,1.65746896889581,1.65633614578159,1.65711477887771,1.65923953728363,1.66047589623114,1.66065344943851,1.6586526551682,1.65810108864428,1.57858999722811,1.65764270131562
1.77248491574624,1.7720428900819,1.77124224266182,1.77055159623479,1.77013405736845,1.77092672351479,1.72205897857582,1.69287398605972,1.69296187497123,1.76135782136732,1.76090332323215,1.76045309201736,1.76032265697578,1.7603855856748,1.73007032533117,1.7161472942893,1.77352488056935,1.77552081420453,1.77583542624391,1.77725115493765,1.77812038005509,1.77903634896094,1.77952353018909,1.74929573370485,1.74413230103279,1.73711057688978,1.72925394101793,1.74387221220194,1.83796539948554,1.83894496490763,1.84068175303295,1.86927310552803,1.86878337382697,1.83363481546434,1.83337490117622,1.83354275956456,1.83402241137919,1.86543032245338,1.86505308834786,1.88095334464823,1.87577870583297,1.87401810797733,1.84303110622015,1.84297105572484,1.84320223312576,1.7840453503716,1.78427544932273,1.8660783873598,1.86670963882144,1.83995277804834,1.83969056092979,1.84002503517606,1.863472474881,1.86312562779096,1.86981877216125,1.8673225488038,1.86871317268634,1.81677645468918,1.81775523848281,1.81891288202123,1.82002481702485,1.82013002129142,1.81912119432894,1.81779198914811,1.81711125757034,1.86160522426944,1.85947153131269,1.85798025924605,1.85722694032721,1.86072301094363,1.86101140797941,1.80832420315714,1.79872611222597,1.77679504605082,1.77514851862345,1.77437303679766,1.77292938559701,1.77377243268157,1.80670452362288,1.79708928996738,1.77569656043015,1.77440242026907,1.77508688717982,1.77244251708421,1.77451446244558,1.77425459187164,1.77574217714292,1.79167566365302,1.80214791020325,1.81955689038886,1.81437997227615,1.79784742020863,1.71826984640492,1.72806551504943,1.73843010055174,1.74562249188132,1.77354548428801,1.77135296006743,1.76986361212099,1.76875051171515,1.76549896553523,1.76473233934038,1.76483376323726,1.76479747601599,1.76495980999944,1.76439843301674,1.76265945171475,1.75949632419524,1.75811467321217,1.75845901126032,1.76126500276067,1.76216765364959,1.76164818189389,1.76108235320242,1.76058558227398,1.75886274758685,1.75821833810248,1.75821919425385,1.75910319286927,1.75968581799,1.76195452903228,1.76498544144122,1.76855000906821,1.76637492235646,1.76481332006729,1.76443756086344,1.76465929537724,1.76467082509897,1.76705179948112,1.76833555553264,1.7670300389728,1.76460048859497,1.7658567557419,1.76460957409854,1.76541808372828,1.76828142598066,1.76683603221308,1.76508564040966,1.71289256743527,1.70269014556959,1.68210026576977,1.68091955583714,1.68295111420973,1.67983975799874,1.68146840675902,1.68017990826934,1.68141803944468,1.68072682173942,1.70938253705642,1.70299654836479,1.70216458233692,1.64931200139324,1.63250812095337,1.64705718277638,1.67496584578653,1.67469876923714,1.67450879287614,1.67382137298198,1.67120106301988,1.62183910057599,1.63896961373623,1.6643788168931,1.66428111348905,1.66370106743033,1.66480508275671,1.66533994527814,1.65645268586337,1.65594545741577,1.65667311236253,1.65815157750479,1.65961177088062,1.65962228782114,1.65932245588194,1.6591455639843,1.65923167816165,1.65843721302715
1.77379459863919,1.77419060796621,1.7739291017792,1.69478001389307,1.90109000277215,1.77208109915595,1.69254694739496,1.6923697180423,1.69290068139189,1.77115862015275,1.69278286724416,1.69163429243953,1.77308342941199,1.77445714394818,1.69551000668699,1.69522199907557,1.7754619908426,1.77731328504803,1.77970399953469,1.78107852194214,1.70318143896084,1.7038363006116,1.81506000277215,1.70904002346816,1.79361167232898,1.79617833911323,1.72001918346206,1.81417780885545,1.90787999594987,1.87994000138608,1.78538518687615,1.86446517054536,1.86255530102383,1.87611357635644,1.86741851513195,1.86645602414197,1.87043877215298,1.87200296114256,1.78843699231441,1.87405600888025,1.86540966523941,1.86467749855394,1.78578971283614,1.86149571596683,1.86177114478874,1.78486070569763,1.78513235627001,1.86167642209127,1.86112308798339,1.8620974350599,1.86236194144819,1.78266484698747,1.87900691342242,1.87257190298874,1.86253675663675,1.86058007073259,1.86125299850293,1.85879488145634,1.78479800297991,1.78409752302216,1.78299378066123,1.78281060806059,1.87001000277215,1.78350423960982,1.78149683522923,1.88634999629192,1.85829052286387,1.85714365541238,1.85754957350597,1.78176309934748,1.85838000365858,1.78009385009152,1.78014707961794,1.77880981508956,1.88408999613928,1.77645768249247,1.85767001091161,1.77658544052296,1.85117857987652,1.85051572146287,1.77511356203867,1.77666125212833,1.77268415195581,1.77348434787006,1.77295119769025,1.77805616220581,1.77667130373626,1.77563383066122,1.77347320046974,1.88247498500873,1.8026475743297,1.80143942178342,1.70818016439643,1.7840048728305,1.70158001991305,1.78040315740617,1.77578627288927,1.77476272758482,1.77233405563407,1.77201393775443,1.77098278550198,1.79532996219152,1.76584848358587,1.76588900296863,1.76591858641729,1.76623090332795,1.76701704056508,1.79262997963448,1.68574000791527,1.75909096343045,1.76379671308205,1.76353158503032,1.76289567635358,1.76002098800086,1.76230060805478,1.68235000068331,1.78268984354058,1.76171334489101,1.7612065130968,1.76021798747161,1.76115203628141,1.68208000733394,1.77797966836814,1.7630210063212,1.76399793532406,1.76346134761143,1.7631159491214,1.76297788480161,1.76566421154953,1.77034755455962,1.76838644054782,1.76261468825521,1.76868291903173,1.76303698893991,1.76883614598917,1.76844241273703,1.6820900066567,1.76393690838534,1.68462558878454,1.68404054190366,1.6806106602998,1.68642929414209,1.67961831154331,1.68532076983252,1.67727868169515,1.68151219480211,1.84026000277215,1.6815512802345,1.85950500641374,1.70632144678108,1.70377090005737,1.68849743764411,1.60384001257226,1.68334041800327,1.68281616602781,1.67621684058059,1.67501094132262,1.67400238820949,1.6727513529866,1.58713828400947,1.58637142701641,1.69320997400468,1.66444368893979,1.66458749271294,1.6632143542806,1.66519892373247,1.65755284984243,1.58440999722765,1.68896857221995,1.57945406687626,1.660927312278,1.57967499792108,1.66038721732434,1.66043849010647,1.66078298899335,1.65924904181904
1.77452815168683,1.77298807121154,1.77262012099752,1.77294723387634,1.77360926306344,1.77176878309117,1.69236680494214,1.77131055334656,1.69338627280358,1.77096727364141,1.77161545541169,1.69294285924189,1.81544000277215,1.77541942941199,1.69535805091618,1.7781817367724,1.77386111879039,1.69738999722785,1.77931852194214,1.7808044515244,1.70389228968138,1.78414461609842,1.70908999722785,1.8128683285085,1.81294166190997,1.71677666458755,1.81187723723385,1.80319784475207,1.90827999601036,1.78608441518491,1.78512904373792,1.88267873859162,1.87220269893127,1.78563957306866,1.78472087928265,1.7850578097625,1.78520610172131,1.78648326262989,1.78793013930698,1.78871933933216,1.87960837147353,1.87930754293701,1.78625639933903,1.86080314478874,1.78479136194142,1.86348656148385,1.786334467337,1.86299245612966,1.86382368420149,1.86423592057394,1.8759025964675,1.87503594602042,1.88009387532787,1.78589999722785,1.85950433748979,1.85956690080902,1.86643540232115,1.87572887502346,1.87503797085013,1.78473760197443,1.88078983863736,1.87022788683892,1.78550999722785,1.87073414980119,1.8801477466042,1.78266937189603,1.78221569543348,1.87240978758926,1.85597451991116,1.88591873329336,1.87897125830893,1.78127275787466,1.86839000277215,1.78045098451887,1.85144000833328,1.88370997583159,1.86802999242387,1.77792511787052,1.85243572591656,1.86433379077342,1.86636083730623,1.77489287587525,1.77603088561106,1.77425593985951,1.77833619495712,1.77507468613659,1.85379000994039,1.86762008957023,1.87497364494181,1.87292809943033,1.88007317236834,1.80065973459173,1.88959000277215,1.78482488716662,1.77681932954317,1.78016687162561,1.77842291179231,1.77502556330274,1.77388012325368,1.77261322174458,1.79910996655353,1.76643984509879,1.79609996805632,1.68934999722785,1.76488481283799,1.76323189276818,1.76321456441903,1.76471965903042,1.79233998092513,1.68471999722785,1.76205047006758,1.76155615533103,1.76185041437345,1.76283196432764,1.76359794090248,1.76113303124529,1.76600889489388,1.76193741314942,1.78190987678911,1.76204121499181,1.76111331494491,1.76239127121919,1.76293613350492,1.76265343918915,1.7622796548678,1.76226224626017,1.76405798874613,1.68243833125422,1.68299166458755,1.76315894128469,1.76732149892904,1.7725655313855,1.7625623280483,1.68389185862538,1.6825792682393,1.68377185862538,1.76766050144565,1.68605437282637,1.68282810427291,1.68364172273918,1.68523197279359,1.67933259126588,1.68687554489663,1.6764633361652,1.68449576072627,1.67666683980241,1.68178354560143,1.68086133639715,1.8593650062899,1.61907223838134,1.61301775746043,1.68876714769685,1.68810543031877,1.6014715592783,1.68184493989642,1.67718364200864,1.67357593374193,1.67323441762231,1.59087999722785,1.66689585100311,1.58557028381808,1.66642201762971,1.66608836988701,1.66307581944296,1.66547722792307,1.66310172147576,1.66229412756525,1.69036856329832,1.69008285421194,1.58087034142344,1.66122586064528,1.57873499792108,1.65985413902276,1.6874099765129,1.57880999722785,1.65966549682883
1.69574999722785,1.77596326422207,1.77224215892429,1.77168271372078,1.81805000242436,1.77317924806013,1.77234387919754,1.77144470250211,1.76935989785786,1.77421326267198,1.77274295957358,1.77272117252312,1.77412619064665,1.6957916734942,1.69563829447024,1.77725770679375,1.77808666308984,1.77853629452683,1.69982449117865,1.70395691848243,1.78376178447722,1.78477363039088,1.81051998629049,1.70970860169035,1.79422000645579,1.71684333125422,1.79610149763885,1.81262916593507,1.89006466099761,1.86316000138608,1.78620044810281,1.78641842122413,1.87242102330876,1.87208937352954,1.87294273715116,1.786698790475,1.78671528853522,1.78567223614898,1.8789682331593,1.78746906938156,1.88071420956699,1.87928175829383,1.87316094012924,1.78630261541107,1.78597168681292,1.86906344267438,1.78682232422563,1.87976986193626,1.86204974728279,1.86082036446011,1.86125765535053,1.87107242557047,1.86890602228387,1.8773626007512,1.87649591533881,1.78634446329366,1.78599454303347,1.87166958227462,1.86887935174198,1.86906605613644,1.78540045990705,1.85970878013144,1.89006986152869,1.87843822372796,1.78594999722785,1.86688824954975,1.78466903396557,1.78431488439371,1.78224752952896,1.78065894298766,1.85594922656808,1.85463238002425,1.77815999722785,1.865602649651,1.78001999722785,1.85431285112275,1.85343288771702,1.77731631512717,1.77857459708616,1.86987534249864,1.77671104110773,1.77690646889479,1.77360187403394,1.77837793867342,1.77394448397418,1.7742421164681,1.7758757227421,1.77551259731337,1.85459014944138,1.89964665560375,1.79628400773753,1.71094756751004,1.70652009502278,1.70588574707796,1.70242658345883,1.77929703158422,1.77758683364131,1.87218000277215,1.77381886875042,1.77194336846207,1.69173999722785,1.76826043622847,1.76903841392218,1.76635184955299,1.68678229442787,1.68603144117752,1.68584634029085,1.68616660820619,1.76231820664544,1.76213054645305,1.76333915441744,1.76198672709736,1.76293828408363,1.68480499954839,1.75924001186224,1.68437833474452,1.78282496641676,1.76368088969889,1.76316840911314,1.76255633218151,1.76383917845127,1.76255955716432,1.76325131385283,1.7640877196482,1.68354428378269,1.68428142689031,1.68234428378269,1.76200112827748,1.76303308868762,1.76321395434853,1.76429533281354,1.68244999722785,1.7708519093352,1.7697581723726,1.68307112423104,1.76602050144565,1.76598250130257,1.76583650135043,1.68551871706541,1.85829567460711,1.68115414943733,1.68604273869831,1.67804456074672,1.68322004231725,1.67627364439715,1.68154000375131,1.67886113663594,1.68649610453023,1.88288999284067,1.6995724744956,1.70442740979806,1.60649227219656,1.60660511245097,1.60555729865719,1.59777171377127,1.59737174662879,1.67368021193129,1.67383992334716,1.67094595713205,1.66830732565777,1.66687040255052,1.6927372893358,1.69339559447048,1.66310778654287,1.66219276160953,1.66437809576981,1.66217553007863,1.66075716638436,1.66093988353334,1.58060798848219,1.57873759628811,1.66075247266616,1.66128937928297,1.66054298229058,1.65935122658387,1.65950301916937
1.89229000277215,1.69565372816239,1.69626760870087,1.6958055250162,1.69573676686548,1.6957811915369,1.77275366113313,1.69425667630502,1.69372334297506,1.77287034274194,1.69252000870709,1.77398931772907,1.77448135661099,1.77507309932035,1.77633149388217,1.77710155865387,1.89299000277215,1.81663000138608,1.7785058493702,1.70366318045042,1.70519544293043,1.81418999105944,1.70886098437696,1.71037809235074,1.71336242927339,1.8170491471182,1.79739389164554,1.81690827512549,1.89880535397254,1.79062626387952,1.86712454571898,1.87179922007572,1.87564149235476,1.78660251257391,1.8621700423449,1.78983151943148,1.78615230297891,1.78591876821653,1.87467177099893,1.78864899945826,1.78684167892719,1.7871941065029,1.8833271667886,1.78572297334757,1.86531000277215,1.78619539082284,1.78639949261451,1.78747727366815,1.86214130155902,1.86215194530994,1.86180036132726,1.78574664320383,1.8622100079477,1.78645265039889,1.78616691071326,1.78615786947219,1.88254000277215,1.78512841028396,1.86973805613615,1.78529438378528,1.78545879480218,1.86927175464935,1.86989172281586,1.85641510775379,1.85603509078151,1.86672160381291,1.78534849249947,1.78352204396527,1.87510000277215,1.78125438514525,1.78173284527944,1.85883163090773,1.8572228924082,1.87319731054161,1.8566429344631,1.87298984295919,1.8532931206904,1.85415866206546,1.77795293339114,1.8554300118683,1.77658089842081,1.77700903408069,1.77761512753081,1.7750622542014,1.77756159519669,1.77522259014834,1.77770397528605,1.8654927608391,1.86881711313846,1.89335333357826,1.79920652802641,1.79838794371663,1.78671955209858,1.78599978418382,1.78118736040476,1.77865099438376,1.77710111247217,1.77624701724472,1.69434834777308,1.69402168114073,1.79626998905411,1.77033926346582,1.76883490713447,1.76934916978173,1.76593264753025,1.76588338124242,1.76571700547224,1.68607332032695,1.79273999172867,1.68408686775724,1.68383429801654,1.68339887133522,1.7628557696775,1.68346499952832,1.78717999437437,1.68377166804,1.78324495920706,1.68128167459067,1.68124834125814,1.76490525126486,1.76439950158057,1.68559000353796,1.77797893492323,1.76218860188315,1.76134853502295,1.76178869674235,1.76085799968639,1.76397263395571,1.76343510797494,1.762882323543,1.68390000111698,1.76691463457542,1.76462427407463,1.7636859524432,1.68484747137719,1.68433370084645,1.68259473881899,1.87147000277215,1.7605,1.86500432955112,1.68386301237224,1.68132080457273,1.68616541221186,1.68152772862826,1.68438587790832,1.68106604718282,1.68117675424071,1.68080119454053,1.63640998571724,1.61932001013669,1.69226176086927,1.69106926016169,1.60736866342018,1.60354162251707,1.68050675254266,1.67758136656423,1.67281810142248,1.59509999831132,1.67086798703149,1.66842617511959,1.66670588677985,1.66709054763757,1.69587271076946,1.69552434934842,1.58355833273099,1.58295166604939,1.66209702788647,1.66121148608297,1.66114956086185,1.66010973786644,1.66051582928317,1.65996034583517,1.68623997766799,1.57969001186547,1.65843104079416,1.68288997580416
1.77272961920533,1.72570711714202,1.69666855609662,1.69673194059273,1.71763930734631,1.72947579533081,1.77653129589504,1.77942182466624,1.78079031786618,1.77535256799277,1.77366087946413,1.77376149363354,1.77387903189792,1.77429658454431,1.77549537390284,1.77501123169987,1.77353389022097,1.77327228882873,1.77340240892646,1.72585400995159,1.73703510827154,1.74569995923193,1.72596723765456,1.73502358010526,1.74496422629582,1.81543506563025,1.80937202048053,1.81478209117869,1.81692814273216,1.80515910227379,1.81262778090962,1.82181731746414,1.81350387419449,1.80442786966035,1.81659272945543,1.78614587604864,1.78328653245798,1.78268113687563,1.79568105791437,1.79438293011452,1.79324949902148,1.79374371034625,1.79553007986895,1.79699988482763,1.81533008031773,1.78587224483031,1.78579285609866,1.80019876119275,1.80346859638649,1.80933511120748,1.81531551360725,1.81878443504541,1.82060371741039,1.78702781568801,1.7866516259613,1.78669659568292,1.81550848969855,1.80690075144454,1.82602545394153,1.82798648507497,1.82995529304018,1.82990136631161,1.82778523966791,1.82559528900551,1.81312504738117,1.80474540499152,1.79478561618152,1.7988390659164,1.80469374297592,1.81065193892612,1.81437122100444,1.85973415181148,1.86255370757249,1.86106939817981,1.86024303257746,1.86193594409641,1.8646036770621,1.86422648749836,1.85757764400655,1.85771388052431,1.79983593629983,1.77810939384,1.77719310954,1.77788777100996,1.77652035401361,1.77730907167178,1.77668939538829,1.80130350657248,1.86506978824344,1.86803918858334,1.79576752244398,1.79382067559358,1.79002906616521,1.79073835508472,1.79279676272249,1.7732353648766,1.77220397488527,1.77155583794655,1.71879153773136,1.73171393382457,1.7672477990148,1.76812280000519,1.76744379153231,1.76773363257084,1.76706935164817,1.73303000278706,1.72868757873079,1.72251747641669,1.71523590491535,1.70781170042237,1.70181055890258,1.69700229611594,1.76601424083624,1.76842040888803,1.77495114138987,1.74974193043758,1.74951070786756,1.7493970693952,1.74960626298494,1.74989665259151,1.75903261919836,1.75882064401075,1.7597533405987,1.76117814488979,1.76073921610368,1.76032923425538,1.75900150045213,1.75967456919326,1.75982437353285,1.76046019924882,1.76280824485177,1.7643596997085,1.76221345102353,1.73910968634449,1.74003034433552,1.74107524984617,1.74132656293377,1.74040936177184,1.73880073311911,1.73759820807345,1.68305376674357,1.68339020620649,1.68362506195864,1.68347834477603,1.6825371063392,1.68278355968841,1.68080835778179,1.68168733978382,1.68926032894948,1.68953929487878,1.69030665346953,1.69016986694511,1.68006649918111,1.68003097075319,1.67992534277065,1.67716482085782,1.67187556228831,1.63415606925565,1.67021151646506,1.66917557100654,1.66754245079042,1.66721762853542,1.68183657131632,1.67558832989108,1.63379722722192,1.61618875619427,1.66075063998045,1.66013683696101,1.65933314142642,1.65879844978579,1.65864426890025,1.63314465280706,1.61941667102087,1.60839820379639,1.6592378853533,1.6593981602032
1.77523681339018,1.77220711346004,1.69639211688476,1.69710963654096,1.77548340633095,1.7751857808866,1.77530944628802,1.776237528535,1.81699000138608,1.77443619202682,1.77320535302838,1.77414419389553,1.69663923188586,1.69760784274099,1.7773686365201,1.69868333716134,1.77826887747043,1.77836008957101,1.81385998690949,1.70537008249084,1.89682000277215,1.81587000138608,1.70995834305847,1.81401979917423,1.7958802762421,1.81625593261419,1.79864732005705,1.72685003930752,1.91397999014723,1.78822394084038,1.78742404200889,1.86597000812389,1.78911612580475,1.78680343413746,1.87366000277215,1.78737188738155,1.86565000277215,1.78636665540559,1.78742806308628,1.87919986599482,1.86581153295201,1.87044801419269,1.78948012458692,1.78936995438029,1.88007333541245,1.78692530782471,1.78601386735207,1.86202344425719,1.7876198932816,1.78626958085798,1.78656499729326,1.87186070756306,1.87258737681857,1.78807165322615,1.78719693381003,1.78730527076935,1.86854099931287,1.78728002529915,1.8627748521914,1.86570746800187,1.88370759089051,1.7854145216845,1.7847653171868,1.8669072218312,1.78629370260736,1.78341597754094,1.78314422536591,1.87940000277215,1.78232657614587,1.86771191029812,1.87218825393898,1.85889753898177,1.86829599917051,1.85739326704895,1.85893401640504,1.86009236234058,1.8665424420823,1.86680923831811,1.85639948992669,1.85599715402748,1.85646338582198,1.77677354660963,1.77991543138263,1.77532680133852,1.78055216577523,1.77463495664651,1.77612745070088,1.77729552294581,1.85725103993143,1.88436162244134,1.79477178550911,1.79163920584697,1.80670636696275,1.87490166874578,1.79961408418357,1.70131001439339,1.88222833541245,1.88054166874578,1.69514002533102,1.77242898813362,1.77071262015485,1.77037822696357,1.68941000508176,1.76838379948116,1.76833204962661,1.68721167472051,1.68557834137204,1.76317139935398,1.68490001469966,1.76342333541245,1.76235666874578,1.6831300332092,1.76558382253467,1.76494271274908,1.78653994433193,1.76365002152951,1.68465001398675,1.76271000576864,1.78542998155553,1.68380171438892,1.7863899907779,1.76207427147125,1.76185090550373,1.7630625164288,1.77822564025489,1.76145459433822,1.68606500390965,1.68436500391751,1.77440618801486,1.77320229971712,1.76618719057092,1.76745496566648,1.85088000277215,1.68547000224892,1.77022566833606,1.76206493547592,1.76188219973858,1.68412001016866,1.68528001017629,1.76661000277215,1.68220786902619,1.6845156885671,1.68310395793506,1.68444541292887,1.68405629840149,1.68454790410033,1.68004223258869,1.68391813205978,1.86594741755583,1.70649166161088,1.69472794997983,1.70369336564947,1.68293569359688,1.68158985574256,1.68032810473523,1.67641215611092,1.67243622181091,1.59304999722117,1.67217807995273,1.67018655618909,1.58599999722772,1.66733755950938,1.69732998673676,1.66557389822345,1.66287045002402,1.58439833363501,1.66085351275606,1.5822399972276,1.65870195274955,1.5814699972277,1.68794999113437,1.58176014377388,1.58196073376011,1.58090247849944,1.66075663936038,1.66133152773786
1.69890062628694,1.69755612301495,1.77262357765897,1.77413176316444,1.7750393440917,1.7759367395897,1.81624999792583,1.77515482346111,1.89215000277215,1.77467990504865,1.77513784570873,1.69516551465253,1.69754756931343,1.77463239546291,1.77721288892192,1.69749667056014,1.81693999678368,1.78008550902387,1.78064393637023,1.78173829658704,1.70623999722785,1.78641000138608,1.71046969414435,1.79093835691601,1.81716329545602,1.79776434033413,1.79773300406556,1.8168799998045,1.89084703088779,1.86973630868219,1.87148972270736,1.88083663024808,1.86394000559274,1.78781842370338,1.78873109205754,1.78886669072439,1.78805753901121,1.78822779691635,1.86499008511326,1.78692999792088,1.78780999792088,1.86770904643504,1.88315777026783,1.78803115391885,1.88156666874578,1.78909025564013,1.87611981674463,1.86179675151631,1.88214805044942,1.88036675889804,1.87190995942667,1.8618820382855,1.78854378609021,1.78852520360402,1.89337998107985,1.78712383330467,1.86934896396622,1.78713997700434,1.8693199790605,1.86811929952417,1.87951195577439,1.78715867161589,1.78676690183887,1.85928299791814,1.87707988846284,1.78377735801896,1.87900123092957,1.78599475191641,1.87327826768049,1.85806023631318,1.88246974284531,1.78316999722785,1.88659996688838,1.85693837604708,1.8572128098423,1.87977996242427,1.78115691513645,1.87214663828572,1.78032370846395,1.78058997319382,1.77897841385754,1.77900196343406,1.7761577142023,1.78007422949875,1.77515184080119,1.77853380147824,1.77460554752092,1.84896012716392,1.85675581073559,1.88971789001762,1.79403050654876,1.80299087213091,1.71000722388088,1.87546833541245,1.79986020448582,1.79943568456759,1.7998924119334,1.77549426011661,1.87212000277215,1.69309999722785,1.7707536190633,1.770042907102,1.76871653963602,1.76841128553606,1.76839386743046,1.87202000277215,1.76640591525439,1.76583270019751,1.79098999073843,1.68357833125422,1.68409166458755,1.76280856531873,1.76435130344121,1.76377480044595,1.76484577257123,1.78501988875578,1.76433921787744,1.68288999722785,1.7670201927822,1.6828085778346,1.68344975573401,1.68264995239889,1.76293539755561,1.76262655359461,1.76419364957489,1.76300465020815,1.76427375833677,1.77651430160531,1.76404471966618,1.76293029398682,1.76930233981473,1.68516999722785,1.76511390962902,1.68447000229584,1.76901233918486,1.68381999722785,1.76663521366495,1.76794993293733,1.762586338569,1.68396891529658,1.68515533969737,1.68192377591423,1.68587204106601,1.68212079398124,1.68154487412432,1.67893524420403,1.68335161595117,1.8520400141216,1.85990309023585,1.70653832822061,1.61307999792088,1.61239999792088,1.68476147896375,1.68496319607683,1.70221989489392,1.59912666458755,1.67435172403125,1.67879936563986,1.67871396176653,1.69739991037374,1.66805171999084,1.66781512773987,1.69604998660769,1.66530675225547,1.6641990656069,1.58379166699244,1.66361022976601,1.66406887943105,1.58040999722785,1.66271062068743,1.66255429766413,1.66169495453898,1.58150247851813,1.58061416219928,1.6611541538136,1.58185999722785
1.69860412301495,1.77673463219193,1.77648955284166,1.7771211389168,1.69369896976528,1.69734354688671,1.77552999217229,1.77562300006157,1.77500898329003,1.69327999722785,1.77337647781349,1.77421039255824,1.69706820581006,1.6966216494453,1.77750112780361,1.77819877291142,1.81765999680988,1.78110975575478,1.81740998058399,1.7823439668145,1.78564813498022,1.70844336819575,1.70969869719931,1.79289169026121,1.81669662543552,1.79871244690907,1.72320999722785,1.90805680985155,1.89251786300829,1.78960298088134,1.86741554836039,1.86791536845959,1.78988999722785,1.87785000277215,1.78879496347092,1.89235259311288,1.78896160440657,1.88278981788542,1.86836014939053,1.88519990826323,1.86524300712289,1.86540761145413,1.88318841061031,1.78849934353383,1.78862279039707,1.78921910298696,1.78891458155873,1.78920805920489,1.8727719255026,1.88036305752314,1.78712822800548,1.78540851544025,1.78600698504586,1.87629441478393,1.87377966677688,1.86258401509409,1.86369062958076,1.8629313667834,1.86238628255343,1.87280281991492,1.8709241893355,1.86257299036271,1.78563744776319,1.87617905151231,1.78599999722785,1.86884412712809,1.87189281584648,1.78143524392536,1.87343157941138,1.78173666458755,1.78148333125422,1.85852066744592,1.86474476118494,1.86959946388019,1.78078999722785,1.85807002643143,1.77992034289441,1.77939878638894,1.78009952707179,1.77962370846395,1.85616681757232,1.85148752824677,1.77867642197345,1.77691985893024,1.77970158353415,1.77708289750396,1.77629278278437,1.86863981200753,1.85107785091871,1.877680962219,1.80262493790311,1.80241115246755,1.70729277196089,1.78584823112699,1.78245629640869,1.78194690176743,1.78117727065584,1.77669998238199,1.7997199897557,1.77252000138608,1.69329999722785,1.87248000277215,1.76863753099343,1.68984228815636,1.76901791814995,1.76591816769172,1.68450465660484,1.68392328371961,1.683595047923,1.76511718171923,1.76451340791321,1.79116997695707,1.76230889852893,1.76343036053958,1.76230522082758,1.76246005660029,1.76404530743108,1.76337669916146,1.76825172451828,1.76088081456606,1.78202996354857,1.76335735010304,1.7623458905615,1.78222982349832,1.76395564956111,1.76440552637408,1.76380595232347,1.76418936357592,1.77386864738669,1.76446227113851,1.76437185240545,1.7632924529211,1.77140893585862,1.76424959918957,1.68525999722785,1.76922000277215,1.68537999722785,1.76303743766454,1.76394514051805,1.68583106151573,1.68452803231352,1.68542793383796,1.68262406110362,1.76876000277215,1.67446208290691,1.6794071817324,1.68228979502739,1.68224613580547,1.86897909544494,1.62289999722785,1.70415645098212,1.68985657503898,1.60619999722785,1.68317041563652,1.68240361998038,1.59831333125422,1.67459300475827,1.67428470380055,1.69870994951165,1.58812999722785,1.67070097491589,1.58786571444953,1.5879251411058,1.66432820768699,1.66447357387187,1.6639471201472,1.66377413411805,1.69208665809125,1.76740000277215,1.66274441985541,1.58314271672698,1.58482934579954,1.66236424127656,1.66217217730988,1.66185112494714,1.66296200137379
1.77603161671557,1.7755391517104,1.77593425211721,1.81646000216056,1.69481748928854,1.77665000277215,1.69504001170271,1.69512001171688,1.77557115401806,1.77544701415078,1.77381642947188,1.7747470693574,1.78086406762687,1.77519117559772,1.77663989433398,1.77766337874561,1.77816082814839,1.81702998145837,1.78233597162448,1.7822789950392,1.78637045112687,1.78718587286173,1.8196968347754,1.81804758890439,1.71595002733469,1.79980402791681,1.816657602207,1.90372744932668,1.89859086500942,1.78938909793236,1.78891789293766,1.87597434793269,1.86888207106719,1.78856760033312,1.7887919160731,1.89064592555728,1.88359147520311,1.86461004506812,1.78831691617798,1.78667450385479,1.78795333018734,1.86653100544991,1.88385338409826,1.87609037677767,1.78861581482247,1.78957436983377,1.86482577862288,1.86975241796746,1.86244990403802,1.86874203179161,1.78655679930517,1.88431000277215,1.78903504092243,1.8730666016235,1.87982933357588,1.7879191606575,1.86729178537466,1.78659710840503,1.86843974354549,1.86283801485757,1.78696119019156,1.86212051260084,1.86135435201081,1.86547421426906,1.86187886757346,1.87657366538148,1.87108814660637,1.85795000693327,1.78481487518117,1.87499936818416,1.868027606314,1.86550893115291,1.86118667526008,1.86032070659252,1.85933576192961,1.87862997229493,1.85645000449555,1.78269583629335,1.8595452195017,1.85535307204251,1.85453216277517,1.85554470782881,1.85615473167519,1.77971735503074,1.77740360292946,1.85454000277215,1.77822859568387,1.77752740021705,1.85054204011511,1.89051952696287,1.79200469122241,1.79266868918977,1.79023429429585,1.80013115286061,1.70571396690549,1.69902607108808,1.77854297030145,1.77773901085747,1.77188528773027,1.69411001350915,1.77057073778699,1.77269926498516,1.68998630289363,1.68953143847914,1.77157168281982,1.68761001668823,1.76538470108607,1.7653220473845,1.6838070082749,1.76436874101352,1.76417249959366,1.68594000811467,1.78970165516752,1.78902832181362,1.68537000322149,1.76369125923867,1.78602996423444,1.76208443852871,1.76185973367827,1.76027805795291,1.76172151275783,1.68352168201349,1.68508834854578,1.76555367359059,1.76434153329054,1.77973013007249,1.77925011123845,1.77938732586167,1.68488000577288,1.76457676942882,1.76343810480598,1.77496956020926,1.7625501225958,1.76224646446234,1.84894000277215,1.68170000362758,1.76522866164733,1.76525880038673,1.68611429341958,1.68625289317646,1.76247881370951,1.7617821112297,1.68469814584255,1.68359112785244,1.68357155502707,1.68297437713309,1.68339632733648,1.68108164235214,1.87488039095824,1.70878265188157,1.70607873721848,1.69073553195223,1.69299810589101,1.683475730774,1.60333999722946,1.70280999481441,1.59650333126126,1.59535666459482,1.67160655862869,1.670334982554,1.67139755901957,1.58654914503,1.6661199938118,1.58568000436181,1.65962286203475,1.58544499792073,1.58542499792073,1.69207332493084,1.66299673799922,1.6628303100473,1.58168931676969,1.58141019043874,1.65992810987547,1.57963999722778,1.66071142552876,1.68479994284835
1.77468452130169,1.77429686299935,1.77503666361028,1.7746426749116,1.76854337546792,1.76846452079152,1.76842355665373,1.76844464503038,1.77626672405864,1.77622813329866,1.77549473590957,1.77526221345452,1.77485914792775,1.77389760403907,1.77479439002156,1.77587809190166,1.77750082970043,1.77889316960846,1.78098677564379,1.7826606556644,1.78373721068231,1.78273694331887,1.82138345790319,1.82130051813518,1.82141504494113,1.82082775778961,1.81913111659431,1.82594463227012,1.83026824780853,1.81177051380565,1.80362877351853,1.87014357480036,1.86971596820903,1.8350781068153,1.8352340798725,1.83464513040711,1.83263742126929,1.83071857674437,1.78713927402036,1.78398138667754,1.78445799798296,1.81469566258812,1.86971343177834,1.86953336526773,1.78811288400863,1.78826360375225,1.80891336390191,1.81746220075726,1.84022327367539,1.84006703326759,1.84096179619175,1.84231825383905,1.81087527024553,1.86921563511924,1.86922555494415,1.81120375986049,1.82187192594966,1.81677594893806,1.81109473566822,1.80491818634236,1.79987213973629,1.81163506034487,1.84609017140319,1.84613682534085,1.84653219065258,1.85815068119353,1.85873498121345,1.86039578291711,1.862990538138,1.86587208782053,1.86816316160487,1.86929484460181,1.86824764614173,1.86658441567659,1.86315042376109,1.8386117394572,1.83839769266692,1.83864067849172,1.86339120625453,1.86132811440615,1.8119764982203,1.80661339098284,1.80015250266206,1.79412624894724,1.77600461083369,1.77500412341889,1.77596193036328,1.80315658170536,1.85881466374419,1.86337047198821,1.79385113044561,1.79109447500448,1.78863072269927,1.78617276684855,1.73605193406756,1.7243497724049,1.76555471580292,1.76531117044269,1.76515778606651,1.76530950434405,1.76555969639921,1.7224592282065,1.71029410533661,1.72161973904514,1.73393809634639,1.71956150753184,1.76548820198579,1.76473519464604,1.76367171510716,1.76344112007169,1.76386577778406,1.76408926991153,1.76352645063561,1.76292218302344,1.76221650375003,1.76273078444566,1.78265107084213,1.75905132019366,1.75988727210443,1.76137341370991,1.76219633906633,1.71841219702403,1.70284669263001,1.71353142767523,1.72369545028689,1.78012560512203,1.7794313315752,1.77846677958091,1.77715469155024,1.7769190964923,1.77573101069285,1.77504291713455,1.75933981491776,1.76042385647521,1.76972606764855,1.76865816731491,1.76843691420892,1.76884861272446,1.68672308394994,1.68680535983626,1.76025507612326,1.7614123358363,1.71295062642374,1.68437996910463,1.68395782376066,1.68421302126944,1.68341082891615,1.68403088469427,1.72435129973799,1.70718441650647,1.70628212581978,1.70021784387549,1.69734564570615,1.68113395628699,1.67854305467097,1.67695375190872,1.67504855387156,1.67415251243169,1.67234702897898,1.6712277380375,1.63377574835911,1.61653050943821,1.63447341565291,1.61969679075664,1.65896973661453,1.65912985298864,1.66040261879929,1.67492761856805,1.66294623208605,1.66274699025997,1.5817389407539,1.58176785540165,1.6575166795065,1.65678579502305,1.65834536894492,1.65944495663066
1.6995138291184,1.69620857687348,1.77650505281231,1.77522665627824,1.7754902964136,1.69676333992217,1.77649460446142,1.77622256280468,1.77604237879421,1.776629718417,1.7753802898886,1.7753702003902,1.69676772383495,1.6971585777616,1.775174797052,1.70070001444352,1.77892301418739,1.77979143631596,1.78133436466018,1.78569343283085,1.78635057749165,1.70765200922427,1.82038025142293,1.79240871219811,1.81850295061548,1.81806369926354,1.81772799496738,1.72696302281289,1.90745990330086,1.87228003235527,1.79271790942687,1.88556992572575,1.86290338921916,1.86859608307741,1.8822510588864,1.79032750793603,1.78996082278069,1.88590000277215,1.79257058131196,1.86245000755381,1.78907148187276,1.78888701304503,1.87909979137674,1.8823044213322,1.7890812358068,1.78824361827705,1.78882145115183,1.78905574930726,1.87543000277215,1.78985877735883,1.87329098611325,1.86896777915595,1.78929054911129,1.87411982569767,1.86662131684316,1.79035145902777,1.86612740778446,1.86559331598532,1.78622048432224,1.7858452078338,1.78651746911557,1.78624041628708,1.86004000930886,1.78799284530056,1.78837073583792,1.89005998473567,1.78885961984084,1.87276809301322,1.87051477281733,1.87913713971376,1.78474902367265,1.87921000277215,1.78466707044625,1.86864997647803,1.85637380993035,1.78178892308968,1.78188566073534,1.87750425029324,1.85788445402885,1.85657839256751,1.78280749084891,1.77847307454975,1.78037361231056,1.85054000277215,1.77840785424416,1.7776525845214,1.77763980828402,1.85115166768905,1.87145027660348,1.88993276193022,1.79595633729112,1.80146310932281,1.7093300215122,1.78585892104533,1.80158801890538,1.70234003828822,1.77732000277215,1.69762990556188,1.69668598129904,1.77202513907615,1.77023302905193,1.6913800182549,1.69086001813042,1.76604324281821,1.7969299986964,1.68665001550375,1.76524115334576,1.76425848391332,1.76403766767324,1.68639000894816,1.76430701393924,1.76471795776699,1.68636000134113,1.76344266688561,1.76250984566526,1.76393589654721,1.78319427888464,1.6850732958381,1.68086980411764,1.76333071232167,1.76296191469964,1.78132992518147,1.68631845416436,1.68615173497867,1.6853116288531,1.7787061808672,1.76104080436245,1.68547000655341,1.84747000277215,1.77823470062783,1.77352312091947,1.77316783325003,1.68656000289127,1.76258142029148,1.77030300337267,1.76889930538516,1.68617000979917,1.84390000277215,1.68689101127007,1.68698712751958,1.84342000277215,1.76452473249724,1.7647450074651,1.68494034895542,1.68451092994009,1.68470741504714,1.68418206831855,1.6850154174624,1.86151001402815,1.70636456825659,1.70633824983878,1.70355526534854,1.70312459255012,1.68237173066881,1.70424827615107,1.67854677761784,1.67538127537683,1.67469330934118,1.59403218426718,1.70061666874578,1.58895657081652,1.58790285719736,1.66837166809004,1.58620499879423,1.69552666776912,1.69643333444488,1.66250085084366,1.69518997891618,1.66280985324931,1.66230585386414,1.58140960913292,1.58203310915391,1.6887,1.86200000277215,1.68567998761889,1.6620794815128
1.77925675590382,1.69790617613293,1.69887408706021,1.69773274382528,1.77850750451209,1.69613667334659,1.82010000277215,1.69866999722785,1.77545790597141,1.69688537669154,1.77549358585126,1.77639570951871,1.77757169129967,1.69658371631486,1.78019066110853,1.77930724461153,1.77926776300723,1.70142333125422,1.70295666458755,1.7841296019203,1.70891599859622,1.70882000434653,1.78976001472761,1.71351999722785,1.79731002482596,1.81391896329424,1.72268071078846,1.72723002277974,1.89076009915282,1.86996002529552,1.86536874111068,1.86608497967811,1.86680245709657,1.79081833125422,1.88337773713046,1.86625573833558,1.88301880174229,1.78979321653246,1.79205031025672,1.87975296168298,1.79041372482761,1.88480349390409,1.78901269919474,1.88339064504029,1.90627998844669,1.7892826388542,1.87959759619845,1.78999666623271,1.79040263358632,1.87584153781736,1.8763951383598,1.88218320627855,1.88074314853724,1.78794999722785,1.86473275643204,1.87952911352323,1.86601001180914,1.89893939508774,1.86262004353548,1.8619800521396,1.78793170881199,1.87702925283934,1.87205324407718,1.78663268361218,1.78500812237098,1.87297794221856,1.78766804124947,1.78622179066528,1.78568467394664,1.78644953821567,1.78576013776487,1.78569640666121,1.7838926446913,1.78295661789558,1.78115507733338,1.7820872443022,1.87358776223182,1.87555791272135,1.85736127804272,1.8770098395079,1.78041373630646,1.78099782072725,1.77924893252257,1.7794185993395,1.77791354806795,1.77790729106162,1.77670463201499,1.85103833435435,1.87240314426903,1.89359708661599,1.79168980512864,1.80193801162523,1.78908669180833,1.8023482064323,1.78383539908925,1.80127765838417,1.6990506954017,1.69841343790072,1.77475000277215,1.69379902275069,1.76895299417029,1.76837258456767,1.77087495509179,1.77110407368968,1.69051999722785,1.76514349981288,1.79509997797855,1.76496946291073,1.79697533386254,1.76451000102351,1.68528999722785,1.76583355336486,1.68832000137927,1.76388498087624,1.76378770919753,1.76525883311469,1.76502422169975,1.68552690161911,1.76566314524641,1.76453887587866,1.68262999722785,1.76477285065461,1.76451649584386,1.76500702166444,1.68639823909386,1.76473162527414,1.6860779980684,1.76489000158096,1.77932157004183,1.76528267372442,1.76395700318141,1.68654999722785,1.77326581048036,1.76693347423861,1.76773303467927,1.77390679362543,1.76304687382466,1.68582999722785,1.7670093047673,1.68578733271684,1.68551049771537,1.7623698328519,1.7636865179887,1.68642668598931,1.68365989286541,1.6828575979132,1.84052000277215,1.68085406982633,1.87883999013008,1.70224041216763,1.69633040882367,1.69279293735356,1.69010372125936,1.68780706802171,1.70308161901999,1.59850999722785,1.70293942641533,1.67353435929283,1.59432170094001,1.70024333541245,1.66872000138608,1.58734057081652,1.66941833468212,1.58766499880306,1.66429000138608,1.58444555247744,1.58342716296844,1.58351743121764,1.66332756566739,1.66236153415666,1.66241568341194,1.66145665098568,1.76536000277215,1.68927,1.58292999722785,1.6828499832819
1.70094535555059,1.69976509358197,1.69849216699077,1.69837412368584,1.698003425625,1.77782000138608,1.69880333658913,1.77839000138608,1.69869014931962,1.69774687367574,1.6983325602562,1.69867451312305,1.77689692329685,1.7780746929257,1.77918544693812,1.69979999722785,1.78090500572143,1.78468463512242,1.78438706785585,1.82040000277215,1.78443000138608,1.70973199859622,1.81674997281428,1.79319163095046,1.71754999722785,1.80007000887719,1.72370246688485,1.91778773348272,1.91297352067505,1.87994779013613,1.79165999722785,1.87693616478048,1.86530975560047,1.79125166458755,1.87537321518164,1.86808271730062,1.869255185769,1.89100997640613,1.79228921653246,1.88660702076831,1.79193310490144,1.87978645646359,1.79008837737466,1.88294986865762,1.79156290005887,1.78980343004507,1.87434987037677,1.88288253896909,1.7902429034639,1.79045912791332,1.87175282483006,1.78971999722785,1.87447830888771,1.87320498924293,1.86385005278489,1.86362782516418,1.78886988085727,1.88946057735884,1.87504654032492,1.87563322028412,1.86169842179119,1.86373174263594,1.86442890041451,1.86423353112798,1.86301005299856,1.86356652668669,1.85998591363984,1.78649172278155,1.78635667112249,1.85826000817093,1.78561553623817,1.78713131476025,1.78492955066779,1.78322023272209,1.86730991640508,1.78308139501982,1.78286746929971,1.78277892139145,1.87648982742126,1.85311001918838,1.78168800964762,1.78315272272051,1.78103590438535,1.7780536388941,1.77828195796062,1.77830345329651,1.77818760254042,1.77879963281563,1.8761552634048,1.87886319223788,1.71783667859228,1.79312787198895,1.78799568362185,1.8010493953477,1.80012570045282,1.70252999722785,1.89623000277215,1.77673156558704,1.698587045126,1.69462128964636,1.77249977703976,1.77171149352928,1.77073367092945,1.69120507273626,1.76728749972845,1.76615691038512,1.76655244971039,1.7641927538437,1.79238020791094,1.79303905366213,1.79359538833347,1.76445664506699,1.76342258290248,1.76273758243139,1.76224065235914,1.68531833125422,1.68447166458755,1.88893000277215,1.76532417229533,1.76504327162383,1.76398054653001,1.76452256971593,1.6853271412918,1.68555571364293,1.76532869921959,1.76546051401271,1.68562999831889,1.6857819980684,1.77872824430893,1.76512492863913,1.77286530817483,1.76250220456174,1.7655460739874,1.77440673762148,1.76999409014386,1.77135524644772,1.76860698131466,1.76446770873103,1.76610725479671,1.7612633202885,1.76227613742629,1.68504833921854,1.76320596373698,1.76191623591451,1.68523034202816,1.8384182684532,1.68053398484827,1.682538717916,1.78433,1.70992286864785,1.61606333166235,1.69246339746341,1.6911390041169,1.60281238931702,1.60217169711706,1.70408342374908,1.70269713990549,1.59541695834405,1.59500966525409,1.59060107193398,1.58890544982887,1.67142895099182,1.70267544507295,1.66814000253244,1.58511140539283,1.5853661585381,1.66435082364053,1.66454588332189,1.6638773167672,1.6630493431827,1.66379585957012,1.66036925595287,1.66158780040659,1.58148999722785,1.66379940391207,1.68392998323893
1.90260000277215,1.69814444851008,1.77806178109367,1.77625377806945,1.77619883059423,1.81990000277215,1.69697666986309,1.82279000277215,1.69967402899679,1.82069000277215,1.69722652059824,1.77956508807238,1.77614227330246,1.69967001748617,1.77768767093607,1.77701662911966,1.7018801639152,1.78244751116682,1.70629744863732,1.70568716303986,1.70562544778056,1.81956998925666,1.79100848371681,1.7925600169273,1.79825001624252,1.71740424194013,1.72318156752562,1.72764808626863,1.91277874517905,1.87902137164668,1.88010071247724,1.7934152720496,1.79222181162226,1.86697582235288,1.86693910373798,1.86643059481965,1.7919493317492,1.86796982887405,1.87023965454782,1.86958750470722,1.87881971074416,1.86574101379608,1.78942609206818,1.87930529484899,1.79043200524696,1.87332000277215,1.79004107992941,1.78946307351792,1.78980541080177,1.87379913906362,1.88512983582573,1.8674952053199,1.79020136686184,1.78886538390906,1.79068413430094,1.87167061839622,1.78880992015318,1.87883001505583,1.78976774794835,1.86562615547804,1.86646376604293,1.86502455737095,1.78931928222915,1.86442168934008,1.78668700305029,1.88523832398938,1.88379165727312,1.78661612098833,1.78649131640022,1.87925998349164,1.86008861083361,1.85919713545721,1.78520689581488,1.7847716048866,1.85527008775315,1.78425548992058,1.78297843206549,1.78165534021541,1.78199334596343,1.78221153871816,1.78077179264902,1.78229553142371,1.77933464464983,1.77969753664927,1.85529000277215,1.77845290742139,1.77796551919544,1.85672651433341,1.87536830698647,1.89947997561128,1.71746334511442,1.87384000277215,1.80274920245058,1.80113636033896,1.70591002555764,1.78209211276306,1.78007145358046,1.77743120022665,1.69764264522482,1.77404841858847,1.77391248223817,1.77238031983964,1.69088601219282,1.68963093792111,1.68927801240581,1.76759149972837,1.6884200184895,1.79275997221753,1.76577048241402,1.76553213530964,1.68642834963733,1.68614168285186,1.79257666056888,1.79084332726176,1.76148206411167,1.76440542286861,1.76409456198313,1.76362116073157,1.68686001226891,1.68578001222835,1.76306786735345,1.68598000541766,1.78467000277215,1.68668714261231,1.76460196818326,1.68569000333244,1.76439430716883,1.7634643325392,1.68626486465906,1.68576429692364,1.68672087196939,1.76462047698848,1.76469199471349,1.76385329722073,1.77016300147969,1.77086811685501,1.6860200078519,1.76672074734226,1.76799093557644,1.76526405253603,1.76729858021927,1.68564167247048,1.76522825365503,1.84236066922996,1.84448700273237,1.84160406651485,1.68237911705031,1.68277398475875,1.88981000277215,1.70442243876961,1.61643666499119,1.69467422833099,1.60714163272211,1.60739427392981,1.70367998541835,1.68225002714567,1.60044001460564,1.67484334978684,1.59315295834405,1.6710614083899,1.67058387865474,1.67068558036271,1.69738239105418,1.69943216546833,1.58606227970269,1.69408998777686,1.66391954432089,1.58459999722848,1.66337657932104,1.688991654759,1.68859832146116,1.58220999722978,1.66272192366056,1.66106605209376,1.66094105184568,1.58288999722906
1.78769944492356,1.72820392963496,1.77651386020547,1.77695658977534,1.77700660658142,1.77600558008892,1.77463497920022,1.77361005312648,1.72613128264098,1.77774690559445,1.77807611229866,1.77836407156948,1.77844188761964,1.73904598090273,1.73317916143503,1.72379459340752,1.71404372124375,1.74429919011643,1.73455149301815,1.72564541888253,1.73666854733379,1.78724490391105,1.78945509847963,1.79179361522006,1.79369695914177,1.7968132935843,1.79841975052005,1.79890968139838,1.82697304203463,1.83208838742625,1.83628780699631,1.79084410922075,1.79049073616425,1.8175668170609,1.87296643462972,1.87286643810428,1.86378125350993,1.86386580114579,1.87954995126126,1.88103414093323,1.88453559646777,1.81585191984073,1.80457270025475,1.81108198427897,1.81763382689963,1.8241485419236,1.78774441778451,1.78568289819886,1.78565207162495,1.88291041820047,1.88359687086642,1.87541814631702,1.8051559588316,1.81176120071831,1.81822206399649,1.82402824013426,1.81070777789894,1.86516133183606,1.86478276842118,1.87222619709377,1.87174725723182,1.83343498932356,1.83352891555473,1.83315014245415,1.83176258927342,1.83034605679957,1.81010517238635,1.78617883481431,1.7861109226072,1.81087503988371,1.86669783512857,1.86621831693089,1.78439411865588,1.78402553640353,1.81181796159323,1.78327988057157,1.78129562588945,1.77845832261271,1.77807537554155,1.78005429215084,1.78058818074101,1.77961057731847,1.77895620803421,1.77765638826132,1.77637312815571,1.77652152187522,1.80255349597344,1.86468458693455,1.86860864455912,1.87406592605128,1.79663213594298,1.797385205024,1.79818329001405,1.79920643256051,1.73587835505591,1.77957386995981,1.77925001433863,1.77830854168359,1.77433317192173,1.77351281354419,1.77320402045543,1.77246969645722,1.7235235468662,1.71136510847796,1.7215456766701,1.73375492712812,1.71919623308826,1.76283428427317,1.76417320825752,1.76474357101868,1.72066733137164,1.70776675497943,1.71871141612688,1.77937375609693,1.75825632105435,1.76101703183306,1.76318362289828,1.76397007559261,1.7230895324369,1.71190454687998,1.76047670276432,1.75905775419429,1.75874601973101,1.75778566510858,1.76078249699943,1.76107591150768,1.76209528762669,1.76288936270194,1.72697680046696,1.71735681038103,1.70398571349003,1.76464823897863,1.76393596611676,1.76418665361837,1.76713962326925,1.76863500695281,1.76693367447326,1.76602123628128,1.76634939401776,1.76643633437931,1.76720584542174,1.71559677630279,1.76988383827846,1.77678478824605,1.7811079113782,1.72072455058878,1.71115831233459,1.70054228475122,1.72013914468156,1.70677938135628,1.65152064582355,1.66874436423174,1.6543479796035,1.64708590895922,1.63882165374589,1.63007232169089,1.6192082191229,1.67294642784142,1.6707721115635,1.67110496596403,1.6711376115026,1.67271154898596,1.67529865807568,1.67441089179604,1.67045369909796,1.67279808901069,1.66439904120136,1.66444457427826,1.66428103656369,1.66421837011222,1.66440450610322,1.66435487801266,1.66188715390386,1.66141028434886,1.66144939708906,1.66194061231261
1.78143919220202,1.69983002512185,1.77478518541282,1.77774500756767,1.77904864881528,1.77785752622103,1.77775423871648,1.77772341429876,1.69774002294465,1.77904187088355,1.77688942066526,1.70065862531132,1.77828500207912,1.77742500207912,1.69911827184577,1.699613763828,1.70128638974865,1.781691079799,1.78587588272314,1.707100163642,1.78828157596376,1.79013343192879,1.79136955657886,1.79531169883175,1.81898104143769,1.81730772222441,1.80501728556021,1.81973427802924,1.82204425293562,1.79044524529993,1.87646000277215,1.79169101387265,1.79148171129369,1.79103313027471,1.8687010614873,1.89141639868881,1.8755100097953,1.79334028942713,1.87657726583197,1.88927927766882,1.87855745609878,1.79091124650697,1.78943950118747,1.78809219741184,1.8740800122116,1.88971984352829,1.79180107464098,1.87982875439787,1.78925660416592,1.87798154495098,1.8784769567896,1.8686655811416,1.78827126109344,1.8647600536753,1.87692383230855,1.88939985800467,1.78903031157818,1.87773524252339,1.87899787761795,1.87560569650984,1.86640923732927,1.78864781622925,1.86532000760045,1.78689775556553,1.88037999452868,1.87925999460394,1.78632464432038,1.78656077949337,1.78632245522558,1.78713208294716,1.87569495813901,1.87526029044909,1.78512266929306,1.78411181209706,1.8773089604882,1.78462901798176,1.78262685971876,1.86622333541245,1.86563666874578,1.78203175861831,1.78048286940513,1.78007175653246,1.85846396742578,1.77968140540477,1.7792257388484,1.77830886144999,1.8547016218328,1.85968482097403,1.85875534461933,1.87821997967851,1.8012985162843,1.79990774477754,1.78689521121562,1.78746819126633,1.70641002632056,1.77958563937236,1.77934080275927,1.77828213935803,1.77722899949859,1.77347514844741,1.77343585637725,1.77237527904136,1.80079999144441,1.68998005683876,1.79712000277215,1.76579000138608,1.68861382309348,1.76457972066976,1.76506171520414,1.76557310212443,1.76587856796455,1.68446046489193,1.68746233150651,1.78954833273231,1.68586000368568,1.79121997577885,1.76426534177248,1.76420203664462,1.76443273381758,1.68763372607975,1.76183560133984,1.76082926349716,1.76362290230686,1.78542997674668,1.76199940314266,1.76304635298022,1.78189970995626,1.76726021791687,1.76576191580916,1.76561543513016,1.68838744140399,1.77018530619988,1.77066498984609,1.77203008139366,1.685402569976,1.77054252590526,1.76846158709285,1.68567000744198,1.76535446003332,1.6872317151238,1.84665000277215,1.68303001519947,1.76704205408201,1.68605815762768,1.84338666874578,1.68208851060756,1.84826000277215,1.68634964665806,1.88920994207728,1.70892385435432,1.61674000444662,1.70759681550074,1.69152160922667,1.70787976499556,1.60179554112216,1.6003661273689,1.5995612244887,1.67477604905634,1.7006499792371,1.67204267834986,1.6696669634403,1.58941284670823,1.58767800682569,1.5856991409273,1.66524091240054,1.69525998834977,1.66490398292306,1.66261570126252,1.58485171235993,1.583658569751,1.58357971235993,1.66195917345747,1.66177877876361,1.58276000656628,1.58301667225537,1.66278362487285
1.78061050870655,1.77919119795727,1.69944489140444,1.69917466729896,1.78017945004481,1.70009999722785,1.77825105239803,1.77771697797863,1.77666052137369,1.77853884410433,1.70033061618456,1.69989279210936,1.69964897522702,1.7001960687588,1.70292995803473,1.77811000277215,1.7026659081247,1.78263276982277,1.81987998754361,1.78597763950631,1.78787384037433,1.89587000277215,1.79316010805179,1.79550265705197,1.79712287547391,1.72289499792088,1.80608396655087,1.8168551258378,1.91077464961198,1.88650964332186,1.79119847111657,1.79170069438127,1.86976111630834,1.86878532542309,1.86942162160505,1.88686355666706,1.79206926768965,1.89567990899168,1.79259333125422,1.79260666458755,1.88363158224985,1.89049125340107,1.86892930450947,1.79184284064648,1.79008515571299,1.87586027562704,1.88918783687208,1.87952878340978,1.79076357301987,1.87568237260349,1.78701664960363,1.86585660108281,1.88351747849751,1.88345210070968,1.87897835692581,1.79166999722785,1.87618882956093,1.87668222675464,1.79087632116711,1.86153145614868,1.86633370792513,1.86546199271308,1.87661986734396,1.89068992182116,1.78466999722785,1.86163861118727,1.78584176707956,1.7880431029199,1.78684759979017,1.78666660462403,1.86998215102146,1.86817707014096,1.87986748826026,1.78768102781921,1.86824104367003,1.78285047527652,1.85789000277215,1.78407495658848,1.78379586879121,1.78302658732034,1.78194686590533,1.7849016890082,1.85909746530181,1.85935455674766,1.8612382342764,1.77894174580029,1.85916795300604,1.85940864128144,1.89402999074034,1.80619999834297,1.79554861177645,1.79397520512276,1.80419809702339,1.80423060760638,1.80438887355259,1.70287599859368,1.78103646915462,1.77803414508982,1.77639248820608,1.80080997701152,1.69286628378269,1.69225142689031,1.76897215776797,1.76944243466909,1.68925762169371,1.68895517030647,1.68871008101161,1.68729191496164,1.68604243511093,1.76512523463122,1.76566443306001,1.68546722913089,1.76327000138608,1.78918166609081,1.76348915316874,1.7642307011661,1.76374677705895,1.76358215497094,1.76352411596546,1.68752857599764,1.68709771304262,1.78519998833543,1.68448999722785,1.7633300055054,1.6876392485229,1.76315607522963,1.76462006500561,1.76421316379249,1.76435090540669,1.76568840756579,1.68797714802619,1.68887542754648,1.77627721903669,1.77601492906389,1.68669285598611,1.68591456983752,1.76643684346742,1.77088370761378,1.77228777386673,1.68663857124044,1.76524513417489,1.76499013340477,1.84694000277215,1.68381394991317,1.84205333541245,1.68072380318169,1.67897475164362,1.67864336347838,1.87617006208095,1.70310515695747,1.69359974266424,1.69317422332248,1.70296841840514,1.68553805481212,1.60272711055614,1.67932954816306,1.70189998136824,1.67513067458619,1.67462386537,1.59385664050884,1.59516996269998,1.67056230857035,1.66759052568314,1.66746191787341,1.58538166458755,1.58610833125422,1.66555464845764,1.58401887686688,1.66556419659786,1.66576376242676,1.66664596600615,1.66215319399699,1.66253265532024,1.58230338780864,1.58254000656628,1.66340955601574
1.77919947796045,1.77867377088153,1.69913466729896,1.6988031420999,1.69947262496735,1.7786054094932,1.77827958748405,1.77835083369552,1.82388201462496,1.69782999722785,1.82141000277215,1.70046847994498,1.77871166801545,1.82024000277215,1.70083869293876,1.70190460481434,1.78514574656537,1.78370903735703,1.78504175273312,1.82150998573978,1.78916104177696,1.79266215555249,1.79189719251309,1.79470414445012,1.79633521952839,1.72155499792088,1.89840000277215,1.82324999017891,1.90315535864407,1.87406419042738,1.88721612556967,1.87009148422763,1.87098986087437,1.79330275648889,1.8830984843023,1.79297769895415,1.79317558134797,1.88367005852827,1.86621312596944,1.8762789446703,1.86941603055948,1.87147805013464,1.87168702794453,1.88859535306913,1.79402068356388,1.79337213266019,1.79280142567349,1.87607450504195,1.79182435032758,1.88676972038353,1.79175696596851,1.79119637888355,1.88343830806198,1.7903545015379,1.79031287092811,1.86220000373283,1.78770211854696,1.78942790290443,1.78957729873814,1.78953123527068,1.79021111120333,1.86356020764956,1.86300197972195,1.86404580981025,1.88060847326358,1.86397926157257,1.86477760555773,1.86521613228221,1.7878946552982,1.78637871349988,1.87798800610593,1.78569999722785,1.86252122976481,1.85972275064812,1.78765039339779,1.78342315048717,1.78297871796812,1.88277983564235,1.86028002393436,1.78279521163863,1.7813678467908,1.8586694406301,1.8588086238094,1.85358873135651,1.85825050384988,1.85737909364014,1.77896999722785,1.85461168806342,1.85442740197253,1.90907999530461,1.71531333125422,1.71436666458755,1.78859066899311,1.78716760144311,1.78654757793147,1.70246000241737,1.70240399859368,1.77715490999929,1.77651638269116,1.69571999722785,1.77142000138608,1.69108228378269,1.76991049257394,1.80078333136539,1.68948285345166,1.68855095502704,1.76832088775111,1.76439541069411,1.76442032507402,1.68582666458755,1.68529333125422,1.76804000138608,1.68768980259093,1.68649686139308,1.68549137142397,1.78925996972516,1.76530746108414,1.76436201010247,1.76468147841384,1.76441372510633,1.76300953779096,1.68630999722785,1.76635863199463,1.6867992485229,1.68839624997595,1.85564000277215,1.78084991613392,1.76778764031521,1.68737999722785,1.76584272133321,1.77702373361506,1.77808369662352,1.68668666458755,1.68583333125422,1.76564845643653,1.76682847029735,1.84950171621731,1.77177853426906,1.76457418900834,1.68547971273625,1.76491764914944,1.76428931217345,1.68609769581869,1.6847685017658,1.76211166731469,1.84722174569074,1.84373838804731,1.84224987180626,1.79214999861392,1.70790835674142,1.69760948299779,1.78408000207912,1.78436000207912,1.68715140125715,1.68386107631853,1.67994664527794,1.59916059868733,1.59511934356834,1.67465753370517,1.67187279434186,1.58972639666564,1.58963307349908,1.59362734943634,1.6685190769415,1.66934325315079,1.66548716133016,1.58586141357191,1.58477436610649,1.66693134321156,1.58523999792088,1.58451999792088,1.6612762878966,1.66113296204766,1.58070365368322,1.66368254556391,1.58916999722785
1.77897906192778,1.70120001424963,1.77912896811511,1.77909275129347,1.77759895170963,1.7790770005597,1.77898823768416,1.77907228569398,1.82005503639818,1.82001295440666,1.77923353307699,1.69963767482405,1.7795583347567,1.7010200170814,1.78181000277215,1.70286438680459,1.70444488301629,1.78383374656537,1.70806112886647,1.70793610829314,1.70770404747298,1.79283912424018,1.79316860047907,1.82121997163243,1.79980685772706,1.80020880350246,1.80452093015783,1.91757507626691,1.92431491776944,1.86831318315978,1.79554153192738,1.87623109812373,1.7936400321152,1.79370845589592,1.86982001447558,1.79269873993142,1.79276450640225,1.79321444662831,1.89021998388625,1.79179881468513,1.86862461297102,1.86859437803732,1.87853585593733,1.88414748173169,1.87044000729296,1.79169396551487,1.88545000277215,1.79103888431688,1.79127662373781,1.79135897571686,1.88948999152228,1.86805134413963,1.86775274271007,1.86766612136554,1.79147107699473,1.8895400004254,1.7915991169227,1.88038907273725,1.88388598863251,1.86442737671478,1.86627394993107,1.87743664660977,1.868218637525,1.86694938168833,1.86858496539208,1.89337985087225,1.88318011497398,1.86518594752612,1.86452645045199,1.86388047887738,1.78906009681734,1.86428832628139,1.87564073893069,1.86503632109551,1.87602624923009,1.87630452035475,1.87542891743152,1.86685439613342,1.87927588524602,1.86840003145516,1.85699205691444,1.85859354195783,1.8576197321818,1.85580462142716,1.85903514418782,1.85853710570551,1.85592806923506,1.856083350091,1.88330573273698,1.88463913574521,1.79500803625123,1.79221641212659,1.78848372542715,1.78658279855174,1.78658238229142,1.70086000567814,1.80238998926076,1.77627274214924,1.77479714792936,1.77435698007567,1.80278999248988,1.77199415721515,1.77037077742561,1.79975666470479,1.69205527659409,1.77063000138608,1.89314000277215,1.76540787468549,1.76365731206209,1.79321738201253,1.79834456431789,1.79647402370424,1.68656195913915,1.79116999918091,1.76515880090325,1.68552000427423,1.68592000427246,1.86527000277215,1.76430502260742,1.68579000706735,1.76342844068958,1.78910998310527,1.76598917967436,1.76533536738961,1.68689525128101,1.76462975116127,1.7637707405274,1.76551515475643,1.78173811211117,1.68580001529397,1.76554703978472,1.76772939295522,1.76573909931766,1.77391241891642,1.77402490258679,1.77167025423999,1.84926857310969,1.84894971621731,1.76513435188537,1.76479326202604,1.76530191858798,1.76537592903811,1.76665213381578,1.68520170383035,1.76379833407138,1.68351458306248,1.68285286992085,1.681762583165,1.87986000277215,1.70941735663195,1.6145499972429,1.69438438474768,1.60908468650954,1.60306432886542,1.60171098874835,1.68235874597505,1.59883005219976,1.6763962875919,1.67420026104818,1.59179597612646,1.58958573684264,1.58924766051334,1.58491336313678,1.58654989542706,1.66790487208041,1.66690089545887,1.58449181118677,1.66294911761219,1.58299999722862,1.6643955895227,1.69281998654598,1.66186707761597,1.58080770854322,1.57943856102543,1.66226156634211,1.66220171808042
1.77383176447109,1.77551198324541,1.77798978320031,1.77914439494458,1.77888945546709,1.77914837578298,1.77884322900157,1.77778444379925,1.77564205487823,1.77548686644911,1.77686128706423,1.77632886081471,1.77703243134037,1.77802429623129,1.77872349552874,1.74198766327873,1.73080111154486,1.72183281094665,1.70822397432098,1.70878487544084,1.70915868969134,1.73545287874121,1.7933012595031,1.79658806583181,1.7979509254625,1.79941917270119,1.81570588100341,1.834246241115,1.87734634129164,1.87418978388524,1.80882026549114,1.81414943185832,1.82039072325483,1.82524210288994,1.83968414181945,1.84114566083337,1.84370151234106,1.84582205025473,1.85747499895475,1.85791380999111,1.85905222377414,1.8603621127488,1.8615161030978,1.87536540260642,1.87472064618409,1.86617619328148,1.86659989742032,1.78791393292415,1.78700492113767,1.78802153740842,1.88583890258854,1.87632070364211,1.87206181072066,1.87065090818567,1.86584727700696,1.86611045745469,1.80869461349921,1.81830857035398,1.88104959154296,1.87183071240893,1.86864594917292,1.87416272092754,1.86922565227707,1.86906898812589,1.87360118532056,1.87674591041514,1.87865387810714,1.87384788530715,1.87367957496407,1.87171044203455,1.81224038208339,1.87029300927637,1.87686901975712,1.87417547796094,1.86353115299765,1.86390207148784,1.81661569638407,1.81743295239806,1.81869496880405,1.8197784022598,1.81994325752634,1.81901403069083,1.81766032907982,1.81666651579634,1.86027322918113,1.85924336274551,1.85947740922958,1.86238117254775,1.88296050061149,1.89167429788079,1.78975773338881,1.7887174998262,1.7869335323943,1.78209449538746,1.78352236923936,1.77630010640598,1.77657677052201,1.77504754250022,1.77168393881148,1.77239986224301,1.73278140154937,1.7261487642045,1.71812891366586,1.70965713986031,1.70231815385069,1.71980066724224,1.78201235577007,1.77601860529024,1.77699550343987,1.78373299299478,1.79725572416023,1.79648963527229,1.79075680675432,1.78419486487719,1.77820347083003,1.76202933211644,1.76342051632112,1.76366449055286,1.76354805930318,1.76204835341895,1.76061902386883,1.78414026271122,1.76414880902339,1.76271749469473,1.76276242487984,1.76397243650851,1.76447750289294,1.76618294306846,1.77781602635391,1.72098729857795,1.76631268072896,1.7665021997448,1.7669943578226,1.76937258150763,1.77186699627641,1.76895383641789,1.76572394243492,1.76350910261259,1.76186927679886,1.76238878170823,1.7642055573012,1.76518187658367,1.766288873118,1.71660157504318,1.73031359819032,1.71451746793706,1.70388798430946,1.7145507474776,1.72651834997184,1.70963689250575,1.70709130674093,1.69355609227039,1.63235795468118,1.64487666245386,1.65355380437341,1.67835053504354,1.6777333886067,1.67657973000313,1.67463169547552,1.62581613985583,1.58911085941699,1.58839110468513,1.5855005089784,1.58461301021681,1.58354826841333,1.58258171378963,1.58238806690387,1.66336459599363,1.6639020041611,1.66330386193208,1.67354556588838,1.66309320028108,1.62378151481997,1.60617556679125,1.62372508021868,1.66157786252869
1.89954000207912,1.77863675056458,1.77978121202506,1.78095328196835,1.77965525419695,1.77943400519337,1.78012851832277,1.77944007016223,1.7779093297462,1.77809496576424,1.77836166426796,1.77837484258642,1.70386764652717,1.77920261788335,1.7810280659285,1.78220074065243,1.78401637269191,1.70369240984746,1.70767628550198,1.70955795784474,1.7108080352971,1.71316909045751,1.79279793254255,1.71804476547207,1.82200984480629,1.80252344510249,1.81872956524839,1.82014021343299,1.89365374481467,1.86896161922667,1.79396535228231,1.79381208978429,1.86945330007441,1.86938690781611,1.89020977483683,1.8683023259446,1.86907290824464,1.86769489204644,1.88117664373076,1.86821825715171,1.89544997740626,1.79560125067495,1.79476124112456,1.87929083123433,1.86851987412531,1.86725862723786,1.89280999124152,1.79192503756357,1.87465000207912,1.79175955249831,1.88065632911242,1.87109727707442,1.86746537121876,1.86712186137682,1.88270979046179,1.86705314324482,1.79018609914338,1.79022610433613,1.87768613808482,1.86588265362177,1.86480624421758,1.87507342955552,1.86539101987949,1.86401490357591,1.88595026584268,1.86718934555246,1.86721668096628,1.78950733738264,1.88202991618781,1.86664438546919,1.78863972311113,1.86362312495959,1.87348592498909,1.87115324836159,1.78524500321742,1.8729906642014,1.7853110625741,1.78382705468936,1.78272709499281,1.78216681744289,1.7827568226036,1.78483481847126,1.78546179479603,1.77934423941633,1.86201429296416,1.85744694008979,1.85667921598445,1.85628122251524,1.87739428370475,1.88705564180436,1.71711002840377,1.87611000277215,1.78860969318456,1.70935002160245,1.78503075956237,1.7799394281618,1.77939859487893,1.7764714111587,1.69722001178047,1.77369246646869,1.69577163826495,1.69485523005116,1.69399329165728,1.68954635712684,1.68935192434839,1.68904800792718,1.79945166757937,1.68749666689703,1.79401999350265,1.68559000309723,1.79761902279142,1.87203000277215,1.79247517640058,1.76369288038219,1.79254277986523,1.7643947490854,1.76662717944478,1.76497419454716,1.76516417436395,1.76455288031408,1.68289000428511,1.79019998338127,1.76595429786923,1.68677000791945,1.76568194528847,1.76604535461367,1.76484108370055,1.76811324267782,1.78190110883721,1.68792665956049,1.76610630906693,1.76582732382818,1.77639374184731,1.76550371813755,1.77497649647343,1.76793130763283,1.76729647857831,1.76693115588753,1.68575114604439,1.68639571599605,1.76496221801992,1.76405172956661,1.76611289667822,1.68538001756227,1.76491593776825,1.76412156093901,1.68513835109966,1.83771000138608,1.88433324594107,1.70963374246004,1.70919062438669,1.69341713943753,1.61210167241195,1.68597425901247,1.6862252571163,1.67944230428005,1.67839509961215,1.67834218123042,1.67869909409248,1.67518595898454,1.58966022037234,1.59041547510874,1.67031428695373,1.69930998659311,1.5856132367009,1.58527859941514,1.58499576929586,1.6672338998118,1.66587938791735,1.58623391095281,1.69078997810827,1.66448015585575,1.68860332939522,1.57894554802851,1.58418761942158,1.66210120177792
