1.71086831229003,1.7255168448105,1.68343506657719,1.66151794258894,1.6652128017254,1.6604863209523,1.67546690300425,1.71393320897316,1.72158611260317,1.707686275356,1.67541257741418,1.7121163238626,1.71304117505098,1.67739488739809,1.70953402260193,1.72043141258747,1.70379187445986,1.67443586210922,1.69462296181232,1.68660477176318,1.71776337264823,1.72870569684077,1.73302377649336,1.74991992813051,1.70357703598192,1.77419506711342,1.74081799368256,1.73420995048041,1.75922523303017,1.81765335128019,1.8051499938973,1.79104103803711,1.75944746306474,1.7780378770151,1.78574420543854,1.75717455698656,1.77349463018535,1.78563574507632,1.75970015265449,1.78059826011889,1.78319991629099,1.79551908464471,1.79038183438865,1.77892798300621,1.75198879873049,1.77502140670145,1.77825855296718,1.78593428507107,1.78679483575037,1.78133403923813,1.77177435617887,1.78308527119796,1.82273824364546,1.7558567067903,1.7601396848972,1.76882765839087,1.78060432899389,1.78321135433998,1.77953801514121,1.77148948439907,1.77730142719061,1.75954180745332,1.76611928297893,1.76860038360479,1.77241997889842,1.74275202765931,1.74270428079163,1.7439482274749,1.78639812408819,1.7880119415687,1.78740025187159,1.75124936503259,1.77124899842717,1.76158479651312,1.73552064355121,1.73012341751888,1.7550350436828,1.73856475255149,1.77215476386981,1.76732864567025,1.73597243240419,1.73692027283257,1.73369571800124,1.75912557833444,1.85871256456777,1.86909732555462,1.85322244958276,1.85129777216487,1.85949462677222,1.8557005646501,1.84893592924532,1.84975409456355,1.85327230294471,1.85200254530907,1.83341924694642,1.85201165361496,1.83516681925425,1.86657810187831,1.86464851574345,1.80952002191956,1.81691281478575,1.84437667428694,1.85360260921587,1.86134773820741,1.84717361178541,1.82240696412776,1.84783476001151,1.85111308352804,1.8518774721914,1.84490304811133,1.81508738155306,1.84584826495929,1.83462067809722,1.86457692090028,1.86875758105297,1.86469905718849,1.85580244208138,1.85173087514724,1.81500694485135,1.84172074560325,1.82188044275872,1.85014529693139,1.85755079372854,1.84346730633985,1.81812132887445,1.84497482043512,1.8366428312905,1.80673350517411,1.83591591250209,1.81479654262057,1.84111990000594,1.86073640482996,1.8566132019918,1.84894507401521,1.85890886057475,1.84993905931204,1.80035301501608,1.77918776411025,1.77592985035269,1.77756334965849,1.78794185490042,1.78222693880984,1.7429753026039,1.78999709876025,1.77956907641524,1.72875621790454,1.72438061528751,1.76301443649251,1.78751498671672,1.77641922521914,1.78483460583021,1.77288517114729,1.75642087454398,1.76453793351515,1.76388767463497,1.76594603112931,1.72997881730255,1.75849252502937,1.75164686465756,1.7276744426652,1.76249059705263,1.75662515842318,1.73117245636528,1.7543552550732,1.77724276326832,1.75618691079852,1.73195814759317,1.75282577492365,1.75927163740367,1.76099401489914,1.7590710772069,1.72869168757455,1.7527249964149,1.75869878770592,1.72075865025654,1.72103663519058
1.6925402598324,1.71592130356134,1.70305755720099,1.66538696836389,1.68934199122172,1.66567654755282,1.69881231626416,1.71711208510314,1.71909069929534,1.7190089743415,1.71249572596626,1.72731257543546,1.71417660633039,1.70911001604831,1.71455871882726,1.69910424859892,1.66268043499831,1.66481654493685,1.70051275332443,1.71352365936633,1.72886908809589,1.73099737794,1.69486130049347,1.69931175545884,1.69218623525517,1.75233487663638,1.79200387557263,1.79687722034348,1.78425296110651,1.77026087014009,1.78875255392263,1.78428252855163,1.76758893914639,1.75570850786573,1.78796935275965,1.7822066147119,1.76821582815921,1.82080632141734,1.78922518507243,1.76838160096666,1.74448662781339,1.78215283845213,1.78835800055607,1.77743314870729,1.77671448599406,1.78566552778831,1.78765478499489,1.78630554117143,1.78236934185982,1.76558567068932,1.73426208421592,1.73242332403756,1.78361546233266,1.77703619235279,1.76852672841179,1.74335992826608,1.77295803435588,1.79086651172349,1.77803883602172,1.76868162032343,1.76804332512608,1.73105452593278,1.71813365821797,1.72383511261177,1.72888043341384,1.71773790884622,1.71690318899158,1.74717090042413,1.77431278592161,1.77677370326146,1.77708770425141,1.76336762468271,1.74200234008031,1.75672863995034,1.76053168280096,1.7687384350018,1.73925358601107,1.76158707912465,1.77369597442766,1.7818196858488,1.77885072568635,1.7866058973913,1.79067534425888,1.8057758334849,1.87511628585202,1.8972176716219,1.86587840309667,1.85252717153387,1.85179106347133,1.82371738704844,1.82125934024705,1.84813898496529,1.8681307772994,1.86218898401398,1.85638250232165,1.85681108999487,1.84752245887494,1.86108035917159,1.85539953109585,1.81858090460904,1.82984414476938,1.83090109207584,1.86216255887546,1.85972923013787,1.81138974520397,1.79409808165526,1.80379963955885,1.82153498524278,1.84485415857174,1.84057545612214,1.81363797995387,1.85500117194869,1.85897044505919,1.86734050158205,1.86988592291132,1.87242232344014,1.86490768800583,1.8556372378047,1.8237934712131,1.84123083756265,1.81163206720275,1.8388160624262,1.81836598384599,1.80053999021775,1.80296091135632,1.85045010160153,1.81831189983908,1.80835886853866,1.83464774116093,1.80676417520377,1.81486884996909,1.84916238409941,1.81704019215181,1.8105638248249,1.8293285145758,1.79950129642626,1.77878417468664,1.77491369480176,1.7768556724237,1.78036911992564,1.77539826274215,1.78975397589843,1.75073275540268,1.77935995994444,1.78084269183491,1.73278013687162,1.73459293362745,1.76337891025666,1.79137600840345,1.80050826817095,1.77827127281073,1.75650233259576,1.73620238277446,1.75411643105334,1.73752846621139,1.75872581018605,1.72693121786583,1.73977493999092,1.71180637482789,1.7079749751227,1.75208507999348,1.73645344751802,1.75336280399489,1.77780711812051,1.80138604755454,1.73361610886726,1.7444742579906,1.76174349783526,1.73165999935675,1.72907820373498,1.76274303141201,1.7733761150181,1.76987387354916,1.75352254963077,1.72733306799378,1.75189685747482
1.72062316418201,1.71621743235383,1.71871559138578,1.68188448439041,1.71095413912306,1.68022780087083,1.70853259340796,1.71920278913604,1.72148095462905,1.7287376956547,1.71057687088913,1.70111682764999,1.6808891795698,1.7098363714676,1.70720760852748,1.665186101069,1.66192480766247,1.69003767911957,1.67757476893287,1.71572593094083,1.74002067592245,1.7392559858821,1.72390313105776,1.757987405347,1.73285902059604,1.77004281370705,1.8487841525824,1.84342861161054,1.79607074605819,1.78856167799939,1.78648228114025,1.74274493836046,1.73691450738364,1.76586699950138,1.79011257383711,1.79181175313921,1.78056254176498,1.77665127353177,1.77805247681717,1.74147631333074,1.72848952983903,1.77579926914419,1.77887475259978,1.74365901809499,1.77828286599803,1.78627919883623,1.73532098317642,1.72953577047406,1.75575618201782,1.74447415334034,1.74548603937489,1.72801671895091,1.7795850627129,1.78313143704172,1.76881907984364,1.76756070057595,1.77662767088031,1.78041856440186,1.77009944264314,1.745436597651,1.76713637628663,1.74765111029001,1.7232498944046,1.7473357420581,1.77744161022651,1.77183284228647,1.72286598181397,1.72583088310065,1.75686437884242,1.77211355081115,1.77744901897127,1.78967893487858,1.77281337651564,1.7294618724791,1.74607150580535,1.76670380235695,1.73103413122456,1.75883748967395,1.74104023947563,1.77605527249423,1.78599683622149,1.78566835374735,1.8000838732688,1.80591371745725,1.85691852460369,1.891046942422,1.8600555685625,1.8257803722747,1.8423971417907,1.85027676758235,1.84467106290604,1.82855518681119,1.8563680096651,1.85432311509334,1.82274478698795,1.81437331988082,1.82075625239625,1.85526069280991,1.86145131482749,1.84571281489551,1.82012309018713,1.8525077611755,1.8646499508532,1.86507351094736,1.81442211221203,1.79264812454861,1.80109701862412,1.83559532612908,1.82185671673026,1.81241931604076,1.81460440168594,1.85291329658489,1.86919221572114,1.8786257703129,1.8715581839197,1.87242176034814,1.86729946300087,1.86619046794836,1.84260976161366,1.80794328820142,1.79186384311707,1.80602043298034,1.83198482235958,1.79609620930082,1.79994771878954,1.85720726313207,1.84639819587649,1.84352690837863,1.85822167341597,1.85549687025407,1.85326327901496,1.8577235027869,1.84329595722438,1.83312660986513,1.80629174568938,1.78842169837294,1.77754433358122,1.77525715069583,1.78692899573164,1.82730574131719,1.84050088966237,1.83743656107309,1.79607601440875,1.78721318817221,1.78652098392309,1.78195810565077,1.79164641563058,1.75219420381525,1.82257063721045,1.83394975902865,1.77032869193432,1.73294099250817,1.7445637280602,1.7538124958744,1.74341248148612,1.73258090847635,1.74322000255427,1.71068714538934,1.69361672874695,1.70476723457303,1.75779182920062,1.77084722599795,1.76115221980972,1.76312242820684,1.74101034360313,1.71414518057443,1.72839336872104,1.77271959833034,1.76670489592207,1.76272786921225,1.77112566180119,1.77235113140393,1.75523258216838,1.73573103256147,1.75664101656833,1.73778844360517
1.69819994187101,1.68436590458458,1.70181970902122,1.70194764648654,1.71743507592831,1.71069293772777,1.70812434146307,1.7170549196984,1.71603456580767,1.7034009050173,1.67331804542114,1.66166136283481,1.68793937733539,1.71285106672913,1.70686821923135,1.67430441102692,1.69804011205008,1.6986874695184,1.67640429375781,1.72277053800483,1.78087872779193,1.76992545703953,1.69777628019511,1.72022424787377,1.70318558018485,1.78756436358519,1.84656680395401,1.80128604580629,1.76093184454008,1.78002640285165,1.7761228418956,1.74084235921311,1.73069825552077,1.73888518843989,1.78296507358224,1.79092077199165,1.79107981981972,1.81966290088977,1.79041911590506,1.77861425282993,1.73767595552222,1.74614890030777,1.77773653843205,1.74599589333134,1.77995909918097,1.78427554494239,1.72303728568747,1.71720078592352,1.73535794701408,1.7594501936328,1.73530874708845,1.72913075352278,1.76287978620663,1.74131456268358,1.73638235441171,1.7675595709328,1.76942307749253,1.77683871132516,1.77731814586453,1.77655157730107,1.77902540645378,1.73298313786753,1.74443223417469,1.72898944104598,1.77186918319353,1.78778573734071,1.75724441544767,1.74934418191874,1.72803015468803,1.76311902242367,1.77557471812602,1.79200258130435,1.8147909656176,1.74506837425152,1.79533718544777,1.77915933493219,1.73853284405979,1.76122667585525,1.74114732264843,1.77615780641184,1.78167968184812,1.75836097988858,1.78503899729129,1.76119893279751,1.78534400906511,1.87310968166839,1.86389563480595,1.84567102740361,1.82696083425332,1.85462048768228,1.86514702768265,1.85263861773396,1.8603419016903,1.86096900555627,1.85265120896363,1.84968728710996,1.85123914308593,1.858634437378,1.8655501541216,1.85135605597118,1.82547613852715,1.85661838276247,1.82946790439626,1.86524920808534,1.84406681845681,1.80116276982362,1.80085625502086,1.81232358225851,1.84528113925959,1.85237794633211,1.83886846875091,1.82006499303953,1.85391099407592,1.87305309114239,1.87299919485542,1.86140505346246,1.86062747032647,1.85593080110553,1.81002101274613,1.79174107929412,1.79696199453555,1.79994211940305,1.8317526835313,1.79572054786836,1.7980649786051,1.84784001055784,1.81943265886339,1.80901576809608,1.84942257094391,1.86704602953968,1.85780901519415,1.85171987120678,1.8435404765912,1.84761330379105,1.84039500599896,1.81907384467581,1.7822732835371,1.77445695528628,1.78510769748664,1.81812955938106,1.80748841487481,1.80370031367572,1.78436057358286,1.7749909058187,1.7781485998442,1.77672176477087,1.74650925477409,1.73205865842979,1.78072001137272,1.78301786082252,1.74158201080979,1.74885612767729,1.72669332065782,1.7091226176821,1.71217921715685,1.74194168931373,1.7563955212172,1.7188454693201,1.70288436719537,1.70414929575662,1.74593041170691,1.75102963565596,1.73246855465311,1.75972452475266,1.76427000175884,1.75869037834691,1.76108972710263,1.75379071531668,1.72616415305781,1.75081325372336,1.76206807800221,1.76397556361645,1.73579499104032,1.754228891993,1.76180262405637,1.75343043855179
1.68432451570945,1.69536229041441,1.66659385469286,1.67171021221001,1.6991082748207,1.69693123697846,1.67242953897182,1.7071809486366,1.70628132317995,1.67506301428456,1.69977274657532,1.6660830332632,1.66862971962462,1.69944375472467,1.71069957127319,1.69930109324412,1.69574782703268,1.672630808138,1.70142576362004,1.7162947801225,1.74193211315479,1.72430530147898,1.69381828808056,1.70361630796164,1.6903712853891,1.72679596992033,1.72333344564129,1.74470368996843,1.77135887538227,1.75138878427286,1.75165529763663,1.77895952748358,1.77306646166684,1.74635211048134,1.78381413719958,1.79880895480984,1.77322110952907,1.78395850079035,1.75810967263737,1.81628500050113,1.78403985570887,1.77299681638974,1.80266289537261,1.78631472719392,1.79327894336029,1.76997642378331,1.73343021477313,1.75171484735935,1.76098306748114,1.74529916758431,1.76198277120639,1.77164824887441,1.77619918632333,1.76978051881717,1.7607709574732,1.7659717212836,1.73980069435092,1.76229068324471,1.77677398443596,1.73887954899323,1.75750975245111,1.72922589465564,1.74354275884959,1.72630938228716,1.76620809304349,1.80575437535369,1.73830240858189,1.74301490578929,1.72768617713931,1.76069151488697,1.76274664426616,1.76835486405653,1.7753549467321,1.73037199841611,1.736225971279,1.73802083527291,1.75287697389855,1.76515554362812,1.76822863968311,1.79508713924504,1.79774913481396,1.78447799445581,1.78993522851077,1.78573954537306,1.81859451247991,1.8682529198601,1.82709817831863,1.85409525468913,1.84288472105627,1.81697236678566,1.84105639989429,1.82226843438874,1.85971475801336,1.87195750399137,1.86451193957859,1.86212385024394,1.84900376196545,1.82002408151713,1.84304431757029,1.8287069233443,1.84637613172361,1.85334228533194,1.82486161504229,1.85123707805653,1.81186791521859,1.80256974402484,1.83506818143026,1.80442652311021,1.81976126663869,1.84927327865661,1.81079495332641,1.79510547587798,1.81915342510136,1.85153747280228,1.8505819943763,1.81954009402901,1.81407186383427,1.84364777390124,1.81078817048908,1.80978677433605,1.84162923369751,1.81202713397496,1.80697687670149,1.79925717768843,1.80991990185445,1.85661394336935,1.848882309619,1.79832041732626,1.80747767913543,1.85060001220305,1.81633369591923,1.82420345809489,1.808647649689,1.84244029192747,1.84017043435179,1.79582191066993,1.7763437597696,1.77476599610409,1.7772656673985,1.77761604619398,1.76568003752399,1.78062973953861,1.74403566904267,1.72541760750278,1.74213424067981,1.78034179777558,1.76990491947234,1.76625761893961,1.76712288431463,1.74376875181527,1.7559661490294,1.76029860253915,1.75033714723294,1.70758463304488,1.70682992842025,1.7162121688212,1.76139288788523,1.77296009360201,1.74091737234126,1.70464868590524,1.71290135866864,1.72093934345804,1.74251952737285,1.75665227040201,1.7358183150071,1.75430612055578,1.7638408559089,1.72615702686286,1.70941889243699,1.7148760716042,1.72228730262179,1.77021724603968,1.76853534888804,1.76439505299725,1.73924817017383,1.75772342009887
1.71993424826829,1.71423977439411,1.67456107794527,1.68799054776123,1.66125621310717,1.64957622350619,1.65366204160467,1.70376205305366,1.70628185680597,1.67186111098757,1.69717904509425,1.70155119171843,1.68609518001443,1.66878684007896,1.69850181058325,1.67408713427626,1.66169238025608,1.66624355334462,1.72909328717793,1.69572140833329,1.69908133616625,1.68692938873025,1.73574112978249,1.7096239240354,1.71099519521178,1.70134384622621,1.6959119820669,1.76732704092733,1.7938758530386,1.78672298731068,1.78818639168057,1.79351391225885,1.78841752226814,1.7711536832171,1.78828556878345,1.84099193998787,1.83695462801013,1.78914525103869,1.74870890045852,1.78533305905131,1.77366834826998,1.76528834020814,1.83054841335551,1.80106862717465,1.78538380091628,1.73838957171536,1.74532716258887,1.74274489816919,1.77184157227808,1.77326657353991,1.77327569943937,1.7932112600378,1.77601176914367,1.73690553611379,1.72694086211656,1.76468870952447,1.75611500788411,1.74369437792489,1.80842679952593,1.73680304193169,1.75888795020037,1.75340169454157,1.72534029425919,1.74322653979239,1.72041101960224,1.72204460266582,1.71621064627238,1.72615857618423,1.75476840393071,1.75952917048348,1.72110032909765,1.72773876306983,1.76003889117981,1.75520931139206,1.76201136730501,1.75847533781205,1.73434477786771,1.73271034705797,1.76280674589452,1.82477917843703,1.80079200451564,1.79068123389343,1.78727780295954,1.7655656245843,1.84696699036363,1.87634122660882,1.82545902842991,1.84549540366138,1.81052780434478,1.80530304165002,1.82739283501699,1.80767915230245,1.84947624675227,1.86274945934428,1.83278383906975,1.8436492330458,1.80805145371864,1.79364804691112,1.81612026172068,1.84126473488588,1.82196400980617,1.82067996873323,1.84548855663848,1.85320871502698,1.80136014247568,1.80203129122343,1.84541015284949,1.81918077130503,1.8373413837713,1.85643590434773,1.81247629938469,1.8020813940095,1.84044239520076,1.82320627436097,1.82063751107643,1.83836681428764,1.82087922209036,1.85595574051205,1.84851693112982,1.85151767397566,1.85857685759934,1.84958007311094,1.85026125849193,1.84471320460423,1.85985387216773,1.87050531433995,1.85297470753225,1.80724563185494,1.80765228099428,1.84781003308723,1.80016520568294,1.79904143847708,1.80545496740026,1.84305962608799,1.81115004816018,1.78081559709198,1.77437995202777,1.7740264313725,1.7738362853617,1.77323191500903,1.7775748312231,1.78789789384335,1.75966747201566,1.72839861147946,1.76897499597155,1.77149829203337,1.7346677553828,1.75560728312988,1.7639159115242,1.76541165816601,1.76304319771609,1.72131672189549,1.71773312584318,1.72014029874483,1.7527171174939,1.72764532549051,1.76365565543802,1.77665319036662,1.72761860152692,1.71284637468059,1.7411837078218,1.75237546405404,1.734953975101,1.75000451687707,1.7501993013647,1.72634945795476,1.727591173998,1.75178957688572,1.75850206713812,1.75229088258477,1.72767169902766,1.76649216340771,1.78381975343331,1.77663468625868,1.7654615488869,1.7501352658347
1.73604700942738,1.72510435923199,1.7117836379662,1.70382910620955,1.65413054048255,1.64018577327347,1.65149433080631,1.70361004767963,1.71304411790543,1.68827596264642,1.66886350188376,1.6978138867269,1.66318401353796,1.66239727112363,1.70476862182444,1.70395587679814,1.68789072395136,1.6923070730085,1.79174020189479,1.73502013767438,1.67889106200927,1.66666053077539,1.69254954024425,1.74728841015046,1.71650491394033,1.74938239009772,1.71084437044934,1.78030818550091,1.80874294683581,1.79942332638987,1.79692315810925,1.79405055642736,1.78361563761709,1.74810068898267,1.74117527947126,1.75234048640243,1.78435775150947,1.78897944134523,1.78032378831744,1.77760189002623,1.75090563037264,1.77216907388349,1.7952404409038,1.78628518547593,1.76465851157403,1.72105629103843,1.73043371950822,1.75378160861105,1.77191887377511,1.7822724543436,1.74159748707768,1.77280531668036,1.77028069247185,1.7610467890911,1.74286336773213,1.75861725969147,1.75124344909392,1.72495298055363,1.77094025959525,1.7354686072272,1.76293537341344,1.75994240986541,1.72115530983347,1.74959176682816,1.71851211998796,1.71951709538508,1.76785723519528,1.77812901249841,1.77374536266819,1.76063741696439,1.71986671837357,1.75541916250128,1.76598631604743,1.74066479220346,1.76892806332167,1.77627552590781,1.76163979846479,1.77979557704206,1.81779182097352,1.79858347777526,1.79159658051236,1.79239884770642,1.78379778230705,1.75912723280583,1.82655425096386,1.87266133605256,1.85931597689407,1.85240603459913,1.81589419825478,1.83088380953037,1.8131904436538,1.79307430985602,1.81688608873765,1.8545657513136,1.83724597594433,1.81365866663693,1.79169987593731,1.80342505404246,1.83584022115106,1.85525917914206,1.85278863739313,1.83573851472477,1.82062510543726,1.84948767130844,1.80209544862954,1.80072994255536,1.84951032774636,1.84868313523892,1.8214144980865,1.85426059261474,1.84085128555691,1.80992477391349,1.84928802026538,1.85495791015028,1.84458274889383,1.86020891425009,1.85906460834044,1.85347115782308,1.83012726581192,1.85747878045606,1.85487366657096,1.82951055002,1.84351071074538,1.82860448372011,1.86591651965796,1.85892361149157,1.81949657469285,1.84341528363666,1.84154302991401,1.84085450114732,1.81202840310213,1.83796319189233,1.8399062410082,1.84841138440744,1.84075239426203,1.78868683204956,1.77399956609692,1.77409914253108,1.77467255205584,1.76793585154562,1.75243812891387,1.7728330102442,1.73203739412958,1.72190512110384,1.76372526826459,1.74519420627766,1.71141487654618,1.72061995820289,1.72132273756628,1.72470421944318,1.75452956332397,1.7280474925937,1.75072290390005,1.75374977654848,1.77047629691115,1.76108795621162,1.76012467480305,1.76694349774607,1.75270196823265,1.74841533244923,1.73503021448856,1.76879357343616,1.77032891067278,1.73391453348599,1.75083598415828,1.75875180710277,1.75716416333762,1.7595118486491,1.77202172246785,1.78326866239033,1.769407171022,1.77180463582247,1.76808604814795,1.73999837834553,1.75678827316192,1.76822261136463
1.71664188468381,1.68846049443382,1.71094204342136,1.7082806529228,1.66443526540576,1.65140254403109,1.65202985208568,1.69241652429165,1.69686563858626,1.66805911789081,1.6647795152732,1.69675867755186,1.66359515995465,1.69294047114649,1.70327821093404,1.69720574896568,1.67534004788244,1.69775615404126,1.73824499323148,1.72511833425272,1.70601519566581,1.70832175476668,1.68636942582524,1.72464369964506,1.72845947768896,1.74572053084808,1.70589704453295,1.77643533650826,1.83179613646068,1.81108184764252,1.78919967979323,1.79097839808244,1.78975191823411,1.78374248796793,1.78020848881907,1.73827674178967,1.74580177943338,1.7842985268376,1.78128858055808,1.78393589400924,1.77167988867384,1.74420579849809,1.74668488359791,1.76880935643835,1.74197326308467,1.73282293008767,1.75558260102126,1.73647188207143,1.74218055380038,1.77798224949787,1.73289426382729,1.72770131237427,1.73604710742968,1.78077365882361,1.81430960803833,1.7444911990758,1.71272635176652,1.71246347880639,1.73401754115767,1.75900693708146,1.7746576651933,1.7660509234359,1.72968125319024,1.75908208300299,1.75885354434897,1.75290966371116,1.78048903231579,1.81033357829596,1.7735017309533,1.76052594660724,1.73269830044338,1.77976453784756,1.78907732429834,1.76985936281652,1.77731973111852,1.78292970141972,1.74796532313563,1.77725319742008,1.78663421855669,1.75551138158881,1.78806947208537,1.79938832046381,1.79004418735752,1.79424446952131,1.85509673401791,1.86765736274802,1.86111489790082,1.84738951429023,1.83639543147024,1.82447492892267,1.8439447123628,1.80849974676419,1.84064490476392,1.8450464219859,1.82318538932386,1.83032519530383,1.80405593922766,1.82826446797997,1.82660927840846,1.8566668589619,1.85197069588444,1.81792953234657,1.80288929216527,1.83484926149876,1.80821393449765,1.80367596048225,1.8537252217848,1.84779483284003,1.8209033244584,1.8516841410142,1.82018928644841,1.79694380573877,1.81962374181551,1.84573520753206,1.82839163981429,1.85637221544585,1.85069650371921,1.82414435227796,1.83314788552362,1.84640369774459,1.85291347704806,1.84915886181054,1.82247977311545,1.83698228619884,1.86327737764058,1.84274038435762,1.81262226163853,1.83380804853571,1.80416143174707,1.811551209961,1.84477204664141,1.84840645640326,1.80306568863506,1.79988150038014,1.82435848873206,1.78600751996341,1.77363207247321,1.77414370266384,1.77295895892513,1.76252506983659,1.75144135956458,1.7735721091788,1.73357099409366,1.72004547962683,1.7390245841083,1.79588863357457,1.74245713756376,1.75801530162837,1.75265068829181,1.72069685690422,1.7289515934323,1.75135841173052,1.77026443565413,1.74044337385915,1.76577449290482,1.76202706363412,1.73482756862073,1.75396059094696,1.74040364618521,1.76414336438216,1.75519664684899,1.74040742421523,1.77600834561761,1.75599198633743,1.73268263746091,1.759802280562,1.75116122904468,1.72532913236506,1.76185790102012,1.78020062108461,1.78204424201074,1.76695065573208,1.77070066822237,1.7542018097338,1.72766139870187,1.76219765251745
1.71979937014022,1.71224003860184,1.71541272817317,1.71485557467383,1.70604635372287,1.69562879456754,1.66051895319107,1.65143773456838,1.66004435888686,1.69352396992157,1.69657830354546,1.6736996010378,1.66491299607867,1.69596576390533,1.67047753790325,1.66081557738358,1.67806091248726,1.67074663679354,1.71101968213918,1.711023640251,1.68035908921139,1.7150416940838,1.71030408730221,1.67606760071909,1.6892214451279,1.75419577246713,1.70123121141352,1.73148855221672,1.79430238034772,1.82375688370395,1.76806908613745,1.78576538837133,1.79602775932462,1.80237862079286,1.82811881652517,1.78894886819369,1.78092342816742,1.78169116814488,1.75190522756116,1.76982141988596,1.78058351540773,1.77589831827506,1.77586049587481,1.78405616304916,1.78512071706343,1.78399454079363,1.78081348391384,1.77161091524907,1.76646323619685,1.78969193354992,1.77503048722531,1.76652822514626,1.77048249429412,1.779465380267,1.7912394513319,1.77330508851653,1.72841815973783,1.74856234299107,1.77480307997657,1.77478722662275,1.7816741040303,1.78651609081147,1.76665187522359,1.76843184871693,1.76239361374413,1.73390209657356,1.7463361859169,1.72719060742651,1.71829953747393,1.75033124027121,1.760170487029,1.7675304471495,1.78020272348793,1.77649946100889,1.77696644432267,1.77862182622454,1.75388094019364,1.7461695876899,1.78115090013451,1.76986286724641,1.78588328794482,1.79709176795666,1.78049379796827,1.76125810829009,1.82348760121668,1.79347860560984,1.82533246135644,1.81378070949049,1.81317265404579,1.84157306063778,1.85278098856207,1.81160784323825,1.84184207992123,1.82653500198276,1.83625713279158,1.80599034958363,1.78902255805273,1.80539731773996,1.84719175887416,1.85735592194329,1.8203617227214,1.83465740904223,1.80923214542355,1.81838553024778,1.84564243958402,1.82223692403456,1.84205957428484,1.81870808877167,1.84683712717503,1.8577186109148,1.84371697009648,1.81009364920566,1.84967502975141,1.85670535046735,1.84179999680732,1.83801499129072,1.81488542118033,1.83343734416711,1.81375640962784,1.79827493370054,1.80538094502946,1.83859277205742,1.84096480793624,1.8265208943408,1.84910325808291,1.82455331658437,1.83217714114738,1.800810723585,1.79367217888816,1.84221494506132,1.86029146447284,1.8460998671461,1.79076627752779,1.78085380093883,1.79389183834726,1.77944305351761,1.77351244668378,1.77342097378515,1.76823047548904,1.74938192315624,1.76908843573247,1.77693467558294,1.76485973998673,1.75354832914286,1.73629930541991,1.77089365206502,1.77277224991175,1.7852740390216,1.77530259937654,1.75725295215643,1.76294742037024,1.74196456170789,1.76449698054866,1.75593174150848,1.74006522994197,1.76368557202827,1.76321213894324,1.77088928192824,1.77020187522791,1.78178755197958,1.77187332870526,1.75420500725707,1.76932283933929,1.76919031371692,1.75362843167071,1.75697405108737,1.72307746319533,1.70967806177412,1.74949335815228,1.73829335557056,1.74948752633595,1.73582605826561,1.76533997395285,1.76542309020626,1.73409014466461,1.72467907872579
1.72418898247308,1.72158169621862,1.71460401274883,1.70652461599061,1.71155615052271,1.70374436006973,1.68319923768039,1.64867501924555,1.65741433585096,1.69591041421685,1.71103213068798,1.70615402774735,1.69589660123527,1.70583717805872,1.68535640167942,1.65125811434397,1.65674457864768,1.65074601910866,1.67400850226377,1.70079373663461,1.67850989674002,1.71406016382843,1.72232493127036,1.67443597872708,1.67727343664617,1.74603365950351,1.70358439935325,1.7222632934691,1.74960569648285,1.78628922705346,1.78332898187435,1.78551012802239,1.79339244937189,1.78761979441994,1.80352448748154,1.79416038928997,1.79543295541749,1.79222641899214,1.763266406149,1.73954238042228,1.74404422547607,1.76860024766386,1.75257972913572,1.77729660730539,1.78641727087378,1.78574895469171,1.78462670524296,1.78298276737775,1.74988376687177,1.77624653648982,1.78184538224508,1.78131617468019,1.79118498273291,1.77150884789747,1.77494517531119,1.77662816963926,1.75781192259571,1.73586649666073,1.75793954719567,1.75964502967913,1.73417565940853,1.76941109205564,1.77651748694457,1.7835632640079,1.77015743722299,1.74463646323332,1.72142136319435,1.70958360715518,1.70682222219328,1.71719326273378,1.75315133661485,1.74543985948624,1.78138898992872,1.7813805191969,1.76841976283948,1.73687682092349,1.7307524306712,1.75383232131312,1.76987885655821,1.73941860208522,1.76444280280967,1.77892499116398,1.77856537844131,1.74309926011021,1.7478572212215,1.7640424204721,1.79589755811567,1.83305077402058,1.8430631739549,1.84345893963128,1.83937483801518,1.81674368751651,1.84884889726984,1.85521298506457,1.84311664017571,1.8037561162267,1.78806320957836,1.8044547155183,1.84472407539271,1.85709045672446,1.81260505449425,1.81596211438788,1.83579193866428,1.85182458943105,1.8675068922742,1.85415961851486,1.82244890054984,1.81341475713583,1.84873761312213,1.83383997093764,1.8480049695751,1.81425149234898,1.8597269644811,1.85661240191382,1.81714374606173,1.7968912012111,1.79733120399374,1.84133013605689,1.84690649552919,1.80490543248573,1.78926751047754,1.81271135968184,1.84708911738732,1.85101997918446,1.85792869990136,1.84591057305737,1.83586375672681,1.79365187122181,1.80288693504707,1.85026080335124,1.85826420377764,1.83948934694999,1.80111804149304,1.79993355684249,1.82131932213337,1.78559405717624,1.77316911974419,1.77362801809927,1.76759764013523,1.74462635300712,1.74597379466931,1.73738169323665,1.72627338095183,1.73715620358991,1.75683368264907,1.74183309957105,1.76097777752258,1.77922809260587,1.77693983958666,1.74261684556508,1.76559042676906,1.76730597778355,1.77003952844741,1.77119787373766,1.77735921522181,1.783302617992,1.77557266907776,1.77345251550356,1.7341857330925,1.76446478058683,1.77427517555061,1.73863492719877,1.76386291109108,1.77312447100271,1.73620337486396,1.75360918865302,1.75863428880923,1.71894618566291,1.7536950096923,1.74582275672607,1.73072765051397,1.74543472376961,1.73768299858381,1.77341790126336,1.80235711659164,1.77251349552385
1.7140606678256,1.68079726526445,1.70073831532207,1.67343475621252,1.69617425618281,1.67282603219432,1.6620117177239,1.6634626883887,1.68758534745142,1.675885245214,1.68828466625104,1.67158389576332,1.6723691694296,1.69785526513969,1.66933644077907,1.66201965433593,1.68845001864387,1.67166951577869,1.69997916688049,1.70723369249772,1.70027300527529,1.67870823440186,1.70307662353318,1.69437337273799,1.69405330955744,1.79533730002016,1.74211165963077,1.76714966670885,1.77323783766398,1.74898420425019,1.77604785455137,1.75582233792904,1.7670883535634,1.75811162239722,1.79186867290622,1.78334643398619,1.78704839161647,1.78070775852436,1.7480058555259,1.75713700301571,1.76482250530173,1.77677365954342,1.75996645431624,1.7511934629047,1.78610754719307,1.78248266578189,1.77357107534384,1.77935280954782,1.77455998051751,1.78406648603147,1.7607732543771,1.76889084424745,1.7833912216338,1.73699232638695,1.76471334577778,1.77521096972833,1.7736276311664,1.75870057046639,1.72799187562867,1.74849207685393,1.72225830750032,1.76472874424424,1.78377175801563,1.81630688439618,1.77218360889277,1.72533126524106,1.74724798186691,1.75086297171123,1.74949739828044,1.71587327949633,1.75105188865319,1.77645599689653,1.78109511626134,1.78803311329219,1.77615519070775,1.76617078200202,1.76002434339345,1.73568141844093,1.73254406555217,1.72437718530957,1.72089526304106,1.73187317090126,1.77367881038961,1.774816218978,1.75333833067379,1.82443892602418,1.80377820086094,1.80544241520088,1.84054831158362,1.80751167996184,1.81417686513548,1.85038180073322,1.86505664452385,1.8581185681447,1.82605676290711,1.82465585636336,1.80217941453776,1.82873242490771,1.82285167203831,1.84745440915211,1.85101032496657,1.84209451615841,1.81742975439658,1.85634744624729,1.86713968619592,1.86731281732951,1.85646406769751,1.8513197322162,1.85855546995737,1.85320878394501,1.85497209881761,1.81242981058821,1.84579438642755,1.84867585260849,1.83732068792146,1.80726305291872,1.79815091760863,1.80885757976401,1.85603204104197,1.84094281554701,1.81088416364021,1.82614729034101,1.80496293847882,1.80894551971427,1.84566314921246,1.81937087782251,1.80669520848737,1.80510422028163,1.83679443876672,1.82464756665216,1.84340786386192,1.82249456622454,1.84487713546301,1.85112018937918,1.83993970064341,1.79781343781241,1.78313123228782,1.77438496366183,1.77077428660944,1.76848466137383,1.78007911891327,1.77047385925667,1.73840242451537,1.7582104471171,1.77750536599404,1.76272925134114,1.73009587727962,1.75573611124479,1.7653651917375,1.76767441705811,1.766723517622,1.74394494406973,1.76322874487863,1.77104334869245,1.7763644740376,1.77221688211188,1.76227974287042,1.7637104079692,1.7380071159639,1.75458017863701,1.7684200225358,1.7618352334823,1.76899206582519,1.76882743814843,1.74241341616252,1.73452907725266,1.79743859032516,1.73970288696606,1.75505342979522,1.73549011109419,1.75356158211051,1.75936005797528,1.76135650904389,1.75712887469359,1.74942995308646,1.77437106296574
1.67821860947593,1.66337364793325,1.70637869415687,1.67550009796693,1.70364322913032,1.69798201773708,1.70486975801932,1.71744186283862,1.71443303018802,1.69712088877404,1.67642657362323,1.69827086565233,1.70518280825721,1.70972594476504,1.70346291386522,1.70315859224692,1.70410520904473,1.70667172349496,1.70762950555166,1.67572810652281,1.69681574414188,1.65998532040636,1.65672949567944,1.66003033130394,1.6703675310507,1.69757068874669,1.71756645183943,1.76896661243291,1.78091076084462,1.7489279813372,1.77955788168479,1.77467876885729,1.75397670629717,1.78851214131276,1.82525141745371,1.76420445612113,1.77928709890847,1.78453379075697,1.76825577058376,1.73798438407007,1.73106917301193,1.75629306493168,1.74938010618095,1.78854597169052,1.82999683755578,1.78501042070794,1.74731002778052,1.77432728175448,1.79080299729255,1.835048617707,1.82941614838792,1.7595372057771,1.76678979746447,1.73782546008243,1.7665647730208,1.76508588328158,1.7675730495967,1.7753026757132,1.73056833283807,1.74192524192534,1.71821392829737,1.72689020859045,1.74884899953756,1.74865224874377,1.75890053108818,1.72578066330644,1.74177870650184,1.74029468685639,1.77944295182244,1.72295210202602,1.71588073446294,1.75409090250645,1.76395170778666,1.77356151893964,1.76746472089393,1.77625540024333,1.78474713969479,1.77287729349282,1.77978842124631,1.77079742795808,1.72056347836232,1.71175305835741,1.73188776475412,1.76621909817024,1.77529141543243,1.8559285089222,1.83889362686183,1.80448429892596,1.83842076898464,1.80536429664371,1.83189479124831,1.85348611628938,1.85932763914613,1.86654693936198,1.84298105795571,1.80479707950159,1.7989200163376,1.8150149064456,1.83789993489113,1.82421085935775,1.84637425876819,1.85212143560654,1.81977775486973,1.85406771566828,1.86498387675475,1.85464830380343,1.8321290787537,1.85544306234022,1.86219619013642,1.83374707475997,1.85131139417544,1.80510525953452,1.80629538057826,1.8012330382073,1.81488866696081,1.84326271902571,1.83501220333623,1.80537065364281,1.83555985693975,1.81589463110842,1.83189173279586,1.80312596208713,1.79199610533009,1.79343887931841,1.83538519769239,1.85512942700218,1.85605869839462,1.84826512385233,1.84576656690736,1.83975206422423,1.8509581089165,1.84204452848899,1.85216853853478,1.84290760865461,1.84101980279947,1.82803488657566,1.81307868664464,1.78097496094733,1.77096168091852,1.77040076203061,1.79227274414338,1.78953235539545,1.76545375214417,1.73757395980838,1.77343517885163,1.78331071466618,1.72048365831047,1.71648690124527,1.72449275856981,1.77847348616631,1.78986736650613,1.77912875597345,1.76477499048196,1.77163566213836,1.7798396728761,1.75640551512733,1.73329191890094,1.77210794872215,1.80234858991635,1.74515729097741,1.75309815407172,1.76481178845819,1.75949679853542,1.74839713734545,1.71177702666549,1.70886452170801,1.76039585209804,1.76474853331882,1.77565379122971,1.75816678247675,1.75982165380487,1.73758844427311,1.75341630862746,1.72730110223843,1.75477944532809,1.77074023779783
1.70601327580705,1.68008977239782,1.70841074037909,1.70853200949793,1.70789379285501,1.68163337252354,1.70847414975802,1.71959009714657,1.71880808179906,1.71158283533404,1.70778408324924,1.72192163518804,1.70832282733436,1.7109609499032,1.71385759501831,1.70826024307594,1.68161214235202,1.69960184597024,1.66687847465367,1.66417981607433,1.69633294726484,1.65990518840075,1.65588303662541,1.66161540827836,1.69723179417359,1.67652565731601,1.69867731216363,1.73344666069785,1.77976502055271,1.78265078439961,1.78172646605375,1.7894818138222,1.7779730978961,1.79299281113746,1.79934872786953,1.78246831861312,1.78522918080913,1.78689681778659,1.78236046128172,1.75531520263135,1.71968255486727,1.73546617430789,1.77665194015964,1.79431865304253,1.78648619251888,1.76974664458504,1.76400100503063,1.78693618592452,1.78515942297031,1.79572036537059,1.8056407105653,1.77777328989609,1.74460631031959,1.76980347209626,1.79043762147405,1.74036366262629,1.74299335764296,1.76618489347465,1.74472261805721,1.72153855071621,1.74803198714058,1.74998560621425,1.729463244292,1.7472246966069,1.76837813836482,1.74345135803134,1.72044066843544,1.76658043554603,1.81215596469594,1.7520938072695,1.71556104418208,1.72171967824622,1.73366612155673,1.75797101550317,1.73510596450245,1.77568273903498,1.77129603118563,1.76717794857514,1.77247075241255,1.77186862519957,1.7288112375404,1.71308858025907,1.72307924670882,1.74669972949186,1.83449491092779,1.87908837020881,1.85089805075217,1.81219849651996,1.82675927550066,1.80481599585618,1.80556913988746,1.81112266271433,1.82140489002419,1.84892897002195,1.81818802690509,1.79716335921581,1.8299198118528,1.84629634645684,1.85579285716591,1.84448388980984,1.82648904031963,1.85879746825981,1.85814310525217,1.86484975091722,1.85828478729342,1.82995902493473,1.85019494003538,1.8505413156178,1.85282853149811,1.84826913472868,1.8568244993143,1.80979287488986,1.82567756853596,1.80149808644687,1.82045824511513,1.81446095357135,1.79785647642237,1.78685398417021,1.7919744789728,1.79645623482118,1.83258030241377,1.8023940937429,1.81988489335076,1.80188021924766,1.81079612043104,1.84128865185899,1.85021234377835,1.838484536919,1.80260065964283,1.81015274827545,1.83561478644184,1.81220025037967,1.83807748014422,1.80819305193639,1.79225589348162,1.79603461384723,1.78510480049786,1.77490794587961,1.7678271385314,1.75603490608881,1.78780080642487,1.78557390476294,1.74339724299475,1.72395642143136,1.74831801979769,1.8036122729641,1.74415131888362,1.74602400801633,1.73203587931264,1.76888720800376,1.77935479424707,1.76922240065106,1.73539941309623,1.75317168890184,1.76130500211362,1.73182973386986,1.74455066849214,1.770517730084,1.78564795966482,1.76798066100804,1.73441199896198,1.74385217705168,1.7215300393398,1.70488479614171,1.69766150975001,1.70482572964706,1.72298844246574,1.753095007447,1.76237600826807,1.73581630982549,1.75052228977607,1.74224135830133,1.71664103146055,1.72270311186116,1.77478826148854,1.76814306020622
1.73327958951995,1.73167713180928,1.70881954306032,1.69451267146792,1.66854259281657,1.68676019965177,1.71018834360108,1.71859450908033,1.71859610870765,1.71185927737975,1.70509515556437,1.70708200624152,1.68299703529485,1.70280656066444,1.70737984574172,1.72061075464514,1.71135315340952,1.7143499194791,1.67549321568785,1.69765588977532,1.69860705476533,1.67504251692618,1.69342246984786,1.67160732947441,1.70106065451172,1.68765700181108,1.74428782206566,1.74303998646168,1.77355813094833,1.78191991745613,1.75675335310357,1.77578257525145,1.74618551404325,1.7710872330619,1.78637206377617,1.78779236904001,1.78769891067228,1.78921349300817,1.78440752681763,1.74144495495034,1.73261819060518,1.77386677050663,1.785270226866,1.77727724436815,1.73702659555816,1.71966039007567,1.73435872237925,1.76428672108254,1.77636390885507,1.77868555761757,1.77857920589738,1.76823352116481,1.75756548097751,1.7536919729656,1.81510851473213,1.78795996557521,1.81116510547682,1.7768978951374,1.72560080147055,1.71190458061469,1.75906108792192,1.75727961696857,1.73960854183137,1.71561829464393,1.71709375001406,1.70764948558902,1.71947782525003,1.76027556908513,1.7382187954671,1.71814015003945,1.75263796747153,1.77569710034474,1.78169328378316,1.77717571074337,1.7448164314329,1.80098638723552,1.74408271649609,1.72621921909991,1.73363668492121,1.76140805691386,1.76328928508019,1.74073854829427,1.76151666692881,1.74035268101714,1.80562118138896,1.87109610667255,1.85717969812958,1.84277066355902,1.81959399955908,1.84336869212471,1.83674061090804,1.8420748867984,1.84669422634872,1.85115794453928,1.84707360241234,1.79713182770435,1.80145830612528,1.82803284445596,1.81815871339798,1.85271228022865,1.8452516157174,1.86291133498668,1.86600295538367,1.86516896587494,1.85084331700893,1.8451962971609,1.84767295651888,1.81846471161895,1.81008236193497,1.81037417982782,1.83892420710738,1.80102079874926,1.8057491257105,1.80264082080965,1.81382782301184,1.828212453417,1.79267477436761,1.78141658577228,1.78116978165432,1.78305368553573,1.79340515367896,1.79705251255727,1.8083986335957,1.82674633742959,1.82693917939429,1.79882415543842,1.79176989609505,1.79221681905822,1.79907331435363,1.82847727567606,1.84382760751279,1.81568856364917,1.84922136759349,1.83700464142607,1.79785404429217,1.82524345580274,1.79474699536855,1.78197947731583,1.7727146693533,1.76973039558062,1.7879133859331,1.7840590134761,1.77958385632233,1.77197879570974,1.77153287196441,1.77668151315978,1.76926417509343,1.77603695777297,1.76800753139588,1.72582344197558,1.72091872444786,1.72162427453036,1.74339958354447,1.73136454294569,1.75009413343327,1.75002515534841,1.73233174154622,1.76521958230045,1.78334005987646,1.77305598199768,1.7530266048079,1.72991910057612,1.74310669801291,1.71381494177217,1.71049006925442,1.73871673171288,1.74850030016997,1.73145860088839,1.75284361290921,1.75068606538549,1.71770504464003,1.71563885647397,1.71003826426386,1.76080278053555,1.81077458064498,1.78588511004973
1.72535851101358,1.74398568891095,1.67144382242262,1.65112881051622,1.65556974013866,1.66985150331551,1.70534201012404,1.70733712822502,1.67378648714514,1.69191901044433,1.66914268060864,1.70251455798188,1.7161965691128,1.70452149183937,1.67776347607419,1.70005621749113,1.71387397043899,1.71717860058854,1.710086338149,1.70041325789615,1.68185138869214,1.70852658491159,1.71789020207767,1.67403744849872,1.66409828517911,1.67129894087681,1.73081207749464,1.77587572181939,1.75838338904807,1.78321479076327,1.78173410468049,1.777993106534,1.73553369363263,1.73533081528923,1.77720238149604,1.78598758134497,1.77938975794331,1.7854122961698,1.79019716450459,1.77747854929083,1.78177844340956,1.81436722054884,1.79411850890437,1.79204092388265,1.76406344138694,1.73410796892747,1.75928477107757,1.73559579831723,1.76703206954008,1.77488873144234,1.75928504402439,1.7394779038941,1.7650741593575,1.75842322688875,1.77334993255188,1.77701517510399,1.78846781567919,1.79002476050725,1.75666312270469,1.72850533323565,1.76521963707275,1.72959478876865,1.71537560085971,1.7162256518675,1.73596157930441,1.7156554992878,1.75230490414102,1.72696551925714,1.73029185127947,1.71382394621901,1.75904642875086,1.77877198383054,1.77594300379524,1.76597214314291,1.76683329715498,1.77949420574413,1.75789725833592,1.75914261318476,1.75089032863308,1.74353280262679,1.7787315189489,1.7763612050503,1.77435543550856,1.734860757451,1.77711820490437,1.86046954516791,1.83077843355263,1.84660583993889,1.84549314503271,1.83786533592041,1.80410206597944,1.8072681807622,1.80861358796959,1.80824202276422,1.83552408011301,1.80486786705777,1.79768489641471,1.80244794746627,1.80072315401298,1.84300620285086,1.82499984786959,1.84926779487409,1.86620342428774,1.85878601580298,1.80894385798707,1.79963802783489,1.81711034174373,1.84662457375472,1.84006386068928,1.81641487598674,1.83625179300668,1.80772006708971,1.84412151740998,1.85430012945064,1.83805703444461,1.80391520817009,1.79619339100618,1.79501491654309,1.79378971629304,1.78270064215179,1.78997877790094,1.83128283280838,1.83510214502262,1.80031979310669,1.79206623694428,1.78960879000576,1.78154104777875,1.79671635271514,1.8268801114681,1.80953166592139,1.84167929843599,1.84361044957233,1.85266593051894,1.85228528699755,1.80834035428065,1.82577133761629,1.82230436262503,1.81146502875627,1.77860192169322,1.77334528603287,1.78154226019127,1.75685884430685,1.78381596677229,1.78232734419887,1.76210325991428,1.72572144157673,1.73600625635826,1.77121697945422,1.77622976575727,1.73048030426649,1.73444221463093,1.72161722780522,1.7502859909719,1.75374427463654,1.7342687290419,1.76064764760042,1.76260490153222,1.76101501032044,1.76890899364449,1.76346382218424,1.76935861072823,1.76485871408358,1.77311832471803,1.75032759173807,1.73613684257396,1.72036314426238,1.7498052705646,1.74970105433824,1.72385927360023,1.74226424471257,1.72667142845986,1.74357688289514,1.72772523681424,1.75655091137124,1.75409944222293,1.79117021452042
1.6785937101696,1.66585306289933,1.65200991740545,1.65407327624402,1.7011729921063,1.69543572714108,1.69215118037758,1.66912170100941,1.66430974246586,1.68909993567914,1.65825047065961,1.69114623451297,1.7125386458671,1.71107674177534,1.69413498327103,1.66657094776131,1.69297724447062,1.70817395821068,1.72120986372818,1.68773800403696,1.7045986623409,1.71980226828914,1.72525047345754,1.71880430290279,1.69011129675693,1.71905066710119,1.81272029187858,1.84183387776653,1.79502614498643,1.79221724974081,1.79153100011654,1.78957209652068,1.76447491734138,1.73899675063494,1.76784875722082,1.77634200230086,1.75264397293734,1.77524915885328,1.7796170429251,1.78981517890718,1.77995881526169,1.75900767215023,1.77963137070339,1.82561040087322,1.78923918956566,1.76293124985795,1.76581976765063,1.73301605760881,1.75556071556982,1.75520557203679,1.72786423201896,1.7580118654214,1.77692472895508,1.72361467265705,1.71978908214135,1.76191707719309,1.77772228671827,1.79391817119489,1.77213076963592,1.75180171272263,1.76161767069673,1.76902196777479,1.75176756226934,1.75415195006446,1.74449832829986,1.71315220031086,1.74116669131515,1.71972842649289,1.71514863713296,1.71938831043459,1.75295822814388,1.77357580206566,1.76301836428356,1.73416827153803,1.75329240228408,1.75324022405435,1.72887574341164,1.75475809214254,1.73352310128668,1.76298607652463,1.77429805645293,1.7539300220051,1.77777514016897,1.76937417290795,1.84423707508477,1.88493264126699,1.85822708577225,1.85565397003514,1.84411939573071,1.81023123279438,1.80528410662609,1.83756178592596,1.83196751402232,1.80457586349538,1.81516877362351,1.84424685385711,1.84513960773382,1.84282778537727,1.80593852012176,1.83873501247717,1.84164223359651,1.81492293027568,1.84489030361772,1.8441950791378,1.79510608512315,1.79199209441193,1.83365265081269,1.85073043764753,1.81826634970435,1.84167234202665,1.85157536081527,1.81850404056508,1.85316132976757,1.85476516486882,1.8060919731692,1.79457590055438,1.8330835721704,1.84714614335501,1.8380624986509,1.79416410450328,1.79280939869012,1.80250968794765,1.82590473479638,1.79804127589845,1.78978451006631,1.81769423896017,1.79564550556936,1.81503840761584,1.79917366257083,1.80094128335469,1.829230647739,1.79952736474837,1.79860443783164,1.83467823318602,1.83141311972693,1.79475916888256,1.79124728282293,1.78365824987903,1.77336195292343,1.77429542967493,1.7886800944902,1.78328472204384,1.77941067392816,1.77281676206742,1.73460477557049,1.7179818471934,1.75543044977207,1.74348193338721,1.76923035275828,1.76643784586241,1.7328619305217,1.73548044364675,1.7351959019798,1.77260483875399,1.75411126901833,1.75733615108903,1.76033938163227,1.72463764066588,1.7384161499396,1.72710896768239,1.77131071974995,1.77402084493375,1.76339824269903,1.72735205226189,1.71609237566193,1.70963248802056,1.72379056764786,1.74326016078482,1.71460823482978,1.71595149462129,1.74642189207333,1.73610813962554,1.75462773448024,1.76311250879493,1.77028544895258,1.78015458498054
1.71082889949602,1.67211550716884,1.68556242159071,1.67303017406643,1.69808388993122,1.66837659763169,1.6564047314605,1.68397943268105,1.70141749141617,1.69100207901785,1.65847339951548,1.66560106828595,1.70213907428568,1.71192851683119,1.70164384723774,1.66061461397539,1.65717331809272,1.66643315897036,1.72102075724879,1.72081698449449,1.70799835244821,1.68045925703421,1.72295913629379,1.76541355430478,1.78935434519554,1.82393299813401,1.75146674134616,1.79134321605989,1.79517168030313,1.79304378377708,1.79220209873095,1.78666943753261,1.75336792254322,1.76140453596221,1.75036990651545,1.77585852329508,1.7772894573412,1.77457535783764,1.74772892952793,1.76557282500407,1.76907589395514,1.76037197098302,1.74065921089535,1.79143033624142,1.78471050353757,1.74426134333447,1.75905943638985,1.75736073779634,1.72908176264698,1.71505591099509,1.72166681138721,1.76628598153001,1.77865093857487,1.72385097214708,1.72250610020308,1.76557920114157,1.7780916662769,1.79012779545248,1.76692566279355,1.72757777406447,1.72793758486286,1.75551739646546,1.73559004222135,1.74913605364752,1.71174951099965,1.69514636157769,1.71202242295692,1.7572702762134,1.77690716478527,1.77952447861703,1.73016779065942,1.72551772531807,1.76749615352214,1.74497654620533,1.7163590769632,1.72555083762845,1.71573521813591,1.7530625724534,1.73514303685208,1.76725222553768,1.76905264704499,1.76503896727409,1.7864256904584,1.8208174401606,1.85660862278973,1.87894475941713,1.86179252323605,1.85011196116007,1.810989838215,1.82658963878807,1.85426687241983,1.85052804983333,1.81195788043821,1.83082911750195,1.84510965126797,1.85010449891937,1.82595851819273,1.83673146297339,1.80878817885986,1.81892924962973,1.84702696957661,1.79856715544631,1.79258041238341,1.7937212275579,1.78468913874966,1.7867546060906,1.81401957810394,1.84685561149269,1.81154472120905,1.81847353239417,1.84694768371247,1.84321443168408,1.8593262356192,1.85716087918286,1.80704747951846,1.79651015426492,1.80682798654674,1.83962747876042,1.80747497853971,1.80213088900589,1.82357324921351,1.79137275207846,1.79606480884398,1.82021716289651,1.79795507154977,1.7922692289131,1.79315805656654,1.79633084428516,1.79179605272106,1.82511304531663,1.79940026799838,1.78838084395105,1.78916449881258,1.80411633434111,1.81944143709333,1.79090323550983,1.80545178609189,1.78001504202555,1.769977022999,1.76876146943292,1.78607723973874,1.77423510293164,1.7403329088846,1.76739647002893,1.75908935721615,1.73343019471214,1.76766603373539,1.7653213641462,1.76235251280697,1.76229969166039,1.75286606006245,1.73152423496611,1.75796465753985,1.77883924960723,1.73203966704013,1.7107249728247,1.7185957197674,1.70749400789785,1.70443436310064,1.71664384124498,1.76523426553795,1.77298397864778,1.75994195862886,1.75871027301669,1.76018451105768,1.75712211827713,1.75145329866241,1.73027450947439,1.73408078392023,1.71383975281152,1.71616604695965,1.7459981671336,1.76276025775766,1.74136340307361,1.75985737100848,1.73462016703054
1.71599087638764,1.70595710761235,1.7050751854865,1.71506685879349,1.71091009749078,1.68501710707274,1.65480362004293,1.65159698559098,1.66140059733651,1.6670176471095,1.69510445441429,1.69877658539628,1.70078256383435,1.70938009668648,1.70999025095234,1.70147766500398,1.69164573363211,1.67144109415741,1.71493095232071,1.70991055539626,1.69716494409955,1.67709045796998,1.71012121769981,1.69455250904981,1.73807855983161,1.77429825154847,1.71286179547987,1.77231613648452,1.79101104975357,1.79368444001859,1.79203838200689,1.79032860055178,1.77731022847553,1.77409163747385,1.77460478545668,1.77583714981615,1.78349301923783,1.78327780213675,1.76645330665361,1.73722621099193,1.73032530123917,1.72918305284053,1.73015027368464,1.77516086201592,1.7836019568387,1.77438417008524,1.74426077185946,1.7658751591459,1.75696926939434,1.72983131455462,1.75710127364654,1.77273917396462,1.77480888947173,1.76613371562982,1.77773672945509,1.79041666687938,1.78921168611241,1.77807766701348,1.76633120875646,1.74801908251652,1.74596457467236,1.75385505703165,1.75816770274341,1.75310418276877,1.70456679035713,1.70002375061025,1.70341585272714,1.73055469046095,1.82362083387281,1.83219476625262,1.75223615019592,1.7231219588039,1.78819143185663,1.7373140939712,1.73035467037042,1.79080844409918,1.73943722404395,1.75226617390792,1.74784629649669,1.72655530207388,1.72577067194333,1.72166085933332,1.72586430034662,1.74115774571727,1.78378849661342,1.85515626655701,1.8519051419071,1.84666571813917,1.8030723053012,1.80028215833941,1.84292810785218,1.84636321870392,1.80568878897299,1.8018971505846,1.79942974316686,1.81584108324628,1.83819455649217,1.81460300554693,1.84236416002452,1.84983612966901,1.85018949884949,1.79788874600444,1.79235723016406,1.79548666678477,1.79436496861919,1.79676825282762,1.84291026324566,1.86196356965831,1.8560964955982,1.84972402371591,1.81850776499577,1.81603499528868,1.84598383833687,1.8596993494517,1.85009053893653,1.84332535758294,1.81272714042529,1.82975445503445,1.80947427973708,1.82189506999281,1.79839333202277,1.78072028786759,1.78145285759059,1.80547254209155,1.82460644417182,1.79987870511964,1.83637199190127,1.83349680544045,1.79714406364592,1.8218322547072,1.80760809086939,1.83321357785432,1.83443047933444,1.83356904122388,1.80355111171392,1.7888633926674,1.78233396808867,1.77339988570144,1.76652030634938,1.75351211364551,1.77456905771383,1.73210148201911,1.72087882055801,1.75858390864551,1.74420332665558,1.76542827210654,1.78131681337722,1.75737611269934,1.71731209679272,1.71737116298229,1.75844877529478,1.76212287045619,1.7724627650835,1.78659459177955,1.7661107597444,1.72739774877437,1.75141062632812,1.75038346614927,1.72021059008642,1.74490550880452,1.78278055881265,1.77761777082264,1.7386944967486,1.75708935448665,1.77620478318854,1.76077934291414,1.75733400101407,1.75119458085027,1.72460759216697,1.74219859790087,1.7181820457436,1.73138354981418,1.77301580846269,1.77508138216402,1.77185384757465,1.76439114905296
1.66402887083328,1.69683037659875,1.68129351272044,1.70752223486469,1.7044671697768,1.6747715711062,1.68397828573411,1.66655031401567,1.69120615152313,1.68139977131386,1.66626820976836,1.69149148678148,1.67639001090201,1.70596526165172,1.71286462934665,1.71288246475555,1.71096632879062,1.69466816367554,1.69315481816804,1.66309373722256,1.67093009674263,1.69317872910298,1.70037606295773,1.67161372658218,1.68029442789952,1.69761729195178,1.6948907790055,1.77218450634589,1.79116875109766,1.79475628929227,1.79347256925768,1.78977417324334,1.77907179706325,1.75081206160662,1.76449318919148,1.75001122377363,1.77887717560975,1.79102602267998,1.78101098094318,1.76180001645567,1.75607710813932,1.75520589738396,1.76144457327557,1.78443926648595,1.78308275196389,1.81239859526987,1.76818743076318,1.76421211098617,1.77231438989868,1.7678017027236,1.77130983051587,1.76449011547823,1.77124499141651,1.77635907431768,1.77777591655321,1.79026077153061,1.82560115524491,1.77745791467025,1.76248752057223,1.72493436392693,1.70849143506751,1.72047257578455,1.74941074848699,1.74670900106978,1.72304420447985,1.74549221063134,1.7458956929727,1.72665179580444,1.76788546247852,1.78662846717346,1.72885147854101,1.71113292389657,1.73854892224324,1.76918174268582,1.7695915274411,1.78460100383418,1.76749917618632,1.72202449419549,1.71277582710168,1.72379028026729,1.7499068772345,1.72556941109706,1.71179611977322,1.73391385583566,1.8313192417164,1.86277828464792,1.82644040424775,1.85261571591887,1.84254786854168,1.80256149139469,1.8040990708233,1.81735369723209,1.84168732554307,1.83787816825723,1.81343311004333,1.84332022598456,1.84434592367191,1.81397220203711,1.84034807054384,1.82976206835959,1.84851473784183,1.80539287504258,1.82787736473382,1.83554671376768,1.83121354136831,1.81596837839949,1.85729194213383,1.86657939087851,1.8686380857566,1.8636676247036,1.85259973696052,1.84363822360781,1.82458538324818,1.8508242074581,1.8576731540015,1.85177999201742,1.84063340467796,1.8194944311024,1.82324397033132,1.79934547712855,1.78890171980189,1.77897657366451,1.7856917549738,1.82672296846038,1.84358964148799,1.81143939640159,1.83658900693589,1.83428364507538,1.80034703376491,1.80556652799007,1.83041486797502,1.83425231358607,1.81795149906909,1.84246947452927,1.83319087553881,1.82568437807445,1.79081194052203,1.77365857417533,1.76916081897758,1.76854093502176,1.77777298965706,1.72486179510122,1.72547628756758,1.75709843443538,1.76302449672688,1.78536484496512,1.77326478681986,1.7225166736297,1.70621566416887,1.70661093339718,1.7510437961384,1.76913660064235,1.77113628095507,1.77369474164635,1.77131497047685,1.75716885993284,1.74200746112276,1.77144818405461,1.75776671930222,1.74545893457387,1.7714807278161,1.77335360593227,1.75709745782138,1.73675589875957,1.75721860841279,1.72777945012086,1.71928911104295,1.75000836402736,1.72806764724254,1.75625709869808,1.75466933706662,1.77481028097462,1.78809627895351,1.77699159492427,1.7653673941125,1.77215895420698
1.65353613114755,1.70016091130217,1.70660876352984,1.71140920922553,1.70829313242999,1.69547478776123,1.70622625100323,1.69868057000356,1.70729719355456,1.65646235692025,1.6477196406391,1.69189688686632,1.69351993406127,1.70932362163375,1.71129465122765,1.71365433980937,1.7124257718608,1.6642973177347,1.65890726228044,1.66379863090749,1.69873599747379,1.67570117972644,1.66741110514208,1.70125699546109,1.72368317524926,1.76343058559009,1.70977747331171,1.77192815721019,1.79085781279119,1.7935106291947,1.78957234711677,1.7886709882224,1.78872864965761,1.76995341025426,1.73798697491445,1.75548899796743,1.77311795226251,1.78385446311955,1.77493084745379,1.73750155854496,1.7205774707145,1.72692164137828,1.74166857837839,1.77397926975198,1.7417788057443,1.74116059923307,1.72882067889638,1.73616323432769,1.77751971959693,1.7735816017494,1.77565406046109,1.74148353365711,1.76677808465474,1.78447567312979,1.77521260606221,1.77788125277056,1.78875267939281,1.75005673729481,1.78396413143949,1.74822098173222,1.72029767202859,1.72946656723565,1.7095249597882,1.71493997294699,1.76312358075039,1.7676307873601,1.76782184832661,1.76694308908733,1.7463224989942,1.76154803712704,1.75026876573431,1.75391077811259,1.76084319621504,1.76712512341149,1.73348783517325,1.73544108302316,1.75675816228082,1.72084345756911,1.72011568939263,1.76074829102857,1.77640260430855,1.76645506886085,1.72019085314426,1.73437564052762,1.83116832402928,1.854853019964,1.85003483755775,1.86060054694391,1.85511701786066,1.8452180986775,1.84137011085919,1.84805967594412,1.85523078774595,1.85220967366148,1.84700898457232,1.84949005454246,1.82088792877954,1.83989376515449,1.86033313437998,1.85831208279131,1.85224062917403,1.79999632970981,1.80439407652979,1.80616286071253,1.80484984974456,1.83806331613493,1.86183805830744,1.86284736754701,1.86530213567997,1.84807279241926,1.84910182807658,1.86132300562502,1.85627143479641,1.85228748813946,1.84427884398838,1.81429490264883,1.84486512059306,1.83752249948081,1.79800535132057,1.78844796054417,1.81364676749727,1.78823359720671,1.78749539973944,1.80013589824359,1.8404877918468,1.83315827969739,1.80893286512089,1.80835256554447,1.82935871348127,1.8269793705596,1.79718083923281,1.79501324761308,1.8271373951412,1.84113500869048,1.7983946242375,1.79266449736957,1.80742796699492,1.78093541604081,1.7755571658827,1.76911608393429,1.77786462468412,1.74262772975047,1.75997852147709,1.73855690052125,1.74659981679655,1.77853278743634,1.78493012572344,1.73396207260901,1.74396617698513,1.71774892454495,1.72621465148785,1.76068821812012,1.76136944416721,1.76440365151599,1.74986844201152,1.72794842541831,1.76144955407797,1.76563427739834,1.77552355047268,1.78895989672663,1.74454491271332,1.75504655233787,1.73962207351294,1.76190596229911,1.76458167756644,1.76316592950855,1.72898660392349,1.74831031449563,1.7416725826264,1.71726091940089,1.72974805212942,1.78740784667496,1.81929019578029,1.77654217849606,1.73829474711743,1.75487447915609
1.67036491221652,1.70019242658769,1.73138729115926,1.71830905424071,1.70223228952106,1.6712081403631,1.70154020099967,1.67085909756184,1.68978092956748,1.64793897639543,1.65082042922385,1.67948978651898,1.6579414123601,1.66859008598045,1.69212905353952,1.6980581615732,1.69294833721211,1.66674508567113,1.6909394016489,1.69345046065287,1.70544893965898,1.70632976791374,1.67469427241944,1.69569682562667,1.71444525062784,1.80500941117593,1.7314636783107,1.76537931831792,1.78034585431221,1.78220542339635,1.78606805430216,1.78854605598872,1.79058740735524,1.78044311146797,1.72645353964958,1.72827875661887,1.7408042333439,1.77485949843512,1.78015689853276,1.75941373969858,1.72521890041191,1.75819194294151,1.77209927487306,1.78621144256123,1.77296805526026,1.77618633251863,1.76727531559418,1.77584717459543,1.80051752725299,1.75306313126712,1.80819483507677,1.77543967533041,1.76823579144663,1.76352538692424,1.7632190685537,1.77367035346695,1.77298024607922,1.77698248685418,1.81613043928859,1.74996250469205,1.74892177214402,1.72046382868655,1.70193425056261,1.70353274111739,1.75010515145852,1.76372607596511,1.76063609247046,1.77934728296159,1.79472852048375,1.75505686712679,1.72841687386283,1.7505206652091,1.75873903833035,1.73699882940339,1.75552045651919,1.76486697015476,1.76876219542546,1.76059954498624,1.75818386318626,1.78162807278861,1.78182967243431,1.77193167713018,1.72124335197538,1.71951297977259,1.76058207841503,1.79317024849301,1.85061990687569,1.85850523750965,1.86015985329302,1.86317336611621,1.83802341548267,1.82382594934774,1.85563340724018,1.84701714457512,1.82182438157817,1.84194678730379,1.83563378086764,1.84283591351192,1.85671285346708,1.85986507597954,1.85301089033621,1.80656295706422,1.83999386664501,1.843819477394,1.80456014745425,1.80697953982884,1.85313299206962,1.86247415608252,1.84076566579078,1.80388437423284,1.81095472176968,1.84010485770108,1.84920047050172,1.81572999221834,1.83343405955346,1.81321607859266,1.84411255886482,1.81597633257668,1.79336793651893,1.78424272242114,1.79597384803818,1.79109201557387,1.81253742494958,1.79851195189396,1.8358620888858,1.81934616655828,1.8326294868562,1.83988138563302,1.81070396054192,1.79729250928865,1.77870528304494,1.77762493017677,1.80528293902579,1.83786653663767,1.79043851151051,1.78279462688962,1.78086972950296,1.78057890662495,1.79504933297665,1.75310379250808,1.76962318541196,1.76734848220941,1.76767204719952,1.76961979620746,1.7958393964766,1.75349841013812,1.80394927429275,1.77337500348585,1.76947350751756,1.76217696752781,1.76200661979825,1.76116463570663,1.72540850091822,1.7391559279832,1.71258678225108,1.71650304413322,1.75293457683168,1.7363012610158,1.75558510754621,1.74324838645179,1.75514622038561,1.76576767906627,1.76264525088271,1.75933446991078,1.73124885494344,1.77050428040281,1.75753882294627,1.72620252042394,1.71511146331261,1.70912667772696,1.75307005357917,1.78480372148486,1.79547940278969,1.77255811053513,1.75584933300617,1.7599368219766
1.69959297426191,1.69712726425377,1.78422643356108,1.73427334877398,1.70037152536714,1.66022780572853,1.6895746789388,1.66883770627293,1.69076764516032,1.6565349420176,1.67685097195816,1.65436840652967,1.65642071233284,1.69335919440862,1.66820085463052,1.66213619147182,1.66733764014158,1.69358116409483,1.69249003436883,1.65928116363893,1.66868662489016,1.69900230359311,1.69050089453714,1.67250564374568,1.71802002435699,1.7930884591194,1.75841803951313,1.73900307172765,1.73460454481825,1.73626163188005,1.77719402258347,1.78889151322145,1.79092329477682,1.77606262074448,1.73045073706029,1.75770850942514,1.76425776032902,1.77786578076312,1.76617615328046,1.73384720186653,1.72289330848213,1.76788236361717,1.76118045179476,1.81192023459376,1.78762939034992,1.77940549406854,1.77541037932033,1.75996536824245,1.73092773496934,1.72418775321039,1.76504576062366,1.77243158189766,1.76294585826728,1.7171320382267,1.72062662935584,1.77347641900391,1.77035915082613,1.76514924710055,1.78227643538939,1.7586182143615,1.72522327177606,1.74702170671527,1.74544674652677,1.7105838157913,1.71220642224295,1.74380900956438,1.72418366937342,1.7557704472236,1.73478669732395,1.72277593630642,1.73829129415749,1.71995012846713,1.7477768716729,1.75995770249008,1.76440842116873,1.74050230236291,1.76455003476409,1.76739863811322,1.74346827037564,1.77400671987002,1.78000594825818,1.76850780832585,1.72785073218226,1.73428678662896,1.82475641097647,1.84764701378385,1.8528582391653,1.85797055770773,1.86156399933915,1.84866426053568,1.81787842941054,1.84159605323496,1.85516502266502,1.85180315743682,1.84583139735988,1.84484742349919,1.81280745638497,1.8131295016437,1.85185862800045,1.86149151143672,1.84795859332113,1.81366926967939,1.84187264921261,1.85053571127164,1.83983208775935,1.8143345407396,1.85550118677502,1.85797408381837,1.81464152876889,1.80398112038018,1.83163911020761,1.82351588016896,1.84765716893603,1.81790222704973,1.84505078208362,1.85371800357625,1.86336260247637,1.8432462282275,1.82644131805106,1.79741643486287,1.81908320826657,1.79878657062623,1.78693826219029,1.78943926335046,1.83320180097522,1.82994628519688,1.80866917453426,1.84865882655768,1.84847852035575,1.82995920053604,1.78651738219339,1.79091081445088,1.83169957523324,1.84998335133907,1.80553943170337,1.81114913452036,1.77830072225936,1.77222250956411,1.77044244290187,1.73502032162745,1.73495775261899,1.73405370804391,1.73129380888169,1.73642501638479,1.75694740121178,1.72431748657317,1.76091296555932,1.76426190472076,1.76986020868244,1.772384908263,1.77231159715788,1.76216866640146,1.71786887855879,1.71127260700909,1.70480605202039,1.73978889244199,1.76106878226538,1.7557436962453,1.77501331197259,1.76348296462537,1.77063756510717,1.78308734627426,1.77592909250047,1.76245802809737,1.73042707719994,1.75408484912025,1.73745992741733,1.75293934602568,1.75002126406223,1.72671663044266,1.76279700551578,1.78448167282898,1.80621888829113,1.74142910055007,1.72954027012405,1.76092018538295
1.66938037934213,1.6973847705644,1.72453313474288,1.72594479118039,1.70322964932298,1.66729516337746,1.69764364092312,1.70705450126347,1.70855243515998,1.65875695126635,1.67718899368473,1.65958741600469,1.68183281103454,1.70584209057634,1.70323338103021,1.71144991721415,1.70436561304808,1.70095526165391,1.66690771526877,1.65713559890193,1.6767541246926,1.66238175833573,1.66422728052946,1.66096095078963,1.68659969315305,1.76786448894683,1.72156864005525,1.75969685985964,1.75693558061888,1.73852922954037,1.77380848344972,1.77742954952526,1.78268113915542,1.7698845574661,1.74037236625868,1.76350643624239,1.74104026661202,1.76882367950672,1.75784365338978,1.75722409804552,1.73575669094926,1.76108216089836,1.77137016748995,1.78667113851678,1.77771594441778,1.76874216684953,1.76354594552912,1.72126235890773,1.71836112830353,1.74540563597413,1.73621899476672,1.7663552387217,1.77013650211901,1.70945667819796,1.71243880890705,1.75284509797605,1.75608787601187,1.72778842150342,1.76379449681318,1.72999208368822,1.72025315051834,1.75718202701459,1.76344263705648,1.74372565883603,1.70905419485545,1.7298577077378,1.7026280262556,1.71901246832312,1.7499045218083,1.76753978667757,1.75808345595445,1.71670287583554,1.71437495169675,1.74931982809438,1.73443537323082,1.74599245658184,1.77050175565219,1.78041530318217,1.76177659294515,1.77384408338833,1.76966640186615,1.73559836899349,1.7424069873025,1.74427487575824,1.84095374684089,1.82967980180193,1.81174678562834,1.82447266764905,1.80862224323991,1.83563809775149,1.84142196802475,1.84317876195227,1.85531861654482,1.8538308626355,1.85404850639735,1.85044434946592,1.84565531225768,1.84268687537806,1.84287004608971,1.83773649417053,1.8119714544891,1.8330420206703,1.81228725346829,1.80529921136265,1.83773572009464,1.83801384490179,1.86026494485847,1.85718233147414,1.85004777660909,1.85196063243643,1.85963711373697,1.84683202593942,1.85260428802191,1.8574389775953,1.86798310254119,1.86467140600447,1.85052960904669,1.81652590891861,1.8018687160565,1.78491003400314,1.79983795374688,1.83038222999825,1.78808989450277,1.77686238275292,1.78609020512606,1.78618415418103,1.78767782249534,1.83897387716954,1.85564031363717,1.83572883865907,1.80446586843615,1.82797218629424,1.84072689334901,1.85274463655247,1.83242093202203,1.80181095500513,1.77402467572652,1.7688822114146,1.76109674326059,1.73914058637925,1.76892496806034,1.77824610296508,1.77513834964722,1.75383382439775,1.72963916757697,1.71568795608086,1.71910345817485,1.71985909908646,1.75032225266704,1.7583271647482,1.74997306190944,1.72547701291162,1.74768977483191,1.74783850320905,1.71267956205064,1.71500865154839,1.74908293659732,1.74607191148311,1.80912381631511,1.78229615761947,1.78438442894814,1.81527869264265,1.78496108411249,1.78403869853365,1.78393759228505,1.76785033120116,1.7542517648949,1.76501265882891,1.76109564952966,1.76179125326035,1.77259779577657,1.77626167300964,1.78255489238195,1.76586493817136,1.75489997294154,1.74148681804813
1.66034237832898,1.68503989277517,1.67380654542821,1.69525574915691,1.69821055654142,1.69905204974331,1.71014888981026,1.71965966299332,1.69524720633141,1.65660414847906,1.66443322849794,1.68310784446046,1.67207463576435,1.70083989680254,1.71339204027544,1.72662110777675,1.71470196133498,1.70649581273057,1.69308656853444,1.69413449301855,1.66853220519417,1.66288177222578,1.69618985516203,1.693220533347,1.6924662894486,1.76288368696189,1.70997459388042,1.75817926322148,1.73815900821381,1.75394017039497,1.76262683477484,1.74569499140062,1.75964759067494,1.7485653607947,1.76901055538784,1.76714677311732,1.7412237152159,1.78891782091622,1.823695886973,1.79128932077622,1.77218652556518,1.73650980563075,1.72889169296438,1.76708931807993,1.76805755334527,1.74223712079046,1.75622822072582,1.72884203349847,1.75404231993348,1.7688380596093,1.76448943026728,1.76227566346708,1.75900752913024,1.71403048095766,1.72785197046676,1.72144860187173,1.74479280073157,1.71659848782924,1.75586104537275,1.76184869952202,1.77203348588849,1.76143961118401,1.7686599278125,1.75812965398812,1.71129243077255,1.69767635796442,1.69969064658049,1.74378597171684,1.77579198858658,1.81569163247179,1.7710464789322,1.75598452875892,1.71428142592639,1.74345034892881,1.75067578821661,1.7341059545455,1.75356536909611,1.75662772083184,1.73127459457055,1.733696156275,1.7519566208188,1.72731732576084,1.72743756625957,1.75034619423905,1.85401725188357,1.85478713165472,1.82471512681721,1.80278694016394,1.79088980334063,1.79908486566432,1.83051440342537,1.80907584752195,1.83894550647579,1.85665080406226,1.85046532510573,1.81636336017323,1.85450803419412,1.85288706208989,1.81246176206502,1.79382604062952,1.80429342161334,1.85036510622137,1.84021310330107,1.80304699676972,1.80164797441155,1.80508912944462,1.84140297154701,1.82290558797303,1.84336188861018,1.85983235190101,1.84875046149543,1.81298736648025,1.80736124326812,1.85066082289314,1.86404344764995,1.84264396510459,1.82273707673739,1.84843396145025,1.84098196122945,1.79248178848761,1.80251534834346,1.84164606693809,1.79116817317839,1.77512715514988,1.77428592825451,1.77654549597762,1.79149220715338,1.82733217845083,1.83295727219032,1.80390478234534,1.82867903942987,1.84248350290702,1.79763436782432,1.79986374171878,1.83850879070655,1.83819763419148,1.78243775842162,1.76895054330369,1.76112171464028,1.74122227807775,1.77742234737413,1.78359276918664,1.77819796724223,1.73507969898896,1.75427870706252,1.7622662506353,1.75380751952563,1.72041446742,1.72047242067326,1.71998300550466,1.71659483041099,1.71014764001334,1.7538830315933,1.75859398873968,1.74787685392759,1.72300801716427,1.74810889268807,1.76181275539021,1.78058883279081,1.77914235296521,1.79419117832105,1.77876987363419,1.74613181169206,1.78223698376087,1.80920290821145,1.77298675377152,1.74759036410184,1.75611609708695,1.73425671955798,1.75378423330889,1.76713300698355,1.76523602744179,1.77360880228048,1.77119033211615,1.75988194600709,1.76365350771336
1.68428173515135,1.6698524194975,1.67592721067308,1.65480726537269,1.66576296945936,1.70464912083295,1.71098345149344,1.70408858314673,1.67511398845386,1.6935692348137,1.70102409347469,1.70199336208779,1.69159510859184,1.7030113514634,1.70221282202805,1.71286751950742,1.71098502741513,1.70071787358603,1.67841000320211,1.71188380972838,1.70784707971833,1.70467786315964,1.70672125620822,1.68683116240589,1.72927552410597,1.79079932502134,1.73961728421764,1.76300529480166,1.73125798112227,1.71972172199484,1.72584555078774,1.74741949213476,1.74459676385444,1.77215128955829,1.77489578252766,1.7494958598221,1.77124359541286,1.78398451814728,1.78805205196002,1.79261792689582,1.78236845636965,1.76065002701987,1.7326027833965,1.76662817635553,1.77245413260382,1.75902275829152,1.76892182347851,1.76586282938991,1.77212830634155,1.77811498372028,1.78065592679255,1.75303239556446,1.75255572631598,1.7065833525933,1.69998724247282,1.70493656099886,1.73669502673345,1.72227289649037,1.75578328910635,1.77119554990071,1.77758272050991,1.73064385788478,1.76305272488912,1.77001483460419,1.74469881625679,1.70017706664254,1.70848621941141,1.75472084675398,1.77118820871675,1.78126157200539,1.72931419019124,1.74573906854237,1.70778595050463,1.72001449708951,1.75981538999175,1.76143587377335,1.72067296545049,1.72532257546022,1.74524026082514,1.7467731553582,1.73710651368437,1.75988509304642,1.76411538063956,1.77738152100666,1.8308088659887,1.81582066673052,1.80632334698967,1.82863021786981,1.83609424789508,1.809679986734,1.83416602474563,1.80330710932635,1.8118487159714,1.85236281142371,1.8499377129545,1.80710598040645,1.85381582295082,1.86033268732584,1.83783925113146,1.80879137246156,1.83413140005263,1.86165971110842,1.86226343052642,1.84824160566654,1.83122098809346,1.8119546216883,1.84843765709695,1.84355398106425,1.82119900580806,1.84042911413263,1.81312244677879,1.82521235362934,1.80313174964037,1.84243753358943,1.83941359186335,1.81644945436289,1.84052858262961,1.8547568176381,1.84121764030106,1.79909456927021,1.83151971859636,1.84674721746875,1.79328444882636,1.7878067401217,1.78567460785829,1.78632668894234,1.8181704794502,1.79375336886273,1.78342133579293,1.77962382195162,1.80661295357712,1.83519990890204,1.78611426283468,1.78331925984275,1.83435886548164,1.84040634650715,1.78432782291077,1.77175764452398,1.76946094488934,1.74337998930209,1.77280785485517,1.75357174491818,1.76969894956098,1.72679170866144,1.72507000292966,1.76633713161269,1.77124114746163,1.75728717540429,1.76689096362963,1.75317210755021,1.74906304918294,1.7229076054457,1.74211259157746,1.73115704124659,1.75151640809821,1.75165782712407,1.73079993995145,1.74567106866263,1.73587577033522,1.76317715468039,1.80490821623217,1.78003485514947,1.77409434178783,1.77629844389076,1.74970952456142,1.77326923848866,1.80281578307813,1.76972528871562,1.7525175779556,1.71727760163599,1.71075221294686,1.72097704136877,1.76897876540634,1.76367072150482,1.72174702214354,1.72794102512106
1.66434921857121,1.67595480657726,1.66292763810836,1.64926567362555,1.69025981798078,1.70827992667328,1.70340391149934,1.70655963786428,1.70219919816688,1.70332389882799,1.68008761369659,1.69384985234628,1.66337181575512,1.68053855584089,1.66496513349755,1.65891720511608,1.69046544581369,1.70484962193684,1.7060294132667,1.71731803766754,1.7240618624612,1.71987015444503,1.71792293872611,1.7140685317172,1.74502011866527,1.84954995286571,1.84702524412742,1.79491140812395,1.76006881463492,1.72685241175371,1.72148166968289,1.73399106458299,1.75861255236546,1.78034916301234,1.78006852542733,1.76590938636454,1.77252468662532,1.76421847055481,1.75798372209411,1.82172214680193,1.78287265434057,1.74388771985973,1.76058795884189,1.77226150877718,1.75935477966689,1.73931975773273,1.76646992629085,1.77226140491889,1.76503072546919,1.77367607412709,1.78789152506582,1.80915179401391,1.76553970753827,1.70691959906369,1.70477985852872,1.70801827811863,1.72500319402395,1.74919941362668,1.75613227773536,1.76774282001489,1.77274859464098,1.71906618520167,1.71552040056882,1.72549724339942,1.74547501507386,1.7158451791786,1.73372585041446,1.75057373037693,1.76101925586653,1.7564531392451,1.72297638305539,1.7475524310895,1.72103824998938,1.7453604970548,1.75708071656286,1.75902478680272,1.72855707233211,1.74621394089778,1.72664834834478,1.71957577017418,1.74932176047397,1.76783786274762,1.74210070221475,1.73561450328463,1.74867552272126,1.79302690982808,1.82492373690793,1.80886146800185,1.84883645527658,1.84888246143206,1.8471813112607,1.84396590748354,1.84871347407255,1.85294319475544,1.85222079532854,1.81699628906186,1.85334789492453,1.85401328214359,1.8223684076174,1.826425103493,1.81188189297246,1.85240581942886,1.8650270164628,1.85449776745303,1.81453139380937,1.84036975947271,1.85497536525548,1.85481447469029,1.84971193158837,1.84962762724482,1.81425739533126,1.83270770987166,1.81413656420485,1.84007384737763,1.81081060561436,1.83305451033108,1.85027361558173,1.84423407757659,1.80010307266213,1.78083733776009,1.79872548897742,1.83630615672821,1.81007685879629,1.82945525614955,1.82605807005481,1.80435159657111,1.8245388416972,1.78440830215723,1.77369811682506,1.79371003917299,1.84070938851861,1.84743552693867,1.79770125438166,1.78314702541661,1.79472544474699,1.82419422416278,1.78205223689722,1.77750825896499,1.79662989331175,1.75863095599326,1.78077328571869,1.76837511364782,1.77656501270484,1.75906519867994,1.72954033284245,1.75732300040742,1.76604509958977,1.74225271372521,1.76769438373612,1.73156294672947,1.7180151760212,1.73304915502151,1.72147693887704,1.74208808350713,1.72567699848191,1.75764373087682,1.75092626051562,1.72551089976958,1.75191616798424,1.73202492408008,1.74621963573384,1.75923207027655,1.78059529132379,1.80286899986738,1.76936683390363,1.75618793452472,1.74046853567443,1.73477039682039,1.75902321522056,1.71104510008184,1.70542445930712,1.71841284746344,1.76318459572872,1.76239076043036,1.72868676735436,1.74351267684413
1.66143402184209,1.66493310086728,1.68525378307367,1.66478762796547,1.69012419616915,1.66023374919539,1.66265609281996,1.68955505437456,1.68802152883727,1.66511720786874,1.69506608900666,1.70560248939402,1.65134911464213,1.66525460662078,1.6955476415879,1.65037996802077,1.65948815262709,1.69501715600563,1.71928689976934,1.71538578316306,1.71764700406318,1.72607121979418,1.72683666478437,1.71240636599862,1.70859692795999,1.80705826789751,1.81948645388617,1.77708132474163,1.74749586864573,1.76564961056694,1.77364349260281,1.77169357806332,1.73829478576669,1.76420312823456,1.77583580914805,1.73962899144941,1.72836389611143,1.72940923791189,1.78142194121286,1.82833380208498,1.77976309715074,1.76703882062849,1.77499193025614,1.7678588910326,1.73087277238283,1.75518730015316,1.77468833541165,1.77408288344785,1.72172332372518,1.72406122349219,1.77024440052048,1.75289768476914,1.75070941216387,1.71500462615929,1.74745979296374,1.75239427806634,1.7668338409488,1.75149980081261,1.73382965205285,1.76170174248267,1.76525224157886,1.74688550042837,1.74611262155886,1.74332936680824,1.75412665289393,1.73479311416276,1.70713938946605,1.71784294881161,1.75379704982019,1.76105865883016,1.75928006075522,1.77395814212395,1.75958317670324,1.75513364964928,1.73301751482715,1.75808480452644,1.75449353421002,1.73281850617131,1.73480029234268,1.7113792004545,1.72849869380805,1.75863234362141,1.76544698105906,1.75774278164644,1.73302278133535,1.78341306185365,1.82906131534044,1.80851133877769,1.84200425000037,1.85135899943008,1.82105317023511,1.8446226508542,1.85110108745702,1.82552949504555,1.85565205523122,1.85722341385759,1.85656327855944,1.8525188948642,1.84183887753969,1.8109869260448,1.80399939998942,1.84219155072085,1.86310582823558,1.85728848797632,1.80536709566605,1.82984724852245,1.81304025421938,1.80893552079251,1.84815593006303,1.85372247726678,1.84534370480522,1.84849741679537,1.84148291375353,1.84419281582174,1.80255016178957,1.83523490233884,1.84566049794879,1.81186663590446,1.79363859457683,1.78926045438331,1.79118396732244,1.83702382635306,1.83400349302546,1.80087108158871,1.80744897316494,1.83631803639954,1.82881746938955,1.79478885324304,1.79353810466357,1.82669653056819,1.85874834523039,1.85449625433308,1.82943728016116,1.81426702750922,1.7912861167038,1.78276302928304,1.7713647082119,1.77229861499907,1.78951234213164,1.79850925704013,1.79217911572831,1.74259312570871,1.76635945222132,1.76398558979462,1.75681736278652,1.7414878776682,1.77081459134959,1.76646364487849,1.76257718271565,1.75150496541522,1.7177173412472,1.71301748282307,1.70987679018017,1.7471537806037,1.7248041011115,1.75007441876317,1.75696877751243,1.72798948547855,1.7581560753306,1.75931537602434,1.78402530262165,1.74732436571847,1.76784829838911,1.74903378037147,1.75635158553729,1.7352155829513,1.75134964562854,1.75170583955408,1.74925230046363,1.71699052265929,1.74756395739153,1.75117929067473,1.75742178811411,1.75941043442054,1.75849336078984,1.74987665988621
1.70300657215293,1.69587726204877,1.67571746666545,1.68473150542394,1.65385068958769,1.63988182936238,1.66880103676131,1.66011694953965,1.65297782163576,1.64727178688305,1.66583772577247,1.69347277383191,1.66388241529161,1.69261682265943,1.7023236682168,1.66201843755387,1.67267826850408,1.67493007180286,1.70072708474035,1.67915211411807,1.6972298876929,1.71487322889173,1.71154566297423,1.68757040501614,1.72637980486925,1.79546336345895,1.78471623722762,1.74714140773154,1.75923947818314,1.77368203621565,1.79551803409437,1.81180888053049,1.74023860632854,1.73681604399595,1.77130412430163,1.77093870790905,1.75886299871101,1.73482123801786,1.77267008612325,1.78131294522061,1.74600503829092,1.76059172440239,1.77845480826882,1.77552470872802,1.73485541813134,1.76276703015514,1.77731798272148,1.809787343882,1.72904459551493,1.71262017366736,1.77009806893473,1.76511451372491,1.75561501502865,1.71893925891979,1.71786479071793,1.72619166522666,1.75107803257905,1.72488982221705,1.76261603855813,1.77173778174497,1.75536997580394,1.72114676986588,1.74454785023052,1.72851146759139,1.74504908781084,1.7178340153959,1.71404440057127,1.74769427619082,1.76217324894285,1.76396533997734,1.76308297578179,1.75714581606128,1.75545398860285,1.76033680556745,1.74781705230129,1.74511774669436,1.72330510901659,1.74145932528505,1.71682849708121,1.71852776042556,1.74904428790091,1.73444523871538,1.73419236215655,1.73932755037812,1.72168216659673,1.75189949419209,1.8321199997168,1.83146398634682,1.81895769517957,1.85205245840396,1.85013553400228,1.85729539478523,1.85861022137005,1.85106527669034,1.85637239111186,1.85066564633468,1.84845738004995,1.84736325904122,1.85774801089429,1.85087676313803,1.83969439852368,1.8212348249476,1.85422189936151,1.84673645867793,1.80214512933857,1.80989135930773,1.8331861937262,1.80327919078016,1.831134432321,1.81069847297433,1.83639031485735,1.83987283385005,1.81891604344583,1.83528141809919,1.8016777680657,1.80866009224627,1.84266045455889,1.84276139329819,1.83869142367692,1.83543904192286,1.79853439000471,1.79210815780951,1.79785637841657,1.79694555219618,1.82953585193227,1.83709529509024,1.81249359902771,1.83486267757068,1.83268389296932,1.80448674003345,1.83476502990178,1.84015060398284,1.79517554308937,1.79072525768609,1.81795565493169,1.79244712869731,1.7794509691834,1.77713600115376,1.81032126146,1.83001215442776,1.81542352186778,1.75634306182645,1.76760076510371,1.74634809316433,1.77862779935878,1.7682014465844,1.77410940351036,1.77027762764793,1.72300984853137,1.72844076737146,1.75357488828429,1.74921881939807,1.7066901836531,1.71535338813416,1.74538721335651,1.73389730054779,1.75898816858918,1.7520330473697,1.74954440472254,1.72758214708785,1.73600625851258,1.75715558880789,1.76911658317056,1.76106937773637,1.75940978905023,1.75956406402665,1.75004029769136,1.71737917730932,1.7158453422267,1.71993674004217,1.75347379206225,1.72688993181308,1.70929631157601,1.71007206426172,1.71869724773385,1.71161309976405
1.70855883917624,1.72257599915208,1.70502476042784,1.69609723307407,1.64434922550785,1.63414931375166,1.65565928765262,1.67744125903624,1.68339963711163,1.69125992617703,1.6971252793344,1.7107954090645,1.70713419217839,1.65828449224279,1.65467552901696,1.67781065123475,1.66314573316571,1.70238408436527,1.71942838575851,1.69849926057685,1.67442482405946,1.69677770723957,1.70971671164663,1.70770108987937,1.73412639821523,1.76203747618306,1.71843006482545,1.75024020160801,1.73899501568503,1.74006289883869,1.77208998921118,1.78311720116502,1.77121952868181,1.77002474101228,1.77978955715511,1.78660049449319,1.7784007108167,1.76378583011964,1.77659113081888,1.77844944749087,1.76928815983921,1.74358297014678,1.7747317943955,1.77024305883174,1.76520704731185,1.76347316278208,1.74360489497727,1.78365799209968,1.75810512364272,1.72595778971957,1.75892454672204,1.76039484511462,1.76511513982701,1.76021900286535,1.74551601839379,1.74463175885632,1.74262007784511,1.72020547837627,1.75066527545576,1.73533012320511,1.73576553819091,1.70942073604279,1.74971395000758,1.75676751184015,1.7507938030275,1.75104681679458,1.7595482374975,1.76586721804735,1.75582282887712,1.76122362643636,1.75455330051998,1.72041193500372,1.72461146759276,1.75928850666318,1.71828010012319,1.71009534427425,1.70800121787997,1.74710979150414,1.72756836892444,1.75485659432105,1.77147173442239,1.76822372335379,1.77631150899408,1.79119316986233,1.7333964601169,1.75006437497816,1.82301156904661,1.81591851044231,1.84146943038616,1.84686250031039,1.84982088201126,1.85558074267132,1.85509171426611,1.85718441799604,1.84684167946741,1.80398064557703,1.80296981280966,1.81515068233812,1.85615637013643,1.85579908007396,1.84047118188367,1.83522526699935,1.84289153063638,1.81695671153114,1.82557632761366,1.84810821583021,1.85335704374805,1.81420007977838,1.82422662511328,1.7888295370428,1.78933015153436,1.80850559563385,1.83920305800602,1.85015362597638,1.83979627797552,1.82954734999894,1.83751218653866,1.83285489631896,1.80242980632059,1.80998154619715,1.82966551238629,1.80560622753904,1.82770665885828,1.83682602976093,1.83534069238807,1.80527503288656,1.82830012801647,1.84422154140669,1.82984020560279,1.79267612776171,1.79418006401915,1.82056643313008,1.78224861442304,1.77210210638308,1.79025221043205,1.82348311122388,1.82476793801714,1.78412039753199,1.78485447364128,1.76242637590085,1.76159321616213,1.79885348729369,1.7910466182358,1.77371860648198,1.80797624545022,1.75260334684411,1.75901484769339,1.76481486225691,1.73692766633739,1.75587512250374,1.77155073663868,1.76873257305935,1.71888840269497,1.716263642866,1.75568084233041,1.754011698058,1.75891249766939,1.72686732882868,1.72548965953513,1.75146794960451,1.7441022382771,1.72833637922136,1.73996624836083,1.75674827138308,1.73688713335652,1.75364549533164,1.71600825750659,1.70755458779156,1.74736495748492,1.75048363718743,1.75450196303853,1.74195848536581,1.71438726914718,1.71639218029117,1.73274311588471,1.71554897819609
1.71530806119735,1.72678008233009,1.70342525873092,1.65833200767138,1.64471763621799,1.64336557340737,1.67708366084117,1.66334670087263,1.66133149268303,1.68872971004497,1.69904108789089,1.6931367885323,1.75654342628175,1.65909848097708,1.64057079121363,1.67540394372895,1.66348961687989,1.70105572609893,1.71380990586086,1.71039087918316,1.69588559666105,1.67557010369376,1.68720923175247,1.67402931938955,1.70827505429895,1.70082395682065,1.68857012065544,1.75930137994299,1.77014917389974,1.75573643958394,1.73691022959644,1.7417357968511,1.77474620211713,1.77918599493027,1.77213755909595,1.78060957415805,1.77264782664998,1.73868637359172,1.77444982186719,1.77892072904331,1.7767006200094,1.76818456365187,1.76585996448713,1.74020112821465,1.7656790297797,1.7714734047217,1.76542268624532,1.7754531455735,1.77042775857293,1.761067922605,1.75787066100119,1.73145091956922,1.74329772227194,1.72576834221625,1.71611748716487,1.71517904517388,1.71991792532059,1.74477726248395,1.7557691970018,1.76100888136807,1.71133125451095,1.70795505514274,1.75498726009735,1.7667804833885,1.723567184855,1.74405896586032,1.72262500000594,1.71449684774543,1.7197044552587,1.75245273691648,1.75012323534784,1.74256055955441,1.76217649766085,1.797088005713,1.73287153714501,1.73812406054697,1.72179579663917,1.7474787752976,1.75122910806164,1.76187315606997,1.77250541920419,1.76790827016672,1.76245311153979,1.74013979012314,1.74452146648876,1.78771276808492,1.83254017430923,1.83104156522043,1.83502312204645,1.79966032808245,1.80838977935023,1.84338290712475,1.85111063413942,1.85582965191561,1.8365895183871,1.80746566745213,1.83559493070916,1.8402858079173,1.84654019503702,1.83813538418212,1.81001496822064,1.81177647923547,1.83482792251562,1.82364199377862,1.81511378694676,1.84538223500406,1.85033412126799,1.84294862200691,1.80697316199706,1.77933440743547,1.78677698121953,1.83761611634951,1.85919113593816,1.84966795495474,1.84024177145736,1.8089095702161,1.8005565304698,1.79023597875624,1.79646989410634,1.83449670471811,1.8569053426806,1.84660608939647,1.83748160975995,1.83601680767736,1.82716433871453,1.80169680828865,1.82721134772185,1.83700314411428,1.81115846391649,1.8166353854783,1.78550971406169,1.78914804880023,1.77414526236758,1.77048743273517,1.77957145559164,1.79310737025749,1.82213843839816,1.79174675268159,1.81280677344915,1.78678887825768,1.77247043903666,1.76717705206335,1.80673268526849,1.74540579010687,1.7356743454732,1.75380930025982,1.73025040589157,1.76799584341869,1.78815759708695,1.74779087602123,1.76234972290468,1.75967447786807,1.74831300216777,1.73968777819862,1.7219420730693,1.71898796417942,1.75825060728226,1.75780159860859,1.75135688984082,1.75847436156249,1.73449678901726,1.76280772347188,1.80179147084226,1.77463304852691,1.75633527740554,1.76352640387064,1.71150387954703,1.71565943976952,1.7540893593636,1.72809516682241,1.70946433469764,1.71632279687563,1.75581034513205,1.76886790245072,1.72928068617254,1.72181722505473
1.71364474554243,1.70772669921868,1.69842536861365,1.66390903256317,1.67781327121177,1.65357961575021,1.69617436249329,1.70521716956324,1.67887540139272,1.66161743604683,1.70851037327385,1.70041378250853,1.67907365611164,1.64812547454617,1.64582499888517,1.65880369594544,1.68044511246523,1.69348226194488,1.69094256541251,1.67371608096234,1.69366792678544,1.69318482204319,1.65861567603586,1.65674515100116,1.71914399562252,1.75744994617097,1.70079305831477,1.75195924621868,1.76573903007769,1.74552706100971,1.76587149575769,1.77704460701681,1.78685434935994,1.7755830157317,1.74435736950608,1.76657869715099,1.78105347444442,1.73255053835368,1.76752417278824,1.77738108195216,1.77703947084463,1.77580569266671,1.77236046286329,1.75709857300075,1.76973255958782,1.77494384838572,1.77546863449966,1.78299060709588,1.77585338716415,1.77064505316861,1.75862547998439,1.74822305104242,1.72962779797446,1.74844046199179,1.75352159648536,1.75111456921045,1.74431464943531,1.74133724573217,1.72354443853912,1.76025709498019,1.72213168806428,1.74335084376619,1.76287889589976,1.75568747271903,1.72396727511585,1.75089872401439,1.74190775341093,1.74667560781764,1.75116617552799,1.75165429068178,1.72005951432397,1.71813375442937,1.73817431678573,1.7305231820194,1.74718862620576,1.75415979714144,1.74967704902163,1.7256962584386,1.71022923440967,1.72048306951821,1.75844731278853,1.73670270183287,1.72670091446087,1.734496179744,1.82711872737244,1.84098391789898,1.79973172875373,1.80507081189492,1.82968964849103,1.79364778001231,1.82224120835861,1.84458395755755,1.84845309035304,1.84059975177295,1.80494678346906,1.82802846896099,1.84310289467369,1.81065681607993,1.79396074362333,1.80607818475436,1.83349633612784,1.84348789154643,1.80358497139424,1.80752012719885,1.83966461506912,1.84117708832164,1.81246137050005,1.84601555544376,1.83643751866183,1.78690970822642,1.78709304777542,1.837442374483,1.85048861871238,1.81327111214264,1.81043521755615,1.82960295919886,1.83352138323454,1.79691323064939,1.83001635521145,1.85376042748515,1.85539524238664,1.8519032175964,1.80821662738077,1.79044766515948,1.80169940634713,1.82195439725235,1.80430219663061,1.83435506666556,1.82918083717158,1.82845267954377,1.79377373680805,1.81754007200826,1.78909347643678,1.77854210401827,1.80123068744606,1.7860192263546,1.80870876479401,1.78109630508697,1.78236498295466,1.78416391102888,1.7853562556705,1.78069851184901,1.7770382894887,1.75234615603833,1.71890283281642,1.74386751323175,1.73082451483964,1.75791420331172,1.75073533147779,1.77973588321307,1.76796015976143,1.72693022686522,1.71039775217364,1.72418031481482,1.74010540888312,1.71646083038003,1.7621914508709,1.7702216715844,1.72157194297797,1.7237187795083,1.74662734661363,1.76918928389162,1.77158555555056,1.75631149705722,1.73956962267837,1.76081980600524,1.72058748741819,1.75161052182428,1.76757691183019,1.76126424237219,1.72331366181245,1.73254648487551,1.77873222034021,1.81423157106636,1.77509836610815,1.76200078668205
1.6924072257566,1.6734812441017,1.696350231292,1.68096430088807,1.65112268729963,1.6558571130382,1.70419521440787,1.69125835378507,1.64962828052661,1.65216343167411,1.70311187090923,1.71693560670741,1.69621931436553,1.68658757548297,1.70108538505206,1.68937129561067,1.66221789626578,1.65962390456981,1.66477220233328,1.67401788627342,1.66450659017843,1.69196235834044,1.65701822133913,1.6737687217734,1.72993621442732,1.7785509518264,1.7127659144718,1.71249372737046,1.72737762949545,1.76533936790464,1.78588645382621,1.78549761442516,1.7876312997458,1.78413649289203,1.75724150886862,1.75325347205015,1.80182973560278,1.74534816830451,1.76426532546313,1.76783981159111,1.77584165819131,1.77854629765304,1.7749485824907,1.74362084217149,1.76681310687884,1.7810593089674,1.77148625837443,1.76958500796004,1.79322323750836,1.77532759131706,1.72567658704424,1.74578436458214,1.75555586948956,1.76455917015642,1.76624841182464,1.75577626886209,1.71898003732415,1.69853533855096,1.7014726219205,1.75056348360999,1.75222292087122,1.75516802119897,1.77336791101619,1.76272004854538,1.7615091850647,1.76593295976445,1.73008019417153,1.75406655980155,1.76292508574295,1.76359478035437,1.75232693985759,1.74333008874638,1.71363101621618,1.70214008936445,1.73443952690028,1.72945643908646,1.75908368361217,1.76074887013224,1.7152178922456,1.7105649832012,1.76014275314899,1.7662742438051,1.76299799350564,1.74895604880063,1.85965018785302,1.862902218118,1.81037410162917,1.83787523643013,1.84034601630088,1.78633895700881,1.79367297321198,1.84025934813932,1.84729502763534,1.84300612972722,1.79996261123808,1.79848767206459,1.83940836739023,1.83679036718488,1.80588075690118,1.82796520303258,1.82097757345068,1.84121466668165,1.80235229939918,1.83502256396527,1.83454011351987,1.79902385604062,1.79885939292984,1.84067261041236,1.84106352555101,1.79665295394631,1.77910947240347,1.79554685068503,1.83345163699439,1.83323486514553,1.83782974105187,1.80825976581001,1.82228806083076,1.79556818454822,1.83281074156283,1.85474786715153,1.841177096758,1.83829661262616,1.83162152507977,1.80093236321892,1.82158837480648,1.8446891493788,1.81165705808964,1.82730021302009,1.8005242796741,1.81561556668923,1.80045606832107,1.83227246779658,1.82412867740712,1.78111171073779,1.77598656027975,1.77146806705323,1.77527555027769,1.76970776745563,1.77732062959805,1.78739854273115,1.78831318897504,1.77271601485836,1.73394643933405,1.71470282079179,1.7122065513779,1.72897849394648,1.76449884023836,1.76873438962944,1.77439556998422,1.81957889843851,1.79135110605642,1.75979498378379,1.71544115692343,1.74532456240545,1.74892871324871,1.72789655035025,1.7676895929796,1.78912227518799,1.72407673711137,1.73886649244549,1.72493443112562,1.74879417985421,1.71754881933906,1.7161338249142,1.7551179868457,1.7691362389287,1.73256034508176,1.76069348170285,1.74186018896284,1.76209116287962,1.76901110914091,1.80162482855363,1.78620704926081,1.79041893285717,1.78195816206833,1.76568575392709
