1.42390553500696,1.42435432016045,1.41948749449589,1.42048479483699,1.42521199845379,1.42413491408541,1.43297099510754,1.43067720432302,1.4297596880092,1.42638881285629,1.42646859688358,1.42568072961411,1.42613948777102,1.42478315930712,1.42797452039864,1.4366510333662,1.43912433821212,1.43803728084032,1.42902168575679,1.43048771725821,1.4313852875652,1.43784779377551,1.43976261043042,1.43279148104614,1.43238258790629,1.43397826845205,1.44031112561803,1.44008174653958,1.4397426644236,1.44007177353616,1.4470030109068,1.44734209302277,1.45133129438717,1.4567167162291,1.45601860599033,1.4530865429875,1.44913723363675,1.45713558237236,1.45524071172427,1.45487171059807,1.45461241250938,1.45414368134907,1.45345554411371,1.45414368134907,1.45570944288459,1.45679650025639,1.45411376233883,1.4558091729187,1.45650728315747,1.45730512343035,1.45758436752586,1.45724528540988,1.46131427080156,1.45994796933426,1.46021724042636,1.45996791534108,1.4608954046583,1.46232154414607,1.46313933042578,1.46596169039108,1.47101800312045,1.464794848992,1.46927272752353,1.47141692325689,1.4716064103217,1.47326192888793,1.47410963417786,1.41506945398482,1.47158646431488,1.41438131674946,1.41720367671477,1.4156877801963,1.41572767220995,1.41544842811444,1.41523899504281,1.41608670033274,1.41536864408715,1.41575759122018,1.41545840111785,1.41558805016219,1.4175926238478,1.41793170596377,1.41857995118549,1.41649559347259,1.41639586343848,1.41958722453,1.41630610640778,1.41696432463291,1.41603683531569,1.41598697029863,1.41583737524747,1.41834059910363,1.41848022115138,1.4163160794112,1.415777537227,1.41546837412126,1.41634599842143,1.41661526951352,1.41689451360903,1.41724356872842,1.41737321777276,1.41785192193649,1.41824086906952,1.41831068009339,1.41851014016161,1.41897887132193,1.42161174422243,1.42034517278923,1.41956727852318,1.41992630664597,1.42106322903482,1.42124274309622,1.42080393094614,1.42106322903482,1.42250931452942,1.42296807268632,1.42249934152601,1.4221303403998,1.42253923353965,1.42281847763516,1.42465351026278,1.42300796469997,1.42310769473408,1.42498261937534,1.42589016268574,1.42463356425596,1.42500256538216,1.42511226841969,1.42521199845379,1.42529178248108,1.42558099958,1.42592008169597,1.42608962275396,1.42670794896544,1.4272165721394,1.42722654514281,1.42792465538158,1.4285729006033,1.42864271162717,1.43277153503932,1.42919122681478,1.43195374875962,1.42959014695122,1.43049769026162,1.42958017394781,1.43089661039806,1.4300289591013,1.43061736630255,1.4316645316607,1.43246237193358,1.43233272288924,1.43233272288924,1.43244242592676,1.43288123807684,1.43286129207002,1.43653135732526,1.4349257037761,1.43539443493641,1.43954320435538,1.43932379828034,1.43697016947535,1.50054806622038,1.43875533708591,1.49654889185258,1.49693783898561,1.49778554427554,1.49469391321814,1.49462410219426,1.49727692110158,1.49623972874684,1.49507288734775,1.49830414045291,1.49621978274002,1.49596048465133,1.49565132154559,1.49822435642562
1.41675489156128,1.42139233814739,1.41781202992284,1.41921822340379,1.42537156650837,1.42315755975113,1.41765246186827,1.42928098384548,1.42665808394839,1.42650848889722,1.42643867787335,1.42518207944356,1.42773516831677,1.42764541128608,1.42591010869256,1.42698719306095,1.42620929879489,1.43027828418658,1.42985941804331,1.43686046643783,1.43603270715471,1.4441008669142,1.43136534155837,1.43571357104556,1.43464645968059,1.43543432695006,1.43812703787102,1.44642457670896,1.4503639130563,1.44342270268226,1.43791760479939,1.45297683994998,1.44381164981528,1.44120869592502,1.44135829097618,1.45265770384083,1.45079275220297,1.45643747213359,1.4522687567078,1.45401403230472,1.45533046875497,1.45130137537693,1.45456254749233,1.45471214254349,1.45535041476179,1.45626793107561,1.45764420554632,1.45675660824274,1.4574447454781,1.45679650025639,1.4572652314167,1.45795336865206,1.45869137090448,1.46051643052869,1.46188273199599,1.46153367687661,1.46242127418018,1.4621619760915,1.4626207342484,1.46763715496413,1.46900345643143,1.46978135069749,1.46763715496413,1.47128727421255,1.46801612909375,1.47135708523643,1.47201530346155,1.47350128096979,1.47421933721538,1.47299265779583,1.47384036308576,1.47427917523585,1.47299265779583,1.47182581639674,1.47341152393909,1.47424925622561,1.41655543149306,1.41554815814855,1.41660529651011,1.41667510753399,1.41770232688532,1.41557807715878,1.415777537227,1.41565786118607,1.41907860135604,1.41510934599847,1.41502956197118,1.41872954623665,1.41547834712467,1.41690448661244,1.41612659234639,1.4155980231656,1.41579748323382,1.41561796917243,1.41612659234639,1.41799154398424,1.41658535050329,1.41719370371136,1.41783197592966,1.41956727852318,1.4197667385914,1.41801148999106,1.41735327176594,1.41799154398424,1.41849019415479,1.41991633364256,1.41930798043449,1.42207050237933,1.41890906029805,1.41966700855729,1.42007590169714,1.42046484883017,1.4220405833691,1.42353653388075,1.42227993545096,1.42198074534864,1.42157185220878,1.42533167449473,1.4257605136414,1.42523194446062,1.42615943377784,1.42673786797568,1.42351658787393,1.42391550801037,1.42447399620138,1.42413491408541,1.4243044551434,1.42491280835147,1.4247632133003,1.42500256538216,1.42543140452884,1.42618935278807,1.42902168575679,1.4258502706721,1.4267578139825,1.42723651814622,1.42698719306095,1.42737614019398,1.42861279261694,1.4290316587602,1.42887209070563,1.42929095684889,1.42956022794098,1.42961009295804,1.43010874312859,1.43023839217293,1.43018852715588,1.43007882411836,1.43017855415247,1.43198366776985,1.43238258790629,1.43313056316212,1.43457664865671,1.4331106171553,1.43255212896428,1.43379875439065,1.43493567677951,1.43477610872493,1.44005182752934,1.440650207734,1.43680062841736,1.43829657892901,1.49790522031647,1.49620980973661,1.50502594475192,1.49639929680141,1.49772570625507,1.49707746103336,1.49733675912205,1.4973866241391,1.49814457239834,1.49787530130624,1.50150547454784,1.50208390874568,1.50226342280707,1.49713729905383
1.42238963848849,1.41920825040038,1.41599694330204,1.42202063736228,1.41789181395013,1.41755273183416,1.41939773746519,1.4230378837102,1.42515216043333,1.42354650688416,1.42553113456295,1.4262192717983,1.42832357551802,1.42746589722468,1.42640875886311,1.42800443940887,1.42996912108084,1.43099634043217,1.43407799848616,1.43752865766636,1.43906450019165,1.43349956428832,1.43381870039748,1.43099634043217,1.4328413460632,1.43694025046511,1.43543432695006,1.43503540681362,1.43598284213766,1.44369197377435,1.43967285339972,1.43775803674482,1.43952325834856,1.44584614251113,1.44761136411487,1.45341565210006,1.44062028872377,1.45495149462536,1.4503639130563,1.45682641926662,1.45710566336213,1.450453670087,1.45222886469416,1.45348546312394,1.45594879496645,1.46010753738884,1.45834231578509,1.45712560936895,1.45673666223592,1.45687628428368,1.45678652725298,1.4606161605628,1.45988813131379,1.46020726742295,1.45985821230356,1.46120456776404,1.46311938441895,1.46237140916313,1.46451560489649,1.47102797612386,1.46477490298518,1.47040964991238,1.47055924496355,1.47083848905906,1.46992097274525,1.47140695025348,1.47172608636263,1.47179589738651,1.47144684226713,1.47212500649907,1.47234441257412,1.47451852731771,1.47457836533818,1.4743290402529,1.47397998513352,1.47304252281288,1.4169543516295,1.41772227289214,1.41656540449647,1.41545840111785,1.41810124702176,1.41826081507634,1.41720367671477,1.41751283982051,1.41752281282392,1.41435139773923,1.41512929200529,1.41510934599847,1.41955730551977,1.4198564956221,1.41807132801153,1.41536864408715,1.41519910302916,1.41517915702234,1.41512929200529,1.41566783418948,1.41778211091261,1.41792173296036,1.41766243487168,1.41691445961585,1.41632605241461,1.41752281282392,1.41739316377958,1.41928803442767,1.42061444388133,1.41863978920596,1.41909854736286,1.41901876333557,1.41997617166303,1.42008587470055,1.41968695456411,1.4191384393765,1.41992630664597,1.42036511879606,1.42340688483641,1.42069422790862,1.42118290507576,1.42112306705529,1.42145217616785,1.42192090732817,1.42189098831794,1.42518207944356,1.42399529203765,1.42401523804448,1.42420472510929,1.4251222414231,1.42462359125255,1.42537156650837,1.42592008169597,1.42515216043333,1.42475324029689,1.42473329429007,1.42589016268574,1.42539151251519,1.42588018968233,1.42607964975055,1.4265782999211,1.43256210196769,1.42944055190005,1.42907155077385,1.43005887811153,1.42928098384548,1.42949041691711,1.42869257664423,1.42923111882842,1.42913138879431,1.42949041691711,1.42979958002285,1.42986939104673,1.42980955302626,1.43201358678009,1.43327018520987,1.43206345179714,1.43240253391312,1.43312059015871,1.43385859241112,1.43340980725763,1.43357934831561,1.43468635169423,1.43584322008991,1.49743648915616,1.50209388174909,1.50618281314759,1.4996504959134,1.49910198072579,1.49905211570874,1.49718716407088,1.49853351953136,1.50059793123744,1.50251274789235,1.50329064215841,1.50039847116922,1.50196423270474,1.50260250492305,1.50133593348985,1.50322083113453
1.41986646862551,1.41369317951411,1.41440126275629,1.41457080381427,1.41488993992342,1.41566783418948,1.42519205244697,1.4176823808785,1.42529178248108,1.423396911833,1.42834352152484,1.42070420091203,1.42000609067326,1.42656832691769,1.42560094558682,1.42924109183183,1.43331007722352,1.42786481736112,1.42401523804448,1.43405805247934,1.42767533029631,1.43050766326503,1.4271268151087,1.43040793323092,1.42962006596145,1.44006180053275,1.4320235597835,1.43225293886195,1.43110604346969,1.43432732357144,1.43703998049922,1.43642165428774,1.4360227341513,1.44797039223766,1.44780085117968,1.44552700640197,1.44846904240821,1.44919707165722,1.4490873686197,1.44014158456004,1.44757147210123,1.44903750360264,1.4572652314167,1.45314638100797,1.45695606831096,1.4538145722365,1.45030407503584,1.45747466448833,1.45709569035872,1.45718544738942,1.45773396257702,1.45790350363501,1.46205227305398,1.46303960039167,1.46040672749116,1.46275038329275,1.46721828882087,1.46562260827511,1.46843499523701,1.46556277025464,1.46536331018642,1.47040964991238,1.47145681527054,1.47046948793285,1.47247406161846,1.47245411561164,1.471516653291,1.47332176690839,1.47109778714774,1.47373066004824,1.4732419828811,1.47350128096979,1.47424925622561,1.47424925622561,1.47340155093568,1.47392014711305,1.41868965422301,1.41788184094672,1.41903870934239,1.41502956197118,1.42212036739639,1.42190096132135,1.41224709401951,1.41221717500928,1.41260612214231,1.41293523125487,1.41418185668124,1.41281555521394,1.4125961491389,1.42041498381311,1.41982657661186,1.4144112357597,1.41476029087908,1.41389263958233,1.41516918401893,1.41536864408715,1.41620637637367,1.41547834712467,1.4174131097864,1.41609667333615,1.41658535050329,1.4158672942577,1.41588724026452,1.41703413565679,1.41751283982051,1.41971687357434,1.41794167896719,1.4176823808785,1.41846027514456,1.41853008616843,1.41883924927417,1.41914841237992,1.42297804568973,1.41926808842085,1.4201357397176,1.42010582070737,1.4204947678404,1.4214920681815,1.421771312277,1.42184112330088,1.4223098544612,1.42225998944414,1.42241955749872,1.42282845063857,1.42318747876136,1.42398531903424,1.42444407719115,1.42425459012634,1.42368612893191,1.42431442814681,1.42496267336852,1.42524191746403,1.42581037865845,1.42668800295862,1.42583032466528,1.42773516831677,1.42631900183241,1.42754568125197,1.42792465538158,1.4279446013884,1.42867263063741,1.42936076787276,1.4280343584191,1.42980955302626,1.42961009295804,1.43121574650721,1.43074701534689,1.42968987698533,1.43100631343558,1.43299094111436,1.43276156203591,1.43369902435654,1.43415778251345,1.43255212896428,1.43305077913483,1.43400818746228,1.4328413460632,1.43564376002169,1.43586316609673,1.50507580976897,1.49850360052113,1.50424805048586,1.50505586376215,1.5042879424995,1.50195425970133,1.50103674338752,1.50163512359218,1.50162515058877,1.50413834744834,1.50211382775591,1.50129604147621,1.50281193799468,1.50209388174909,1.50204401673203,1.50166504260241,1.50103674338752
1.41355355746635,1.41526891405304,1.41458077681768,1.41274574419006,1.41464061483815,1.41701418964996,1.41702416265338,1.41529883306327,1.4167748375681,1.42293815367609,1.42353653388075,1.42637883985288,1.42012576671419,1.42005595569031,1.42094355299389,1.42161174422243,1.42259907156012,1.42945052490346,1.42773516831677,1.42309772173067,1.43584322008991,1.42629905582559,1.4288521446988,1.42925106483524,1.42942060589323,1.43000901309448,1.43183407271869,1.43133542254814,1.43738903561861,1.43058744729232,1.43839630896312,1.43643162729115,1.43540440793982,1.43936369029398,1.4395631503622,1.43763836070388,1.44286421449124,1.43750871165954,1.44794047322743,1.43841625496994,1.45086256322685,1.44995501991645,1.45255797380672,1.4532660570489,1.45777385459066,1.45758436752586,1.45775390858384,1.45739488046105,1.4589905610068,1.46019729441953,1.45356524715123,1.46055632254233,1.45963880622852,1.46017734841271,1.46218192209832,1.46261076124499,1.4745085543143,1.47138700424666,1.47388025509941,1.46858459028817,1.47146678827395,1.47165627533876,1.47090830008293,1.47145681527054,1.47080857004882,1.47124738219891,1.47134711223302,1.47183578940015,1.4716064103217,1.47209508748884,1.47172608636263,1.47288295475831,1.47417944520174,1.47521663755648,1.4712374091955,1.41335409739813,1.41516918401893,1.47068889400789,1.41282552821735,1.41567780719289,1.41616648436003,1.41574761821677,1.41136946971935,1.41212741797858,1.41178833586261,1.41480018289273,1.41603683531569,1.41517915702234,1.41430153272218,1.41355355746635,1.41324439436061,1.41493980494048,1.41404223463349,1.41434142473582,1.41543845511103,1.4151392650087,1.41567780719289,1.41685462159539,1.41625624139073,1.41692443261927,1.41574761821677,1.41600691630545,1.41774221889897,1.41837051811386,1.41884922227759,1.41814113903541,1.4178618949399,1.41792173296036,1.41809127401835,1.42018560473466,1.41854005917185,1.41860987019572,1.41914841237992,1.41926808842085,1.41992630664597,1.41971687357434,1.42074409292567,1.42145217616785,1.42105325603141,1.42110312104847,1.42133250012692,1.42163169022925,1.42189098831794,1.42224004343732,1.42201066435887,1.42216025941003,1.42360634490463,1.4227686126181,1.42315755975113,1.42432440115022,1.4249427273617,1.42496267336852,1.4253117284879,1.42589016268574,1.42439421217409,1.42536159350496,1.42686751702002,1.42661819193474,1.42647856988699,1.42738611319739,1.42813408845321,1.42967990398192,1.42891198271927,1.42717668012576,1.4295702009444,1.42988933705355,1.42855295459648,1.42859284661012,1.42940065988641,1.43014863514223,1.43137531456178,1.43180415370846,1.43063731230937,1.4362920052434,1.43333002323034,1.43342975326445,1.43404807947593,1.49609013369567,1.50218363877979,1.50420815847222,1.50478659267005,1.50371948130508,1.50481651168029,1.50266234294351,1.50155533956489,1.50214374676614,1.50232326082754,1.50225344980366,1.50194428669792,1.50185452966722,1.50309118209019,1.50033863314875,1.50116639243187,1.50118633843869,1.5019243406911,1.50123620345574
1.41596702429181,1.41536864408715,1.41826081507634,1.41361339548682,1.41479020988931,1.41436137074264,1.41379290954822,1.41436137074264,1.41437134374605,1.42571064862434,1.41717375770454,1.41655543149306,1.41645570145895,1.41909854736286,1.41874949224348,1.42018560473466,1.4200459826869,1.42237966548507,1.4226788555874,1.42297804568973,1.42382575097967,1.4267578139825,1.42690740903366,1.42726643715646,1.42896184773633,1.4299392020706,1.42941063288982,1.43644160029457,1.43549416497052,1.43893485114731,1.43654133032868,1.43914428421894,1.43442705360555,1.4387453640825,1.44023134159074,1.43486586575563,1.43679065541395,1.44938655872203,1.43830655193242,1.43827663292219,1.43766827971412,1.453535328141,1.45228870271462,1.44150788602735,1.44862861046279,1.45382454523991,1.45423343837976,1.46072586360032,1.4543531144207,1.45121161834624,1.45400405930131,1.46068597158667,1.45872128991471,1.46132424380498,1.45938948114324,1.46062613356621,1.46540320220007,1.47127730120914,1.46277032929957,1.4650641200841,1.46871423933252,1.46840507622678,1.46943229557811,1.4696118096395,1.47037973090215,1.47047946093626,1.47052932595332,1.47095816509999,1.47133713922961,1.47218484451954,1.47284306274466,1.47361098400731,1.47383039008235,1.47461825735182,1.47227460155024,1.47179589738651,1.47212500649907,1.41195787692059,1.41217728299564,1.41130963169888,1.41174844384896,1.41157890279098,1.41160882180121,1.41142930773981,1.41137944272276,1.41152903777392,1.41169857883191,1.41172849784214,1.41521904903599,1.41536864408715,1.41566783418948,1.41429155971876,1.41380288255163,1.41500961596436,1.41437134374605,1.41484007490637,1.41409209965055,1.41603683531569,1.41616648436003,1.41601688930887,1.41596702429181,1.41662524251694,1.41529883306327,1.4193179534379,1.41796162497401,1.41635597142484,1.41726351473524,1.41754275883075,1.41745300180005,1.4179516519706,1.41863978920596,1.41769235388191,1.41875946524689,1.41932792644131,1.41929800743108,1.41964706255046,1.4198564956221,1.42059449787451,1.42018560473466,1.41989638763574,1.42044490282334,1.4213125541201,1.42037509179947,1.42169152824972,1.42133250012692,1.42231982746461,1.42305782971702,1.4235863988978,1.42298801869314,1.42354650688416,1.42453383422185,1.42393545401719,1.42499259237875,1.42411496807859,1.42508234940945,1.42508234940945,1.42543140452884,1.42577048664481,1.4290316587602,1.42700713906777,1.42694730104731,1.42864271162717,1.42626913681536,1.42612951476761,1.42658827292451,1.42724649114964,1.42881225268516,1.42911144278749,1.43014863514223,1.43591303111378,1.43204350579032,1.43415778251345,1.42976966101262,1.43045779824797,1.43431735056803,1.43530467790571,1.43703000749581,1.49750630018003,1.49793513932671,1.49915184574285,1.49986990198844,1.49905211570874,1.50054806622038,1.50184455666381,1.50227339581048,1.50187447567405,1.50179469164676,1.50185452966722,1.50190439468428,1.50185452966722,1.50191436768769,1.5029216410322,1.50252272089576,1.50349010222662,1.50197420570816,1.50106666239776
1.41080100852492,1.41148914576028,1.41279560920712,1.41377296354139,1.41349371944589,1.41422174869489,1.41536864408715,1.41454088480404,1.41761256985462,1.41440126275629,1.4158672942577,1.41638589043507,1.4184104101275,1.41710394668066,1.41971687357434,1.41969692756752,1.42502251138899,1.41994625265279,1.42620929879489,1.42454380722526,1.42989931005696,1.42694730104731,1.43183407271869,1.42889203671245,1.4278448713543,1.4268475710132,1.43416775551686,1.43388851142135,1.43176426169481,1.43310064415188,1.43056750128549,1.43593297712061,1.43279148104614,1.4333001042201,1.43430737756461,1.43351951029515,1.43323029319623,1.43711976452651,1.43754860367318,1.43848606599382,1.43733917060155,1.43849603899723,1.43930385227352,1.44163753507169,1.44960596479707,1.45159059247585,1.45790350363501,1.45602857899374,1.44904747660605,1.46035686247411,1.45473208855031,1.45383451824332,1.45370486919898,1.45400405930131,1.46686923370148,1.46786653404258,1.46966167465656,1.46431614482827,1.46865440131205,1.47018027083393,1.47072878602154,1.46989105373501,1.46991099974183,1.47054927196014,1.47063902899084,1.47130722021937,1.47231449356388,1.47095816509999,1.47152662629441,1.4714268962603,1.47193551943426,1.47265357567986,1.47323200987769,1.47294279277877,1.45794339564865,1.45810296370323,1.45795336865206,1.41497969695412,1.41220720200587,1.41197782292742,1.41156892978757,1.41065141347376,1.410511791426,1.41061152146011,1.41118995565795,1.41533872507692,1.41536864408715,1.41310477231286,1.41497969695412,1.41368320651069,1.4131446643265,1.41390261258574,1.41347377343906,1.41282552821735,1.41392255859256,1.41546837412126,1.41484007490637,1.41561796917243,1.41558805016219,1.41527888705645,1.41542848210762,1.41521904903599,1.41506945398482,1.41521904903599,1.41562794217584,1.41623629538391,1.41731337975229,1.41712389268749,1.41742308278981,1.41827078807975,1.41772227289214,1.41879935726053,1.41866970821619,1.41840043712409,1.41874949224348,1.41926808842085,1.41900879033216,1.41906862835263,1.4194077104686,1.42028533476877,1.42115298606552,1.42078398493932,1.42101336401777,1.42174139326677,1.42232980046802,1.42251928753283,1.42270877459764,1.42433437415363,1.42223007043391,1.42216025941003,1.42521199845379,1.42287831565562,1.4243044551434,1.42533167449473,1.42459367224231,1.42446402319797,1.42471334828325,1.42595997370962,1.42709689609847,1.42469340227642,1.42537156650837,1.426309028829,1.42623921780513,1.42668800295862,1.42707695009165,1.43268177800862,1.42951036292393,1.42997909408425,1.42817398046686,1.42937074087618,1.43095644841852,1.43396829544864,1.43366910534631,1.4323925609097,1.43114593548333,1.49561142953195,1.49536210444667,1.4981146533881,1.49930144079401,1.49882273663028,1.4990221966985,1.49809470738128,1.49872300659617,1.49942111683494,1.50099685137388,1.50212380075932,1.50167501560583,1.5013758255035,1.50141571751714,1.50159523157854,1.50238309884801,1.50203404372862,1.50269226195375,1.50238309884801,1.50175479963311,1.50147555553761
1.40891611088024,1.40891611088024,1.41563791517925,1.41244655408773,1.41524896804622,1.41274574419006,1.41336407040154,1.41260612214231,1.41331420538449,1.41361339548682,1.41574761821677,1.41687456760221,1.41701418964996,1.41609667333615,1.4212227970894,1.41685462159539,1.41874949224348,1.41938776446178,1.42133250012692,1.41953735951294,1.41995622565621,1.42078398493932,1.42598989271985,1.42442413118433,1.43550413797393,1.42783489835088,1.43012868913541,1.42636886684947,1.43331007722352,1.43621222121611,1.43005887811153,1.43127558452767,1.43313056316212,1.43978255643725,1.43457664865671,1.43963296138608,1.43509524483408,1.43416775551686,1.44974558684482,1.45117172633259,1.43957312336561,1.44261488940597,1.4471825249682,1.44632484667485,1.44783077018991,1.44452970606087,1.44468927411545,1.45087253623026,1.45094234725414,1.45047361609382,1.45823261274757,1.45875120892494,1.45286713691246,1.46289997834391,1.46151373086978,1.46195254301987,1.46340860151787,1.47425922922902,1.46587193336039,1.46641047554458,1.4706988670113,1.4708783810727,1.46880399636322,1.46960183663609,1.47127730120914,1.46904334844508,1.4703298658851,1.47207514148202,1.47091827308634,1.47295276578219,1.47362095701072,1.47412958018468,1.47471798738593,1.47725113025232,1.47190560042403,1.47191557342744,1.41122984767159,1.4091454899587,1.40874656982226,1.41187809289331,1.41219722900246,1.410511791426,1.40999319524863,1.40946462606785,1.41023254733049,1.41076111651128,1.41097054958291,1.41210747197176,1.41148914576028,1.41229695903657,1.41283550122076,1.41536864408715,1.41194790391718,1.41621634937709,1.41603683531569,1.41627618739755,1.41337404340495,1.41355355746635,1.41440126275629,1.41477026388249,1.41428158671535,1.41477026388249,1.41508939999164,1.41510934599847,1.41412201866078,1.41789181395013,1.41646567446236,1.41656540449647,1.41692443261927,1.41672497255105,1.41658535050329,1.41775219190238,1.41716378470113,1.41847024814797,1.41785192193649,1.4186796812196,1.41891903330146,1.41906862835263,1.41912846637309,1.41946754848907,1.42032522678241,1.41957725152659,1.42000609067326,1.42042495681652,1.42180123128724,1.4238556699899,1.42189098831794,1.42224004343732,1.42194085333499,1.42216025941003,1.42198074534864,1.4224893685226,1.42313761374431,1.42366618292509,1.42378585896602,1.42373599394897,1.42393545401719,1.42452386121844,1.42472332128666,1.42515216043333,1.4291214157909,1.42929095684889,1.42641873186652,1.42603975773691,1.42661819193474,1.43333002323034,1.42981952602967,1.43234269589265,1.42732627517692,1.43376883538042,1.43310064415188,1.43496559578974,1.43280145404956,1.43427745855438,1.49552167250125,1.49446453413968,1.49764592222779,1.49849362751772,1.49828419444609,1.49827422144268,1.49793513932671,1.49696775799584,1.50430788850633,1.5028318840015,1.50105668939434,1.50188444867746,1.50109658140799,1.50104671639093,1.50171490761947,1.50162515058877,1.5026523699401,1.50332056116864,1.50258255891623,1.50155533956489,1.50084725632271,1.5005580392238
1.40785897251868,1.40821800064147,1.40888619187001,1.40980370818382,1.41010289828615,1.40946462606785,1.4096042481156,1.41161879480462,1.4127756632003,1.4141419646676,1.41521904903599,1.41488993992342,1.41412201866078,1.41710394668066,1.41635597142484,1.41749289381369,1.41711391968407,1.41840043712409,1.4201357397176,1.42245944951236,1.42218020541686,1.4201357397176,1.42655835391428,1.42575054063799,1.42393545401719,1.43030820319681,1.42969984998874,1.42672789497226,1.42972976899897,1.42845322456237,1.43014863514223,1.43018852715588,1.43554402998758,1.43564376002169,1.43282140005638,1.43180415370846,1.43325023920305,1.43763836070388,1.43694025046511,1.43886504012343,1.43885506712002,1.44270464643666,1.44744182305688,1.44096934384315,1.44167742708533,1.44349251370613,1.44393132585622,1.45080272520639,1.45030407503584,1.4471825249682,1.45029410203242,1.45002483094033,1.45058331913134,1.46096521568218,1.45840215380556,1.46555279725123,1.46300968138143,1.46076575561396,1.4639770627123,1.46753742493002,1.46462530793401,1.46738782987885,1.47138700424666,1.47052932595332,1.47023013585099,1.4684250222336,1.4708783810727,1.47285303574808,1.47182581639674,1.47231449356388,1.47405976916081,1.47371071404142,1.47411960718127,1.47452850032112,1.47210506049225,1.41040208838848,1.40930505801327,1.40972392415653,1.40993335722816,1.41023254733049,1.41016273630662,1.41193793091377,1.41193793091377,1.40904575992459,1.4116886058285,1.4125961491389,1.41095060357608,1.41118995565795,1.41127971268865,1.41081098152833,1.41196784992401,1.41270585217642,1.41372309852434,1.41340396241519,1.41347377343906,1.41308482630604,1.41388266657891,1.41415193767101,1.41536864408715,1.41547834712467,1.41717375770454,1.41416191067442,1.41483010190296,1.4160468083191,1.41562794217584,1.41562794217584,1.41606675432592,1.41564788818266,1.41842038313091,1.41700421664655,1.41670502654422,1.41700421664655,1.41857995118549,1.41928803442767,1.41840043712409,1.41860987019572,1.41904868234581,1.41877941125371,1.4185899241889,1.41919827739697,1.41958722453,1.41927806142426,1.4196769815607,1.41980663060504,1.42181120429065,1.42125271609963,1.42118290507576,1.42185109630429,1.42176133927359,1.42109314804506,1.42219017842027,1.42244947650895,1.42270877459764,1.42260904456353,1.42251928753283,1.42277858562151,1.42400526504107,1.42383572398308,1.42365620992168,1.42444407719115,1.42478315930712,1.42470337527983,1.42519205244697,1.42557102657659,1.42898179374315,1.4257605136414,1.426309028829,1.42809419643957,1.42801441241228,1.42774514132019,1.42883219869198,1.42798449340205,1.49218071635857,1.43580332807626,1.49799497734717,1.50077744529884,1.49830414045291,1.49994968601572,1.49918176475308,1.49791519331988,1.49795508533353,1.4998399829782,1.505464756902,1.50332056116864,1.49846370850749,1.4991119537292,1.49996963202255,1.50493618772122,1.50197420570816,1.50508578277238,1.5031909121243,1.50136585250008,1.50362972427438,1.50176477263652,1.50077744529884,1.50004941604983
1.40755978241635,1.40822797364489,1.40856705576086,1.40894602989048,1.40934495002692,1.40877648883249,1.40904575992459,1.41153901077733,1.41221717500928,1.41558805016219,1.41285544722758,1.41413199166419,1.41420180268807,1.41413199166419,1.42092360698707,1.42199071835205,1.41634599842143,1.41844032913774,1.41866970821619,1.42682762500637,1.42796454739523,1.42127266210646,1.42650848889722,1.42199071835205,1.42324731678183,1.42596994671303,1.42550121555271,1.42407507606494,1.42944055190005,1.42813408845321,1.42863273862376,1.42900173974997,1.43475616271811,1.4342076475305,1.43243245292335,1.43201358678009,1.43607259916836,1.43630197824681,1.43922406824623,1.43419767452709,1.44041085565214,1.43757852268342,1.44625503565098,1.445915953535,1.4439213528528,1.44349251370613,1.44533751933716,1.45024423701537,1.45123156435306,1.45996791534108,1.45973853626263,1.46203232704716,1.46141400083567,1.46090537766171,1.46138408182544,1.45528060373792,1.46133421680839,1.46685926069807,1.46529349916255,1.46481479499882,1.46501425506704,1.46380752165431,1.46422638779757,1.46583204134674,1.47010048680664,1.46667974663668,1.46789645305282,1.46912313247237,1.47499723148144,1.46847488725065,1.47009051380323,1.47131719322278,1.47098808411022,1.46975143168726,1.40877648883249,1.46104499970947,1.40699132122192,1.41198779593083,1.41137944272276,1.40841746070969,1.40837756869605,1.40808835159713,1.41230693203998,1.41016273630662,1.41007297927592,1.41092068456585,1.4106913054874,1.41038214238166,1.41154898378074,1.41193793091377,1.41135949671594,1.41147917275687,1.4141419646676,1.41240666207409,1.41198779593083,1.41203766094788,1.41240666207409,1.41257620313208,1.41367323350728,1.41511931900188,1.41333415139131,1.41313469132309,1.41517915702234,1.41662524251694,1.41524896804622,1.41925811541744,1.41580745623723,1.41608670033274,1.415777537227,1.41535867108374,1.4166850805374,1.41756270483757,1.41773224589556,1.41761256985462,1.41736324476935,1.41739316377958,1.41905865534922,1.41927806142426,1.41874949224348,1.42044490282334,1.41983654961527,1.41944760248224,1.42007590169714,1.42009584770396,1.42014571272101,1.42015568572442,1.42073411992226,1.42099341801095,1.42171147425654,1.42201066435887,1.42176133927359,1.42199071835205,1.42240958449531,1.42263896357376,1.42252926053624,1.42244947650895,1.42351658787393,1.42337696582617,1.42360634490463,1.42408504906835,1.42436429316386,1.4250324843924,1.42557102657659,1.42557102657659,1.42592008169597,1.42913138879431,1.42703705807801,1.42687749002343,1.43295104910072,1.42778503333383,1.42653840790746,1.43015860814564,1.4300289591013,1.43089661039806,1.49700765000948,1.49780549028236,1.49823432942904,1.49801492335399,1.49818446441198,1.49771573325166,1.49754619219368,1.49782543628918,1.49813459939493,1.49823432942904,1.49826424843927,1.49939119782471,1.49918176475308,1.49900225069168,1.49940117082812,1.50204401673203,1.50132596048644,1.50033863314875,1.49953081987246,1.49953081987246,1.49937125181789,1.49934133280765
1.4078789185255,1.40693148320146,1.40758970142658,1.4074201603686,1.40841746070969,1.40886624586319,1.409783762177,1.41018268231344,1.40967405913948,1.41058160244988,1.41229695903657,1.4131446643265,1.42201066435887,1.41614653835321,1.41548832012808,1.41589721326793,1.41817105804564,1.41846027514456,1.41897887132193,1.41703413565679,1.42126268910304,1.41969692756752,1.41920825040038,1.42052468685063,1.42228990845438,1.42338693882958,1.426309028829,1.42976966101262,1.42700713906777,1.43019850015929,1.42767533029631,1.43089661039806,1.42986939104673,1.430118716132,1.4351151908409,1.43371897036337,1.43127558452767,1.43170442367435,1.43286129207002,1.43595292312743,1.43877528309274,1.4416475080751,1.44417067793808,1.44315343159016,1.4427345654469,1.44576635848384,1.45137118640081,1.4508126982098,1.44695314588974,1.45436308742411,1.45722533940306,1.44960596479707,1.45022429100855,1.45189975558159,1.46444579387261,1.45750458349857,1.46555279725123,1.46474498397494,1.46413663076687,1.46478487598859,1.46408676574982,1.46887380738709,1.46529349916255,1.46495441704657,1.46601155540814,1.46799618308693,1.46631074551047,1.4706988670113,1.46757731694366,1.468604536295,1.46878405035639,1.46971153967361,1.46938243056105,1.47003067578277,1.40870667780861,1.45805309868617,1.40881638084613,1.40922527398598,1.40836759569264,1.40753983640953,1.41211744497517,1.40840748770628,1.40875654282567,1.4087864618359,1.41145922675004,1.40946462606785,1.40966408613607,1.40990343821793,1.41121987466818,1.41067135948058,1.41162876780803,1.41161879480462,1.41194790391718,1.41213739098199,1.41172849784214,1.41158887579439,1.41162876780803,1.41178833586261,1.41224709401951,1.41324439436061,1.41359344948,1.41372309852434,1.41370315251752,1.41360342248341,1.41460072282451,1.41589721326793,1.41578751023041,1.41638589043507,1.41605678132251,1.41566783418948,1.41582740224406,1.41619640337026,1.41724356872842,1.4175028668171,1.41654545848965,1.4163160794112,1.42254920654306,1.41844032913774,1.41840043712409,1.41923816941061,1.41988641463233,1.41891903330146,1.41878938425712,1.41992630664597,1.41983654961527,1.41959719753341,1.41975676558799,1.41993627964938,1.42076403893249,1.42198074534864,1.42192090732817,1.42214031340321,1.42306780272043,1.42514218742992,1.42229988145779,1.42238963848849,1.42288828865903,1.42298801869314,1.42364623691827,1.42345674985346,1.42342683084323,1.42386564299331,1.42495270036511,1.42496267336852,1.42565081060388,1.42619932579148,1.42604973074032,1.42655835391428,1.42681765200296,1.42741603220762,1.42758557326561,1.42734622118375,1.42871252265105,1.42947047091029,1.42979958002285,1.49583083560699,1.49534215843985,1.49852354652795,1.49769578724484,1.4975661382005,1.49807476137446,1.49814457239834,1.49799497734717,1.49814457239834,1.49846370850749,1.499470981852,1.49944106284176,1.49954079287587,1.49990979400208,1.49998957802937,1.49899227768827,1.499470981852,1.49855346553819,1.49899227768827,1.49883270963369,1.49830414045291
1.40638296801385,1.40687164518099,1.40757972842317,1.40750991739929,1.40755978241635,1.41156892978757,1.41189803890013,1.41054171043623,1.40981368118723,1.41327431337084,1.41525894104963,1.41182822787625,1.41230693203998,1.41320450234697,1.41507942698823,1.414321478729,1.41466056084497,1.41482012889955,1.41691445961585,1.41927806142426,1.41904868234581,1.41955730551977,1.41840043712409,1.42270877459764,1.42271874760105,1.42118290507576,1.42191093432476,1.4232173977716,1.42983947203649,1.43013866213882,1.42873246865787,1.42808422343616,1.4319338027528,1.43178420770163,1.43065725831619,1.43444699961237,1.43156480162659,1.43140523357202,1.43325023920305,1.43376883538042,1.44670382080447,1.44347256769931,1.44093942483292,1.44204642821154,1.44386151483234,1.44350248670954,1.44331299964473,1.44477903114615,1.45142105141787,1.45059329213475,1.44997496592327,1.45359516616146,1.45321619203184,1.46057626854915,1.4596188602217,1.46137410882203,1.46103502670606,1.4612544327811,1.46026710544341,1.46085551264466,1.46345846653493,1.46190267800281,1.46264068025523,1.47127730120914,1.46457544291696,1.4683352652029,1.46781666902553,1.47513685352919,1.46672961165373,1.46773688499824,1.46770696598801,1.46869429332569,1.45587898394258,1.45634771510289,1.47131719322278,1.40672205012983,1.4073304033379,1.40886624586319,1.40855708275745,1.40870667780861,1.41118995565795,1.41235679705703,1.4088762188666,1.40917540896893,1.40876651582908,1.40910559794505,1.40955438309855,1.40934495002692,1.40920532797916,1.40957432910537,1.40980370818382,1.41015276330321,1.41089076555562,1.41061152146011,1.41098052258632,1.41161879480462,1.41183820087966,1.4122371210161,1.41538859009397,1.41228698603316,1.41271582517983,1.41428158671535,1.41505948098141,1.41354358446294,1.4146904798552,1.41529883306327,1.4154085361008,1.415049507978,1.41855003217526,1.41499964296095,1.41516918401893,1.41730340674888,1.41771229988873,1.41637591743166,1.41653548548624,1.41701418964996,1.42231982746461,1.41926808842085,1.41826081507634,1.41814113903541,1.41837051811386,1.41865973521278,1.41869962722642,1.41901876333557,1.42027536176536,1.41923816941061,1.41977671159481,1.42042495681652,1.42069422790862,1.42128263510987,1.42093357999048,1.42151201418832,1.42161174422243,1.42226996244755,1.42205055637251,1.42241955749872,1.42353653388075,1.42266888258399,1.42359637190122,1.42310769473408,1.42372602094556,1.42450391521162,1.42580040565504,1.42391550801037,1.42499259237875,1.42575054063799,1.42887209070563,1.42632897483583,1.42764541128608,1.42911144278749,1.43282140005638,1.4264885428904,1.42752573524514,1.42861279261694,1.42925106483524,1.49782543628918,1.49808473437787,1.49689794697196,1.4973866241391,1.49814457239834,1.49839389748361,1.49861330355865,1.49866316857571,1.49895238567463,1.49869308758594,1.50026882212488,1.50124617645915,1.50071760727837,1.50189442168087,1.49898230468486,1.49983000997479,1.50029874113511,1.49969038792704,1.49944106284176,1.50006936205666,1.49863324956547
1.40587434483989,1.40559510074439,1.40636302200703,1.40667218511277,1.4074201603686,1.40782905350845,1.40798862156302,1.40841746070969,1.40894602989048,1.40910559794505,1.40984360019747,1.41164871381485,1.41421177569148,1.41428158671535,1.41443118176652,1.41308482630604,1.41723359572501,1.41397242360961,1.42214031340321,1.41886916828441,1.41817105804564,1.41856000517867,1.41960717053682,1.42192090732817,1.42541145852201,1.4277551143236,1.42645862388017,1.42428450913657,1.42318747876136,1.42543140452884,1.42711684210529,1.42755565425538,1.42706697708824,1.42755565425538,1.43582327408308,1.43325023920305,1.43217315483466,1.43780790176187,1.43563378701828,1.43689038544806,1.44408092090738,1.43852595800746,1.44294399851853,1.44194669817743,1.44015155756345,1.44574641247702,1.44708279493409,1.44683346984881,1.44992510090622,1.4483693123741,1.45741482646787,1.45950915718418,1.45167037650314,1.46049648452186,1.46367787260997,1.46064607957303,1.45778382759408,1.46431614482827,1.45982829329333,1.46024715943659,1.46523366114208,1.4624312471836,1.46422638779757,1.46338865551105,1.46493447103975,1.46584201435015,1.46594174438426,1.46624093448659,1.46804604810398,1.46712853179017,1.46762718196072,1.46827542718243,1.40874656982226,1.40790883753573,1.40644280603432,1.40671207712642,1.40850721774039,1.40802851357667,1.40736032234813,1.40754980941294,1.4086967048052,1.40837756869605,1.40766948545387,1.40751989040271,1.40867675879838,1.40838754169946,1.40834764968582,1.40880640784272,1.40874656982226,1.40924521999281,1.40930505801327,1.4103322773646,1.41023254733049,1.41035222337143,1.41118995565795,1.41539856309738,1.41147917275687,1.41174844384896,1.4122371210161,1.4117783628592,1.41206757995812,1.41284547422417,1.41285544722758,1.41312471831968,1.41395247760279,1.41565786118607,1.41494977794389,1.4189489523117,1.41825084207293,1.41571769920654,1.41592713227817,1.41533872507692,1.41528886005986,1.41584734825088,1.41687456760221,1.41687456760221,1.41665516152717,1.41681472958174,1.41765246186827,1.41757267784098,1.41726351473524,1.41844032913774,1.41891903330146,1.42036511879606,1.41888911429123,1.41948749449589,1.41925811541744,1.41955730551977,1.41982657661186,1.42121282408599,1.42211039439298,1.42247939551918,1.42036511879606,1.42154193319855,1.42169152824972,1.42220015142368,1.42249934152601,1.4232173977716,1.42309772173067,1.42322737077501,1.42295809968291,1.42263896357376,1.42387561599672,1.42423464411952,1.42460364524572,1.4257605136414,1.42592008169597,1.42634892084265,1.42734622118375,1.42896184773633,1.42670794896544,1.42691738203707,1.42761549227584,1.42800443940887,1.42816400746345,1.42864271162717,1.42898179374315,1.42949041691711,1.49776559826872,1.49817449140857,1.4983839244802,1.49828419444609,1.4977456522619,1.49816451840516,1.49842381649384,1.49798500434376,1.49889254765416,1.50121625744892,1.50130601447962,1.49809470738128,1.50050817420674,1.5005580392238,1.4995607388827,1.50025884912147,1.43794752380962,1.43704995350264
1.40586437183648,1.40683175316735,1.40622339995928,1.40746005238224,1.40625331896951,1.40691153719464,1.40822797364489,1.40854710975404,1.41097054958291,1.41010289828615,1.41032230436119,1.41022257432708,1.40999319524863,1.4107810625181,1.415777537227,1.41330423238108,1.41839046412068,1.41562794217584,1.41545840111785,1.41778211091261,1.41790178695354,1.41698427063973,1.41889908729464,1.42044490282334,1.42052468685063,1.42028533476877,1.42220015142368,1.42387561599672,1.4221303403998,1.42266888258399,1.42456375323208,1.42736616719057,1.42717668012576,1.42990928306037,1.43010874312859,1.43683054742759,1.4330208601246,1.43743890063566,1.43771814473117,1.43711976452651,1.43675076340031,1.43776800974823,1.43808714585738,1.43945344732468,1.43952325834856,1.44339278367202,1.44298389053217,1.44241542933775,1.45107199629848,1.45058331913134,1.45031404803925,1.45893072298634,1.45636766110972,1.45132132138376,1.45160056547926,1.45599865998351,1.45754447551221,1.46402692772935,1.4572652314167,1.46400698172253,1.46024715943659,1.46074580960714,1.46403690073276,1.46532341817278,1.46395711670548,1.46401695472594,1.46420644179075,1.46539322919666,1.46687920670489,1.46704874776288,1.46923283550989,1.46938243056105,1.40712097026627,1.40691153719464,1.40763956644364,1.40644280603432,1.40756975541976,1.40673202313324,1.40728053832084,1.40755978241635,1.40770937746751,1.40762959344023,1.40738026835495,1.40793875654597,1.40824791965171,1.40989346521452,1.40859697477109,1.40829778466876,1.40863686678474,1.4086967048052,1.40915546296211,1.40965411313266,1.40970397814971,1.41161879480462,1.41011287128956,1.41075114350787,1.41081098152833,1.41100046859314,1.41368320651069,1.41361339548682,1.41187809289331,1.41286542023099,1.41429155971876,1.41557807715878,1.41515921101552,1.41331420538449,1.41491985893366,1.41419182968466,1.41431150572559,1.41449101978698,1.41516918401893,1.41516918401893,1.41512929200529,1.415777537227,1.41545840111785,1.4160468083191,1.41628616040096,1.41667510753399,1.41727348773865,1.41756270483757,1.41923816941061,1.41833062610021,1.41875946524689,1.41835057210704,1.41870960022983,1.41897887132193,1.4186796812196,1.41928803442767,1.41875946524689,1.41924814241403,1.41944760248224,1.41987644162892,1.42010582070737,1.4205845248711,1.42119287807917,1.42167158224289,1.42590013568915,1.42258909855671,1.4228583696488,1.42255917954647,1.42236969248166,1.42263896357376,1.42315755975113,1.42326726278865,1.42495270036511,1.42356645289098,1.42450391521162,1.42465351026278,1.42548126954589,1.42547129654248,1.4254014855186,1.42572062162776,1.42629905582559,1.42722654514281,1.42759554626902,1.42734622118375,1.42840335954531,1.42893192872609,1.43041790623433,1.49708743403677,1.4302982301934,1.49862327656206,1.49890252065757,1.4321133168142,1.49941114383153,1.49957071188611,1.43277153503932,1.43367907834972,1.43412786350322,1.49891249366098,1.43532462391253,1.5000194970396,1.43566370602851,1.43484591974881,1.43553405698417,1.43632192425363
1.4053358026557,1.40486707149538,1.40855708275745,1.40817810862783,1.40713094326968,1.40901584091435,1.40669213111959,1.40743013337201,1.40747999838906,1.40824791965171,1.40897594890071,1.40966408613607,1.41095060357608,1.41220720200587,1.41627618739755,1.41391258558915,1.41304493429239,1.41420180268807,1.41321447535038,1.4182308960661,1.41745300180005,1.41932792644131,1.41879935726053,1.41839046412068,1.42052468685063,1.41991633364256,1.42056457886428,1.42188101531453,1.42607964975055,1.42273869360787,1.42396537302742,1.42919122681478,1.42637883985288,1.42664811094498,1.42747587022809,1.43535454292277,1.43579335507285,1.43567367903192,1.43670089838325,1.43628203223999,1.43744887363907,1.43600278814448,1.43654133032868,1.43850601200064,1.43909441920189,1.43973269142019,1.44601568356911,1.44593589954182,1.44659411776695,1.44617525162369,1.45446281745822,1.45230864872144,1.45664690520522,1.45819272073393,1.45368492319216,1.45342562510347,1.45734501544399,1.45782371960772,1.45857169486354,1.46335873650082,1.45912021005115,1.46200240803692,1.46718836981064,1.46599160940132,1.46653015158551,1.46465522694424,1.46632071851388,1.46700885574924,1.46874415834275,1.4060638319047,1.40567488477167,1.46686923370148,1.46778675001529,1.40678188815029,1.40657245507866,1.40746005238224,1.406702104123,1.4077891614948,1.40653256306502,1.40669213111959,1.40730048432766,1.40681180716053,1.40730048432766,1.40807837859372,1.40750991739929,1.40794872954938,1.40834764968582,1.40821800064147,1.4091454899587,1.40883632685296,1.41202768794447,1.40962419412242,1.41014279029979,1.4094247340542,1.41025249333732,1.41040208838848,1.41126973968524,1.41176838985579,1.41164871381485,1.41171852483873,1.41203766094788,1.41195787692059,1.41302498828557,1.41466056084497,1.41220720200587,1.41333415139131,1.41328428637426,1.41271582517983,1.41385274756868,1.41357350347317,1.415049507978,1.41538859009397,1.41671499954763,1.41711391968407,1.41637591743166,1.41558805016219,1.41645570145895,1.41682470258516,1.4165953235067,1.41671499954763,1.41680475657833,1.41699424364314,1.41789181395013,1.41776216490579,1.4184104101275,1.418859195281,1.41972684657775,1.41953735951294,1.41921822340379,1.41882927627076,1.41919827739697,1.41932792644131,1.42115298606552,1.42185109630429,1.42197077234522,1.42046484883017,1.42163169022925,1.42200069135546,1.42245944951236,1.42284839664539,1.42263896357376,1.42221012442709,1.42233977347143,1.42260904456353,1.42290823466586,1.42315755975113,1.42432440115022,1.42525189046744,1.42469340227642,1.42523194446062,1.42554110756636,1.42584029766869,1.42824379149073,1.4268475710132,1.42729635616669,1.4275756002622,1.42834352152484,1.42813408845321,1.42880227968175,1.43126561152426,1.43018852715588,1.42994917507401,1.43034809521045,1.43064728531278,1.4313852875652,1.43148501759931,1.43145509858907,1.43264188599498,1.43327018520987,1.43458662166012,1.43444699961237,1.4344769186226,1.43554402998758,1.43508527183067,1.43408797148957,1.43475616271811
1.40795870255279,1.40600399388424,1.40572474978873,1.40607380490811,1.4070611322458,1.40661234709231,1.40596410187059,1.40668215811618,1.40838754169946,1.40875654282567,1.41131960470229,1.40967405913948,1.40981368118723,1.41618643036685,1.41031233135778,1.41081098152833,1.41624626838732,1.41881930326735,1.41327431337084,1.41703413565679,1.41706405466702,1.41852011316502,1.41628616040096,1.41607672732933,1.42548126954589,1.42034517278923,1.41996619865962,1.42084382295978,1.42093357999048,1.42582035166186,1.43071709633666,1.42978960701944,1.43666100636961,1.43106615145604,1.43589308510696,1.43588311210355,1.43441708060213,1.4360227341513,1.4351151908409,1.43592300411719,1.43596289613084,1.43588311210355,1.44715260595796,1.44576635848384,1.44703292991703,1.44543724937127,1.44771109414898,1.45122159134965,1.44479897715297,1.45395419428426,1.45028412902901,1.45730512343035,1.45636766110972,1.4538145722365,1.45615822803808,1.45210918865322,1.45483181858442,1.45507117066629,1.46063610656962,1.46001778035814,1.46099513469241,1.46752745192661,1.4647050919613,1.46562260827511,1.46688917970831,1.46820561615856,1.46813580513468,1.46852475226771,1.40590426385013,1.405246045625,1.40523607262159,1.40568485777508,1.40522609961818,1.40601396688765,1.40650264405478,1.40673202313324,1.405974074874,1.40587434483989,1.40620345395246,1.40649267105137,1.40690156419122,1.40699132122192,1.40691153719464,1.40729051132425,1.40717083528332,1.40841746070969,1.40801854057325,1.4081481896176,1.40815816262101,1.40850721774039,1.40847729873016,1.40833767668241,1.40952446408831,1.40963416712583,1.40944468006103,1.41010289828615,1.41014279029979,1.41112014463407,1.41052176442941,1.41039211538507,1.41106030661361,1.41111017163066,1.41285544722758,1.41267593316619,1.41255625712525,1.4120576069547,1.41272579818324,1.41520907603258,1.41243658108432,1.41448104678357,1.41422174869489,1.41482012889955,1.41492983193707,1.41493980494048,1.41487996692001,1.41558805016219,1.41580745623723,1.41596702429181,1.4159570512884,1.41781202992284,1.41656540449647,1.41652551248283,1.41960717053682,1.41824086906952,1.41746297480346,1.41792173296036,1.41835057210704,1.41901876333557,1.4197667385914,1.41906862835263,1.41943762947883,1.42056457886428,1.42185109630429,1.42235971947825,1.42316753275454,1.42314758674772,1.4202254967483,1.42120285108258,1.4221303403998,1.42224004343732,1.42214031340321,1.42227993545096,1.42268882859082,1.42307777572384,1.42334704681594,1.42326726278865,1.42354650688416,1.42418477910246,1.42461361824914,1.42473329429007,1.42577048664481,1.42612951476761,1.42582035166186,1.42776508732701,1.42709689609847,1.42729635616669,1.42751576224173,1.42799446640546,1.42859284661012,1.43023839217293,1.43063731230937,1.42905160476702,1.42919122681478,1.42964998497168,1.43051763626844,1.42997909408425,1.43041790623433,1.43167450466411,1.4327515890325,1.43299094111436,1.43328015821328,1.4331106171553,1.43340980725763,1.43405805247934,1.43461654067035,1.43405805247934
1.40409915023274,1.40444820535212,1.40450804337259,1.4050665315636,1.40509645057384,1.40547542470345,1.40608377791152,1.40691153719464,1.40684172617076,1.40759967442999,1.4086967048052,1.40918538197234,1.4103322773646,1.41008295227933,1.41129965869547,1.41121987466818,1.41338401640837,1.41317458333673,1.41325436736402,1.41472039886544,1.41840043712409,1.41655543149306,1.41860987019572,1.41743305579323,1.41810124702176,1.42172144725995,1.42167158224289,1.42564083760047,1.42543140452884,1.42246942251577,1.43012868913541,1.43249229094381,1.42612951476761,1.42884217169539,1.42813408845321,1.43417772852027,1.43610251817859,1.43390845742817,1.43694025046511,1.43616235619906,1.4374688196459,1.43916423022576,1.43945344732468,1.43982244845089,1.44294399851853,1.45075286018933,1.44993507390963,1.44985528988234,1.45114180732236,1.4487283404969,1.45325608404549,1.45391430227061,1.45166040349973,1.45350540913076,1.45082267121321,1.4528172718954,1.45333586807278,1.45402400530813,1.45842209981238,1.46358811557927,1.46004769936837,1.46707866677311,1.46641047554458,1.46692907172195,1.46574228431604,1.4634385205281,1.40508647757042,1.40632312999339,1.40599402088082,1.40556518173415,1.40662232009572,1.40549537071028,1.40446815135894,1.40480723347492,1.4051562885943,1.40529591064206,1.40504658555678,1.40714091627309,1.40685169917417,1.40685169917417,1.40713094326968,1.4071508892765,1.40631315698998,1.40595412886718,1.40826786565853,1.40762959344023,1.40771935047093,1.40743013337201,1.40801854057325,1.408327703679,1.40877648883249,1.40853713675063,1.40892608388365,1.40873659681885,1.40881638084613,1.40939481504397,1.40915546296211,1.40935492303033,1.40979373518041,1.40968403214289,1.41032230436119,1.41184817388307,1.41190801190354,1.41402228862667,1.41234682405362,1.41181825487284,1.41291528524805,1.41434142473582,1.41275571719347,1.41321447535038,1.41609667333615,1.41334412439472,1.41436137074264,1.41433145173241,1.41472039886544,1.41472039886544,1.41428158671535,1.41549829313149,1.41539856309738,1.41564788818266,1.41582740224406,1.41656540449647,1.41699424364314,1.41727348773865,1.41744302879664,1.41748292081028,1.41690448661244,1.41792173296036,1.41900879033216,1.41899881732875,1.41873951924006,1.41879935726053,1.41946754848907,1.42000609067326,1.4212227970894,1.42144220316444,1.42084382295978,1.42119287807917,1.42154193319855,1.42124274309622,1.42171147425654,1.42202063736228,1.42315755975113,1.42360634490463,1.42273869360787,1.42260904456353,1.42309772173067,1.42377588596261,1.42408504906835,1.42440418517751,1.42543140452884,1.42590013568915,1.42680767899955,1.42604973074032,1.42643867787335,1.42770524930654,1.42700713906777,1.42724649114964,1.42868260364082,1.42783489835088,1.42852303558624,1.42952033592734,1.43053758227526,1.42999904009107,1.42959014695122,1.42952033592734,1.42998906708766,1.43046777125138,1.43291115708708,1.43224296585854,1.43226291186536,1.43256210196769,1.43305077913483,1.43320037418599,1.43345967227468,1.43482597374199
1.40296222784388,1.40291236282683,1.40577461480578,1.40819805463465,1.40641288702409,1.40734037634131,1.40480723347492,1.40544550569322,1.40626329197292,1.4072406463072,1.40908565193823,1.40846732572675,1.40885627285978,1.40900586791094,1.41025249333732,1.41067135948058,1.41165868681826,1.41194790391718,1.41822092306269,1.41615651135662,1.41503953497459,1.41611661934298,1.41764248886486,1.41747294780687,1.41682470258516,1.41883924927417,1.41842038313091,1.42175136627018,1.42099341801095,1.42345674985346,1.42435432016045,1.42991925606378,1.42543140452884,1.4260297847335,1.42816400746345,1.43289121108025,1.43334996923716,1.43416775551686,1.43516505585796,1.43604268015813,1.43591303111378,1.43627205923658,1.43799738882668,1.44583616950771,1.44460949008816,1.44451973305746,1.45075286018933,1.44865852947302,1.4480900682786,1.44834936636728,1.45077280619615,1.44962591080389,1.45194962059865,1.45130137537693,1.45069302216886,1.45091242824391,1.45173021452361,1.45642749913018,1.45642749913018,1.46305954639849,1.46151373086978,1.45889083097269,1.4576242595395,1.46791639905964,1.4046077734067,1.40525601862841,1.40508647757042,1.4032514449428,1.46260078824158,1.40447812436235,1.40793875654597,1.40437839432824,1.40470750344081,1.4047872874681,1.40479726047151,1.4049767745329,1.40505655856019,1.40514631559089,1.40498674753631,1.40563499275803,1.40557515473756,1.40631315698998,1.40659240108548,1.40584442582966,1.4061535889354,1.40674199613665,1.40680183415711,1.40685169917417,1.40817810862783,1.40838754169946,1.4087864618359,1.40848727173357,1.40828781166535,1.40810829760395,1.40824791965171,1.40865681279156,1.41109022562384,1.4126859061696,1.41000316825204,1.41008295227933,1.41066138647717,1.41063146746693,1.41084090053856,1.41127971268865,1.4123268780468,1.41202768794447,1.41203766094788,1.41207755296153,1.41312471831968,1.41317458333673,1.41283550122076,1.41342390842201,1.41373307152775,1.41375301753457,1.41339398941178,1.4135036924493,1.41491985893366,1.41538859009397,1.41508939999164,1.41555813115196,1.41566783418948,1.41584734825088,1.41608670033274,1.41656540449647,1.41684464859198,1.41708400067384,1.41744302879664,1.41761256985462,1.41843035613432,1.41992630664597,1.41863978920596,1.41851014016161,1.41956727852318,1.41945757548566,1.42005595569031,1.41992630664597,1.41958722453,1.4204050108097,1.42082387695296,1.42061444388133,1.42184112330088,1.42164166323266,1.42024544275512,1.42302791070679,1.42334704681594,1.4230378837102,1.42322737077501,1.423396911833,1.4233071548023,1.42368612893191,1.42511226841969,1.42517210644015,1.4254912425493,1.42569070261752,1.42624919080854,1.4266680569518,1.42662816493815,1.42691738203707,1.42737614019398,1.42754568125197,1.42785484435771,1.42772519531336,1.42800443940887,1.42875241466469,1.42902168575679,1.42941063288982,1.42978960701944,1.43006885111495,1.43087666439123,1.43099634043217,1.43150496360613,1.43165455865729,1.43263191299157,1.43280145404956,1.4333898612508,1.43316048217235
1.40164579139363,1.40214444156418,1.40348082402126,1.40371020309971,1.40771935047093,1.40521612661477,1.40505655856019,1.4053358026557,1.40861692077791,1.40564496576144,1.40685169917417,1.41135949671594,1.40993335722816,1.40853713675063,1.40922527398598,1.41017270931003,1.40975384316677,1.41006300627251,1.41195787692059,1.41279560920712,1.41587726726111,1.41353361145953,1.41455085780745,1.41584734825088,1.41712389268749,1.42060447087792,1.42183115029747,1.42074409292567,1.42174139326677,1.42535162050155,1.42233977347143,1.42605970374373,1.42679770599614,1.42532170149132,1.4347461897147,1.43387853841794,1.43496559578974,1.43616235619906,1.4362920052434,1.43512516384431,1.43578338206944,1.43651141131844,1.43715965654016,1.43667097937302,1.44475908513933,1.44656419875672,1.4479105542172,1.44784074319332,1.4479105542172,1.44789060821038,1.44811998728883,1.45385446425015,1.4539043292672,1.45360513916487,1.44950623476296,1.45068304916545,1.45115178032577,1.45114180732236,1.45052348111088,1.45731509643376,1.45755444851562,1.46553285124441,1.46520374213185,1.40323149893598,1.40271290275861,1.40333122897009,1.4037002300963,1.40353068903831,1.40358055405537,1.40398944719522,1.40413904224638,1.40446815135894,1.40454793538623,1.40541558668299,1.40434847531801,1.40390966316793,1.40434847531801,1.40457785439646,1.40565493876485,1.40519618060795,1.40578458780919,1.40645277903773,1.40753983640953,1.40583445282625,1.40616356193881,1.4065126170582,1.40744010637542,1.40736032234813,1.40980370818382,1.41027243934414,1.40845735272334,1.40864683978815,1.40845735272334,1.40809832460054,1.40840748770628,1.40866678579497,1.40937486903715,1.40916543596552,1.40926516599963,1.40959427511219,1.41023254733049,1.41119992866136,1.41236677006044,1.41152903777392,1.41160882180121,1.41175841685237,1.41321447535038,1.41304493429239,1.41091071156244,1.41258617613549,1.41292525825146,1.41331420538449,1.41333415139131,1.41335409739813,1.41330423238108,1.41258617613549,1.41381285555504,1.41485004790978,1.4149597509473,1.41538859009397,1.4154085361008,1.4153187790701,1.41541850910421,1.41608670033274,1.41707402767043,1.41742308278981,1.4174131097864,1.41816108504223,1.41854005917185,1.4204050108097,1.41937779145837,1.41886916828441,1.41968695456411,1.42055460586086,1.42311766773749,1.42075406592908,1.42069422790862,1.42146214917126,1.41977671159481,1.4194974674993,1.42098344500754,1.42147212217467,1.42231982746461,1.42231982746461,1.42279853162834,1.42341685783982,1.42353653388075,1.42572062162776,1.42327723579206,1.42317750575795,1.42380580497285,1.4238556699899,1.42437426616727,1.42443410418774,1.42446402319797,1.42530175548449,1.42547129654248,1.42590013568915,1.42689743603025,1.42583032466528,1.42774514132019,1.42900173974997,1.42858287360671,1.42858287360671,1.42770524930654,1.42909149678067,1.42893192872609,1.42987936405014,1.43087666439123,1.43133542254814,1.43146507159248,1.43207342480055,1.43319040118258,1.43149499060272,1.43204350579032,1.43650143831503
1.40275279477225,1.40342098600079,1.40277274077908,1.40455790838964,1.40434847531801,1.40794872954938,1.40552528972051,1.40529591064206,1.40595412886718,1.40625331896951,1.4071508892765,1.40772932347434,1.40972392415653,1.40930505801327,1.40922527398598,1.40975384316677,1.41097054958291,1.41183820087966,1.41057162944647,1.41404223463349,1.41373307152775,1.41557807715878,1.41607672732933,1.41525894104963,1.41605678132251,1.41723359572501,1.42231982746461,1.41990636063915,1.42232980046802,1.42175136627018,1.43370899735996,1.43056750128549,1.42448396920479,1.43274161602909,1.43457664865671,1.43419767452709,1.43436721558508,1.43439713459531,1.43491573077268,1.43597286913425,1.436112491182,1.43590305811037,1.43640170828092,1.43767825271753,1.43815695688125,1.44578630449066,1.44750166107735,1.4471825249682,1.44752160708417,1.44749168807394,1.44778090517286,1.44841917739116,1.44848898841504,1.44880812452419,1.4502741560256,1.4544428714514,1.4499949119301,1.45028412902901,1.45268762285106,1.4532660570489,1.4036104730656,1.40441828634189,1.40329133695645,1.40318163391893,1.40359052705878,1.40327139094963,1.40236384763923,1.40351074303149,1.40231398262217,1.40315171490869,1.4022541446017,1.40372017610312,1.40369025709289,1.4034309590042,1.4036104730656,1.40356060804854,1.40412906924297,1.40454793538623,1.40575466879896,1.40549537071028,1.40764953944705,1.40500669354314,1.40491693651244,1.40572474978873,1.40747002538565,1.40653256306502,1.40630318398656,1.4063331029968,1.40664226610254,1.40773929647775,1.40704118623898,1.40751989040271,1.40789886453232,1.4082379466483,1.40745007937883,1.40917540896893,1.40985357320088,1.40943470705761,1.40992338422475,1.41183820087966,1.41142930773981,1.41085087354197,1.4109605765795,1.41550826613491,1.41334412439472,1.41135949671594,1.41136946971935,1.41158887579439,1.4123268780468,1.41496972395071,1.41231690504339,1.41416191067442,1.4144112357597,1.41328428637426,1.41303496128898,1.4129651502651,1.41376299053798,1.41362336849023,1.41416191067442,1.41525894104963,1.41515921101552,1.41529883306327,1.41651553947941,1.41856997818208,1.41656540449647,1.41999611766985,1.41920825040038,1.41639586343848,1.41669505354081,1.41755273183416,1.41756270483757,1.41698427063973,1.42137239214056,1.41857995118549,1.41946754848907,1.42220015142368,1.41989638763574,1.42091363398366,1.41994625265279,1.42046484883017,1.4200459826869,1.42265890958058,1.42459367224231,1.42335701981935,1.42366618292509,1.42275863961469,1.42240958449531,1.42234974647484,1.42274866661128,1.42327723579206,1.42410499507518,1.42351658787393,1.42400526504107,1.42432440115022,1.42490283534805,1.42448396920479,1.42493275435829,1.42535162050155,1.42573059463117,1.42629905582559,1.4266680569518,1.42871252265105,1.42787479036453,1.42787479036453,1.42792465538158,1.42900173974997,1.42990928306037,1.42962006596145,1.42916130780455,1.42991925606378,1.43280145404956,1.43181412671187,1.43227288486877,1.43147504459589,1.4318440457221,1.4325720749711
1.40323149893598,1.40207463054031,1.40222422559147,1.40273284876543,1.40292233583024,1.40275279477225,1.40390966316793,1.40511639658066,1.40893605688707,1.40986354620429,1.40650264405478,1.40664226610254,1.40781908050504,1.41163874081144,1.40908565193823,1.40913551695529,1.40924521999281,1.41008295227933,1.41103038760337,1.41163874081144,1.41227701302975,1.41368320651069,1.41349371944589,1.41918830439356,1.41895892531511,1.42271874760105,1.42102333702118,1.42060447087792,1.42011579371078,1.42110312104847,1.42255917954647,1.43468635169423,1.42644865087676,1.43405805247934,1.43414780951004,1.43411789049981,1.44026126060097,1.43916423022576,1.43402813346911,1.43528473189889,1.44697309189657,1.43929387927011,1.43876531008932,1.44114885790455,1.44331299964473,1.44732214701595,1.44306367455946,1.4453674383474,1.44604560257934,1.44786068920014,1.44712268694773,1.44740193104324,1.44827955534341,1.44926688268109,1.45028412902901,1.44956607278342,1.45082267121321,1.45082267121321,1.45747466448833,1.45703585233825,1.40255333470403,1.40210454955054,1.40215441456759,1.40285252480636,1.4032514449428,1.40311182289505,1.40327139094963,1.40281263279272,1.40256330770745,1.40282260579613,1.40285252480636,1.4027926867859,1.40274282176884,1.4028824438166,1.40381990613723,1.40438836733166,1.40452798937941,1.40508647757042,1.4049767745329,1.40490696350903,1.40474739545445,1.40519618060795,1.40557515473756,1.40592420985695,1.40723067330379,1.40525601862841,1.40541558668299,1.40621342695587,1.40559510074439,1.40593418286036,1.40788889152891,1.40956435610196,1.40812824361078,1.40777918849139,1.40776921548798,1.40716086227991,1.40822797364489,1.40716086227991,1.40842743371311,1.40904575992459,1.40968403214289,1.41099049558973,1.40986354620429,1.41007297927592,1.41028241234755,1.41097054958291,1.41080100852492,1.41276569019688,1.41161879480462,1.41149911876369,1.41187809289331,1.41228698603316,1.41246650009455,1.41225706702292,1.41302498828557,1.41274574419006,1.41306488029921,1.41376299053798,1.41439128975287,1.41493980494048,1.41501958896777,1.41502956197118,1.41534869808033,1.41548832012808,1.41598697029863,1.41580745623723,1.41603683531569,1.41632605241461,1.41676486456469,1.41693440562268,1.41735327176594,1.41821095005928,1.41836054511045,1.4200459826869,1.41884922227759,1.41865973521278,1.4196769815607,1.420315253779,1.41938776446178,1.41888911429123,1.41961714354023,1.42092360698707,1.42232980046802,1.42559097258341,1.42141228415421,1.42124274309622,1.42209044838616,1.4222200974305,1.42246942251577,1.42220015142368,1.42286834265221,1.42437426616727,1.42373599394897,1.42320742476819,1.4245836992389,1.42484299732759,1.42496267336852,1.42595997370962,1.42704703108142,1.42787479036453,1.42601981173008,1.42609959575737,1.4266680569518,1.42951036292393,1.42974971500579,1.42771522230995,1.4288521446988,1.43072706934007,1.42927101084207,1.43044782524456,1.43062733930596,1.42989931005696,1.43098636742876,1.43067720432302,1.43290118408366,1.43207342480055
1.40202476552325,1.4020646575369,1.40265306473814,1.40594415586377,1.40258325371427,1.40291236282683,1.40435844832142,1.40519618060795,1.40503661255337,1.40546545170004,1.40620345395246,1.40838754169946,1.40683175316735,1.41176838985579,1.40793875654597,1.41178833586261,1.4085171907438,1.41000316825204,1.41000316825204,1.41178833586261,1.4116886058285,1.41233685105021,1.41585732125429,1.41534869808033,1.415777537227,1.4161365653498,1.4167748375681,1.4180414090013,1.42547129654248,1.42518207944356,1.42356645289098,1.42351658787393,1.43425751254756,1.43532462391253,1.43459659466353,1.43462651367377,1.43499551479997,1.43587313910014,1.43579335507285,1.43604268015813,1.43595292312743,1.43633189725704,1.43838633595971,1.44144804800688,1.44250518636844,1.44409089391079,1.44321326961062,1.44624506264756,1.44806014926836,1.44734209302277,1.44676365882494,1.44756149909781,1.44835933937069,1.44895771957535,1.44924693667427,1.44874828650372,1.45005474995056,1.45134126739058,1.40013986787858,1.40057868002866,1.40127679026743,1.4017056294141,1.40112719521626,1.40159592637658,1.4018851434755,1.40184525146185,1.40314174190528,1.40281263279272,1.40512636958407,1.40354066204172,1.40292233583024,1.40233392862899,1.4023439016324,1.40327139094963,1.40376006811676,1.4023439016324,1.40346087801443,1.40383985214405,1.40552528972051,1.4050665315636,1.40402933920886,1.40447812436235,1.40522609961818,1.40520615361136,1.40563499275803,1.40547542470345,1.40564496576144,1.40585439883307,1.40612366992517,1.40641288702409,1.40620345395246,1.40682178016394,1.40664226610254,1.40689159118781,1.40728053832084,1.4076994044641,1.40882635384954,1.40815816262101,1.4081481896176,1.40846732572675,1.40863686678474,1.40844737971993,1.40911557094846,1.40965411313266,1.41080100852492,1.41081098152833,1.40999319524863,1.4106913054874,1.41022257432708,1.41105033361019,1.41217728299564,1.41371312552093,1.41196784992401,1.41471042586203,1.41243658108432,1.41318455634015,1.41470045285862,1.41225706702292,1.41249641910479,1.41376299053798,1.41438131674946,1.41511931900188,1.41487996692001,1.41501958896777,1.41554815814855,1.41538859009397,1.41672497255105,1.41602686231228,1.41646567446236,1.41714383869431,1.41851014016161,1.4177721379092,1.41895892531511,1.41844032913774,1.41895892531511,1.41851014016161,1.41862981620254,1.41870960022983,1.41880933026394,1.41916835838674,1.41943762947883,1.42033519978582,1.41997617166303,1.41986646862551,1.42081390394955,1.42052468685063,1.42165163623607,1.42480310531394,1.42553113456295,1.42401523804448,1.42571064862434,1.42227993545096,1.42344677685005,1.42383572398308,1.4233071548023,1.42427453613316,1.42590013568915,1.42641873186652,1.42652843490405,1.42637883985288,1.42589016268574,1.42559097258341,1.42664811094498,1.42697722005754,1.42685754401661,1.42787479036453,1.42797452039864,1.42786481736112,1.4283036295112,1.42909149678067,1.42949041691711,1.42932087585912,1.42943057889664,1.43155482862318,1.43270172401545,1.43114593548333
1.40168568340728,1.40174552142774,1.40257328071086,1.40244363166651,1.40230400961876,1.40287247081319,1.40358055405537,1.40399942019863,1.40388971716111,1.40475736845786,1.40527596463523,1.40574469579555,1.4064228600275,1.40660237408889,1.40747999838906,1.40802851357667,1.40841746070969,1.41061152146011,1.40976381617018,1.41139938872958,1.41288536623782,1.41340396241519,1.41307485330262,1.42253923353965,1.41412201866078,1.41937779145837,1.41825084207293,1.42534164749814,1.42154193319855,1.42349664186711,1.42971979599556,1.43430737756461,1.42342683084323,1.43530467790571,1.43407799848616,1.43110604346969,1.4373790626152,1.43622219421952,1.43499551479997,1.43462651367377,1.43575346305921,1.43652138432185,1.43856585002111,1.43807717285397,1.43907447319507,1.44611541360322,1.44581622350089,1.44759141810805,1.44457957107793,1.44541730336445,1.44632484667485,1.45040380506995,1.44884801653783,1.45017442599149,1.40172557542092,1.40146627733224,1.40195495449938,1.4022541446017,1.40167571040387,1.40096762716169,1.40495682852608,1.40201479251984,1.40256330770745,1.40194498149596,1.40144633132541,1.40156600736635,1.40133662828789,1.40187517047209,1.40138649330495,1.40172557542092,1.40413904224638,1.40250346968698,1.40220427958465,1.40239376664946,1.40202476552325,1.4022541446017,1.4028824438166,1.40441828634189,1.40487704449879,1.40339106699056,1.40392960917475,1.40385979815087,1.40454793538623,1.40558512774097,1.40440831333848,1.40509645057384,1.40517623460112,1.4058843178433,1.40613364292858,1.40666221210936,1.40657245507866,1.40573472279214,1.40658242808207,1.40664226610254,1.40694145620487,1.40689159118781,1.40682178016394,1.40804845958349,1.40793875654597,1.40808835159713,1.40846732572675,1.4093349770235,1.41053173743282,1.41003308726227,1.41072122449763,1.40982365419064,1.41600691630545,1.40992338422475,1.41113011763748,1.41084090053856,1.41117000965113,1.41140936173299,1.41162876780803,1.41188806589672,1.41389263958233,1.41230693203998,1.41304493429239,1.41227701302975,1.41256623012866,1.41242660808091,1.41408212664713,1.41479020988931,1.415049507978,1.41427161371194,1.41544842811444,1.4152290220394,1.41563791517925,1.41639586343848,1.41639586343848,1.4165953235067,1.41697429763632,1.41765246186827,1.41769235388191,1.41780205691943,1.41838049111727,1.41872954623665,1.41890906029805,1.4193179534379,1.41889908729464,1.41897887132193,1.41957725152659,1.42125271609963,1.42134247313033,1.41975676558799,1.42016565872784,1.42059449787451,1.42025541575853,1.42163169022925,1.42212036739639,1.42251928753283,1.42305782971702,1.42250931452942,1.4226788555874,1.42371604794215,1.42453383422185,1.42468342927301,1.42580040565504,1.42584029766869,1.42535162050155,1.42918125381137,1.42563086459706,1.42629905582559,1.42631900183241,1.4264885428904,1.42683759800979,1.42647856988699,1.42767533029631,1.42795457439182,1.42813408845321,1.4275756002622,1.42907155077385,1.42899176674656,1.43077693435713,1.43021844616611,1.43015860814564,1.43097639442534
1.40168568340728,1.40368028408948,1.40394955518157,1.40354066204172,1.40315171490869,1.40356060804854,1.40381990613723,1.40362044606901,1.40529591064206,1.4078789185255,1.40658242808207,1.40577461480578,1.40595412886718,1.40596410187059,1.40842743371311,1.40922527398598,1.40865681279156,1.41008295227933,1.4124166350775,1.41144925374663,1.41196784992401,1.41209749896835,1.41333415139131,1.41437134374605,1.41421177569148,1.42011579371078,1.42279853162834,1.41945757548566,1.42103331002459,1.42364623691827,1.42959014695122,1.42853300858965,1.42800443940887,1.42902168575679,1.43803728084032,1.43594295012402,1.43646154630139,1.43540440793982,1.4365612763355,1.43540440793982,1.43476613572152,1.44043080165896,1.43758849568683,1.43680062841736,1.44136826397959,1.44662403677718,1.44731217401254,1.44553697940538,1.44715260595796,1.44406097490056,1.44431029998583,1.44993507390963,1.4480003112479,1.44778090517286,1.39990051579671,1.40098757316851,1.40158595337317,1.39994040781036,1.39981075876601,1.4009776001651,1.40092773514804,1.40041911197408,1.40127679026743,1.40090778914122,1.4012468712572,1.40125684426061,1.40108730320262,1.40118703323673,1.40128676327084,1.4017056294141,1.40121695224696,1.40147625033565,1.40145630432883,1.40172557542092,1.40247355067675,1.40272287576202,1.40327139094963,1.40317166091552,1.4033412019735,1.40338109398715,1.40466761142716,1.40379996013041,1.403789987127,1.40389969016452,1.4035207160349,1.40467758443057,1.4046975304374,1.40493688251926,1.40539564067617,1.40527596463523,1.40576464180237,1.40855708275745,1.40583445282625,1.40658242808207,1.40680183415711,1.40732043033449,1.40683175316735,1.40709105125603,1.40735034934472,1.40798862156302,1.40798862156302,1.40846732572675,1.40950451808149,1.40891611088024,1.40849724473698,1.40904575992459,1.41023254733049,1.40945465306444,1.40997324924181,1.41310477231286,1.41022257432708,1.41093065756926,1.41071125149422,1.41065141347376,1.41120990166477,1.41163874081144,1.41222714801269,1.41292525825146,1.41518913002575,1.41306488029921,1.41311474531627,1.41394250459938,1.4161365653498,1.41477026388249,1.41537861709056,1.41553818514514,1.41519910302916,1.41532875207351,1.41545840111785,1.41692443261927,1.41623629538391,1.41675489156128,1.41711391968407,1.41699424364314,1.41693440562268,1.41737321777276,1.41836054511045,1.41845030214115,1.41869962722642,1.41877941125371,1.41919827739697,1.41923816941061,1.41988641463233,1.42026538876195,1.41961714354023,1.42091363398366,1.42103331002459,1.42154193319855,1.42347669586028,1.42264893657717,1.42326726278865,1.42274866661128,1.42287831565562,1.42273869360787,1.42352656087734,1.42365620992168,1.42581037865845,1.42642870486994,1.42500256538216,1.42525189046744,1.42530175548449,1.42547129654248,1.42581037865845,1.42664811094498,1.42631900183241,1.42577048664481,1.42704703108142,1.42655835391428,1.42762546527925,1.42864271162717,1.4290316587602,1.43026831118316,1.42895187473291,1.42950038992052,1.43003893210471,1.43030820319681
1.40193500849255,1.40163581839022,1.40200481951643,1.40355063504513,1.4023439016324,1.40263311873132,1.40258325371427,1.40417893426003,1.40514631559089,1.40465763842375,1.40525601862841,1.40514631559089,1.4071508892765,1.40865681279156,1.40849724473698,1.40937486903715,1.41103038760337,1.41211744497517,1.41182822787625,1.41493980494048,1.41264601415595,1.4169543516295,1.41533872507692,1.4152290220394,1.41558805016219,1.4159570512884,1.41566783418948,1.42344677685005,1.42173142026336,1.4232173977716,1.42250931452942,1.42678773299273,1.42898179374315,1.42829365650779,1.42653840790746,1.4273063291701,1.43328015821328,1.43386856541453,1.43674079039689,1.43721949456062,1.44072999176129,1.43818687589149,1.43864563404839,1.44054050469648,1.43967285339972,1.44025128759756,1.44094939783633,1.4414679940137,1.44239548333092,1.44290410650488,1.4501843989949,1.44356232473001,1.39899297248631,1.44830947435364,1.39877356641127,1.39901291849313,1.39917248654771,1.39892316146244,1.39937194661593,1.39972100173531,1.39992046180353,1.40028946292974,1.40172557542092,1.40340103999397,1.40126681726402,1.40026951692292,1.40058865303207,1.40123689825378,1.40107733019921,1.40129673627425,1.40474739545445,1.40155603436294,1.40102746518215,1.401436358322,1.40247355067675,1.40210454955054,1.40264309173473,1.40278271378249,1.40216438757101,1.40273284876543,1.40276276777567,1.40327139094963,1.40292233583024,1.40323149893598,1.40402933920886,1.40399942019863,1.40417893426003,1.40622339995928,1.40614361593199,1.40605385890129,1.40496680152949,1.40540561367958,1.4081481896176,1.40566491176826,1.40625331896951,1.40664226610254,1.40703121323557,1.40622339995928,1.40667218511277,1.40695142920828,1.41022257432708,1.40838754169946,1.40803848658008,1.40927513900304,1.40868673180179,1.40877648883249,1.40844737971993,1.40938484204056,1.40935492303033,1.40962419412242,1.4106913054874,1.4106015484567,1.41121987466818,1.4114193347364,1.41117998265454,1.41169857883191,1.41212741797858,1.41200774193765,1.41216730999222,1.4142317216983,1.41221717500928,1.41222714801269,1.41254628412184,1.41925811541744,1.41371312552093,1.41420180268807,1.41449101978698,1.4151392650087,1.41511931900188,1.41502956197118,1.41548832012808,1.4161365653498,1.41643575545213,1.41625624139073,1.41675489156128,1.41667510753399,1.41637591743166,1.41792173296036,1.41838049111727,1.41844032913774,1.41846027514456,1.41839046412068,1.41843035613432,1.41896889831852,1.41951741350612,1.42015568572442,1.42127266210646,1.42114301306211,1.42224004343732,1.42250931452942,1.42241955749872,1.42297804568973,1.4227686126181,1.42221012442709,1.42234974647484,1.42246942251577,1.42446402319797,1.42391550801037,1.42319745176478,1.42346672285687,1.42954028193416,1.42478315930712,1.42553113456295,1.42584029766869,1.42589016268574,1.42613948777102,1.42652843490405,1.42699716606436,1.42799446640546,1.42787479036453,1.43331007722352,1.42744595121786,1.42816400746345,1.428662657634,1.42933084886253,1.42954028193416
1.40021965190586,1.40519618060795,1.40094768115487,1.40162584538681,1.4017056294141,1.40285252480636,1.40453796238282,1.40517623460112,1.4062433459661,1.40413904224638,1.40498674753631,1.40532582965229,1.40572474978873,1.40635304900362,1.40749994439588,1.41247647309797,1.40836759569264,1.40859697477109,1.40964414012925,1.41131960470229,1.41265598715936,1.41266596016277,1.41221717500928,1.41320450234697,1.41413199166419,1.41779208391602,1.41589721326793,1.41726351473524,1.42221012442709,1.42199071835205,1.42395540002401,1.42419475210587,1.42590013568915,1.42538153951178,1.43332005022693,1.43606262616495,1.43586316609673,1.43594295012402,1.43540440793982,1.43644160029457,1.43894482415072,1.43925398725646,1.43961301537926,1.43882514810979,1.4393736632974,1.43943350131786,1.44071004575447,1.44057042370671,1.44117877691478,1.44393132585622,1.44327310763109,1.40043905798091,1.39911264852724,1.39936197361252,1.39850429531917,1.39939189262275,1.40012989487516,1.39985065077966,1.40001021883423,1.3997110287319,1.39904283750337,1.39914256753748,1.39910267552383,1.39909270252042,1.4005288150116,1.39931210859546,1.40011992187175,1.40048892299796,1.40049889600137,1.40148622333906,1.4011571142265,1.40094768115487,1.40112719521626,1.40139646630836,1.40154606135952,1.40366033808265,1.40272287576202,1.40207463054031,1.40158595337317,1.40178541344139,1.40254336170062,1.40337112098374,1.40357058105195,1.40384982514746,1.4044282593453,1.40446815135894,1.40578458780919,1.4053358026557,1.40495682852608,1.40517623460112,1.40494685552267,1.40586437183648,1.40510642357725,1.40783902651186,1.40848727173357,1.40675196914006,1.40607380490811,1.40623337296269,1.4068816181844,1.40691153719464,1.408327703679,1.40850721774039,1.40790883753573,1.40863686678474,1.41049184541918,1.41000316825204,1.40837756869605,1.40902581391776,1.40923524698939,1.41071125149422,1.41004306026568,1.41001314125545,1.41046192640895,1.41118995565795,1.41133955070911,1.41145922675004,1.41221717500928,1.41290531224464,1.41230693203998,1.4125961491389,1.41263604115254,1.41231690504339,1.41400234261985,1.41364331449705,1.41437134374605,1.41313469132309,1.41403226163008,1.41468050685179,1.41483010190296,1.41502956197118,1.41553818514514,1.41524896804622,1.41556810415537,1.41909854736286,1.41709397367725,1.41857995118549,1.4189489523117,1.41791175995695,1.41820097705587,1.41828076108316,1.41778211091261,1.41840043712409,1.41887914128782,1.41911849336968,1.41964706255046,1.42109314804506,1.41956727852318,1.41990636063915,1.42078398493932,1.42238963848849,1.42134247313033,1.42150204118491,1.42188101531453,1.4223996114919,1.42259907156012,1.42220015142368,1.42238963848849,1.4227686126181,1.42306780272043,1.42386564299331,1.42411496807859,1.42478315930712,1.42575054063799,1.42575054063799,1.42547129654248,1.42552116155954,1.42632897483583,1.42703705807801,1.42807425043275,1.42796454739523,1.42779500633724,1.42780497934065,1.42854298159306,1.42832357551802,1.42958017394781,1.4304777442548
1.40491693651244,1.40260319972109,1.40543553268981,1.40063851804912,1.40457785439646,1.4031616879121,1.40302206586435,1.40207463054031,1.40275279477225,1.40409915023274,1.40540561367958,1.40488701750221,1.40484712548856,1.40536572166593,1.40883632685296,1.40783902651186,1.40835762268923,1.40873659681885,1.40938484204056,1.40910559794505,1.41615651135662,1.41321447535038,1.41240666207409,1.41754275883075,1.41854005917185,1.41766243487168,1.41653548548624,1.42976966101262,1.42419475210587,1.42215028640662,1.42653840790746,1.42328720879547,1.42411496807859,1.42583032466528,1.42555108056977,1.43387853841794,1.43669092537984,1.43033812220704,1.43857582302452,1.43500548780338,1.43729927858791,1.43457664865671,1.43815695688125,1.43616235619906,1.43926396025987,1.44092945182951,1.44077985677834,1.44054050469648,1.44162756206828,1.44230572630023,1.44241542933775,1.39884337743515,1.39862397136011,1.39864391736693,1.39869378238398,1.39814526719638,1.39836467327142,1.39911264852724,1.40156600736635,1.40058865303207,1.40046897699114,1.3988034854215,1.39930213559205,1.39942181163298,1.3993420276057,1.39975092074555,1.3993420276057,1.39974094774214,1.40023959791269,1.40118703323673,1.40068838306618,1.40087787013099,1.40095765415828,1.40180535944821,1.40226411760512,1.40137652030154,1.40172557542092,1.40526599163182,1.40530588364547,1.40196492750279,1.40207463054031,1.40286249780977,1.40274282176884,1.40360050006219,1.40333122897009,1.40294228183706,1.40314174190528,1.40362044606901,1.40427866429413,1.40468755743399,1.4037002300963,1.40930505801327,1.40501666654655,1.4053358026557,1.40522609961818,1.40587434483989,1.40842743371311,1.40810829760395,1.40627326497633,1.40629321098315,1.40620345395246,1.40797864855961,1.40825789265512,1.40870667780861,1.408327703679,1.40864683978815,1.4087864618359,1.40921530098257,1.40935492303033,1.4124166350775,1.40975384316677,1.40936489603374,1.40955438309855,1.41018268231344,1.41209749896835,1.41184817388307,1.41220720200587,1.4113295777057,1.41167863282509,1.41179830886602,1.4117783628592,1.41201771494106,1.41329425937767,1.41307485330262,1.41271582517983,1.41286542023099,1.41556810415537,1.4139624506062,1.41443118176652,1.41468050685179,1.41530880606669,1.41758265084439,1.41554815814855,1.41658535050329,1.41554815814855,1.41583737524747,1.41626621439414,1.41756270483757,1.41702416265338,1.41811122002517,1.41837051811386,1.41857995118549,1.41890906029805,1.41863978920596,1.41934787244813,1.4194974674993,1.42002603668008,1.4200459826869,1.42041498381311,1.42053465985404,1.42134247313033,1.42114301306211,1.42243950350554,1.42379583196943,1.42579043265163,1.42370607493874,1.42283842364198,1.42287831565562,1.42346672285687,1.42368612893191,1.42470337527983,1.42538153951178,1.42517210644015,1.42536159350496,1.42537156650837,1.42555108056977,1.42696724705413,1.42607964975055,1.4266680569518,1.42632897483583,1.42687749002343,1.42772519531336,1.42804433142251,1.42856292759989,1.42899176674656,1.42971979599556
1.3988932424522,1.39974094774214,1.40087787013099,1.40119700624014,1.40200481951643,1.40211452255395,1.40215441456759,1.40254336170062,1.40344093200761,1.40364039207583,1.4046077734067,1.40493688251926,1.40487704449879,1.40516626159771,1.40614361593199,1.40729051132425,1.4116886058285,1.40821800064147,1.40859697477109,1.40923524698939,1.41591715927476,1.41459074982109,1.41567780719289,1.41357350347317,1.41363334149364,1.41480018289273,1.41554815814855,1.41698427063973,1.42264893657717,1.42234974647484,1.41992630664597,1.42551118855612,1.4251222414231,1.42419475210587,1.42940065988641,1.42850308957942,1.42900173974997,1.43909441920189,1.43898471616437,1.43416775551686,1.43448689162601,1.43571357104556,1.43651141131844,1.43818687589149,1.43777798275164,1.43778795575505,1.43905452718824,1.43962298838267,1.43968282640314,1.44062028872377,1.44218605025929,1.39897302647949,1.39851426832259,1.39823502422708,1.39847437630894,1.39828488924413,1.39821507822026,1.3979856991418,1.39790591511452,1.39791588811793,1.39779621207699,1.39795578013157,1.3984344842953,1.39845443030212,1.39860402535328,1.3988034854215,1.39899297248631,1.39877356641127,1.39929216258864,1.39975092074555,1.39901291849313,1.39969108272508,1.40034930095021,1.40100751917533,1.4000700568547,1.40142638531859,1.40198487350961,1.40196492750279,1.40171560241751,1.40135657429472,1.4018851434755,1.40226411760512,1.4028824438166,1.40568485777508,1.40468755743399,1.40429861030096,1.40430858330437,1.40346087801443,1.40255333470403,1.40347085101785,1.40350077002808,1.40367031108606,1.4044282593453,1.40453796238282,1.40492690951585,1.40608377791152,1.4055153167171,1.40626329197292,1.40680183415711,1.40725061931061,1.40741018736518,1.4081481896176,1.40820802763806,1.40812824361078,1.40950451808149,1.40886624586319,1.4091454899587,1.40871665081202,1.4086967048052,1.40935492303033,1.40965411313266,1.41076111651128,1.41180828186943,1.40995330323499,1.41041206139189,1.41043200739871,1.41081098152833,1.41176838985579,1.41213739098199,1.41226704002633,1.41169857883191,1.41176838985579,1.41217728299564,1.41233685105021,1.41298509627193,1.41278563620371,1.41294520425828,1.4135036924493,1.4144112357597,1.41488993992342,1.41754275883075,1.41564788818266,1.41576756422359,1.41521904903599,1.41465058784156,1.41567780719289,1.41611661934298,1.4179516519706,1.41908857435945,1.41755273183416,1.41844032913774,1.41840043712409,1.41836054511045,1.41854005917185,1.41877941125371,1.41865973521278,1.41883924927417,1.41919827739697,1.42002603668008,1.41979665760163,1.41975676558799,1.42144220316444,1.42163169022925,1.42156187920537,1.42179125828383,1.42184112330088,1.42254920654306,1.42279853162834,1.42280850463175,1.42247939551918,1.42282845063857,1.42433437415363,1.4247632133003,1.42521199845379,1.42577048664481,1.42566078360729,1.42564083760047,1.42673786797568,1.4272165721394,1.4257605136414,1.42667802995521,1.42703705807801,1.42753570824855,1.42875241466469,1.4279446013884,1.4283933865419
1.40470750344081,1.40108730320262,1.40051884200819,1.401436358322,1.40181533245162,1.40246357767334,1.40369025709289,1.40248352368016,1.40301209286094,1.40368028408948,1.40414901524979,1.40367031108606,1.40580453381602,1.40561504675121,1.40729051132425,1.40936489603374,1.40846732572675,1.40810829760395,1.4108708195488,1.41021260132367,1.41095060357608,1.41544842811444,1.41312471831968,1.42063438988815,1.42199071835205,1.41638589043507,1.41576756422359,1.42595997370962,1.42056457886428,1.42353653388075,1.42374596695238,1.42377588596261,1.42423464411952,1.42420472510929,1.42388558900013,1.43940358230763,1.433928403435,1.433928403435,1.43285131906661,1.43701006148899,1.4395631503622,1.43480602773516,1.43468635169423,1.43589308510696,1.43900466217119,1.44018147657369,1.44028120660779,1.44061031572036,1.44169737309215,1.44305370155605,1.44349251370613,1.39909270252042,1.3993420276057,1.39829486224754,1.3980754561725,1.39814526719638,1.39865389037034,1.39799567214521,1.39826494323731,1.39836467327142,1.39720780487575,1.39757680600195,1.39856413333964,1.39818515921002,1.39803556415886,1.40135657429472,1.39860402535328,1.4010673571958,1.39927221658182,1.40094768115487,1.39928218958523,1.39902289149655,1.40050886900478,1.40103743818556,1.40120697924355,1.40145630432883,1.40127679026743,1.4025234156938,1.40191506248573,1.4016158723834,1.40201479251984,1.40149619634247,1.40156600736635,1.40174552142774,1.40286249780977,1.40300211985753,1.40291236282683,1.40215441456759,1.40274282176884,1.4046975304374,1.40454793538623,1.40409915023274,1.40381990613723,1.40476734146127,1.40517623460112,1.40562501975462,1.40735034934472,1.40517623460112,1.40568485777508,1.40536572166593,1.40570480378191,1.40652259006161,1.40830775767217,1.40827783866194,1.40754980941294,1.40717083528332,1.40794872954938,1.40756975541976,1.40830775767217,1.41174844384896,1.41200774193765,1.4082379466483,1.41119992866136,1.40991341122134,1.4098735192077,1.40984360019747,1.4102425203339,1.41073119750104,1.41041206139189,1.41172849784214,1.41242660808091,1.41202768794447,1.4115090917671,1.41170855183532,1.4122371210161,1.41209749896835,1.41279560920712,1.41270585217642,1.41262606814913,1.41374304453116,1.41427161371194,1.41822092306269,1.41539856309738,1.41597699729522,1.4163160794112,1.41652551248283,1.41623629538391,1.4159570512884,1.41581742924065,1.41693440562268,1.41714383869431,1.41784194893308,1.41758265084439,1.41856000517867,1.41849019415479,1.41887914128782,1.41856000517867,1.41946754848907,1.41978668459822,1.41980663060504,1.42074409292567,1.42163169022925,1.42124274309622,1.4218610693077,1.42142225715762,1.42166160923948,1.42178128528042,1.42225001644073,1.42207050237933,1.42292818067268,1.42390553500696,1.42497264637193,1.42400526504107,1.42380580497285,1.42465351026278,1.42546132353907,1.42487291633782,1.42539151251519,1.42521199845379,1.42633894783924,1.42720659913599,1.42816400746345,1.42676778698591,1.42735619418716,1.4302084731627,1.43348959128491
1.40087787013099,1.40146627733224,1.40176546743457,1.40142638531859,1.40160589937999,1.40165576439705,1.40256330770745,1.40380993313382,1.40295225484047,1.40368028408948,1.40393958217816,1.40458782739988,1.4054255596864,1.40655250907184,1.40710102425944,1.40717083528332,1.40739024135836,1.40793875654597,1.40913551695529,1.41130963169888,1.41197782292742,1.41411204565737,1.41356353046976,1.41355355746635,1.41605678132251,1.42289826166245,1.42059449787451,1.41856997818208,1.41808130101494,1.42299799169656,1.42318747876136,1.42265890958058,1.42311766773749,1.42434434715704,1.43633189725704,1.42637883985288,1.4280343584191,1.43560386800804,1.43512516384431,1.43530467790571,1.43581330107967,1.43616235619906,1.43762838770047,1.44020142258051,1.43955317735879,1.43990223247818,1.44012163855322,1.43970277240996,1.43782784776869,1.43840628196653,1.39781615808382,1.39831480825437,1.39820510521684,1.39751696798149,1.39804553716227,1.39767653603606,1.39745712996102,1.39729756190644,1.39729756190644,1.3970781558314,1.39787599610428,1.39774634705994,1.39787599610428,1.39800564514862,1.39806548316909,1.39805551016568,1.39802559115545,1.39901291849313,1.39913259453407,1.40009997586493,1.39940186562616,1.40122692525037,1.40018973289563,1.40483715248515,1.40100751917533,1.40133662828789,1.40195495449938,1.40113716821967,1.40122692525037,1.4005288150116,1.40172557542092,1.40239376664946,1.40132665528448,1.40219430658124,1.4023439016324,1.40250346968698,1.4027926867859,1.40178541344139,1.40208460354372,1.40311182289505,1.40285252480636,1.4034309590042,1.40463769241693,1.40514631559089,1.40441828634189,1.40461774641011,1.40496680152949,1.40481720647833,1.40507650456701,1.40504658555678,1.40584442582966,1.40505655856019,1.40568485777508,1.40660237408889,1.40647272504455,1.40732043033449,1.40740021436177,1.40747999838906,1.40794872954938,1.40811827060736,1.408327703679,1.40854710975404,1.40911557094846,1.40937486903715,1.40994333023157,1.40983362719405,1.41063146746693,1.41034225036801,1.41039211538507,1.40979373518041,1.41028241234755,1.4115090917671,1.41157890279098,1.41153901077733,1.4115988487978,1.41260612214231,1.4126859061696,1.41311474531627,1.41310477231286,1.41272579818324,1.41354358446294,1.41434142473582,1.41448104678357,1.41505948098141,1.41563791517925,1.41538859009397,1.41543845511103,1.41562794217584,1.41593710528158,1.41669505354081,1.41680475657833,1.41837051811386,1.41764248886486,1.41727348773865,1.41742308278981,1.41778211091261,1.41731337975229,1.41866970821619,1.41873951924006,1.4192281964072,1.41977671159481,1.42111309405188,1.41993627964938,1.42045487582675,1.4209535259973,1.42139233814739,1.42156187920537,1.42185109630429,1.42211039439298,1.42255917954647,1.42263896357376,1.42327723579206,1.42311766773749,1.42422467111611,1.42498261937534,1.42525189046744,1.42526186347085,1.42471334828325,1.42510229541627,1.42620929879489,1.42568072961411,1.42614946077443,1.42653840790746,1.4259400277028,1.42789473637135,1.42840335954531
1.40027948992633,1.40163581839022,1.40230400961876,1.40165576439705,1.40173554842433,1.40475736845786,1.40222422559147,1.40278271378249,1.40323149893598,1.40274282176884,1.40376006811676,1.4049767745329,1.4065126170582,1.40857702876427,1.4087864618359,1.40800856756984,1.41009292528274,1.40907567893482,1.40867675879838,1.40980370818382,1.41094063057267,1.4183206530968,1.41584734825088,1.41453091180063,1.41370315251752,1.41434142473582,1.41573764521336,1.42296807268632,1.42397534603083,1.42064436289156,1.42234974647484,1.428662657634,1.4335693753122,1.42541145852201,1.43595292312743,1.43576343606262,1.43558392200122,1.43078690736054,1.43563378701828,1.4356537330251,1.43433729657485,1.43484591974881,1.43561384101145,1.43618230220588,1.436112491182,1.43752865766636,1.43882514810979,1.43947339333151,1.44120869592502,1.44360221674365,1.39766656303265,1.39760672501219,1.39770645504629,1.3960808554903,1.39551239429588,1.39728758890303,1.3970781558314,1.3974371839542,1.39750699497808,1.39827491624072,1.39845443030212,1.39855416033623,1.39791588811793,1.39760672501219,1.39742721095079,1.39895308047267,1.39908272951701,1.39904283750337,1.3987137283908,1.3987137283908,1.39917248654771,1.39899297248631,1.39944175763981,1.3983447272646,1.39894310746926,1.39924229757159,1.4009776001651,1.40021965190586,1.39954148767392,1.40110724920944,1.401436358322,1.40041911197408,1.40021965190586,1.39879351241809,1.40026951692292,1.40157598036976,1.4022541446017,1.40214444156418,1.4022541446017,1.40347085101785,1.4031616879121,1.40278271378249,1.40296222784388,1.40351074303149,1.40275279477225,1.4032514449428,1.40404928521568,1.40488701750221,1.40483715248515,1.40409915023274,1.40912554395187,1.4053358026557,1.40559510074439,1.40602393989106,1.40658242808207,1.4065126170582,1.40729051132425,1.40745007937883,1.40877648883249,1.40922527398598,1.4115988487978,1.41348374644248,1.40864683978815,1.40836759569264,1.40852716374721,1.40927513900304,1.40959427511219,1.40971395115312,1.41044198040212,1.4104220343953,1.41110019862725,1.41121987466818,1.41143928074322,1.41142930773981,1.41220720200587,1.41209749896835,1.41571769920654,1.41444115476993,1.41468050685179,1.41553818514514,1.41424169470171,1.41490988593025,1.41490988593025,1.41437134374605,1.41412201866078,1.41523899504281,1.4151392650087,1.4153187790701,1.41563791517925,1.41612659234639,1.41663521552035,1.41691445961585,1.41682470258516,1.4173233527557,1.41763251586145,1.41886916828441,1.41903870934239,1.41987644162892,1.41890906029805,1.41892900630487,1.41889908729464,1.4194974674993,1.42007590169714,1.42012576671419,1.42043492981993,1.42145217616785,1.42185109630429,1.4211330400587,1.42161174422243,1.42174139326677,1.42223007043391,1.42198074534864,1.42292818067268,1.4245836992389,1.42283842364198,1.4253117284879,1.42596994671303,1.42374596695238,1.42447399620138,1.42519205244697,1.42591010869256,1.4276653572929,1.42629905582559,1.42681765200296,1.42758557326561,1.42845322456237
1.40091776214463,1.4017056294141,1.40155603436294,1.40123689825378,1.40117706023332,1.40282260579613,1.40182530545503,1.40253338869721,1.40369025709289,1.40834764968582,1.40599402088082,1.40572474978873,1.40555520873074,1.40495682852608,1.40683175316735,1.4061535889354,1.40654253606843,1.40902581391776,1.40885627285978,1.40962419412242,1.41274574419006,1.41853008616843,1.41176838985579,1.41251636511161,1.41453091180063,1.41546837412126,1.42221012442709,1.42359637190122,1.4206742819018,1.42618935278807,1.42543140452884,1.42336699282276,1.42913138879431,1.43664106036279,1.43527475889548,1.43500548780338,1.43057747428891,1.43619227520929,1.43452678363966,1.43411789049981,1.4355639759944,1.43570359804215,1.43632192425363,1.43640170828092,1.4363817622741,1.4372893055845,1.43915425722235,1.44006180053275,1.44000196251229,1.39772640105312,1.40625331896951,1.39773637405653,1.39753691398831,1.39693853378365,1.39664931668473,1.39637007258922,1.39896305347608,1.39717788586551,1.39713799385187,1.39832478125778,1.39929216258864,1.3982549702339,1.39863394436352,1.39655955965403,1.39748704897125,1.39767653603606,1.39690861477342,1.39772640105312,1.39822505122367,1.39990051579671,1.39968110972167,1.4000700568547,1.39829486224754,1.39829486224754,1.39931210859546,1.39894310746926,1.39887329644538,1.39960132569438,1.40077814009688,1.40112719521626,1.40281263279272,1.4008878431344,1.40120697924355,1.40108730320262,1.40122692525037,1.40126681726402,1.40151614234929,1.40142638531859,1.40353068903831,1.40275279477225,1.40241371265628,1.40487704449879,1.40335117497691,1.40255333470403,1.40324147193939,1.4035207160349,1.40449807036918,1.40423877228049,1.40382987914064,1.40473742245104,1.40519618060795,1.40557515473756,1.40527596463523,1.40598404787741,1.40583445282625,1.40591423685354,1.40648269804796,1.40676194214347,1.40825789265512,1.41013281729638,1.40842743371311,1.40780910750162,1.40849724473698,1.40818808163124,1.40880640784272,1.40868673180179,1.40897594890071,1.40907567893482,1.40949454507808,1.40936489603374,1.41061152146011,1.41056165644306,1.41027243934414,1.41094063057267,1.41184817388307,1.41230693203998,1.41263604115254,1.41246650009455,1.41261609514572,1.41500961596436,1.41345382743224,1.41346380043565,1.41365328750046,1.41379290954822,1.41479020988931,1.41505948098141,1.415777537227,1.41810124702176,1.4160468083191,1.41621634937709,1.41620637637367,1.41665516152717,1.41707402767043,1.4173233527557,1.41901876333557,1.41780205691943,1.4182308960661,1.41833062610021,1.41927806142426,1.41868965422301,1.41859989719231,1.41914841237992,1.420315253779,1.4198564956221,1.41995622565621,1.42021552374489,1.41999611766985,1.42117293207235,1.42126268910304,1.42100339101436,1.42193088033158,1.42499259237875,1.42291820766927,1.42281847763516,1.42286834265221,1.42413491408541,1.42574056763458,1.42446402319797,1.42443410418774,1.42447399620138,1.42521199845379,1.42510229541627,1.42677775998932,1.42682762500637,1.42774514132019,1.42782492534747
