1.17127,1.05098,1.12022,1.12276,1.06823,1.03358,1.04376,1.0549,1.06467,1.06432,1.06444,1.16718,1.06894,1.07594,1.07719,1.0781,1.08107,1.08092,1.11129,1.10094,1.08776,1.08444,1.09245,1.13402,1.12657,1.13668,1.10131,1.14116,1.14312,1.15064,1.14393,1.15341,1.15477,1.14498,1.14991,1.16707,1.18236,1.19456,1.22541,1.17109,1.17198,1.14669,1.20105,1.18557,1.14309,1.14438,1.14107,1.14098,1.13977,1.14998,1.14936,1.14782,1.206,1.14612,1.19446,1.18874,1.19173,1.13725,1.1368,1.24371,1.2249,1.17487,1.15464,1.2092,1.1804,1.18762,1.2365,1.32519,1.19402,1.24362,1.24996,1.22275,1.28307,1.24004,1.4003,1.31031,1.23649,1.236,1.23568,1.24761,1.23491,1.23356,1.23397,1.23998,1.23707,1.32781,1.24158,1.25011,1.2887,1.25696,1.25769,1.26754,1.26844,1.32643,1.28902,1.32789,1.3964,1.35159,1.32193,1.2887,1.28916,1.47927,1.29693,1.382,1.43725,1.44123,1.42059,1.43464,1.43079,1.44892,1.45588,1.43578,1.46455,1.4757,1.46555,1.50463,1.40642,1.48251,1.51269,1.73555,1.53422,1.47231,1.53744,1.55144,0.00421537,1.46265,0.00393297,1.56542,1.48298,1.47525,1.47469,1.48431,1.8596,1.50544,1.87366,1.50306,1.672,1.45724,1.44997,1.50751,1.5066,1.47526,1.45738,1.45852,1.52449,1.48017,1.47422,1.49654,1.82296,1.48212,1.51497,1.51342,1.506,1.65784,1.49809,1.50598,1.51122,1.68907,1.71338,1.71353,1.47461,1.47641,1.7309,1.42287,1.47578,1.47513,1.46721,1.56992,1.44734,1.43638,1.43501,1.5034,1.62778,1.61031,1.51758,1.5069,1.45397,1.45915,1.45778,1.46736,1.55182,1.62322,1.51034,1.50246,1.49342,1.50632,1.50254,1.49642,1.56478,1.43348,1.4392,1.43535,1.43059,1.4297,1.43753,1.51563,1.40441,1.42962,1.43049,1.43067,1.44556,1.38006,1.37626,1.4289,1.39861,1.39478,1.3754,1.41957,1.41685,1.37079,1.38154,1.51968,1.51407,1.56149,0.00374637,1.47742,1.62722,1.60551,1.44012,1.49229,1.51581,1.52481,1.53676,1.53492,1.55436,1.5589,1.57935,1.5809,1.57707,1.58529,1.49946,1.49993,1.64797,1.64985,0.00370125,1.52621,1.61514,1.54079,1.53355,1.5737,1.54435,1.60091,1.70205,1.60673,1.63417,1.68244,1.60019,1.61078,1.7109,1.62901,1.628,1.63313,1.67871,1.82392,0.00383001,1.64403,1.65689,1.65527,1.69129,1.68918,1.73738,1.75438,1.70506,1.84347,1.84181,1.79741,0.00350255,1.7722,1.91412,1.82498,1.9333,1.9208,1.86224,1.86233,0.00381864,1.86216,0.00350804,1.79255,1.79191,1.78699,1.78523,1.78272,1.81639,1.81343,1.81255,1.81638,1.81475,1.81375,0.00373887,1.82807,1.82985,1.83437,1.83351,1.83233,1.83182,1.82213,1.82968,1.83295,1.84335,1.84223
1.03288,1.02198,1.02238,1.02284,1.01896,1.01928,1.02175,1.07619,1.0413,1.1189,1.08787,1.08805,1.05289,1.05956,1.05689,1.13603,1.11294,1.06879,1.06808,1.12507,1.12648,1.11678,1.06551,1.08229,1.07823,1.07834,1.07946,1.15167,1.15502,1.17881,1.11725,1.12704,1.13172,1.13217,1.16623,1.15322,1.15328,1.19967,1.13851,1.13717,1.1455,1.12643,1.17748,1.20763,1.13794,1.14237,1.1413,1.13851,1.13652,1.15733,1.14269,1.14022,1.24987,1.13325,1.13308,1.21603,1.16255,1.16035,1.182,1.11863,1.14136,1.13113,1.21019,1.17063,1.25846,1.17612,1.17205,1.19979,1.18777,1.24415,1.25047,1.21247,1.21314,1.21653,1.23089,1.22876,1.25896,1.27137,1.27299,1.22823,1.23062,1.22611,1.22905,1.22973,1.22929,1.23016,1.50466,1.28068,1.2349,1.23463,1.2368,1.2396,1.23967,1.24813,1.25277,1.3295,1.26462,1.26548,1.26798,1.29314,1.33319,1.28455,1.2841,1.35844,1.35801,1.42989,1.36666,1.33,1.45797,1.45738,1.38954,1.41325,1.34815,1.41218,1.43602,1.5105,1.43332,1.46196,1.45305,1.54704,1.63484,1.54134,1.44689,1.65559,1.66576,0.00420232,1.66773,1.54405,1.59846,0.0036472,0.0038362,0.00408839,1.4403,1.46766,0.00370429,1.55553,0.0041573,0.00399631,0.00913838,1.45513,1.43685,1.44036,1.47111,1.45217,1.45248,0.00413411,1.41642,1.45222,1.39778,1.39621,1.48263,1.65849,1.54384,1.37234,1.36902,1.36887,1.36855,1.59476,1.7459,1.75144,1.65725,1.72835,1.74021,1.5446,1.45363,1.45141,1.64922,1.52626,1.52706,1.52633,1.41755,1.42374,1.42257,1.42742,1.42891,1.56542,1.43798,1.44211,1.44401,1.44317,1.56494,1.47887,1.43961,1.50054,1.52051,1.41964,1.40943,1.48509,1.4917,1.49728,1.50854,1.42894,1.42246,1.42038,1.41495,1.43806,1.43859,1.46812,1.37461,1.39945,1.37256,1.37576,1.385,1.35397,1.36002,1.40238,1.39631,1.35474,1.3524,1.35469,1.35739,1.35776,1.37374,1.52725,1.39027,1.41275,1.42281,0.00354632,1.42156,1.48892,1.42255,1.54146,1.52668,1.56694,1.56885,1.57104,1.56425,1.56221,1.58757,1.58465,1.61013,1.61239,1.5699,1.65238,1.65421,1.52387,1.55074,1.61749,1.50868,1.60688,1.51761,1.58011,1.63069,1.59559,1.68961,1.66225,1.66898,1.69495,1.60352,1.69833,1.71778,1.71973,1.71782,1.73413,1.63405,1.64483,1.64386,1.64243,1.6687,1.77688,1.69964,1.74213,1.76594,0.00390089,1.69553,1.80552,1.76967,1.81304,1.75503,0.00381253,1.82993,0.00382032,0.00353314,1.74751,1.83505,1.81465,1.77743,1.78117,1.77532,1.77298,1.77343,0.00397298,1.87909,1.81463,1.81328,1.80986,1.81511,1.81359,1.81253,1.80903,1.80844,1.81336,1.81239,0.00416559,1.80434,2.08966,0.00316881,0.00428384,1.83033,1.82877
1.00446,1.0055,1.00529,1.00408,1.05062,1.00311,1.00392,1.08087,1.0887,1.07884,1.1632,1.02465,1.12943,1.04279,1.04307,1.03963,1.03965,1.068,1.10251,1.18231,1.13486,1.20994,1.0564,1.05219,1.23561,1.09198,1.06392,1.06829,1.0953,1.1538,1.14708,1.1149,1.1267,1.19412,1.13931,1.14774,1.14817,1.17944,1.13316,1.13274,1.18794,1.1137,1.11038,1.11581,1.14727,1.12846,1.13125,1.12871,1.12742,1.18281,1.1674,1.15766,1.13909,1.1707,1.1088,1.11057,1.12211,1.13643,1.14385,1.25664,1.27365,1.12233,1.1235,1.14874,1.25976,1.17028,1.18902,1.17279,1.24664,1.17798,1.19135,1.19164,1.20811,1.21138,1.21535,1.21627,1.20433,1.2472,1.3036,1.21075,1.2131,1.21645,1.2237,1.22124,1.22288,1.2232,1.22625,1.22317,1.22367,1.2258,1.22734,1.2304,1.26406,1.31861,1.32106,1.32156,1.25758,1.26595,1.36115,1.37511,1.36014,1.2621,1.36299,1.27927,1.37291,1.33103,1.38189,1.36076,1.42697,1.40208,1.40974,1.47262,1.45844,1.45876,1.44414,1.45741,1.4744,1.44653,1.3676,1.45829,1.54849,1.40599,1.47969,1.49228,1.48304,1.49692,1.61585,1.71045,1.67691,1.54325,1.54039,1.53027,0.00363465,1.41679,1.39988,1.43819,1.42881,1.36536,1.29556,1.45761,1.2955,1.44357,1.44728,1.30926,1.40059,1.49586,1.39937,1.54148,1.4149,1.41993,1.34721,1.35995,1.35393,1.35075,1.35325,1.3529,1.35833,1.36488,1.36564,1.36825,1.36827,1.37128,1.37312,1.37673,1.37835,1.52088,1.44996,1.47422,1.39697,1.40056,1.40074,1.40608,1.40579,1.5348,1.41968,1.42453,1.42641,1.43328,1.43376,1.45228,0.00345311,1.49586,1.49354,1.3998,1.38693,1.3925,1.39793,1.39721,1.47419,1.47446,1.42825,1.49576,1.42769,1.43682,1.43117,1.4377,1.43906,1.44697,1.37036,1.36103,1.35654,1.35537,1.3536,1.39562,1.33753,1.33788,1.3858,1.35086,1.3527,1.3513,1.34892,1.34952,1.46841,1.4622,1.47184,1.3946,1.40847,1.41467,1.4166,1.41667,1.41485,1.41895,1.50065,1.56881,1.48897,1.47518,1.52917,1.5583,0.00393371,1.47324,1.59742,1.59603,1.47424,1.62418,0.00373461,1.69013,0.00439535,1.52412,1.57015,1.55772,1.55489,1.63993,1.61669,1.6496,1.65146,1.70523,1.64527,1.66136,1.64755,1.63095,1.6519,1.62813,1.61856,1.61798,1.73611,1.63486,1.63459,1.76765,1.73761,1.67404,1.67495,1.66792,1.77014,1.67874,1.67874,1.71716,1.70049,1.74474,1.69883,1.80729,1.83047,1.7814,0.00369439,1.74243,1.74393,1.74467,1.82004,1.75159,1.83804,1.77541,1.78349,1.78612,1.78758,1.85102,1.792,1.78797,1.79015,1.80466,1.80923,1.80523,1.80777,1.81082,1.7999,1.80261,1.80268,1.8029,2.13048,1.87008,0.00385835,1.89055
0.982184,1.02515,0.98569,0.9855,0.9923,0.997316,0.994296,0.996913,1.02486,1.03909,1.02649,1.12463,1.15934,1.15079,1.18511,1.05007,1.14001,1.14036,1.14879,1.03577,1.03561,1.17418,1.03476,1.04307,1.06659,1.04204,1.04148,1.08401,1.08394,1.09946,1.10905,1.0971,1.11505,1.11641,1.12696,1.13003,1.13661,1.13704,1.17521,1.19631,1.16058,1.16425,1.09754,1.09913,1.10253,1.19663,1.11112,1.21944,1.18313,1.18166,1.12901,1.11565,1.12302,1.09253,1.14675,1.09485,1.12544,1.16398,1.11218,1.12084,1.1213,1.28613,1.13353,1.13309,1.29541,1.28426,1.1776,1.15998,1.21317,1.19986,1.17894,1.20998,1.21101,1.2049,1.2081,1.19592,1.19596,1.20514,1.20545,1.20748,1.20884,1.20891,1.20528,1.20826,1.20885,1.21384,1.21632,1.21861,1.21981,1.21913,1.21833,1.21861,1.26053,1.26171,1.26878,1.34379,1.24717,1.24577,1.24177,1.38135,1.38632,1.28438,1.41131,1.39906,1.45437,1.27188,1.35683,1.34392,1.34179,1.34674,1.35464,1.34798,1.30605,1.31106,1.31532,1.38558,1.38629,1.42763,1.40341,1.40299,1.41566,1.41794,1.43732,1.44709,1.38272,1.40837,1.3773,1.47504,1.64934,0.00337752,1.55817,1.29338,1.46606,1.43723,1.34086,1.34241,1.31934,1.33349,1.25391,1.283,1.24421,1.2449,1.24366,1.21767,1.25388,1.25697,1.2537,1.25442,1.26029,1.26497,1.26484,1.27102,1.271,1.27416,1.35841,1.35123,1.47302,1.36336,1.36432,1.37133,1.37744,1.37903,1.384,1.38432,1.44205,1.37797,1.38087,1.3841,1.38498,1.38841,1.40243,1.39986,1.39918,1.40572,1.40643,1.40844,1.41121,1.41013,1.48385,1.42331,1.6733,1.40187,1.38809,1.38572,1.39076,1.38998,1.3852,1.38818,1.45085,1.42818,1.45658,1.37184,1.43304,1.4121,1.42291,1.4273,1.47386,1.35073,1.35021,1.3674,1.34854,1.32907,1.33056,1.32992,1.33027,1.33404,1.33492,1.34092,1.33965,1.3355,1.33737,1.34206,1.46556,1.36497,1.54425,1.38345,1.58528,1.39516,1.39467,1.41098,1.41369,1.41339,1.42431,1.5365,1.4639,1.48449,1.44354,1.50266,1.45101,1.46217,1.565,1.58478,1.58445,1.46018,1.647,1.65775,1.7546,1.47508,1.4815,1.48469,1.62048,1.5058,1.50431,1.50609,1.57039,1.63746,1.58711,1.67981,1.57279,1.63305,1.70681,1.73205,1.60704,1.75559,1.613,1.72662,1.71963,1.62778,1.69321,1.75223,1.79228,0.00372061,1.74601,1.65793,1.6637,1.7093,1.85224,0.00429519,1.74825,1.82427,1.72716,1.72461,1.72385,1.72996,1.72892,1.73232,1.7546,1.75232,1.75487,0.00375741,1.8641,1.76932,1.7719,1.76918,1.78589,1.7911,1.79218,1.79665,1.79393,1.79661,1.79578,1.79522,1.79878,1.78619,1.7844,1.78802,1.79072,1.79268,1.79115,0.0041872
0.966618,1.12517,0.990222,0.978929,1.01827,1.017,0.968943,0.96736,0.967352,0.99092,0.985045,1.01837,1.10883,1.12393,1.0364,1.00174,1.00282,1.1447,1.01095,1.01053,1.01186,1.01689,1.01954,1.01793,1.02383,1.02455,1.07699,1.0399,1.04627,1.0558,1.05622,1.08853,1.09078,1.11592,1.11252,1.28199,1.13644,1.15161,1.09845,1.09895,1.16374,1.16456,1.09479,1.09386,1.16363,1.08421,1.13876,1.06814,1.17849,1.16047,1.19147,1.13219,1.21316,1.13569,1.11971,1.14674,1.17862,1.10237,1.06309,1.18813,1.07844,1.08372,1.12044,1.16765,1.16724,1.17472,1.17492,1.14915,1.14302,1.18451,1.16359,1.2161,1.18111,1.18931,1.19831,1.19639,1.19864,1.20507,1.20475,1.20673,1.2087,1.20886,1.21026,1.21066,1.21044,1.21138,1.21216,1.21336,1.20868,1.20905,1.20723,1.20628,1.20989,1.21264,1.21186,1.21611,1.3308,1.28282,1.22664,1.23717,1.2402,1.25086,1.24127,1.24177,1.33705,1.31597,1.35782,1.31279,1.36563,1.32115,1.39119,1.36699,1.33328,1.29365,1.42979,1.30302,1.30972,1.35503,1.46117,1.47912,1.33668,1.34416,1.41409,1.41367,0.00395044,1.44771,1.54717,1.44072,1.37499,1.35402,1.3681,1.34405,1.38585,1.23379,1.22525,1.21895,1.21854,1.21898,1.21129,1.20126,1.20022,1.19988,1.20283,1.2043,1.20274,1.2078,1.22818,1.22705,1.27132,1.26209,1.31029,1.26367,1.26389,1.27411,1.29994,1.30316,1.30288,1.31501,1.31556,1.32958,1.35024,1.3526,1.35596,1.362,1.36323,1.39672,1.39808,1.39347,1.39895,1.39035,1.39439,1.39537,1.40359,1.4031,1.4017,1.4055,1.40825,1.41347,1.4125,1.43278,1.39077,1.38828,1.38056,1.37607,1.37431,1.43759,1.37822,1.40205,1.36765,1.35935,1.36696,1.36666,1.36352,1.43811,1.36181,1.3463,1.34025,1.33475,1.33482,1.33261,1.33316,1.32299,1.32269,1.32329,1.32659,1.32628,1.33142,1.33487,1.33604,1.33233,1.33385,1.33774,1.43776,1.4551,1.43254,1.38218,1.38509,1.39162,1.39655,1.39622,1.40245,1.40256,1.40337,1.56573,1.44734,1.47238,1.48899,1.43135,1.43825,1.43821,1.43783,1.43498,1.44383,1.44473,1.59648,1.72331,1.57509,1.49299,1.47819,1.47612,1.52097,1.6165,1.50484,1.50251,1.64799,1.65023,1.63664,1.63028,1.6381,1.57165,1.57724,1.58154,1.62845,1.67543,0.00417632,1.77571,1.72024,1.70409,1.62188,1.73997,1.73348,1.67859,1.67248,1.66029,1.65742,1.65824,1.66854,1.66713,1.85261,1.84092,1.71317,1.72869,1.7282,1.72575,1.73025,1.73437,1.79729,1.74944,1.74895,1.74883,1.74816,1.76304,1.83755,1.88186,0.00385321,1.84823,1.84324,1.79728,1.79557,1.79557,1.92362,1.79038,1.7883,1.7867,1.78517,1.78521,1.78252,1.77933,1.77976,1.77863
0.962952,1.01114,1.01556,0.985813,0.960068,0.966775,0.989394,0.995582,1.02336,1.00403,1.01554,0.991618,1.02359,0.996572,0.975846,0.975612,1.04756,1.01312,0.989956,1.06082,1.16126,1.06283,1.00317,1.04643,1.07145,1.02946,1.02998,1.09516,1.05061,1.05714,1.05785,1.05671,1.15883,1.10434,1.1027,1.10185,1.11613,1.13331,1.10932,1.1706,1.08805,1.19885,1.12855,1.25151,1.14187,1.16164,1.08924,1.14022,1.14991,1.10179,1.04688,1.11232,1.09074,1.089,1.15464,1.04656,1.04241,1.0436,1.11369,1.05669,1.08634,1.16102,1.09463,1.1639,1.16685,1.12706,1.11727,1.13161,1.1336,1.13878,1.19978,1.20299,1.19944,1.17747,1.17857,1.27646,1.1931,1.24942,1.20375,1.2042,1.2058,1.20773,1.20989,1.21151,1.2119,1.21214,1.20819,1.20135,1.20115,1.19712,1.19906,1.20112,1.21933,1.30922,1.28827,1.21312,1.29357,1.21634,1.22123,1.22271,1.2231,1.22423,1.22819,1.36132,1.24012,1.24327,1.24355,1.24695,1.25143,1.25107,1.2954,1.2677,1.26835,1.27444,1.27677,1.28525,1.29534,1.30152,1.30148,1.35774,1.31194,1.37635,1.37493,1.31963,1.32018,0.00407967,1.34376,1.36463,1.39951,1.42083,1.22961,1.33687,1.22157,1.22047,1.22539,1.21553,1.21651,1.20995,1.20627,1.20417,1.20432,1.2056,1.20415,1.20249,1.20155,1.20349,1.21985,1.22361,1.22442,1.21611,1.24031,1.25308,1.26312,1.26629,1.27027,1.2735,1.26375,1.27522,1.26461,1.2441,1.22717,1.23431,1.23838,1.27511,1.3201,1.30976,1.36715,1.41675,1.41549,1.41217,1.40587,1.40474,1.40534,1.40302,1.40349,1.40944,1.40975,1.4132,1.41395,1.4157,1.5433,1.37565,1.37017,1.368,1.49887,1.49883,1.34781,1.35109,1.35092,1.35434,1.35737,1.4072,1.48167,1.42753,1.3992,1.32953,1.32253,1.323,1.33651,1.32918,1.32897,1.31711,1.31839,1.31808,1.31552,1.31609,1.32122,1.32138,1.33345,1.33279,1.33586,1.33492,1.33721,1.44028,1.41233,1.45495,1.54175,1.38087,1.38428,1.38477,1.39022,1.39339,1.40777,1.40752,1.41205,1.41013,1.41205,1.49141,1.52713,1.42346,1.42442,1.42991,1.42908,1.42617,1.5202,1.6054,1.54152,1.45841,1.50014,1.47115,1.4708,1.59954,1.59941,1.58579,1.54354,1.60834,1.53545,1.60877,1.60608,1.65068,1.64713,1.68914,1.71064,1.58231,1.68946,1.72272,1.7743,1.77499,1.66185,1.74335,1.70413,1.74857,1.70281,1.65609,1.65402,1.65476,1.65493,1.65447,1.72449,1.79276,1.75537,0.00376035,1.8437,1.72337,1.72051,1.72066,1.7263,1.71711,1.81472,1.74462,1.73974,1.73895,1.74352,1.75452,1.75769,1.75459,1.75271,1.75104,0.00369518,0.00376713,1.76551,1.76515,1.77234,0.00382873,1.78771,1.78636,1.77944,1.77969,1.7753,1.7692
0.950254,0.947957,0.946781,0.98605,0.991543,1.01212,1.00463,0.997032,0.991384,0.967252,0.963351,0.9459,0.990114,0.954853,0.948484,0.970186,0.974214,0.971776,0.971902,1.09062,1.17053,0.997423,0.990731,1.07332,1.00361,1.01587,1.01553,1.09637,1.04835,1.04421,1.04392,1.05726,1.05037,1.05126,1.09246,1.09915,1.10522,1.09429,1.09383,1.09667,1.05375,1.06135,1.07361,1.04725,1.03695,1.0533,1.04408,1.05314,1.16776,1.1602,1.043,1.03423,1.03772,1.08452,1.12606,1.01937,1.01933,1.10794,1.11099,1.10814,1.08108,1.08132,1.10779,1.10561,1.10448,1.10479,1.2432,1.11156,1.16412,1.16487,1.16333,1.14263,1.14284,1.14915,1.22093,1.16651,1.17495,1.19013,1.19505,1.19444,1.20128,1.2017,1.20409,1.20696,1.25122,1.20048,1.19183,1.18972,1.19108,1.18532,1.18415,1.18697,1.18858,1.19322,1.19528,1.19709,1.19697,1.23813,1.23671,1.20862,1.20812,1.20884,1.21548,1.21581,1.2165,1.22462,1.23247,1.23236,1.23241,1.23147,1.3364,1.24683,1.2554,1.25657,1.26048,1.26197,1.26764,1.278,1.27942,1.33791,1.40043,1.33458,1.30104,1.3424,1.34504,1.27113,1.38898,1.22902,1.23001,1.22735,1.22883,1.22906,1.22403,1.22367,1.21552,1.20848,1.21002,1.20966,1.21026,1.22081,1.21588,1.21176,1.21011,1.20294,1.19999,1.20612,1.21089,1.21532,1.21097,1.24296,1.24374,1.24777,1.25389,1.26331,1.26122,1.26025,1.25088,1.25051,1.25373,1.24691,1.24934,1.23705,1.25172,1.25079,1.28466,1.30188,1.33797,1.33746,1.33711,1.41199,1.44842,1.44415,1.44407,1.43118,1.41535,1.43267,1.42669,1.42008,1.41965,1.44702,1.47542,1.4751,1.48249,1.35724,1.49642,1.37274,1.35168,1.34559,1.34041,1.34022,1.39566,1.33696,1.35395,1.43508,1.35593,1.3536,1.45422,1.43507,1.43635,1.36928,1.32148,1.31545,1.30831,1.30892,1.30522,1.40992,1.31272,1.31568,1.31526,1.42702,1.32319,1.32306,1.32677,1.39807,1.40613,1.43973,1.42889,1.42532,1.38077,1.37934,1.38497,1.38459,1.39125,1.39565,1.51295,1.4057,1.40009,1.50319,1.40846,1.40586,1.40554,1.55158,1.41319,1.41263,1.58208,1.61478,1.48623,1.46949,1.48872,1.50792,1.48568,1.46783,1.5093,1.5703,1.53599,1.61192,1.56442,1.53414,1.6235,1.54632,1.54478,1.55392,1.55355,1.55327,1.56254,1.66795,1.57956,1.66197,1.58898,1.79283,1.74101,1.75967,0.00358293,1.71397,1.75637,1.658,1.65406,1.64545,1.64657,1.71332,0.0037142,1.69854,1.69676,1.69544,1.82291,1.7144,1.71383,1.71694,1.718,1.71758,1.72935,1.72704,1.73018,1.72479,1.72492,1.73426,1.72883,1.7376,1.73989,1.75022,1.74992,1.75752,1.76198,1.77929,1.77911,1.78173,1.77038,1.77021,1.76956,1.76862
0.953451,0.935884,0.934722,0.93314,1.00144,0.97051,0.959567,0.987232,0.956348,0.957232,1.00728,1.00483,0.886588,0.887626,1.01203,0.998459,0.990545,1.02517,1.02432,0.970744,0.972066,0.976385,0.98053,1.05417,0.998108,1.00876,1.01096,1.01249,1.1113,1.12222,1.10136,1.17902,1.06304,1.05648,1.06391,1.05887,1.09094,1.09792,1.04092,1.1265,1.06119,1.17781,1.07084,1.12065,0.991933,0.986808,1.02633,1.04707,1.0808,1.16203,1.06433,1.00439,1.00453,1.12102,1.00632,1.01032,1.01969,1.01931,1.03513,1.06427,1.0756,1.17801,1.16221,1.08463,1.0941,1.09064,1.21888,1.2412,1.20991,1.11937,1.11925,1.13285,1.13361,1.14258,1.14295,1.147,1.16369,1.17217,1.17267,1.25053,1.24714,1.19179,1.18765,1.18817,1.1897,1.22148,1.2132,1.21352,1.17596,1.17662,1.18091,1.18234,1.18362,1.18548,1.19176,1.18911,1.1859,1.18661,1.18748,1.19158,1.24856,1.23005,1.22558,1.20559,1.26451,1.2552,1.22613,1.41186,1.32239,1.32313,1.33102,1.23944,1.24571,1.24605,1.24769,1.24979,1.25078,1.25039,1.25596,1.41785,1.25478,1.25368,1.3163,1.30882,1.33589,1.25451,1.24626,1.35866,1.23532,1.23376,1.24346,1.24417,1.24284,1.23971,1.2401,1.22881,1.23091,1.23295,1.2324,1.22997,1.22628,1.21969,1.22332,1.22411,1.22533,1.2152,1.21884,1.22245,1.2295,1.2403,1.24777,1.26607,1.26776,1.26028,1.26148,1.25384,1.25166,1.25117,1.26239,1.25531,1.25287,1.24868,1.27872,1.27819,1.28784,1.29856,1.2983,1.31466,1.32011,1.32687,1.35838,1.3747,1.39486,1.43669,1.43599,1.43596,1.43515,1.43309,1.43251,1.38504,1.38495,1.47877,1.48515,1.35326,1.35314,1.34868,1.34723,1.34356,1.40932,1.4098,1.36105,1.36821,1.43344,1.4411,1.39047,1.3952,1.40517,1.29854,1.29306,1.29827,1.39614,1.29897,1.29522,1.29563,1.29535,1.30542,1.30797,1.313,1.31224,1.31239,1.31651,1.31714,1.40296,1.32472,1.32706,1.34397,1.34613,1.36038,1.37059,1.37764,1.37833,1.3835,1.42948,1.38714,1.38719,1.38952,1.38802,1.3887,1.38805,1.40072,1.39815,1.39841,1.4047,1.40557,1.41096,1.57862,0.00384196,1.48339,1.49512,1.47888,1.45962,1.57631,1.47722,1.50267,1.58944,1.57486,1.59338,1.52776,1.54045,1.53886,1.53847,1.54823,1.55199,1.55257,1.55768,1.65448,1.65684,1.57796,1.58195,1.70082,1.65568,1.64455,1.71252,0.00425732,0.00347868,1.63506,1.64122,1.6406,1.77268,0.00399485,1.82085,0.00414015,1.83705,0.00364692,1.74166,0.00338268,1.70909,1.71305,1.71076,1.71549,1.71376,1.71285,1.70846,1.72419,1.72271,1.72256,1.73422,1.73768,1.73795,1.74117,1.81381,1.76639,1.77966,1.77811,1.77682,1.77273,1.77147,1.77147,1.77063,1.76692
1.06533,0.935099,0.933804,0.894419,0.892857,0.977408,0.985937,1.00178,0.946268,0.945937,0.945903,0.922241,0.890154,0.889758,0.889577,1.11566,0.985078,0.945264,0.943566,0.943768,1.04374,0.964058,0.969623,0.969927,0.980736,0.981627,0.995742,1.19977,1.00942,1.01585,1.01559,1.02268,1.12098,1.04031,1.05289,1.05097,1.07371,1.03721,1.02358,0.995687,0.995172,0.976433,0.998382,0.984088,0.975758,0.977171,1.00881,1.06012,1.08947,1.04505,1.04178,0.98389,0.988692,1.09881,0.995369,1.00457,1.03401,1.01362,1.05122,1.02293,1.02359,1.07562,1.04157,1.04561,1.07365,1.09538,1.17737,1.16081,1.08716,1.08715,1.12669,1.13658,1.13942,1.14246,1.14022,1.28186,1.16775,1.16468,1.16505,1.17308,1.30228,1.20227,1.20626,1.23477,1.21193,1.18417,1.16326,1.16077,1.15992,1.15655,1.15654,1.23707,1.22356,1.21913,1.21655,1.172,1.17411,1.17709,1.17777,1.17933,1.18382,1.18505,1.19034,1.19563,1.19746,1.19969,1.27486,1.31739,1.21795,1.21703,1.22728,1.22721,1.22934,1.22804,1.22774,1.22015,1.27249,1.27227,1.29521,1.2776,1.30805,1.3116,1.3088,1.23653,1.23752,1.24273,1.32546,1.31006,1.32672,1.28126,1.28176,1.26059,1.24978,1.24983,1.24769,1.24944,1.25229,1.24346,1.23835,1.23187,1.23258,1.23298,1.22849,1.22009,1.22103,1.22012,1.24118,1.21991,1.23077,1.2312,1.24447,1.2489,1.26492,1.26615,1.28087,1.27459,1.27419,1.2919,1.25786,1.25998,1.26107,1.26208,1.27831,1.27513,1.30875,1.28516,1.31371,1.34028,1.32996,1.3703,1.37387,1.38192,1.34567,1.36138,1.37097,1.38042,1.39007,1.40588,1.42776,1.47199,1.47857,1.38331,1.48243,1.35244,1.40817,1.62974,1.43746,1.54349,1.41378,1.3214,1.36755,1.36746,1.30187,1.29969,1.48628,1.28766,1.36589,1.42281,1.48851,1.29503,1.29488,1.29187,1.29007,1.29191,1.29805,1.29829,1.30239,1.30866,1.30827,1.34031,1.30462,1.30296,1.3032,1.44141,1.39095,1.34627,1.35063,1.35372,1.36244,1.35588,1.45918,1.43338,1.37703,1.37894,1.38788,1.38787,1.38658,1.3715,1.53977,1.51015,1.40671,1.49021,1.54684,1.54796,1.40542,1.40564,1.47181,1.47818,1.56704,1.45076,1.50174,1.46864,1.51116,1.48206,1.62774,1.50395,1.50276,1.51375,1.52792,1.52814,1.60406,1.54748,1.54544,1.54541,1.55084,1.55167,1.56479,1.56884,1.58184,1.58015,1.58675,1.59013,1.62095,1.60717,1.61319,1.62579,1.66199,1.63078,1.76298,1.76479,0.00385336,1.79094,1.79261,1.7268,0.00334273,1.68644,0.00335675,1.76588,1.68194,1.75836,1.73781,1.70005,1.70285,1.69923,0.003448,1.71694,1.71719,1.71789,1.72418,1.72337,0.00364647,1.82514,1.7716,1.77973,1.78282,1.7818,1.78036,1.77531,1.77216,1.77175
0.915915,0.907182,0.908272,0.894352,0.971516,0.91219,0.946372,0.887156,0.970457,0.937941,0.938407,0.890936,0.885617,0.923537,0.937021,0.914994,1.03998,1.0031,0.928966,0.930252,0.943344,0.943778,1.02356,1.01468,1.06203,0.971158,0.97926,0.985655,1.07316,1.07401,1.08384,1.08246,1.08486,1.02511,1.03592,1.0437,1.04988,1.07074,0.991648,0.956403,0.960493,1.00681,0.975671,0.857252,0.855708,0.984866,0.955977,1.08883,1.14651,1.02956,0.994137,0.970312,0.974241,1.01619,0.985899,1.09488,0.99565,0.993768,0.995708,1.01119,1.14361,1.11178,1.13911,1.03927,1.12874,1.08171,1.08218,1.08404,1.08346,1.08574,1.08575,1.09245,1.0939,1.16613,1.13036,1.19228,1.14807,1.14921,1.24702,1.28078,1.14973,1.14861,1.14923,1.19235,1.23476,1.19871,1.15637,1.15616,1.15509,1.16478,1.14492,1.14672,1.24628,1.20332,1.22516,1.22701,1.2086,1.21022,1.16722,1.16771,1.17106,1.17729,1.18024,1.18884,1.18705,1.18593,1.19069,1.25718,1.29903,1.29896,1.30314,1.20848,1.21054,1.2151,1.2117,1.20847,1.20838,1.19585,1.19222,1.19202,1.19432,1.20282,1.24575,1.2532,1.25415,1.30896,1.27732,1.2739,1.28061,1.33652,1.30581,1.35012,1.35725,1.28854,1.26474,1.27803,1.26038,1.28747,1.24705,1.25117,1.24125,1.24625,1.23718,1.23371,1.22466,1.22168,1.22043,1.22371,1.23056,1.23607,1.24354,1.24357,1.25046,1.25722,1.25904,1.26359,1.26499,1.27968,1.29997,1.30652,1.31014,1.31609,1.29458,1.2953,1.31907,1.31856,1.35843,1.3682,1.33534,1.3401,1.37887,1.38857,1.38184,1.37866,1.3696,1.36519,1.37285,1.39431,1.39195,1.42782,1.42917,1.39595,1.35312,1.35248,1.35322,1.35305,1.34148,1.45404,1.32402,1.35814,1.59456,1.58864,1.29624,1.29524,1.29185,1.28141,1.28075,1.27772,1.27628,1.37766,1.31758,1.27991,1.28194,1.28543,1.28794,1.29128,1.28883,1.4053,1.33978,1.3517,1.35211,1.3996,1.40159,1.41988,1.32526,1.43194,1.40921,1.45095,1.35102,1.35097,1.3543,1.37036,1.37426,1.383,1.3819,1.36864,1.36776,1.36649,1.3663,1.36729,1.37319,1.37124,1.37252,1.386,1.39585,1.4884,1.56559,1.53731,1.46823,1.50289,1.57587,1.46594,1.58643,1.4811,1.52601,1.59835,1.50436,1.57082,1.57182,1.5825,1.53275,1.54129,1.54,1.54222,1.54846,1.54452,1.54537,1.56451,1.58252,1.58124,1.5804,1.58196,1.56254,1.58628,1.58789,1.61014,1.62675,1.62532,1.62939,1.63352,1.65453,1.66506,1.66124,1.66057,1.66415,1.66416,1.66262,1.66686,1.6668,1.68212,1.68082,1.67937,1.69481,1.69302,1.69991,1.69815,1.71395,1.71383,1.71653,1.71553,1.72476,0.0040871,0.0044523,0.00401888,0.00403396,0.00376764,0.00396788,1.77469,1.77501,1.77211
0.921447,0.870856,0.87215,0.871408,0.872036,0.871618,0.887976,0.889843,0.889838,0.889299,0.887883,0.879006,0.879981,0.879376,0.917784,0.912711,0.910504,0.978769,1.33969,0.924779,1.02944,1.02657,0.977979,0.946129,1.01882,0.959607,0.968265,0.985596,0.981007,1.08362,0.986212,0.989037,1.00219,1.00453,1.27895,1.03186,1.06327,0.995642,0.94594,1.1192,0.991943,0.985126,1.00516,0.861955,0.90489,0.999171,1.05378,1.02991,1.03074,0.98722,1.01256,1.04283,1.1025,0.995309,0.995374,0.977693,0.978518,0.978799,1.04354,1.05803,1.00778,1.1186,1.08209,1.14619,1.03679,1.0398,1.06089,1.1697,1.07235,1.1282,1.07579,1.11497,1.31401,1.08999,1.0994,1.12287,1.14443,1.15821,1.16798,1.17504,1.19182,1.13364,1.13214,1.2197,1.1363,1.2019,1.17742,1.18639,1.14634,1.13981,1.13487,1.13413,1.1333,1.1295,1.13647,1.1385,1.18832,1.1878,1.16866,1.1772,1.19122,1.19336,1.29228,1.20862,1.22739,1.20959,1.16388,1.16437,1.22602,1.17813,1.17973,1.2498,1.17944,1.17726,1.30501,1.20788,1.20829,1.19075,1.19163,1.19749,1.19768,1.25191,1.22805,1.21406,1.22705,1.22861,1.25142,1.27813,1.28594,1.29348,1.29567,1.32816,1.34062,1.26148,1.26108,1.27234,1.26163,1.29144,1.26417,1.25731,1.24679,1.22403,1.24692,1.2757,1.23346,1.24685,1.24056,1.23931,1.27162,1.26854,1.27184,1.25657,1.26795,1.26857,1.27724,1.27451,1.26937,1.26761,1.26715,1.28238,1.28969,1.29909,1.29811,1.29425,1.32333,1.38564,1.38793,1.3813,1.40993,1.35412,1.40124,1.38902,1.3913,1.39368,1.39711,1.39948,1.39304,1.4058,1.38929,1.40231,1.4036,1.36767,1.34302,1.35015,1.35756,1.33289,1.32798,1.31307,1.31282,1.31602,1.35939,1.29512,1.29351,1.28953,1.28689,1.27751,1.27414,1.27118,1.26995,1.27846,1.27932,1.28081,1.27718,1.35745,1.53443,1.2792,1.27991,1.27668,1.27489,1.27382,1.40077,1.42928,1.29857,1.3085,1.30862,1.46364,1.32871,1.33067,1.43059,1.34914,1.35302,1.3652,1.36491,1.36441,1.35833,1.35811,1.35896,1.35811,1.35892,1.36792,1.36735,1.36901,1.36904,1.37482,1.50912,1.40263,1.52349,1.45894,1.50151,1.43303,1.51835,1.52641,1.5484,1.50691,1.49026,1.49078,1.50109,1.50407,1.51628,1.51432,1.53372,1.53111,1.54146,1.54648,1.5434,1.54274,1.5435,1.54613,1.67985,1.65123,1.59658,1.58375,1.59686,1.61034,1.61326,1.72696,1.62311,1.62235,1.62597,1.75906,1.63682,1.66056,1.65433,1.65439,1.65694,1.66409,1.66172,1.66071,1.66848,1.6668,1.67474,1.67576,1.67549,1.78561,1.68257,1.68457,1.79921,0.00335675,1.77832,1.71925,1.72008,1.72283,1.79976,1.7977,0.0043932,1.78059,1.76219,1.75324,1.75453,1.75414
0.871044,0.870089,0.86959,0.871098,0.870379,0.876267,0.875644,0.887014,0.887038,0.87806,0.878869,0.879846,0.977299,0.909421,0.898305,0.896615,0.888333,0.897264,0.930043,0.913568,0.91562,0.914734,1.05052,1.00176,0.939454,0.945708,0.955457,0.956225,1.0704,1.04672,0.98115,0.00318125,0.992465,1.00075,1.01116,0.00364893,1.04173,0.955572,0.965288,0.00341591,0.919271,0.898786,0.886294,0.885685,0.884705,0.909394,0.911009,1.00181,1.0108,0.935298,0.936751,0.953103,0.973918,1.06763,1.00587,1.00247,0.97644,0.9858,0.986794,0.995756,1.04652,1.01961,1.01078,1.01132,1.01119,1.14314,1.06066,1.01865,1.05854,1.19527,1.1948,1.08513,1.14289,1.13872,1.13028,1.0735,1.14983,1.14926,1.11091,1.11186,1.17055,1.17975,1.11514,1.11536,1.11698,1.11762,1.12337,1.20868,1.13569,1.24719,1.12729,1.12295,1.12225,1.12029,1.19224,1.13205,1.13417,1.13587,1.14017,1.14235,1.14271,1.15769,1.18975,1.20593,1.2542,1.26505,1.22902,1.15957,1.13672,1.15547,1.16812,1.16977,1.17114,1.17556,1.16596,1.16723,1.19801,1.18887,1.16815,1.16529,1.20477,1.21283,1.19251,1.20466,1.21201,1.23546,1.22233,1.24002,1.26204,1.28555,1.29534,1.30796,1.32034,1.34333,1.30276,1.30808,1.32515,1.2682,1.26685,1.27212,1.26951,1.28101,1.2837,1.32666,1.34364,1.3439,1.34107,1.30896,1.33695,1.3377,1.34798,1.31699,1.31883,1.34943,1.34158,1.36077,1.35223,1.34309,1.34007,1.34042,1.31988,1.34585,1.33771,1.37245,1.36987,1.3695,1.39518,1.41649,1.40304,1.41582,1.40996,1.42953,1.42978,1.43042,1.41694,1.44031,1.42663,1.41386,1.39149,1.42618,1.40291,1.38431,1.36895,1.36502,1.34303,1.30764,1.30828,1.32175,1.34308,1.29769,1.29692,1.29443,1.27896,1.28143,1.31555,1.31401,1.27662,1.27384,1.27397,1.26375,1.27202,1.26451,1.26816,1.26599,1.26632,1.44973,1.27972,1.27863,1.27747,1.27856,1.28236,1.44917,1.46177,1.31058,1.31205,1.31855,1.31899,1.43294,1.44117,1.3477,1.3502,1.36009,1.35763,1.35651,1.35455,1.35362,1.35257,1.35867,1.36381,1.36622,1.36797,1.37269,1.37334,1.55099,1.49057,1.48536,1.47565,1.50616,1.47761,1.47624,1.45421,1.4669,1.46424,1.50822,1.50714,1.55127,1.5025,1.50187,1.50385,1.60922,1.54473,1.52834,1.53741,1.53987,1.53994,1.5399,1.54358,1.66937,1.62777,1.58549,1.5764,1.59544,1.60191,1.60191,1.60328,1.6065,1.61861,1.61755,1.63085,1.63767,1.63633,1.63891,1.64454,0.00366495,1.64132,1.64177,1.64127,0.00374837,1.66314,1.65792,0.00335833,1.73083,1.81819,1.67196,1.79988,1.692,1.69974,1.69923,1.69819,1.82695,1.73091,1.72757,1.72624,1.72472,0.0037034,1.76917,1.7438,1.7422,1.79398,1.74449
0.866262,0.867483,0.868435,0.868842,0.872687,0.874497,0.874072,0.881678,0.879987,0.877613,0.875269,0.87347,0.872114,0.870569,0.868587,0.867644,0.867505,0.899869,1.00843,0.893012,0.90187,0.904423,0.996054,0.921711,0.932785,0.932558,1.01599,0.946456,0.959386,0.956922,0.963212,0.969359,0.977823,0.995091,1.00485,1.05007,1.09038,0.999678,1.10615,1.14333,1.07647,0.888193,0.889991,0.889323,0.890711,0.980334,0.998345,0.93307,1.04616,0.922848,0.926793,0.93045,0.934096,0.942016,1.00219,0.98614,1.00298,1.00217,1.03336,1.03607,0.991681,1.00935,1.02122,1.00794,1.00783,1.00328,1.00898,1.01465,1.12894,1.07092,1.09329,1.07998,1.1777,1.23026,1.1104,1.06996,1.12394,1.20276,1.10807,1.13748,1.10017,1.09975,1.10478,1.10822,1.10668,1.10593,1.22751,1.1724,1.21626,1.11313,1.11246,1.1123,1.11287,1.11421,1.11641,1.11501,1.18107,1.1277,1.18549,1.19196,1.21029,1.13084,1.13361,1.13464,1.13404,1.12544,1.12651,1.11268,1.1295,1.14602,1.17691,1.1634,1.16657,1.18373,1.16315,1.13906,1.15963,1.14716,1.14802,1.14893,1.15683,1.1708,1.18069,1.19789,1.1863,1.21226,1.21126,1.24329,1.30487,1.28464,1.27852,1.29631,1.33062,1.33943,1.32028,1.30975,1.31621,1.30149,1.30972,1.29327,1.30254,1.30527,1.34636,1.36032,1.36428,1.33268,1.34965,1.36142,1.3597,1.37426,1.33972,1.33966,1.34932,1.37142,1.39661,1.39335,1.40341,1.38772,1.3874,1.34779,1.34547,1.34508,1.35975,1.40238,1.40252,1.40607,1.4137,1.36313,1.39726,1.40507,1.44278,1.46382,1.43739,1.44077,1.45437,1.47794,1.46541,1.48623,1.46478,1.48278,1.41402,1.37547,1.38274,1.39533,1.32885,1.39998,1.32154,1.34627,1.29011,1.29115,1.31402,1.27528,1.28027,1.29243,1.32027,1.29575,1.30976,1.30152,1.25939,1.3092,1.27007,1.27463,1.27449,1.26575,1.26541,1.27578,1.27471,1.27374,1.27848,1.38533,1.29122,1.31585,1.30186,1.30465,1.3116,1.31554,1.31723,1.3295,1.33173,1.34294,1.34637,1.35313,1.3529,1.35391,1.35569,1.35698,1.35654,1.35659,1.36266,1.37053,1.48213,1.45425,1.4689,1.52358,1.45998,1.50843,1.41959,1.48526,1.43659,1.47506,1.50201,1.4598,1.50933,1.55042,1.48132,1.48807,1.49148,1.50647,1.51249,1.51527,1.51612,1.64456,1.53181,1.53443,1.54407,1.54556,0.0036057,1.56952,1.56878,1.57634,0.00340973,1.58849,1.73399,1.6031,1.60555,1.61202,1.61344,1.63159,1.62485,1.6245,1.6213,1.62047,1.62374,1.6237,1.64498,1.64702,1.64407,1.64335,1.65387,1.65308,1.65828,1.65824,1.72853,1.72503,1.68596,1.68571,1.69368,1.69268,1.70828,1.89624,1.71799,1.71983,1.7174,1.71717,1.71722,1.716,0.00397882,0.00383695,1.72695,1.72337
0.856251,0.866424,0.864691,0.874458,0.876929,0.882073,0.881148,0.880064,0.878316,0.875886,0.874569,0.87471,0.876183,0.915681,0.86042,1.04126,0.876829,0.88062,0.882915,0.891694,0.895026,0.898034,0.898867,0.918145,0.918885,0.920252,0.922141,0.920627,0.952826,0.959814,0.935208,0.961989,0.953719,0.00347994,1.04605,0.960981,1.06389,0.9216,0.912241,0.00403642,0.918885,0.92144,0.889173,0.888102,0.889292,0.90933,0.893056,0.894037,1.04818,1.08116,0.916348,0.926419,0.933557,0.939243,0.94885,0.949902,0.957968,1.02277,0.992087,0.983913,0.985651,0.996084,0.996076,0.997788,1.00606,1.0037,1.05035,1.04757,1.01809,1.0538,1.06601,1.03663,1.13958,1.04342,1.04251,1.13301,1.13259,1.12351,1.09832,1.13013,1.13283,1.14127,1.09714,1.09683,1.18238,1.08456,1.09387,1.0934,1.22331,1.10402,1.17076,1.10552,1.10839,1.14733,1.10546,1.10842,1.10853,1.10939,1.17201,1.11123,1.1124,1.11199,1.10975,1.111,1.11079,1.11552,1.08905,1.07732,1.1435,1.12995,1.1292,1.08336,1.09223,1.09804,1.10222,1.11352,1.11494,1.13064,1.12235,1.11914,1.1234,1.123,1.12622,1.14436,1.15759,1.18075,1.20073,1.20943,1.24666,1.2812,1.29658,1.29864,1.35157,1.33781,1.34697,1.33221,1.33352,1.35704,1.33242,1.33467,1.35102,1.35278,1.34396,1.31244,1.36404,1.35311,1.37308,1.38519,1.38644,1.37034,1.39895,1.40803,1.35289,1.39493,1.42801,1.39916,1.41111,1.43412,1.38632,1.37913,1.41725,1.42323,1.45396,1.43389,1.44248,1.45077,1.45684,1.44788,1.46899,1.46701,1.47234,1.4783,1.47053,1.46932,1.47773,1.48777,1.46751,1.50232,1.50824,1.48219,1.48085,1.46556,1.47233,1.40473,1.40014,1.32293,1.33063,1.30679,1.27786,1.29244,1.2599,1.26872,1.27417,1.30277,1.31826,1.23763,1.2465,1.2483,1.24979,1.27089,1.28556,1.28816,1.28893,1.26719,1.26803,1.26892,1.27484,1.27504,1.27419,1.29482,1.29382,1.29486,1.29474,1.38919,1.38176,1.31114,1.31721,1.32277,1.33226,1.34262,1.35527,1.3535,1.35186,1.35286,1.35343,1.35912,1.36122,1.36351,1.36427,1.3755,1.47163,1.47701,1.48572,1.48749,1.41746,1.42613,1.4305,1.43188,1.44523,1.56433,1.46531,1.55372,1.56216,1.48173,1.48139,1.48569,1.49143,1.49285,1.50922,1.50933,1.51039,1.51405,1.51557,1.52533,1.57945,1.54297,1.54207,0.00383974,1.67283,1.58509,1.59244,1.58496,1.5848,1.58668,1.7461,1.60752,1.61588,1.61582,1.60728,1.60615,1.61011,1.61587,1.61883,1.62982,1.62724,1.63991,1.63906,1.64395,1.64386,1.65096,1.64992,1.65154,1.65758,1.67161,1.67249,1.685,1.69089,0.00371256,0.00371623,1.7362,1.74315,1.74516,1.70967,1.70966,1.70304,1.71131,1.71271,1.71354,1.70956,1.71615
0.880538,0.899101,0.904149,0.88605,0.884018,0.883143,0.882987,0.879763,0.958524,0.96078,0.968692,0.998604,0.999259,0.849486,1.01034,1.01752,0.887674,0.890794,0.885256,0.885811,0.885712,0.980132,0.909671,0.899082,0.900073,0.914528,0.915797,0.939317,0.925729,0.959295,0.00359602,0.950595,0.976876,1.01848,0.914145,0.913404,0.914753,0.887996,0.886686,0.949549,0.883732,0.883373,0.930887,0.882281,0.881902,0.881315,0.8813,1.03959,0.936118,0.949996,0.918105,0.922612,0.992433,1.01443,0.974867,1.02288,0.98469,0.977751,0.997746,0.982231,0.977391,0.980317,1.13258,1.08222,0.994382,1.0044,1.00496,1.01108,1.01061,1.01046,1.01338,1.02056,1.06897,1.06469,1.0781,1.09152,1.04793,1.04766,1.11593,1.10865,1.10315,1.13326,1.15106,1.16725,1.13976,1.07674,1.19107,1.07853,1.08388,1.08385,1.17163,1.25433,1.1889,1.06822,1.08096,1.08095,1.08045,1.11559,1.2577,1.14349,1.14415,1.07242,1.09528,1.06269,1.06303,1.06232,1.06415,1.06013,1.06026,1.04684,1.0612,1.06012,1.05298,1.04423,1.0596,1.06516,1.06735,1.08865,1.08285,1.08658,1.09412,1.11203,1.10849,1.13961,1.14206,1.20483,1.21488,1.19493,1.22728,1.28565,1.28663,1.30079,1.30299,1.30207,1.32914,1.34165,1.35677,1.36783,1.36835,1.36393,1.36789,1.38363,1.37423,1.40183,1.4165,1.38477,1.3979,1.40612,1.39597,1.41277,1.40856,1.39729,1.40869,1.40683,1.42013,1.40949,1.40953,1.43361,1.37378,1.43115,1.43296,1.43396,1.42469,1.47904,1.46366,1.48172,1.46547,1.46487,1.47695,1.47746,1.47485,1.46124,1.45367,1.46184,1.48522,1.50543,1.51193,1.48788,1.48719,1.45583,1.44104,1.43997,1.46212,1.38597,1.43718,1.3915,1.39481,1.42034,1.33007,1.31109,1.28843,1.27547,1.26172,1.27213,1.25374,1.25045,1.23824,1.23669,1.25059,1.23186,1.22626,1.22354,1.22346,1.2327,1.23319,1.2361,1.2613,1.27629,1.28099,1.28916,1.28995,1.29474,1.29492,1.30234,1.36837,1.38105,1.38715,1.32832,1.33357,1.34016,1.3422,1.35261,1.35061,1.35168,1.35074,1.35756,1.35889,1.36684,1.36684,1.37441,1.37479,1.4765,1.47154,1.4751,1.48951,1.54447,1.48965,1.60592,1.49411,1.46499,1.46715,1.46816,1.48237,1.49562,1.49531,1.4947,1.48403,1.60449,1.50965,1.50264,1.50408,1.50833,1.50763,1.52373,1.5882,1.53359,1.53289,1.54489,1.54544,1.60792,0.00319064,1.57264,0.00369871,1.59462,1.5929,1.72318,1.60353,1.60713,1.60782,1.60664,1.6054,1.60869,1.62272,1.62627,1.62506,1.6305,1.63859,1.64412,1.64592,1.64445,1.65226,1.65376,1.65546,1.65862,1.66846,1.67106,1.67937,1.67841,1.67894,1.67943,1.68887,1.68687,1.69854,1.70291,1.69589,1.69622,1.70787,1.70913,1.70539,1.70891
0.894399,0.89115,0.890248,0.889441,0.88859,0.884534,0.883192,0.878412,0.883315,0.886844,0.964251,0.963622,0.975112,0.979753,0.913399,0.957838,1.00185,0.911218,0.906298,0.878905,0.879242,0.882682,0.887678,0.909992,0.893708,0.895491,0.935127,0.941695,0.950072,0.878013,0.986967,0.997497,0.864111,0.862725,0.963024,0.962033,0.860535,0.897467,0.873938,0.933384,0.914563,0.875768,0.874159,0.876697,0.875825,0.877423,0.876287,0.878179,0.888676,0.961535,0.97111,1.08114,0.919076,0.925357,0.928818,1.01031,1.03255,0.998293,0.967412,0.946156,1.01171,0.977003,1.02252,1.02989,1.03243,0.992054,1.00417,1.00495,1.00485,1.00754,1.02504,1.02353,1.02364,1.02404,1.02401,1.03119,1.09293,1.07914,1.09828,1.10083,1.10555,1.08911,1.04645,1.04639,1.13968,1.18192,1.19077,1.06698,1.11026,1.07465,1.0743,1.11343,1.12341,1.06915,1.07039,1.13432,1.07761,1.10434,1.11293,1.0595,1.04424,1.04448,1.05831,1.03116,1.08436,1.02185,1.02106,1.02806,1.04253,1.04963,1.04249,1.03957,1.04646,1.08797,1.08175,1.06516,1.06671,1.08127,1.10743,1.11484,1.11284,1.11303,1.13951,1.13329,1.15703,1.15987,1.20899,1.21463,1.21937,1.23406,1.27958,1.275,1.30642,1.31713,1.32219,1.3653,1.37142,1.36491,1.39782,1.39807,1.41308,1.4118,1.41806,1.42459,1.40239,1.41887,1.41178,1.41547,1.42649,1.41999,1.40893,1.42122,1.42816,1.43271,1.44047,1.44556,1.4473,1.49968,1.45394,1.36876,1.35521,1.34711,1.36092,1.50589,1.50997,1.51227,1.52957,1.50325,1.52615,1.5242,1.51522,1.51416,1.4863,1.49883,1.50061,1.49679,1.49554,1.49043,1.46837,1.46247,1.44492,1.44681,1.4203,1.42235,1.42461,1.46609,1.39137,1.39933,1.37359,1.35761,1.30567,1.28138,1.2818,1.29216,1.2676,1.26402,1.26476,1.27168,1.26781,1.25189,1.24517,1.24397,1.2373,1.24013,1.23149,1.23569,1.24763,1.24346,1.28292,1.28445,1.2875,1.28469,1.29302,1.29985,1.30138,1.30917,1.31155,1.32567,1.33242,1.33235,1.33987,1.35086,1.34968,1.3503,1.35185,1.36409,1.36409,1.36923,1.37507,1.38304,1.38175,1.3855,1.47716,1.47751,1.41729,1.47147,1.53786,0.00363676,1.48562,1.4885,1.45935,0.00351336,1.44737,1.57523,1.45853,1.54023,1.53988,1.5641,1.48792,1.49174,1.49419,1.54866,1.50143,1.59392,1.52193,1.56862,1.53414,1.53344,1.53762,0.00360134,1.56406,1.63259,1.56845,1.57206,1.57261,1.59558,1.5926,1.59536,1.58934,1.59096,1.7553,1.59909,1.60507,1.68618,1.6834,1.63128,1.64437,1.64597,1.64778,1.65296,1.6541,1.65222,1.65466,1.6554,1.66353,1.67094,1.67246,1.67633,1.67727,1.67967,1.6816,1.67486,1.68207,1.7377,1.69169,1.68893,1.69295,1.6924,1.70028,1.70974
0.891447,0.889362,0.889486,1.00211,0.877152,0.875138,0.993839,0.890561,0.984199,0.856062,0.871271,1.01354,1.00796,0.823865,0.822778,0.992596,0.942212,0.856799,0.880891,0.882478,0.872368,0.901272,0.881538,0.881677,0.884391,0.884677,0.884117,0.883863,0.950491,0.902104,0.863207,0.862729,0.859946,0.859389,0.862909,0.861234,0.860538,0.860472,0.884141,0.87844,0.877781,0.937697,0.86845,0.869015,0.872023,0.877199,0.877828,0.877555,0.962101,0.960683,0.897958,0.906362,1.07767,0.918359,0.921356,0.921413,0.96718,1.00157,1.00546,0.96429,1.00379,0.949603,0.961223,1.02459,0.969612,1.03263,0.980999,0.992512,1.08605,1.08632,1.29498,1.00821,1.01373,1.06135,1.01903,1.05842,1.03977,1.03996,1.04336,1.04366,1.11214,1.12608,1.13451,1.03646,1.05933,1.04933,1.05068,1.09617,1.06022,1.10332,1.05625,1.05643,1.05968,1.06117,1.13003,1.14003,1.08502,1.03342,1.03307,1.03235,1.0003,0.960099,0.973281,0.98366,0.998229,0.998575,1.03904,1.02789,1.02736,1.03353,1.03862,1.03904,1.06389,1.07404,1.07476,1.09288,1.11959,1.13945,1.13856,1.14112,1.14405,1.14939,1.14994,1.14309,1.14727,1.15409,1.177,1.18301,1.19635,1.2275,1.23002,1.41676,1.36797,1.37962,1.34357,1.32759,1.35659,1.3864,1.37822,1.40916,1.40996,1.43591,1.42619,1.43589,1.43311,1.43236,1.42195,1.43697,1.42641,1.43297,1.42322,1.43408,1.43403,1.44044,1.44976,1.44867,1.42608,1.42693,1.35029,1.34979,1.36194,1.52301,1.51638,1.53515,1.5336,1.54308,1.52458,1.54023,1.53707,1.54685,1.52885,1.5291,1.5361,1.53114,1.51657,1.50279,1.51607,1.53611,1.47323,1.46183,1.45144,1.45719,1.45054,1.45889,1.48084,1.47159,1.45723,1.38501,1.38585,1.34467,1.34745,1.33358,1.29393,1.28876,1.25804,1.25706,1.26025,1.24475,1.25858,1.27212,1.25681,1.24572,1.22977,1.2284,1.23325,1.24123,1.26044,1.2631,1.24232,1.24525,1.28098,1.28106,1.2947,1.29794,1.40908,1.31178,1.31896,1.38831,1.33017,1.33729,1.34352,1.35141,1.35339,1.3521,1.36034,1.36017,1.36146,1.36965,1.3745,1.38898,1.38893,1.39477,1.3951,1.4845,1.42408,1.42788,1.42731,1.43651,1.45443,1.43812,1.56861,1.53649,1.67826,1.57991,1.52681,1.52303,1.47036,1.59864,0.00383503,1.48548,1.49249,1.49486,1.60955,1.50822,1.50578,1.561,1.5319,1.52854,1.53198,1.53081,1.59201,1.59917,1.60046,1.5631,1.57045,1.57424,1.57277,1.58547,1.58502,1.58617,0.00395851,1.60371,1.60278,1.6065,1.70292,1.6208,1.70111,1.65215,1.65095,1.65753,1.65967,1.65845,1.67066,1.67001,1.67103,1.66947,1.66898,1.67912,1.6793,1.67859,1.67543,1.67473,1.67837,1.67601,1.67629,1.67296,1.67289,1.68544,1.68627,1.78348
1.06542,0.93594,0.876427,0.867955,0.868135,0.869862,1.02829,1.04735,0.837593,0.837809,0.842347,0.842894,0.843757,0.822727,0.823588,0.824364,0.824611,0.901624,0.924506,0.904086,0.891649,0.921633,0.86797,0.868031,0.872786,0.911197,0.930159,0.93803,0.866122,0.865332,0.857852,0.858039,0.85956,1.00768,0.866535,0.960328,0.874533,0.869237,0.870433,0.861075,0.863829,0.86483,0.866084,0.865925,0.877178,0.87611,0.880425,0.881615,0.887805,0.887674,0.953161,0.96213,1.01593,0.908618,0.913232,0.953425,0.953779,1.02199,0.980891,0.996323,0.964835,0.974805,0.95667,0.960467,0.961332,1.11778,1.12545,0.98144,0.980637,0.990692,0.990872,1.10693,0.998419,1.11976,1.02362,1.02542,1.01956,1.01941,1.01539,1.09075,1.01918,1.01941,1.02494,1.07559,1.08094,1.03919,1.03916,1.04694,1.11528,1.065,1.04824,1.04829,1.16687,1.03871,1.03852,1.03404,1.0228,1.01625,1.01403,0.971175,0.968117,0.959421,0.953967,0.96017,0.994595,0.994068,0.991601,1.01071,1.00735,1.04949,1.06983,1.10938,1.0958,1.0977,1.09072,1.11853,1.14906,1.13658,1.14424,1.14337,1.14021,1.1482,1.15051,1.15963,1.15987,1.17751,1.17634,1.19027,1.19239,1.20739,1.22886,1.25878,1.26389,1.28946,1.29919,1.28949,1.34133,1.37288,1.38958,1.40877,1.4519,1.44804,1.42474,1.42818,1.44097,1.43327,1.44386,1.44506,1.44471,1.46094,1.46824,1.46852,1.45567,1.46893,1.47252,1.4656,1.46378,1.50609,1.54282,1.5477,1.53136,1.54129,1.56248,1.56521,1.56382,1.57843,1.56408,1.56741,1.56836,1.54344,1.54681,1.57926,1.56107,1.56192,1.56013,1.54549,1.52681,1.54053,1.53612,1.49974,1.50456,1.50688,1.47784,1.47435,1.4604,1.45808,1.43794,1.41295,1.39307,1.43429,1.34063,1.34182,1.331,1.32008,1.29016,1.29915,1.2852,1.2943,1.30158,1.27086,1.29051,1.27956,1.2642,1.26523,1.24926,1.24881,1.2501,1.25212,1.25225,1.25339,1.25483,1.35546,1.29922,1.30062,1.30503,1.3082,1.31673,1.32376,1.38865,1.34342,1.3507,1.35142,1.35834,1.35889,1.36313,1.36802,1.36859,1.37097,1.37748,1.39103,1.38934,1.3903,1.4025,1.48892,1.42249,1.42288,1.42296,1.42656,1.42689,1.49046,1.41601,1.51594,1.42578,1.42066,1.55799,1.61038,1.46556,1.50338,1.4899,1.52675,1.47093,1.5508,1.5026,1.50972,1.51071,1.51101,1.51238,1.51674,1.5161,1.51751,1.52978,1.59144,1.54069,1.55424,1.56,1.69002,1.6926,0.00392178,1.58926,1.58828,1.58822,1.59374,1.72072,1.72136,1.61963,1.61866,1.62735,1.63503,1.63453,0.00328902,1.72338,1.65902,1.67267,1.67281,1.67972,1.6786,1.67716,1.68031,1.6801,1.6796,1.68634,1.68525,1.68446,1.68146,1.67915,1.67632,1.67866,1.67784,1.6885,1.69179
0.892163,0.93921,1.02273,0.828082,0.828472,0.915827,0.937137,0.936657,0.836104,0.83714,0.954973,0.840502,0.839126,0.89456,0.895952,0.823567,0.922581,0.812351,0.888872,0.880756,0.883835,0.948718,0.842794,0.951056,0.92549,0.923265,0.856252,1.09097,0.964968,0.965919,0.846241,0.854116,0.960401,0.849609,0.842848,0.841625,0.841591,0.840391,0.925431,0.853714,0.858913,0.861407,0.861803,0.864376,0.876185,0.875008,0.87608,0.882319,0.883542,0.885194,0.98099,0.899738,0.905,0.904218,0.90512,0.907691,0.947325,0.990931,0.989808,1.01724,0.985926,0.990655,0.984625,1.15407,1.03152,0.976648,1.0665,1.05054,0.974689,0.980702,0.981989,0.985464,0.989643,1.07784,1.0798,1.01552,1.01508,1.0074,1.00292,1.0019,1.00142,1.08097,1.02911,1.0359,1.02549,1.03704,1.04247,1.03846,1.04269,1.09733,1.1117,1.12849,1.27884,1.01854,1.01497,1.01495,1.00525,1.00749,0.942601,0.948902,0.95306,0.928366,0.937377,0.959023,0.973142,0.988451,0.996372,1.01954,1.02525,1.05661,1.07345,1.08939,1.10091,1.16878,1.12003,1.12964,1.13264,1.13196,1.13919,1.14718,1.16693,1.16749,1.18204,1.2019,1.17361,1.18,1.19427,1.19082,1.20542,1.20599,1.21522,1.23668,1.26252,1.28289,1.29164,1.2978,1.30623,1.3161,1.40573,1.40768,1.39902,1.40047,1.39984,1.41236,1.40992,1.43356,1.44813,1.45797,1.46242,1.46869,1.46486,1.46697,1.47596,1.50307,1.50414,1.49321,1.50929,1.55169,1.54024,1.54847,1.58763,1.59734,1.59186,1.59847,1.5879,1.59333,1.57177,1.58723,1.58154,1.57413,1.58382,1.58483,1.57248,1.57538,1.57582,1.55571,1.53073,1.53747,1.53692,1.5269,1.51942,1.51906,1.52972,1.48542,1.48581,1.50089,1.43275,1.43339,1.43636,1.43836,1.39701,1.37252,1.35484,1.3542,1.34987,1.33976,1.33728,1.32933,1.33745,1.33532,1.26928,1.27913,1.25776,1.26989,1.24997,1.25819,1.25091,1.24623,1.2688,1.26888,1.25292,1.26123,1.34063,1.33375,1.2957,1.29649,1.2988,1.37605,1.32619,1.32968,1.33896,1.34313,1.35208,1.35537,1.35965,1.36801,1.36812,1.37562,1.38263,1.38817,1.38963,1.48743,1.40007,1.50039,1.42338,1.42278,1.42243,1.41602,1.45122,1.49948,1.40221,1.40352,1.4786,1.41641,1.5297,1.48209,1.52825,1.44353,1.45775,1.47324,1.53556,1.57214,1.57964,1.48789,1.49703,1.4978,1.49888,1.50589,1.50561,1.51037,1.51878,1.59057,1.53766,1.53623,1.54285,1.55078,1.54955,1.55757,0.00329537,1.57175,1.57885,1.57615,0.00365066,1.64178,1.6121,1.61239,1.61255,1.62115,1.61669,1.67798,1.61968,1.61889,1.67957,1.76502,0.00368256,1.68721,0.00341403,0.00338613,0.00364034,0.00352136,1.67969,1.6812,0.00377024,1.68515,1.68201,1.68143,1.67955,1.67912,1.6918,1.74407
0.828525,0.82744,0.827711,0.827411,0.829051,0.829955,0.814957,0.814028,0.813534,0.81729,0.93269,0.929052,0.885354,0.00379599,0.83901,0.922061,0.830405,0.803119,0.802959,0.801433,0.812093,0.811232,0.810933,0.811202,0.879907,0.908463,0.918974,0.916029,0.957032,1.11189,0.834105,0.836614,0.83517,0.834641,0.833401,0.836653,0.836241,0.975017,0.978069,0.959611,0.849975,0.972935,0.856416,0.941011,0.870608,0.872073,0.878987,0.880933,0.881558,0.888203,0.888792,0.899982,0.900502,0.902494,0.902949,0.902175,0.900855,0.937694,0.947098,0.971411,0.950771,0.950095,0.937485,0.937268,0.944913,1.05453,0.953219,0.994265,0.975078,0.975696,0.978906,0.981265,0.980587,0.980954,1.0812,0.995716,0.996236,0.998568,0.995176,0.99579,0.994284,0.999883,1.00126,1.07916,1.01593,1.01541,1.03175,1.26493,1.03014,1.02183,1.01131,1.00666,1.00261,1.00109,1.00075,0.998727,1.00216,0.973201,0.942833,0.94434,0.959543,0.913811,0.936119,0.973758,0.96068,1.00165,1.0155,1.01283,1.05794,1.05791,1.05811,1.07537,1.09044,1.11454,1.1394,1.1259,1.14624,1.14014,1.13743,1.17029,1.16357,1.19645,1.20496,1.20707,1.20595,1.20465,1.34309,1.20622,1.20593,1.21701,1.21561,1.21742,1.24995,1.30705,1.3158,1.3087,1.30915,1.31915,1.37446,1.36164,1.37708,1.42155,1.42143,1.41717,1.40335,1.41322,1.41381,1.43564,1.44901,1.48066,1.47907,1.48904,1.4965,1.52725,1.524,1.53431,1.54332,1.5855,1.59828,1.56866,1.60823,1.62639,1.62666,1.60286,1.60737,1.59736,1.59841,1.59554,1.58323,1.5843,1.57904,1.56341,1.56054,1.55972,1.54965,1.5501,1.5479,1.55355,1.55738,1.54528,1.54455,1.51758,1.51807,1.52074,1.53751,1.46014,1.45161,1.45328,1.43761,1.38565,1.38566,1.39166,1.3502,1.34517,1.35218,1.33984,1.34305,1.33163,1.33049,1.33069,1.27103,1.26657,1.30268,1.25188,1.25061,1.2617,1.26062,1.25384,1.25102,1.25031,1.25301,1.26162,1.27757,1.29893,1.29813,1.30194,1.30319,1.43042,1.36797,1.32854,1.32897,1.33639,1.34746,1.34821,1.35313,1.36214,1.36805,1.37791,1.38428,1.3853,1.38569,1.39886,1.39835,1.40573,1.40575,1.40842,1.417,1.46836,1.3901,1.38402,1.38445,1.39939,1.39613,1.39608,1.40969,1.52499,1.52345,1.42885,1.52128,1.45022,1.66438,1.64846,1.55374,1.47828,1.4783,1.48897,1.49134,1.50265,1.54244,1.50743,1.51062,1.51941,1.60408,1.53525,1.53424,1.54218,1.54425,1.54366,1.62719,1.55434,1.61398,1.60912,1.65845,1.67462,1.61012,1.60236,1.76587,1.60393,1.60352,1.60873,1.60522,1.61945,1.61663,1.62041,1.61997,1.65838,1.7792,1.79363,1.76821,0.00351267,1.65168,1.65403,1.66845,1.67113,1.66893,1.67487,1.67559,1.67169,1.76453,0.00340145
0.808246,0.901438,0.876569,0.873867,0.0032106,0.849218,0.851776,0.875261,0.789581,0.789485,0.789916,0.870766,0.871684,0.83985,0.828694,0.800665,0.800791,0.792676,0.786775,0.785436,0.890888,0.881311,0.808611,0.812372,0.819047,0.818054,0.817499,0.880986,0.811404,0.886844,0.885457,0.899978,1.20883,0.82358,0.82749,1.01145,0.917646,0.989369,0.985149,0.971308,0.85068,0.942343,0.95314,0.931449,0.895241,0.87213,0.875766,0.880556,0.8814,0.882641,0.883595,0.944339,0.895961,0.895744,0.936263,0.898232,0.900307,0.933677,0.994935,0.928221,0.935944,1.04728,0.936619,0.94434,0.944863,0.944691,0.944251,0.952517,0.952731,1.08371,1.04971,0.970778,0.971293,0.972395,1.04882,0.98324,0.985735,0.988184,0.98506,0.986141,0.990907,1.02299,1.03587,1.01356,1.01083,1.01198,1.01257,1.00947,1.06685,1.08908,0.998231,1.00023,0.989222,0.978424,0.977872,0.970795,0.924056,0.932435,0.953219,0.92656,0.926113,0.927053,0.937254,0.960156,0.987384,1.00374,1.03381,1.03285,1.04658,1.08442,1.08741,1.1078,1.11625,1.13396,1.13781,1.17062,1.17695,1.18341,1.1841,1.17141,1.1869,1.20566,1.21137,1.42026,1.40068,1.4127,1.42004,1.44561,1.43958,1.23679,1.23234,1.27806,1.28846,1.2997,1.30186,1.33323,1.32098,1.3282,1.35467,1.36208,1.36451,1.37195,1.41199,1.40832,1.40881,1.4228,1.42667,1.42442,1.44297,1.49006,1.47545,1.50349,1.52674,1.53391,1.51217,1.5708,1.57185,1.60628,1.60559,1.60062,1.61638,1.61498,1.62186,1.63161,1.63625,1.63427,1.61779,1.62946,1.63372,1.59045,1.59198,1.60193,1.60436,1.60331,1.58017,1.56215,1.5636,1.56425,1.56415,1.57476,1.57225,1.55417,1.54439,1.54294,1.48121,1.48898,1.55751,1.51957,1.49916,1.42989,1.45492,1.43162,1.41834,1.38142,1.34003,1.34042,1.32524,1.31558,1.28858,1.29362,1.28746,1.28859,1.29149,1.27847,1.24585,1.24796,1.24125,1.25034,1.25449,1.24423,1.24546,1.24775,1.26104,1.28497,1.28547,1.3366,1.32355,1.32974,1.32755,1.32582,1.32556,1.32747,1.42282,1.42115,1.44335,1.35522,1.357,1.36081,1.3781,1.3733,1.37495,1.47232,1.41288,1.40627,1.40504,1.39269,1.38336,1.38199,1.3762,1.37738,1.37752,1.37752,1.45484,1.45501,0.00361551,1.57658,1.57658,1.42322,1.46003,1.45216,1.46907,1.53403,1.48961,1.51627,1.47528,1.48176,1.48138,1.49214,1.49378,1.49417,1.50563,1.51301,1.51662,1.5221,1.53061,1.53021,1.54322,1.54137,1.54181,1.53984,1.5387,1.60671,1.67527,1.66923,1.57467,1.58537,1.58763,1.59025,0.00342435,1.70806,1.61628,1.6188,1.61813,1.61768,1.61646,1.61717,1.62919,1.64107,1.63872,1.64157,1.6476,1.64695,1.64703,1.67127,1.66958,1.66825,1.66823,1.67415,1.67313,1.68241
0.792733,0.794988,0.793225,0.79114,0.818297,0.817747,0.840705,0.840083,0.78973,0.789152,0.788937,0.84367,0.836678,0.856513,0.81267,0.837068,0.786831,0.78396,0.783325,0.782694,0.780387,0.779987,0.787815,0.8041,0.83256,0.838813,0.794002,0.795164,0.855892,0.808859,0.808132,0.80848,0.935798,0.819573,0.820069,0.819708,0.845814,0.829447,0.830494,0.935545,0.839287,0.933361,0.915963,0.913014,0.857268,0.855696,0.961718,0.96038,0.941847,0.915508,0.945747,0.925199,0.922688,0.915919,0.886697,0.914639,0.893316,0.893733,0.959786,1.0393,0.963347,0.923112,0.924132,0.924911,0.940497,0.946296,0.947295,0.948038,0.950142,0.950595,0.952758,0.955737,0.955665,0.955063,1.00277,1.00551,1.0911,0.974897,0.978211,1.03613,0.993948,0.997988,1.0754,1.04475,1.01618,1.10183,1.11243,1.1561,1.15641,1.1375,1.02475,0.00354605,0.942097,0.912306,0.907906,0.907182,0.929779,0.957323,0.919545,0.918139,0.917828,0.936067,0.931041,0.985713,0.98817,1.01396,1.01906,1.04193,1.04329,1.08195,1.1544,1.11968,1.13547,1.12926,1.14801,1.23145,1.14816,1.1497,1.15784,1.23289,1.19854,1.20175,1.21244,1.47515,1.4489,1.42016,1.49549,1.49325,1.4086,1.40798,1.25315,1.24193,1.28533,1.30263,1.33201,1.33444,1.33286,1.34382,1.35029,1.39179,1.39294,1.37907,1.42697,1.43121,1.42687,1.41364,1.42638,1.43604,1.44675,1.46521,1.46434,1.49822,1.52088,1.52927,1.52622,1.5664,1.58129,1.57858,1.62545,1.6059,1.60596,1.60903,1.63869,1.62359,1.62068,1.61224,1.61193,1.61084,1.61504,1.62507,1.62019,1.6089,1.61797,1.59296,1.61622,1.60089,1.57367,1.59354,1.60494,1.56845,1.56929,1.56912,1.5586,1.55785,1.52472,1.51956,1.51912,1.51702,1.49309,1.48259,1.47499,1.42393,1.42339,1.40764,1.37803,1.34664,1.33545,1.31663,1.31542,1.30488,1.30909,1.29685,1.30888,1.27721,1.26174,1.27181,1.26418,1.28137,1.26959,1.25545,1.25698,1.26167,1.25773,1.27909,1.30481,1.32599,1.32549,1.33249,1.33169,1.33062,1.327,1.32624,1.32655,1.33301,1.337,1.44458,1.40289,1.3932,1.36133,1.36431,1.37068,1.43261,1.45084,1.45087,1.38438,1.3838,1.37462,1.37238,1.3716,1.36985,1.36809,1.37105,1.45397,1.38602,1.48946,1.49036,1.52933,1.41507,1.41462,1.42981,1.42974,1.44048,1.43963,1.45432,1.51743,1.51355,1.53112,1.50164,1.49336,1.49236,1.49869,1.50388,1.51523,1.51586,1.52236,1.52138,1.52771,1.53711,1.53903,1.53381,1.54045,1.63434,0.00318766,1.69614,1.57266,1.69694,1.58201,1.58231,0.0036549,0.00352687,1.5896,1.70003,1.83121,1.60673,1.61282,1.61156,1.61051,0.00363754,1.6423,1.64203,1.64046,1.64109,1.64223,1.64802,1.67101,1.6707,1.66922,1.67615,1.67902,1.68166
1.14896,1.15331,0.781335,0.809518,0.781815,0.781631,0.775237,0.774968,0.835865,0.782437,0.781531,0.78283,0.787268,0.854755,0.957338,1.02859,0.774904,0.790377,0.774938,0.775034,0.776505,0.775858,0.788763,0.787123,0.797524,0.795536,0.793985,0.794199,0.795221,0.794237,0.797019,0.79912,0.79771,0.854038,0.900424,0.849035,0.896346,0.818876,0.819653,0.825904,0.82246,0.83067,0.830811,0.832731,0.838717,0.843424,0.845918,0.845549,0.871746,0.952118,0.87069,0.873709,0.873418,0.970751,0.95921,0.881226,0.911836,0.88807,1.57528,0.89903,0.972238,0.969784,0.921802,0.92499,0.925351,0.929935,1.03229,0.980879,0.941795,0.973994,0.974594,0.947062,0.948601,0.947829,0.952845,0.955388,1.00842,0.970496,0.971711,0.977118,0.977012,1.05782,1.05769,1.10104,1.08513,1.04298,1.05804,0.96543,1.06131,1.06031,1.03161,1.02556,0.926035,0.939039,0.930425,0.928358,0.919088,0.907166,0.903583,0.902924,0.909273,0.910958,0.939638,0.958537,0.964047,0.985899,0.985258,1.04111,1.04325,1.10482,1.10786,1.10335,1.11206,1.11177,1.13809,1.15412,1.15325,1.17761,1.17734,1.1853,1.17824,1.22635,1.21327,1.21509,1.2546,1.29363,1.29478,1.55123,1.24366,1.24393,1.24153,1.27425,1.29172,1.29886,1.35449,1.3552,1.35455,1.36336,1.38513,1.3852,1.3689,1.37949,1.4037,1.41155,1.40598,1.39734,1.40023,1.44636,1.44291,1.44304,1.44583,1.44571,1.46388,1.46013,1.49585,1.49357,1.57286,1.57785,1.59148,1.5819,1.59683,1.59841,1.63273,1.61784,1.61795,1.63754,1.64751,1.64097,1.64197,1.65564,1.66231,1.66601,1.66832,1.66211,1.6452,1.62024,1.60707,1.59862,1.62126,1.5743,1.56424,1.56806,1.57881,1.57866,1.56863,1.53744,1.53588,1.55113,1.45587,1.45817,1.45923,1.43029,1.43686,1.43709,1.41363,1.38819,1.3722,1.3722,1.36771,1.36654,1.31845,1.30727,1.30392,1.29937,1.29839,1.28555,1.30966,1.29096,1.27289,1.28399,1.25228,1.24699,1.26572,1.2645,1.26455,1.32966,1.33103,1.31785,1.31576,1.32249,1.31841,1.31687,1.31847,1.32081,1.32389,1.45736,1.45826,1.39931,1.35006,1.35151,1.35815,1.42068,1.36808,1.37451,1.37056,1.36619,1.36526,1.3694,1.36858,1.36353,1.36628,1.36725,1.37651,1.37485,1.3773,1.37745,1.39031,1.5534,1.55479,1.44585,1.51223,1.51198,1.44122,1.44579,1.44624,1.48733,1.5505,1.55366,1.47887,1.48831,1.49319,1.49244,1.56123,1.51535,0.00365931,1.52294,1.52373,1.53564,1.53365,1.53502,1.54505,1.62293,0.00361634,1.56227,1.56973,1.5711,1.57208,1.57598,1.57765,1.57759,1.58752,1.5876,1.58887,1.66199,1.60883,1.60658,1.60681,1.6165,1.61489,1.79709,1.63854,1.63927,1.64052,1.64022,0.00375631,0.00347967,1.81343,1.91473,0.00356403,1.6849
0.761915,0.761188,0.766058,0.766346,0.770097,0.769012,0.762233,0.760381,0.757694,0.761107,0.756314,0.758969,0.755912,0.754675,0.857013,0.825757,0.751624,0.748838,0.749353,0.819587,0.759463,0.767071,0.768029,0.77893,0.790448,0.79082,0.791399,0.795014,0.789725,0.79092,0.795071,0.795752,0.802279,0.804265,0.804683,0.807821,0.810781,0.810577,0.813068,0.813465,0.815851,0.81674,0.818072,0.828832,0.83039,0.830488,0.830165,0.90835,0.886085,0.856657,0.900217,0.866218,0.864458,0.863454,0.863349,1.04619,0.961231,0.884633,0.888493,0.944523,0.953243,0.903992,0.904997,0.921408,0.921443,1.06766,1.02667,0.95107,0.924752,0.935821,0.935497,0.935462,1.07592,0.94867,0.946785,1.02044,1.02069,0.963105,1.0251,0.969157,0.970024,0.969302,1.11523,0.970296,1.06011,1.0602,0.952922,0.956551,0.957551,0.957284,0.967707,0.950072,0.957566,0.937727,0.916295,0.902358,0.911328,0.911178,0.918694,0.92941,0.909714,0.911358,0.939181,0.940915,0.952505,1.02168,1.02482,1.04695,1.0555,1.08087,1.14692,1.15636,1.15406,1.14058,1.1423,1.15469,1.15724,1.17407,1.1723,1.19761,1.21499,1.22388,1.22278,1.19824,1.27346,1.27429,1.27534,1.28077,1.29071,1.2287,1.22943,1.26601,1.27074,1.28562,1.2811,1.30522,1.31924,1.32339,1.38097,1.38886,1.38937,1.37216,1.36791,1.38823,1.38687,1.38049,1.37093,1.39552,1.4323,1.43611,1.43451,1.45012,1.45103,1.46822,1.46341,1.50291,1.5236,1.49179,1.52947,1.53731,1.55804,1.60458,1.6333,1.60931,1.68713,1.64131,1.65086,1.64028,1.64817,1.68214,1.65884,1.62882,1.66516,1.62371,1.66555,1.64246,1.60586,1.61489,1.60454,1.59453,1.58831,1.58783,1.5836,1.58328,1.56542,1.57095,1.5619,1.51852,1.52794,1.503,1.46835,1.46154,1.46196,1.45511,1.4555,1.48178,1.39502,1.40546,1.40219,1.37634,1.34083,1.33714,1.32278,1.31144,1.32106,1.31751,1.3117,1.3111,1.30675,1.28345,1.25921,1.26406,1.27368,1.2734,1.29421,1.30736,1.30718,1.30965,1.30667,1.30906,1.37546,1.30543,1.30467,1.31411,1.3192,1.32866,1.32975,1.3352,1.33623,1.38999,1.35091,1.35023,1.35092,1.35197,1.34975,1.35953,1.35769,1.36012,1.36242,1.36411,1.37379,1.37251,1.37739,0.0033695,1.38175,1.38136,1.38606,1.3888,1.55726,1.50347,1.56073,1.52761,1.43718,1.43974,1.44813,1.4466,1.44793,1.5481,1.54752,1.50402,1.49873,1.48913,1.49001,1.49588,1.57317,1.50365,1.58707,1.51978,0.00357615,1.54404,1.53965,1.54339,1.54882,1.55156,1.55396,1.55523,1.56948,1.5781,1.57608,1.57625,1.5786,1.57925,1.57942,1.66937,1.77981,0.00330118,1.6173,1.61681,1.61604,1.61695,1.62299,1.62191,1.62118,1.62768,1.62975,1.6345,1.63448,0.00362408,1.66768,0.00346473
0.760742,0.760228,0.763463,0.764074,0.763102,0.761198,0.760455,0.759547,0.757602,0.753397,0.745442,0.744815,0.74726,0.747204,0.746175,0.743613,0.874611,0.780989,0.888528,0.875546,0.752747,0.752805,0.758507,0.772634,0.76855,0.785817,0.79763,0.799176,0.797733,0.797201,0.873983,0.808,0.80488,0.804531,0.805442,0.807381,0.808574,0.807645,0.806561,0.80536,0.806115,0.804586,0.814084,0.817611,0.828347,0.827868,0.828263,0.832906,0.899262,0.873329,0.854349,0.850638,0.901418,0.856694,0.862518,0.86283,0.872863,0.872615,0.871838,1.00605,0.968318,0.888439,0.894552,1.04699,0.902724,0.90342,1.04559,0.909984,0.9338,1.04064,0.943642,0.925301,0.93186,0.987682,0.937703,1.04301,1.03435,0.951245,1.01521,0.955943,0.95754,0.960213,1.06059,1.07947,0.939755,0.939795,0.93326,0.935189,0.934213,0.947005,0.946715,0.946983,0.921777,0.916269,0.935368,0.91305,0.914437,0.902411,0.892714,0.900429,0.912932,0.913513,0.929272,0.992416,0.985587,1.01418,1.04378,1.07114,1.06711,1.10259,1.12943,1.13728,1.13748,1.13305,1.14406,1.1502,1.15496,1.17132,1.18292,1.19283,1.21252,1.21466,1.21572,1.21246,1.22723,1.23001,1.20838,1.22342,1.23311,1.24645,1.25204,1.26103,1.27611,1.27761,1.28853,1.28183,1.2988,1.32615,1.35285,1.31496,1.31542,1.3192,1.35506,1.37755,1.36689,1.37512,1.36798,1.38862,1.38148,1.42761,1.42797,1.43753,1.45961,1.48263,1.46109,1.45937,1.47457,1.4887,1.51941,1.54137,1.53996,1.56929,1.60475,1.60615,1.60583,1.66032,1.65469,1.66451,1.66169,1.66932,1.6715,1.67145,1.65261,1.65054,1.67607,1.65051,1.66087,1.63205,1.61365,1.61755,1.62698,1.5939,1.59837,1.5826,1.56738,1.57835,1.56891,1.55312,1.52619,1.54623,1.53042,1.48347,1.4618,1.46227,1.45047,1.48123,1.48111,1.37536,1.37498,1.38807,1.38614,1.35242,1.34816,1.33028,1.34287,1.34014,1.33339,1.3148,1.29817,1.29034,1.29622,1.2748,1.28053,1.27811,1.30896,1.30524,1.2959,1.29665,1.29638,1.29683,1.51889,1.30916,1.30559,1.30669,1.33118,1.33051,1.33292,1.33495,1.33397,1.33472,1.33421,1.34395,1.34131,1.34601,1.34502,1.34617,1.34633,1.46306,1.37433,1.37516,1.53458,1.3798,1.38211,1.39199,1.38897,1.38794,1.39129,1.39058,1.39907,1.40162,1.40326,1.40854,1.40813,1.50776,1.44765,1.45087,1.44338,1.4421,1.53822,1.47097,1.46749,1.46828,1.51256,1.57411,1.49957,1.50172,1.50676,1.51681,1.51691,1.59909,1.5406,1.53833,1.55388,1.55193,1.55246,1.56173,1.56881,1.57162,1.57535,1.57825,1.57878,1.57922,1.57879,1.59275,1.59832,1.59582,1.59255,1.75898,0.00364392,1.60848,1.68573,1.72665,0.00359685,0.00338288,0.00339995,1.63233,1.63146,1.64111,1.6407,1.69728
0.760283,0.760462,0.756337,0.756519,0.763344,0.752864,0.757456,0.756859,0.75995,0.759767,0.758186,0.739654,0.739718,0.743863,0.743146,0.735398,0.734743,0.733318,0.730623,0.780143,0.807311,0.741415,0.750255,0.844854,0.814667,0.770349,0.790089,0.789419,0.797834,0.798349,0.806435,0.809756,0.810087,0.810801,0.807727,0.806804,0.808273,0.80611,0.804924,0.805512,0.80556,0.804725,0.804169,0.804904,0.82092,0.822414,0.820481,0.822024,0.912425,0.911543,0.842361,0.842749,0.844755,0.85282,0.855377,0.861058,0.867353,0.872115,0.872186,0.868679,0.873617,0.873974,0.956667,0.886699,0.946269,0.935424,0.923682,0.947591,0.947837,0.951344,0.918827,1.02167,0.995007,1.05169,0.979998,0.980569,0.995328,1.01935,1.05358,0.943002,0.947854,0.948242,1.03666,0.93548,0.929547,0.926033,0.923785,0.914891,0.89263,0.92835,0.949945,0.936626,0.935848,0.915004,0.923677,0.921229,0.904136,0.916292,0.904857,0.918579,0.970983,0.959489,0.985958,0.983836,1.04254,1.04391,1.05642,1.0788,1.11502,1.08222,1.08266,1.12455,1.1402,1.13881,1.17763,1.14358,1.15657,1.16348,1.16751,1.17758,1.19166,1.19835,1.20871,1.20764,1.23118,1.22278,1.21559,1.21675,1.21578,1.22698,1.26019,1.25039,1.2522,1.25396,1.26121,1.296,1.2747,1.29634,1.30058,1.29266,1.28508,1.29937,1.31314,1.31016,1.3413,1.35526,1.37493,1.37432,1.37637,1.44019,1.43944,1.45322,1.4753,1.47084,1.48036,1.47885,1.50919,1.50494,1.5311,1.53678,1.54075,1.53732,1.56523,1.57457,1.59889,1.64348,1.67203,1.67902,1.65549,1.6855,1.66736,1.67273,1.6786,1.6917,1.66448,1.67154,1.66095,1.64981,1.6717,1.63385,1.61869,1.62681,1.62403,1.60569,1.58124,1.58263,1.57128,1.54891,1.55736,1.56447,1.56354,1.54906,1.54929,1.52892,1.47155,1.50926,1.41167,1.4376,1.43691,1.47944,1.46918,1.36797,1.40396,1.38022,1.33324,1.35715,1.33054,1.33855,1.33866,1.28535,1.30366,1.27385,1.28594,1.29877,1.28475,1.30279,1.33276,1.29197,1.31595,1.31313,1.30307,1.38488,1.40572,1.36754,0.00327537,1.32856,1.33052,1.33256,1.33344,1.33609,1.33685,1.33699,1.3351,1.3376,1.33913,1.34271,1.34669,1.35702,1.35729,1.36114,1.49306,1.45702,1.38074,1.45386,1.42086,1.42323,1.39205,1.39094,1.45516,1.40616,1.40837,1.40869,1.40866,1.41256,1.41972,1.50955,1.50995,1.5094,1.49223,1.54557,1.46905,1.46747,1.4702,1.47179,1.53098,1.48857,1.59553,1.51061,1.51138,1.51615,1.52378,1.61531,0.00342894,1.54503,1.55578,0.00330618,0.00344702,1.58167,1.58132,1.58185,1.58159,1.5817,1.58218,1.59506,1.59293,1.59185,1.58584,1.5849,1.58732,1.60249,1.60183,1.6006,1.59659,1.59968,1.59853,1.65616,1.62974,1.62695,1.64154,1.64443
0.739869,0.735573,0.73621,0.735191,0.734425,0.732768,0.745339,0.731098,0.759507,0.759342,0.739288,0.725318,0.724416,0.724882,0.727638,0.727664,0.723251,0.722837,0.723435,0.722381,0.723239,0.738757,0.744973,0.74325,0.741671,0.822311,0.776417,0.777661,0.805904,0.79786,0.798285,0.808589,0.808557,0.80884,0.808605,0.805956,0.803988,0.802183,0.802034,0.805172,0.802843,0.804193,0.80229,0.804194,0.807377,0.819127,0.819528,0.842145,0.00357958,0.821752,0.814523,0.837119,0.87892,0.883698,0.850856,0.850865,0.859936,0.864691,0.86354,0.862659,0.862405,0.956194,0.871539,0.870415,0.959614,0.959482,0.958284,0.96111,0.901748,0.94763,0.947658,0.998418,0.911174,0.911266,0.912754,0.913616,1.07374,0.967954,0.933425,0.942063,0.942507,0.941712,0.942699,0.949211,0.905117,0.90653,0.905408,0.904236,0.905347,0.90472,0.918579,0.918196,0.94617,0.923574,0.914187,0.92948,0.922139,0.923043,0.963095,0.990561,0.987695,1.00795,1.02514,1.03445,1.02201,1.0358,1.04595,1.06106,1.05984,1.09261,1.09815,1.11978,1.11924,1.13255,1.14137,1.16711,1.16816,1.15015,1.1717,1.17132,1.17735,1.18431,1.19343,1.20239,1.19433,1.19529,1.21167,1.20397,1.21806,1.21585,1.23384,1.2566,1.24643,1.29131,1.29212,1.30827,1.28155,1.30122,1.28174,1.28726,1.2917,1.28106,1.28158,1.30164,1.30518,1.34402,1.34576,1.34478,1.38296,1.39491,1.41932,1.41221,1.45396,1.42879,1.51045,1.50926,1.50253,1.52203,1.56508,1.5581,1.55639,1.53761,1.55846,1.54638,1.55562,1.65205,1.65806,1.5865,1.65572,1.637,1.68499,1.70613,1.68858,1.68697,1.66869,1.66824,1.69996,1.69605,1.67347,1.65881,1.64809,1.63729,1.62712,1.62701,1.60656,1.59827,1.6031,1.57378,1.60469,1.60932,1.61561,1.53367,1.53358,1.50486,1.50692,1.51651,1.49551,1.48144,1.4917,1.46654,1.39805,1.40623,1.39366,1.39813,1.38617,1.36359,1.35321,1.33491,1.32213,1.32073,1.30372,1.29914,1.26533,1.26673,1.2793,1.29771,1.2992,1.30892,1.27447,1.27435,1.26397,1.2646,1.26459,1.28198,0.00348528,1.30596,1.52308,1.44529,1.47885,1.46876,1.34083,1.33863,1.33924,1.34283,1.3415,1.34964,1.35027,1.35837,1.36011,1.36276,1.36397,1.48251,1.46732,1.43128,1.42701,1.48551,1.38408,1.38479,1.38564,1.39679,1.39829,1.3988,1.40832,1.40922,1.52056,1.41663,1.42186,1.5082,1.46012,1.45584,1.4567,1.46153,1.47215,1.47034,1.47776,1.48642,1.48553,1.49164,1.54438,1.54069,0.0033703,1.53733,1.52951,1.53769,1.55435,1.55484,1.55373,1.59882,1.58498,1.58676,1.58548,1.58677,0.00367823,1.59718,1.596,1.59565,1.58549,1.58368,1.58845,1.59384,1.59186,1.59503,1.59628,1.59956,1.61347,1.62076,1.61978,1.62215,1.62235,1.62679
0.731579,0.731192,0.732928,0.73282,0.72697,0.726697,0.730927,0.729689,0.726807,0.725931,0.725038,0.724964,0.724059,0.724313,0.71852,0.806369,0.807228,0.788605,0.760006,0.729165,0.807373,0.812489,0.817278,0.965588,0.749226,0.906955,0.753666,0.763988,0.762482,0.758551,0.824286,0.793323,0.79322,0.800345,0.800628,0.801199,0.801345,0.788385,0.854001,0.797168,0.797696,0.797961,0.795299,0.801212,0.802188,0.80044,0.800469,0.800504,0.808787,0.8131,0.814508,0.812097,0.811015,0.810539,0.883465,0.887084,0.850439,0.850814,0.856286,0.861258,0.86065,0.854043,0.854436,0.853822,0.853981,0.852823,0.852415,0.949313,0.950621,0.900348,0.961559,0.961419,0.972667,0.958816,0.957263,0.907555,0.908744,0.913909,0.914176,0.981132,0.931379,0.942371,0.932434,0.931532,0.90147,0.902397,0.919247,0.928352,0.930185,0.899574,0.922787,0.901762,0.90318,0.905113,0.923797,0.93955,0.972451,0.994986,0.995325,0.991147,1.01395,1.00916,1.02732,1.02833,1.03047,1.03367,1.03546,1.05167,1.06461,1.10516,1.10786,1.10854,1.13015,1.18178,1.18547,1.14738,1.15021,1.15072,1.14673,1.14659,1.14479,1.14666,1.17477,1.16975,1.16438,1.20843,1.21243,1.20325,1.20298,1.20431,1.22391,1.22836,1.24059,1.22804,1.24668,1.25314,1.2887,1.31886,1.2812,1.27694,1.29618,1.29465,1.27436,1.27449,1.29131,1.28594,1.29608,1.31347,1.34292,1.35598,1.35768,1.37161,1.37116,1.39998,1.42024,1.41991,1.53765,1.53776,1.54365,1.53848,1.54113,1.54561,1.54413,1.54349,1.56047,1.54236,1.53751,1.55676,1.57489,1.63068,1.63759,1.68271,1.68908,1.68424,1.68225,1.68319,1.67841,1.67749,1.68897,1.68256,1.67213,1.63396,1.64193,1.63299,1.63,1.60365,1.60776,1.58834,1.6064,1.58211,1.54052,1.53451,1.53468,1.51675,1.51633,1.55093,1.53028,1.45882,1.46875,1.45371,1.41565,1.455,1.41861,1.39845,1.36841,1.36478,1.3637,1.35167,1.32596,1.33341,1.3815,1.30508,1.2959,1.30498,1.29505,1.28368,1.30504,1.28324,1.23988,1.26726,1.26871,1.25306,1.27331,1.27218,1.29891,1.28281,1.45023,1.45279,1.46924,1.33642,1.34001,1.33776,1.33859,1.34214,1.34321,1.35439,1.3524,1.35322,1.35703,1.35696,1.35654,1.35891,1.36709,1.36703,1.36994,1.37473,1.43779,1.38442,1.38447,1.38495,1.39532,1.39499,1.39819,1.42241,1.40547,1.40505,1.40586,1.40715,1.53384,1.53415,1.56978,1.44817,1.52034,1.46477,1.46506,1.48576,1.49165,1.49005,1.49004,1.49682,1.52101,1.56364,0.00326905,1.53969,1.54205,1.54531,1.55462,0.00346815,1.64194,0.00379025,0.00453101,1.59964,1.59917,1.60209,1.60186,0.00334423,1.58126,1.57596,1.57506,1.57861,1.58076,1.58826,1.58806,1.58667,1.58915,1.60372,1.61069,1.62289,1.62262,1.62296
0.709252,0.700628,0.70026,0.71105,0.710817,0.734118,0.734729,0.73312,0.724572,0.722219,0.720322,0.717123,0.0033414,0.727904,0.725944,0.733935,0.802663,0.729218,0.800006,0.801612,0.708045,0.70705,0.816608,0.822808,0.832879,0.731548,0.731549,0.771115,0.754335,0.756701,0.758029,0.822206,0.783784,0.00341461,0.798842,0.778367,0.777781,0.777196,0.774832,0.788304,0.794349,0.79359,0.795119,0.795016,0.791442,0.791185,0.791581,0.792444,0.79421,0.794158,0.853773,0.808891,0.808943,0.907476,0.906312,0.88752,0.93361,0.839387,0.838735,0.8593,0.857818,0.857013,0.859231,0.854634,0.853954,0.851229,0.850721,0.854108,0.9015,0.871333,0.947954,0.937211,0.88978,0.888708,0.896116,0.897303,0.90134,0.907687,0.904594,0.91847,0.919447,0.940376,0.924967,0.929562,0.929697,0.896649,0.861215,0.918116,0.923783,0.922243,0.918775,0.961227,0.937369,0.940066,0.936405,0.931507,0.936246,0.956864,0.977661,0.980007,0.990464,1.03696,1.03298,1.03275,1.02257,1.02745,1.0282,1.0622,1.05801,1.0546,1.08526,1.06742,1.11569,1.13612,1.13378,1.15764,1.14978,1.15053,1.15693,1.15833,1.14558,1.14602,1.15487,1.17185,1.18953,1.18921,1.20006,1.2226,1.19367,1.19329,1.20326,1.21223,1.21876,1.23298,1.22864,1.25079,1.25042,1.26861,1.26488,1.26649,1.28541,1.28604,1.28764,1.26896,1.28604,1.2814,1.26981,1.26749,1.32829,1.25725,1.31866,1.33103,1.36062,1.36074,1.36751,1.46529,1.40745,1.52673,1.52579,1.53543,1.56126,1.55172,1.54019,1.52017,1.52026,1.55506,1.54279,1.55006,1.56846,1.57954,1.60005,1.58142,1.68908,1.68626,1.68713,1.7271,1.71431,1.71115,1.68492,1.68241,1.68888,1.66641,1.66772,1.70959,1.64943,1.6302,1.63783,1.63206,1.62473,1.61232,1.61238,1.56631,1.57014,1.57081,1.59542,1.51407,1.50525,1.51944,1.48187,1.45119,1.44992,1.48699,1.45466,1.44767,1.37413,1.36252,1.38184,1.38069,1.36461,1.34787,1.32004,1.3047,1.31585,1.30844,1.29343,1.25819,1.2607,1.26052,1.25792,1.26895,1.249,1.2526,1.26268,1.24766,1.223,1.22376,1.29445,1.38129,1.31656,1.31578,1.34727,1.3356,1.33479,1.33803,1.33963,1.34389,1.34462,1.34497,1.35881,1.35522,1.3567,1.35702,1.35817,1.3592,1.3603,1.36777,1.45381,1.37463,1.38354,1.38423,1.38193,1.39839,1.38903,1.39307,1.82654,1.40161,1.40562,1.40518,1.48633,1.56266,1.53942,1.44601,1.44713,1.45703,1.46093,1.54882,1.47665,1.55053,1.49389,1.49442,1.49609,1.51296,1.51588,1.51705,1.61617,0.00328418,0.0037051,1.56133,1.65367,1.56844,0.00354467,0.00392346,0.0036211,0.00327268,0.00402428,1.57968,1.57564,1.57223,1.57101,1.57027,1.65178,1.58471,1.58222,1.58098,1.63816,1.6641,1.67967,1.61753,1.64652,1.62589
0.698862,0.698704,0.699345,0.701311,0.714608,0.715418,0.708968,0.71145,0.710993,0.70886,0.708333,0.707307,0.00365153,0.754206,0.765563,0.00366115,0.728857,0.693459,0.685989,0.814988,0.725594,0.700449,0.909411,0.709196,0.711258,0.711414,0.836258,0.846242,0.766975,0.855973,0.835732,0.895143,0.876128,0.784664,0.858486,0.804657,0.773117,0.772429,0.772792,0.776727,0.777031,0.776328,0.788617,0.787569,0.79201,0.79113,0.790167,0.788827,0.788856,0.790557,0.793862,0.856947,0.849925,0.852805,0.907484,0.865744,0.912476,0.860965,0.831042,0.941035,0.848391,0.849129,0.848084,0.93268,0.848574,0.84964,0.848216,0.958362,0.910779,0.915139,0.955815,0.872868,0.874589,0.884384,0.92851,0.89434,0.894641,0.89329,0.893023,0.892411,0.922682,0.930275,0.90752,0.914536,0.914773,0.92215,0.922861,0.895476,0.894315,0.901753,0.948005,0.953014,0.941738,0.931727,0.941415,0.967843,0.949431,0.94949,0.965455,1.00286,0.998532,1.00584,1.01984,1.04042,1.02013,1.02617,1.02895,1.04128,1.04161,1.04339,1.06078,1.06438,1.06312,1.11554,1.15032,1.09814,1.11359,1.11363,1.11962,1.12663,1.13393,1.14001,1.15086,1.13612,1.12738,1.13637,1.13455,1.13473,1.14805,1.15078,1.16174,1.17503,1.20598,1.20534,1.20445,1.21253,1.24299,1.23302,1.24311,1.24524,1.24921,1.25374,1.26474,1.2627,1.27579,1.28439,1.21871,1.2122,1.21549,1.26159,1.25555,1.23868,1.26097,1.27746,1.30914,1.31923,1.37615,1.3759,1.48608,1.49288,1.47293,1.57101,1.57044,1.56818,1.57474,1.60641,1.61276,1.55512,1.5614,1.55763,1.58118,1.6074,1.69897,1.68539,1.68481,1.69968,1.78701,1.71975,1.71993,1.72375,1.69922,1.69975,1.67208,1.67238,1.656,1.64833,1.65148,1.65755,1.63116,1.62308,1.64447,1.56989,1.58656,1.60357,1.52281,1.52624,1.53908,1.5395,1.50547,1.47535,1.47551,1.47696,1.47178,1.42817,1.39966,1.37548,1.369,1.36522,1.34953,1.33743,1.30728,1.32109,1.32211,1.29692,1.26712,1.24022,1.25581,1.21539,1.2215,1.22806,1.21855,1.22525,1.17955,1.24318,1.20355,1.22544,1.23842,1.24018,1.3292,1.34031,1.31639,0.00306581,1.33932,1.32999,1.32909,1.33468,1.34324,1.34109,1.34207,1.34665,1.34438,1.34487,1.38593,1.3478,1.51419,1.35908,1.43022,1.43023,1.37026,1.37462,1.37555,1.37669,1.38505,1.38906,1.44239,1.40372,1.40208,1.40136,1.41141,1.48602,1.43125,1.43626,1.54759,0.0032939,1.4645,1.46558,1.4719,1.48204,1.48216,1.48694,1.49843,1.49684,1.49848,1.52047,1.6063,1.53139,0.00367119,0.00351276,0.00342589,1.56449,1.56763,1.57647,1.57493,1.57786,1.57521,1.61075,1.56108,0.00320006,1.5597,1.55831,1.65674,1.65742,1.57047,1.569,1.57081,1.6624,1.61813,1.65552,1.66106,0.00359055
0.681479,0.681639,0.681814,0.805344,0.811916,0.708719,0.003579,0.770859,0.694484,0.689132,0.68774,0.68532,0.686022,0.68264,0.686691,0.685642,0.00361515,0.680252,0.679406,0.824653,0.684685,0.685033,0.00354655,0.73587,0.00332899,0.721812,0.717899,0.784444,0.77432,0.76937,0.00367167,0.717742,0.716401,0.714808,0.726013,0.811434,0.866157,0.82061,0.769916,0.764177,0.763432,0.778829,0.778009,0.760489,0.767346,0.933513,0.781362,0.780035,0.777431,0.789651,0.833752,0.796104,0.00316956,0.802321,0.79408,0.852117,0.863922,0.820228,0.820619,0.829863,0.842889,0.870676,0.836816,0.880737,0.891091,0.833424,0.832676,0.8982,0.850867,0.856709,0.868833,0.868843,0.86756,0.865452,0.864587,0.871132,0.870518,0.86987,0.864642,0.868616,0.872968,0.908366,0.908097,0.912323,0.925204,0.909829,0.900394,0.90537,0.947884,0.931615,0.953891,0.94226,0.943788,0.928107,0.932596,0.93657,0.93872,0.953992,0.985639,0.998912,1.01264,1.01305,1.01571,1.02023,1.02632,1.03014,1.01677,1.05654,1.05678,1.09068,1.07175,1.06472,1.05791,1.08867,1.1196,1.08153,1.08196,1.09317,1.12283,1.1063,1.16086,1.18224,1.1737,1.17452,1.16406,1.14742,1.14477,1.13404,1.13149,1.15092,1.1497,1.16079,1.15867,1.17139,1.16469,1.19595,1.2006,1.19521,1.21056,1.18704,1.19997,1.20206,1.23624,1.22867,1.22593,1.22347,1.20254,1.17171,1.17728,1.19747,1.17673,1.18704,1.34694,1.32618,1.28549,1.28583,1.32309,1.38655,1.4233,1.41323,1.43689,1.45268,1.4514,1.57395,1.57466,1.60936,1.57091,1.55637,1.56563,1.56547,1.5894,1.58791,1.60423,1.64696,1.67264,1.69543,1.70339,1.82524,1.84172,1.69524,1.69459,1.68369,1.682,1.68316,1.67631,1.65428,1.67244,1.66837,1.64459,1.62469,1.63056,1.62312,1.58588,1.5779,1.59773,1.58218,1.5357,1.50839,1.50587,1.46452,1.463,1.44463,1.44348,1.43438,1.41155,1.37512,1.35686,1.34013,1.33347,1.35011,1.30153,1.33823,1.28504,1.2773,1.24707,1.24686,1.25396,1.24635,1.23816,1.20972,1.2017,1.19334,1.19803,1.20067,1.19107,1.22888,1.26606,1.32783,1.27133,1.34688,1.348,1.32331,1.36393,1.32113,1.32617,1.32893,1.33013,1.33194,1.33987,1.33741,1.33798,1.34068,1.34048,1.34156,1.34186,1.34666,1.35066,1.35201,1.36686,1.36545,1.36884,1.3709,1.37138,1.37412,1.37824,1.38007,1.39881,1.39858,1.40175,1.40236,1.46433,1.5041,1.50202,1.44108,1.44682,1.44748,1.56919,1.50278,1.48226,1.47866,1.48471,1.48984,1.4916,1.49749,0.00319832,1.51362,0.00329008,1.6248,0.00317962,0.00366229,0.00334325,1.57071,1.57538,1.62324,1.59921,1.60105,1.55339,1.55166,1.54947,1.55818,1.5569,1.55768,1.55898,1.56362,1.56237,1.56239,0.00310627,1.6145,0.00338544,1.5958
0.664469,0.678319,0.670343,0.669157,0.669774,0.674954,0.677353,0.680541,0.677809,0.676531,0.672752,0.683238,0.677596,0.676861,0.704976,0.762817,0.674018,0.665886,0.665316,0.776688,0.665868,0.666308,0.666399,0.667498,0.666956,0.68026,0.80191,0.901817,0.862827,0.798873,0.765031,0.712705,0.936023,0.806813,0.838909,0.793561,0.809553,0.797768,0.761021,0.761514,0.762124,0.756776,0.747702,0.888776,0.756937,0.90679,0.764605,0.764098,0.770331,0.771052,0.777612,0.781542,0.780995,0.954712,0.85069,0.789301,0.788267,0.872028,0.871463,0.807555,0.950693,0.825897,0.824699,0.823381,0.829213,0.830112,0.828312,0.826907,0.843069,0.843389,0.850067,0.85011,0.850452,0.851451,0.841159,0.848262,1.02553,0.927987,0.863179,0.869394,0.869707,0.86961,0.911032,0.90073,0.878548,0.878446,0.947759,0.933647,0.922232,0.911194,0.930369,0.907814,0.919306,0.91883,0.960273,1.0597,0.959419,0.981322,0.974436,0.983852,0.98415,1.00946,1.01164,1.04914,1.05145,1.01516,1.0165,1.08763,1.02632,1.02641,1.03384,1.05002,1.06686,1.05264,1.05546,1.08045,1.09259,1.10438,1.10497,1.10695,1.15745,1.15359,1.1678,1.15332,1.14693,1.14498,1.15154,1.1598,1.15753,1.12407,1.14348,1.14078,1.14038,1.14701,1.12956,1.14305,1.14598,1.12234,1.12259,1.18437,1.18458,1.17734,1.18764,1.19615,1.16641,1.16751,1.17656,1.21558,1.16908,1.17092,1.17364,1.18799,1.18641,1.32007,1.33887,1.33295,1.26875,1.26731,1.32585,1.42422,1.45155,1.44365,1.4417,1.47581,1.52129,1.52135,1.54775,1.54696,1.56925,1.56505,1.63354,1.60329,1.61718,1.68525,1.68797,1.68017,1.68757,1.68889,1.69666,1.69531,1.69532,1.69402,1.66894,1.68178,1.66367,1.64686,1.64498,1.6404,1.64392,1.64469,1.62342,1.62004,1.61591,1.57955,1.60105,1.53819,1.52006,1.52082,1.4939,1.45418,1.47074,1.45432,1.45114,1.45031,1.45443,1.36007,1.34834,1.34667,1.34669,1.32994,1.36131,1.3553,1.30584,1.28537,1.27677,1.27845,1.28006,1.2854,1.29104,1.33106,1.33227,1.196,1.20188,1.19445,1.19522,1.18945,1.21662,1.55498,1.26592,1.4681,1.33995,1.48912,1.30171,1.51266,1.34178,1.32712,1.33405,1.32746,1.33054,1.32937,1.33263,1.33583,1.33558,1.3362,1.33686,1.33802,1.3451,1.34367,1.46765,1.35933,1.36169,1.36225,1.36746,1.36768,1.37533,1.37611,1.43707,1.41186,1.40228,1.40042,1.40148,1.42802,1.42078,1.4236,1.43286,1.43577,1.44417,1.45432,1.52418,1.58666,1.50695,0.00330317,1.48996,1.49192,1.49211,1.49394,1.51308,0.00336602,1.52618,1.53741,1.55858,0.00368043,0.00356884,1.55279,1.58369,1.53593,1.53451,0.00376619,1.54534,1.54466,1.54341,1.54013,1.60577,1.5516,1.55896,1.56002,1.56216,1.56092,1.56206,1.55955
0.761611,0.663539,0.663775,0.663691,0.67006,0.671587,0.676955,0.678026,0.676355,0.676659,0.6704,0.667977,0.668932,0.661958,0.660854,0.660746,0.666094,0.665089,0.661082,0.660459,0.660694,0.663786,0.663041,0.666346,0.663935,0.667134,0.668037,0.672122,0.793355,0.676695,0.680699,0.681148,0.6843,0.693824,0.693926,0.701568,0.00322818,0.00361606,0.781369,0.736048,0.797798,0.732494,0.734944,0.738078,0.746649,0.746375,0.748023,0.74729,0.761473,0.836473,0.843143,0.770935,0.770078,0.769227,0.832613,0.78473,0.85052,0.848323,0.883603,0.800919,0.803065,0.801459,0.80193,0.819172,0.821564,0.825451,0.825759,0.825873,0.826289,0.87031,0.872759,0.842351,0.840575,0.838336,0.86497,1.04599,0.968325,0.957548,0.89165,0.884948,0.885441,0.876302,0.844205,0.845801,0.836114,0.869344,0.878063,0.903666,0.905918,0.904652,0.919713,0.92008,0.923313,0.936638,0.947181,0.94139,0.969788,0.946617,0.962343,0.981642,1.00445,1.02929,1.02644,1.02879,1.02018,1.03622,1.03709,1.06414,1.03153,1.02513,1.0323,1.02754,1.02742,1.03268,1.04747,1.15085,1.09145,1.13277,1.13232,1.1408,1.14109,1.14077,1.1312,1.15424,1.10565,1.11683,1.09212,1.09768,1.08922,1.10705,1.0989,1.09827,1.10932,1.11242,1.11332,1.09511,1.09841,1.11264,1.11864,1.18765,1.18754,1.18223,1.14764,1.14752,1.16788,1.17462,1.1829,1.19498,1.16539,1.16433,1.17473,1.18353,1.18756,1.17897,1.2708,1.27054,1.23254,1.23104,1.25803,1.25551,1.24775,1.29972,1.42599,1.45128,1.48607,1.49097,1.5354,1.57656,1.58963,1.57797,1.59653,1.63186,1.61818,1.61814,1.63634,1.68859,1.68823,1.66421,0.00332175,1.65251,1.65203,1.65224,1.67225,1.64262,1.64406,1.64826,1.64313,1.63167,1.64933,1.62495,1.64013,1.61416,1.57394,1.58131,1.56861,1.6077,1.51269,1.50639,1.4839,1.48837,1.46456,1.46579,1.44594,1.56867,1.46462,1.43765,1.4534,1.33857,1.34352,1.3173,1.35466,1.3308,1.31235,1.2871,1.28653,1.28492,1.26581,1.27575,1.27604,1.27523,1.27831,1.21741,1.2195,1.19517,1.19421,1.19177,1.18024,1.18078,1.26053,1.46541,1.28747,1.28807,1.29147,1.36476,1.37478,1.31563,1.31629,1.32734,1.32701,1.32602,1.32767,1.32926,1.33389,1.33368,1.3303,1.33098,1.33366,1.43296,1.35281,1.357,1.36109,1.3634,1.36456,1.36625,1.36947,1.37155,1.37708,1.39163,1.45084,1.38739,1.46181,1.42056,1.41299,1.42942,1.42825,1.43271,1.47229,1.44455,1.54072,1.45772,1.45729,1.46554,1.47334,1.54142,0.00344906,1.49627,0.0034243,1.51091,1.50928,1.53799,0.00347706,1.54389,0.00343989,1.54419,0.00348003,1.53156,1.61564,1.52941,1.52687,1.5318,1.53056,1.53691,1.53667,1.63414,1.5443,1.54667,0.00319269,1.55155,1.55386,1.55254
0.767689,0.00358091,0.662992,0.66115,0.659963,0.668934,0.667968,0.674483,0.67289,0.672454,0.660397,0.66306,0.662782,0.662114,0.667399,0.662913,0.663555,0.665526,0.654253,0.654562,0.655832,0.656798,0.657825,0.661221,0.663631,0.663691,0.664313,0.675705,0.675371,0.675167,0.681572,0.681613,0.679672,0.676744,0.675785,0.673701,0.694735,0.862203,0.709067,0.720486,0.720557,0.72236,0.826178,0.732081,0.732386,0.739276,0.739373,0.739506,0.819124,0.739464,0.844017,0.843527,0.859602,0.859547,0.773291,0.775345,0.775815,0.83293,0.00332969,0.816539,0.797455,0.797856,0.801358,0.80165,0.830045,0.811634,0.813529,0.976888,0.817518,0.817264,0.826626,0.00362128,0.888165,0.945848,0.932504,0.909628,0.862981,0.88081,0.882588,0.881806,0.843071,0.844804,0.835721,0.836539,0.834829,0.845108,0.853639,0.866709,0.882938,0.883691,0.913378,0.915228,0.932548,0.931768,0.938563,0.950448,0.949537,0.963778,0.980515,1.0022,1.00832,1.00467,1.05481,1.09709,1.09273,1.09444,1.09172,1.0533,1.06415,1.054,1.05688,1.03744,1.05661,1.03224,1.0326,1.12363,1.08699,1.12619,1.12559,1.12168,1.1462,1.14545,1.14658,1.10513,1.09219,1.06563,1.05845,1.11877,1.1174,1.10868,1.08429,1.08714,1.0868,1.10109,1.09316,1.11198,1.10666,1.10767,1.11172,1.10668,1.11912,1.14369,1.14314,1.17692,1.17858,1.17935,1.1715,1.18604,1.19142,1.20143,1.16736,1.16758,1.17612,1.18868,1.18498,1.17902,1.20613,1.21205,1.20959,1.24383,1.2302,1.31263,1.31971,1.44109,1.44793,1.43372,1.57115,1.57199,1.58198,1.58226,1.6055,1.6031,1.63061,1.64334,1.6469,1.64808,1.63656,1.63748,1.6534,1.66833,1.65699,1.65251,1.65084,1.65827,1.64016,1.65708,1.64196,1.64073,1.648,1.62085,1.6124,1.60945,1.57872,1.60908,1.6072,1.54038,1.54695,1.54393,1.56211,1.50827,1.57134,1.54988,1.47838,1.45623,1.45113,1.47749,1.4481,1.3646,1.32689,1.30959,1.34768,1.28994,1.32285,1.28435,1.28462,1.2678,1.25443,1.28615,1.28727,1.29135,1.21269,1.21497,1.22576,1.19569,1.20325,1.19453,1.19888,1.1995,1.23836,1.27144,1.27722,1.27756,0.00333917,1.44314,1.44302,1.31065,1.31507,1.31806,1.3176,1.31639,1.31703,1.32212,1.32338,1.32444,1.32156,1.32054,1.32439,1.32521,1.35474,1.35491,1.35917,1.35429,1.36066,1.36145,1.38274,1.53327,1.37938,1.37925,1.38426,1.38742,1.38808,1.38926,1.45613,0.00323649,1.42047,1.42233,1.43179,1.43501,1.44032,1.45336,1.46004,1.46203,1.56129,1.4727,1.47934,1.47808,1.56434,1.50205,1.50741,0.00346689,1.57061,0.0032994,1.53391,1.53302,1.57189,0.00385646,0.00327638,1.50971,1.59172,0.00354648,0.0034465,1.52633,1.5206,1.61524,1.52902,1.52854,1.53128,1.53484,1.53487,1.5474
0.632286,0.787839,0.781834,0.655329,0.729252,0.678093,0.679701,0.676284,0.67425,0.658509,0.657372,0.653017,0.64325,0.666116,0.666269,0.6543,0.652512,0.654101,0.644393,0.643142,0.643122,0.653699,0.65322,0.656469,0.655352,0.653776,0.691151,0.673379,0.673915,0.675984,0.678904,0.678443,0.674813,0.674541,0.674313,0.672616,0.691973,0.691402,0.697064,0.698224,0.708823,0.708181,0.710552,0.710486,0.726981,0.726089,0.724201,0.718712,0.920472,0.737038,0.737526,0.740772,0.742815,0.742479,0.747621,0.746949,0.871175,0.793861,0.00358359,0.883676,0.809024,0.8089,0.00303976,0.78916,0.788266,0.800241,0.804682,0.803502,0.911349,0.802133,0.914153,0.813823,0.817141,0.967427,0.802893,0.803038,0.863489,0.821911,0.806484,0.867303,0.876594,0.812168,0.828688,0.82808,0.842833,0.811183,0.832104,0.839444,0.877118,0.892001,0.890413,0.898709,0.938096,0.950533,0.967969,0.967648,0.999006,0.984435,0.984469,1.0117,1.00121,1.02562,1.02895,1.04972,1.08823,1.08332,1.07463,1.07387,1.07747,1.06287,1.04546,1.04571,1.0427,1.04248,1.04067,1.07316,1.05854,1.08649,1.10156,1.08311,1.09076,1.08502,1.08404,1.08403,1.06348,1.06036,1.05745,1.05383,1.03943,1.05242,1.0875,1.06852,1.10145,1.08093,1.09254,1.09508,1.10808,1.11662,1.11244,1.12514,1.11632,1.12202,1.11091,1.17602,1.14292,1.15026,1.13381,1.13463,1.20129,1.14648,1.14776,1.19096,1.19174,1.18982,1.17588,1.18682,1.18926,1.1732,1.19168,1.19129,1.20489,1.20274,1.27002,1.33126,1.33262,1.33456,1.42059,1.42156,1.46818,1.5848,1.59634,1.60288,1.67949,1.62639,1.63683,1.61066,1.61821,1.61818,1.63028,1.63038,1.64947,1.64656,1.64061,1.63357,1.63329,1.61677,1.6244,1.62048,1.59246,1.59257,1.60376,1.58318,1.59168,1.6078,1.60939,1.58755,1.54767,1.5305,1.57063,1.50828,1.50781,1.48093,1.47588,1.46431,1.46836,1.45904,1.45063,1.37813,1.39173,1.31772,1.29907,1.3067,1.34468,1.33809,1.27222,1.23806,1.23683,1.26145,1.24396,1.25007,1.23492,1.23507,1.2143,1.22277,1.20963,1.2138,1.19695,1.21249,1.22018,1.2394,1.26611,1.26773,1.32388,1.52006,1.4553,1.30615,1.30608,1.31217,1.31872,1.3154,1.31491,1.31761,1.32271,1.32221,1.31878,1.31896,1.31989,1.32593,1.35711,1.34678,1.35008,1.35062,1.35511,1.36305,1.36349,1.39736,1.38357,1.39216,1.51878,1.38131,1.38514,1.46531,1.4055,1.40495,1.41214,1.42252,1.43143,1.43067,1.50066,1.44372,1.44379,1.45069,1.45032,1.46439,1.46958,1.48168,1.49722,1.4981,0.00348092,0.00336378,0.00345622,0.00346159,1.52822,1.53035,0.0032107,1.58239,1.49876,1.49759,1.64379,0.00325923,1.60173,1.51004,1.51393,1.59597,1.61172,1.61348,0.00322232,1.6267,1.52596,1.52624
0.630913,0.633381,0.00370337,0.652376,0.786295,0.00333971,0.671595,0.6705,0.66711,0.00326864,0.646232,0.644134,0.633982,0.638048,0.638242,0.639735,0.642155,0.641903,0.643374,0.643382,0.644261,0.645176,0.644452,0.645216,0.648349,0.695771,0.697263,0.00307528,0.673198,0.673565,0.672542,0.00336047,0.666185,0.668685,0.670217,0.669497,0.785038,0.795842,0.692653,0.692041,0.692022,0.691595,0.710165,0.708137,0.706777,0.706447,0.712876,0.709077,0.709002,0.718689,0.721646,0.739714,0.740651,0.740188,0.739955,0.736607,0.80726,0.813297,0.825496,0.00341527,0.795665,0.814638,0.864395,0.836069,0.769875,0.779329,0.789066,0.790299,0.875066,0.884808,0.806323,0.807135,0.806906,0.807513,0.803405,0.826656,0.817408,0.822628,0.77889,0.804951,0.804164,0.818149,0.801687,0.843139,0.803675,0.813263,0.857537,0.869354,0.887123,0.893401,0.904246,0.94595,0.953272,0.964172,0.984033,0.991525,0.99095,0.999941,1.01047,1.00768,1.01809,1.05394,1.04579,1.04397,1.04369,1.04183,1.07107,1.07621,1.07528,1.07578,1.07484,1.07331,1.07409,1.06458,1.06016,1.05567,1.05727,1.10548,1.09322,1.08568,1.08778,1.0633,1.09232,1.09464,1.04631,1.04654,1.07426,1.07392,1.04219,1.07692,1.09558,1.08488,1.08237,1.07333,1.05842,1.06499,1.06235,1.06318,1.06688,1.0749,1.08191,1.11244,1.11236,1.11218,1.10117,1.11685,1.13264,1.11559,1.11796,1.13829,1.13921,1.15353,1.15262,1.17388,1.1751,1.17452,1.17463,1.17762,1.17004,1.19355,1.19286,1.19213,1.19209,1.25027,1.25014,1.25208,1.25641,1.30507,1.36522,1.35833,1.44154,1.47321,1.54669,1.5599,1.59486,1.57163,1.5709,1.57102,1.58478,1.60902,1.60694,1.57942,1.61618,1.58506,1.59547,1.59191,1.63941,1.57677,1.5688,1.55426,1.58811,1.57906,1.54826,1.54959,1.55125,1.53606,1.52238,1.54242,1.541,1.51476,1.51253,1.52383,1.48096,1.43538,1.43409,1.40065,1.41306,1.38283,1.39339,1.41031,1.31862,1.30353,1.33691,1.33927,1.26282,1.25844,1.23724,1.23977,1.215,1.24652,1.20022,1.20524,1.25981,1.20438,1.19196,1.20177,1.19927,1.19345,1.2058,1.25046,1.28174,1.24852,1.50865,1.32254,0.0033636,1.37593,1.35511,1.3053,1.30576,1.30745,1.3175,1.31934,1.31758,1.32019,1.32355,1.32316,1.31882,1.31916,1.32579,1.32734,1.44804,1.34636,1.34778,1.35752,1.35684,1.35828,1.36555,1.36477,1.36811,1.37721,1.37589,1.40167,1.39942,1.39475,1.413,1.40923,1.42033,1.42066,1.42941,1.44568,1.50347,1.44904,1.45012,0.00334033,1.4687,0.00312816,1.4797,1.4792,1.50281,1.50164,1.51033,0.00300827,1.53454,0.00331604,1.5602,0.00316264,1.4964,1.49329,1.49252,1.49464,1.49924,1.49931,1.50161,1.49924,1.49844,1.49998,1.51037,1.51473,1.51356,1.51588
