0.00409205910193279,0.00358871255493961,0.00405264704152147,0.00356507088399611,0.00401032163473207,0.00350331733823166,0.00384244487738243,0.00350155333073762,0.00400135358643839,0.00359399721971181,0.00417555694433412,0.00365853832895539,0.00418041579489156,0.00378457191708598,0.00433412258649339,0.00388267847430424,0.00418194498488936,0.00396667707217619,0.00437430689867349,0.0043033232426601,0.00446699389962763,0.00490915679973274,0.00455152487489319,0.00524325758779341,0.00436021771660351,0.148816877114215,0.342252990493773,0.370537798075993,0.365848988366386,0.366257430418125,0.364059513880818,0.361679163137987,0.375897991614738,0.37109157452833,0.379019460783511,0.330275972570841,0.316968789545506,0.333058409763128,0.345836987245606,0.325925433166714,0.302657714342453,0.29851416723468,0.295804471016858,0.312554875000173,0.320348556269129,0.329386744000403,0.349441247709271,0.353619114270213,0.369943826936234,0.354366101389141,0.351088698397449,0.350697984908896,0.350237139603697,0.409572162876207,0.464845069933121,0.460005941626844,0.498413823067047,0.499466692754641,0.4977176282021,0.493318047350359,0.490235091576291,0.490389457174507,0.491816014676958,0.520403609324038,0.532904227546763,0.567502425389906,0.632659229111007,0.604185100704778,0.58549656828927,0.585748748951379,0.586135381306096,0.593460187491274,0.59878901295582,0.639819405908274,0.681147155140588,0.681345056101457,0.683265741998381,0.684557593077589,0.688633371111941,0.689575991057296,0.690578533207097,0.697307875411406,0.70036397756989,0.701380336750232,0.703446539058411,0.703528305027303,0.704825793446547,0.726579469427729,0.739366201540874,0.737579051945375,0.736816524272516,0.740781412169108,0.749430253215831,0.74619323450333,0.739903277348317,0.746300566067179,0.756048236146415,0.758669001159766,0.760107295619543,0.758399892318613,0.754252724594644,0.752428493651588,0.75327232155185,0.757667165623914,0.763377996317271,0.764300176754333,0.774389968442615,0.770318631286987,0.767632800077267,0.759854891299089,0.752025363204707,0.755962829201611,0.775997295445544,0.769463013226004,0.892917000085969,0.799080775118557,0.797880573110727,0.798250094211841,0.797384914859978,0.794632563854813,0.794283012964426,0.795854534299466,0.798860919587322,0.790753140136563,0.783291381451172,0.78085946280163,0.77494069152941,0.77583804447956,0.778945355019558,0.778005019497906,0.778838520680571,0.79209509427593,0.794707543411246,0.800813756075133,0.807353098163575,0.811787189567194,0.814763102296144,0.810586561948749,0.807916632612876,0.802540829016721,0.800451448353515,0.801448665014673,0.805603637370198,0.805873724225837,0.806957543732709,0.811084445929311,0.812477128587929,0.816931139904228,0.843932255713789,0.844566969343869,0.841298489558877,0.83979037763762,0.842972886969598,0.852961338726832,0.87893113339931,0.854965607514905,0.844793666548902,0.846764682992008,0.849735476676533,0.849458299223084,0.848816540282806,0.838053806445082,0.830663984001787
0.00353857246479363,0.00386756223239349,0.00351538562114635,0.00389163011342055,0.00359323099213119,0.00389329186439995,0.00352537752922422,0.00389320368667273,0.00359595323495559,0.00392909232953382,0.00359660654267669,0.00397371351970927,0.0036711014939849,0.00410801824623209,0.00377873472944382,0.00427788180215726,0.003961795586816,0.00446351927298848,0.00415622128889523,0.00474119625127402,0.00445936082653498,0.00517343956988662,0.00482487208985063,0.00536763506003109,0.00489780456783523,0.13043192419523,0.355400376576925,0.371836384578567,0.369390908537638,0.368229294721505,0.366319221449374,0.361572475873808,0.361299203254068,0.363186099924792,0.362172640904703,0.320603328924211,0.311372153687835,0.308027602907709,0.306666026791476,0.306012082533678,0.301236843810844,0.297500564345738,0.296143956866625,0.307527852290893,0.319664809652763,0.321762646228742,0.328117918323095,0.33407435970668,0.339379184394781,0.344229850013767,0.352046384035212,0.351324374486031,0.350594362577256,0.385352774635873,0.406435825791534,0.429455260232911,0.455874783436946,0.467580120223239,0.483745521676764,0.485467686280242,0.488207313535843,0.489466709496845,0.499174005381859,0.50891809529407,0.51902680628519,0.528657125209128,0.538784623791681,0.549539260281421,0.560895073747911,0.572049525949692,0.587000115519352,0.591500651763533,0.593564034795851,0.618275203535881,0.682056695070461,0.682187924030862,0.683545980062566,0.684855200108029,0.687515452008738,0.689679405991793,0.691576622792292,0.695320738618377,0.698091171268491,0.700530355311209,0.702174870201812,0.702815405135424,0.703578973327438,0.711773471438017,0.717564819927266,0.723501707926821,0.730744547454137,0.735089709602771,0.748377269031523,0.746660437707781,0.743381237762122,0.742358841506771,0.741749354069645,0.741426867629268,0.74331279182731,0.745081456900873,0.748756108679972,0.749963657519058,0.750959352978315,0.751436144661822,0.750785162743043,0.750268389411502,0.751209740288154,0.752449289435575,0.75335287429271,0.75427268923674,0.755058904340068,0.757581813816242,0.759547363930023,0.764510935844564,0.768535846022569,0.772008538841589,0.779021546125657,0.78606536753955,0.796027959155218,0.794053521630406,0.793711996051065,0.797376697072181,0.799708494004561,0.789429537420377,0.777733192990449,0.777046258363733,0.774906982333941,0.775386355650123,0.77677996128001,0.776739788634286,0.776555861423852,0.79086970423582,0.794518597885156,0.797202540356048,0.809844421850513,0.812041313469438,0.813112325063638,0.810256289983637,0.806347618798942,0.80174740276389,0.799836922690904,0.800577795669271,0.803040798941586,0.805595634737824,0.809293716641679,0.812347955737798,0.813841751907895,0.815097507773455,0.815637638400237,0.816150542625294,0.817393165763893,0.819667894736327,0.822787528071507,0.826292807713602,0.829746292488954,0.831040499970735,0.831483060465902,0.831583669447878,0.831953849260257,0.832890989538748,0.83409364436421,0.834490908002754,0.833581695650175
0.00394326085884593,0.00348662781148847,0.00384729637586166,0.00355720308748534,0.00415842259721458,0.00361602906063754,0.00405164243722509,0.00361388695848298,0.00416799977072862,0.00359256306814066,0.00398060551926984,0.00358856350691008,0.00416003032068977,0.00367110462617422,0.00414850320915602,0.00383116515165278,0.00453338323297028,0.00403082431607625,0.00458901860876997,0.0042022013659557,0.00457726142424348,0.0045057490447085,0.00441707283427671,0.00478451421903688,0.00419882284475537,0.112305288135193,0.38279312749181,0.3734379606894,0.373010502742062,0.371224621776489,0.372442885976723,0.359900408591814,0.36134210168879,0.361776453065862,0.36103566751574,0.31589591914072,0.307752637348489,0.306057114472924,0.306427364315656,0.305302233768075,0.294742395206005,0.294703952749092,0.291586893697931,0.301941159842147,0.316133778163251,0.305981194741108,0.2984507117643,0.301613651552539,0.303169516156651,0.327030445582172,0.351862442263905,0.35117616852311,0.349669976097529,0.340395558427049,0.330108993692648,0.399312068353685,0.442195639331367,0.455688962551266,0.483063882963233,0.476904162567052,0.473002647772269,0.486947532685836,0.50532601361003,0.502043995235735,0.498283196551498,0.495763524341313,0.493278510559411,0.495796445221593,0.498555654923662,0.545703088224636,0.584526265522013,0.554743496472212,0.530815038929616,0.589814083242247,0.683923404604941,0.683570175352775,0.685433812163939,0.685647147039712,0.687144304175568,0.682139293423285,0.670041993957409,0.669448739431045,0.670356434203703,0.670462819823492,0.670074513150238,0.687384423392513,0.704038744701169,0.704926278587711,0.70824666328043,0.718195899601359,0.721931796345473,0.729086226606353,0.774557420809466,0.735225451250349,0.728280187881367,0.729245111231684,0.73269051068309,0.740484070370055,0.746028762667509,0.746250469622741,0.747448613688836,0.748232039441679,0.749586070252773,0.751249939444979,0.752455048487677,0.751267590710307,0.732108461671825,0.741692179816793,0.715840998826905,0.74145387284892,0.727424963381961,0.743463201814496,0.732381415384134,0.750411392089637,0.733598133845278,0.76470206160627,0.761723625929777,0.780701912643464,0.794489786865433,0.793565580601783,0.80661715074652,0.802539107139473,0.803509290274911,0.746183881025188,0.707310312705521,0.714198088794587,0.725006353800519,0.714968729652175,0.710094817351759,0.714045767872941,0.715453012627372,0.737317354759299,0.749512725068512,0.780555052990628,0.8106219345828,0.813149515364425,0.815050570468561,0.803136505056788,0.788483132125398,0.799141175609372,0.822233203796825,0.800583688347907,0.801168954899917,0.800640249923886,0.797489114905818,0.796649529130258,0.798353219210791,0.799172443476117,0.797947317920138,0.792094802082334,0.787578597713291,0.807881377854675,0.821548956127635,0.826282165057497,0.831280482577698,0.829978606151523,0.828202498820273,0.820297773618153,0.813821582348751,0.805909614370403,0.796003367408856,0.816245081671673,0.843082365753186
0.00355569175067469,0.003879918051656,0.00354497195664884,0.00391077294652647,0.00362173541443304,0.00393437878893142,0.00359276833585568,0.00392487268614074,0.00359810214370987,0.003912157531086,0.00355814476185031,0.00392723467896691,0.00362590036873202,0.00401933128006033,0.00371538208574081,0.00414917500731462,0.00384684663222813,0.00430245369276215,0.00396975076885269,0.004508331558322,0.00417407921102696,0.00487014368691404,0.00452248122261774,0.00502386659160106,0.00458856471988552,0.0943219480341197,0.346737402851505,0.34370852210174,0.341796800665166,0.341422042849272,0.34255365213562,0.33773343294115,0.332561307636869,0.325773234146701,0.319154244646046,0.31346192452988,0.304858312408627,0.304332987360843,0.304146469930466,0.302929305413542,0.297753158607274,0.295706024380917,0.295240147087177,0.295777174367345,0.298370637648335,0.30059333360227,0.301002942713394,0.302918146624003,0.304814298791781,0.307897447164765,0.310151425773383,0.312938216453402,0.316593930394576,0.320479662654135,0.323925938782249,0.376189232232945,0.441129619298898,0.451491678204871,0.45798311470519,0.462270278921895,0.481780396861287,0.487831366164006,0.492584556299267,0.494686500298015,0.496381165346835,0.495656406120147,0.494790832287306,0.495392637916449,0.504538814708011,0.516220213230338,0.517078717266156,0.516173348206824,0.519874896617521,0.547687556766601,0.55993081984164,0.572743260656213,0.585093585770319,0.597241460005794,0.609564407756141,0.621929633149623,0.634544392671534,0.646887575753276,0.66012504157927,0.661605239775729,0.665136042133072,0.684563103105487,0.692599124795841,0.700696082316165,0.713887518230272,0.716769668998629,0.720453990160649,0.721367687125917,0.721999472589936,0.723535738463859,0.72761654077762,0.729423348826961,0.731606159626794,0.733993012452055,0.737590931568854,0.742216302556008,0.745401304393692,0.746315655648168,0.750405873984654,0.751196464085838,0.750060916551203,0.750934575565864,0.75317051620365,0.755151808918276,0.755940906697801,0.757080093381252,0.758947589382424,0.761100282057043,0.763142447406549,0.765436012108146,0.768283726087708,0.769999162878662,0.775087861012982,0.775937861812193,0.762787783935556,0.752710076262547,0.744056481205881,0.735709849664457,0.726991857540462,0.718759735031055,0.70796125566961,0.709532209080803,0.711600553790575,0.713373759256889,0.713495671057772,0.715474541612842,0.718284341924526,0.729007471687221,0.751196001176387,0.76908568047317,0.808971669259643,0.804165590316516,0.800006590170432,0.796358954757655,0.792513088228578,0.793229156124436,0.794074522708228,0.794413989576249,0.794828328508629,0.796675246095567,0.796299374521074,0.793022621816062,0.790113696585818,0.788113519409759,0.788615182769386,0.789265940392522,0.78762208737638,0.795021000939359,0.804778263271722,0.8025883017745,0.800944584387041,0.799178881832797,0.79726390483266,0.79548565996163,0.794427584237417,0.794596376406814,0.796088019274417,0.798101666609996,0.799531216503963
0.00408015887367521,0.00359870087414536,0.00411944963071036,0.00359233869456484,0.00405508522693278,0.00358259298194718,0.00403194019644581,0.00356634315197757,0.00397284077154121,0.00356461516303943,0.00403836134469258,0.00358762622803321,0.00409116651833892,0.00367018489933413,0.00431774465523753,0.0037204367759433,0.00422893585840815,0.00375032729503728,0.00426495034228307,0.00390302840828798,0.00419943909711584,0.00428331734325109,0.00443291770686597,0.00447764313897346,0.0039277708218149,0.0752293550302854,0.35293130357579,0.346366424661283,0.344568144415678,0.342397428412574,0.342990223032218,0.331130043213854,0.316134833429192,0.304451434069216,0.295179147799439,0.298400198096015,0.299982915900782,0.302712159166774,0.302892569178418,0.303201381485359,0.298170758469043,0.2961991443541,0.298006020288576,0.295613561973575,0.276630001212493,0.27903787767937,0.267726214570867,0.288513283062147,0.303998530076288,0.303437853617786,0.301266752455319,0.290476429237703,0.28388142223167,0.283673821368971,0.283586316002007,0.352711256554688,0.427857041386938,0.422711074888371,0.418062425249888,0.435781157816721,0.48631979702758,0.474531071613403,0.459197767541848,0.478140240154475,0.497851774262744,0.478808081321375,0.456490690268535,0.483512511052772,0.50991510467519,0.512999496097845,0.511447473062919,0.51373891331276,0.514450953935085,0.51664844638468,0.516383311363189,0.519408799764924,0.521434112819295,0.523490813432691,0.522996671381521,0.541021919334301,0.55292085378945,0.610362867297297,0.659696983783547,0.658463510587234,0.660104053790956,0.659781141026566,0.660041252508434,0.677555797161016,0.717472327278736,0.715338568501177,0.713223132255851,0.713086749583133,0.716031992084525,0.722232969854919,0.730061211940927,0.730664906125293,0.731870188493773,0.731152453391142,0.728586131490123,0.728052081891379,0.723967356801838,0.74121750163327,0.7541047524125,0.740645935155176,0.73324112439499,0.749293664125644,0.78196836013965,0.780781656023494,0.848016995233435,0.775468076060993,0.773894911245471,0.775151993657777,0.774953386154245,0.776491758363919,0.808519251110121,0.789796634609408,0.798483022908606,0.775653367705041,0.742350581392806,0.735841886746069,0.691952016415696,0.693311811214875,0.692072500877285,0.689945429196543,0.685895113249764,0.688804553264757,0.690388284894871,0.691933285897307,0.693977205439506,0.703463796358344,0.717680910277595,0.723065744569635,0.752341784253334,0.760028637783002,0.812935213623213,0.798857170432633,0.789612600270158,0.788860679669433,0.791346905121957,0.792343948620747,0.794170702066464,0.794551757897341,0.780924706165152,0.780319875021968,0.783632632552592,0.784431185438098,0.785864374818758,0.784682710388893,0.785936243563932,0.783861779085554,0.771028001967508,0.789933358134723,0.804696228419505,0.801477661569703,0.797265433252462,0.787028376754153,0.767705264231082,0.771145175569558,0.77579238136735,0.777367558333955,0.752417258066279,0.785557826146032,0.797563340973731
0.00360730706270458,0.00389139754929569,0.00352882638496837,0.0038551495509519,0.0035273001533716,0.00387806624302295,0.00356881743852925,0.00390800400785518,0.00358397849159855,0.00392364583966994,0.00359686515519263,0.00392332994752368,0.0035822839877883,0.00395103887212352,0.00363550874308237,0.00396895648702582,0.00360709868199541,0.00403663434390192,0.00374497289944099,0.0043066747541456,0.00403076257918772,0.00470316340506207,0.0042826159196091,0.00458862716015291,0.0041635965825784,0.0526560780273047,0.128362363481641,0.276984220684627,0.281163884320096,0.284613409585915,0.288053188848613,0.290268707242774,0.293601040945006,0.295295672959726,0.298360054036517,0.300763906970241,0.301835968437939,0.304297197978631,0.305432970739418,0.307643891889481,0.2951004411252,0.292559349367793,0.291553384769802,0.293235844157058,0.280247883028896,0.279624880386103,0.26806515328444,0.26912526106125,0.269727838236166,0.271329261360763,0.274399994799671,0.277369142557218,0.279511957331535,0.282224373415225,0.281597758011385,0.328924147267503,0.353219294419589,0.374893969065382,0.397074683720961,0.416927997993293,0.457798565893755,0.457174140621135,0.457493747564449,0.454228704455557,0.453468343045866,0.454215926197589,0.455386366773058,0.476586607535801,0.489466412366397,0.494645683403838,0.501091588106278,0.507928771585179,0.517340013822587,0.518004020850101,0.518226510604449,0.519451074592133,0.520773756072391,0.523997885617703,0.524762917805172,0.531374643803586,0.561924234624385,0.583381499865668,0.603416045661188,0.624275524411459,0.660097788809563,0.659243788998961,0.658366495558981,0.67508756988628,0.680829270579809,0.684469771356673,0.686874074877918,0.692322162823088,0.701442933505868,0.710415480895167,0.718029548504951,0.723911083594977,0.731728599612556,0.73088244020136,0.729519272886194,0.72974165682676,0.732774644400069,0.73648267089624,0.736792273547294,0.736455388206986,0.73756458565519,0.744289275594808,0.780463080667049,0.780115198677273,0.806145397399416,0.775961708536714,0.775342117249057,0.775775600122793,0.775834300091221,0.776121098591145,0.775135008296804,0.773933142802177,0.775002927574697,0.775241853528494,0.761816366144321,0.721023881490556,0.694221279795191,0.69406721105601,0.691610218498235,0.690512364914711,0.689217112690603,0.689265523468787,0.690328374376778,0.691166644935089,0.691926698959246,0.698598308291291,0.709570427907804,0.718595058840958,0.731690716324834,0.743693680033691,0.768271774427027,0.770784295887039,0.775082633589028,0.780118728907608,0.784744567291207,0.789681567344209,0.792576401133347,0.793216356732641,0.782489908878899,0.77983907383515,0.784474581725672,0.785095967484095,0.784919771171627,0.783992866791425,0.783099247363031,0.780733843730406,0.774926115313159,0.774259534651552,0.775709448438233,0.778496744797913,0.782276324017214,0.777297642876373,0.767407141986486,0.769483675735063,0.771439518651142,0.775427300886733,0.776694747013427,0.777629382661255,0.777507655166873
0.00404563083794366,0.00350691114173079,0.00381958669362585,0.00345400660140085,0.00388805209609715,0.00351777181185827,0.00402399716999878,0.00359310127611301,0.00410264959047304,0.00361845770596488,0.0040899828220849,0.00358142903305482,0.00399351341801021,0.00355752937933388,0.00401130324061203,0.00353507017889443,0.0039890106591123,0.00358946447236777,0.00416520788228247,0.00385810453168229,0.00434879303580314,0.00416877567188014,0.00417769038902532,0.00393163208749123,0.00374763138090945,0.00336251622477802,0.00350416076680183,0.273818301728035,0.281581735406497,0.283139600287253,0.282773929892487,0.287218288850004,0.294330998242263,0.293930509615386,0.302291271528046,0.30409115875242,0.289443443269122,0.307204037868875,0.337826811748387,0.310660232594727,0.283559287649669,0.287531475557448,0.289451706603998,0.289601435589933,0.287426780798657,0.279601718220527,0.261701209575846,0.260691031452974,0.251598808839975,0.266937825247263,0.267829684232196,0.26917614861059,0.270102167375056,0.274086445423981,0.277984387918483,0.28746313259753,0.297805965357444,0.344882733108514,0.369365000059877,0.39753449475253,0.461236847020272,0.45919110475831,0.461215239995025,0.428860514999478,0.38979637731438,0.443704725870985,0.445048223564326,0.470478753399788,0.482806466238415,0.461601226848854,0.436998634851912,0.486142011414313,0.518101892020846,0.518382643784214,0.518038514667851,0.518199472834342,0.5166721829708,0.507337849134292,0.503449285866027,0.523797290666426,0.570414962299344,0.566167994292254,0.561084149512793,0.600543672863901,0.66119477327327,0.632767798581736,0.604176022974138,0.626242733163162,0.645558638104059,0.643625261419789,0.642029499951739,0.637749269688436,0.633541998957956,0.669439222611135,0.707881054551436,0.718302101043313,0.732861196274895,0.731672367222346,0.770111332743794,0.760757033578435,0.770468324564939,0.735042324069413,0.733506767268926,0.719963348545421,0.699846458885068,0.726090112737979,0.779661714333736,0.779653771000362,0.847633996717024,0.775868684140431,0.774750261302431,0.775662341437454,0.775588402231108,0.776247048469942,0.776521026505214,0.775799584506564,0.777798310019519,0.775968491552505,0.795302308909133,0.705284871369998,0.678254316537041,0.683357329947486,0.68720188479326,0.684661766650109,0.677199062143197,0.682104193892264,0.688654565657035,0.690283684653146,0.689336955012711,0.687409214654297,0.682035329582634,0.692255381575615,0.69913046451741,0.724336863537843,0.761151431278459,0.768773280495279,0.771598686482607,0.769627076168089,0.77086950654199,0.788872244953098,0.802344896743759,0.792499120499031,0.775541817280193,0.775002718560397,0.790668208146649,0.787179723726925,0.785862562617021,0.783921581781117,0.782582437045903,0.749791433901318,0.724427130473815,0.726222580571992,0.72231004273824,0.757154453037132,0.785900473594342,0.773486634006973,0.767471731623396,0.768260708957384,0.768360501213222,0.7735244294087,0.774605240700224,0.776905525773312,0.776420815780057
0.00353627532915758,0.00384026558390041,0.00349049355415009,0.00381894052834614,0.00348705135610357,0.00384520384269406,0.00355004471335331,0.00390306900740307,0.00360382708320082,0.00392820464482417,0.00359068916365522,0.00390656231175278,0.00355007433561462,0.00390730187305923,0.00357776321749789,0.00388701093744763,0.00351896670359357,0.00395420032247602,0.00370936488713978,0.00427954234322351,0.00400669035344718,0.00455182981174719,0.00394525073648746,0.00388302161913464,0.0031550646344823,0.00216547455195635,0.127771169779543,0.269240088740975,0.27710371971389,0.282506129179214,0.284546979131932,0.287267081827426,0.289937136042635,0.292236770695146,0.302809180742643,0.306807608357169,0.310222775943575,0.314568334119795,0.318671952807822,0.313850797342589,0.298550865610097,0.284973307620998,0.287502236297856,0.287221068823633,0.28768037630142,0.280604137828599,0.264061579259334,0.261526627666407,0.261932562366208,0.264371434132844,0.267449036262726,0.269088678658375,0.270036103451802,0.272459662027219,0.274580476193145,0.282127409531155,0.292007950901899,0.321930210271327,0.3433893333077,0.352388443326178,0.362085093077705,0.374512174601345,0.381430110194814,0.386578699670706,0.397316953125132,0.435250431059738,0.439039381348074,0.437670565735086,0.439528763575822,0.438285671767755,0.437304030754953,0.468409838516783,0.49257940747956,0.493243718927077,0.49376902812686,0.495228815447946,0.498050705287954,0.500638172516607,0.502522397165554,0.518036332425489,0.529246535359994,0.541031953228058,0.553251953577664,0.561174912180964,0.570612193405029,0.578655041392074,0.588614803529632,0.592671135805413,0.603724680795471,0.607331840304961,0.615045719983309,0.620687025711685,0.626224499039553,0.643899085516064,0.657128743222986,0.674325817986676,0.692114770802331,0.707443527121751,0.722301788350398,0.715692476281813,0.713090462994253,0.710898183550641,0.709211055559055,0.70831513318805,0.707502020822263,0.712594715842969,0.7139295818436,0.71759500758989,0.72569263604882,0.736992971749509,0.747705937074126,0.758191300627291,0.765700808927767,0.769475258830445,0.776732806913471,0.776594199958372,0.777506535395635,0.739049879072522,0.715576041813418,0.693650966121038,0.678990382805524,0.679327410464698,0.679861298634835,0.679655970170993,0.678048072017141,0.675040464503365,0.674036560425237,0.675608393471691,0.678206701407969,0.680130743549557,0.68099947046138,0.688501202332018,0.692410864436849,0.707091020940723,0.715709066676755,0.725583736280405,0.738302558346735,0.751393661493631,0.773130650443694,0.786504181149256,0.793855524144753,0.790656751899092,0.775610882261556,0.773955286933242,0.766421749525367,0.757813055342067,0.747499145724142,0.738745065149031,0.73188420683648,0.733141416662102,0.730349517757551,0.72937337174296,0.727574643963038,0.734214817677639,0.73490358210644,0.733695277732794,0.731919809463995,0.731422237631496,0.733522841482087,0.737514356979086,0.742278721615214,0.743964167250554,0.746357171185336
0.00387308962327114,0.00351075232959486,0.0040471230292579,0.0035316755663476,0.00395735495918534,0.00351583823374594,0.00398886464442919,0.00355370950932614,0.00404408319581544,0.00357958138814427,0.00400613301513117,0.00356713863465488,0.00398100205508648,0.00359216440438151,0.00414837730077788,0.00355618640270431,0.00397137967634568,0.00357106842954013,0.00417422542806211,0.00383336086049642,0.00430180558493644,0.00410932386021237,0.00437301921290088,0.0035280268430691,0.00329890906066132,0.00167855529830771,0.281573136708748,0.261439527430623,0.260544812657357,0.258864337070446,0.260849390278258,0.260315459477952,0.261849827044715,0.282848377751943,0.313003693741308,0.310452521847251,0.335390944137894,0.318216589847715,0.323763789507386,0.32067887354055,0.326924542651705,0.28025419775416,0.277239471390531,0.282392354794986,0.286300072493346,0.283771898315986,0.270104993399832,0.261424536682695,0.259601357580008,0.260282893807933,0.255989999599774,0.26889874973976,0.268321386685519,0.271829163069922,0.273234806823738,0.275407272474205,0.287743502526971,0.286742069060054,0.277647879268072,0.32664241977732,0.350903356638889,0.34781968317381,0.344874556812318,0.375686323569418,0.414427061284138,0.425026573030443,0.470718581202089,0.439642701380089,0.44623521913401,0.440664908297901,0.42584014719032,0.448800301897662,0.491997491967912,0.490738799458781,0.49205492560251,0.494322813423098,0.49897560380772,0.499070089039317,0.504562563223566,0.5073260915222,0.506283543891919,0.521874808464469,0.525787300721898,0.528749985701717,0.5334025855651,0.558562886364545,0.585621584819035,0.592237118135446,0.60195813402759,0.590423885651987,0.580878473061244,0.593230250117799,0.605600964483308,0.612432401981896,0.619867964265558,0.621325650551943,0.620810561005614,0.676066355206174,0.728144069246465,0.712622879006614,0.71215848210585,0.698175720761795,0.688365158664846,0.691018085815319,0.6927483994684,0.695224609696855,0.692726056709153,0.694185641005885,0.692353730588394,0.6841529789113,0.0035245099992708,0.100446935963608,0.00343106999929018,0.702714473970647,0.777608801518346,0.777459307136458,0.778868249749736,0.714887525745404,0.665678271058166,0.664106750764164,0.658109095953369,0.662101635253937,0.663813071782749,0.664569592423825,0.666131092599855,0.667137492797741,0.668639204923385,0.668241061925407,0.670574054879815,0.673562740880711,0.675999907626588,0.669287450755655,0.653452407424615,0.653046661483228,0.65259314951946,0.669539456798958,0.684276026202778,0.725047921581696,0.781347024883048,0.783995327505344,0.797303947445706,0.78690814793714,0.670990853830176,0.674683790907756,0.6734519891388,0.675548725772414,0.674541867558021,0.697992716756698,0.705081709071669,0.705000149904858,0.703485442733376,0.703467061159434,0.704028802175703,0.731398297675628,0.726883530597949,0.728109973542651,0.730339195001405,0.732850645076433,0.737185068597239,0.741186554882908,0.747695033578434,0.745445808112335,0.740948059438716
0.00348923801611992,0.00384457115449815,0.00354231502928306,0.00386214325513854,0.00352114458855163,0.00382942516722719,0.00348204294344502,0.00383707357934308,0.00353188171247278,0.00390053997772829,0.00360687576725547,0.00394236800897702,0.00361591297499261,0.0039270284177512,0.00357544934549135,0.00388264965985979,0.00353475816032248,0.00392763132800812,0.00364920617536134,0.00421674326084157,0.00393719752421948,0.00443078370987398,0.0038061798018143,0.00355098037954157,0.00241974790282347,0,0.257818875014791,0.258150675641867,0.258451184546045,0.257772433223132,0.258866327400821,0.25931078322842,0.260533675359961,0.265058134175701,0.267466947893673,0.272596771665125,0.278745672104136,0.281551478590967,0.283002161240001,0.281103541678335,0.279127532460945,0.277494788713556,0.27644475115833,0.278874071101132,0.2839042695209,0.286094450225868,0.267045454106247,0.263038947589923,0.261242931021465,0.261547893582391,0.261699176019784,0.267600211430469,0.269739576591135,0.272045296544937,0.272979715014751,0.272810201966096,0.286429092865021,0.286668604680419,0.28821830475768,0.299238712092095,0.309754394298934,0.321615498362,0.333128740507095,0.343449726155832,0.353049194816586,0.362919253262586,0.3735074033469,0.384349515733583,0.394775082558289,0.405504346095871,0.414989622665241,0.424895853986477,0.435303861670245,0.447813105882045,0.46194735356832,0.476999878981491,0.493402430684795,0.494211663461452,0.510317546677636,0.510678627462655,0.511154493468382,0.517858396779623,0.522935656212437,0.527050934212835,0.529611804964356,0.532458213177941,0.536838833049966,0.543699678042471,0.553333304415922,0.565073011816179,0.577564062251069,0.586471717073606,0.593779062418282,0.599763257875682,0.605607370469887,0.612399613105587,0.620339952500106,0.643578057209991,0.661210600047685,0.67822189545786,0.698023979472045,0.693870379125896,0.688770269475123,0.689111002268075,0.685307504262509,0.680488209485948,0.676617418862461,0.673847465335478,0.670090753413905,0.668241914133399,0.661009321205719,0.660743720604808,0.660531915368545,0.661423230924192,0.661351566994928,0.660799367184839,0.658241841964288,0.657754320084737,0.656813585037227,0.657203803573619,0.659541188067494,0.66283051418507,0.664128926070552,0.664665509060469,0.667585747595434,0.668415304909798,0.667706252447463,0.666938430859835,0.666459110349912,0.663540993203565,0.661957173391718,0.659933906446303,0.657318843547555,0.653169829895211,0.653670368578672,0.661930296802737,0.669489005564137,0.702019190311359,0.720683239358769,0.741078598105789,0.783381253058924,0.784068312731128,0.724741537750173,0.678182621042802,0.67659986249779,0.677120914106279,0.67689348914427,0.691850114076755,0.705039808099951,0.70443474269595,0.703647495266413,0.703305147897603,0.714042297026979,0.732297566413334,0.728924220285852,0.728248311835828,0.729296507633043,0.731260915234549,0.733514001353755,0.733208598221342,0.73427388400174,0.737434472590094,0.740372374249173
0.0038953499873001,0.00352455823591566,0.00397161371570739,0.0035449263885504,0.00398943295552366,0.00349267595573817,0.00382623146913095,0.00347526950553819,0.00390063488039494,0.00357381745298735,0.00413618261633326,0.0036564900756609,0.00418274074591702,0.00358638317935254,0.00395478083688055,0.00351467118950586,0.00404512785222311,0.00353228995795953,0.00399345937657594,0.00375557835794758,0.00425770832082243,0.00396581304170614,0.00404426208332944,0.00331688513647827,0.00312097768723445,0.000777571002585072,0.259763998536052,0.25856663863481,0.259933963889662,0.258403099120973,0.259071840842943,0.259644002449812,0.262446437163256,0.260675252970008,0.263108020891842,0.271854527918853,0.280259036614867,0.28176520467705,0.286185884957011,0.281994570363699,0.279929548598488,0.275629312624946,0.273443505542307,0.273548466773613,0.309778661443799,0.289897330421938,0.258786640485524,0.263156579487764,0.301643312995672,0.263152245464492,0.241897608914699,0.247127134242771,0.249387356627984,0.246826564050596,0.245537649055871,0.263418232590577,0.307057646044814,0.286645670805347,0.289015869844783,0.284513378886773,0.278608558447526,0.29208734815443,0.294038103763122,0.297702327803763,0.299443361860565,0.299806699911878,0.298044634081113,0.302348737671678,0.304324809472934,0.360152696014359,0.402119502250258,0.403637243188154,0.405087810409233,0.407890174450778,0.410248058641823,0.447024444483991,0.490270869945737,0.492967630070511,0.514040928722842,0.512960157772929,0.513496517568229,0.513774260968952,0.511147128410148,0.506499334371233,0.501774596622857,0.517863030987929,0.534779538751444,0.542505450627389,0.54944012376272,0.549301413209693,0.549071711455188,0.555115523371664,0.566507930469221,0.570033523784756,0.542745325015867,0.603231783295169,0.618794142982239,0.623763852519224,0.629227509678996,0.668210951332401,0.703233663050215,0.689943271803675,0.671127239015628,0.67141399621191,0.672257851827368,0.675036416413128,0.678426144348096,0.676867926987644,0.668627854038252,0.66710112360114,0.663145861980496,0.661463130543813,0.658543918007566,0.659875079768017,0.658602017979049,0.65879942803427,0.653721168224785,0.649495283140633,0.644402948786018,0.642729302744152,0.641434614840153,0.648329332096615,0.647065438759668,0.662281527677375,0.670211867992268,0.669766748196025,0.666518935135792,0.666331844093115,0.665801903817438,0.662890130359073,0.660355264021876,0.661120978806773,0.663022473022697,0.64920668966733,0.647923912514219,0.657380546302935,0.662857369829377,0.667513292977576,0.670208868985471,0.718600107849575,0.787323655411202,0.786347622063102,0.790496670068411,0.679536259185988,0.675401081813089,0.67686522702676,0.656845422657693,0.685206873342478,0.716245820641145,0.703055034099326,0.703072417423558,0.703130197662419,0.741119550412722,0.736595346450619,0.746617089680165,0.727852580329873,0.727836800194989,0.72937430922962,0.731993112594516,0.732400647696453,0.732624696632212,0.730115556559644,0.725798136405335
0.00361466931405401,0.00394041314717834,0.00362070840170216,0.00390724723191462,0.00354783164368373,0.00387491608845951,0.0035591879701384,0.00388707992131083,0.00356641017439269,0.00390999961504978,0.00360373967519436,0.00392171572596292,0.00357898497224793,0.0038588824387812,0.0034726251944741,0.00381548616112808,0.00349953975588937,0.00388785267001161,0.00360531360710645,0.00417508557924141,0.00390987931096626,0.00433524886559418,0.00365025080327694,0.00342859723494656,0.00266305611275237,0.00143860070806307,0.258141236551819,0.257860325824033,0.258412650576798,0.257972334171428,0.258481898684059,0.258443298608716,0.259031542542216,0.258387592041037,0.260930352445526,0.27123673114861,0.27595584476324,0.278093887205393,0.284779740865871,0.282073518842916,0.280806293496445,0.27309206605941,0.271510441623934,0.270851888921712,0.29524190876094,0.293004311294805,0.27510117552834,0.262880562064837,0.264037079146441,0.263297443787878,0.247485659112533,0.247210301307121,0.247322491117663,0.246635604785526,0.245828871465632,0.265342891430688,0.265561022746499,0.267431304547088,0.269719977407814,0.272953610800311,0.276808246055422,0.288734329411725,0.297146433284649,0.298653168458346,0.300017573992879,0.30034512732335,0.299602703624997,0.303013537705668,0.304809930078654,0.330442582065237,0.351942327417131,0.37281020057195,0.406060370454227,0.408018845548915,0.409778094394855,0.426239669581462,0.43476250512459,0.442950252278305,0.450630758220339,0.457974815851772,0.469314307914156,0.47357812529912,0.481543904545326,0.489873871957472,0.495123123957593,0.508164167379489,0.514260527155361,0.521952350944023,0.539155326310989,0.540845786734229,0.54634951543531,0.551925752076119,0.568103525151587,0.570010659000366,0.570593949384548,0.588853475723963,0.59859315201777,0.607915646265913,0.616113927603702,0.651685624157117,0.691692481988437,0.687827644825714,0.673032392638466,0.673302383525268,0.675107520028751,0.676423211012322,0.678471901341846,0.676996260801119,0.664870204348248,0.664542895382542,0.664440722687992,0.663791952666588,0.662644031068836,0.659854326457772,0.660040069684914,0.65888902360762,0.654807153948649,0.649258384845912,0.644937730206789,0.6454174719658,0.646956562719236,0.649262502229216,0.651381410627348,0.659832086435689,0.664364063379734,0.666215612136208,0.666280461976845,0.663977210789458,0.661237286103116,0.658932987929174,0.656933915946748,0.654949939597474,0.652617774001801,0.64985463548878,0.648293525673479,0.649692879629322,0.648311426680071,0.64893219343626,0.651583583999483,0.654761395932698,0.656867208158139,0.660453796795167,0.665459401624116,0.669228942356203,0.673229489730782,0.675550311762315,0.675173049201886,0.679512266723832,0.685086743044626,0.687036191009014,0.694630100226275,0.700728890357668,0.705044033807352,0.710493891448425,0.71768517638371,0.724202811286371,0.725082507798995,0.72635695604964,0.728080007013157,0.730610104665198,0.732269094703152,0.73185614582082,0.730201873442159
0.00424356601079853,0.00369554594142808,0.00421157358799776,0.00361133781129388,0.00396525296079585,0.00359801548687767,0.00419345720581639,0.00364693191383986,0.00411415923534173,0.00359352358741141,0.00399618072901764,0.00353619779474142,0.00391151104988182,0.00347356074982354,0.0038556973411465,0.00344030834568288,0.00391778165994807,0.00351137129532107,0.00407735441802957,0.00376469369599627,0.00435239659572371,0.0039482629049773,0.00402224070727148,0.0032402367861491,0.00322135925970399,0.00134634665672844,0.257463975733187,0.257718177925795,0.258443589277346,0.258250823232549,0.258972340421059,0.2582306302071,0.258321919173174,0.255594054217527,0.257408212520772,0.25233444580697,0.257059876736953,0.273197630146567,0.286067719621352,0.282304085384672,0.303403096713008,0.270344487369868,0.259892224005048,0.270201013029357,0.295360667611201,0.292175767629338,0.299426787634767,0.263288144544059,0.265306873741253,0.262261356791379,0.249105298130083,0.248979738530634,0.247330829872582,0.247698230508971,0.245998080791682,0.264885965831184,0.262600418769424,0.263874948583617,0.263055929812442,0.272230100987752,0.280233695336137,0.28464554976796,0.29687360611291,0.278062399050099,0.263548978626666,0.277395560231081,0.294803521390526,0.2853956007359,0.278595879136782,0.27694769565385,0.266209412363437,0.340131780605777,0.4047666891604,0.407948196071572,0.410792079725061,0.397891488881174,0.383528035686216,0.414512740337977,0.439098436174858,0.454743833007414,0.466793336122969,0.466936370223849,0.46706266331386,0.472487069790002,0.477268600357198,0.495934029040514,0.504462416461172,0.518172050048531,0.533853943974896,0.519380033262539,0.503603273102607,0.539249154733679,0.565836127365173,0.568488338490292,0.569083854881903,0.57093655228268,0.573436983204739,0.57946203963426,0.576395041584954,0.632058294078,0.696920661638608,0.682697742618026,0.679267296321999,0.67687895214982,0.679433652600096,0.678254374004001,0.681825583686779,0.674697110533546,0.664085546301526,0.66320775052847,0.667268887988186,0.666052390994235,0.666917631597875,0.643829648868032,0.631004810115724,0.631687263142288,0.630542981463707,0.646389691973293,0.64123602989725,0.647899005827196,0.668806688177615,0.651186297398081,0.65471897574803,0.656019292018054,0.666510753300751,0.651227698932688,0.641944539234555,0.641368456295665,0.633023906027546,0.637403322066688,0.626671488029925,0.634526677746235,0.629598052609804,0.644885777795489,0.646050781468299,0.64666352357663,0.646553645321037,0.647381852672941,0.65109255302388,0.651159359991163,0.653384121365025,0.655138523679164,0.654583665307178,0.66777798965836,0.670996630255769,0.674348238797596,0.672920715798267,0.673006768092341,0.672952209474116,0.678893831889782,0.674778947260019,0.685039302747766,0.674399028874716,0.691526836158711,0.692158698933871,0.722705776324404,0.740564001850202,0.724063752721008,0.700346588291936,0.706964294024074,0.700034724952279,0.707786845585803,0.707784786171855
0.0036119661282615,0.00393250043328809,0.00360819850832578,0.00390415392592359,0.00356273899558776,0.00389953439536373,0.0036037303475983,0.00393447402596804,0.0036244074443516,0.003897469432319,0.00352944515067443,0.0038640040509895,0.00354415302998119,0.00383441018026408,0.00345545556108239,0.00379302158418644,0.00346688209507702,0.00387273522137531,0.00361083577514876,0.0041261501192921,0.00385217325238951,0.00431979063800229,0.00368395424920363,0.003479819322559,0.00271291295383245,0.00210631994993699,0.0672708799680296,0.0930280927868437,0.118152606315551,0.142875403837437,0.167360720642755,0.191904873497258,0.254574973788097,0.25168016493637,0.250460786779904,0.248638847353979,0.250372264459166,0.250212433066398,0.253596973236463,0.255194795774653,0.25705949479749,0.257444356663089,0.258854193105201,0.258488182344179,0.259596965067062,0.26012272756516,0.261253286895437,0.262312234755475,0.263932522006796,0.262127915902121,0.258764883317182,0.253400459243593,0.251896817837323,0.250523405246313,0.247689137951742,0.264165786663127,0.264553873774711,0.264632977199978,0.264058139595335,0.263073896744025,0.2636868199874,0.265315327756441,0.26651662809957,0.266391631612798,0.265284590385527,0.266138598842268,0.268135486363198,0.272235395934674,0.276103866050196,0.272816774788104,0.269004970942803,0.298838656997386,0.315605857974254,0.331760014826025,0.347182385196802,0.362056500689971,0.376355403556653,0.384718179384987,0.392779456633228,0.405308486824361,0.418834985987004,0.434239664273333,0.44950554034994,0.461980912490286,0.476192167471083,0.486414820496693,0.494795044812665,0.502474249748307,0.507353743237467,0.508355690888899,0.513801223211794,0.528794188138115,0.538167244170275,0.548350662251883,0.567763985115787,0.568487291852796,0.578046521745721,0.581427797142715,0.585266862795026,0.611426641487256,0.620187217455233,0.632791141022457,0.645780680941968,0.660181547324028,0.67420800344395,0.674991093724211,0.673696751639619,0.673164632216081,0.670847267460973,0.658610843724583,0.659909050315398,0.654269869127655,0.647657916378226,0.642277515938051,0.631825272243837,0.633836991342326,0.638544228488019,0.648603350487585,0.647980542291751,0.650188359723999,0.652001813365016,0.651225676968372,0.651765439358592,0.651994250850837,0.650538647488554,0.646975318289583,0.642176199569893,0.640138171361512,0.640684337909658,0.641290538183413,0.638953714207712,0.639895662497194,0.641594854424798,0.643810513082564,0.644666252414758,0.644672824398973,0.644496176014555,0.645304461608641,0.647250778169515,0.648556098299911,0.650234856823386,0.652043868444599,0.653515283313558,0.66300649178148,0.675078716441442,0.675943315044533,0.674317656977202,0.672936360704705,0.676934455415072,0.682994478727378,0.68747873723277,0.691916910281686,0.695398444176936,0.693059422292105,0.696308587502869,0.719294982056117,0.721037084811874,0.72160856809358,0.717222080445704,0.714426054600488,0.711440702509597,0.708659085125016,0.708209081718991
0.00391226039964246,0.00351441642306558,0.00392553992548284,0.00353581898502549,0.00402011370545318,0.00353685261961464,0.00392446700197718,0.00356746782687554,0.00408972071446813,0.0035462575381376,0.00390145234581172,0.00354321407161986,0.00411650431255251,0.00355039882806988,0.00391807883392479,0.00348700216913586,0.00393172875604581,0.00353391615086811,0.00407775783417637,0.00366909102807525,0.00413998669904888,0.00391200904320582,0.00414930411787102,0.00363399839130282,0.00375404704508349,0.00301090905497729,0.00363783297417196,0.00437140162612205,0.00419805718526641,0.00444326802425429,0.00363782753401584,0.125382656570171,0.257010275295299,0.120227689453965,0.00289721977523771,0.00223669097518168,0.003413424221058,0.250194638159523,0.257137532295774,0.256284807637113,0.259606946258933,0.259082533770098,0.260878582989473,0.260077980946018,0.261581505099755,0.260627195517509,0.262249986720353,0.261610820257663,0.265244975092912,0.262975138253442,0.265630351556825,0.254042713601673,0.255178817486785,0.254138890779182,0.230910007118391,0.259548076578162,0.264966738340781,0.265296889065366,0.265611132669497,0.250294953583891,0.218236429779332,0.243333613502127,0.254154266872198,0.260318709468079,0.264750466738595,0.262497391898126,0.263279064214444,0.270301882769742,0.286004725419709,0.268844009678093,0.265831416505103,0.274958192137418,0.288711296516886,0.284642358842686,0.280783792742949,0.323500247689335,0.347967999899338,0.369825862343376,0.388269758210268,0.390267883861516,0.392388426769524,0.377218855007029,0.363572121715053,0.417602808119493,0.477102781650003,0.478090194785299,0.481889032954164,0.466150866850795,0.442857447883399,0.489350255301658,0.521780265652595,0.516408001165224,0.511885965957835,0.53344043419964,0.565666716864563,0.566788662334577,0.608395347365429,0.58893080864042,0.589631874322147,0.603143266619534,0.613014530028622,0.609013704704265,0.604662679251168,0.632044277454596,0.675063460452643,0.674550685372945,0.673802686656855,0.673606356676916,0.674096938583615,0.65518902058935,0.619554853583638,0.627707579496973,0.622173205478497,0.619180958025453,0.620641102537121,0.626663565579754,0.655937987271308,0.652757312168508,0.655722154566822,0.653941424337257,0.655386925499905,0.641381909698989,0.625900329665339,0.627170164813313,0.629772522498746,0.633836580340523,0.639743651396152,0.637666682184811,0.652204477231649,0.648263566871251,0.649497376361726,0.643697431745437,0.662060113368449,0.644066443550412,0.644174359252817,0.643531119231297,0.642465175984028,0.643048870356416,0.642728717003325,0.645180357454969,0.646310511019574,0.648217504593831,0.643280832892253,0.659300941623125,0.674383690268921,0.676500358261726,0.674654123548149,0.672829448584657,0.704440032436936,0.691100543870382,0.692530609987148,0.706037405042172,0.736617327896723,0.721164621155094,0.70700095682395,0.712833882261059,0.687213717946246,0.729335702677646,0.747130701807752,0.721347984885213,0.710943092280863,0.708769138833887,0.701253613971314
0.00349961667033113,0.00382696855003744,0.00349108585394451,0.00382979908145922,0.00351119047603523,0.00383727572095204,0.00351139413801699,0.00385517724437074,0.00354457731935192,0.00383282250188123,0.00347567460146263,0.00383214460481275,0.00354612813665495,0.0038876431608698,0.0035750293678577,0.00390445938977501,0.00358248186118191,0.00393914288838433,0.00364527453403286,0.00403573742273504,0.00373036098669217,0.00430850118201378,0.00398667527713874,0.00429996664791053,0.00380255843455248,0.0039741801257029,0.00405228377918586,0.0047794535167565,0.00458643777929477,0.00474738158476378,0.0038878228427338,0.00272271400937052,0,0,0.0014817885292716,0,0.123019168277117,0.248047958749899,0.249982933097554,0.253780237725429,0.257962460771748,0.259112803706663,0.260294254032716,0.26041551071322,0.260894677833346,0.259601192897376,0.258903026276222,0.25755398413425,0.257067096351302,0.257773334939374,0.258057070090333,0.255112204916696,0.255221653155783,0.254789435345278,0.254723958401435,0.254597869205362,0.251859305932895,0.248331386201624,0.242954186822779,0.234630815304716,0.222819818576622,0.226053690837527,0.229908150411793,0.234799865452578,0.239997028251554,0.244966429517867,0.24950944231771,0.253681400633715,0.257498847638258,0.260997425257029,0.264308208370496,0.266997745879169,0.269935851113026,0.273221698880206,0.276851601197056,0.297228600404167,0.313459284215006,0.323707817638815,0.333169567848062,0.34025937974902,0.347829256472152,0.355340016611057,0.370972081838816,0.383542658146045,0.397317157136978,0.41150191861283,0.425406148484306,0.435980317828369,0.443618079907658,0.472179027427342,0.50356236088218,0.503189310791528,0.505993892203284,0.524683277491941,0.535052923193373,0.549729465671905,0.588938369748208,0.588099716877942,0.58815195328085,0.589597902652528,0.59235287249547,0.595982154970059,0.600208373074523,0.617443493559159,0.62968150445517,0.642588301865665,0.673948269374766,0.673475194591381,0.673621594531423,0.654401991464292,0.638455390349059,0.630363536769842,0.624189346556528,0.617860043657286,0.617569950513177,0.618596321935829,0.620662422636471,0.622583021557579,0.623660723801486,0.623957563321173,0.624014295184301,0.624417688266898,0.625430909677718,0.626500164667585,0.627690766399513,0.62788756984768,0.629097314689098,0.630944217995936,0.632924585513325,0.634807741683489,0.636688747431671,0.638608277740242,0.640349104613532,0.641651513437369,0.642474361732622,0.642948479418119,0.643100846090447,0.643032067987511,0.642883674860394,0.643760802552243,0.649556435464556,0.651155745549707,0.654379222643834,0.656330105687482,0.659149975267982,0.662164449321687,0.665989242250718,0.670093593934447,0.679704768804755,0.690804977978305,0.706814363438252,0.712725522443432,0.74115426798175,0.740561051513808,0.739082049750519,0.735603307568624,0.733743802298429,0.731489077727137,0.741198182238471,0.728891037556422,0.722694788433623,0.723210797736057,0.722223297355269
0.00396676485017533,0.00350933385755308,0.00391757335145397,0.0034888489598236,0.00388971187565837,0.00349884184838113,0.00395917730642966,0.00350772464477505,0.00393222911698622,0.00347468389680526,0.00387125990726507,0.00346758157126441,0.00388996660801918,0.00357186484609403,0.00415346412101349,0.00365887770504089,0.00417520761163818,0.00366314242820163,0.00422977265476561,0.00363275854427798,0.00408613092819996,0.00380520225519814,0.0043926327424812,0.00401079622839757,0.004243702261189,0.00395185345025929,0.00429125873138225,0.00439706774934062,0.00440493705609548,0.0044696837341854,0.00412963679308604,0.00356739391272066,0.00301765718678164,0.00240785935492956,0.00271796641259862,0,0.248713206898113,0.247877476840198,0.249366914357795,0.251716151981409,0.259522626306696,0.25982687074896,0.261174424166251,0.261278005035202,0.262881279551501,0.259640803182209,0.257918789584296,0.255060141797972,0.255231814890307,0.254695647501905,0.255779244701461,0.254641147867364,0.254736500616353,0.254742624717446,0.254885886781531,0.253864641088224,0.253978302256372,0.245340411620298,0.220228645674419,0.218203836003389,0.219548029906311,0.220011507925063,0.22377233371809,0.225334087833127,0.229540221301512,0.22650997037188,0.224965016932628,0.228774700653925,0.237599893513852,0.249176430148444,0.262148422689759,0.23944467603963,0.220546462583521,0.246495984751346,0.269253743468148,0.257350036548822,0.245562270431518,0.297323762922382,0.331755894448858,0.315969114597897,0.3015366899555,0.341360644550892,0.375365346607823,0.35614734603913,0.342109926278585,0.34117098555595,0.340213243077598,0.401461284383131,0.444187933732892,0.457200168232174,0.505939254633446,0.497605446110961,0.483971383563083,0.493039936247517,0.500409239039287,0.52853383433713,0.592469214661429,0.588472741077713,0.586911318702571,0.58590381851283,0.586181077499164,0.583346807642744,0.580817752477147,0.578512176209056,0.575870072264397,0.616993947778976,0.675472048529075,0.673991278115841,0.674136134924982,0.650773933892014,0.644503812800218,0.636617736336087,0.644119207610267,0.615191955222981,0.615468439957763,0.611182957640112,0.61221162621801,0.611585760467283,0.611392531222235,0.610929387979449,0.599402644735298,0.59996099439464,0.588759412549003,0.608064845060771,0.681505994141148,0.607033350614707,0.589558547670699,0.587004885540558,0.570226291094942,0.570834841615106,0.571278928215434,0.571546803907027,0.571832830477818,0.570436933638572,0.567891031822429,0.569403512134813,0.568680410338079,0.570670690775386,0.56997300630316,0.623748607633301,0.650824645136021,0.651694472773428,0.684271411565217,0.652574417148196,0.649518088524062,0.654586623120389,0.659540624408795,0.659762735478035,0.659683066804835,0.689985587947961,0.755322962991058,0.755335877348217,0.755682116656344,0.734731292732523,0.736459250536537,0.733898071060612,0.734310899520025,0.730460485423994,0.747303259679691,0.737424703498545,0.746506490831897,0.721503854805312,0.72106808772196
0.00355111248274599,0.00386095910967959,0.00352824144933301,0.00384956544431232,0.00352759879887838,0.00383759750656522,0.0035043032769372,0.00381241334041624,0.00347604245723346,0.00379310570155055,0.00346527479591672,0.00381219942163325,0.00351448373092074,0.00390114146636503,0.00363576056310842,0.00397762120150559,0.00366698808526175,0.00395424726090681,0.00359054578862997,0.00390621601851901,0.0035629742666406,0.00407476343022855,0.00381643870584659,0.00434034986382109,0.00397562301296441,0.00443144867299237,0.00410366704173386,0.00470278649410783,0.004332492955727,0.00478893298312071,0.00428224349681349,0.00437829291720545,0.00379829956067021,0.00370725986663343,0.00308943139346702,0.00199324068690373,0.0524847203959114,0.071246020701061,0.088690226827167,0.105079148824012,0.12081697540816,0.136266225703012,0.151885299783108,0.168309471838231,0.18655929415587,0.208145053859036,0.254289127837603,0.25223316687741,0.251684621077337,0.251867471102148,0.253413951483373,0.253020734101652,0.253678375765643,0.253472681559222,0.253912371408374,0.252878004860854,0.252231405513241,0.243218373341805,0.218280287485802,0.217295531181093,0.21825131519628,0.218970613482676,0.221361975414076,0.222149810146319,0.222091275762625,0.224207468640696,0.224646820457683,0.224421335037231,0.223097323456806,0.222763732967716,0.222417213179191,0.221323306686412,0.219836032325642,0.228528567937423,0.23335782419707,0.237011689943015,0.240593451066101,0.27387031728826,0.29779372276434,0.302928699417006,0.311068089111413,0.316132685559118,0.3208490348683,0.325309860758699,0.328162887160023,0.331537301247852,0.335588488611278,0.376428199302399,0.428061333253895,0.436630064079619,0.443851204083485,0.452751476938482,0.462044949968657,0.472537340680998,0.483399349672709,0.492490335783592,0.499552916061032,0.507583514257766,0.517162424288046,0.528316790384827,0.540420014832997,0.552496296324284,0.563394539171059,0.571819595138452,0.582872545736823,0.587933080572688,0.591216528791967,0.59247589456322,0.592032911906257,0.595560407879993,0.60260001686276,0.602688828011288,0.600841113406457,0.602095992711771,0.607734418016698,0.608596545799772,0.61081409686446,0.610731579260776,0.610862729266392,0.609841655632463,0.605196546134784,0.599708068499211,0.586348122625714,0.586062589450137,0.586306087222353,0.586523757371795,0.584150721969163,0.5812911924898,0.574363537251463,0.57123139600477,0.570358334732902,0.570638135887237,0.570589459138624,0.57061597335392,0.569956980483759,0.570570197909469,0.570943139520478,0.572205540850374,0.574158366366808,0.611541103013112,0.635841615036157,0.638415378972181,0.640523083466279,0.643664974361168,0.648631772955668,0.651843769509681,0.655340375647679,0.658909877376245,0.660126164358419,0.687321370810811,0.755408500522365,0.755554664977303,0.756070430976653,0.731090696939756,0.731900615972425,0.730592431211564,0.729963236839533,0.726261336640357,0.722085859076159,0.718919346485211,0.718418577324784,0.718993241369229,0.719058086520358
0.00404818897221819,0.00356678445010044,0.00401614405443198,0.00356659130796717,0.00406102999027722,0.00353424809700896,0.0039335933463978,0.00347745057927683,0.00389301105490328,0.00347184534202849,0.00391454438003065,0.0035118596204506,0.00398996075096114,0.00358195671366023,0.00405961127780236,0.00363911404700196,0.00414877813885797,0.00358454990508248,0.00393305489384154,0.00348455865378011,0.00391115748907829,0.00356838155072687,0.00410768628567522,0.00375605690365763,0.00423617395880712,0.0038375783967582,0.00412130005435459,0.00399268871197695,0.00428562190857937,0.00419083406938805,0.00437789033637732,0.00420093829589425,0.00430953797370257,0.00406400335836892,0.00397634338492509,0.00349158351130419,0.00388533608695781,0.00436080983168922,0.00400818565040331,0.00457231304216191,0.00408821042344442,0.00476007789458413,0.00413993549866652,0.00452109882085182,0.00377391718120508,0.125310545295585,0.255647893190154,0.122607587041367,0.00319235411176877,0.174409943274875,0.254473247168611,0.252569780250766,0.253338642534266,0.253080172356363,0.25425906345795,0.252672067628721,0.25068436006765,0.240930309733646,0.219414968233059,0.217501743008687,0.219258545553414,0.219029633637016,0.220965656355745,0.2209056117223,0.220550817358351,0.217908879497735,0.215678915045186,0.21915796657313,0.221851506069115,0.221003755492725,0.218004419870544,0.208873600456043,0.176030016823093,0.208733393361899,0.210469773659999,0.21099293660669,0.19778372410515,0.25496410750712,0.28913544194076,0.297709475555529,0.327585046857743,0.307757553829454,0.287411008040895,0.290828334603324,0.294199232306472,0.29272805909386,0.291254687602592,0.349732087826396,0.417329178479479,0.417916305585466,0.418862661639634,0.420870203884822,0.422950120078836,0.433752690147087,0.444946029146938,0.445807281944927,0.446409301148053,0.483212516861058,0.496461476904147,0.496345285656423,0.497991494529747,0.499179786880971,0.498956396349073,0.544886350970163,0.58836457745801,0.56659330873449,0.545465585601932,0.561179809037646,0.568719700823567,0.566557853640527,0.56564679802789,0.563690278531295,0.561496074241335,0.590256749603424,0.637288057601576,0.60655126862887,0.605575584423868,0.608928081842901,0.610917522436779,0.611734064719956,0.617149710828765,0.598989742840264,0.587040913215662,0.585879764988868,0.584576624774363,0.58153680635302,0.577502333765118,0.579377541096475,0.591448317365194,0.569772612010622,0.568120690995164,0.568847978487503,0.568721921497998,0.569727312781824,0.570067907434485,0.570100855335351,0.571317074155662,0.571933065820554,0.578584855672469,0.596498934312279,0.633933108397579,0.632579256848315,0.635206476579358,0.643295952507159,0.651399917976013,0.650206757055778,0.648603170882213,0.645726038089908,0.64411745477465,0.684016615060749,0.755831188133247,0.756204801076744,0.757780907171518,0.730064084590061,0.731493808016011,0.728670095522881,0.725618689455065,0.724685821155854,0.724380122172809,0.719165106896145,0.716914124241324,0.717376199663495,0.717096362807625
0.00355058912195201,0.00387316499071067,0.00355449473508261,0.00386698021704714,0.00353714837609259,0.00382903852846558,0.00348141276215406,0.00379449142226441,0.00346987569533799,0.00381280228232422,0.00351725902895058,0.00386116867608285,0.00356330676207436,0.00391406462699504,0.00361433559354815,0.00392443833974268,0.00358244374952406,0.00390113714008954,0.00356045153026838,0.00386026983977115,0.00350111080992853,0.00390589373899756,0.00361479530621186,0.00402018576890565,0.00364131817125894,0.0040877623387789,0.00372483765122214,0.00422508416383705,0.00388614939625048,0.00446334022388093,0.00412918390964004,0.00463155708645084,0.00423505987915897,0.00464297915988363,0.00418363277630774,0.00443211845043167,0.00428799664852383,0.00481255241651015,0.00459104397813657,0.00503680894702928,0.00471639530259597,0.00518337844651489,0.00473330591371209,0.00478491911664607,0.00371181152954165,0.0020821537295642,0,0,0.00230323546715537,0.133572520640618,0.248052529940119,0.249789641840529,0.251007692279736,0.251335024424199,0.252358903080809,0.251738783088947,0.248574247827481,0.23682818744996,0.216491746855313,0.216286957565276,0.217878268781554,0.217803073672338,0.219567249836604,0.219743461622792,0.219610781047074,0.21599111491805,0.213720173720395,0.210135304482231,0.207140119435501,0.204263297445407,0.201374155611483,0.199908437330559,0.201357899555702,0.205428730283986,0.208021202023588,0.206368213144223,0.202352390207291,0.224922871659946,0.236702872163616,0.238511889397924,0.24542514336443,0.253879684325049,0.261178787894065,0.268258523702917,0.27403811971059,0.279462937060151,0.284934525605926,0.315690069199698,0.331544290581025,0.342664236958574,0.357498512536097,0.374449639056608,0.391490320669825,0.406831596785448,0.41889364023916,0.433618353962192,0.450377968011704,0.477652091074701,0.493937955401021,0.495091479551084,0.49873359815504,0.500218196024259,0.502898648160138,0.520927751387018,0.528446508395318,0.534363228645289,0.546133788212912,0.554442468410488,0.566055242574874,0.565839132143444,0.565715609414469,0.563694427347363,0.561492908707425,0.572600132267291,0.580093757077668,0.58845728000638,0.596684258856208,0.603544011086529,0.610617693543357,0.609490739173955,0.607659378990663,0.598575820774737,0.588582008230586,0.585474063275383,0.584208833050857,0.581452465836801,0.577317259980707,0.57200388608559,0.570287398641497,0.569767099500076,0.568883066442033,0.568158531499906,0.568587589405548,0.569103267553763,0.567433758040209,0.568208699296184,0.571359131028815,0.572857290253544,0.576463521882441,0.587868784161683,0.599408088294722,0.611957647810681,0.632258426652485,0.635877544409408,0.639397412544361,0.642321375823588,0.644388705400026,0.645357940128044,0.663112790345281,0.681554244506957,0.692970831641465,0.695203009811576,0.697070270792154,0.698917928729756,0.700758383462709,0.702654972308672,0.704774773540709,0.707176568606761,0.709762700160751,0.712444137131472,0.715283648551616,0.714292151324749,0.713042156509185
0.00392180905991787,0.00353599481833023,0.00398960836500255,0.00352653210210405,0.00391558676493121,0.00348207784633142,0.00389042120886205,0.00346920222864391,0.00390171608490889,0.0035117698513612,0.00400624980931147,0.00356815005681412,0.00401857875828394,0.00360399710270019,0.00409757609463124,0.00355833063885393,0.00391412554695579,0.00356954482999539,0.00415221885703849,0.00358459940327514,0.003998127341715,0.00358192270261573,0.0041490440180664,0.00358640028762077,0.00394973379779414,0.00357303675132262,0.0040858043942517,0.00365576472374181,0.00411820421785549,0.00383835098895889,0.00438101954389064,0.0040088572613223,0.0042494439688884,0.00412156731483858,0.00435802814925601,0.00415063953696855,0.00447259932845661,0.00442458350093156,0.00464638917794377,0.00454526285858167,0.0044223622309337,0.00463895024684859,0.0043992216417905,0.00452235028593193,0.00405129538230631,0.00339527164065767,0.00315551256067318,0.00249674118233358,0.00296218755326523,0.0925026393410715,0.248287548887407,0.249201387103198,0.2501874848532,0.250634765177397,0.251531138328546,0.126616764679926,0.00305307643919274,0.139498956205801,0.219948932936195,0.217926318403526,0.21982014124575,0.217826725974991,0.220644165074212,0.220705193108349,0.222426571110511,0.211478840168372,0.202214358892308,0.201678024054569,0.202979812254741,0.200405230284956,0.198446845311378,0.199460432437684,0.19992336877668,0.203328807567242,0.217158576524257,0.202514071340628,0.179594753937051,0.219777422803035,0.234543682767448,0.216589423360979,0.189682097127159,0.219955155876175,0.234714765592957,0.234750604781716,0.231974444980087,0.26306093109103,0.281067158331574,0.289556313890724,0.296712644087361,0.312649121194024,0.343616998932803,0.312242711921534,0.29848282320185,0.300135988973518,0.29749329302815,0.392277110160557,0.453980485421891,0.468316894515012,0.491081076794049,0.492337652350782,0.502124683678731,0.500137209386767,0.50890941444505,0.512979685998807,0.517889442497,0.533086177109007,0.545368738432609,0.549173574533552,0.583421815605966,0.566335400812876,0.568039213492075,0.56437977189819,0.561446173505552,0.56192014510059,0.561993620611954,0.561573757011297,0.56064114348858,0.578363703718054,0.610733122735282,0.607027855765824,0.604281506967795,0.598014329273672,0.589552725441785,0.575660717582401,0.563167166511549,0.56707398199664,0.569788984621007,0.570106495523677,0.569914207592372,0.569874012278509,0.569766757324335,0.56203027005892,0.553741739713535,0.556393888244867,0.561011098555551,0.563680973096223,0.572450239658561,0.57069315232002,0.564875631339224,0.565563389217879,0.568270285882983,0.595271287588766,0.628877745244043,0.624036252701045,0.620846229007642,0.622490087023173,0.624386326547996,0.636378586635109,0.680054190793697,0.680360473788832,0.690791865234392,0.687303016865631,0.683955465792841,0.684113520302387,0.683667406359328,0.683236149644995,0.682157527178816,0.67887621033165,0.675000792962563,0.697311823152242,0.717883645276459,0.692592035603058,0.673115896314668
0.00356786858590369,0.00388791832484544,0.00356458935956809,0.00385845643869747,0.00350629819384153,0.00381459811373818,0.00348322697064994,0.00381048955428579,0.00350341486597427,0.00384829200434516,0.00355855901479415,0.00391263100187358,0.00362744399718431,0.0039172560251364,0.00356151984730514,0.00383726179261575,0.00347449754255881,0.00387191390229164,0.0036232124136497,0.00393203832973974,0.00359537673360138,0.00393322372447681,0.00362305055265941,0.00392483966522961,0.00354639478614289,0.00388565182068087,0.0035254290908435,0.00391758555265819,0.00359293630066091,0.00406274602425455,0.00376429588598801,0.00422088783770109,0.003848844559203,0.00436078732330588,0.00398917728374011,0.00450484301825241,0.00416940170520886,0.00472828364631479,0.00432855503241662,0.00483793839392733,0.00437983069613166,0.00492157076404707,0.0044575578226704,0.00488405275157874,0.00434999027169259,0.00441540668742674,0.00384270847874968,0.00353913316494863,0.00235585481838821,0.000216512381115874,0,0.000384402426870209,0.000911312765786969,2.6739701863504e-05,0.00058806313985607,0,0.00188110824025238,0.0845894531214218,0.116641174222795,0.148582104665811,0.217860391672473,0.215100524539727,0.213930966518997,0.210552874390507,0.212429404498624,0.206954956132162,0.200885191101277,0.200899829912912,0.200582284932132,0.200902689525556,0.200612087814276,0.20036352264179,0.200149747694851,0.199329495182029,0.197528418910222,0.198942722624311,0.19944562750272,0.198357331803228,0.196800918574368,0.194111919850326,0.191260349560944,0.216782123136849,0.219813484548262,0.222073621332721,0.224432840868984,0.246433018150226,0.254146847791717,0.259614208460112,0.263419597669622,0.268390505928862,0.275910467629588,0.285435836096932,0.302831313076924,0.304315786656362,0.308238035609666,0.358062817691845,0.370727375677031,0.387770705862184,0.401171284029879,0.415290468993887,0.427640753779278,0.438151335522592,0.448628233650801,0.458068561591862,0.46467303567447,0.469980003065145,0.475944812357372,0.482279128787461,0.490143566040601,0.499351020372909,0.509590771396204,0.520187722516513,0.530883305981263,0.541103462862158,0.549505242336629,0.55530216176138,0.558540962408062,0.565807144170247,0.598415180377178,0.600156956981497,0.600559293000353,0.59774563830599,0.593533977120279,0.567776812851086,0.560840529964001,0.560005898614992,0.561773109315825,0.564394643377574,0.565727086209639,0.564897029892048,0.562168868229776,0.559219980201329,0.555845165570854,0.556673732569271,0.559405782583734,0.56142182553218,0.563480828218515,0.564459055539699,0.564101082500586,0.564377256394177,0.567653597929524,0.579248483025749,0.585009856817037,0.590417335128442,0.598743488446926,0.599752625319002,0.601105707726206,0.60380929986983,0.607545113684477,0.611939720668422,0.616760513197408,0.621744915851627,0.626630223966491,0.631230772808851,0.635291075763878,0.638407234647447,0.643398259750256,0.648638178403501,0.653323628441482,0.655902765062016,0.657228693796824,0.659815892601285,0.662870140767412
0.00410002731033748,0.00360147149695201,0.0040478528209168,0.00355624462816579,0.0039581570986129,0.00350857016493809,0.00393651436429144,0.00350895233461796,0.00397209506416348,0.00354174070863578,0.00398850533444546,0.00361643360840064,0.00418744527187706,0.00359106688732077,0.00392590915490777,0.00346071104429701,0.00381556232166843,0.0035171541622013,0.00409748950144151,0.00361808882082219,0.00411525708695996,0.00362065108373165,0.00412781043124817,0.00360836413409951,0.00411069107462423,0.00352576324017255,0.00393380082384211,0.00348594833516901,0.00401957297557157,0.00356692181418611,0.00412369484701088,0.00364566621404149,0.0041233892270525,0.00372092797984201,0.00412309572689226,0.00385774717684916,0.00431918527211445,0.00402089948681167,0.0043509562429457,0.00411696593011257,0.00441197599501455,0.00418555105785205,0.00434764933948749,0.00428842488477806,0.00448233719840829,0.00427688402020862,0.00428787711327927,0.00397738074073942,0.00365810727836806,0.00200718951495913,0.00276265508349889,0.00215486039661009,0.00298104216119143,0.00235994287249009,0.00288942220063324,0.00241325894863613,0.00341195493489221,0.00448568944919145,0.00404200304908179,0.10620266838445,0.220917739358279,0.140626799174389,0.00332623999931184,0.157493879578535,0.213760603698518,0.204949005605863,0.192031956746386,0.187067731228779,0.187826162866003,0.184870789538494,0.186095019929438,0.184854048769258,0.163470377192105,0.191306098517271,0.194367304817757,0.197396925627231,0.201353123866779,0.198973447421769,0.197836945255672,0.195194349356091,0.190766269925702,0.213652441226181,0.211684003934574,0.212308432830217,0.210751534888543,0.235577746743017,0.24223226672211,0.247631534002215,0.257770114990107,0.252217296923993,0.246748948018221,0.281174368799071,0.303657017017547,0.304291446159627,0.31421574290997,0.332325017310534,0.355545905752038,0.356496123121344,0.358620234689305,0.367315487398186,0.374414902305704,0.370039834103794,0.364701026015342,0.407988422537322,0.431551612794545,0.443154808301738,0.457160929329244,0.458468891614256,0.460145143357885,0.460714895717354,0.461385225905443,0.461430406074234,0.462055548138167,0.471445675206035,0.476424343425588,0.496569490394314,0.511469389632584,0.539726302383685,0.598332995558009,0.599275428804113,0.600483385389837,0.599648737798802,0.601051162266232,0.563947238263268,0.554180774069532,0.550369956097392,0.549326296348136,0.54789697033074,0.548188505281234,0.540644304489129,0.527338667123796,0.528177660204401,0.529151938028637,0.513181216317746,0.502703784147084,0.528549421918682,0.552222518793187,0.559391133576048,0.562463642864967,0.562048834032339,0.572367017595299,0.556930565377989,0.537825063218346,0.565965304216215,0.595599468272122,0.56901858702758,0.548754338709924,0.549641178086691,0.550742660035851,0.556613096656368,0.560134650235425,0.56127467290245,0.557553597128118,0.578088156178942,0.581656843124272,0.589788959414621,0.601731495393106,0.593378404633409,0.585464792564325,0.585083672873354,0.585298750485003,0.624349463259942,0.666008568006436
0.00357480540222967,0.00389634966578186,0.00357831703244675,0.00388291526053523,0.00354978225346242,0.00384411359515171,0.00350536210573667,0.00383409821818164,0.00353328097642488,0.00387604668780103,0.00358157211018304,0.00389843796963389,0.00357050053787561,0.00386016676577509,0.00350399755077824,0.00379637426995405,0.00344813817826283,0.0038241522632552,0.00354681885132569,0.00388489152574605,0.00356514947743422,0.00389143731167755,0.00356040621603614,0.00388781984585069,0.00354531032244159,0.00382457317264509,0.00343959547796176,0.00376640414110932,0.00342960767789166,0.003802135513176,0.00348771993304549,0.00387265184084763,0.00353415895595821,0.00395404170782901,0.00360553044382378,0.00407967034820093,0.00374170114192317,0.00424992937760258,0.0038970419776516,0.00438025631911401,0.00398553414257508,0.00442598029115396,0.00398650618647693,0.0045342260984998,0.00416641521077326,0.00469774145504396,0.00428786820269768,0.00464912230633206,0.0038672607687598,0.00350739180236536,0.00318733003956979,0.00335925742461827,0.00334684539532416,0.00363112739845565,0.00353132594829043,0.0038182515329079,0.00424761428920981,0.00508589258320455,0.00496342765723897,0.0623514717497214,0.0811308251546707,0.0971665159574886,0.117378199355331,0.13617510165878,0.15431797075266,0.17475014907585,0.177154810454745,0.179081585360334,0.18335953804184,0.18370370329166,0.184817211810307,0.18516658795497,0.187201497866511,0.189459892919179,0.191974271508122,0.195127893229437,0.199001723819149,0.197674586697438,0.196432030956953,0.197295762364849,0.199608406849448,0.212215712955182,0.21537306167001,0.216907108726078,0.222500316073029,0.230172004601219,0.237393543489803,0.24273435874537,0.246983552904508,0.249281962644431,0.247929625386909,0.263222247302057,0.276241595812969,0.2888925628807,0.299383770228076,0.310252973691234,0.322655715771013,0.334848185899728,0.357725156759478,0.359102231272286,0.36127587666326,0.363235530837476,0.364358471833055,0.376900947377586,0.390312096670142,0.404672410221834,0.421009557458589,0.434948086936829,0.460742373639961,0.460945631399058,0.461320967779504,0.461164527463619,0.461129247850821,0.467528774450536,0.479219253501615,0.481190413925034,0.484642690986499,0.490604688515203,0.507822706318254,0.506656849509908,0.504780326308195,0.503717669989936,0.502396150520485,0.501367821519134,0.501354681135568,0.502621795255441,0.504790396860239,0.507153656584136,0.508989473913039,0.509759635161736,0.509376621284804,0.50832179424793,0.507314718041519,0.506779534902117,0.506573592865245,0.510008809258617,0.512531091105909,0.514099849848144,0.515311030564212,0.516915120519177,0.519549036458237,0.523645125167397,0.529047489116523,0.534752862681028,0.53987744498627,0.543537804691773,0.545611562642473,0.54711651265331,0.549477695143135,0.552404688218451,0.5625351876061,0.568321983969607,0.575663601121681,0.578854193499547,0.580041328703861,0.581326485325137,0.582976709472231,0.584237497964911,0.584729379761733,0.585238080509309,0.586082340799719,0.587463957410274,0.588061510426963
0.00396583839229141,0.00355180960076251,0.0040095713265891,0.00356957518172301,0.00403355668938321,0.00353676702379406,0.0039234135445553,0.00351371814161838,0.00396644186196785,0.00357193118292454,0.00408028823678876,0.00354805268142416,0.00385709971696234,0.00349525667573418,0.0039602645333568,0.00348726758746925,0.00388889436133664,0.00349019199196173,0.00392046523515939,0.00350629789090179,0.00392137793366509,0.00351061471565207,0.00390664487961935,0.00352363003620511,0.00395568256296526,0.0034693275347911,0.00386418208750384,0.00339164008365048,0.00380872796572343,0.0034013431345337,0.00388775937752171,0.00345416468382678,0.00395491021882148,0.00349890898773393,0.00398164183692533,0.00355271955245073,0.00401472079044712,0.00369468286985849,0.00428087946373595,0.00384045615677754,0.00434882525313389,0.00382372288244382,0.00414678374806616,0.00385541887209046,0.00423985006763449,0.00401990329444423,0.00428960535455436,0.00415955809184997,0.00430972972761523,0.00387722691637152,0.00424456318609483,0.00377724288530879,0.0041570516047712,0.00386879308648399,0.00405558577232004,0.00417522980259133,0.00416712000510879,0.00498917610887827,0.00444300886615431,0.0050960894761462,0.0040656417182873,0.0795650365665051,0.212155000004556,0.115121769297643,0.00320523999933688,0.175989584681953,0.180053568310422,0.180059395310147,0.183488672217751,0.18306953875338,0.18389318777195,0.184382730544611,0.186049435912562,0.187818234350175,0.18826330103512,0.192527848403977,0.20167871017769,0.196366284821413,0.193112313397739,0.197916577200962,0.202454127148102,0.209497848869426,0.218444423935079,0.218371628642965,0.226500652610888,0.222976041847067,0.197105759179776,0.240322911845487,0.248523676966651,0.248538212673258,0.246598619164513,0.2458907215769,0.244130657260864,0.251551056437937,0.266592801506046,0.263686690835774,0.256872322420372,0.307087306705659,0.356341232354357,0.332843666596631,0.311124642211647,0.319290340634603,0.327941669026855,0.325151255905614,0.320348834336649,0.3505832511307,0.363298122140265,0.408587762534539,0.46152010700282,0.461432147623503,0.462159695954164,0.461936294794223,0.462947247326684,0.464507902538909,0.478973093267904,0.478057316807559,0.476459071674351,0.49010323171987,0.504233964100776,0.505023514317019,0.503263981950998,0.487826343064685,0.472328713369385,0.473349507443053,0.47415936195867,0.475942653423666,0.476404180337952,0.491820551203437,0.508208421432118,0.507146511716507,0.506050978890986,0.501875366661865,0.497554903895526,0.497437223785973,0.497040337971377,0.495770687067733,0.495822530341786,0.48925514517844,0.47541714290862,0.476845684187474,0.47728407521104,0.50207404181237,0.527931720067258,0.528046430556381,0.528282814542073,0.524570983909964,0.520823542095508,0.517866078858232,0.51485063191849,0.535981810246637,0.576535193665342,0.574438094130392,0.577573632983378,0.568215715759797,0.556210419604309,0.572008349712863,0.582927557478558,0.562302405378538,0.542277387238967,0.5440225669252,0.545751846388129,0.560638701872214,0.585491001704722
0.00355541228493764,0.00385930840997425,0.00351966457228485,0.00387261184547253,0.0035835846968818,0.00386294307464016,0.0035093927870482,0.00384553694217779,0.00355504721516533,0.00387910656803499,0.00356841812519511,0.0038728186677177,0.00353469282093435,0.00382474052378116,0.00347782134248293,0.00383052082633349,0.00354947656144754,0.00385962400719456,0.00352114274413231,0.00383672411575098,0.00350488949797665,0.00386996323484402,0.00358073012391143,0.00390373200951386,0.00355977786590375,0.00380925790700305,0.00340246390591884,0.00373114021478005,0.00340511042257017,0.00375519780568028,0.0034389424239081,0.00379966626574712,0.00348927340490189,0.00382822589957413,0.00348079671202096,0.00385397264368387,0.00351938939731624,0.0039421193584309,0.00363453821879692,0.00405367002835671,0.00372157535857164,0.00406395260733094,0.00365796998416964,0.00413561450406014,0.00382289299168434,0.0042873263591826,0.00390115513279029,0.00445289191262334,0.00404165245925762,0.00449745433276225,0.00408382531278042,0.00446464765431012,0.00406113342425259,0.00449567641327059,0.00418919723318528,0.00478873097299746,0.00466779019835735,0.00538711046305052,0.00518607692478576,0.00561584268888515,0.00512857763997112,0.0516364382204314,0.0729584824236201,0.0943876332202732,0.11683543077003,0.175869931120659,0.177663780376285,0.178109741651799,0.179714287258245,0.179743980505711,0.1806184029426,0.181329171030656,0.18488147537409,0.186626331644921,0.18939072907507,0.191991149005299,0.19316551840218,0.193481928986595,0.195189140557394,0.197047305019851,0.198980570056535,0.207268236542408,0.221643569051659,0.221100203813823,0.222830879188072,0.221024750610662,0.218820231190827,0.236966999848603,0.24913274000489,0.248253764928176,0.246234071089808,0.246210608712918,0.245805242352754,0.248565089334819,0.250869235997095,0.253275685798069,0.255908439518835,0.265068961463248,0.27426070486815,0.284736640129909,0.299912738931439,0.301213282117281,0.307033267833108,0.312528822520056,0.320956712195853,0.341747839488368,0.366228742859081,0.374964415075931,0.378191111791797,0.382169270776598,0.387136188533816,0.392728466442183,0.398750481946003,0.40559843283716,0.412330695094887,0.419680469155611,0.427151011133707,0.43471445946318,0.442215141066502,0.449897429663383,0.456941114279459,0.462948800544847,0.467997103246064,0.471738862020116,0.47653823190805,0.477057881412774,0.477783847148298,0.479734721010843,0.482104358254452,0.485061861224463,0.487948198113641,0.489474378179995,0.490777298878063,0.492411054812103,0.493997159407599,0.494715221921964,0.494779008622897,0.486065538308115,0.475245532245989,0.477372916982082,0.479975085827986,0.485957530881045,0.489401732858663,0.492323288511821,0.495114181661948,0.498113130099307,0.501761254172455,0.507148292624604,0.511405594680576,0.515280531564017,0.52874375890633,0.528460619122979,0.527703890628076,0.527842291740032,0.528985451864082,0.530986352019475,0.533765463150968,0.537214704557749,0.541121322861162,0.544052774710396,0.546931545883099,0.546303581827698,0.543571987359606
0.00407909499775822,0.00353299845468996,0.00385843241720921,0.00354128624767894,0.0040829022371945,0.0035473810593263,0.00392015295105191,0.00353033109251658,0.0040417473663397,0.00354686865709813,0.00395455754323429,0.00356441149521512,0.00410055098680005,0.00351326762595395,0.00381776468532883,0.00352591969001629,0.0041471566689953,0.00359015817144259,0.00400167203337847,0.00351952773639644,0.00393019450028361,0.0035813850879258,0.00418620601151954,0.0036427855407955,0.00412047108231076,0.003493029512598,0.0037663421605552,0.00341141993917121,0.00390859004757106,0.00346538146500657,0.00393357077398285,0.00350772833136128,0.00403591839062458,0.00351446524045045,0.00394775894441513,0.00349218985002011,0.00396517739997056,0.00351435492936721,0.00396655197665981,0.00359393041337458,0.00413918391739054,0.0036046612833608,0.00401505938583577,0.00368192009239692,0.00433307119869721,0.00375476022887304,0.00411071212693826,0.00379428555876231,0.00423215288134951,0.00391712718998031,0.00430290302441697,0.00394955064795999,0.00428211453743669,0.00397970891900546,0.00425058813986955,0.00421561186080191,0.00439903358924145,0.0047296093619883,0.00464687711681424,0.00519640517331781,0.00460943034885337,0.0051271571160902,0.00407429513931308,0.0731643423472858,0.178137213936558,0.176749006935025,0.177512494351164,0.176922536675056,0.176805711979319,0.176795349729117,0.175919255532119,0.176313256099008,0.174569501360717,0.173650673396726,0.172163677242048,0.170691214607651,0.173019606796099,0.189098261268129,0.198206181830532,0.196764713043957,0.20088564028939,0.207203158039152,0.221630305758793,0.219652716524243,0.221285363693885,0.220150355224289,0.216220784908275,0.232371553520628,0.249136078572714,0.247129410868284,0.242416517118187,0.245197448807569,0.243084060070204,0.239721515696194,0.237518150664485,0.24713263940882,0.257193144099343,0.256072395173662,0.25416993970063,0.27366182200876,0.297089537104895,0.285566814119044,0.275205623361933,0.303417665262423,0.320376872433806,0.334152058249681,0.369207515220361,0.369560016886946,0.371648368963928,0.372714323883852,0.373727109785352,0.368870748432386,0.363687034734662,0.380062418129343,0.400561472252561,0.379403045584605,0.365850533882032,0.365512674544679,0.365314487924194,0.365392296838736,0.365785347751602,0.364496866073964,0.365697410778818,0.417864658700761,0.47743542755278,0.477551648542835,0.47795686633991,0.466061553143968,0.443252359507438,0.462250762268579,0.479326429396567,0.460628646778138,0.44119865388092,0.441736745005264,0.441857437991257,0.469448294176653,0.506627423706417,0.46681674742098,0.451086721315256,0.453417690559073,0.453482436489706,0.450707308538337,0.431668597681866,0.437913322129396,0.428847564712714,0.474114792791075,0.499960973501118,0.500086770236528,0.500303425567864,0.511919202300456,0.52637037925953,0.509910691383012,0.497285773109827,0.496065973945904,0.495091886533581,0.498990229644492,0.503049401404247,0.503699443965644,0.503662169034259,0.52479755705712,0.550958078701973,0.537619395689033,0.52938428577267
0.00352321709494867,0.00385649171174225,0.00354863530406943,0.00386960059504301,0.00354297128697202,0.00383856892416416,0.00349586275881144,0.00382627962420004,0.00352251201000185,0.00382339872706751,0.00348830770409117,0.00384257997542797,0.00355747744366314,0.00382727283629808,0.00346528879350951,0.00383183007810787,0.00356694685734491,0.00388242185514569,0.00354953178829358,0.00384514760436073,0.00350014561613554,0.00387825523153003,0.0036078530415439,0.00390174730482441,0.00353846077313603,0.00381907516230591,0.00345083697477012,0.0037885077064738,0.00347680510563232,0.00382866789765873,0.00352562064671656,0.00385306868535089,0.00352751147986255,0.00386509879436602,0.00354699066442381,0.00384016242822861,0.00347659747617022,0.00383699650710634,0.00353002678711744,0.00389196413307026,0.00356640660265755,0.00390973964683383,0.00357626803445044,0.00398124746458275,0.00369377160899541,0.00401748129359856,0.0036160170814305,0.00402540771212943,0.00366089780397632,0.00413627863603618,0.003766273143288,0.0042036396650311,0.00379943622107217,0.00427713090815981,0.0039475960980857,0.00445109218372474,0.00416560629958617,0.00484213351691303,0.00471180453771851,0.00538986114799349,0.00511888221861991,0.00558977573593472,0.00511857787545299,0.0515843445911346,0.0857448039441669,0.116850896452877,0.176484062164586,0.175387678682727,0.174814571172476,0.173842420184253,0.17362107759676,0.17310194387246,0.172821822045395,0.171864200687799,0.171062906281731,0.169706025810571,0.169929819690665,0.185458276976054,0.187108791762991,0.190410913872959,0.205958940770999,0.207795933381739,0.209589016507935,0.213140930834607,0.223335386357794,0.221782250098101,0.220630049720627,0.222673340007764,0.226739792954038,0.229380441218178,0.229745677911873,0.231016749884501,0.233475660481954,0.23716699853893,0.238990961851795,0.244810208709514,0.24977626071555,0.253936756256093,0.257217205310185,0.262544136712619,0.26622860614155,0.268718773317007,0.271159542498142,0.27568400533733,0.280295907353893,0.285657557220991,0.290961439143121,0.295793897959791,0.301260752037926,0.30624635321702,0.311123535036748,0.31674944237917,0.323231209507108,0.330511334412495,0.350213088912532,0.352354900382412,0.353052060038255,0.354410946007124,0.356283967051436,0.358117739753845,0.36003447562229,0.362508933711735,0.363749576433148,0.371817202766652,0.384423199140041,0.398800542525243,0.413857677563333,0.428571473571066,0.43750664016985,0.437904999183306,0.438824244397669,0.43984883883549,0.440701829262319,0.441737915816338,0.442749520709557,0.445119553645044,0.447062655680198,0.447554902513961,0.447936849273184,0.446888257076741,0.447123555889709,0.448243767191661,0.44884428023159,0.446414565830902,0.448901772492411,0.451089090680055,0.456336547119395,0.461496002042972,0.480161034178642,0.481162202480636,0.481129662288474,0.482859145340288,0.48466065222629,0.487132919090683,0.490075668919836,0.493475779951733,0.496998009630455,0.500707115579082,0.50361056555218,0.504279376818232,0.506802578479276,0.508479052080856,0.510078408022178
0.00383923102142847,0.00354338027104896,0.00412961732770431,0.00356876637478895,0.00389712751634798,0.003493119534751,0.0039115326319612,0.00348277917171448,0.00390964445030647,0.0034619915848618,0.00384376798264902,0.00348438983575345,0.00397353432275206,0.00349444156450985,0.00390403577217943,0.00348673353042024,0.00393358886703521,0.00353608626593792,0.00400350031040489,0.00351971984106562,0.00388701095616431,0.00352766141899607,0.00400748563712502,0.00351819276242548,0.00385418262801161,0.0034905565402003,0.00396952255409378,0.00350733619572141,0.00392299127072804,0.00353618086539574,0.00403790177453085,0.00354068196946757,0.00392446878472536,0.0035598966599244,0.00412432950862161,0.00352661488483249,0.00387263901244781,0.00349916824294561,0.00405368557525202,0.00354431779890013,0.00398408895900585,0.00355831430351429,0.00409888539474091,0.00362831689208463,0.00417703846998014,0.00361038412371114,0.0040483941933292,0.00354015635550935,0.00395080394098001,0.00358493735642519,0.00408397238781191,0.00363483941009945,0.00405724706650042,0.00373377668038374,0.00433834616509434,0.00385287737245236,0.00415701110259378,0.00411702845250437,0.00442929518210078,0.00462397963028774,0.00439132662955308,0.00509578324130229,0.00459754233563282,0.00507166154338944,0.00409165976058422,0.0883542970140146,0.177285027171959,0.175092577267996,0.173282077358378,0.172171482068541,0.170947856811662,0.171312789230507,0.171081220148662,0.171117862120519,0.170344964148128,0.170548942263493,0.17178212758663,0.182171891392182,0.181913661495623,0.189304899415378,0.209510823817653,0.208304305922336,0.207499020086355,0.210496539629386,0.226401377441787,0.223295065640599,0.222011444242069,0.221695052752809,0.218351756012219,0.218938336063411,0.220294623099612,0.228249362915004,0.233493902583554,0.235799340604348,0.235632081059386,0.22020419162135,0.212916397276242,0.211137188781511,0.208801319850392,0.212768022124769,0.214138047325264,0.200790165971827,0.194079184511609,0.195527807811154,0.197861683575809,0.217226858804834,0.231971601998267,0.224046901795969,0.216268673236523,0.216388238333331,0.21700046873461,0.275436562846932,0.299201998989028,0.320001390935079,0.344309142603682,0.316496916867386,0.296199822046395,0.279451425852821,0.268541648898263,0.30827166362576,0.336760107015616,0.337279280248245,0.33776805574555,0.349155909856469,0.362670710750153,0.355162196794365,0.347495864775002,0.384778318594793,0.438112836987874,0.438100448558601,0.438748733496083,0.439512883702763,0.439528999383668,0.441205556908248,0.441903033446014,0.445162835965246,0.448198883462942,0.44744671204239,0.446411673462604,0.442159980394434,0.439535817530803,0.445594575559547,0.448784210349781,0.448586850625443,0.449620131902858,0.440839253854637,0.419755774615429,0.448795516071123,0.47540531758217,0.478896603110199,0.478084615839778,0.466930565037568,0.45856011749941,0.458039308314091,0.458576601097576,0.470735468367666,0.480366402255288,0.488293650814637,0.495636644906278,0.500187661328427,0.506500185200649,0.484836936001217,0.466486183195627
0.00350846239668142,0.00386834086890191,0.00359782334426807,0.0038963610321593,0.00355095248710259,0.00383961994356933,0.00348680002018627,0.00379538514016697,0.00346140741161072,0.0037818011011259,0.00345778475448396,0.003789817819235,0.00347209595948062,0.00378964678557757,0.00346217892349363,0.00380131220450942,0.00349777085558153,0.00385688200150765,0.00356216331200767,0.00388259620448375,0.00354857192573989,0.0038817454772673,0.0035531625070911,0.00385382263684112,0.00349497152062163,0.0038612777943854,0.00357769553055726,0.00388630652333711,0.00355142985729619,0.00389160889302577,0.00358928036569532,0.00388837297392425,0.00354151153604909,0.00387782440611913,0.0035603202226306,0.00383526116719047,0.00345810616551782,0.00381431061600981,0.0035150896593015,0.00384834551821701,0.00351606304797233,0.00387108916072517,0.00356855760490802,0.00392357638039327,0.00360636937669046,0.00389472726161684,0.00350683345363549,0.00384184133335022,0.00349536986408192,0.00387437095273167,0.00353444102425412,0.00390702159970915,0.00354814664870389,0.00396174797367952,0.00364836461762913,0.00404993213488296,0.00373407140035061,0.00430156764457299,0.00412915305714596,0.00478772097464288,0.00462093940159141,0.00533160737493816,0.00508420260347352,0.00550166445465776,0.00501684041669717,0.0595334603706278,0.0891002641318907,0.118316977841977,0.171661255029405,0.170893845572357,0.170734746830661,0.16985740965761,0.170623137444739,0.17015437941347,0.171269575460865,0.17151796159722,0.173689474082486,0.177800491280321,0.180983143527042,0.187433098060495,0.19236889938118,0.197263441371852,0.204220433421904,0.210999115161957,0.21718506257988,0.221346640104445,0.224640090659505,0.223710453697596,0.222379145205037,0.221479914063465,0.221880813152185,0.222360939091468,0.218463103319745,0.214078161227729,0.210957433640204,0.209779951016017,0.210630065484312,0.210766425427317,0.208896516250158,0.205587543180767,0.200702433728645,0.198376717440125,0.195910361053687,0.195776596032795,0.199911169943298,0.202071940455967,0.207627599824067,0.212284655546438,0.21541662021677,0.216434471486532,0.216739751703408,0.233393109487886,0.233822952058693,0.236260726265575,0.241477139638688,0.249585788907907,0.271948564910732,0.269063689362834,0.26713353607628,0.276865102843099,0.283806773551647,0.291676368923405,0.299872795707075,0.307926892640089,0.315607670080061,0.322634555652142,0.329041794411335,0.33507188740617,0.341030736775047,0.347224793240772,0.353930019178769,0.361259060190416,0.368928013722079,0.377415173407206,0.385867278937286,0.393847070050224,0.401417038544735,0.408931518214157,0.428818510968898,0.433658395206685,0.434834452005994,0.433939532176862,0.432653386633237,0.431555856959654,0.430637042491726,0.42439629866947,0.42059144900566,0.436063066271585,0.440545853412062,0.442675738373253,0.445944466124145,0.450334835383702,0.455246555128431,0.45697921190333,0.458158715156706,0.458597674845012,0.458783014089217,0.459419414652915,0.460966682598543,0.463105204342335,0.465256527171248,0.466551571801683,0.46695947286555
0.00397514515482714,0.00354329089709358,0.00401707699137108,0.00358837723498587,0.00408764210111211,0.00354985514698926,0.00391444340301736,0.00347426562769155,0.0038706522932637,0.003469606683245,0.0039278839606789,0.00346660187415168,0.00385085132769888,0.00344803138428877,0.00387558529153128,0.00347219868140651,0.00392964701954771,0.0035402210228008,0.00404483286801776,0.00360450478622848,0.00408910285058967,0.00359965953842841,0.00401911191097065,0.00355013096667988,0.00395915556530955,0.0035828251999304,0.00413795285457494,0.00360883265183382,0.00404361929448111,0.00358769210220152,0.00407454503093505,0.00357831655023811,0.00401194945208612,0.00354463921289954,0.00394667731475732,0.00348879473069554,0.00386227852196787,0.003472869865223,0.00390764621492797,0.00350003062478927,0.00394071881313054,0.00352092276044782,0.00398519246187627,0.00357268992562577,0.00406503971789621,0.00353424940948446,0.00390407891277253,0.0034828302967429,0.00399691473811938,0.00350538874723951,0.00397966308881399,0.00350773699792172,0.00399822158256413,0.00351005582831867,0.00395997708945086,0.00354582304530843,0.00402648616479584,0.00374830369374129,0.00426917540193633,0.0041432204161112,0.00448187590931565,0.00462608527945704,0.00445857149558184,0.00502084601922428,0.00445073606844166,0.00494577793523504,0.0040130744244853,0.0882525624005277,0.171688236672572,0.17117304331612,0.172097548281052,0.169945242385297,0.171906878966563,0.1705901808442,0.172741381011829,0.172693042799494,0.174291243017391,0.175433906108198,0.175790051386725,0.17369222913048,0.175919168455213,0.173760914785478,0.168049522764077,0.16936669701377,0.170508270273286,0.195158928889087,0.227660547517701,0.225947740029497,0.226284124704149,0.224219674434306,0.225717731213344,0.222388347022748,0.220770892262121,0.214977638154936,0.20823185717662,0.208609627075739,0.208677243263468,0.204448912870504,0.193351874843107,0.194930559845339,0.19658703059135,0.19305147825915,0.187823240401769,0.195625005484462,0.218287113605786,0.2001744835275,0.200840519053352,0.211079463519339,0.216379526133419,0.216720075671701,0.216554523417702,0.21608493766623,0.215837674392254,0.218486164595796,0.220766800300501,0.241410573145783,0.269495636613372,0.267566467608302,0.263852169068898,0.26544037202568,0.267003608065677,0.260845232771009,0.252890327688655,0.260759816418525,0.266403047194148,0.264193168197453,0.262374708436748,0.282724088226244,0.310846844064831,0.309132948798771,0.307591697705835,0.307478451107204,0.307557618181655,0.308296940293766,0.30824976188254,0.307921539349864,0.307454658348292,0.364765920035489,0.420721424260546,0.395495277204491,0.371792862343561,0.35548848334371,0.344898107244892,0.386331649423213,0.436722670988326,0.38813394932729,0.34071428433802,0.391937106420919,0.437655434499863,0.432612769657981,0.427445083519564,0.449035867179267,0.456509369952724,0.453369561562055,0.449342845716129,0.447536316526486,0.444693020196171,0.436728086825937,0.4289017608901,0.448984707637589,0.465847357186972,0.466531493293474,0.466457635354646
