1.74592758101697,1.74803254094628,1.75930937684163,1.75957250682817,1.77133770910578,1.77466074930688,1.7778951370436,1.77599853570989,1.75970875776068,1.76022694943725,1.75136238400682,1.74683787230622,1.74357718316708,1.74028630433652,1.73718391095039,1.73434159706291,1.730110218021,1.76926518581147,1.80162569000449,1.80110142394244,1.79941315577571,1.79895271197811,1.79762410633229,1.79744512382054,1.79610265335665,1.79508011178548,1.79389177902284,1.79197444513067,1.79170788493213,1.77435808369115,1.72857643680223,1.77159153641203,1.7713114588711,1.74935081883895,1.7085609806057,1.70840983370626,1.70775906656494,1.70766360307839,1.72461390805694,1.76485922947041,1.78043524302942,1.78026062203094,1.77999378558821,1.77979104699562,1.78064031708759,1.78014496222414,1.77987710734675,1.77878166309835,1.77934752825447,1.78010672082594,1.78061421848745,1.76132135361029,1.7610081822167,1.76075547841688,1.76059382553702,1.76063856433018,1.79397660025105,1.79450826482617,1.79532785472461,1.78112310930805,1.74721196590267,1.74301313532239,1.73553803074159,1.77623927665895,1.8198732189965,1.80535830852738,1.8060017340689,1.80706621049775,1.80914918237799,1.80956547826034,1.8104181368986,1.81263531745282,1.81486904332764,1.81623027398269,1.82142114500511,1.8246411154205,1.82540202459025,1.82659409272746,1.82707397123717,1.82460523182106,1.82010388181892,1.81592405428518,1.81105845906703,1.81569392619708,1.82025077907549,1.82915260426328,1.85360323404884,1.85360072197101,1.85369301867145,1.84426341507487,1.84393359010356,1.84364059199639,1.84474795979635,1.82958943522452,1.80860246418987,1.81240593574645,1.81663785513479,1.82019150016889,1.82386345306615,1.81957461159477,1.81946305130103,1.81947077695642,1.81892158457188,1.81825279808528,1.8168387141582,1.82322184917037,1.82287169834305,1.82189026647089,1.81284916695283,1.80880570190937,1.80522054813398,1.80138936946856,1.78213077961905,1.78066501741806,1.77896156419443,1.77617845519431,1.77511396114547,1.77641985813704,1.77769054791056,1.77932673172159,1.77797008344885,1.77862511921236,1.77857098386683,1.78461713133719,1.84078210506328,1.84070280290929,1.84052306044432,1.79742795981338,1.79847078522772,1.7997230444662,1.79667742938183,1.78207895298449,1.77963349685545,1.7771304624602,1.77756733455992,1.77490383888539,1.77533655972076,1.77660933338143,1.77522413787462,1.7716065694541,1.7699753415803,1.76951597222016,1.76790975225498,1.76542842655923,1.76694164866209,1.7703631407059,1.77040362465143,1.77054511120627,1.76904231068801,1.76868185388562,1.76120711349521,1.76175831560779,1.76250511676076,1.76301000584416,1.78530251005155,1.76353095170213,1.76553910420215,1.76640292858567,1.76696749034706,1.76588330916887,1.7656089639967,1.76668851415961,1.76831961854611,1.76811947479949,1.76791493469204,1.76769741719384,1.76786449634673,1.76837710385166,1.76838032280938,1.76736519985895,1.75332705511594,1.75379287081741,1.75442485780365,1.75490446358868,1.75512571268646,1.7404266957873
1.73677267532908,1.74678378818907,1.76168398728516,1.7608268778688,1.76255919335541,1.77132518667765,1.81337999926792,1.77549245234382,1.73286999852307,1.75988472117153,1.8100302842724,1.81024954400205,1.80901289606901,1.80857055962857,1.80689655431934,1.74227399169849,1.72378072637493,1.76934119867745,1.80250067982231,1.7997695196596,1.80156094055576,1.79804890214239,1.7997813419551,1.79713013746311,1.79751867251269,1.7952523609483,1.79640051415645,1.79239302351837,1.79250474413533,1.77488225253823,1.71160999763074,1.7717671699737,1.79214999926792,1.74977147659377,1.70924550392965,1.70854894704089,1.70898114791403,1.70757819152741,1.70655900974365,1.76452238788548,1.7853506796088,1.7834129631453,1.78452286906383,1.78154805474432,1.78569132733669,1.78310352442749,1.78587547469423,1.78832299912038,1.78562383614716,1.7901939559745,1.78697799824741,1.78654891158273,1.82691999926792,1.74266039479163,1.71263068473812,1.73524059535151,1.82647999926792,1.79514598793435,1.79638712042545,1.78144803258355,1.72341025890587,1.73771835965009,1.72888976966981,1.77681075765896,1.90605999926792,1.80336274596634,1.79755230017933,1.80445849328294,1.79839641263675,1.80123036142477,1.79750543650739,1.80112939488565,1.79901634903368,1.81314998473969,1.87473999926792,1.8228016526353,1.79765161485205,1.82473746478763,1.88270999926792,1.8236848454756,1.79852379114375,1.81093261711723,1.79767361588981,1.81971926634288,1.88392999926792,1.85373844612572,1.88318999926792,1.85351228060422,1.87602999926792,1.84580240692031,1.86967999926792,1.8569413523817,1.86690999926792,1.83042857154372,1.79506997466182,1.80610856289732,1.79586194963981,1.81707816667728,1.87950999926792,1.81215063141216,1.79005957276826,1.78615941753899,1.79044545848343,1.80860501117546,1.86190999926792,1.82310462817936,1.87285999926792,1.82568130191476,1.86707999926792,1.85353265432648,1.87320999926792,1.80710111183741,1.78397899774,1.78172873201068,1.78223986559043,1.77606010588864,1.86390999926792,1.77638826473472,1.78393380838567,1.77844438383938,1.78299590805841,1.77783622291902,1.78022739052427,1.78476986615372,1.86868999926792,1.84062051613618,1.87992999926792,1.79883948818786,1.80163549865409,1.80052853968852,1.80406791353003,1.75924717962116,1.7041200007336,1.77456197421943,1.77690475521499,1.77470183744766,1.77437423216153,1.77660384185446,1.77469063611499,1.77036262878816,1.77008330363755,1.76858117466181,1.76828559006543,1.76532866646325,1.76678796120215,1.76994646560824,1.7694639518308,1.77032771571629,1.76814999926792,1.76896511945712,1.68795000042597,1.70340542992922,1.6889999995518,1.71848897199291,1.87761999926792,1.76318160887652,1.76563811522255,1.76639143893752,1.79005999926792,1.76563093179164,1.76565452974072,1.76682127349535,1.76838238491963,1.76827420980096,1.7684248052907,1.76791372576716,1.78509999926792,1.76887211524371,1.76830575503906,1.76791172956421,1.6889100001115,1.7028029924012,1.69003999991975,1.74468533501792,1.77215999926792,1.74038904210705
1.74218318898641,1.74719703951786,1.75250468266034,1.75547128209081,1.76343784293948,1.76687214673262,1.77025995403,1.77469112531688,1.77625440508262,1.77720053718385,1.81160474189447,1.81104106626365,1.81021666118415,1.8096503732931,1.80889892692553,1.7460438059687,1.73908304836278,1.76958487768222,1.80079831055466,1.799239154378,1.79840600325174,1.79839359226502,1.79857813444884,1.79992586272599,1.79603717569122,1.79546761800983,1.79446139884257,1.79348593005724,1.79250741306178,1.78137235827232,1.78150940880181,1.78168615148473,1.78180087340003,1.75015031634091,1.70891815455621,1.70876280402878,1.70833910406413,1.70793666850227,1.70744152019668,1.76404101531217,1.78383602692078,1.78343732206617,1.78145280203369,1.78266666175185,1.78100672945391,1.78415966533433,1.78579317142366,1.78908547935776,1.79055101624729,1.79145077450614,1.78755588694342,1.78727995533386,1.78784400795186,1.74037020321644,1.72498936534993,1.73056296891134,1.73504389605167,1.74288310809165,1.78213300476207,1.78198163492235,1.77784966488868,1.77800940267508,1.777958016291,1.77749720929687,1.82018480490036,1.80383872894621,1.80396257816491,1.80204587530393,1.79965532190477,1.80047612630706,1.80146497726412,1.79983205166834,1.80941996383324,1.81068610997868,1.81542031565443,1.82064742961227,1.82302494803312,1.82516884377993,1.82495449602071,1.82492435693419,1.82613354357156,1.82705129806685,1.82635502250179,1.82661328746605,1.85384980437091,1.85378405588042,1.85364683481439,1.84688461166178,1.8449804884362,1.84494995738542,1.85685005527338,1.85684922678385,1.85623462153707,1.82936987586663,1.80574488828538,1.80663636698196,1.80946481670788,1.81363345621107,1.80969562944252,1.80592183364339,1.78453808139355,1.78497566007197,1.78578219913968,1.804354346649,1.80854519293263,1.81309346498341,1.81666363618709,1.82757153396575,1.85452534738197,1.85429870256632,1.85384596273068,1.81431138046703,1.80664993414474,1.79930653177544,1.77856847460997,1.77639759870097,1.77624855033981,1.77707041166575,1.77823624181065,1.779252303236,1.77792384230107,1.77787359743392,1.77775635338135,1.78580580785495,1.80170827801444,1.80434633106692,1.80550217159693,1.78967682977157,1.75950251177665,1.75949341332762,1.75941194367986,1.75928905930651,1.75923333474405,1.77432698120223,1.77505462581688,1.77476163407572,1.77520639002434,1.77641490135446,1.77485486654295,1.77178547414962,1.77029539979356,1.76877237749584,1.76613768275911,1.76478867611225,1.76897523757823,1.77144557989087,1.77077812048771,1.77032088742652,1.76921956276557,1.7685516479711,1.7174215645466,1.71163142786685,1.70445811751672,1.71299616051217,1.71933657473921,1.76274218679359,1.76531104342599,1.76699878402062,1.76717479325612,1.76614187522157,1.76614263048357,1.76703209403737,1.76930235093916,1.77067005706457,1.76997256353212,1.76733447428962,1.76634664899646,1.76717411296097,1.768017794837,1.76883630942467,1.71759649634945,1.71007631696211,1.70326452084158,1.74500382099838,1.74491190863729,1.74037465910261
1.76268999926792,1.73723714703088,1.66893000073482,1.74971464861667,1.76195696267835,1.7659075249071,1.73444295705894,1.77574227561363,1.81421184386222,1.8138043951923,1.81300777002587,1.81354594007723,1.80916086538375,1.8123571479195,1.83039999926792,1.74997982901762,1.72632094955283,1.76980728272748,1.80460853342272,1.79930497150556,1.80016123403545,1.7993257030824,1.80222126513691,1.80569541861579,1.7170700007619,1.795097139298,1.7956956287918,1.79369072700553,1.79367553333277,1.78387137663546,1.79148999926792,1.78367651144799,1.79038999926792,1.75035957497641,1.70887110212347,1.72992838129972,1.78789999926792,1.72963533897941,1.70761767578028,1.76367112291075,1.78544569415776,1.78218414573872,1.78697022482464,1.78058014427769,1.78808704976122,1.78297953750996,1.78776238237756,1.78959912122732,1.70670000083391,1.79273775898785,1.78918491164086,1.78836778220906,1.78989739812909,1.73805640607611,1.71236125347958,1.71735087971312,1.71614460785191,1.7344676272194,1.79939999926792,1.78228959722709,1.80349999926792,1.77808853077158,1.82424999926792,1.80626946673928,1.90787999926792,1.80677060290983,1.7986673341312,1.81559348645713,1.88302999926792,1.80016964672234,1.7986399739137,1.79810086391731,1.88641999926792,1.80824374208766,1.79987485089092,1.81998768302906,1.87419999926792,1.82706300724627,1.79913453329685,1.81722208954287,1.87294999926792,1.82720046529652,1.88731999926792,1.85382174888675,1.89772999926792,1.85376942072108,1.89567999926792,1.8341601565952,1.7937263704479,1.84500607319969,1.87627999926792,1.85715124281538,1.87542999926792,1.82745181570202,1.79402351715269,1.81632122652634,1.87166999926792,1.81733301059395,1.79067589564183,1.78510943897663,1.78646880683385,1.78508738377082,1.789677937046,1.8003068766771,1.78941125525242,1.80081603234702,1.78949892436317,1.82956142192294,1.86894999926792,1.85498989426197,1.86249999926792,1.81953396217435,1.86300999926792,1.79942397519431,1.78356807104688,1.77802894117902,1.78136362444494,1.77876674697203,1.78217533726111,1.77843074838943,1.7804850427366,1.77823563694055,1.78049127869333,1.7871027929514,1.77782978553127,1.80422141985177,1.80470517554525,1.78977478504971,1.71277868844249,1.71111608589749,1.70773015277703,1.73614004595408,1.77930910736059,1.7763965849308,1.77633489098486,1.77365005835745,1.7738840520776,1.72452068323501,1.69614999918048,1.76670222228729,1.80374999926792,1.76735910929518,1.76809063574938,1.762270786223,1.68991000059763,1.71093273069577,1.6886400006223,1.76972603601198,1.76529013703903,1.76670445656383,1.76589361608185,1.71723066882007,1.68935999920756,1.70471595634686,1.68909000025918,1.76265615769883,1.76678365610344,1.76700302793898,1.7658608577078,1.76575382121001,1.6903700007351,1.76696271204842,1.78687999926792,1.78565906869511,1.7861541088532,1.76651704605094,1.68874000073283,1.76660378480997,1.76627817880357,1.7709574897783,1.77666938457903,1.71516130676641,1.68855000034121,1.74545096311665,1.76763350375451,1.76594069985426
1.73852763302162,1.73794888222717,1.73769457015187,1.74978283824056,1.74967144494149,1.7674155849934,1.76843680259737,1.77637728612463,1.81508592992733,1.81481728556391,1.81445293300243,1.81879516343195,1.8182855617588,1.81718158924243,1.81651564494416,1.78864350485841,1.78903705683668,1.78967339956265,1.79232122571232,1.79167327705925,1.79115666022838,1.79098771287678,1.80696197206693,1.807697841138,1.80416983075619,1.79817655430274,1.79552431806856,1.7944946702152,1.79395325098545,1.7840353309035,1.78407287048411,1.78388788517279,1.7845382412708,1.78534724508468,1.78612144718981,1.78664390709713,1.7868968948758,1.78696031436717,1.7869138842407,1.7868031510766,1.78356656821861,1.78337421564056,1.78167527418265,1.78285373850367,1.78174683847249,1.78436030899966,1.78623241378068,1.79007566675771,1.79111462494977,1.79294032702081,1.7916198075942,1.7417128635334,1.73661671125437,1.73655998454293,1.72855296984815,1.7171803265123,1.71737610573359,1.72835105976589,1.7334768267396,1.737349310812,1.74288197527186,1.75312737018257,1.80638394313105,1.80644305029582,1.80643937623601,1.80509120731407,1.81521926947512,1.82007128900782,1.8213928507054,1.80014381866877,1.79878009145362,1.79830081225651,1.79774870114275,1.79847557536869,1.79997478655648,1.82006386762628,1.82547085244093,1.82692372374943,1.81017882506781,1.81375887239541,1.82043553921169,1.82554444344937,1.85387423057051,1.85375168216299,1.85374738888424,1.83255571482201,1.8325778134007,1.83386546587856,1.83415764793856,1.84690331969209,1.85641124936105,1.8566393121858,1.85635279780957,1.83746035634762,1.83617221928221,1.83640750425306,1.83686704471714,1.82001812055349,1.78863339953555,1.78527056646795,1.78434218489397,1.79908901379517,1.79801632623776,1.7979685494799,1.79822873272198,1.80009722436825,1.80119511162763,1.8311224267294,1.85334507065905,1.85400965915097,1.85374937702503,1.8183404611245,1.81066990175969,1.80027131956674,1.80012986414036,1.79620662693314,1.78136770283746,1.7801273017182,1.77891658858944,1.77919123541606,1.77792073568179,1.77587335080232,1.7947173863574,1.80099198966076,1.80547784370727,1.80479211161636,1.80491833584173,1.78991216694978,1.73271769757929,1.70991362805468,1.70943313713341,1.73124088803425,1.77910002928327,1.77801882418125,1.77619155171701,1.75163412624536,1.72445040801244,1.71889668487982,1.71094114766364,1.76733030416035,1.76626963710028,1.76633079023241,1.76522090265362,1.76449617145841,1.76877583058341,1.7703908376706,1.7708365033313,1.77002289228568,1.76699539506985,1.76604571426147,1.76560263349687,1.75962374572006,1.75908932194578,1.75820050636707,1.75749396176319,1.76332837960954,1.76582566671098,1.76749407263275,1.76797706298997,1.76608919432581,1.76635919596936,1.76743824843315,1.77072679206468,1.7719624599384,1.77094276150037,1.76775457234112,1.76698473556341,1.76647950295903,1.76849786245333,1.7699682540558,1.77303919513315,1.71904913859165,1.70890132178405,1.74564929709479,1.76523374773196,1.76476208426463
1.66011000065222,1.73794298391422,1.75980999926792,1.7499629482489,1.67126000073286,1.76672084577659,1.81865633847609,1.8243221794962,1.82861999926792,1.8168788971223,1.81327812719578,1.82013287469252,1.72796000042125,1.81701193660266,1.81024853512937,1.80810760835791,1.80552380069994,1.79040250571358,1.80425999926792,1.77258319950982,1.72277000016553,1.78386288439887,1.83458999926792,1.80505423301441,1.79862260542729,1.79727639925723,1.79814726399508,1.7947227238435,1.79561743080305,1.77162652162841,1.71349000055507,1.78334488526887,1.78981376112256,1.78821552512819,1.78831722399741,1.78534523449158,1.83224999926792,1.78285083331768,1.78542079184712,1.7843040876517,1.78630538073031,1.78332433310659,1.78514764527898,1.78232016647848,1.78404842589802,1.78379469499548,1.78548108038639,1.78872500934605,1.78936429556693,1.79081034671442,1.78882114283012,1.73903958763802,1.71099000038507,1.73338766348725,1.79034999926792,1.71652835433158,1.71493135191442,1.71704592935488,1.71771761721373,1.724609598002,1.72452082949557,1.75285351969828,1.90711999926792,1.80638963053469,1.73487000010861,1.80542771388071,1.88879999926792,1.82254927757293,1.89037999926792,1.8005133521957,1.79893618126232,1.79653591660067,1.79899838533426,1.79576638203655,1.79874915673332,1.82067834207845,1.89182999926792,1.82647999424294,1.79949680093425,1.80978264848778,1.79932815104014,1.82400943148456,1.87275999926792,1.85343812310019,1.88593999926792,1.81929329047343,1.79685152646513,1.82056544280627,1.86923999926792,1.85303897052827,1.87547999926792,1.85643787529157,1.88014999926792,1.83877424932708,1.88628999926792,1.8530131684711,1.88535999926792,1.82113624296515,1.79175043620207,1.78819329563343,1.78923613540535,1.81208234236751,1.86476999926792,1.85081529367368,1.87589999926792,1.81286968026284,1.7892870758078,1.83199996504228,1.87289999926792,1.85370554534461,1.87193999926792,1.81859995545791,1.7888568524866,1.80159600189726,1.87857999926792,1.79595758889252,1.78286932524752,1.78013846320377,1.78388929768192,1.77888372457562,1.78104624238722,1.77645984216053,1.85608999926792,1.81286993372227,1.88649999926792,1.81148379530924,1.80595407024931,1.79001893772953,1.79193999926792,1.70970046839978,1.71029361969267,1.72604104926511,1.78147784057756,1.78029919017708,1.78199570424358,1.75125643869464,1.69744999855932,1.71118842484469,1.69412000040833,1.76818008735572,1.7681542225828,1.76626485032855,1.76752791009241,1.76537924312799,1.76769598609757,1.76732286113058,1.80096999926792,1.76982517066898,1.766932882371,1.76558704766419,1.76564680479754,1.75975101159723,1.76505438730242,1.76448802194701,1.76511329335304,1.76435552119417,1.76749483257937,1.76759346798658,1.79340999926792,1.76609896633298,1.76741213275158,1.76679364816694,1.76685267812783,1.76765202074681,1.76695826713646,1.76769229727769,1.76891979751278,1.76702579039817,1.76822047139326,1.76887266723865,1.77658680278712,1.72499897595735,1.68962000053187,1.74566481291525,1.77451313514818,1.77098052745587
1.73758927080057,1.7377990587689,1.75498352816758,1.75682398267482,1.75912501490278,1.76531479820241,1.82472713280019,1.828263827575,1.82723130880318,1.81888782454995,1.81430360333939,1.81968350704639,1.81888122542297,1.81643876850352,1.81173674031919,1.80888521770642,1.80703681225017,1.77369521657049,1.77306853438026,1.77249520687845,1.77209761424159,1.78382648017254,1.78392141885988,1.79053670778797,1.79780308890118,1.796241440519,1.79585392818811,1.77318009648078,1.77265074797852,1.77191744819064,1.77163507864271,1.78298889593889,1.78935732165389,1.78804362904443,1.78707896258149,1.78527457481539,1.78489085499358,1.78339005313152,1.78465180519974,1.78422133746702,1.78452550255588,1.78187599577393,1.78219201197666,1.78268863781646,1.78306754854515,1.7783562525522,1.7787844683097,1.77929286919162,1.77957628101311,1.74181770093182,1.74047473446176,1.73812932365532,1.73496290810315,1.72985997476963,1.72776093012596,1.71581304071359,1.7155385250303,1.71636290122363,1.71703066103459,1.72466119264002,1.72496472671591,1.75245421994093,1.80631950715962,1.80630817953641,1.80600532554896,1.80595173223065,1.80234852402408,1.80163656062707,1.80097653173103,1.80175788358548,1.79634061075579,1.79590135337126,1.79594666060569,1.79504536881075,1.79653324933472,1.82287502901306,1.82855770317767,1.82724423375427,1.82753459482928,1.82773052359951,1.82587998306415,1.82351305100339,1.81913875821015,1.81599488828784,1.81245969917356,1.81107709529094,1.80942931890075,1.8159480931927,1.85268414337873,1.85289831811355,1.85305192090512,1.84058778947485,1.83896940585287,1.83875038423281,1.85314375769896,1.85309735757116,1.85295559119112,1.82977841792567,1.82920538409631,1.82951953029252,1.83037204189036,1.83103765768775,1.85157010754208,1.85139082283338,1.85150398848976,1.83446815243438,1.83328833206944,1.83399916387543,1.83397709871558,1.83294375241418,1.81829368189994,1.81886456047472,1.81069529557207,1.80366187851843,1.80304339532005,1.79741189535055,1.79784876030285,1.78328728383078,1.77964657639344,1.77966770183744,1.77836756172257,1.77682611657391,1.80220418293979,1.81286475432803,1.81986499391617,1.81165799761845,1.80431346494052,1.7900575154319,1.73227899504562,1.70982824285441,1.70865335483791,1.72120668267599,1.74929353249398,1.74944257609219,1.74986450505305,1.75076920658462,1.75166688116203,1.75245167332555,1.75287495237638,1.7687536717778,1.76658959042334,1.76568908930801,1.76550130091575,1.76604071959059,1.76681666297109,1.76660143414137,1.76593346577418,1.76796224920204,1.7580270673064,1.7585642759481,1.75923090882255,1.75963556904657,1.76500331080161,1.76394626814197,1.7628863729234,1.76270811399434,1.76497359647067,1.76900043720449,1.77110833140421,1.77078881679842,1.76960328697071,1.74583790928433,1.74580563596167,1.7458030804757,1.74587904448651,1.74600752150252,1.74610596517437,1.75705071632382,1.76764306540137,1.76742489112779,1.76743436304881,1.76980096369982,1.7706763208232,1.77064809792454,1.77014139886837,1.7687682215367
1.74158999926792,1.73772153230434,1.75219567245903,1.75478773556877,1.76188040846936,1.76299482657412,1.82798576712117,1.8306938612459,1.82889579634164,1.81537270655941,1.8132844636685,1.81316520926395,1.81363981458183,1.81146555365936,1.81016080504461,1.80862869403405,1.80690386263245,1.74583348719077,1.72501131004864,1.74718333532907,1.83567999926792,1.78381125972467,1.72008000029999,1.79095388240329,1.79837868102411,1.7960148916703,1.79525161523559,1.7514432544916,1.71365999853478,1.75785394135208,1.79237999926792,1.78295619258718,1.79144083289573,1.78897505790199,1.78883301485839,1.78663749620976,1.78788208646364,1.78542914047123,1.78690492516283,1.78516012901392,1.7857370781212,1.72948819257902,1.70662065661934,1.72790047409174,1.78847999926792,1.73068765524057,1.70641000045689,1.73092270928505,1.78553999926792,1.72725923817133,1.70824976513608,1.73042920837941,1.78976999926792,1.72823685393312,1.71324049482747,1.7161576407336,1.79914999926792,1.71989836025775,1.71759873484804,1.72464344645,1.72590643760633,1.75124838982592,1.82721999926792,1.80650734248181,1.81339999926792,1.80592801005673,1.80106336061199,1.79899348585685,1.79920940251558,1.79684604589163,1.79723657259602,1.79626914640465,1.79882715055322,1.79548867531527,1.79816580368214,1.82519282519099,1.87320999926792,1.85740376306104,1.88256999926792,1.85741140396855,1.87919999926792,1.82415499183245,1.7998126482202,1.80477839769847,1.79842617290373,1.8053860815496,1.79864022090442,1.81253939590617,1.88587999926792,1.85272267261509,1.88200999926792,1.81812726230504,1.79473618307082,1.82436846378489,1.87604999926792,1.85315011179548,1.87990999926792,1.83745228550854,1.86528999926792,1.85115682575448,1.87650999926792,1.83549349570962,1.87523999926792,1.85161051158944,1.87786999926792,1.83537336965257,1.87363999926792,1.83438684145156,1.87850999926792,1.83201125174234,1.78547588711132,1.81840204539718,1.86796999926792,1.80676854328993,1.78547437992119,1.80023601071931,1.85928999926792,1.78220471692406,1.78193114451465,1.77882082237881,1.78421812172037,1.7781577448779,1.78174454290506,1.81306749972174,1.89385999926792,1.8136784549461,1.80683328522524,1.79003805431377,1.71422212619249,1.71199387834852,1.70776513549163,1.71763833711683,1.78317999926792,1.72288167599161,1.69951026620589,1.75050213564208,1.77270684132542,1.77292905656684,1.77513935961726,1.76692612598803,1.76929634057272,1.76613505848284,1.80289999926792,1.76743715475597,1.76810522960427,1.76774292544292,1.76767326403888,1.7683446916274,1.68912316593678,1.68774059779831,1.68841367597656,1.74213567027931,1.76709972502781,1.7647226262702,1.79663999926792,1.78460764875167,1.79412999926792,1.73452910130342,1.68917999953493,1.71599493726821,1.76570492076486,1.7343586858933,1.69029000038586,1.70820309266632,1.69071000038184,1.70831855318804,1.6895900005726,1.75682236325182,1.76782154568798,1.76557822786473,1.76806598332763,1.76739884833738,1.76828600670815,1.76846772241883,1.76743623682341,1.7691565488023
1.72320276445128,1.72342957744496,1.72364939917824,1.73921233543275,1.7626023550468,1.76237201479186,1.76925157079235,1.77095112227494,1.81286490211644,1.8127376768447,1.81155296224663,1.81006785902399,1.80952708426351,1.80886069012594,1.80879893220392,1.80283379574585,1.74501986778815,1.74165183844661,1.73564890274605,1.74312553840212,1.78630212981444,1.78625308185806,1.78622885836332,1.79174648226434,1.79632923678006,1.79559314967613,1.79554444617375,1.75256341011047,1.72983881745157,1.75762986132777,1.78300660720125,1.78325479928699,1.783266219614,1.78335703718628,1.78344689186629,1.78054453018273,1.78099387756297,1.78149779395596,1.78176343706042,1.73840393573348,1.7289460634123,1.72409026072016,1.71083241013186,1.71010777446297,1.70935692149922,1.70845800679428,1.70844595583915,1.70825810797194,1.70924828092884,1.70994537777686,1.71030572299072,1.72532861806868,1.73792916292011,1.72654930327444,1.71796285352453,1.71695940339845,1.71908094152707,1.72019744290788,1.72193642032806,1.72369883330036,1.7247154552783,1.7489549129536,1.8040354580879,1.80409824463301,1.80416813040309,1.80485289022604,1.79942858645268,1.79744878637183,1.79797097415602,1.79671685224027,1.79698591165868,1.80110783604267,1.79983909083052,1.80038545833728,1.80210301272422,1.82645978812433,1.85703084310359,1.85750473641796,1.85769494029759,1.85771370623523,1.857401699946,1.82564379825683,1.80517729065742,1.80338498601854,1.80190321817403,1.80408560885575,1.80643987592178,1.80568947600729,1.80517380799204,1.80595892713578,1.80566584063019,1.80679457709159,1.80830962576455,1.82064834245269,1.83833943804905,1.83687054750954,1.83648084182676,1.8370448619541,1.85205267942456,1.8515315687012,1.85168523141947,1.83407681983741,1.83376315420255,1.8353037644313,1.83590956084346,1.83402210209757,1.83257251118745,1.8333748626908,1.83339818549672,1.83238770110813,1.81613398996568,1.8174798940456,1.81248924083821,1.8101459025071,1.80606498224984,1.80400558866247,1.79977643699431,1.78214956901665,1.77995829514608,1.77986677340621,1.77791552239487,1.77946874976528,1.78027223315671,1.81363356081226,1.82394510135679,1.81464035645679,1.80556020907685,1.7900065064924,1.73319226680102,1.7272458249379,1.70780310472639,1.70700452196572,1.70594107727704,1.7051497464744,1.70479340551854,1.75058902544066,1.77206141644711,1.77287027522529,1.77253067070402,1.76801385090668,1.76782419393628,1.76739213024575,1.76808562122799,1.76850737696064,1.76875989885013,1.76895357251718,1.76875513459534,1.76833623110011,1.71508225735909,1.68628856750466,1.6868896974505,1.74179994583257,1.76031553964215,1.76042582871808,1.7604565883575,1.76030531378983,1.76012106549973,1.73479850620569,1.70239593666161,1.70830634718289,1.71439577690258,1.73447780736883,1.73487924299746,1.73524173719041,1.73553166909153,1.73576521068341,1.73590995592895,1.75647564664529,1.75634182514491,1.76320868170271,1.76480140950155,1.76600337709637,1.76644454845164,1.76583935809068,1.76696798144644,1.76941602301315
1.66518270424472,1.6701318108526,1.66877821007504,1.73957392714224,1.84265999926792,1.76309454711226,1.7342012131778,1.75409943466666,1.81339497118831,1.81198781964572,1.80980052498595,1.80933341207616,1.80908191405965,1.8086070021462,1.80892377957801,1.80283079030616,1.72691039219883,1.73701136846412,1.72501030434421,1.73879241457383,1.80321999926792,1.78629375985915,1.80003999926792,1.79258102854956,1.83539999926792,1.79576213359608,1.79677834590137,1.75392237076381,1.71580033730569,1.75737207326256,1.79249999926792,1.78391329440702,1.71452000046768,1.76798124217804,1.79187999926792,1.73194789105885,1.70942096914901,1.7300155966924,1.78589999926792,1.73280733030994,1.707021192592,1.71399708936743,1.70695956188534,1.70680875703715,1.70663478177063,1.70765076303936,1.78404999926792,1.70724568739542,1.70823969708839,1.70821013153003,1.70814207286463,1.72139669703944,1.78926999926792,1.72403647565271,1.71348053319611,1.71753408650295,1.71713397978722,1.73160128252402,1.83063999926792,1.73340440049761,1.72470344925998,1.74567945032669,1.82830999926792,1.77444918792496,1.7408512041195,1.80605895533461,1.89605999926792,1.79718622061267,1.80012698527741,1.79791036845446,1.79966180168723,1.81496524926716,1.89491999926792,1.82019020668891,1.79997535215722,1.82748859199204,1.89400999926792,1.85788434993753,1.88903999926792,1.85831062093659,1.89239999926792,1.82665221878222,1.7990178342099,1.81421704354543,1.89222999926792,1.81877739053949,1.79954897488873,1.8065382089638,1.79855840656605,1.80740449223054,1.79784434140332,1.80709206880745,1.79653586550143,1.81740530476967,1.87599999926792,1.83557101497028,1.79473974238091,1.82216756159186,1.87974999926792,1.85118068068974,1.88485999926792,1.81355405724735,1.79013661585208,1.82450766330884,1.88531999926792,1.83190171126413,1.7912595530342,1.8299351082696,1.87525999926792,1.8332872602865,1.87691999926792,1.81690062184265,1.78658803605792,1.81055593916457,1.87490999926792,1.80565014967663,1.78594496769647,1.7833914205693,1.78351769290689,1.7787214395546,1.78395283849541,1.77857721438817,1.78254592471415,1.81421754907787,1.89217999926792,1.81630142644523,1.80873109111258,1.80832567235966,1.80704785474033,1.73193696806288,1.70922150934717,1.70782540348998,1.70337056243939,1.70495175112557,1.70025073519839,1.75088692892656,1.77635672555192,1.77267206255325,1.77444997654366,1.76802954573194,1.76876797911452,1.76837603684923,1.77042322356705,1.75633371194095,1.69067000075689,1.77096599069555,1.76841767481116,1.76814059442925,1.76591999926792,1.68588770049056,1.68665876964625,1.74107591732414,1.76873999926792,1.75320844943892,1.68972999908134,1.71557942762099,1.76753999926792,1.735149850556,1.68924000019434,1.70252271148827,1.68983999939356,1.73424646578384,1.76775036549586,1.76721263195886,1.76790440272069,1.76742215279942,1.76809070896031,1.75632797065779,1.68987000073042,1.76269563109623,1.76744617623295,1.76525334729484,1.77811660259001,1.76429208154805,1.76743576275672,1.77003633540485
1.66595990360406,1.67046067927876,1.66957364433586,1.73991018418747,1.76341079580722,1.7632360098548,1.74584655679629,1.7499204078305,1.75294858819921,1.7661310038673,1.80956135397575,1.80884995742977,1.80884581132676,1.80861149756097,1.80903768023321,1.80282761427799,1.7446990753207,1.74204592298258,1.73028847927568,1.73457506757145,1.74064227856355,1.74422493673688,1.74876665361093,1.75552294028421,1.79687324621866,1.79627671341913,1.79647035915435,1.75497266694969,1.73086661714979,1.75703784732745,1.78455043988524,1.78436897735591,1.76799710470793,1.76813348825744,1.73164481281305,1.72731127507911,1.71711083727559,1.72037369165561,1.72545898285098,1.73002673000472,1.72512446224661,1.71989334107799,1.70708449769604,1.70685678479039,1.7065601369583,1.70678555887895,1.70693309666812,1.70722037117963,1.7075012351481,1.7082832071308,1.70859962639438,1.71798782871545,1.72086592967319,1.72122973753719,1.72671542126114,1.72956303477912,1.73180982546527,1.73392584961827,1.73684935505324,1.73875841233025,1.74036596364948,1.74180392501829,1.7475436282679,1.77444601499969,1.77427985473483,1.80556031260779,1.799576508732,1.79772648138447,1.79909474782468,1.79825136328004,1.79850054653775,1.81908039553219,1.83686354512491,1.83574076004243,1.83571602290014,1.83686798932464,1.84112331351094,1.84193824466325,1.84197124652464,1.84222417478095,1.84362222226189,1.82739345182696,1.81480299295104,1.8170404571443,1.82610364844355,1.82542123520513,1.8235881328941,1.82087730754032,1.81734130996394,1.81425870472127,1.81216043879664,1.8091714397574,1.80705776988532,1.81426609487344,1.83489078418911,1.83508391165759,1.82268296801526,1.81929865157271,1.81510370928952,1.81142463455633,1.80936961205888,1.80664616253117,1.80445301615321,1.82551633891628,1.83218725669568,1.83213891572403,1.82997249751636,1.83003777347475,1.81874992027491,1.8206627008621,1.81971634890133,1.81669690159366,1.81390558103388,1.81108811179479,1.8092061109969,1.80735213100795,1.80286581469133,1.79246611095665,1.78063707481022,1.78000532807245,1.77793708167413,1.77946845738365,1.77995985775008,1.81420971751774,1.82519577187124,1.81673881513336,1.80697973876643,1.80780219279488,1.80608666247112,1.74021492458452,1.72796167646665,1.72272374319195,1.71362320301159,1.71963858956806,1.72465344505081,1.75113281884714,1.77212761532493,1.77246486751302,1.77150141994124,1.76958913883802,1.76968507816845,1.75821342536588,1.75759820572886,1.75675697373578,1.75655283906232,1.77059489392493,1.77041372427251,1.73561550828131,1.71323364201468,1.68661277937573,1.6875285532311,1.74000972242734,1.75269851694286,1.75304589525455,1.70212995078841,1.7055509547073,1.71328045434665,1.73539660604016,1.73485368025126,1.73438422126636,1.7340243904152,1.73382295216448,1.76644889265284,1.76692002920352,1.76729848366075,1.76724392678331,1.76616106340229,1.76371335048191,1.76284297866294,1.76327649421157,1.76487437038663,1.76496172959561,1.76311621997739,1.76281042361898,1.76391101207921,1.72378219310373
1.66538879964222,1.67019610739042,1.66871322211273,1.73993856137046,1.76452999926792,1.76348462332783,1.73575481692144,1.7331451708423,1.73435324105396,1.76668149022958,1.81040444884876,1.80933639423308,1.80926720388639,1.80879531987473,1.80947638330714,1.80788249281688,1.80854448573685,1.74567731298394,1.72446947960652,1.73013210360928,1.72394079879407,1.7358358489276,1.72192050092667,1.75513085964886,1.799621160225,1.79734847682192,1.7972343375674,1.75537260841436,1.71769083795105,1.75633148831487,1.79265161934259,1.79134140780036,1.79216872360596,1.76848587292214,1.71118095893301,1.7219265530132,1.7092116679398,1.71754369273666,1.70951133733614,1.73457448239266,1.83341999926792,1.72606488519617,1.70742322342915,1.70681227661735,1.70626286594428,1.70666028022028,1.70783034428724,1.70688826873176,1.70687836006923,1.70864453700133,1.70944490965452,1.71155924584021,1.71199896669124,1.71929392796765,1.82984999926792,1.77669634132197,1.79718999926792,1.74186282899205,1.72057000001781,1.74462540977236,1.80081999926792,1.73908179752463,1.73212632262116,1.77458803464688,1.90371999926792,1.81915070168743,1.80071116027485,1.79954809188778,1.80176851733878,1.79896325138847,1.80157428828877,1.82452320548976,1.89016999926792,1.83476333980391,1.89576999926792,1.83707246085971,1.88726999926792,1.83722130563239,1.80354983917856,1.84082779800498,1.89646999926792,1.82657849543103,1.80080725890568,1.82038780323507,1.88617999926792,1.82605183541265,1.88806999926792,1.82403491204842,1.89456999926792,1.82710525318048,1.88715999926792,1.80902583029526,1.796349595191,1.81079411400683,1.87834999926792,1.83483692967087,1.88669999926792,1.81630211095551,1.79442566075155,1.79951728375551,1.79167621414089,1.80451247878046,1.79056995939665,1.82610440794238,1.87846999926792,1.83308530825469,1.87509999926792,1.82911050622707,1.78779278610447,1.80742111124051,1.78935029572885,1.81568746698073,1.87824999926792,1.81363766276971,1.78640118325207,1.8112728158386,1.85971999926792,1.79076959593023,1.7825780635087,1.77915945716538,1.78547553414657,1.77848959287002,1.7817995523724,1.81355584595343,1.88621999926792,1.81771734940753,1.80827590484734,1.8076651099105,1.78882554633332,1.78668103049776,1.78873564887245,1.72783677496441,1.70581085903826,1.72467915590824,1.77930999926792,1.75405054867909,1.77325750656248,1.77190695904462,1.77383764884489,1.77059860442275,1.7712598043032,1.71984778800466,1.69273999878134,1.75113757771547,1.76769956891419,1.77009485091134,1.80080999926792,1.73560356875492,1.68868746491565,1.68797089678551,1.68914742837197,1.73901409081377,1.87356999926792,1.75315051312029,1.68985999969553,1.70187094913806,1.68919999987593,1.73597454749959,1.76958999926792,1.7564231961521,1.76840999926792,1.75471110399548,1.78968999926792,1.76655828747872,1.76868465323456,1.76779420707737,1.76877495107227,1.76580219530138,1.76694117682975,1.76548489314261,1.76879723384208,1.76668070998082,1.76769355461426,1.7632227784951,1.85272999926792,1.71404864330715
1.71446341801742,1.71449870060924,1.71460121665075,1.73980198130682,1.7658605992878,1.76426428134775,1.73323122304644,1.73283000621975,1.75016154228434,1.76767536500518,1.76799214720898,1.79576946035191,1.80885769753278,1.80827204296917,1.80847811779277,1.8074523883951,1.80787598704202,1.75480316286978,1.75506164130565,1.7553779074891,1.75627623741159,1.75709348350684,1.75605738669232,1.75521202596846,1.7548165034718,1.75439736553738,1.75416653537412,1.75472462545808,1.73178133593118,1.75504117968419,1.7914459712143,1.79072895652057,1.79101444238185,1.76871441901133,1.73732151725788,1.73457527222638,1.72995267132554,1.72390983511627,1.71852018742579,1.7373722243243,1.74334202869217,1.73625022189893,1.73128433525903,1.72546336451541,1.72123101859779,1.7163450013861,1.70695278774776,1.70716158326433,1.70722151987788,1.70864849102472,1.7095217649193,1.71085769121341,1.71117216116188,1.7174006151458,1.73130870769112,1.7762822469194,1.77650319380806,1.75378702922668,1.752003266046,1.74829657722198,1.7440409241903,1.73673624608919,1.73479215109255,1.77452070274373,1.83180572035076,1.8261014565662,1.81878049451772,1.806477563236,1.80666438660066,1.81507933281958,1.8219550706029,1.82673768114697,1.83043641790937,1.83123937538321,1.83288540366457,1.83557312728601,1.83700609270314,1.83714628900675,1.83802681037852,1.83969764905046,1.8392322637185,1.82813139263243,1.82710751008468,1.82547532860775,1.82578116864402,1.82665717996234,1.82603854877507,1.82539032737563,1.82599204890552,1.82689845493592,1.82694388550307,1.8103209485975,1.80539265953928,1.8053868470973,1.80547990451123,1.80760744136276,1.80910933813177,1.80960560619386,1.80859872958459,1.79848643351334,1.80017604480043,1.80673581387219,1.81188766575696,1.82505745395677,1.82380897017433,1.82822903014025,1.82777667335938,1.82870163673765,1.82900338553356,1.82904522470241,1.82895178614827,1.82926301891177,1.82918523212362,1.82831427095847,1.82860642136067,1.83070886968212,1.83113154229456,1.78919196830485,1.7813632684647,1.78013141941671,1.77862528397182,1.77929564296607,1.78015164333363,1.81260362599664,1.82488713635696,1.81716034907986,1.80727545157915,1.80767663296673,1.80602181676015,1.80254387216717,1.7982965666472,1.75280123407826,1.75296305808184,1.75297752037104,1.75296121701855,1.75392991542136,1.77300240633573,1.77290931267158,1.7726775288297,1.75372935062464,1.71992876463376,1.71460887318505,1.70716528482062,1.75127594223756,1.75153215690464,1.74979784571922,1.7351545111468,1.73556526417043,1.73599757083778,1.7362725522213,1.73645284168095,1.73871122756123,1.75266362957847,1.75291787001323,1.75284589791095,1.7527542572098,1.75279284098809,1.75290462780046,1.75633007389495,1.75639106245349,1.75596451988856,1.75518325725608,1.75496096681714,1.76532161187534,1.7673007629051,1.76848972764724,1.7682905597206,1.76765143578298,1.76704774799657,1.76714566232523,1.76779670752513,1.76828619094891,1.76813150032303,1.75534506760178,1.71610511287767,1.70840461144589
1.74295255091267,1.74316459372333,1.76422350087932,1.76415388094707,1.76423508215898,1.7632398051833,1.73413685994853,1.73380952583127,1.81424999926792,1.76856433147823,1.73548068431796,1.79585137329455,1.8104866936442,1.80920697693291,1.81017385447824,1.80823269777216,1.8087280328537,1.77825238424683,1.80453999926792,1.75487816586795,1.80159999926792,1.75846615796082,1.80252999926792,1.74039687657537,1.72042065391856,1.73973268476864,1.79794999926792,1.75352167921513,1.71717021257136,1.75335984876513,1.79272295969494,1.79099615732043,1.79190803126009,1.77507180428264,1.79206999926792,1.77376284501974,1.78976999926792,1.73116839991379,1.7109309370476,1.73859630494926,1.78705993588182,1.78540451477333,1.7858161136121,1.74229137076075,1.78564999926792,1.71837764386274,1.70701894818976,1.70684237811701,1.70678415881704,1.70906075365012,1.70997986449185,1.71045706509603,1.71075053258884,1.7158640000003,1.71379522060688,1.7754730791197,1.82786999926792,1.80118921637072,1.79991613532773,1.75034805006446,1.72524047334286,1.73494469974145,1.73078849020589,1.77433153739171,1.90629999926792,1.82824724997825,1.87938999926792,1.80644764883758,1.80312535894576,1.81828316680836,1.90048999926792,1.83647621263266,1.88378999926792,1.82476528652444,1.80371912081841,1.81032625121575,1.80233693980246,1.83554378001961,1.88714999926792,1.83874440225851,1.89091999926792,1.83687665030128,1.88678999926792,1.82662909669515,1.80036874102083,1.80903428923894,1.79802845869699,1.79484734738286,1.79612573862013,1.82251522558066,1.88524999926792,1.8117159518719,1.79706505490979,1.80607488022917,1.79571500828213,1.80808456394137,1.79550014165604,1.80784972024729,1.86845999926792,1.79677408148785,1.793051462873,1.81015608954056,1.87954999926792,1.82385349979001,1.79310585160203,1.82876030871419,1.88284999926792,1.8309983408562,1.86561999926792,1.83217869895517,1.87963999926792,1.8320936396332,1.87226999926792,1.85541280148683,1.85951999926792,1.8320852418308,1.85915999926792,1.78914635969306,1.78440186115918,1.77972485317105,1.78197094663998,1.77988940426552,1.78249786593629,1.81227541331306,1.87961999926792,1.81646682080141,1.80725302976624,1.80790020099557,1.87956999926792,1.80755168138189,1.80785628763955,1.75224273847444,1.80614999926792,1.75303993489334,1.70288000031788,1.75416550537152,1.77416480202698,1.77349019832988,1.77429294764362,1.75363968607864,1.69290009232104,1.70657124528258,1.69161999879867,1.75130530910906,1.80069999926792,1.75061710987235,1.69015034405726,1.70964609223496,1.76770999926792,1.73624494634316,1.76855999926792,1.73902522683525,1.76788198037276,1.77014341651823,1.76745247152168,1.76893112948544,1.76907353327686,1.77039447401542,1.76959063915252,1.75663547246665,1.68829000046069,1.70736222155141,1.69304999852243,1.76536041453575,1.7691728843076,1.76876469975776,1.76872920197949,1.76778900390727,1.76781167012171,1.76749752310825,1.76904702841407,1.76792201881153,1.76889614692667,1.75496381811796,1.69062062891344,1.70204275427575
1.7437513293021,1.7427871943058,1.76422665757042,1.76417181555352,1.7641128330762,1.76263719599957,1.73349485438141,1.73330247621301,1.74910014077616,1.76985894274313,1.77107068127258,1.79599320826766,1.79617702098307,1.79634126865609,1.7768792763415,1.77715672283323,1.77761526548061,1.7780985903306,1.77830287530108,1.75633476103618,1.74598889172652,1.74159644705234,1.73849572103375,1.7346864914541,1.72933542381444,1.7335482025859,1.73993395076577,1.751724090271,1.75100698399926,1.75203895612836,1.79168445723385,1.79076791422672,1.79093810331788,1.7750310661551,1.77476793962934,1.77424291571869,1.7797838930945,1.77939958563364,1.77921244820276,1.77906442149664,1.78589446267579,1.78502495850219,1.78513613617928,1.73552662833119,1.73018068386173,1.71876641137863,1.72095384081228,1.72427134727989,1.72787445657133,1.73084167823756,1.73246441117393,1.73410900859985,1.73629002412584,1.73825553371171,1.74028305975905,1.7748950163491,1.80054421046656,1.80128315953059,1.80108130923607,1.78019858112788,1.77965218645568,1.77878727205499,1.7780522051115,1.77766498118979,1.81248439640877,1.81267564340459,1.81291023666179,1.80568442754755,1.80725183088636,1.82107513674033,1.83590873466275,1.83624473731642,1.82467032482403,1.81890336933236,1.81064243796091,1.80819457077229,1.82394807436618,1.83427891315334,1.83780442626772,1.83696358958097,1.83534464101926,1.83622851085557,1.83694784335363,1.82828173676098,1.82019111570691,1.80913447882093,1.79477985776561,1.79259139882106,1.79380235111991,1.81799149767912,1.82160300304914,1.81270711105129,1.80667732159798,1.80484258617077,1.80468551301331,1.80640294787771,1.80565169492967,1.80555878957849,1.8061961364261,1.7978094322904,1.79883022718688,1.81403325687915,1.8257590063215,1.82725489689277,1.82882791099182,1.82967867485128,1.8299523706568,1.83053680731661,1.83196998300792,1.83180413602423,1.83079075838848,1.83142430938219,1.85571732059315,1.85578384480157,1.85526178964032,1.8310948312253,1.80805684623804,1.7902505844846,1.78169897926497,1.77968925630806,1.77898036266243,1.78970408553631,1.80562198900505,1.81352608477023,1.82405608804389,1.81474819476854,1.80748790249877,1.80710137956342,1.80755885833158,1.79728956632894,1.75143436661549,1.75195640311214,1.75249558332105,1.75318428778938,1.7540997138045,1.755047051641,1.75613359080087,1.75707190225737,1.75696489277673,1.75325259770222,1.70588255823021,1.71343172794953,1.71900737893227,1.75140261927608,1.75129558765608,1.75078698276478,1.69760289454889,1.7028743704772,1.70741177647959,1.71202435154308,1.71576852808908,1.71948849434673,1.72226433484751,1.77021404075386,1.76805376676436,1.76961773228697,1.77092564571552,1.77145798829126,1.77073477253458,1.75654217798495,1.70703100015843,1.71501368638284,1.72113683328581,1.76748677892913,1.76863027921387,1.7677146856639,1.76622166166666,1.76495446161455,1.76542240607432,1.76709381722777,1.76784420461339,1.76690906155636,1.75406954513676,1.75438710804881,1.7139134524324,1.7081766003178
1.74251221084796,1.74198560743392,1.76449767783258,1.76422945870177,1.76410147361665,1.76247351385443,1.73424311296154,1.73336279851862,1.73455884728249,1.76975417117252,1.81413999926792,1.79598252005432,1.81170999926792,1.79639985016629,1.73344133758196,1.74624810271091,1.72980027838385,1.75656368596466,1.80649999926792,1.75679801681666,1.72513931236764,1.73222397977321,1.72287798039544,1.730463945296,1.72097036644509,1.72760058506993,1.71971093933885,1.75057917060558,1.83873999926792,1.77299400954634,1.79334484642043,1.79148876145256,1.79200284773658,1.74544326364252,1.71271064352909,1.73552233866751,1.78980999926792,1.77908990276596,1.79122664474438,1.78802837288765,1.7877174319104,1.78560013388206,1.78629302071123,1.72972687666014,1.7079202855073,1.71670709139227,1.78674999926792,1.74217173896136,1.91100999926792,1.78713205695486,1.78882639574453,1.78876557364203,1.79112877297715,1.79077338007026,1.79234495084286,1.78296161689444,1.7979758662262,1.80062428997948,1.83045999926792,1.78156963286569,1.80605671719037,1.80650978493769,1.81203733632838,1.81336686125837,1.81443080880085,1.81507302240515,1.80358356414084,1.80530316221831,1.80354446324075,1.82559133043787,1.90449999926792,1.83570813299439,1.80361277169851,1.8128707288207,1.8041694073927,1.80625462543492,1.89468999926792,1.83350413352901,1.89427999926792,1.8291116338011,1.80082655632009,1.82283875182626,1.88771999926792,1.82847815800571,1.88669999926792,1.80873834703109,1.79767797972696,1.79352555735283,1.79554951512796,1.81462834336828,1.88172999926792,1.81145686425743,1.79907747577989,1.81797842298336,1.88239999926792,1.82429963399453,1.87858999926792,1.80335136585481,1.79570979954531,1.79884427422582,1.79309239974348,1.81833899736311,1.88298999926792,1.8260518524944,1.88007999926792,1.83030405407402,1.79032775973272,1.82910241459776,1.87995999926792,1.82129128339871,1.78904027127642,1.82141239095097,1.86200999926792,1.85656740885804,1.87747999926792,1.82975342774772,1.78626833578241,1.78829880715979,1.78507474097706,1.78093504689709,1.78327990469226,1.78877510004485,1.85886999926792,1.84830673415024,1.88461999926792,1.81501432935161,1.80886893628783,1.80660449644301,1.79215218389905,1.79607752124612,1.70882999808688,1.72570117364808,1.70631999989995,1.75316405822187,1.77880999926792,1.75595705725524,1.69768000071655,1.75795187784424,1.77232999926792,1.75263087215658,1.69269999894113,1.71872591779364,1.76752109606918,1.76500208537173,1.80426999926792,1.74983600321744,1.69152143221573,1.69880693925336,1.69005673725018,1.68999900884817,1.68950864057759,1.70420366684963,1.69156018450713,1.76965726085985,1.76708748996542,1.76926943554605,1.69297000075126,1.77153988255534,1.76999927849066,1.75634291944225,1.68964000008017,1.72082544562378,1.77196179979498,1.77109234002722,1.7699044524018,1.76836604778877,1.7857982490318,1.78480539565044,1.78554546334714,1.76885166059461,1.76853844603969,1.76709817446051,1.69234000077828,1.75423542948688,1.77036848014967,1.71272223040329
1.74317908178444,1.74163890214117,1.76460789277924,1.76454275052059,1.76430069669076,1.76556871469369,1.76806196799631,1.77072466662742,1.77225096447631,1.77285804378597,1.77301869352536,1.79599712290213,1.79615929078743,1.79631707576665,1.75707392712971,1.75616278851219,1.75551883391625,1.75620378155088,1.75682159390999,1.7573024845449,1.74109782888992,1.73666853087329,1.72995961272931,1.7335843588308,1.73878525293432,1.74306913942836,1.74631352076313,1.74965249409512,1.7729692413424,1.77295431786985,1.77274491362513,1.77223924419922,1.77176189840522,1.74554955647537,1.72517630245077,1.73095999651558,1.735612531218,1.77881880239118,1.78881444593659,1.78769679599043,1.78736350381253,1.77979903921516,1.7305584741569,1.72478474481461,1.71267493686283,1.71476542642932,1.72687339024687,1.73726873020226,1.7878472116279,1.78721127895995,1.78735712431695,1.78808467172516,1.7893846298487,1.79029488174806,1.79120840137214,1.78292390274675,1.78253664690064,1.78229998728188,1.78217900183085,1.78204675252836,1.80651120881663,1.80647854481742,1.80832098501172,1.8159522455189,1.81568673395677,1.81714243907901,1.8133181393713,1.81619722773303,1.82281507778124,1.82781863778569,1.83614660359795,1.83604747595429,1.82372989410654,1.81604290578419,1.81010394891519,1.8078569089099,1.8226529716957,1.8261078617801,1.82973997527262,1.82403813676712,1.81143501307058,1.80932477370706,1.80952747373352,1.81110486536911,1.8107101082314,1.81029222488608,1.81152145722275,1.80984017239575,1.80766293731375,1.81044995852941,1.81099032210766,1.80998148815646,1.82125193075196,1.82389433403655,1.82547826352377,1.82054807808336,1.81619438842318,1.80406845904689,1.80421855259958,1.80217768817444,1.81620306367435,1.82073533050912,1.82555430671911,1.82655037026534,1.82815418201525,1.82914704447302,1.82827129455329,1.82991713672862,1.83005260913202,1.81819921851589,1.8094570580783,1.81842030850953,1.85536701864239,1.85615953397238,1.85550318066652,1.83008934706863,1.80760319243688,1.78778890842862,1.78103363280077,1.7803669033643,1.78051272516574,1.7881828960619,1.84788046903878,1.84842904420097,1.84929855438085,1.81500783975373,1.80854440697293,1.80612672345278,1.79283926904521,1.79609211899735,1.76734245992384,1.76795272609362,1.76875729440173,1.76931478773793,1.76952500903546,1.75690920476559,1.75779287880816,1.75853582325622,1.75428969791217,1.75510839163962,1.75687910262223,1.75815699563756,1.76617075369639,1.7651162781253,1.76478746741688,1.7489715256025,1.71594458662828,1.70912835157745,1.69021304393207,1.69018576052922,1.68999880906599,1.71204771607981,1.71732691294329,1.76924753295744,1.76822014139675,1.76938619319167,1.77049520613627,1.77077137700797,1.77015712933017,1.76943827929978,1.76847727897154,1.76923950379064,1.77128011753941,1.77187076328688,1.7698092188253,1.76814262255262,1.76759813117966,1.76785551627932,1.76927077619438,1.77151591848081,1.77313068583766,1.77283808702702,1.77636146514639,1.77453622270226,1.7724796937683,1.71825712848065
1.74298548493027,1.74147017109541,1.76537303053884,1.76506382542271,1.76309319530464,1.7657077851134,1.82003601867198,1.8219936686991,1.81616336157092,1.77303360457259,1.73620999318591,1.79585228179192,1.81247367380806,1.81197631258943,1.81076396162603,1.81123046334455,1.81027382469552,1.74892501644746,1.72430055848705,1.75804989664203,1.80495999926792,1.74245768298085,1.72163098906021,1.74118215527821,1.80523635467262,1.81041574910056,1.84084999926792,1.75348262274855,1.79836999926792,1.73773416983042,1.71615028479143,1.73491624105333,1.79419999926792,1.74539323148908,1.71160070138236,1.72439121024544,1.71030013946266,1.77857698801324,1.78903865785188,1.78745071099446,1.78842383502841,1.7799493425348,1.70957460063353,1.71136497849773,1.70732120197276,1.71119066927914,1.70655093164536,1.73594234034477,1.78809546589989,1.78783811501723,1.83410999926792,1.78809265557691,1.79148258705918,1.79015290004397,1.79249218269502,1.78325759554057,1.71815999948001,1.73729177411276,1.72299058010469,1.78257384310597,1.80682482250948,1.80631165173351,1.81092014735449,1.82392397913684,1.90988999926792,1.82163456543626,1.80552792028787,1.8202958499313,1.89622999926792,1.8300023093238,1.88128999926792,1.8358117449649,1.88268999926792,1.81529924195739,1.80419727057261,1.81033854983254,1.80354053015656,1.82257772064823,1.89537999926792,1.8210722828541,1.80223038545233,1.81063828859332,1.8023178109349,1.81004772241147,1.80084380814817,1.81012767654555,1.88876999926792,1.81223640433507,1.79745357277051,1.8072926046996,1.79957804218939,1.80901703520657,1.89429999926792,1.82566889361283,1.89075999926792,1.81790791747458,1.79565313823935,1.79188472830115,1.79493745807713,1.8015366054416,1.88219999926792,1.82543581755822,1.88044999926792,1.82665790426508,1.79525344586504,1.82827061115473,1.87898999926792,1.83085752712283,1.88647999926792,1.81656730124855,1.79159792385993,1.81778032958243,1.88205999926792,1.85672082209822,1.86193999926792,1.83137975787246,1.86221999926792,1.78740392894247,1.7831160307406,1.7797849753127,1.78374460104063,1.7886224117324,1.86243999926792,1.84822286920987,1.87574999926792,1.8146156045203,1.80478746374208,1.80457587125543,1.79498752608106,1.79253887377817,1.78705365569044,1.78317641799243,1.78152342925045,1.77997425556846,1.78062879878658,1.77465950274262,1.77586030708317,1.75960937896109,1.69562000059274,1.75422508947985,1.76874999926792,1.76851651039262,1.7678759118972,1.76640608383001,1.7680204493605,1.7674851815952,1.76882566121404,1.71593854311059,1.69014701331763,1.69021291684183,1.69005184961491,1.71713177078763,1.76857403035701,1.76817745418814,1.76802803770195,1.76940507687688,1.76955456724166,1.77054006046876,1.7695054917448,1.76984684200844,1.76694282468396,1.76744846861702,1.7681370360207,1.77139766026856,1.79084999926792,1.7695012118901,1.7700763701623,1.77003785560927,1.76968073548325,1.77423748737653,1.78108851940918,1.77656363745609,1.77704882514449,1.77409884386066,1.77258407411602,1.72533220143552
1.74334483022684,1.74111257990409,1.75567607603476,1.76701676670533,1.76565803077539,1.76603808457187,1.82285451415322,1.82318089520943,1.82100519022485,1.7966290713827,1.79621584884801,1.79571683245347,1.81238556183844,1.81223353660931,1.81194792097054,1.81239178856382,1.81210283608712,1.74496803673363,1.73787743137387,1.75832058244544,1.7882910282411,1.78801059965172,1.78758647302725,1.78726709501795,1.81014476820934,1.81448260508228,1.81775268142679,1.74818732167303,1.73756737642979,1.73400148703483,1.72200743084477,1.72498727777347,1.7316762966943,1.74505836397017,1.74550792918457,1.74577110577439,1.74573549320788,1.77830070062517,1.786525638847,1.78640479423357,1.78716064207449,1.78013470269449,1.72887634881996,1.71068705405702,1.710633043828,1.7106950085434,1.72407932847215,1.73500868213067,1.73706804406627,1.73825595680509,1.74069687167933,1.78445560250786,1.7894699256905,1.78982420274827,1.79063502674228,1.7834167640591,1.7836558855318,1.78373283815651,1.78347713980314,1.78292237745227,1.7827474674968,1.80739996152601,1.82317934467695,1.82714608690989,1.82869840172873,1.82983749291865,1.83048596764717,1.82669342122162,1.8233206257309,1.82161880886494,1.82051036984566,1.82039269085558,1.81820373823668,1.81647144267902,1.81754583595251,1.81037482237622,1.81052932929592,1.81013685636284,1.81007712117472,1.80947827811228,1.81064370680419,1.81205065345233,1.80922276704448,1.80928950234101,1.80892321673798,1.80990883747179,1.81153574382437,1.81130994630601,1.80967690424223,1.81097162622641,1.80704615667429,1.80566958522304,1.80516269393192,1.80572837384465,1.80555448672902,1.80581496490755,1.79304728417217,1.79101882156183,1.79190559532056,1.80206325421903,1.8255782175808,1.82625251465326,1.82705012283516,1.8275295308159,1.82610299664904,1.82644642475076,1.8236916239838,1.82267868889676,1.82240795391299,1.81336710746366,1.80913408990171,1.81574929799382,1.85557877286659,1.85584421626306,1.8555692068595,1.81547642307598,1.80713775879044,1.78825760156663,1.78093152726835,1.77994716076621,1.77910448239388,1.78948768357264,1.80573640623791,1.81304541400876,1.81911411986088,1.81335923981222,1.80385332243029,1.8045315089136,1.8054328266558,1.80526678118798,1.80037814281618,1.7808088575802,1.7812523888431,1.77920116365071,1.77961885632066,1.77594219986975,1.77597668641228,1.76029759923739,1.7605599537316,1.76060045614473,1.7606432779578,1.76851881645309,1.76794064244183,1.76763947712808,1.7673951858483,1.76822068442155,1.76819398723316,1.75427986058203,1.75452918594803,1.75469582707011,1.75456977102613,1.75434549589716,1.76826025995687,1.76800012638,1.76783223145445,1.76878135234295,1.76963314213016,1.76978844869448,1.77040488379006,1.77074756657514,1.76987624096113,1.76686729368728,1.76638735490962,1.76729004519309,1.78902040747573,1.77053771459712,1.77103117038998,1.76891925952617,1.7684530453087,1.77410563460144,1.77980428338411,1.77776924768949,1.77800949153467,1.77215409575515,1.77259634943861,1.77185258954034
1.74460770873202,1.73338512377581,1.66961000073224,1.76571589226988,1.76723423637451,1.76637712126766,1.81809795601875,1.82229472067267,1.81949683250486,1.79684743732296,1.81426999926792,1.7952240732126,1.81200806205421,1.81215087588238,1.81134983551364,1.81281088209714,1.83742999926792,1.74052204331714,1.72710183087182,1.75807173413429,1.80466454803995,1.80274373087492,1.8030498539836,1.80042023974273,1.84179999926792,1.81766083574889,1.83817999926792,1.74675795390421,1.71773126327083,1.72836975183937,1.71589115593137,1.72220724306687,1.7142507886144,1.74433715391528,1.79404999926792,1.74655010293271,1.79602999926792,1.77807930374065,1.83826999926792,1.78632225786002,1.78807488086057,1.78024654502037,1.78898999926792,1.71003188774405,1.70733012838632,1.71026367948545,1.83473999926792,1.73108002858739,1.71015999776359,1.72716393487829,1.71106999727483,1.78498595642432,1.7899423162812,1.789844811765,1.79135175012805,1.78320209324582,1.79914999926792,1.78739621612132,1.80250999926792,1.78283193124691,1.72856000025104,1.80749101534543,1.83048825877488,1.82814052804093,1.82922172876969,1.82907860521664,1.90389999926792,1.82602567527009,1.8045399104913,1.81817484891241,1.80448943238236,1.81854538887692,1.80328898522802,1.82677710359645,1.88806999926792,1.8089309707146,1.80223526806469,1.79965716867892,1.80302860763999,1.81054294836744,1.87920999926792,1.81336180935891,1.80365435100066,1.81429977991783,1.88197999926792,1.80904277091304,1.80278794935974,1.81604827739321,1.88728999926792,1.81967968006445,1.80041195281843,1.80656931289097,1.79955745315617,1.80660555554025,1.79866959994111,1.80723864386263,1.79560482906793,1.79189949984546,1.79512480411108,1.80212929865851,1.88355999926792,1.82136084728002,1.79669679241222,1.82723469330218,1.88177999926792,1.81423311017848,1.7914017706442,1.81387410228368,1.87580999926792,1.80899947968647,1.79065696365837,1.8116471998896,1.86598999926792,1.8553367152507,1.87913999926792,1.81381179991181,1.78553207292306,1.7887875226344,1.78450375179604,1.78055532619624,1.78410983746707,1.77919787102594,1.78335408050544,1.81271357355781,1.88329999926792,1.81227001390026,1.79649037174385,1.80489255915835,1.80898810755901,1.80687996940079,1.80735247618679,1.77989929751831,1.78189924406998,1.77939144142356,1.7798535634511,1.77637434288339,1.77554799152266,1.77284183016745,1.77235416181836,1.76058558308961,1.69428000080296,1.76820758580979,1.76918053729475,1.76782769615731,1.76983617381745,1.76856411439863,1.77128086598094,1.76851820993541,1.76886374044894,1.76786554942814,1.76822998869594,1.7679477434793,1.76940062369964,1.76829586316706,1.77078965313626,1.76922153233732,1.77026335295839,1.76946868631737,1.7690278707114,1.77026096680926,1.77038591264788,1.76614828020397,1.69167000076383,1.75743994280711,1.7897323629638,1.77048802066605,1.76902134166554,1.74648222567139,1.69235000076951,1.78000388262837,1.78130061853879,1.77727960066908,1.77851460704118,1.77133273427204,1.77158764523627,1.77171428855647
1.73370095449629,1.73351799874014,1.73342341260034,1.76381783038684,1.76617912647484,1.76638632226725,1.77059883926737,1.77150656440118,1.77166001150249,1.77190054387329,1.7717568861944,1.77122376910101,1.77076395062541,1.7873259477659,1.78730804256961,1.78655231171504,1.74568407893961,1.73634482513855,1.7340503662736,1.75740037008265,1.8027832580887,1.80208286630268,1.80137119075804,1.80044619855059,1.80054436259699,1.76481159492124,1.74517459632104,1.74533327109822,1.74583205061399,1.74583614424276,1.74566527004462,1.74527198509849,1.7446207738147,1.7443483740941,1.74349155910554,1.74230473671234,1.74896906068866,1.74245952218491,1.73904241522159,1.73571085277431,1.73248362673918,1.72835889754767,1.72382735261823,1.7090833384033,1.70942309923862,1.70934703957653,1.72318499124375,1.72629626007126,1.73214498102575,1.7365338840005,1.74056492168967,1.78570564674651,1.78619298653149,1.77980462268703,1.77946950868845,1.77896508054036,1.77858769625966,1.78713072093034,1.80260706586626,1.80272894160282,1.80290802499872,1.80752536792064,1.82667074102802,1.82821085755449,1.82855007494144,1.82781144457812,1.83499188883326,1.83175905144581,1.83159603424843,1.83188832687934,1.83091094755132,1.83049198703476,1.83003332466467,1.83067807456619,1.83113609593057,1.80862628325406,1.79994369078089,1.79913870271039,1.79971097445729,1.81140368021818,1.8131092566573,1.81297457600168,1.8136431404371,1.81292878396226,1.81244788228322,1.80901386465637,1.80988690073266,1.81929316255242,1.8270185038988,1.82340133930526,1.82073909969316,1.81617135751993,1.807112462548,1.80550459851979,1.80380913946244,1.80496179612322,1.80499435685851,1.80141760844929,1.80387105908938,1.80280488610331,1.81382952871449,1.82113786923421,1.82138485684493,1.82643356878379,1.82573930252032,1.81142318439706,1.80219607891704,1.80177870794038,1.80225623805733,1.80530612246606,1.80564019563548,1.80776458742678,1.80904512509986,1.80965658468542,1.80812008897636,1.80532439634306,1.80493972658922,1.79155276986607,1.78262831381171,1.78132957616727,1.780129634308,1.78023128593429,1.78096251421986,1.81232797948951,1.8179555372943,1.81250520643588,1.80341609874913,1.80424574799432,1.80468337923569,1.80574467193937,1.80630494286718,1.78016587819238,1.78379938646223,1.77719384926718,1.77827833035296,1.77645234457795,1.77416975229801,1.77261080410023,1.772345493741,1.76947400915815,1.76871186606665,1.76760238100844,1.76681717888613,1.76773527309983,1.76834769316376,1.76934842731982,1.76878167889314,1.76842597659668,1.76807119627091,1.76785892717924,1.7679502619662,1.76783175685552,1.76798004212897,1.76797627180171,1.76840408868425,1.76803760709384,1.76861604705862,1.7683680532884,1.76935702860942,1.76949677660689,1.76856036845242,1.76657434993245,1.75742456727725,1.75763586007618,1.74586254948538,1.74591885737867,1.74608123302702,1.74639085866224,1.7465762385252,1.78196019304182,1.78014004414374,1.77843202070644,1.77644693707254,1.77336455876934,1.7720919689662,1.7711254813558
1.66699004979679,1.69767552707236,1.75599693282482,1.76247706726093,1.84487999926792,1.76434694727916,1.74015098619568,1.75126175943142,1.73619254558739,1.74677822121744,1.73486214972025,1.74790256670313,1.73356095324634,1.78727385425638,1.81108999926792,1.78631007271696,1.72962522798151,1.73373210251178,1.72709166368895,1.75647701269424,1.80304378844413,1.801753025094,1.80343917998601,1.80091703207877,1.80078388484512,1.76484201208483,1.71993077966495,1.73779693364332,1.84080999926792,1.74575721608377,1.83853999926792,1.74539649587982,1.79225999926792,1.73955118987339,1.71403000016862,1.74130874884894,1.79216999926792,1.74287019508289,1.7122994374724,1.71733403642465,1.71046256571539,1.71043613429269,1.71017605100466,1.70821440815234,1.78647999926792,1.70823599180106,1.70968779888481,1.72325587936694,1.78783954260567,1.78842965362086,1.79103885840464,1.79007682244102,1.79179952069656,1.74186419465952,1.71701115922035,1.72416988267941,1.7197397222277,1.78673954279324,1.8020450152913,1.80494458323158,1.83079318750648,1.82325086401007,1.81738943377008,1.82672457822672,1.74168999668255,1.82716082977039,1.87895999926792,1.83282925972136,1.89361999926792,1.83866007429056,1.87885999926792,1.83445267393862,1.89018999926792,1.83120561886686,1.89648999926792,1.80892396649573,1.80183905636287,1.79954868936349,1.80459718723375,1.79942133565798,1.80208751734371,1.82105438207161,1.87715999926792,1.82605181675789,1.80256499991271,1.80995687072831,1.80286188678114,1.82170964056754,1.88980999926792,1.83208873561686,1.88605999926792,1.8211258548967,1.79998234356133,1.82024355431374,1.89271999926792,1.83880232732508,1.87564999926792,1.79846735238706,1.79665917903417,1.80420050508982,1.79298066476352,1.81732697552444,1.88997999926792,1.82595509509943,1.87165999926792,1.80777291135905,1.79257990106186,1.78917560427079,1.79211611303525,1.80513784306022,1.87940999926792,1.80507570906007,1.78996035724341,1.8012230339453,1.78791759754051,1.80323083385923,1.86151999926792,1.79016830193819,1.78544029594748,1.78190743187383,1.78493756714669,1.78051961704423,1.78396704911579,1.81163665265271,1.90748999926792,1.80999618848405,1.8057858057989,1.80525336515763,1.79729134076327,1.80578742274346,1.81068726272786,1.78087853771211,1.78455743762081,1.77520565467763,1.77808232246573,1.77614399473995,1.69811000074055,1.77297034415585,1.77427229092267,1.77393858477341,1.80573999926792,1.76690572580464,1.69232000076424,1.76865826294706,1.76937357676089,1.76921496460321,1.76910772630868,1.76833340607112,1.76895995343781,1.76831099859489,1.76934949377427,1.7682467381281,1.76883934104639,1.76811322885389,1.76908625682549,1.76782084734439,1.76878881355262,1.76870217022048,1.77036102914576,1.76965746130974,1.76955629980417,1.76895984297778,1.77103631705729,1.75813788471388,1.69273999878977,1.70762336275536,1.69259999797382,1.7377244398118,1.78591999926792,1.78185716620472,1.78067034817087,1.77792356194193,1.77775280728332,1.77435697065101,1.77235251434045,1.77023959728515
1.6741222584385,1.69085381262985,1.70022504987458,1.76623315008615,1.76567635720909,1.76556822442284,1.77040365902883,1.77115383935848,1.77141407817328,1.77172269259717,1.77157016193768,1.77101890370559,1.77055965715464,1.78721434998261,1.78728337595398,1.78593761200491,1.73846733939314,1.74620021584414,1.75081122040351,1.75545099574282,1.80271428717107,1.80187227803447,1.80132203997051,1.801070477588,1.79988798361454,1.76498803235477,1.72414393023518,1.72483621846081,1.72604432543645,1.72701541086089,1.72922271553153,1.73156761641405,1.73441567255137,1.73663890771504,1.73879650803613,1.74051474852847,1.74158621867404,1.74271349931272,1.72830784295428,1.72361838749158,1.71034521809599,1.71033951913091,1.71013546639938,1.70971862467407,1.70913629878729,1.70877289019529,1.70894328498662,1.71996373353201,1.78719788064481,1.78763314185851,1.78870896920481,1.78912219499523,1.79035126607505,1.73640059941601,1.72557995908357,1.72721256080905,1.7387875326572,1.78645027228566,1.79847138070427,1.80454564687055,1.83177416905009,1.82676965053305,1.82324769420865,1.82737076866086,1.82714707956981,1.82523965580183,1.82141183173544,1.82402962822067,1.82718680499012,1.8383308280447,1.83720375240747,1.83659679429196,1.8275057654377,1.82220656957036,1.81884225393943,1.8103553583711,1.79983664981566,1.7993599257582,1.79964538567293,1.79821775425368,1.79989107659664,1.82487314379194,1.83086316136076,1.83109011649483,1.83089391885345,1.83066468411813,1.82833831128186,1.8244787439385,1.82710065698673,1.83066433348649,1.83837810492604,1.83812877134874,1.83829783905974,1.83971269898061,1.84026746675065,1.83902970198545,1.81870697481802,1.79962650034776,1.80312288815698,1.80843822212258,1.81001759340513,1.81245132988802,1.80985168523105,1.8079114351394,1.80685440625666,1.80632740026563,1.78848976057258,1.78762830949957,1.78796247078755,1.80043303106485,1.80356486996031,1.80409597036345,1.80256330513629,1.80274016718293,1.80213887871864,1.8022692189702,1.81356267547092,1.78899286615637,1.7838568749438,1.78230489736302,1.78133816990043,1.78050530825528,1.78099912941752,1.81020034084629,1.81323712287104,1.80760807773097,1.80527869464582,1.80333584665185,1.80043621845454,1.76623645068627,1.76631522395696,1.76621057536783,1.76582003126728,1.76543620576202,1.77606389581263,1.77610671196451,1.77410428600745,1.77388695779647,1.77447769074547,1.77484863685177,1.77539429332624,1.77780520029878,1.77663072638148,1.7714842957705,1.76977210596833,1.73697610527272,1.73677188114967,1.73671409200171,1.73698185850099,1.73733666076807,1.7374564992896,1.73701084836556,1.73607339848838,1.73531925747985,1.76776793463304,1.76667808353464,1.76705663808565,1.76802757065665,1.76968396477019,1.76986399633002,1.76967639852618,1.76993064183261,1.77077395384689,1.7584700683342,1.7201306706954,1.71487183546731,1.70794959947934,1.73686681554595,1.77818231640823,1.78202611691766,1.78206496667352,1.77955901953664,1.77647882400329,1.77449176820279,1.77109906519753,1.76873834277169
1.66669015168794,1.68375820253589,1.6720000507005,1.76737319757623,1.76572397422913,1.77653639725612,1.82149789158295,1.82125193096917,1.81901477583717,1.82138804729634,1.83748999926792,1.78836088724151,1.83713999926792,1.78886617460787,1.81055999926792,1.78565374943366,1.73064059497333,1.74969832543055,1.80656495332607,1.8044112306015,1.80508537756911,1.80225385250599,1.84113999926792,1.80126631872891,1.80163955209312,1.76536910591879,1.72168847032165,1.72448737012524,1.72010115382034,1.72567955883017,1.71990191203118,1.7296747014559,1.71446999916754,1.73514791565328,1.84200999926792,1.72996001265104,1.71265062198295,1.74318210177441,1.78960999926792,1.72792673179039,1.71026765529127,1.71018978638972,1.71044878113854,1.70966154466938,1.71009221146821,1.70884555332672,1.70938874108614,1.71715574567274,1.83495999926792,1.78742325726831,1.78871170300281,1.78928344681898,1.79173958836507,1.73154184402399,1.71560526900573,1.73260668219741,1.79833497826565,1.79751981924261,1.80031296529609,1.80498137996212,1.90468999926792,1.8275282310818,1.83150085734456,1.82882867264696,1.83039823659114,1.82148053790929,1.80406765579792,1.81818462945058,1.80593295842977,1.83886612355244,1.89948999926792,1.83837064694079,1.80487013647019,1.80146996942866,1.80406028665212,1.80234712339949,1.8022790355751,1.8006477077744,1.79971119036884,1.79925674965918,1.8019122885139,1.82820208390792,1.88959999926792,1.83655133710691,1.89061999926792,1.83726184597429,1.89399999926792,1.82436325719612,1.80580032865709,1.83148098394862,1.87578999926792,1.85956540428651,1.88746999926792,1.86168989705374,1.87394999926792,1.83848080761618,1.80045804386459,1.79960738489867,1.7992466062966,1.81151907903713,1.88716999926792,1.81455984435717,1.79627099993936,1.80737942657063,1.79412514337675,1.80294110028546,1.7913873937544,1.787347491117,1.79133199323313,1.78757271646107,1.79134253537585,1.8060308534472,1.88279999926792,1.80811810486393,1.7902075128849,1.80103535495933,1.86574999926792,1.7893211120294,1.78408637823502,1.78217267627937,1.78404398870157,1.78014047023727,1.78421963998588,1.80805325338652,1.91162999926792,1.80734072597151,1.72238000036258,1.80273164678085,1.79743844409139,1.73555053197249,1.70995830153787,1.70959489218679,1.70596315663832,1.73203755008152,1.80645999926792,1.7783576383589,1.77535544511011,1.77542672400341,1.77637641990092,1.77528479481924,1.77467477134598,1.77704619262903,1.80445999926792,1.76983133565906,1.76985224591413,1.73689350372458,1.69051682977705,1.69148475481429,1.68869580973707,1.68958454495944,1.69216385723997,1.70680600110332,1.69055999979633,1.72533412476734,1.76819232428515,1.76601654293443,1.77547570272141,1.7689356635381,1.77131946476661,1.77074195176167,1.76984010995671,1.77033763842048,1.77179373394431,1.77005706208104,1.77194240229447,1.72017868809404,1.69456007740378,1.7357503805606,1.77387375615844,1.73211628703483,1.69392000073886,1.78033622876354,1.85686999926792,1.7728563735448,1.77158548824619,1.76851982675156
1.7171179347675,1.71752287421412,1.71788414419388,1.76729414987916,1.76796819293054,1.77986210924131,1.82224494148319,1.82199422120782,1.82132571330572,1.82127700830125,1.82118035182604,1.78839194537213,1.78850556799908,1.78873356818447,1.79628637537613,1.79584605364188,1.79504460311932,1.7943903987157,1.80566683631419,1.80361361873046,1.80341757158452,1.80209105197846,1.80198204287104,1.80171928192946,1.80056201859606,1.7659640591431,1.7244973797398,1.72482712676589,1.72565058371702,1.72649389296485,1.72744903818405,1.72902817325114,1.73068141504989,1.7328415990747,1.73112279805256,1.72522675892429,1.71988408451351,1.74307253221757,1.74308182750867,1.73226623958111,1.71032126810709,1.71020404257881,1.7099020233176,1.70959425725829,1.70910784859273,1.7089560268097,1.70891603383605,1.71421374046367,1.71320905329988,1.71286117364512,1.71247317205427,1.71177637237522,1.71279180186101,1.71395062412219,1.71495562889491,1.7374877510216,1.79772297681519,1.79699269756208,1.79991756833141,1.80417988365432,1.82015338212043,1.82345480062159,1.82825728132186,1.82857210882694,1.83171178043161,1.83442184075148,1.83644641861596,1.83525691275951,1.83227712506089,1.83930653809873,1.83857991437184,1.83883328307793,1.80106955898119,1.80027556246067,1.80207258176928,1.80182813041948,1.80197746048181,1.80069268562018,1.80053837713231,1.81933270288577,1.82457840624465,1.82978418466908,1.83646681711506,1.83618234732978,1.83584095509647,1.8370317049345,1.83750633768929,1.82346361005261,1.81900382131113,1.83219766486784,1.85948254810438,1.85971025066171,1.86011978949251,1.86104260742403,1.86177894138498,1.83969437618528,1.82557341142202,1.82127743543262,1.82056619389736,1.82081414089279,1.81875599647702,1.81688443254679,1.81394135655706,1.81163276259812,1.80892210540378,1.8074824751874,1.8074407677764,1.80562500392806,1.7877838094764,1.78644138321411,1.78779553558496,1.80933425641059,1.81649169358153,1.81226282173176,1.79024444565035,1.78917766426286,1.78909172686646,1.79014568667901,1.78054641246358,1.77953048413083,1.77940748503636,1.77943879592754,1.78038620854027,1.80647314327306,1.81289575325853,1.80703854203635,1.80526242562521,1.80480292523353,1.8024768501538,1.73296961674759,1.70954578147015,1.70933542092333,1.70765771090331,1.72544465458498,1.77845146245682,1.7774185358894,1.77657344928883,1.77656771718722,1.77692347096778,1.77820770996409,1.77758316192148,1.77666042884573,1.77187689894623,1.76922545375639,1.76830671994245,1.73668527617342,1.69215055229615,1.69146669902335,1.69051569128833,1.68945148670784,1.70510791150481,1.7088063033634,1.71498724523696,1.72471393040102,1.72595408167563,1.72838883258737,1.72962173676902,1.76033505165298,1.77392915821794,1.7733419698948,1.77278781986133,1.77246460053032,1.77006607471455,1.76878300548276,1.7690308509433,1.73570209886916,1.73538411100342,1.73486038669209,1.73368531127402,1.73260588954674,1.73234983790947,1.78150561067213,1.78092444666548,1.77354737619539,1.7727568216072,1.77090096520157
1.76821999926792,1.75256779211097,1.75361046350614,1.76633275950306,1.76869592286952,1.78274889160508,1.83439999926792,1.8229584349835,1.81842013231083,1.82137876396657,1.81950961922974,1.7858107788899,1.73392081972343,1.77532091038299,1.81172012725312,1.81239661726613,1.81084410120696,1.80949975620105,1.80827859361815,1.80362893460791,1.80046590760962,1.80195872022096,1.80366464381081,1.80225209489644,1.80205061323308,1.76645705237977,1.72011088202477,1.74100573277158,1.79878531473256,1.79498858008716,1.79446677317824,1.79387152336269,1.79569428086099,1.73974944675527,1.71292065785048,1.71963397193978,1.71453977501335,1.74288169379854,1.79038999926792,1.73502285866035,1.71061558530279,1.71020314894758,1.70990007471803,1.71986758647412,1.79003999926792,1.70898128463279,1.70992147004528,1.70964910082286,1.70981531038691,1.7099765811002,1.71017877785325,1.71062535105458,1.71267733721354,1.7145900836319,1.71571797904129,1.74124080986589,1.79881155914321,1.79723444425316,1.80370171340665,1.802940219586,1.80945600315002,1.81735527036775,1.81535999965691,1.83070538173591,1.93065999926792,1.83744951881282,1.89557999926792,1.83380225188096,1.88000999926792,1.85542273212184,1.89609999926792,1.83749017788228,1.80364643381209,1.80107676977969,1.8047692980364,1.8020975728665,1.80445228924637,1.80185359900564,1.80502172871718,1.82322401249232,1.89885999926792,1.85567002641971,1.88589999926792,1.82944950704162,1.80309640300894,1.82498773124918,1.87869999926792,1.82223476514083,1.80332337769553,1.83071323490639,1.88050999926792,1.85990043807986,1.87868999926792,1.86062647665286,1.87774999926792,1.84067950873731,1.87531999926792,1.82542292371714,1.88701999926792,1.82187313481827,1.79695215900736,1.820120773939,1.89930999926792,1.82323236982327,1.87983999926792,1.82546134678177,1.87085999926792,1.81283328200274,1.79118052537784,1.7873041523489,1.78953287191673,1.81304521088448,1.86369999926792,1.81607596716618,1.79042384064357,1.78914630093351,1.78742198630297,1.78278767836759,1.78606727958858,1.77941173038143,1.86148999926792,1.77998315336973,1.78314226449841,1.80521219078568,1.88556999926792,1.80406716930895,1.80123340485117,1.80469726000088,1.80961999926792,1.72913805734439,1.70961697937335,1.70979230820559,1.70492648091029,1.72080974925735,1.7813792944932,1.7764743610139,1.77760568690279,1.77690935135242,1.77685506354385,1.72127922595001,1.69570056449325,1.72077672756779,1.7711539508712,1.76869131696103,1.80672999926792,1.73639151553575,1.6925807683732,1.69173856524747,1.69129051472203,1.69001663203438,1.76960999926792,1.72837783764941,1.76889999926792,1.72399208216546,1.69177005084317,1.70314612763317,1.69291028896712,1.76049805284158,1.79642999926792,1.72588445385689,1.69348032557109,1.71936470003008,1.77077975765892,1.76845963913329,1.78661999926792,1.73360710872873,1.77380999926792,1.71166393087295,1.69270031548798,1.72721808182025,1.78303561437533,1.78255002618484,1.78268045860228,1.77157752197685,1.77264430454938,1.77304941203021
1.74952560973311,1.7515332418713,1.75278570277959,1.76382779089275,1.78196327735303,1.78697914346022,1.82470335392195,1.82395204331366,1.82288313784719,1.82173235525181,1.82069353551949,1.7860438967782,1.74878308908451,1.77482505731303,1.81396059805383,1.81362413618799,1.81187705254897,1.81025611398603,1.80931091107217,1.79613830820507,1.79635744053335,1.79685636663907,1.79761293064107,1.79840790732546,1.77612024412867,1.77618676423916,1.77636447742071,1.77650374371636,1.79540597729017,1.79317418088939,1.79202172949783,1.79180592682104,1.79327505608502,1.76807819358602,1.76793665870292,1.76781383123661,1.76773641047148,1.76756232356082,1.76734444652871,1.7416828463096,1.73649291930824,1.73366150395386,1.72926495686011,1.72462859524824,1.71955053820471,1.70944216560157,1.70946011922452,1.71007748731859,1.71009723649038,1.71015673952528,1.71006906848039,1.72498396875904,1.72827079898899,1.7318681161852,1.73720731220869,1.74415488061147,1.74488714063208,1.75357542260299,1.79298303895576,1.79283539361951,1.79258591620003,1.79237993487315,1.81056409732733,1.83275318432055,1.83325367193409,1.8361595202913,1.83741965148606,1.83614656060108,1.85498230669877,1.85518614734298,1.85556473383564,1.83638627604248,1.83004672061025,1.82393934279351,1.82031653128901,1.81630423255648,1.81017608806274,1.80770564910082,1.82389949303067,1.8274461554499,1.85586795667345,1.85553708651215,1.85523304496842,1.82355218032649,1.8140449586778,1.81624457110609,1.81872359959741,1.82256813349451,1.82642257636784,1.82895187343278,1.82985194250446,1.8455364708713,1.8618122819608,1.86089300275467,1.86152378562496,1.84054721122962,1.82749608408743,1.82606481802906,1.8257264193213,1.82397431590227,1.82361433455092,1.82330095254072,1.8247937882154,1.82489380409989,1.82503532190369,1.82519497678113,1.82535802487156,1.81810316192118,1.81345844286822,1.80673619008616,1.80352940050817,1.81688354432399,1.81991680378149,1.81799037885694,1.81064982553099,1.80651653256842,1.7840892291046,1.78256572547711,1.78169819138656,1.7802064022759,1.77942189390147,1.77938427754898,1.78073427061696,1.8048062819081,1.81263088187148,1.80296629913167,1.79861473235354,1.77694260424397,1.73164095615751,1.72473093588168,1.71042791319943,1.71051601476888,1.7044763848482,1.70373616275449,1.70283199997919,1.70174230873437,1.7020680975818,1.70276531955421,1.70396951626189,1.70505197859035,1.70577384897562,1.71445931757618,1.72000111181546,1.76190163099468,1.7617681046628,1.73601334167494,1.69211760518614,1.69168902333001,1.69061787130427,1.69017122899492,1.71467008184737,1.72040074161969,1.72839054725539,1.72355179348136,1.70372463675555,1.70621663910425,1.71669010427193,1.76073231450946,1.76081001670346,1.72385833940019,1.69635816786835,1.6959408625779,1.6948071164893,1.6938110873578,1.69334549735982,1.6936332625767,1.69448882609787,1.69540104423772,1.69592331995287,1.72538901814598,1.77433435452189,1.77498201947081,1.77381834653055,1.77139488336684,1.77068976001816,1.7726550432879
1.74854979254681,1.75128801306828,1.75088773142958,1.76201805367123,1.84490999926792,1.82977819585445,1.82235282814598,1.82552745162448,1.82104799580607,1.82331656739003,1.81695196940734,1.78629535438878,1.73480114130554,1.77426210908111,1.83904999926792,1.81426004223396,1.81159168444926,1.81091358839692,1.81039302688455,1.7482498274062,1.72810104478634,1.7853325533973,1.80427999926792,1.79893318138468,1.7235100002453,1.77612021752718,1.79954876938409,1.79715147239471,1.79807306874541,1.79290112144838,1.84280999926792,1.79121838724838,1.79524460359252,1.79232015437054,1.79340379541351,1.79082501636601,1.79166584766716,1.78878967815123,1.78909637330087,1.78553819726083,1.84026999926792,1.78780003588115,1.78832999926792,1.72972142932049,1.70981737147899,1.70956834115016,1.70986394152127,1.71011528919499,1.71086351104197,1.7102606925521,1.70997979597285,1.73055799207476,1.79259336281367,1.7920204952968,1.79379372298781,1.74597256876437,1.72135000010129,1.7545000285262,1.80265999926792,1.74627661869779,1.7288511317658,1.78168291830053,1.81245307019461,1.83377130369906,1.83117623594065,1.83621901927668,1.80591187166532,1.82835916935636,1.89993999926792,1.85487277144877,1.89956999926792,1.84034912567359,1.89235999926792,1.85903875038417,1.89904999926792,1.81723727284282,1.80523290677189,1.80660984239628,1.89984999926792,1.83143394434097,1.89612999926792,1.85538151148969,1.89640999926792,1.82044578360276,1.80544614738847,1.81317658185213,1.80403983091589,1.82304668380309,1.89130999926792,1.82980340834128,1.80303304274234,1.84382706888777,1.88620999926792,1.85986611790571,1.88944999926792,1.84024013815585,1.80064566956496,1.81622487386443,1.80023324372549,1.82400809163694,1.87179999926792,1.82337597527044,1.79751343917367,1.81353708976033,1.79725268976962,1.82181105487926,1.88400999926792,1.82143862798876,1.88615999926792,1.81129290590617,1.79325966176833,1.81877746277613,1.86653999926792,1.83355778488115,1.88049999926792,1.81109215236671,1.78642663687377,1.78186707793653,1.78577863462807,1.7820106392178,1.78340765092876,1.77975238962273,1.78262001206837,1.80435235547789,1.88148999926792,1.80305530187578,1.80133278952783,1.77668947863922,1.71364729601506,1.71320549530849,1.71089070430893,1.71083355070191,1.70232138778198,1.70361518485097,1.70225703998333,1.70095346514127,1.6989102167748,1.70245412292448,1.69823935220961,1.70268948456438,1.6958919930469,1.69470237093421,1.69511060265027,1.76196842765378,1.77139999926792,1.7356501937851,1.69160729873073,1.69175766357224,1.80294999926792,1.6911094979515,1.69205868195998,1.71344182865869,1.77074999926792,1.72321678431791,1.69243026229024,1.71140658985647,1.77262999926792,1.76084083156204,1.77220999926792,1.72445107779123,1.69372104767991,1.69638215858829,1.69211080322733,1.69336963933203,1.69431526928868,1.6927868529091,1.69196511990009,1.6939450935716,1.69566791174354,1.72544486137625,1.77265180297672,1.77581017100445,1.7734454168541,1.77180922001896,1.85593999926792,1.77301133418238
1.74757260176197,1.75033779864395,1.76179882578216,1.76299149458812,1.83997107709518,1.83570604997124,1.82953119956821,1.82990269699786,1.82747250633766,1.82726793042999,1.82533868120562,1.78631320669616,1.77456472755052,1.77414598378704,1.75760712458959,1.75311908782892,1.74937527855273,1.74569680445562,1.74225193299783,1.73930896699333,1.73676086881689,1.78589673412895,1.79901656236913,1.79904354427237,1.7989639473934,1.79883767352655,1.79830314875761,1.79685324654138,1.7945907712972,1.79232283165721,1.79071494393771,1.79159678755262,1.79192434885171,1.79131283820266,1.79136386270997,1.7898589102965,1.78990054128755,1.78759243209256,1.78706372983187,1.78537871067961,1.78505639541356,1.78770050130931,1.73696698374224,1.73423793493072,1.72699936616956,1.72245075517206,1.71648211096749,1.72206300318229,1.72594464710783,1.7298748091744,1.73507072924293,1.74049734704275,1.79150661588582,1.79125272539524,1.79221306757219,1.75382282926849,1.75455131217137,1.75503389512885,1.74583970585651,1.74039823261419,1.73681333672038,1.78192473721256,1.82668001632474,1.83230031254751,1.83210352989468,1.83425701958943,1.83498805415098,1.83170168389567,1.83057208023124,1.82946440576999,1.82956067189809,1.84080263870204,1.85951200416621,1.85893840978566,1.85901017182405,1.82040426349742,1.8093821091791,1.80768196137122,1.81380222270016,1.81380591823785,1.81382942076462,1.81435054912466,1.81441648143641,1.81557544717104,1.81283734738637,1.81534963626725,1.82023576243751,1.8245555691759,1.82746929057908,1.83025966790022,1.83071903015222,1.84315120489626,1.86002190531588,1.85981409384426,1.85976866511054,1.84181313368751,1.83655398285114,1.83730857503001,1.83536264142298,1.83266368021674,1.83193397506111,1.82463585557466,1.8238690616012,1.82428099662602,1.82378988472403,1.82164414224173,1.82101561720946,1.82092498645171,1.82042958744623,1.82087863056486,1.82177658953129,1.8226458012827,1.8223983704007,1.83338848220927,1.83318287517278,1.81509361038782,1.80775623254305,1.7822724791798,1.78296691250193,1.78264650077787,1.78127753180809,1.78018425563417,1.77887644295166,1.8040991985814,1.81419553420041,1.80259747736074,1.79866271122828,1.7762958009471,1.71256167960948,1.71215490298582,1.71097112932458,1.71028656304025,1.71018934566998,1.7106695739339,1.71150152634067,1.71220570688379,1.71300692012268,1.71099703509012,1.70938334922014,1.70549254107333,1.69495798454944,1.69448780485353,1.71795266859799,1.76185089292473,1.76168616492644,1.73535075929866,1.69149308188072,1.69172897716782,1.69196576153494,1.69199203427611,1.69219152148479,1.70611493922398,1.71130811564774,1.72242818509848,1.72277130588489,1.72287896815405,1.72349165950713,1.72370613839782,1.72357827396106,1.72381176062919,1.71091801415722,1.7050086648349,1.69369654190797,1.69323510657766,1.69310149374414,1.69238739583009,1.69229387566247,1.69288383829941,1.7104173253186,1.7256832149364,1.72552895686107,1.77660121192208,1.77439372838267,1.77224982424547,1.7715377609097,1.7725085762415
1.74745804331767,1.74853067384497,1.76540778387812,1.76673732407376,1.85850999926792,1.83904234073535,1.83548362929432,1.83537193188979,1.83718999926792,1.83477658680466,1.91400999926792,1.78601121036803,1.81539999926792,1.77386905014377,1.73400159297751,1.7442753434745,1.73164185101833,1.7412180829233,1.73054073883136,1.73713045697978,1.72814167196994,1.78659725718418,1.80696999926792,1.80238967611643,1.84234999926792,1.80132966208422,1.80199246463918,1.7976269325734,1.7950732107044,1.79220093104905,1.79606552207145,1.79107038907245,1.79843040671381,1.79073948123917,1.79158593102255,1.78915413998247,1.79174873496378,1.78832586798303,1.78882464482867,1.78709300416407,1.7881030070745,1.7875736638121,1.7110800006465,1.73695582019247,1.78971999926792,1.72638010931758,1.70901037772657,1.72571334943018,1.78865999926792,1.78002756490461,1.78921999926792,1.77904471928195,1.7920376379342,1.79171406811031,1.79352941929526,1.75617732106911,1.80010999926792,1.75584471924209,1.7244104819707,1.73729592463988,1.73136941244546,1.78223876754507,1.83261680905409,1.83096810240385,1.83190220375962,1.83210807504505,1.87879999926792,1.81805988953976,1.80395092255652,1.8138761970321,1.80575771416432,1.84083790502569,1.89457999926792,1.85835418002895,1.90291999926792,1.82376484114824,1.80420944440208,1.80203385703331,1.80494774257818,1.8022154014091,1.80390132570401,1.81111170401085,1.80542815261831,1.81246695485243,1.80440839955053,1.81632274375136,1.89787999926792,1.82635960758111,1.80620677107462,1.83247054128189,1.88781999926792,1.84229838373689,1.89762999926792,1.85996323754066,1.87473999926792,1.84280447472536,1.89723999926792,1.85425590865406,1.89600999926792,1.83094504025976,1.89385999926792,1.82605852849405,1.87970999926792,1.8229581675605,1.88956999926792,1.82093540244988,1.79470096267516,1.81049591370273,1.78999822967583,1.81923664931392,1.88023999926792,1.82237811002468,1.79097304000901,1.83357779753475,1.87191999926792,1.82400186162751,1.86162999926792,1.78155957972433,1.78497990981875,1.78226189167568,1.78735161162225,1.77921114940767,1.7844996277161,1.80372706485841,1.89383999926792,1.80337995310132,1.79948315028032,1.77599218662223,1.71273995656007,1.73370896152778,1.78854545344605,1.78657087799198,1.78547667158889,1.77688800059155,1.77988999926792,1.77568356453383,1.77374323316398,1.77323837473569,1.77484167397932,1.70809228215799,1.69264030255058,1.69397432449312,1.76985041662411,1.76904251339598,1.77049158742165,1.73508094326183,1.69115389683015,1.69158138115231,1.69201454656367,1.69228878703911,1.69256327594349,1.70141647620118,1.69238075217934,1.7208883045233,1.76984999926792,1.72112459318597,1.69147999911888,1.70684662593394,1.69280999880196,1.72409774702762,1.77080999926792,1.71592381577329,1.69425704818933,1.71613141539518,1.77243999926792,1.7067791207678,1.69304515992706,1.6932177954662,1.77307999926792,1.72605336008804,1.69465000063107,1.77845972108814,1.78265102428948,1.77157187930407,1.77198992422188,1.77140927290134
1.74786878263933,1.7471371622383,1.76110828734029,1.77022384645796,1.7704027522788,1.77197243633431,1.77607230802902,1.77821834824573,1.77900553092943,1.77960959428334,1.78022865248115,1.78552861771195,1.78592964631281,1.7739397040668,1.76754681229563,1.76774081397828,1.7680968880154,1.76847954427995,1.76872131156679,1.76878439639361,1.76877366888214,1.78701971232785,1.80209652687965,1.80223280725619,1.8021245636579,1.80174784740666,1.7981411474273,1.79525304489778,1.7921439380033,1.79173139375697,1.79174515583359,1.7932558431469,1.79023442990212,1.79043149157476,1.78887980835079,1.78761218206334,1.78989783119471,1.79116687669535,1.79146335160495,1.79136362458135,1.79147711987322,1.78750798877278,1.78754315743076,1.78764630582541,1.78773323117562,1.73175362628597,1.72614851070709,1.73133651216846,1.78000532473666,1.78041123247522,1.77806723264915,1.77860783220391,1.77889940775027,1.76936485560094,1.75736210229707,1.75674485968696,1.75654667190771,1.75603666860834,1.75524437459462,1.75440565210044,1.75430005226883,1.7826053991504,1.81635567035393,1.81617102479809,1.8162037530594,1.81324422314417,1.80669267664068,1.80366458241345,1.80379615733515,1.81404080189194,1.82370405185958,1.84152433294779,1.85906230005593,1.85874976442312,1.85866209021008,1.82769987018422,1.80211390493831,1.80142383555976,1.80232969803566,1.8010479956726,1.80136910981822,1.80893852467895,1.80806971444576,1.8098207353357,1.81177047487399,1.8200113874029,1.83209505013805,1.83269628237962,1.83302483924179,1.83221685659706,1.83118875343516,1.8405452428525,1.84123306773122,1.84131765451153,1.84111850725124,1.84243175159417,1.85499085807924,1.85469223942004,1.85473047347399,1.82980837665279,1.82574146611588,1.82308282783323,1.82298651891786,1.82249523749323,1.82143276581847,1.82113713570888,1.82282536920338,1.82402746620173,1.8242089203259,1.8245738313165,1.83379062970066,1.83305122582939,1.83314209484157,1.83461570215501,1.83683298615643,1.82487512489423,1.80788034701571,1.7822176304938,1.78288320994652,1.78219562010072,1.78062716888231,1.78056802078678,1.77972574495975,1.80347822625414,1.81229623618126,1.80428538436045,1.79901871923989,1.7957680100885,1.79580516711245,1.79450570003314,1.78870068954278,1.78627710158371,1.78589599383045,1.77680290809427,1.77657435083106,1.77625197019678,1.7733028461379,1.77256572785097,1.77257245696951,1.71116450264404,1.69302446169998,1.69363417992464,1.76889648410232,1.76807988339449,1.76822156448355,1.73473128043161,1.7203781952401,1.71542265062631,1.71129860297523,1.70633689268713,1.70041514211147,1.71014281830216,1.716101937801,1.72680311471451,1.7376192696247,1.72725908644457,1.7196168652696,1.71415032427062,1.70682358080067,1.72446624633234,1.76022002525048,1.76022215027946,1.76019363351291,1.76007180492159,1.75991701048126,1.71165546744524,1.69463003661525,1.69411643737984,1.71064943892877,1.72575913094191,1.72379732150021,1.77601261917671,1.77149570867458,1.76935933449207,1.76951862244798,1.77028929287047
1.74898035252344,1.7470210006629,1.67481000073212,1.77182202162999,1.76935635263683,1.77013550143825,1.74060082874515,1.75148633239822,1.7384913082868,1.7460498590603,1.73896852443308,1.78454828503759,1.81160999926792,1.8081681991165,1.81562999926792,1.80750187100693,1.81382634826188,1.81450461765463,1.81200408399384,1.81210845808151,1.80953235863506,1.80918692041188,1.80711741970483,1.80214044413628,1.72378000039398,1.80176061211458,1.79969184966905,1.79566288008852,1.92023999926792,1.79076411674371,1.79629053460589,1.79126079050395,1.79743573448799,1.78933033286308,1.84049999926792,1.78941886283767,1.79124238865703,1.78848441790911,1.71034000074412,1.79230545774335,1.83916999926792,1.78694498134738,1.78909126847335,1.7885914461807,1.78940980600837,1.73882996773933,1.71263047471903,1.7384435159647,1.83512999926792,1.78087761302079,1.71384000047526,1.77829973433257,1.79273999926792,1.76875064167182,1.71722041249978,1.72884618337262,1.7210903717753,1.7414757758536,1.80337999926792,1.75398738771765,1.83058999926792,1.78301151638564,1.83123999926792,1.81596356791423,1.74247999181978,1.8114754017912,1.80602560711255,1.80407310082914,1.80432377780947,1.81519593449686,1.89070999926792,1.84152903196863,1.88989999926792,1.85920890869076,1.90008999926792,1.83000672669212,1.80483826579548,1.80229767671017,1.80475207158671,1.80201898913362,1.80447487471179,1.82500790824349,1.90276999926792,1.82497474167983,1.80454851559583,1.82359524377779,1.90235999926792,1.83217886145474,1.89226999926792,1.83128488004227,1.80494705031258,1.83940352261505,1.88629999926792,1.82920992540489,1.80257642481737,1.83186779462283,1.88417999926792,1.85479033085797,1.89487999926792,1.82999018003578,1.80056242840077,1.81432408752202,1.79848356211953,1.80743116577585,1.79791923127392,1.81914245371933,1.88638999926792,1.83336196514913,1.86595999926792,1.83094230319043,1.86842999926792,1.83286775284147,1.87215999926792,1.85192164837839,1.86582999926792,1.8256731421316,1.78579338588088,1.78213217721305,1.78531248319962,1.78128169216309,1.78508507631674,1.78020220641803,1.78338204450105,1.80320457472828,1.88537999926792,1.80805962153137,1.79985883311706,1.79769018680191,1.79471412950025,1.7928256410145,1.7887449028229,1.78638680162133,1.80894999926792,1.7611602099017,1.70103000070504,1.77662617330102,1.7758434961358,1.77316306082984,1.80706999926792,1.71426444603527,1.69432457310213,1.69449952905449,1.77005379496566,1.76801099988416,1.80582999926792,1.73305398417408,1.76836999926792,1.72522071034485,1.80266999926792,1.71103642638044,1.69219077946601,1.71729471035383,1.77051997685241,1.77020498294527,1.77095033586675,1.77084240679021,1.77232249317557,1.71957123156847,1.69232999878695,1.72576045577272,1.77440999926792,1.76917602114743,1.79324999926792,1.78124492721937,1.78263068782242,1.71678630575904,1.69534936455735,1.69473123598807,1.69306726127166,1.7266779193469,1.77386348402012,1.77473975766604,1.77257785435106,1.76981734563509,1.69549000073093,1.77006919266256
