1.42614186180224,1.42620176820724,1.42692064506723,1.42793905395221,1.42717025508806,1.42614186180224,1.42639147182307,1.42739989630722,1.42787914754721,1.42789911634887,1.42810878876637,1.42797899155554,1.42828850798137,1.42851814920053,1.42958648008967,1.42942672967634,1.42988601211467,1.42917711965552,1.43067477978049,1.43047509176382,1.43259178474045,1.43165325106213,1.4318229858763,1.4318529390788,1.43276151955461,1.43281144155878,1.43273156635211,1.43394966325375,1.43373999083626,1.43421924207625,1.43403952286125,1.4351677601554,1.43509786934956,1.43528757296539,1.4348682281304,1.43624607544537,1.43620613784204,1.43703484311119,1.43700488990869,1.43628601304871,1.43654560747037,1.4366154982762,1.43717462472286,1.43732439073535,1.43771378236784,1.43872220685199,1.43886198846365,1.43887197286449,1.43872220685199,1.4400800853653,1.44109849425028,1.44181737111026,1.43834279962033,1.44283577999524,1.44247634156525,1.44281581119358,1.44290567080107,1.44251627916858,1.44235652875525,1.44235652875525,1.44302548361107,1.44247634156525,1.44790785561847,1.44501237937686,1.44500239497603,1.44492251976937,1.44665980551433,1.44732876037015,1.49809943860663,1.49698118571332,1.49684140410166,1.49966698953744,1.50012627197576,1.4996869583391,1.50142424408407,1.50123454046824,1.50021613158326,1.49915778509495,1.50032595999242,1.49852876784246,1.49719085813082,1.49926761350411,1.49924764470244,1.49810942300747,1.49774000017664,1.49861862744996,1.49891815947495,1.49902798788412,1.49999647476493,1.49906792548745,1.49908789428911,1.49882829986745,1.49950723912411,1.49993656835993,1.50066542962075,1.50412003230901,1.50339117104819,1.50119460286491,1.50174374491073,1.5030017794157,1.5049287687765,1.50443953313567,1.51013064161056,1.50594717766148,1.50716527456312,1.50711535255895,1.5063166004923,1.50704546175312,1.50729507177395,1.50738493138145,1.50711535255895,1.50766449460478,1.50729507177395,1.50851316867559,1.50882268510142,1.50807385503893,1.51015061041223,1.50647635090563,1.50822362105143,1.50767447900561,1.50795404222894,1.50380053148235,1.50350099945736,1.49601269883251,1.49473469552587,1.50104483685241,1.49926761350411,1.49394592786005,1.49473469552587,1.49598274563001,1.49700115451499,1.4648813370348,1.46407260056732,1.46387291255065,1.49581301081585,1.49711098292415,1.46459178941064,1.46315403569067,1.46238523682652,1.46204576719819,1.46169631316903,1.46225543961569,1.46215559560735,1.46191596998736,1.46219553321069,1.46245512763235,1.4634635521165,1.4631041136865,1.46372314653816,1.46714779602392,1.46284451926484,1.46302423847984,1.46342361451316,1.4683159709214,1.46422236657981,1.46481144622897,1.46463172701397,1.4684058305289,1.46547041668395,1.46553032308895,1.46630910635394,1.46513094705563,1.46539054147729,1.46599958992811,1.4667484199906,1.47044264829886,1.46679834199476,1.46751721885475,1.46748726565225,1.4680164388964,1.46926448900055,1.46902486338055,1.47117150955967,1.4716607452005,1.47230973125465,1.46889506616972
1.42523328132643,1.42500364010727,1.42693062946806,1.42934685446968,1.42650130023224,1.4266710350464,1.42701050467473,1.42689069186473,1.42716027068722,1.42741986510888,1.42828850798137,1.42816869517137,1.42729006789805,1.42833842998553,1.42837836758887,1.42860800880803,1.42951658928384,1.43035527895383,1.43063484217715,1.43171315746713,1.43089443659881,1.43077462378882,1.43162329785963,1.43184295467796,1.43193281428546,1.4314635474463,1.4333006771996,1.43382985044376,1.43198273628963,1.43235215912045,1.43267165994711,1.43376994403876,1.43472844651874,1.43505793174623,1.43520769775873,1.43604638742871,1.43620613784204,1.43588663701538,1.43585668381288,1.43588663701538,1.43639584145787,1.43689506149953,1.43758398515701,1.43780364197534,1.43805325199617,1.43786354838034,1.43813312720284,1.43840270602533,1.43919147369115,1.43966074053031,1.44012002296863,1.44090879063445,1.44071908701862,1.44094872823778,1.44270598278441,1.44215684073859,1.44128819786611,1.44123827586194,1.44218679394109,1.44308539001607,1.44242641956108,1.44266604518108,1.44866667008179,1.44793780882097,1.44515216098853,1.49616246484501,1.49693126370916,1.50109475885657,1.50182362011739,1.50074530482741,1.49953719232661,1.49872845585912,1.50028602238909,1.49950723912411,1.49871847145829,1.49978680234743,1.49857868984662,1.49780989098247,1.49788976618914,1.49889819067328,1.50000645916576,1.49881831546662,1.49885825306995,1.49819928261497,1.49869850265662,1.49970692714077,1.4998367243516,1.49935747311161,1.49955716112827,1.49896808147912,1.49924764470244,1.49924764470244,1.49907790988828,1.49929756670661,1.49952720792577,1.49949725472327,1.49939741071494,1.50086511763741,1.50045575720325,1.50085513323658,1.50401020389985,1.50522830080149,1.50488883117316,1.5083334494606,1.50540802001649,1.50548789522315,1.5066460857198,1.50672596092646,1.5064064600998,1.50676589852979,1.50680583613313,1.50723516536895,1.50789413582394,1.50841332466726,1.51046012683805,1.50717525896395,1.50688571133979,1.50848321547309,1.50979117198223,1.50820365224976,1.50406012590401,1.50549787962399,1.50636652249647,1.50764452580311,1.50407011030485,1.50310162342403,1.49619241804751,1.49629226205584,1.49845887703663,1.49760021856498,1.49702112331666,1.49632221525834,1.49736059294498,1.49904795668578,1.46378305294316,1.46283453486401,1.46323391089733,1.46288445686817,1.46291441007067,1.46300426967817,1.46442205459648,1.46474155542314,1.46591971472145,1.46242517442985,1.46237525242568,1.46204576719819,1.46286448806651,1.4629843008765,1.46264483124818,1.46267478445068,1.46277462845901,1.46377306854232,1.46446199219981,1.46408258496815,1.46354342732316,1.46406261616648,1.46362330252983,1.46468164901814,1.46604951193228,1.46526074426646,1.46499116544396,1.46451191420397,1.46580988631228,1.46607946513478,1.46583983951478,1.46645887236644,1.46728757763559,1.46678835759393,1.46787665728474,1.4684058305289,1.46878523776056,1.46855559654139,1.46876526895889,1.47181051121299,1.46878523776056,1.47131129117134
1.42406510642895,1.42423484124311,1.42523328132643,1.42525325012809,1.42568257936392,1.42446448246228,1.42558273535559,1.43148351624797,1.42698055147223,1.42720020829056,1.42736994310472,1.42765949072888,1.42753967791888,1.4283583987872,1.42827852358053,1.42919708845718,1.42928694806468,1.43017555973883,1.4350179941429,1.42907727564718,1.429746230503,1.43028538814799,1.43057493577215,1.43133375023547,1.43110410901631,1.43175309507046,1.4316133134588,1.43145356304547,1.43217243990546,1.43864233164533,1.43248195633128,1.43459864930791,1.43568694899872,1.43472844651874,1.43496807213873,1.43443889889458,1.43434903928708,1.43456869610541,1.43511783815123,1.4350179941429,1.43556713618872,1.43570691780038,1.43707478071452,1.43696495230536,1.43789350158284,1.43788351718201,1.43941113050948,1.43841269042616,1.43874217565366,1.44109849425028,1.43925138009615,1.44013000736946,1.44058928980779,1.4413780574736,1.44366448526439,1.44119833825861,1.44250629476775,1.44273593598691,1.44832720045347,1.44286573319774,1.44328507803273,1.49740053054831,1.49723079573415,1.44840707566013,1.49777993777997,1.49722081133332,1.49646199687,1.49622237125,1.49913781629328,1.50104483685241,1.49940739511577,1.49948727032244,1.49929756670661,1.49882829986745,1.49936745751244,1.49952720792577,1.49927759790494,1.49914780069411,1.49884826866912,1.49839897063163,1.4997169115416,1.49935747311161,1.5016439009024,1.49843890823496,1.49919772269828,1.49911784749161,1.4997768179466,1.50165388530323,1.4980595010033,1.49913781629328,1.49841893943329,1.49868851825579,1.49939741071494,1.4996869583391,1.49935747311161,1.50035591319492,1.50341113984986,1.50046574160409,1.4996869583391,1.50343110865153,1.50138430648073,1.50699553974896,1.50432970472651,1.504599283549,1.50822362105143,1.50581738045065,1.50577744284731,1.50653625731063,1.5063166004923,1.50677588293063,1.50716527456312,1.50838337146476,1.50768446340644,1.50880271629975,1.50782424501811,1.50798399543144,1.50782424501811,1.50741488458395,1.50689569574062,1.50434967352818,1.4982392202183,1.49963703633494,1.50770443220811,1.50763454140228,1.50068539842242,1.49621238684917,1.49636215286167,1.49718087372999,1.49844889263579,1.49690131050666,1.49699117011416,1.49728071773832,1.46366324013316,1.46311409808734,1.46349350531899,1.46455185180731,1.46142673434654,1.4617761883757,1.46148664075153,1.46139678114404,1.4615665159582,1.46154654715653,1.46133687473904,1.46178617277653,1.46242517442985,1.46243515883068,1.46305419168234,1.4629843008765,1.46193593878903,1.46194592318986,1.46261487804568,1.46281456606234,1.46332377050483,1.46297431647567,1.4630442072815,1.46320395769483,1.46398274095982,1.46527072866729,1.46516090025813,1.46429225738565,1.46486136823313,1.46514093145646,1.46534061947312,1.46557026069229,1.46607946513478,1.46568008910145,1.46625918434977,1.46652876317227,1.46655871637477,1.46923453579805,1.46705793641642,1.46733749963975,1.46786667288391,1.4681662049089,1.46860551854556,1.46887509736805
1.42417493483812,1.42378554320562,1.42399521562312,1.42413499723478,1.42456432647061,1.42440457605728,1.42599209578975,1.42567259496309,1.4264014562239,1.42731003669972,1.42755964672055,1.42697056707139,1.42715028628639,1.42755964672055,1.42807883556387,1.42901736924219,1.42964638649467,1.42949662048218,1.42939677647384,1.42911721325052,1.43014560653633,1.4298360901105,1.43041518535882,1.43175309507046,1.43214248670296,1.43113406221881,1.4314036410413,1.43194279868629,1.4316732198638,1.4314935006488,1.43192282988463,1.43377992843959,1.43399958525792,1.43407946046458,1.43450878970041,1.43764389156201,1.43754404755368,1.43612626263538,1.4350479473454,1.43767384476451,1.43537743257289,1.43548726098206,1.43662548267703,1.4368251706937,1.44125824466361,1.43747415674785,1.44022985137779,1.43900177007532,1.43885200406282,1.43875216005449,1.43874217565366,1.43893187926949,1.4399303193528,1.44095871263861,1.44129818226694,1.4415278234861,1.44189724631693,1.44126822906444,1.49598274563001,1.49818929821413,1.49996652156243,1.49673157569249,1.49607260523751,1.49727073333748,1.49693126370916,1.49560333839835,1.49901800348328,1.49632221525834,1.49745045255248,1.49753032775915,1.49690131050666,1.49733063974248,1.49867853385496,1.4979995945983,1.49867853385496,1.49920770709911,1.49772003137498,1.49912783189245,1.49800957899914,1.4979696413958,1.49759023416414,1.49834904862746,1.49770006257331,1.4982991266233,1.49768009377164,1.4980595010033,1.49878836226412,1.49901800348328,1.49864858065246,1.49809943860663,1.49766012496998,1.49837900182996,1.5031515454282,1.50194343292739,1.50070536722408,1.50118461846407,1.50039585079825,1.49973688034327,1.50014624077743,1.50202330813406,1.50218305854739,1.50768446340644,1.50298181061404,1.50696558654646,1.5063765068973,1.50554780162815,1.50537806681399,1.50449943954067,1.50559772363232,1.50636652249647,1.5065562261123,1.50709538375729,1.50638649129813,1.5063465536948,1.50635653809564,1.50782424501811,1.50639647569897,1.50747479098895,1.50718524336479,1.50787416702227,1.50058555441408,1.50412003230901,1.50695560214562,1.5064663665048,1.505018628384,1.49719085813082,1.49662174728333,1.49668165368833,1.49700115451499,1.49697120131249,1.49656184087833,1.46232533042152,1.46172626637153,1.4614766563507,1.46163640676403,1.46119709312737,1.46063796668072,1.46148664075153,1.46098742070988,1.46065793548238,1.46050816946989,1.46122704632987,1.46157650035903,1.46172626637153,1.46231534602068,1.46154654715653,1.46194592318986,1.46251503403735,1.46266480004984,1.46201581399569,1.46223547081402,1.46251503403735,1.46293437887234,1.46362330252983,1.46345356771566,1.4629843008765,1.46396277215815,1.46425231978231,1.46474155542314,1.4650011498448,1.46630910635394,1.46578991751062,1.4663889815606,1.46554030748979,1.46505107184896,1.46553032308895,1.46545044788229,1.46590973032061,1.46596963672561,1.46862548734722,1.46719771802809,1.46733749963975,1.46722767123059,1.46755715645808,1.46746729685058,1.46886511296722
1.42702048907556,1.42626167461224,1.42469412368144,1.42448445126394,1.42505356211143,1.42527321892976,1.42584232977725,1.42692064506723,1.42703047347639,1.42687072306306,1.42704045787723,1.42708039548056,1.42716027068722,1.42796900715471,1.42836838318803,1.42809880436554,1.4284482583947,1.42816869517137,1.42865793081219,1.42954654248634,1.42978616810634,1.43024545054466,1.43040520095799,1.43123390622714,1.4315833602563,1.43134373463631,1.43074467058632,1.43098429620631,1.43183297027713,1.4330910047821,1.43349038081543,1.43316089558794,1.43454872730374,1.43429911728291,1.43424919527875,1.43436900808875,1.43438897689041,1.4349880409404,1.43458866490707,1.43555715178789,1.43577680860622,1.43586666821371,1.43630598185037,1.43630598185037,1.43687509269786,1.43843265922783,1.438362768422,1.44104857224611,1.43844264362866,1.43820301800867,1.43906167648032,1.4397805533403,1.44168757389943,1.44116838505611,1.44300551480941,1.44209693433359,1.44130816666777,1.49670162249,1.49538368158002,1.49603266763418,1.49573313560918,1.49612252724167,1.4963122308575,1.49736059294498,1.49742049934998,1.49717088932915,1.50107479005491,1.49583297961751,1.50047572600492,1.49702112331666,1.49634218406,1.49737057734582,1.50010630317409,1.49809943860663,1.49933750430994,1.49910786309078,1.49928758230578,1.49883828426829,1.49894811267745,1.49842892383413,1.4981493606108,1.49856870544579,1.49833906422663,1.49824920461913,1.49839897063163,1.49855872104496,1.49874842466079,1.50008633437243,1.50347104625486,1.49886823747079,1.49906792548745,1.49945731711994,1.50018617838076,1.50106480565407,1.50047572600492,1.50241269976655,1.5000164435666,1.49978680234743,1.50049569480659,1.50154405689406,1.50236277776238,1.50673594532729,1.50367073427152,1.50340115544903,1.50371067187485,1.50448945513984,1.50488883117316,1.50687572693896,1.50620677208314,1.50610692807481,1.50676589852979,1.50707541495562,1.5062566940873,1.50745482218728,1.50676589852979,1.50647635090563,1.51035029842889,1.50386043788735,1.50589725565731,1.5047490495615,1.50481894036733,1.50484889356983,1.50644639770313,1.50558773923148,1.4981194074083,1.49848883023913,1.49679148209749,1.49562330720002,1.49507416515419,1.50452939274317,1.50383048468485,1.49624234005167,1.49575310441085,1.49621238684917,1.46224545521485,1.46224545521485,1.4616264223632,1.46262486244651,1.46029849705239,1.45994904302323,1.46541051027896,1.46154654715653,1.46127696833404,1.46117712432571,1.46110723351988,1.46122704632987,1.46113718672238,1.46161643796237,1.46071784188738,1.46541051027896,1.46286448806651,1.46200582959486,1.46208570480152,1.46266480004984,1.46237525242568,1.46238523682652,1.46318398889317,1.46373313093899,1.46451191420397,1.46541051027896,1.46525075986563,1.46917462939305,1.46626916875061,1.46560021389479,1.46619927794477,1.46597962112644,1.46522080666313,1.46596963672561,1.46630910635394,1.46602954313061,1.46596963672561,1.46609943393644,1.46718773362725,1.46764701606558,1.46821612691307,1.4684357837314
1.42349599558146,1.42352594878396,1.42413499723478,1.42427477884645,1.42466417047894,1.42438460725561,1.42397524682145,1.4250136245081,1.42609193979808,1.42657119103807,1.4267908478564,1.42733000550139,1.42753967791888,1.42716027068722,1.42768944393138,1.42917711965552,1.42871783721719,1.42746978711305,1.42836838318803,1.42874779041969,1.42890754083302,1.43047509176382,1.43008570013133,1.4297162773005,1.43065481097882,1.43266167554628,1.43078460818965,1.43154342265297,1.43115403102048,1.43169318866547,1.43328070839793,1.43196276748796,1.43549724538289,1.43529755736623,1.43450878970041,1.43544732337872,1.43829287761617,1.4332108175921,1.43557712058955,1.43638585705704,1.44105855664694,1.44171752710193,1.43645574786287,1.43798336119034,1.43849256563283,1.43879209765782,1.43846261243033,1.43906167648032,1.43882205086032,1.4382130024095,1.487965271761,1.48744608291768,1.48874405502599,1.49636215286167,1.49488446153837,1.49359647383089,1.49564327600168,1.49448508550504,1.49527385317086,1.49553344759252,1.49581301081585,1.49599273003084,1.49611254284084,1.49725076453582,1.49414561587671,1.49648196567167,1.50081519563325,1.49918773829745,1.4966716692875,1.49670162249,1.49714093612665,1.49875840906162,1.50025606918659,1.50000645916576,1.49958711433077,1.49941737951661,1.4997768179466,1.50276215379571,1.49947728592161,1.4998067711491,1.50026605358742,1.49877837786329,1.49925762910328,1.49880833106579,1.50264234098571,1.4980894542058,1.4980595010033,1.49850879904079,1.49806948540413,1.49902798788412,1.50119460286491,1.49843890823496,1.49915778509495,1.49953719232661,1.50049569480659,1.50032595999242,1.50171379170823,1.50009631877326,1.49981675554993,1.50007634997159,1.50006636557076,1.50019616278159,1.50056558561242,1.5017038073074,1.50222299615072,1.50467915875567,1.50706543055479,1.50392034429235,1.5048089559665,1.50532814480982,1.50781426061727,1.50352096825903,1.5049287687765,1.50716527456312,1.50375060947819,1.50342112425069,1.50358087466402,1.50331129584153,1.5032713582382,1.50439959553234,1.50344109305236,1.50394031309402,1.50606699047147,1.50235279336155,1.50400021949902,1.50447947073901,1.49752034335831,1.50402018830068,1.49635216846084,1.49771004697414,1.50031597559159,1.50307167022153,1.50296184181237,1.46490130583647,1.46178617277653,1.46164639116486,1.46037837225906,1.46012876223823,1.46034841905656,1.46031846585406,1.46044826306489,1.46022860624656,1.45898055614242,1.45965949539907,1.45940988537824,1.46574997990728,1.4616563755657,1.46259490924401,1.46215559560735,1.46191596998736,1.46231534602068,1.46382299054649,1.46256495604151,1.46208570480152,1.46200582959486,1.46205575159902,1.46294436327317,1.46243515883068,1.46590973032061,1.46550036988645,1.46440208579481,1.46548040108479,1.46549038548562,1.4647914774273,1.46504108744813,1.46574997990728,1.46530068186979,1.46551035428729,1.46594966792395,1.46780676647891,1.4682560645164,1.46779678207807,1.46675840439143,1.4667184667881,1.46747728125141,1.46800645449557
1.42294685353564,1.42328632316397,1.42337618277147,1.42365574599479,1.42360582399063,1.42374560560229,1.42511346851643,1.42543296934309,1.4265212690339,1.42553281335142,1.42545293814476,1.42565262616142,1.42702048907556,1.42681081665806,1.4268208010589,1.42701050467473,1.42710036428222,1.42791908515054,1.42878772802302,1.43030535694966,1.42884763442802,1.4283583987872,1.4298959965155,1.43484825932874,1.43493811893623,1.43071471738382,1.43082454579298,1.43093437420215,1.43277150395544,1.43261175354211,1.4330910047821,1.43215247110379,1.43417930447292,1.47971815667284,1.47944857785034,1.47919896782951,1.47924888983368,1.47881956059785,1.47911909262285,1.47993781349116,1.43751409435118,1.43597649662288,1.43488819693207,1.43642579466037,1.43727446873119,1.43785356397951,1.48703672248352,1.48610817320604,1.48447073146941,1.48558898436272,1.48596839159438,1.48609818880521,1.48626792361937,1.4864875804377,1.48714655089269,1.48705669128519,1.48718648849602,1.49306730058673,1.4949543523442,1.49470474232337,1.49507416515419,1.49532377517502,1.49591285482418,1.49605263643584,1.49573313560918,1.49688134170499,1.49559335399752,1.49607260523751,1.4966716692875,1.4996570051366,1.50053563240992,1.49919772269828,1.49843890823496,1.49924764470244,1.50105482125324,1.49964702073577,1.49935747311161,1.49938742631411,1.49874842466079,1.49885825306995,1.49809943860663,1.49856870544579,1.49786979738747,1.49768009377164,1.50029600678992,1.49952720792577,1.50331129584153,1.49885825306995,1.49880833106579,1.49991659955826,1.50099491484824,1.49856870544579,1.49915778509495,1.49922767590078,1.49926761350411,1.49871847145829,1.49878836226412,1.49939741071494,1.50039585079825,1.50011628757493,1.50060552321575,1.50602705286814,1.50148415048907,1.5013443688774,1.50111472765824,1.50395029749485,1.50347104625486,1.50343110865153,1.50382050028402,1.50361082786652,1.50687572693896,1.504958721979,1.50537806681399,1.50680583613313,1.50743485338561,1.50326137383736,1.5030017794157,1.50262237218404,1.50292190420904,1.50299179501487,1.50283204460154,1.50275216939487,1.50266230978738,1.50451940834234,1.50531816040899,1.5066460857198,1.49586293282001,1.4963122308575,1.49713095172582,1.49681145089916,1.49544358798502,1.46140676554487,1.46172626637153,1.46077774829238,1.46009880903573,1.4599390586224,1.4600888246349,1.45961955779574,1.45954966698991,1.45953968258907,1.45965949539907,1.46160645356153,1.46000894942823,1.4599989650274,1.46039834106072,1.46043827866406,1.46000894942823,1.45961955779574,1.46206573599986,1.46173625077236,1.46219553321069,1.46223547081402,1.46181612597903,1.46185606358236,1.46215559560735,1.4629843008765,1.46248508083485,1.46276464405818,1.46223547081402,1.46312408248817,1.46376308414149,1.46388289695149,1.46409256936898,1.46428227298481,1.46373313093899,1.46664857598226,1.46701799881309,1.46626916875061,1.46756714085891,1.46661862277977,1.46617930914311,1.46692813920559,1.46854561214056,1.46882517536389,1.46651877877143,1.46846573693389
1.42269724351481,1.42303671314314,1.42331627636647,1.42337618277147,1.42361580839146,1.42404513762729,1.42422485684228,1.42449443566478,1.4250136245081,1.4247739988881,1.42569256376475,1.42675091025306,1.42677087905473,1.42708039548056,1.42630161221557,1.42660114424057,1.42695059826973,1.42785917874554,1.42731003669972,1.42796900715471,1.42804888236137,1.42797899155554,1.42787914754721,1.43020551294133,1.42956651128801,1.43119396862381,1.43219240870712,1.43257181593878,1.43100426500798,1.43454872730374,1.43497805653957,1.48020739231366,1.47895934220952,1.47868976338702,1.47892938900702,1.47884951380035,1.47896932661035,1.47901924861452,1.47883952939952,1.47968820347034,1.479947797892,1.48436090306024,1.48546917155272,1.48281332093111,1.48360208859692,1.48457057547774,1.48572876597438,1.48405138663442,1.48257369531111,1.48298305574527,1.48513968632523,1.48632783002437,1.48625793921854,1.48445076266774,1.48581862558188,1.48658742444603,1.48670723725603,1.48766573973601,1.488085084571,1.49469475792254,1.49597276122918,1.49537369717919,1.49522393116669,1.49551347879085,1.49621238684917,1.4964919500725,1.49803953220164,1.4999864903641,1.4981793138133,1.50045575720325,1.49966698953744,1.49967697393827,1.49922767590078,1.49939741071494,1.49944733271911,1.4997768179466,1.50063547641825,1.49960708313244,1.49955716112827,1.50064546081908,1.50187354212156,1.50012627197576,1.4999565371616,1.49969694273994,1.49921769149994,1.50090505524074,1.49981675554993,1.50375060947819,1.50348103065569,1.50353095265986,1.49795965699497,1.4981194074083,1.49924764470244,1.49944733271911,1.49844889263579,1.49812939180913,1.4999864903641,1.50014624077743,1.49928758230578,1.49993656835993,1.50030599119076,1.50011628757493,1.49993656835993,1.50028602238909,1.50082518003408,1.50185357331989,1.50260240338238,1.50326137383736,1.50339117104819,1.50281207579987,1.5032114518332,1.50302174821737,1.5032114518332,1.50207323013822,1.50325138943653,1.50200333933239,1.5029119198082,1.50335123344486,1.50263235658488,1.50259241898154,1.50224296495238,1.50267229418821,1.50380053148235,1.50028602238909,1.50378056268069,1.49783984418497,1.50270224739071,1.50416995431318,1.49780989098247,1.49994655276076,1.49973688034327,1.50064546081908,1.4614467031482,1.46181612597903,1.4616264223632,1.46248508083485,1.4598791522174,1.45957962019241,1.45904046254742,1.45847135169993,1.45983921461407,1.45998898062656,1.4597593394074,1.45989912101907,1.46061799787905,1.46016869984156,1.4598192458124,1.46047821626739,1.46029849705239,1.46038835665989,1.46134685913987,1.46188601678486,1.46190598558653,1.46163640676403,1.4617462351732,1.46195590759069,1.46176620397486,1.46230536161985,1.46233531482235,1.46296433207484,1.46480146182813,1.4634635521165,1.46360333372816,1.46357338052566,1.46434217938981,1.46428227298481,1.46572002670478,1.4646417114148,1.4649711966423,1.46505107184896,1.46508102505146,1.46587977711811,1.46558024509312,1.46672845118893,1.46795653249141,1.46854561214056
1.42195839785316,1.42297680673814,1.42351596438313,1.42293686913481,1.42270722791565,1.42340613597396,1.42373562120146,1.42369568359813,1.42358585518896,1.42446448246228,1.42620176820724,1.42459427967311,1.42524326572726,1.42797899155554,1.42638148742224,1.42496370250393,1.42623172140974,1.42683078545973,1.42749974031555,1.42902735364302,1.42780925674138,1.42824857037803,1.42870785281636,1.42953655808551,1.430165575338,1.42956651128801,1.43131378143381,1.4317630794713,1.43225231511212,1.47920895223035,1.47902923301535,1.47888945140369,1.47892938900702,1.47865981018452,1.47786105811787,1.47816059014287,1.48249382010445,1.47946854665201,1.47959834386284,1.47963828146617,1.48212439727362,1.48096620677698,1.48056683074365,1.48375185460942,1.48264358611694,1.48297307134444,1.4847403102919,1.48206449086862,1.48248383570361,1.48469038828774,1.48484015430023,1.48481020109773,1.48543921835022,1.48583859438355,1.48583859438355,1.49418555348005,1.48604826680104,1.48718648849602,1.49351659862423,1.4930273629834,1.49401581866588,1.49695123251082,1.4963122308575,1.49610255844001,1.49647198127083,1.49778992218081,1.49922767590078,1.4996270519341,1.49878836226412,1.49953719232661,1.49893812827662,1.49909787868995,1.49942736391744,1.50002642796743,1.49960708313244,1.49999647476493,1.49937744191328,1.49994655276076,1.49990661515743,1.50114468086074,1.5012245560674,1.49911784749161,1.50277213819654,1.50059553881492,1.49911784749161,1.49945731711994,1.49920770709911,1.49947728592161,1.49942736391744,1.49922767590078,1.49908789428911,1.49940739511577,1.49784982858581,1.49957712992994,1.49979678674827,1.50212315214239,1.4981194074083,1.49916776949578,1.49925762910328,1.49861862744996,1.49877837786329,1.49966698953744,1.50037588199659,1.50035591319492,1.50108477445574,1.50056558561242,1.50160396329906,1.50190349532406,1.50381051588319,1.50619678768231,1.50209319893989,1.5014641816874,1.50171379170823,1.50096496164574,1.50204327693572,1.50332128024236,1.50287198220487,1.50476901836317,1.50272221619237,1.50278212259737,1.50316152982903,1.50196340172906,1.50301176381654,1.50286199780404,1.50292190420904,1.50032595999242,1.50086511763741,1.49756028096164,1.49698118571332,1.49737057734582,1.4613268903382,1.46080770149488,1.45982923021323,1.45949974498574,1.45909038455158,1.45821175727827,1.45911035335325,1.45914030655575,1.45896058734075,1.45868102411742,1.4583116012866,1.45863110211326,1.46035840345739,1.46099740511071,1.4616863287682,1.46061799787905,1.45994904302323,1.46044826306489,1.46164639116486,1.46085762349905,1.46075777949072,1.46134685913987,1.46060801347822,1.4615665159582,1.46203578279736,1.46262486244651,1.46371316213732,1.46222548641319,1.46229537721902,1.46227540841735,1.46257494044235,1.46366324013316,1.46521082226229,1.46495122784063,1.46315403569067,1.46631909075477,1.4662991219531,1.46873531575639,1.46841581492973,1.46575996430812,1.46529069746896,1.46584982391561,1.46555029189062,1.46792657928891,1.46873531575639,1.46732751523892
1.42152906861734,1.421788663039,1.42131939619984,1.42257743070481,1.42289693153148,1.42280707192398,1.42279708752314,1.42361580839146,1.42705044227806,1.42446448246228,1.42445449806144,1.42445449806144,1.42456432647061,1.42735995870389,1.42698055147223,1.42610192419891,1.42601206459141,1.42617181500474,1.42684076986056,1.42671097264973,1.42837836758887,1.4281786795722,1.42915715085385,1.42940676087468,1.42937680767218,1.43030535694966,1.48071659675615,1.43025543494549,1.43056495137132,1.4317331262688,1.47900926421368,1.47869974778786,1.47869974778786,1.47872970099036,1.47780115171287,1.47746168208455,1.47850005977119,1.47876963859369,1.47860988818036,1.47885949820119,1.47884951380035,1.47963828146617,1.48074654995865,1.48330255657193,1.48324265016693,1.48362205739859,1.48368196380359,1.48303297774944,1.4832925721711,1.48447073146941,1.48440084066358,1.48447073146941,1.48488009190357,1.48544920275105,1.48609818880521,1.49505419635253,1.49345669221923,1.48649756483853,1.48697681607852,1.49589288602251,1.49576308881168,1.49530380637336,1.49590287042334,1.49598274563001,1.49627229325417,1.49645201246917,1.49782985978414,1.49936745751244,1.49996652156243,1.49879834666495,1.49915778509495,1.49910786309078,1.49943734831827,1.49955716112827,1.49960708313244,1.49928758230578,1.49926761350411,1.49964702073577,1.49904795668578,1.49816932941247,1.49932751990911,1.50032595999242,1.50005638116993,1.49990661515743,1.49921769149994,1.49847884583829,1.49996652156243,1.4996869583391,1.4998666775541,1.50072533602575,1.50009631877326,1.50124452486907,1.4999565371616,1.50014624077743,1.49922767590078,1.4983590330283,1.49865856505329,1.50165388530323,1.49904795668578,1.49908789428911,1.5030317326182,1.50123454046824,1.50089507083991,1.50054561681075,1.50061550761658,1.50020614718243,1.50094499284408,1.50205326133655,1.50211316774155,1.50147416608823,1.50168383850573,1.50293188860987,1.50221301174988,1.50226293375405,1.50138430648073,1.50199335493156,1.50237276216322,1.5012545092699,1.50124452486907,1.50025606918659,1.5030916390232,1.49997650596326,1.4999864903641,1.5016738541049,1.50347104625486,1.50021613158326,1.5014042752824,1.49888820627245,1.50074530482741,1.45960957339491,1.45854124250576,1.45814186647244,1.45814186647244,1.45874093052242,1.45905044694825,1.45899054054325,1.45847135169993,1.45791222525327,1.45787228764994,1.45838149209243,1.45829163248493,1.45860114891076,1.45912033775408,1.45934997897324,1.45930005696908,1.46041830986239,1.46087759230071,1.46019865304406,1.45908040015075,1.45974935500657,1.46098742070988,1.4615066095532,1.46125699953237,1.46244514323152,1.4617462351732,1.46124701513154,1.46206573599986,1.46190598558653,1.46181612597903,1.46220551761152,1.46186604798319,1.46247509643401,1.46350348971983,1.46557026069229,1.46507104065063,1.4632838329015,1.46407260056732,1.46436214819148,1.46367322453399,1.46477150862564,1.46504108744813,1.46566012029978,1.46592969912228,1.46693812360643,1.46582985511395,1.46599958992811
1.42088008256318,1.42140925580734,1.42244763349398,1.4231165883498,1.42288694713064,1.42228788308065,1.42742984950972,1.42448445126394,1.42340613597396,1.42345605797813,1.42351596438313,1.42414498163562,1.42478398328894,1.4248039520906,1.42589225178141,1.42765949072888,1.42734997430305,1.42976619930467,1.42704045787723,1.42712033308389,1.42722017709222,1.42858804000636,1.42809880436554,1.42935683887051,1.43038523215632,1.4315534070538,1.479947797892,1.47959834386284,1.47933874944118,1.47920895223035,1.47775122970871,1.47843016896536,1.47689257123706,1.4766629300179,1.47849007537036,1.47849007537036,1.47917899902785,1.48065669035115,1.48024732991699,1.479947797892,1.48044701793365,1.48432096545691,1.48567884397022,1.48334249417526,1.48367197940276,1.48337244737776,1.48206449086862,1.48346230698526,1.4831428061586,1.4831727593611,1.48438087186191,1.48369194820442,1.48455060667607,1.48615809521021,1.48541924954855,1.49283765936757,1.49312720699173,1.48638773642937,1.4879353185585,1.49280770616507,1.49469475792254,1.49567322920418,1.49571316680752,1.49585294841918,1.49647198127083,1.49619241804751,1.49654187207667,1.49641207486583,1.50022611598409,1.49972689594243,1.49870848705746,1.49950723912411,1.49947728592161,1.49988664635576,1.49958711433077,1.50078524243075,1.49784982858581,1.49934748871078,1.49958711433077,1.50051566360825,1.49944733271911,1.49949725472327,1.50028602238909,1.49941737951661,1.49932751990911,1.49926761350411,1.49862861185079,1.50039585079825,1.50002642796743,1.49958711433077,1.49922767590078,1.49918773829745,1.49930755110744,1.49922767590078,1.49879834666495,1.4979696413958,1.49735060854415,1.4981793138133,1.49887822187162,1.4997768179466,1.4979696413958,1.49903797228495,1.49994655276076,1.50031597559159,1.50069538282325,1.49975684914493,1.50017619397993,1.50119460286491,1.50166386970406,1.50231285575822,1.50078524243075,1.50226293375405,1.49929756670661,1.50103485245158,1.50166386970406,1.50179366691489,1.4999565371616,1.49869850265662,1.49958711433077,1.5015540412949,1.50261238778321,1.50014624077743,1.50308165462237,1.49746043695331,1.49933750430994,1.5032414050357,1.49957712992994,1.49988664635576,1.50265232538654,1.5029718262132,1.45895060293992,1.45797213165827,1.45805200686494,1.45958960459324,1.46047821626739,1.46077774829238,1.45895060293992,1.4579821160591,1.45806199126577,1.45765263083161,1.45782236564577,1.45775247483994,1.4582816480841,1.4581318820716,1.4583116012866,1.45839147649326,1.46137681234237,1.45954966698991,1.45933001017158,1.45907041574992,1.45949974498574,1.46049818506905,1.46073781068905,1.46182611037986,1.46302423847984,1.46075777949072,1.46096745190821,1.46175621957403,1.46188601678486,1.46373313093899,1.46258492484318,1.46238523682652,1.46381300614565,1.46226542401652,1.46282455046317,1.4632239264965,1.46418242897648,1.46410255376982,1.46296433207484,1.46513094705563,1.46526074426646,1.46593968352311,1.46578991751062,1.46565013589895,1.46535060387396,1.46580988631228
1.42083016055902,1.42102984857568,1.42137930260484,1.42247758669648,1.42410504403228,1.42220800787399,1.4231165883498,1.4231465415523,1.42346604237896,1.4235359331848,1.42399521562312,1.42433468525145,1.42423484124311,1.42415496603645,1.42451440446644,1.42536307853726,1.42515340611976,1.42615184620308,1.42702048907556,1.42734997430305,1.42705044227806,1.42718023948889,1.42918710405635,1.43097431180548,1.42858804000636,1.43038523215632,1.43092438980131,1.43101424940881,1.48002767309866,1.47993781349116,1.47992782909033,1.47907915501952,1.47784108931621,1.47762143249788,1.47757151049371,1.47807073053537,1.4784102001637,1.47980801628033,1.47643328879874,1.47730193167122,1.47877962299452,1.48120583239697,1.43505793174623,1.48395154262608,1.48294311814194,1.48200458446362,1.48091628477281,1.48107603518614,1.48278336772861,1.4832326657661,1.48309288415443,1.48366199500192,1.48437088746108,1.48493999830856,1.48533937434189,1.48595840719354,1.48697681607852,1.49614249604334,1.49385606825255,1.49281769056591,1.49611254284084,1.49443516350087,1.4997768179466,1.49568321360502,1.49599273003084,1.49659179408083,1.49594280802668,1.49928758230578,1.49857868984662,1.49884826866912,1.49824920461913,1.4998067711491,1.49985669315327,1.4999864903641,1.49788976618914,1.50132440007574,1.49767010937081,1.4979097349908,1.49746043695331,1.49825918901996,1.49944733271911,1.49879834666495,1.49921769149994,1.49922767590078,1.49905794108661,1.49923766030161,1.49941737951661,1.49878836226412,1.4995671455291,1.49950723912411,1.49953719232661,1.4999864903641,1.49942736391744,1.49827915782163,1.49854873664413,1.49735060854415,1.49740053054831,1.50314156102737,1.49916776949578,1.50039585079825,1.49975684914493,1.50014624077743,1.49935747311161,1.49929756670661,1.49948727032244,1.49985669315327,1.50012627197576,1.50006636557076,1.4999265839591,1.50092502404241,1.50063547641825,1.50160396329906,1.50218305854739,1.50249257497321,1.50020614718243,1.50005638116993,1.50313157662653,1.5014342284849,1.50344109305236,1.5029418730107,1.50039585079825,1.50242268416738,1.50360084346569,1.49685138850249,1.49738056174665,1.45842142969576,1.45833157008826,1.4946847735217,1.49500427434836,1.45818180407577,1.46055809147405,1.45790224085244,1.45893063413825,1.45857119570826,1.4598491990149,1.45610504870248,1.45685387876496,1.45755278682328,1.45802205366244,1.4581917884766,1.45821175727827,1.45811191326994,1.45714342638912,1.45835153888993,1.4582217416791,1.45835153888993,1.45855122690659,1.45922018176241,1.45930005696908,1.45884077453075,1.4600888246349,1.45935996337408,1.45889069653492,1.45973937060574,1.46053812267239,1.46055809147405,1.46120707752821,1.4613268903382,1.46122704632987,1.46194592318986,1.46176620397486,1.46191596998736,1.46216558000819,1.46195590759069,1.46285450366567,1.46276464405818,1.46351347412066,1.46281456606234,1.46281456606234,1.46421238217898,1.46461175821231,1.46514093145646,1.46508102505146,1.46496121224147,1.46524077546479,1.46636901275894
1.42057056613735,1.42029100291403,1.42111970818318,1.42301674434147,1.42200831985733,1.42168881903067,1.42248757109732,1.42362579279229,1.42289693153148,1.42348601118063,1.42408507523062,1.42440457605728,1.42997587172217,1.42579240777308,1.42432470085061,1.42399521562312,1.42454435766894,1.42494373370227,1.4299559029205,1.4250735309131,1.43041518535882,1.42810878876637,1.43035527895383,1.43073468618548,1.43068476418132,1.42969630849884,1.47921893663118,1.47880957619702,1.43528757296539,1.47916901462701,1.47902923301535,1.47870973218869,1.47869974778786,1.47928882743701,1.47765138570038,1.47726199406789,1.4767527896254,1.47679272722873,1.47784108931621,1.47784108931621,1.47810068373787,1.47839023136203,1.47957837506117,1.43393967885292,1.48094623797531,1.43449880529958,1.43456869610541,1.48297307134444,1.48312283735693,1.48441082506441,1.48318274376193,1.48568882837105,1.48596839159438,1.48602829799938,1.48620801721437,1.48674717485936,1.49318711339673,1.49196901649509,1.49309725378923,1.48900364944765,1.49309725378923,1.49280770616507,1.49594280802668,1.49585294841918,1.49709101412249,1.49902798788412,1.49916776949578,1.4979696413958,1.50034592879409,1.49717088932915,1.49769007817248,1.49774998457747,1.49807946980497,1.4982691734208,1.50063547641825,1.5030616858207,1.49743048375081,1.49692127930832,1.49787978178831,1.49764015616831,1.49762018736664,1.49684140410166,1.49750037455665,1.49792970379247,1.49812939180913,1.49847884583829,1.49870848705746,1.49935747311161,1.49937744191328,1.49975684914493,1.50042580400075,1.49996652156243,1.49955716112827,1.49873844025995,1.50367073427152,1.49851878344163,1.49872845585912,1.49850879904079,1.49839897063163,1.49847884583829,1.49849881463996,1.49780989098247,1.50317151422987,1.50026605358742,1.50427978272234,1.49994655276076,1.49979678674827,1.50023610038492,1.50044577280242,1.49863859625162,1.50273220059321,1.50119460286491,1.50097494604658,1.50212315214239,1.50293188860987,1.49669163808916,1.4982691734208,1.49922767590078,1.50115466526157,1.50254249697738,1.50133438447657,1.49975684914493,1.50026605358742,1.50201332373322,1.50079522683158,1.49642205926667,1.49893812827662,1.50163391650156,1.45689381636829,1.45748289601745,1.45779241244328,1.45687384756663,1.45558585985915,1.45685387876496,1.45865107091492,1.45697369157496,1.45557587545832,1.45787228764994,1.4581318820716,1.45802205366244,1.45773250603828,1.45728320800079,1.45796214725744,1.45777244364161,1.45752283362078,1.45811191326994,1.45852127370409,1.45826167928243,1.45909038455158,1.45956963579157,1.45933999457241,1.45925013496491,1.46048820066822,1.46044826306489,1.46003890263073,1.46001893382906,1.46122704632987,1.4614467031482,1.46146667194987,1.46038835665989,1.46087759230071,1.46498118104313,1.46312408248817,1.46185606358236,1.46220551761152,1.46265481564901,1.46318398889317,1.46255497164068,1.46207572040069,1.46317400449233,1.46392283455482,1.46320395769483,1.46377306854232,1.46575996430812,1.46504108744813,1.46511097825396
1.42029100291403,1.42076026975318,1.42079022295568,1.42085012936068,1.42078023855485,1.42033094051736,1.42130941179901,1.42211814826649,1.42244763349398,1.42220800787399,1.42291690033314,1.42364576159396,1.42382548080896,1.42414498163562,1.42412501283395,1.42450442006561,1.42441456045811,1.42429474764811,1.42602204899225,1.42557275095475,1.42610192419891,1.43080457699132,1.42616183060391,1.42630161221557,1.42780925674138,1.48011753270616,1.47995778229283,1.42781924114221,1.42788913194804,1.4285381180022,1.43094435860298,1.47963828146617,1.48065669035115,1.48065669035115,1.47879959179619,1.47764140129954,1.47736183807622,1.47754155729121,1.47857993497786,1.48016745471033,1.43270161314961,1.47768133890288,1.4780507617337,1.43366011562959,1.43369006883209,1.43394966325375,1.43437899248958,1.48173500564113,1.48307291535277,1.4350179941429,1.43586666821371,1.43571690220122,1.43624607544537,1.43629599744954,1.48583859438355,1.48567884397022,1.48742611411601,1.48806511576934,1.43763390716118,1.43760395395868,1.43797337678951,1.43799334559117,1.43911159848448,1.49566324480335,1.43957088092281,1.49741051494915,1.49614249604334,1.49706106091999,1.44074904022112,1.44108850984944,1.49679148209749,1.50019616278159,1.49686137290333,1.49685138850249,1.49822923581746,1.49871847145829,1.49636215286167,1.49800957899914,1.4981194074083,1.49757026536248,1.49888820627245,1.4979097349908,1.49740053054831,1.49827915782163,1.49794967259414,1.49825918901996,1.49872845585912,1.49860864304912,1.49875840906162,1.49940739511577,1.49870848705746,1.49840895503246,1.49862861185079,1.49723079573415,1.49834904862746,1.49726074893665,1.49837900182996,1.4983590330283,1.49726074893665,1.49828914222246,1.49819928261497,1.49818929821413,1.4982991266233,1.49782985978414,1.49828914222246,1.49917775389661,1.49958711433077,1.50052564800909,1.50130443127407,1.4983590330283,1.50144421288573,1.50263235658488,1.50177369811323,1.50083516443491,1.50174374491073,1.50057557001325,1.49571316680752,1.49515404036086,1.50086511763741,1.49816932941247,1.49816932941247,1.50364078106902,1.49804951660247,1.50271223179154,1.5033013114407,1.45631472111997,1.45685387876496,1.45698367597579,1.45742298961245,1.45672408155413,1.45640458072747,1.45525637463166,1.45524639023083,1.45592532948748,1.45685387876496,1.45576557907415,1.45560582866082,1.45658429994247,1.4565044247358,1.45718336399245,1.45756277122411,1.4563846119258,1.45695372277329,1.45770255283578,1.45785231884827,1.45745294281495,1.45863110211326,1.45916027535741,1.45856121130743,1.45884077453075,1.45847135169993,1.45918024415908,1.46027852825073,1.45929007256825,1.45924015056408,1.45929007256825,1.46015871544073,1.46082767029655,1.46042829426322,1.46277462845901,1.46077774829238,1.46133687473904,1.46137681234237,1.46148664075153,1.46206573599986,1.46199584519402,1.46424233538148,1.46378305294316,1.46321394209567,1.46279459726068,1.46339366131066,1.46417244457565,1.46462174261314,1.46596963672561,1.46571004230395,1.46490130583647
1.4200413928932,1.4202211121082,1.42021112770736,1.4233562139698,1.42280707192398,1.42185855384483,1.42131939619984,1.42130941179901,1.42219802347316,1.42276713432064,1.42256744630398,1.42285699392814,1.4232663543623,1.42310660394897,1.42368569919729,1.42371565239979,1.42387540281312,1.42418491923895,1.42447446686311,1.42472407688394,1.42427477884645,1.42755964672055,1.42624170581057,1.42677087905473,1.43006573132966,1.42734997430305,1.42736994310472,1.42779927234054,1.42753967791888,1.42849818039886,1.42929693246551,1.43081456139215,1.43021549734216,1.47878960739535,1.47877962299452,1.47907915501952,1.4315234538513,1.43126385942964,1.43255184713711,1.43172314186796,1.43201268949213,1.47870973218869,1.4332108175921,1.43269162874878,1.43222236190962,1.43362017802626,1.43395964765459,1.43687509269786,1.43415933567125,1.43421924207625,1.43402953846042,1.43416932007208,1.43485824372957,1.43539740137456,1.43539740137456,1.43574685540372,1.43547727658122,1.43553718298622,1.43665543587953,1.43709474951619,1.43735434393785,1.43777368877284,1.43805325199617,1.43838273722366,1.43887197286449,1.49660177848166,1.43952095891864,1.44013000736946,1.44056932100612,1.44057930540695,1.44068913381612,1.49944733271911,1.49707104532082,1.49785981298664,1.49674156009333,1.49738056174665,1.49769007817248,1.49766012496998,1.49721082693249,1.49706106091999,1.49756028096164,1.4996570051366,1.4979696413958,1.49720084253165,1.49803953220164,1.49813937620997,1.49775996897831,1.4982092670158,1.49879834666495,1.49931753550828,1.49785981298664,1.49780989098247,1.49824920461913,1.49836901742913,1.49795965699497,1.49825918901996,1.49761020296581,1.49777993777997,1.49849881463996,1.49885825306995,1.49926761350411,1.49932751990911,1.49896808147912,1.49949725472327,1.49872845585912,1.49816932941247,1.49864858065246,1.4982991266233,1.50037588199659,1.49602268323334,1.49893812827662,1.50016620957909,1.49503422755086,1.49580302641501,1.4929375033759,1.4965518564775,1.5017038073074,1.49756028096164,1.50088508643908,1.49839897063163,1.49732065534165,1.45480707659417,1.45575559467332,1.45559584425999,1.45630473671914,1.45533624983832,1.45768258403411,1.45515653062333,1.4551465462225,1.45535621863999,1.45516651502416,1.45519646822666,1.45562579746249,1.45583546987998,1.45759272442661,1.45830161688577,1.45629475231831,1.45588539188415,1.45550598465249,1.45874093052242,1.45875091492326,1.45860114891076,1.45944982298158,1.45691378516996,1.45768258403411,1.45778242804244,1.45740302081078,1.45755278682328,1.46249506523568,1.4596994330024,1.45878086812576,1.45890068093575,1.45903047814658,1.45935996337408,1.45973937060574,1.45965949539907,1.46013874663906,1.46178617277653,1.46167634436736,1.46228539281819,1.46196589199153,1.46043827866406,1.4614467031482,1.46061799787905,1.46196589199153,1.46187603238403,1.46167634436736,1.46253500283901,1.46195590759069,1.4632239264965,1.46365325573232,1.46344358331483,1.46317400449233,1.46401269416232,1.46490130583647,1.4650311030473
1.4198017672732,1.42025106531069,1.41949225084738,1.42046073772819,1.42052064413319,1.42115964578651,1.42110972378234,1.42134934940234,1.42158897502233,1.42227789867982,1.42214810146899,1.42283702512648,1.42348601118063,1.42346604237896,1.42327633876313,1.42363577719313,1.42387540281312,1.42373562120146,1.42377555880479,1.42432470085061,1.42455434206978,1.42561268855809,1.42572251696725,1.42544295374392,1.42548289134726,1.42622173700891,1.42612189300058,1.42731003669972,1.42761955312555,1.42761955312555,1.42816869517137,1.42894747843635,1.42979615250717,1.42950660488301,1.43074467058632,1.4831727593611,1.43040520095799,1.43034529455299,1.47879959179619,1.4318529390788,1.43220239310796,1.43304108277794,1.43192282988463,1.43196276748796,1.4317031730663,1.43263172234378,1.43343047441043,1.43402953846042,1.43417930447292,1.43391971005125,1.43684513949536,1.43450878970041,1.43437899248958,1.43448882089874,1.43464857131207,1.4347184621179,1.4348981813329,1.4349880409404,1.43587665261455,1.43597649662288,1.43648570106537,1.43669537348287,1.43749412554952,1.43754404755368,1.438242955612,1.43825294001283,1.44145793268027,1.43882205086032,1.43908164528198,1.43963078732781,1.4399303193528,1.43931128650115,1.43982049094364,1.44087883743195,1.44206698113109,1.4979696413958,1.49756028096164,1.44256620117275,1.50015622517826,1.49765014056914,1.49754031215998,1.49691129490749,1.49665170048583,1.49943734831827,1.4996869583391,1.50021613158326,1.49816932941247,1.49767010937081,1.49943734831827,1.49931753550828,1.49918773829745,1.49868851825579,1.49744046815165,1.4982691734208,1.49800957899914,1.49958711433077,1.49774000017664,1.49878836226412,1.50013625637659,1.49760021856498,1.49866854945412,1.49755029656081,1.49713095172582,1.49642205926667,1.49697120131249,1.49715092052749,1.49736059294498,1.49715092052749,1.49948727032244,1.49927759790494,1.4964919500725,1.49763017176748,1.49630224645667,1.49794967259414,1.49589288602251,1.49697120131249,1.49767010937081,1.49577307321251,1.49766012496998,1.49634218406,1.45378866770919,1.45404826213085,1.45554592225582,1.45473718578834,1.45554592225582,1.45506667101583,1.45475715459,1.45396838692419,1.45354904208919,1.45423796574668,1.45485699859833,1.45492688940417,1.45489693620167,1.45475715459,1.45510660861916,1.45533624983832,1.45563578186332,1.45569568826832,1.45611503310331,1.45577556347498,1.45568570386748,1.45643453392997,1.45670411275246,1.45622486151247,1.45686386316579,1.45749288041828,1.45803203806327,1.45830161688577,1.4580719756666,1.45821175727827,1.45812189767077,1.45857119570826,1.45918024415908,1.45945980738241,1.45942985417991,1.45912033775408,1.45923016616325,1.4598192458124,1.45988913661823,1.46127696833404,1.46157650035903,1.46214561120652,1.4616863287682,1.46160645356153,1.46201581399569,1.46199584519402,1.46172626637153,1.46187603238403,1.46395278775732,1.46210567360319,1.46227540841735,1.46254498723985,1.46275465965734,1.46361331812899,1.46401269416232,1.46453188300564
1.41897306200405,1.41947228204571,1.4201612057032,1.4201012992982,1.4201312525007,1.42060051933985,1.42115964578651,1.42084014495985,1.42199833545649,1.42217805467149,1.421728756634,1.42257743070481,1.42269724351481,1.42261736830815,1.42288694713064,1.42354591758563,1.42634154981891,1.42381549640812,1.42385543401146,1.42401518442479,1.42402516882562,1.42438460725561,1.42518335932226,1.42613187740141,1.42494373370227,1.42604201779391,1.42723016149305,1.42701050467473,1.42715028628639,1.42708039548056,1.42727009909639,1.42728008349722,1.42917711965552,1.42982610570967,1.42979615250717,1.42926697926301,1.4301356221355,1.42951658928384,1.43055496697049,1.43046510736299,1.43071471738382,1.43108414021464,1.43160332905797,1.43203265829379,1.43335059920377,1.43239209672378,1.43430910168375,1.43365013122876,1.43307103598044,1.43326073959627,1.43385980364626,1.43407946046458,1.43381986604292,1.43408944486542,1.43411939806792,1.43416932007208,1.43411939806792,1.43415933567125,1.43468850891541,1.43521768215956,1.43533749496956,1.43675527988786,1.43672532668536,1.43696495230536,1.43755403195451,1.438362768422,1.43793343918617,1.43858242524033,1.43881206645949,1.43992033495197,1.44061924301029,1.43869225364949,1.43931128650115,1.43943109931114,1.44042953939446,1.44048944579946,1.4398704129478,1.44065918061362,1.44094872823778,1.49650193447333,1.49732065534165,1.49828914222246,1.4996570051366,1.4979396881933,1.4982392202183,1.49868851825579,1.50069538282325,1.49830911102413,1.49917775389661,1.50025606918659,1.49741051494915,1.49747042135415,1.49717088932915,1.4996270519341,1.4999265839591,1.49723079573415,1.49729070213915,1.49773001577581,1.49428539748838,1.49518399356336,1.49863859625162,1.49919772269828,1.4996270519341,1.49878836226412,1.49764015616831,1.49907790988828,1.49975684914493,1.49862861185079,1.50023610038492,1.49776995337914,1.4997169115416,1.50379054708152,1.49709101412249,1.50279210699821,1.45299990004337,1.45331940087003,1.4532794632667,1.45379865211002,1.45271035241921,1.45299990004337,1.45371877690336,1.45301986884504,1.45331940087003,1.45411815293668,1.45405824653168,1.45441768496168,1.45334935407253,1.45386854291585,1.45347915128336,1.4533992760767,1.45365887049836,1.45358897969253,1.45429787215168,1.45372876130419,1.45455746657334,1.4547272013875,1.45420801254418,1.45577556347498,1.45542610944582,1.45581550107832,1.45578554787582,1.45607509549998,1.45577556347498,1.45629475231831,1.45657431554163,1.45528632783416,1.45679397235996,1.45779241244328,1.45741300521162,1.46214561120652,1.45785231884827,1.45803203806327,1.45857119570826,1.45863110211326,1.4583415544891,1.45971940180407,1.45905044694825,1.45932002577074,1.45954966698991,1.4600289182299,1.4599390586224,1.4613268903382,1.46321394209567,1.46088757670155,1.4613568435407,1.4615665159582,1.46188601678486,1.46224545521485,1.46237525242568,1.46208570480152,1.46226542401652,1.46283453486401,1.46320395769483,1.46363328693066,1.46405263176565,1.46431222618731
1.41884326479322,1.41934248483488,1.4201612057032,1.42006136169487,1.42009131489736,1.42076026975318,1.42076026975318,1.42253749310148,1.42193842905149,1.421788663039,1.42407509082978,1.42387540281312,1.42237774268815,1.42177867863816,1.42228788308065,1.42224794547732,1.42260738390731,1.42348601118063,1.42386541841229,1.42377555880479,1.42428476324728,1.42434466965228,1.42425481004478,1.42502360890893,1.42517337492143,1.42578242337225,1.42702048907556,1.42710036428222,1.42709037988139,1.42692064506723,1.42683078545973,1.42760956872471,1.42771939713388,1.42821861717554,1.42849818039886,1.42862797760969,1.42892750963469,1.42876775922136,1.42918710405635,1.43031534135049,1.43041518535882,1.43268164434795,1.43118398422298,1.43055496697049,1.43060488897465,1.43105418701214,1.43119396862381,1.43218242430629,1.43262173794295,1.43252189393462,1.43296120757127,1.43456869610541,1.43405949166292,1.43389974124959,1.43387977244792,1.43402953846042,1.43440894569208,1.43401955405959,1.43424919527875,1.43468850891541,1.43476838412207,1.43619615344121,1.43674529548703,1.4364058258587,1.43722454672702,1.43747415674785,1.43777368877284,1.43760395395868,1.43752407875201,1.43769381356618,1.43769381356618,1.43735434393785,1.43766386036368,1.43781362637618,1.43847259683116,1.43914155168698,1.43934123970365,1.44040957059279,1.49651191887417,1.49773001577581,1.49647198127083,1.49875840906162,1.4996869583391,1.50035591319492,1.49914780069411,1.49868851825579,1.4995671455291,1.49964702073577,1.4995970987316,1.49937744191328,1.49809943860663,1.50028602238909,1.49953719232661,1.49812939180913,1.49612252724167,1.50045575720325,1.50049569480659,1.49684140410166,1.49960708313244,1.50045575720325,1.50372065627569,1.50065544521992,1.49931753550828,1.49842892383413,1.49851878344163,1.49852876784246,1.4979396881933,1.49841893943329,1.50034592879409,1.49761020296581,1.49864858065246,1.45032408062009,1.49952720792577,1.4515321931209,1.45205138196422,1.45195153795589,1.45236089839005,1.45126261429841,1.45170192793506,1.45420801254418,1.45536620304082,1.45235091398922,1.45217119477422,1.45194155355506,1.45191160035256,1.45202142876172,1.45297993124171,1.45264046161338,1.45302985324587,1.45311971285337,1.45416807494085,1.45335933847336,1.45360894849419,1.45426791894918,1.45518648382583,1.45538617184249,1.45560582866082,1.45812189767077,1.45568570386748,1.45510660861916,1.45529631223499,1.45498679580916,1.45530629663583,1.45601518909498,1.45623484591331,1.4565643311408,1.45658429994247,1.45703359797996,1.46064795108155,1.45855122690659,1.45977930820907,1.46175621957403,1.46190598558653,1.46121706192904,1.46186604798319,1.46133687473904,1.45887072773325,1.45853125810493,1.45919022855991,1.45994904302323,1.46157650035903,1.46129693713571,1.46117712432571,1.4599390586224,1.46155653155737,1.4615066095532,1.46152657835487,1.46157650035903,1.46169631316903,1.46230536161985,1.46519085346063,1.4632239264965,1.46312408248817,1.46302423847984,1.46360333372816,1.46330380170316
1.41784482470991,1.41881331159072,1.41865356117739,1.41940239123988,1.41988164247987,1.42027103411236,1.42047072212902,1.42069037894735,1.42039084692236,1.42225792987815,1.42260738390731,1.42194841345233,1.42155902181984,1.42186853824566,1.42232782068399,1.42243764909315,1.42218803907232,1.42351596438313,1.42352594878396,1.42376557440396,1.42396526242062,1.42399521562312,1.4250735309131,1.42493374930143,1.42631159661641,1.42674092585223,1.42573250136808,1.42620176820724,1.42616183060391,1.42628164341391,1.4268807074639,1.42692064506723,1.42772938153471,1.42799896035721,1.42816869517137,1.42740988070805,1.42840832079136,1.42856807120469,1.42959646449051,1.43211253350046,1.43047509176382,1.43061487337549,1.43101424940881,1.43048507616466,1.43095434300381,1.43081456139215,1.43129381263214,1.43230223711629,1.43356027162126,1.43373000643542,1.43290130116627,1.43352033401793,1.4334204900096,1.43275153515378,1.43325075519543,1.43384981924542,1.43394966325375,1.43398960085709,1.43451877410124,1.43716464032202,1.43534747937039,1.43532751056873,1.43616620023871,1.4365256386687,1.43738429714035,1.43808320519867,1.43729443753285,1.43814311160367,1.43804326759534,1.43744420354535,1.43756401635535,1.43763390716118,1.43781362637618,1.43829287761617,1.43853250323616,1.43902173887699,1.43933125530281,1.43951097451781,1.44022985137779,1.44079896222528,1.44228663794942,1.4431852340244,1.44354467245439,1.49650193447333,1.4964919500725,1.49445513230254,1.49578305761335,1.49737057734582,1.49591285482418,1.50018617838076,1.49645201246917,1.49672159129166,1.49868851825579,1.4964320436675,1.50029600678992,1.50054561681075,1.4945949139142,1.49947728592161,1.49709101412249,1.49591285482418,1.49535372837752,1.49936745751244,1.50014624077743,1.50054561681075,1.44829724725097,1.49784982858581,1.49950723912411,1.44793780882097,1.44843702886263,1.49906792548745,1.50026605358742,1.45134248950507,1.45018429900843,1.45030411181843,1.45053375303759,1.4498448293801,1.45226105438172,1.45121269229424,1.45045387783092,1.45082330066175,1.45013437700426,1.4514722867159,1.45131253630257,1.4515920995259,1.45208133516672,1.45191160035256,1.45154217752173,1.45244077359672,1.454817060995,1.45299990004337,1.45289007163421,1.45277025882421,1.45373874570502,1.45267041481588,1.45314966605587,1.45422798134585,1.45400832452752,1.45416807494085,1.4546672949825,1.4546672949825,1.45527634343333,1.45479709219334,1.45530629663583,1.45727322359995,1.4565044247358,1.45669412835163,1.45720333279412,1.45809194446827,1.45688383196746,1.45682392556246,1.45663422194663,1.45660426874413,1.45689381636829,1.45841144529493,1.4582217416791,1.45826167928243,1.46172626637153,1.45869100851826,1.45880083692742,1.45918024415908,1.4598491990149,1.46244514323152,1.46203578279736,1.46561019829562,1.46050816946989,1.46172626637153,1.46218554880985,1.46164639116486,1.46164639116486,1.46195590759069,1.46556027629145,1.46326386409983,1.46275465965734,1.46231534602068,1.46323391089733,1.4633437393065
1.42035090931903,1.41775496510241,1.41840395115657,1.41888320239656,1.41948226644654,1.41947228204571,1.42003140849237,1.42005137729403,1.41922267202488,1.42062048814152,1.42177867863816,1.421728756634,1.42137930260484,1.4218785226465,1.42227789867982,1.42177867863816,1.42258741510565,1.42293686913481,1.42260738390731,1.42417493483812,1.42351596438313,1.42525325012809,1.42508351531393,1.42556276655392,1.42609193979808,1.42491378049977,1.42460426407394,1.42563265735975,1.42601206459141,1.42518335932226,1.42740988070805,1.42635153421974,1.42729006789805,1.42750972471638,1.42786916314638,1.42828850798137,1.42798897595637,1.42769942833221,1.4285381180022,1.42859802440719,1.42951658928384,1.42938679207301,1.43077462378882,1.43020551294133,1.43037524775549,1.43136370343797,1.43056495137132,1.43109412461548,1.43117399982214,1.43240208112462,1.43289131676544,1.4331808643896,1.43260176914128,1.43277150395544,1.43385980364626,1.43430910168375,1.43416932007208,1.43426916408041,1.43449880529958,1.43412938246875,1.43438897689041,1.43452875850208,1.43627602864787,1.43603640302788,1.43736432833868,1.43614623143704,1.43647571666454,1.43738429714035,1.43745418794618,1.43787353278117,1.43816308040534,1.43893187926949,1.43890192606699,1.43778367317368,1.43790348598367,1.43888195726532,1.438362768422,1.43893187926949,1.43900177007532,1.43941113050948,1.44065918061362,1.44100863464278,1.44144794827944,1.44193718392026,1.44260613877608,1.49440521029837,1.49365638023589,1.50066542962075,1.50041581959992,1.49843890823496,1.50224296495238,1.50070536722408,1.49688134170499,1.4966716692875,1.44637025789017,1.44619053867517,1.49349662982256,1.49478461753003,1.49535372837752,1.50107479005491,1.44738866677515,1.4949543523442,1.44794779322181,1.44748851078348,1.44807759043264,1.4480076996268,1.44752844838681,1.44828726285013,1.44820738764347,1.44863671687929,1.44943546894594,1.44875652968929,1.44863671687929,1.44872657648679,1.44893624890429,1.44866667008179,1.44973500097094,1.44992470458677,1.44921581212761,1.45073344105425,1.45103297307924,1.45076339425675,1.45518648382583,1.45122267669507,1.45117275469091,1.45190161595173,1.45241082039422,1.45255060200588,1.45212127277006,1.45230099198505,1.45317961925837,1.4530398376467,1.45273032122088,1.45353905768836,1.45436776295751,1.45340926047753,1.45358897969253,1.45346916688253,1.45291004043587,1.45672408155413,1.45637462752497,1.45461737297834,1.45526635903249,1.45568570386748,1.45829163248493,1.45626479911581,1.45582548547915,1.45590536068581,1.45643453392997,1.45603515789664,1.45691378516996,1.4565343779383,1.45728320800079,1.45770255283578,1.45774249043911,1.45808196006744,1.45827166368327,1.45871097731992,1.45876089932409,1.45870099291909,1.45874093052242,1.45968944860157,1.45939990097741,1.46003890263073,1.46083765469738,1.46524077546479,1.46609943393644,1.46192595438819,1.46149662515237,1.46137681234237,1.46160645356153,1.46247509643401,1.46278461285984,1.46361331812899,1.46308414488484,1.4665387475731
1.41795465311907,1.41769505869741,1.42017119010403,1.4181144035324,1.41894310880155,1.42073031655069,1.41997150208737,1.42047072212902,1.41956214165321,1.4199215800832,1.42048070652986,1.42043078452569,1.42066042574485,1.42084014495985,1.42107977057984,1.421668850229,1.42206822626232,1.42258741510565,1.42428476324728,1.42348601118063,1.42342610477563,1.42349599558146,1.42383546520979,1.42518335932226,1.42500364010727,1.42500364010727,1.42491378049977,1.42494373370227,1.42561268855809,1.42605200219474,1.42669100384807,1.42711034868306,1.42697056707139,1.42695059826973,1.42736994310472,1.42767945953055,1.42777930353888,1.42765949072888,1.42822860157637,1.42819864837387,1.4283883519897,1.42931690126718,1.42916713525468,1.42976619930467,1.43077462378882,1.43012563773466,1.43025543494549,1.43081456139215,1.43138367223964,1.43326073959627,1.43242204992628,1.43228226831462,1.43278148835628,1.43271159755044,1.43257181593878,1.43444888329541,1.43316089558794,1.43325075519543,1.43370005323292,1.43382985044376,1.43767384476451,1.43617618463954,1.4351378069529,1.4349880409404,1.4351378069529,1.43546729218039,1.43521768215956,1.43585668381288,1.43626604424704,1.43651565426787,1.43669537348287,1.43718460912369,1.43686510829703,1.43768382916535,1.43801331439284,1.43820301800867,1.43798336119034,1.43876214445532,1.43897181687282,1.4401699449728,1.44025980458029,1.44081893102695,1.44072907141945,1.49650193447333,1.44034966418779,1.50382050028402,1.44325512483023,1.4434248596444,1.4945949139142,1.44313531202024,1.44341487524356,1.49345669221923,1.44552158381935,1.44554155262102,1.44543172421186,1.44534186460436,1.4446928785502,1.4448725977652,1.44483266016187,1.44571128743518,1.44614061667101,1.44606074146434,1.44778804280848,1.44807759043264,1.44715902555599,1.44613063227018,1.44666978991517,1.44910598371845,1.44846698206513,1.446500055101,1.44957525055761,1.44802766842847,1.44826729404847,1.44852688847013,1.44817743444097,1.44838710685846,1.44894623330512,1.44890629570179,1.44920582772678,1.44948539095011,1.45040395582676,1.45042392462842,1.45049381543426,1.45004451739676,1.45113281708758,1.45124264549674,1.45173188113756,1.45146230231507,1.45190161595173,1.45292002483671,1.45196152235673,1.45282018082838,1.4531596504567,1.45340926047753,1.45297993124171,1.45272033682004,1.45325949446503,1.45288008723337,1.45452751337084,1.4547871077925,1.45363890169669,1.45499678021,1.45512657742083,1.45525637463166,1.4546672949825,1.45485699859833,1.4566541907483,1.45612501750414,1.45567571946665,1.45701362917829,1.45746292721578,1.4567740035583,1.45773250603828,1.45787228764994,1.45781238124494,1.45957962019241,1.4600588714324,1.45885075893159,1.45829163248493,1.45853125810493,1.45829163248493,1.46210567360319,1.46030848145323,1.46137681234237,1.4615964691607,1.46142673434654,1.46145668754904,1.46114717112321,1.46105731151571,1.46119709312737,1.4615066095532,1.46411253817065,1.46218554880985,1.46297431647567,1.46306417608317,1.46195590759069
1.41831409154907,1.4184139355574,1.41886323359489,1.4185637015699,1.41880332718989,1.41875340518572,1.41859365477239,1.41933250043405,1.41924264082655,1.42002142409153,1.42017119010403,1.42030098731486,1.42056058173652,1.42044076892652,1.42067041014569,1.42086011376152,1.42108975498068,1.42257743070481,1.42297680673814,1.42370566799896,1.42379552760646,1.42346604237896,1.42292688473397,1.42367571479646,1.42362579279229,1.42418491923895,1.42448445126394,1.42475403008644,1.4248638584956,1.42514342171893,1.42585231417808,1.42607197099641,1.42623172140974,1.42719022388972,1.42722017709222,1.42745980271222,1.42722017709222,1.42782922554304,1.42875777482052,1.42973624610217,1.42918710405635,1.42907727564718,1.42889755643219,1.42911721325052,1.42799896035721,1.42946666727968,1.43018554413966,1.43003577812717,1.43425917967958,1.4318529390788,1.4317630794713,1.43278148835628,1.43244201872795,1.4318529390788,1.43238211232295,1.43296120757127,1.43449880529958,1.43381986604292,1.43313094238544,1.43300114517461,1.43310098918294,1.43403952286125,1.43408944486542,1.43415933567125,1.43439896129124,1.43421924207625,1.4351078537504,1.43531752616789,1.43617618463954,1.43704482751202,1.43770379796701,1.43773375116951,1.43766386036368,1.43846261243033,1.43734435953702,1.43773375116951,1.43792345478534,1.43764389156201,1.43829287761617,1.43883203526116,1.43914155168698,1.43974061573697,1.43954092772031,1.4400501321628,1.44116838505611,1.44150785468444,1.44109849425028,1.44191721511859,1.44282579559441,1.44166760509777,1.44341487524356,1.44384420447939,1.44268601398274,1.44362454766106,1.4434847660494,1.44300551480941,1.44325512483023,1.44434342452105,1.44428351811605,1.44452314373604,1.44482267576104,1.44558149022435,1.44458305014104,1.44564139662935,1.44602080386101,1.44624046067934,1.44541175541019,1.44640021109267,1.4466498211135,1.44716900995682,1.44741861997765,1.44793780882097,1.44791784001931,1.44765824559765,1.44780801161014,1.44770816760181,1.44834716925513,1.44860676367679,1.44859677927596,1.44876651409012,1.44953531295427,1.44898617090845,1.4499945953926,1.45035403382259,1.45006448619843,1.45103297307924,1.45104295748008,1.45133250510424,1.4498148761776,1.4513524739059,1.45137244270757,1.4517718187409,1.4531296972542,1.45218117917505,1.45220114797672,1.45241082039422,1.45293999363837,1.45299990004337,1.45485699859833,1.45340926047753,1.45328944766753,1.45444763816418,1.45439771616001,1.45455746657334,1.45461737297834,1.45489693620167,1.45465731058167,1.45518648382583,1.45613500190498,1.45604514229748,1.45607509549998,1.45687384756663,1.45854124250576,1.45913032215492,1.45769256843494,1.45712345758746,1.45782236564577,1.45824171048077,1.45898055614242,1.4583415544891,1.4582816480841,1.45838149209243,1.45948976058491,1.46023859064739,1.46029849705239,1.46093749870571,1.46029849705239,1.46033843465572,1.46079771709405,1.46100738951154,1.4614766563507,1.46185606358236,1.46246511203318,1.46309412928567,1.46239522122735,1.46257494044235
1.41733562026742,1.41745543307742,1.41782485590824,1.41752532388325,1.41854373276823,1.41912282801655,1.41978179847154,1.41872345198323,1.41931253163238,1.4200713460957,1.42090005136485,1.42071034774902,1.42150909981567,1.42115964578651,1.42330629196563,1.42259739950648,1.42186853824566,1.42248757109732,1.42262735270898,1.42239771148982,1.42185855384483,1.4234760267798,1.42509349971476,1.42461424847477,1.42440457605728,1.42436463845395,1.42420488804062,1.42415496603645,1.42439459165645,1.42449443566478,1.42607197099641,1.42630161221557,1.42597212698808,1.42638148742224,1.42712033308389,1.42733000550139,1.42703047347639,1.42704045787723,1.43102423380965,1.42846822719636,1.4282086327747,1.42818866397304,1.42851814920053,1.42921705725885,1.42954654248634,1.42968632409801,1.4297162773005,1.43020551294133,1.43050504496632,1.43081456139215,1.43169318866547,1.43129381263214,1.43062485777632,1.43099428060715,1.43166323546297,1.43276151955461,1.43352033401793,1.43177306387213,1.43337056800543,1.43331066160043,1.4332407707946,1.43368008443126,1.43482829052707,1.43479833732457,1.43706479631369,1.43608632503204,1.43466854011374,1.43511783815123,1.43484825932874,1.4350779005479,1.43626604424704,1.43707478071452,1.43781362637618,1.43758398515701,1.43721456232619,1.43671534228453,1.43725449992952,1.43734435953702,1.43736432833868,1.43773375116951,1.43793343918617,1.43863234724449,1.43906167648032,1.43951097451781,1.43970067813364,1.44007010096446,1.44050941460112,1.4417374959036,1.44204701232942,1.4432750936319,1.44247634156525,1.44340489084273,1.44404389249605,1.44188726191609,1.44281581119358,1.44278585799108,1.44357462565689,1.44355465685523,1.44417368970688,1.44448320613271,1.44460301894271,1.44569131863352,1.446619867911,1.44588102224935,1.4451421765877,1.44603078826184,1.44643016429517,1.44530192700103,1.4465300083035,1.44695933753933,1.44594092865435,1.44690941553516,1.44687946233266,1.44747852638265,1.44793780882097,1.44774810520514,1.44688944673349,1.44903609291262,1.44844701326346,1.44877649849096,1.44901612411095,1.4499945953926,1.45009443940093,1.4499047357851,1.45172189673673,1.45069350345092,1.44983484497927,1.45099303547591,1.45178180314173,1.45139241150924,1.45143234911257,1.45195153795589,1.45215122597256,1.45203141316256,1.45187166274923,1.45233094518755,1.45229100758422,1.45461737297834,1.45389849611835,1.45326947886587,1.4533393696717,1.45353905768836,1.45391846492002,1.45454748217251,1.45474717018917,1.45527634343333,1.45495684260667,1.454936873805,1.45523640582999,1.45639459632664,1.45533624983832,1.45599522029331,1.45654436233913,1.45667415954996,1.45633468992164,1.45736308320745,1.45771253723661,1.4579821160591,1.45861113331159,1.45818180407577,1.45849132050159,1.45853125810493,1.45872096172076,1.45869100851826,1.46000894942823,1.46196589199153,1.46124701513154,1.46069787308572,1.45924015056408,1.46063796668072,1.46076776389155,1.46154654715653,1.46438211699314,1.46317400449233,1.46247509643401,1.45937993217574
1.41753530828408,1.41702610384159,1.41677649382076,1.41706604144493,1.41751533948242,1.41906292161155,1.41874342078489,1.41884326479322,1.41887321799572,1.41930254723155,1.42020114330653,1.41932251603321,1.42088008256318,1.4202211121082,1.42065044134402,1.42185855384483,1.42200831985733,1.42248757109732,1.42363577719313,1.42250753989898,1.42255746190315,1.42363577719313,1.42349599558146,1.42354591758563,1.42392532481729,1.42263733710981,1.42535309413643,1.42488382729727,1.42419490363978,1.42466417047894,1.42490379609893,1.42508351531393,1.42536307853726,1.42628164341391,1.42672095705057,1.42699053587306,1.42651128463307,1.42702048907556,1.42699053587306,1.42725013029472,1.42739989630722,1.42779927234054,1.43095434300381,1.42894747843635,1.42952657368468,1.43045512296216,1.429806136908,1.43150348504964,1.42982610570967,1.43118398422298,1.43174311066963,1.42936682327135,1.43404950726208,1.43193281428546,1.4317930326738,1.43203265829379,1.43284139476128,1.43301112957544,1.43266167554628,1.43290130116627,1.43234217471962,1.4331509111871,1.43375995963792,1.43374997523709,1.43361019362543,1.43478835292374,1.43457868050624,1.43490816573373,1.43442891449374,1.4348682281304,1.43562704259372,1.43565699579622,1.4367053578837,1.43705481191286,1.43742423474368,1.43644576346204,1.43691503030119,1.43741425034285,1.44028975778279,1.438063236397,1.43825294001283,1.43764389156201,1.43814311160367,1.43869225364949,1.43900177007532,1.43897181687282,1.43965075612947,1.44022985137779,1.44086885303111,1.44080894662612,1.44242641956108,1.44113843185361,1.44202704352776,1.4416176830936,1.4430654212144,1.44459303454187,1.44293562400357,1.4414379638786,1.44191721511859,1.44355465685523,1.44430348691771,1.44579116264185,1.44247634156525,1.4433949064419,1.44479272255854,1.44522205179436,1.44527197379853,1.44533188020353,1.44527197379853,1.4451721297902,1.44610067906768,1.44636027348934,1.44618055427434,1.44665980551433,1.44728882276682,1.4482473252468,1.44864670128013,1.4480676060318,1.44775808960598,1.44777805840764,1.44784794921347,1.44811752803597,1.44869662328429,1.44843702886263,1.44893624890429,1.44900613971012,1.45017431460759,1.45031409621926,1.45026417421509,1.45090317586841,1.45132252070341,1.45123266109591,1.45134248950507,1.45146230231507,1.45193156915423,1.45212127277006,1.45235091398922,1.45284014963004,1.45449756016834,1.45334935407253,1.45319958806003,1.45326947886587,1.45348913568419,1.4551465462225,1.45584545428081,1.45468726378417,1.45465731058167,1.45510660861916,1.45497681140833,1.45471721698667,1.45529631223499,1.45538617184249,1.45543609384666,1.45692376957079,1.45621487711164,1.45617493950831,1.45719334839329,1.45789225645161,1.45799210045994,1.4583116012866,1.4583715076916,1.45817181967493,1.4583116012866,1.45836152329076,1.45863110211326,1.45870099291909,1.45879085252659,1.45971940180407,1.46167634436736,1.463433598914,1.46048820066822,1.46027852825073,1.46553032308895,1.46371316213732,1.46155653155737,1.46204576719819
1.41685636902743,1.41650691499827,1.41701611944076,1.41782485590824,1.41766510549491,1.41831409154907,1.41779490270574,1.4181144035324,1.41912282801655,1.41873343638406,1.42026104971153,1.4197418608682,1.41976182966987,1.41911284361572,1.41966198566154,1.42066042574485,1.4215190842165,1.42197836665483,1.42201830425816,1.42370566799896,1.42330629196563,1.4231764947548,1.42285699392814,1.42454435766894,1.42410504403228,1.42398523122229,1.42450442006561,1.42362579279229,1.42712033308389,1.42499365570643,1.42441456045811,1.42463421727644,1.42528320333059,1.42550286014892,1.42596214258725,1.42691066066639,1.42722017709222,1.42792906955137,1.42867789961386,1.42945668287884,1.42818866397304,1.42731003669972,1.42796900715471,1.4280888199647,1.42976619930467,1.4298360901105,1.43025543494549,1.43360020922459,1.4283883519897,1.43216245550462,1.42959646449051,1.42966635529634,1.42981612130884,1.43133375023547,1.43311097358377,1.43175309507046,1.43360020922459,1.43249194073212,1.43241206552545,1.43279147275711,1.43258180033961,1.43198273628963,1.43273156635211,1.43285137916211,1.43328070839793,1.43390972565042,1.43411939806792,1.43397961645625,1.43496807213873,1.43475839972124,1.43843265922783,1.4351977133579,1.43569693339955,1.43588663701538,1.43683515509453,1.43659552947453,1.4364956854662,1.43701487430953,1.43711471831786,1.43721456232619,1.43729443753285,1.44083889982862,1.43873219125282,1.43788351718201,1.43860239404199,1.43905169207948,1.43879209765782,1.44006011656363,1.44018991377446,1.4400201789603,1.44093874383695,1.44066916501445,1.44171752710193,1.44144794827944,1.44099865024195,1.4416775894986,1.44151783908527,1.44253624797025,1.44258616997441,1.44264607637941,1.44277587359024,1.44359459445856,1.44397400169022,1.4431852340244,1.44467290974854,1.44522205179436,1.4465300083035,1.44857681047429,1.4448126913602,1.44497244177353,1.44503234817853,1.44569131863352,1.44671971191933,1.44665980551433,1.4468295403285,1.44739865117598,1.44760832359348,1.4480076996268,1.44762829239515,1.44781799601098,1.4482772784493,1.44880645169346,1.44884638929679,1.44820738764347,1.44856682607346,1.44868663888346,1.44973500097094,1.44991472018593,1.45188164715006,1.45328944766753,1.45007447059926,1.45077337865758,1.45189163155089,1.45152220872007,1.45276027442338,1.45437774735834,1.45199147555923,1.45179178754256,1.45175184993923,1.45234092958838,1.45288008723337,1.45325949446503,1.45348913568419,1.45385855851502,1.45396838692419,1.45577556347498,1.45476713899084,1.45494685820583,1.45486698299917,1.45474717018917,1.45908040015075,1.45592532948748,1.45624483031414,1.45587540748331,1.4567140971533,1.4565343779383,1.45588539188415,1.45699366037662,1.45779241244328,1.45744295841412,1.45835153888993,1.45851128930326,1.4584314140966,1.4582816480841,1.45925013496491,1.45919022855991,1.46078773269322,1.45897057174159,1.45971940180407,1.45895060293992,1.45967946420074,1.45873094612159,1.45880083692742,1.46501113424563,1.4614766563507,1.46173625077236
1.41774498070158,1.4167864782216,1.41730566706492,1.41693624423409,1.41768507429658,1.41774498070158,1.41822423194157,1.4184438887599,1.41869349878073,1.42077025415402,1.41988164247987,1.42168881903067,1.41900301520655,1.41987165807904,1.41997150208737,1.41997150208737,1.42060051933985,1.42094997336901,1.42280707192398,1.4218785226465,1.42189849144816,1.42218803907232,1.42285699392814,1.42356588638729,1.42381549640812,1.42463421727644,1.42361580839146,1.42425481004478,1.42413499723478,1.42435465405311,1.42431471644978,1.42426479444561,1.42514342171893,1.42534310973559,1.42619178380641,1.42675091025306,1.42639147182307,1.4267908478564,1.42754966231972,1.42777930353888,1.42747977151388,1.42768944393138,1.42806885116304,1.42739989630722,1.42828850798137,1.42815871077054,1.42922704165968,1.43060488897465,1.43037524775549,1.43021549734216,1.42833842998553,1.42927696366385,1.4299559029205,1.42970629289967,1.43109412461548,1.43154342265297,1.43220239310796,1.43160332905797,1.43276151955461,1.43221237750879,1.43419927327458,1.43488819693207,1.43374997523709,1.43409942926625,1.43445886769624,1.43374997523709,1.43421924207625,1.43481830612624,1.43511783815123,1.43608632503204,1.4349281345354,1.43444888329541,1.43423921087791,1.4347484153204,1.43543733897789,1.43545730777956,1.43584669941205,1.43605637182954,1.44193718392026,1.44184732431276,1.43782361077701,1.43744420354535,1.43894186367032,1.438063236397,1.44024982017946,1.43900177007532,1.43929131769948,1.43888195726532,1.44085886863028,1.43985044414614,1.44043952379529,1.44070910261778,1.43931128650115,1.43968070933197,1.44078897782445,1.44117836945694,1.44250629476775,1.44352470365273,1.44365450086356,1.44259615437525,1.44370442286772,1.44334498443773,1.44403390809522,1.44403390809522,1.44770816760181,1.44537181780686,1.44425356491355,1.44439334652521,1.44453312813687,1.44491253536853,1.4447827381577,1.44522205179436,1.44537181780686,1.44552158381935,1.44564139662935,1.44639022669184,1.446799587126,1.44657993030767,1.44748851078348,1.44786791801514,1.44784794921347,1.44813749683764,1.4484569976643,1.44888632690012,1.44921581212761,1.44944545334678,1.44935559373928,1.44917587452428,1.44910598371845,1.45043390902926,1.45111284828591,1.45112283268674,1.45023422101259,1.45003453299593,1.45143234911257,1.45310972845254,1.45211128836922,1.45155216192257,1.45185169394756,1.45205138196422,1.45185169394756,1.45266043041505,1.45389849611835,1.45284014963004,1.45369880810169,1.45365887049836,1.45373874570502,1.45432782535418,1.45441768496168,1.45841144529493,1.45495684260667,1.45550598465249,1.45672408155413,1.45693375397163,1.45539615624332,1.45592532948748,1.45610504870248,1.4565044247358,1.45702361357912,1.45727322359995,1.45778242804244,1.45737306760828,1.45795216285661,1.4583715076916,1.46030848145323,1.4579821160591,1.45895060293992,1.45988913661823,1.45927010376658,1.4581917884766,1.45815185087327,1.4579821160591,1.46285450366567,1.46200582959486,1.46126698393321,1.46216558000819
1.41561830332412,1.41658679020493,1.41673655621743,1.41689630663076,1.4168463846266,1.41696619743659,1.41782485590824,1.41852376396656,1.41888320239656,1.4182941227474,1.41868351437989,1.41865356117739,1.41883328039239,1.41934248483488,1.42047072212902,1.42358585518896,1.42046073772819,1.42055059733569,1.42078023855485,1.42066042574485,1.42174872543566,1.42205824186149,1.42269724351481,1.42352594878396,1.42336619837063,1.42345605797813,1.4234161203748,1.42354591758563,1.42412501283395,1.42447446686311,1.42460426407394,1.42547290694642,1.42590223618225,1.4266111286414,1.4249537181031,1.42543296934309,1.42651128463307,1.42653125343474,1.42689069186473,1.42723016149305,1.42716027068722,1.42737992750555,1.42696058267056,1.42732002110055,1.42799896035721,1.42769942833221,1.42842828959303,1.42876775922136,1.43090442099965,1.42927696366385,1.4282685391797,1.42936682327135,1.43162329785963,1.43307103598044,1.43092438980131,1.43116401542131,1.43129381263214,1.43070473298299,1.43067477978049,1.43113406221881,1.43169318866547,1.43214248670296,1.43211253350046,1.43233219031879,1.43284139476128,1.43427914848125,1.43426916408041,1.43383983484459,1.43436900808875,1.43426916408041,1.43388975684875,1.43430910168375,1.4347783685229,1.43567696459789,1.43445886769624,1.43518772895706,1.43572688660205,1.43536744817206,1.43535746377123,1.43718460912369,1.43738429714035,1.43697493670619,1.43736432833868,1.43744420354535,1.43774373557034,1.43846261243033,1.43855247203783,1.44153780788693,1.43960083412531,1.44249631036692,1.44086885303111,1.44059927420862,1.44047946139862,1.44096869703945,1.44096869703945,1.44086885303111,1.44202704352776,1.44127821346527,1.44159771429193,1.44180738670943,1.44291565520191,1.44292563960274,1.44293562400357,1.44258616997441,1.44302548361107,1.44304545241274,1.44380426687606,1.44450317493438,1.44433344012021,1.44446323733104,1.44492251976937,1.44515216098853,1.44611066346851,1.44633032028684,1.44685949353099,1.44587103784851,1.44589100665018,1.446500055101,1.446739680721,1.44674966512183,1.44731877596932,1.44768819880014,1.44792782442014,1.44783796481264,1.44805762163097,1.4482772784493,1.44855684167263,1.44927571853261,1.44890629570179,1.44916589012345,1.44964514136344,1.44980489177677,1.45048383103342,1.45113281708758,1.45119272349257,1.45329943206837,1.45172189673673,1.45139241150924,1.45134248950507,1.4517718187409,1.45235091398922,1.45242080479505,1.45475715459,1.45240083599338,1.45277025882421,1.45341924487836,1.45384857411419,1.4532495100642,1.45346916688253,1.45452751337084,1.45464732618084,1.45494685820583,1.45624483031414,1.45557587545832,1.45507665541666,1.45510660861916,1.45597525149165,1.45643453392997,1.45682392556246,1.45707353558329,1.45703359797996,1.45776245924078,1.45802205366244,1.4580420224641,1.45855122690659,1.45997899622573,1.45841144529493,1.45892064973742,1.4581318820716,1.46173625077236,1.46187603238403,1.46126698393321,1.46164639116486,1.46040832546156,1.46095746750738,1.46180614157819
1.41568819412995,1.41640707098994,1.41646697739494,1.41682641582493,1.41679646262243,1.41793468431741,1.4183839823549,1.42054061293486,1.42134934940234,1.4201911589057,1.41815434113574,1.41819427873907,1.41923265642572,1.41916276561988,1.41888320239656,1.4200713460957,1.42053062853402,1.42067041014569,1.42088008256318,1.42132938060067,1.42316651035397,1.42152906861734,1.42296682233731,1.42342610477563,1.42307665074647,1.42263733710981,1.42447446686311,1.4235359331848,1.42352594878396,1.42388538721396,1.42406510642895,1.4248938116981,1.4280588667622,1.42730005229889,1.42502360890893,1.42603203339308,1.42587228297975,1.42620176820724,1.42617181500474,1.42595215818641,1.42677087905473,1.4266410818439,1.42701050467473,1.42703047347639,1.42692064506723,1.42794903835304,1.42782922554304,1.42754966231972,1.42767945953055,1.42798897595637,1.42913718205218,1.43027540374716,1.4301356221355,1.42955652688717,1.43005574692883,1.43131378143381,1.43111409341714,1.43093437420215,1.43072470178465,1.43355028722043,1.43162329785963,1.43162329785963,1.43165325106213,1.43131378143381,1.43228226831462,1.43233219031879,1.43289131676544,1.43375995963792,1.43329069279877,1.43388975684875,1.43419927327458,1.43582673061038,1.43405949166292,1.43401955405959,1.43467852451457,1.43506791614706,1.43473843091957,1.43587665261455,1.43600644982538,1.43605637182954,1.43610629383371,1.43691503030119,1.43704482751202,1.4365555918712,1.43826292441367,1.43793343918617,1.438183049207,1.43905169207948,1.43905169207948,1.43888195726532,1.43906167648032,1.43967072493114,1.43943109931114,1.44094872823778,1.44030972658446,1.44134810427111,1.44199709032526,1.44110847865111,1.44092875943611,1.44218679394109,1.44278585799108,1.44344482844606,1.44250629476775,1.4430654212144,1.44362454766106,1.44314529642107,1.44447322173188,1.44448320613271,1.44414373650438,1.44424358051271,1.44421362731021,1.44448320613271,1.44498242617437,1.4447228317527,1.4450822701827,1.44576120943935,1.44585106904685,1.44663983671267,1.4464701018985,1.446679774316,1.44728882276682,1.44750847958515,1.44672969632016,1.44861674807763,1.44692938433683,1.44814748123847,1.44826729404847,1.44808757483347,1.44835715365596,1.44873656088762,1.44860676367679,1.44977493857427,1.44967509456594,1.45113281708758,1.45098305107508,1.45079334745925,1.45205138196422,1.4518017719434,1.45113281708758,1.4516520059309,1.45213125717089,1.45181175634423,1.45225106998089,1.45211128836922,1.45232096078672,1.45231097638589,1.45203141316256,1.45187166274923,1.4533693228742,1.45389849611835,1.45432782535418,1.45457743537501,1.45529631223499,1.45541612504499,1.4549668270075,1.45549600025165,1.45560582866082,1.45578554787582,1.45613500190498,1.45640458072747,1.45706355118246,1.45756277122411,1.45734311440578,1.45785231884827,1.4580719756666,1.45827166368327,1.45799210045994,1.45785231884827,1.45792220965411,1.45910036895242,1.45909038455158,1.46089756110238,1.46269475325234,1.46596963672561,1.45938991657658,1.46130692153654
1.41511908328246,1.41570816293162,1.41594778855161,1.41592781974995,1.4165768058041,1.41647696179577,1.41674654061826,1.41724576065992,1.41776494950324,1.4183540291524,1.41909287481405,1.41946229764488,1.41846385756156,1.41911284361572,1.41922267202488,1.41984170487654,1.42029100291403,1.42138928700567,1.42090005136485,1.42066042574485,1.421429224609,1.421489131014,1.42305668194481,1.42358585518896,1.42239771148982,1.42404513762729,1.42374560560229,1.42336619837063,1.42310660394897,1.42461424847477,1.42426479444561,1.42450442006561,1.42437462285478,1.4265512222364,1.4248638584956,1.4249537181031,1.42707041107972,1.42644139382724,1.42514342171893,1.42464420167727,1.42582236097558,1.42825855477887,1.42653125343474,1.42606198659558,1.42678086345556,1.42705044227806,1.42717025508806,1.42757961552221,1.42806885116304,1.42964638649467,1.42914716645302,1.42928694806468,1.42935683887051,1.42981612130884,1.42906729124635,1.42935683887051,1.42948663608134,1.43437899248958,1.43303109837711,1.43189287668213,1.4317331262688,1.43233219031879,1.43207259589712,1.43169318866547,1.43194279868629,1.43208258029796,1.43239209672378,1.43356027162126,1.43378991284042,1.43385980364626,1.43393967885292,1.4350179941429,1.4350179941429,1.43406947606375,1.43401955405959,1.4348981813329,1.43473843091957,1.43442891449374,1.43488819693207,1.43552719858539,1.43491815013457,1.43623609104454,1.43659552947453,1.4365555918712,1.43681518629286,1.43726448433035,1.43759396955785,1.4382130024095,1.43807322079784,1.43849256563283,1.43877212885616,1.43838273722366,1.43941113050948,1.4399003661503,1.44003016336113,1.4398704129478,1.44080894662612,1.44093874383695,1.44082891542778,1.44184732431276,1.44181737111026,1.44138804187444,1.44162766749443,1.44193718392026,1.44217680954026,1.44277587359024,1.44234654435442,1.44343484404523,1.44507228578186,1.44433344012021,1.44461300334354,1.4448426445627,1.44457306574021,1.44457306574021,1.44594092865435,1.44711908795266,1.44528195819936,1.44750847958515,1.44533188020353,1.44648008629934,1.446679774316,1.446380242291,1.44781799601098,1.44748851078348,1.44766822999848,1.44798773082514,1.44753843278765,1.4484569976643,1.44945543774761,1.44905606171428,1.44913593692095,1.45106292628174,1.44948539095011,1.44970504776844,1.4500245485951,1.4497849229751,1.45006448619843,1.45094311347175,1.4514123803109,1.45161206832757,1.45115278588924,1.45139241150924,1.45136245830674,1.45179178754256,1.45197150675756,1.45235091398922,1.45301986884504,1.45338929167586,1.45317961925837,1.45273032122088,1.45384857411419,1.45390848051919,1.45404826213085,1.45462735737917,1.45474717018917,1.45463734178001,1.45537618744166,1.45676401915746,1.45792220965411,1.45787228764994,1.45717337959162,1.45688383196746,1.45685387876496,1.45689381636829,1.45811191326994,1.45789225645161,1.4581318820716,1.45852127370409,1.45997899622573,1.46188601678486,1.45940988537824,1.46054810707322,1.46182611037986,1.46045824746572,1.46175621957403,1.4614467031482
1.41630722698161,1.41724576065992,1.41653686820077,1.41787477791241,1.41825418514407,1.41705605704409,1.41665668101077,1.41720582305659,1.41778491830491,1.41893312440072,1.41926260962821,1.41889318679739,1.4199814864882,1.4201312525007,1.42037087812069,1.4198616736782,1.42026104971153,1.42043078452569,1.42058055053819,1.42123952099317,1.42262735270898,1.42331627636647,1.42297680673814,1.42331627636647,1.42266729031231,1.42349599558146,1.42426479444561,1.4234460735773,1.4251034841156,1.42467415487977,1.42600208019058,1.4251633905206,1.42418491923895,1.42371565239979,1.42411502843312,1.42463421727644,1.42476401448727,1.42454435766894,1.42796900715471,1.42796900715471,1.4264314094264,1.42629162781474,1.42570254816559,1.42618179940558,1.42701050467473,1.42610192419891,1.42690067626556,1.42703047347639,1.42750972471638,1.42786916314638,1.42799896035721,1.42839833639053,1.43057493577215,1.42900738484135,1.42997587172217,1.42963640209384,1.42915715085385,1.43062485777632,1.43127384383047,1.43460863370874,1.4315833602563,1.43119396862381,1.43079459259048,1.43135371903714,1.43082454579298,1.43113406221881,1.43133375023547,1.43215247110379,1.4330910047821,1.43300114517461,1.43328070839793,1.43403952286125,1.43436900808875,1.43432907048541,1.43527758856456,1.43388975684875,1.43414935127042,1.43590660581705,1.43615621583788,1.43490816573373,1.43571690220122,1.43656557627203,1.43583671501122,1.43666542028037,1.43704482751202,1.43897181687282,1.44136807307277,1.43752407875201,1.43767384476451,1.43785356397951,1.43791347038451,1.438063236397,1.43862236284366,1.43919147369115,1.43928133329865,1.44019989817529,1.44301549921024,1.44426354931438,1.44065918061362,1.44113843185361,1.44106854104778,1.4450523169802,1.44238648195775,1.44305543681357,1.44326510923107,1.44424358051271,1.44332501563607,1.44391409528522,1.4433050468344,1.44390411088439,1.44403390809522,1.44420364290938,1.44424358051271,1.44461300334354,1.4450523169802,1.44503234817853,1.44542173981102,1.44538180220769,1.4463502890885,1.44599085065851,1.44568133423268,1.44686947793183,1.44666978991517,1.44684950913016,1.44690941553516,1.44703921274599,1.44745855758098,1.44922579652845,1.44847696646596,1.44811752803597,1.44877649849096,1.45017431460759,1.44929568733428,1.44893624890429,1.44882642049512,1.44989475138427,1.45024420541343,1.45097306667425,1.45143234911257,1.45279022762588,1.45131253630257,1.45170192793506,1.4513524739059,1.45215122597256,1.45215122597256,1.45205138196422,1.45213125717089,1.45260052401005,1.45375871450669,1.45430785655251,1.45298991564254,1.45389849611835,1.45417805934168,1.45800208486077,1.45793219405494,1.45539615624332,1.45547603144999,1.45598523589248,1.4584314140966,1.45657431554163,1.45610504870248,1.45617493950831,1.4567740035583,1.45705356678162,1.45636464312414,1.45945980738241,1.46004888703156,1.45854124250576,1.4568039567608,1.45980926141157,1.45946979178324,1.4614167499457,1.4615365627557,1.46044826306489,1.46105731151571,1.45989912101907
1.41532875569996,1.41527883369579,1.41582797574162,1.41726572946159,1.41698616623826,1.41709599464742,1.4182342163424,1.41790473111491,1.41743546427575,1.41865356117739,1.41938242243821,1.42031097171569,1.4182342163424,1.42361580839146,1.42025106531069,1.42077025415402,1.42066042574485,1.42132938060067,1.42091003576568,1.42491378049977,1.42345605797813,1.42296682233731,1.42269724351481,1.42352594878396,1.42452438886728,1.42720020829056,1.42648133143057,1.42429474764811,1.42433468525145,1.42590223618225,1.42457431087144,1.42459427967311,1.42558273535559,1.42606198659558,1.42543296934309,1.4248039520906,1.42487384289644,1.42526323452893,1.42517337492143,1.42544295374392,1.42512345291726,1.42575247016975,1.42623172140974,1.4267009882489,1.42511346851643,1.42570254816559,1.42691066066639,1.42743983391055,1.42719022388972,1.42887758763052,1.42766947512971,1.42767945953055,1.4283583987872,1.42959646449051,1.42956651128801,1.42785917874554,1.42958648008967,1.42945668287884,1.42927696366385,1.43005574692883,1.43065481097882,1.43181300147546,1.43138367223964,1.43131378143381,1.43131378143381,1.43105418701214,1.4317331262688,1.4318229858763,1.43135371903714,1.43346042761293,1.43455871170457,1.43388975684875,1.4332707239971,1.43335059920377,1.43386978804709,1.43289131676544,1.43386978804709,1.43401955405959,1.43461861810957,1.43454872730374,1.43602641862705,1.43744420354535,1.43563702699455,1.43650566986704,1.43748414114868,1.44081893102695,1.43799334559117,1.43759396955785,1.43736432833868,1.43727446873119,1.43783359517784,1.438242955612,1.43875216005449,1.43907166088115,1.43857244083949,1.43921144249281,1.43929131769948,1.43995028815447,1.44007010096446,1.44060925860945,1.44109849425028,1.44124826026277,1.44208694993276,1.44230660675109,1.44235652875525,1.44214685633776,1.44227665354859,1.44232657555275,1.44141799507694,1.44284576439608,1.44299553040857,1.4430654212144,1.44413375210355,1.44448320613271,1.44421362731021,1.44383422007856,1.44454311253771,1.44474280055437,1.44483266016187,1.44491253536853,1.44539178660852,1.44598086625768,1.44617056987351,1.44629038268351,1.44595091305518,1.44705918154766,1.44765824559765,1.44757837039098,1.45154217752173,1.44822735644513,1.44880645169346,1.44874654528846,1.4483970912593,1.44868663888346,1.44893624890429,1.44903609291262,1.44958523495844,1.45059365944259,1.45007447059926,1.45060364384342,1.45077337865758,1.45023422101259,1.45047384663259,1.45160208392673,1.45169194353423,1.45172189673673,1.45240083599338,1.45234092958838,1.45429787215168,1.45380863651086,1.45509662421833,1.45399834012668,1.45425793454835,1.45465731058167,1.45461737297834,1.45458741977584,1.4547272013875,1.45726323919912,1.4568039567608,1.45565575066498,1.45516651502416,1.45582548547915,1.45661425314497,1.45602517349581,1.45589537628498,1.45827166368327,1.4583116012866,1.45892064973742,1.45845138289826,1.45908040015075,1.45870099291909,1.4613268903382,1.45950972938657,1.46099740511071,1.46087759230071,1.46145668754904
1.41650691499827,1.41685636902743,1.41677649382076,1.41677649382076,1.41742547987492,1.41549849051412,1.41747540187908,1.41859365477239,1.41936245363655,1.41883328039239,1.41952220404988,1.42023109650903,1.42040083132319,1.42361580839146,1.42103983297651,1.42043078452569,1.42090005136485,1.48187478725279,1.42149911541484,1.4214591778115,1.42262735270898,1.42253749310148,1.4230866351473,1.42360582399063,1.42366573039563,1.42419490363978,1.42430473204895,1.42412501283395,1.42391534041645,1.42410504403228,1.42410504403228,1.42426479444561,1.42435465405311,1.42488382729727,1.42577243897142,1.42531315653309,1.42511346851643,1.42462423287561,1.42435465405311,1.42494373370227,1.42556276655392,1.42546292254559,1.42533312533476,1.42584232977725,1.42619178380641,1.42614186180224,1.42606198659558,1.42691066066639,1.42678086345556,1.42694061386889,1.42713031748472,1.42737992750555,1.42802891355971,1.42939677647384,1.42787914754721,1.42837836758887,1.42851814920053,1.42860800880803,1.42941674527551,1.42953655808551,1.430165575338,1.43181300147546,1.43060488897465,1.43051502936716,1.43065481097882,1.43114404661964,1.43100426500798,1.43079459259048,1.43443889889458,1.4314036410413,1.43216245550462,1.43379989724126,1.43313094238544,1.43317087998877,1.43329069279877,1.43353031841876,1.43392969445209,1.43413936686958,1.43487821253123,1.43476838412207,1.43514779135373,1.43560707379205,1.43554716738705,1.43568694899872,1.43566698019705,1.43731440633452,1.43731440633452,1.43734435953702,1.438302862017,1.438422674827,1.43883203526116,1.43906167648032,1.4382130024095,1.43897181687282,1.438422674827,1.43858242524033,1.43831284641783,1.44017992937363,1.44033967978696,1.44029974218363,1.44084888422945,1.44129818226694,1.44098866584111,1.4431552808219,1.44265606078025,1.44286573319774,1.44214685633776,1.44174748030443,1.44260613877608,1.44379428247522,1.44416370530605,1.44541175541019,1.44448320613271,1.44427353371521,1.44437337772354,1.44416370530605,1.44408383009938,1.44458305014104,1.44438336212438,1.44450317493438,1.44464295654604,1.44547166181519,1.44581113144352,1.44583110024518,1.44624046067934,1.44669974311766,1.44708913475016,1.44541175541019,1.44730879156849,1.44850691966846,1.44940551574344,1.44893624890429,1.44795777762264,1.44850691966846,1.44852688847013,1.44888632690012,1.44870660768512,1.44911596811928,1.44977493857427,1.44980489177677,1.45081331626092,1.45067353464925,1.45044389343009,1.45130255190174,1.45119272349257,1.45148227111674,1.45203141316256,1.45209131956756,1.45274030562171,1.45294997803921,1.45367883930002,1.45370879250252,1.45354904208919,1.45438773175918,1.45415809054001,1.45436776295751,1.4547272013875,1.45507665541666,1.4550866398175,1.45500676461083,1.45596526709081,1.45631472111997,1.45681394116163,1.45583546987998,1.45571565706998,1.46214561120652,1.45791222525327,1.45873094612159,1.45854124250576,1.45948976058491,1.45920021296075,1.46048820066822,1.46208570480152,1.46187603238403,1.45914030655575,1.46071784188738
