0.91886899940292,0.552657997685384,0.501226086756503,0.532729466090277,0.544462409984361,0.615765081538662,0.614196860399981,0.963026055909851,0.960799974968049,0.606637601734292,0.511911481651422,0.509402516050597,0.553246999798272,0.628503899879971,0.680489612601472,0.785155006997082,0.788610299563164,0.708475996244996,0.599958994221264,0.593525310461631,0.583942805876513,0.646929985421564,0.645319768354086,0.753493000009386,0.676187944881563,0.608397975307876,0.597733180614454,0.601290230672905,0.565687448396011,0.596564191852158,0.608527992274387,0.637604999994942,0.790541991135161,0.771202501214314,0.762976916556304,0.800842000820827,0.68300149093558,0.794014678220723,0.802286933029067,0.790215673071175,1.00388999937152,1.0429308501227,1.03599915066831,0.773394579253759,0.773202894872993,0.772929350569874,0.714894785440733,0.724482210137112,0.823948378902401,0.812485915712074,0.892192000094209,1.1585900002398,0.808841344561,0.787908992137506,0.760652245617359,0.772919099637034,0.803945222192097,0.891551431927023,1.16437000338621,1.17315591718669,1.22991000000469,0.812577995714727,0.800951632477224,0.816689641413794,0.845755799659495,0.853914526459395,0.995158498777675,1.3731877781762,1.55380000000939,1.41868079808613,1.42408573454947,1.38402305351791,1.2850882028638,1.21628999989566,1.11050568431355,1.11601708397363,1.12615814792626,1.20172131482706,1.26215360678214,1.26656835490935,1.30531000104529,1.26645869793755,1.0739214395061,0.986999011525625,1.00742218643106,0.952618999199051,1.04615765904754,1.29604039629752,1.30435104029399,1.29654589958098,1.32698540927149,1.06629,1.01558999999531,1.13838071659363,1.14955801187895,1.191,1.34635500058328,1.44255000218066,1.37362841862548,1.30754755316029,1.19523000912468,1.22962063715927,1.24276545380495,1.18975999963337,1.21409335808958,1.22158461948774,1.4266600001811,1.31126899971979,1.25673505657456,1.26497097013637,1.25994082979297,1.31229543023307,1.4368567225782,1.62078000004592,1.54444993657471,1.52927000875067,1.56822457912328,1.42979588662435,1.48717450809522,1.51299405948884,1.53423000041212,1.79681999716712,1.82144077373764,1.62152001526668,1.65332456414832,1.78565000000939,1.44927320376291,1.46015679622301,1.61529000000939,1.49012661666512,1.4616600003891,1.49606749009231,1.39260842240951,1.39501911777983,1.18144019239799,1.09295999999531,1.22938000000469,1.05792999999531,1.16885999999995,1.20068732629327,1.30846999188477,0.958243000391145,0.927697020195857,0.739531663733444,0.73810542818917,0.746290737762386,0.777611079579334,0.863972000275591,0.997078999980521,1.02834343223386,1.14029448160434,0.948389,0.88553838830808,0.869182611427497,0.907231558417974,0.940900000358069,1.12556791321387,1.13697208679552,0.763344399811374,0.765047539749424,0.74316440983439,0.7802329964488,0.802276230195828,1.21964152298013,1.21725003124757,1.21470933102683,1.12233693842232,1.02892539182331,1.01330428432254,1.00931212594103,1.00480972159675,1.29941999986976
1.00805000000939,0.524124000038668,0.488763482153561,0.526074534650018,0.549321886373452,0.617639620013602,0.66829999948454,0.96393258029235,0.958025407354986,0.580335888655364,0.494734003949808,0.474121614768361,0.514991000222478,0.625139450856268,0.623633585908874,0.622342698941263,0.656123041094018,0.670007958898356,0.528245400054215,0.525735175979638,0.51210641676644,0.580298905199917,0.578781616255754,0.67593320951171,0.675784263426018,0.674784409511567,0.814238879710745,0.572776783612809,0.583445255342071,0.583096974218124,0.56961787889417,0.709330768191907,0.708980227997605,0.766552470353847,0.759562630994211,0.747143899521599,0.690616304470283,0.690823492244546,0.676118692468594,0.723132694165985,1.02778000063318,1.10565000019089,0.997217999211285,0.845173,0.751484277894569,0.728381000515104,0.699962943050564,0.715030398339149,0.797059738538449,0.806903649307777,0.871187238811936,0.88047976110324,0.756082815089377,0.755057181463969,0.757325387597009,0.759836701410105,0.812774777287656,0.896850749925488,1.11947000369599,1.13530572489868,1.15536999948785,0.847384000300156,0.79014666073272,0.78548021729315,0.830846742550289,0.870954468391338,0.998248501629057,1.38466534496615,1.39714492484441,1.40451577311702,1.40344683141392,1.36121000332402,1.29826179737246,1.10897139786193,1.10817409007609,1.17765000190221,1.12917393367661,1.1996846361978,1.22383198332732,1.22839821536153,1.24027074913562,1.17421999980585,1.03293500297326,1.04647499648497,1.01620908289745,0.985346476611486,1.00807000639467,1.22374,1.2777910016443,1.29535282215682,1.31262459199603,1.01835,0.942685999076815,1.01574,1.04747957535654,1.14331,1.34901499895592,1.4642899982883,1.31193999999531,1.3024134752338,1.2961413408859,1.10515867269415,1.16203109452588,1.17598734630057,1.20966289893528,1.21990517482439,1.50623000000939,1.32674999603255,1.25407752671534,1.26912394783929,1.27507131553782,1.3026945694782,1.52242702652227,1.5186529681992,1.49291374811158,1.4821559470282,1.48441954657486,1.44498707616542,1.48496394916873,1.48115020752469,1.4772034510692,1.77585000267593,1.86317000033868,1.41619999998396,1.49815590222534,1.41716999998439,1.77873000000939,1.70774000000469,1.44636999989131,1.51147345754488,1.53984400443326,1.46772999942371,1.4057800865926,1.35458471961337,1.26089351210399,1.2682872774915,1.25769260451685,1.24543170141827,1.28805006099531,1.28487308649256,1.28192239417721,1.26645950046114,1.21567999977809,0.676857003285515,0.697705357989584,0.675711373804788,0.769634920206451,0.818350523249116,1.14776000000939,1.05985893149003,1.14581551840974,1.07767000000469,0.831219734099937,0.830793109250034,0.887683901786837,0.923038999902238,0.97501323491239,0.981864764447239,0.757938579025516,0.761399339271085,0.759373215338407,0.758122744323575,0.811844903378847,1.22042546289265,1.21778014420796,1.21835306925173,1.11707306157768,1.022778262883,0.994630713728807,0.990914397531579,0.987038768271559,0.954848527167142
0.491599223001213,0.473715332104226,0.506614438502195,0.558371522543163,0.555404947075211,0.556927897892167,0.6878713995918,0.942297126529166,0.942114875887449,0.554841599645774,0.524302997594113,0.472046763569896,0.468611681165982,0.610308322153494,0.622732176906354,0.758074001716285,0.779885998297794,0.715493000618561,0.52393844644621,0.523897595160739,0.510108711398495,0.552054681546158,0.579780664293152,0.577467256929607,0.714044377655898,0.812049382125947,0.809693617335539,0.582475884536464,0.585315617969125,0.582295321926105,0.561197936352475,0.605097536344581,0.692558687457376,0.826521000056512,0.722439814549091,0.663879568876166,0.60787157090967,0.63908136885439,0.6433209720158,0.667887800686873,0.665344580277212,1.05909833511402,1.05957166501583,1.02189000000469,0.745383340075753,0.70231893524061,0.721663554592734,0.722971119261847,0.772322220862545,0.806068346595292,0.808373909072792,0.78660191041759,0.722922114934569,0.697058237591681,0.738962587783226,0.749793550657135,0.869398000004693,0.895092184571462,1.0974941494919,1.09698073855864,1.09657414949126,0.846508000906699,0.774313156140655,0.805642329586794,0.806056775207199,0.802329427628688,0.885357002613124,1.40944720812598,1.4068775162331,1.40551140259331,1.4061348734576,1.39076999842615,1.22348799549595,1.10748952066995,1.10737405370521,1.10819721664729,1.22966776371149,1.22997774726195,1.20841382689652,1.21028894282317,1.20490108333089,1.23338593491863,1.2025100004077,1.07010998938253,1.01939819681051,0.977556523181756,1.02737132204574,1.13626,1.30038014265961,1.14388470556609,1.02478999999529,0.914466999612677,0.993781992470706,0.959253901876014,0.975203542765987,0.983721475348272,1.40632274683657,1.38225726375864,1.41045999037086,1.21523878934776,1.11711264575549,1.09798133057921,1.17929661074399,1.17466715099318,1.19931685513577,1.20226641263443,1.42236000206319,1.45162999794619,1.27186162059902,1.27132504875816,1.25433383326504,1.33514999982958,1.40000735737605,1.46503375428008,1.46876077724632,1.47076814285916,1.46492029246511,1.42975931872968,1.43272085818505,1.45442546412694,1.44912641940651,1.41749000178953,1.43867999742326,1.91299000000939,1.62055521472013,1.60886799559047,1.63221122755036,1.62347709426921,1.5849763249384,1.5166443737581,1.52725863764872,1.40625000301188,1.39097462829539,1.34452347131385,1.25659834053199,1.25717144958243,1.30836845120239,1.28872487709056,1.31032266260655,1.3053079641901,1.30904312962906,1.26395063979909,1.25058811094722,0.737524503986523,0.708847606760756,0.676154628834537,0.71302603651517,0.834406476479986,0.984566999723994,1.00762447647297,1.0465500002807,0.852310726883164,0.845972759734193,0.827660454074223,0.866265541619311,0.900625999768198,0.93818,1.02599000064976,0.734411148762319,0.734815136537286,0.73525439970992,0.737127551366907,0.724013870984411,0.914664999995304,1.2126265463449,1.21589697822016,1.21258752036725,1.12219999999996,0.93847214575302,0.953223703275263,0.964887299186858,0.932791997506122
0.490808453327993,0.489843885695533,0.527705703853638,0.556937865823424,0.556745909344876,0.556378072064377,0.690037953289477,0.71984982878368,0.562128202371754,0.530064919614116,0.499901946279707,0.474224319025614,0.471870416457443,0.62059320880556,0.621540696119994,0.656209331418319,0.671302914058841,0.687226040682938,0.522548189722663,0.520637336336312,0.515554052418071,0.544274971375455,0.581815237300625,0.633961196586174,0.742747732755644,0.801461574152279,0.804564527101358,0.586956990665,0.579132442413344,0.580131647073777,0.569287031120883,0.605052127114459,0.688999790274046,0.685837118851654,0.684289995007969,0.673956422092122,0.614411454562286,0.623728132640307,0.655766610764859,0.670486645403166,0.676944797293279,0.991376069143936,1.0155949820732,0.772929760940197,0.734349698060865,0.709648559787075,0.715282221739264,0.725539289096046,0.77114053833,0.804674505061343,0.80689583084751,0.794356632855731,0.711557535742638,0.704223683286457,0.72941206138045,0.746139075535811,0.804910945148215,0.885028157633506,1.06275095815276,1.06299967171356,1.06286053287189,0.82337979249593,0.796506544177532,0.807989141752097,0.809805870626278,0.846871561178985,0.904239558565562,0.969653354701665,1.40521946516907,1.40476491849266,1.40477420111371,1.36942396715509,1.22187998395883,1.11790167521843,1.11837159104266,1.14572810640316,1.22853228078733,1.22909655713443,1.22224935492141,1.21471137362088,1.21409614610087,1.21187728669652,1.17614870464962,1.04742619920683,1.02479239272126,1.02582938262749,1.02720618621697,1.09084414507135,1.11018931740845,1.11132932476825,1.07242943513578,0.958859988671469,0.957119712834453,0.957434281906077,0.969521408855379,0.982948868840094,1.36813176075006,1.36722755016121,1.36472442499394,1.18462607534024,1.12513736967075,1.1288248218111,1.16912506391091,1.18141510249283,1.19716046508063,1.2174852562369,1.28980234242353,1.35796575941465,1.32652071389766,1.29569893935789,1.2869991399219,1.35323658537388,1.40264266318082,1.46590950711084,1.46751339441298,1.46875308690465,1.45961065845002,1.436078910159,1.43935999774523,1.45809767297707,1.46015742939717,1.46115846994375,1.50431037990641,1.62077092695578,1.62046736457594,1.62267629474242,1.62639735578891,1.6247926437405,1.58654481701132,1.50854337753403,1.50537975558846,1.42383363188479,1.40297320566062,1.34010132202737,1.25510272142708,1.25617695759191,1.31201703405693,1.31374507398458,1.31264253358367,1.29959137843661,1.29579902812166,1.26129620543513,1.25311628050386,0.737631455619866,0.721758725185376,0.689372392296406,0.699655131983988,0.735630048189761,0.760936655050016,0.784818670036783,0.807370752276556,0.840617534255833,0.836488859606712,0.832301883599438,0.847134559698181,0.86811994162721,0.883551340835062,0.861963369823454,0.752539682137399,0.735184945700636,0.735918001295561,0.737427812160909,0.736970359279604,0.962273834835947,1.20985406270257,1.21116492232824,1.20998567476488,1.15401060586781,0.946479266689842,0.951294067166408,0.953135430592358,0.931232992445594
0.490146013400008,0.487672104082797,0.558255815961611,0.572723471919945,0.559143774098785,0.550511440639695,0.692631518650245,0.936537003782002,0.466740243276879,0.473307231753086,0.479643936871998,0.47793948471129,0.435068999073422,0.708158000009386,0.621960534948815,0.500342864054419,0.499158264969247,0.742784000182528,0.465726354377419,0.461360133981725,0.455310294487202,0.535928097662268,0.583885177422148,0.803934397064707,0.798613391404776,0.80019564611965,0.845674000560431,0.604262877155088,0.573213352145208,0.577971804975222,0.553549602080269,0.604894336344581,0.723024000704668,0.68460898024579,0.683264593584112,0.68360166722542,0.602713368381877,0.611675538490688,0.673161942996722,0.672826687640829,0.691273306125018,0.953159999697175,1.07843999915852,0.71227712475417,0.704205480662018,0.698306891567263,0.692021407181554,0.727346510005915,0.769978220859132,0.801012646893614,0.816723996865627,0.870399001009659,0.686529702071245,0.694958041793951,0.717056041380346,0.741473335928001,0.763529999382665,0.873642414464672,1.06157193691032,1.06234535408814,1.06179023324874,0.79707772687667,0.745036069464785,0.817644905033299,0.814356090812087,0.867198998028636,0.92005214804705,0.918602846769873,1.4256782718486,1.41937041660913,1.47519000001328,1.34787407755263,1.22027199549609,1.11142826502962,1.12002760011457,1.16568998481693,1.25061791997528,1.22965098198138,1.2272946504107,1.23078066096125,1.23417701490763,1.19112001081366,1.15785024599184,1.03338004538517,1.02419568284079,1.02553985916247,1.0283678434628,1.0741199763047,1.10721911408087,1.11019047544574,1.19827000000939,0.962120439136875,0.897907334713475,0.921952993373614,0.964590670922196,0.981280520766173,1.37065370842096,1.37061488398775,1.36402230583076,1.15491195683099,1.12054065359997,1.13124495853722,1.15901693968211,1.18889255966413,1.19539260202391,1.24030953632867,1.23995045574481,1.51609999866821,1.34345000049522,1.3056333642526,1.2602999989937,1.38509000050233,1.40530372084841,1.49096883083296,1.50208836896391,1.54325124690807,1.4536741972521,1.43370487847952,1.5352700000207,1.45838473218162,1.46394410899623,1.46473542449294,1.58571000000276,1.6232099323757,1.62076216129769,1.67845,1.74940091965832,1.68898833333568,1.58846515560494,1.50607849567838,1.50325051206587,1.44707999524997,1.41265146274001,1.33656175550727,1.25680810997415,1.25891406031534,1.36191451636693,1.37180548035727,1.35365000380947,1.2967286353256,1.29209350362839,1.25875157294536,1.25552276156282,0.737583343936015,0.731622066751416,0.685229120122992,0.66780342716568,0.698586998560534,0.697637401006309,0.75438401374309,0.699400999701507,0.844986177671207,0.817688001949137,0.795185000891774,0.821193065737392,0.847514999887248,0.919017000955462,0.83408294527532,0.769678990339679,0.727796406030067,0.695458998309628,0.739435489625654,0.735842738431764,1.21110389624533,1.20866919487554,1.28545000000939,1.20840953526377,1.2330799910594,0.926520005984607,0.942040827718941,0.994304001235317,0.929286483512703
0.48462246810655,0.481714245258933,0.557091959557198,0.565127504943573,0.562353581071794,0.563234448356796,0.701511386074564,0.956593996232077,0.826305000004693,0.475313337559944,0.437258481124962,0.439351212433691,0.531436,0.604058999736198,0.623700227958289,0.670956000277027,0.510539621657505,0.525499249309443,0.451874339833814,0.444626715018947,0.438055301815325,0.499646759452708,0.544827034214861,0.78375208277319,0.795434567477507,0.800956384241996,0.792064276510129,0.597292409725199,0.583804629333888,0.579132859638355,0.579729241082982,0.695972111943069,0.777954999651219,0.964691000009386,0.681344760148927,0.679115403810185,0.605111091113351,0.657151421079722,0.656154453502369,0.674448741233298,0.714261437660975,1.06593396572156,1.05004602937785,0.687026086482931,0.676981657389104,0.652631574629792,0.692025851888883,0.688114507223022,0.727040999614939,0.797626960043748,0.870970000272517,0.838112998997016,0.663774011275415,0.7064809360002,0.705958984173226,0.705068962416217,0.742273999218758,0.797178999973291,1.02361504216697,1.0328268009582,1.03029847175191,0.78794377494151,0.744929325252211,0.732288605549578,0.791934020391223,0.864343002617476,0.99889666832383,1.00097133113559,1.36620386600861,1.37284489536805,1.36930695378388,1.36440592831702,0.968086999995307,1.17396999992698,1.12408352328861,1.13474744099416,1.20554999984916,1.27320000174711,1.29531999910217,1.24970753163689,1.28388333117338,1.28445666955643,1.15291975549565,1.07070000135729,1.02271448119975,1.024951988414,1.04257585042945,1.0600067932927,1.05911323489982,1.09296655430293,1.11282999594107,0.970662564111762,0.898785472682668,0.899180199090863,0.957348104962371,0.94085228603846,1.10050000214898,1.10021999713662,1.34489999975976,1.12392523364501,1.08926000062557,1.05649999846015,1.2093228770222,1.18944603790624,1.19312662406238,1.21201999993268,1.51754000070009,1.48612000065048,1.40198000000469,1.32265469585403,1.31789444183248,1.30364637197274,1.42433999016097,1.49328116399134,1.52083947535249,1.54096592611823,1.54433124690958,1.41577833204732,1.41421166746616,1.44135292746066,1.48168102145053,1.46490582036743,1.50014000034726,1.58630000770021,1.60502210420145,1.83997000000939,1.75967908035107,1.68678166666901,1.59817395233703,1.49743569020436,1.45753999866523,1.41670468241558,1.40618730227096,1.26093504538137,1.25919153973195,1.26083889372836,1.29903864949333,1.29955934401426,1.28558476274677,1.2898300106716,1.29376067498273,1.2591936572954,1.23328032926989,0.758287998884048,0.746095581801603,0.670472888938317,0.669918567462942,0.701416601005647,0.78525009275118,0.791232995250144,0.890457838057242,0.70282024396439,0.714107127488417,0.776267214547737,0.773580339499659,0.770894414547589,0.846740306293324,0.836463521855753,0.836004545275291,0.723374311021657,0.677061576921531,0.753831643968375,0.777708001064994,0.787762996625529,0.919885410548024,1.1854031890662,1.18488426870147,1.04432999999531,0.898436000149419,0.871404146307049,0.824444569910745,1.22791999976203
0.45488666035977,0.454131183696233,0.54139983945712,0.546675172695475,0.561591086690573,0.581527376560007,0.653660192582057,0.653860585620601,0.651831392582887,0.475921887756204,0.443023350567535,0.441797953966225,0.584118301006137,0.58545150486945,0.626868950923583,0.750677259102983,0.452357332395212,0.4520586673644,0.400694003335977,0.415207124860262,0.398546000192489,0.498114679197054,0.534835671531008,0.526973034435984,0.590968454452631,0.798547983945231,0.763258998189275,0.598489222271008,0.542053741424567,0.543263172015491,0.542400211145283,0.706941888061624,0.754907999775968,0.644546538742833,0.644479212833198,0.621939959902593,0.659940366755909,0.65870491215698,0.657516766388763,0.675742318067541,0.719124563676368,0.763291999995307,1.04204847212603,0.66668391764946,0.665376216567256,0.666788402414237,0.674468053461454,0.716021000167707,0.784847000364044,0.79478720466193,0.942255666673706,0.692331747431004,0.694456904007214,0.661753971713065,0.687203396870679,0.705499833364209,0.757159000883072,0.826021894527432,1.12427000000939,1.03477429548543,1.0366866984576,0.790470498212089,0.785235001023369,0.762686394972726,0.766315143777307,0.769724573560598,1.02126000054527,1.19434000000469,1.38359159921014,1.37700997653526,1.38951823380066,0.868699420226328,0.88550860276429,0.904887000500617,0.983495665285123,1.15788644676018,1.15795354879958,1.19587138268089,1.2056607588146,1.22002086395414,1.21873781805291,1.22482643698201,1.07370999999531,1.01884917706448,1.01964218856958,1.0181938164831,1.06835034462155,1.18456000000421,1.08087870812631,1.07742025335332,1.07119658441901,1.01350999970087,0.94388999967481,0.994989012719413,0.99219822484235,0.989497012723298,1.1327500007097,1.2650161769237,1.09966000044109,1.08183405829178,1.03167887746317,1.0918613852575,1.22004711616648,1.0806945452175,1.1400709530622,1.14641195966136,1.35982027018784,1.35176973042108,1.33273999836813,1.32532071252209,1.32623979092155,1.23448000014806,1.36763,1.57462000063831,1.55024654566034,1.55048455785573,1.60384000023358,1.39269683310109,1.37883691456043,1.38708024468455,1.39560602333695,1.42552999533618,1.48293999942547,1.50297537522776,1.50031721803139,1.49674486691203,1.51551999224088,1.49614000369881,1.5305400007519,1.48295008174571,1.44326000202808,1.4280370787332,1.42181712280566,1.36912489203881,1.34002598659737,1.31741999365058,1.29836101889554,1.34988000050164,1.30921637039041,1.28211184489759,1.24318354308266,1.236407512297,1.25360647672865,1.16135999987166,0.759212701342051,0.735570631444304,0.734621738962385,0.744789943538024,0.752015938088881,0.795683007315205,0.885483259581919,0.723112986073666,0.705632083422264,0.691506558232042,0.732243246128211,0.732215486634476,0.775210960547153,0.8285576809475,0.882055000417238,0.71578231696936,0.685422451272001,0.674606522354495,0.745724394311663,0.80166200338816,0.888421565733548,1.18388426650066,1.18348452054204,1.19523473802978,0.770848794667477,0.814080284403288,0.836672759271408,0.827125669435104
0.41767507740176,0.457622154701726,0.459244491464592,0.50331000290147,0.560004600036458,0.566453614820757,0.61797592049149,0.654160877341369,0.447820906528364,0.475940300618772,0.476448231844632,0.466429353430238,0.525125000115016,0.589187194440575,0.630796268435154,0.735830249139521,0.735233492386466,0.495914997070633,0.429852336431306,0.429520364386948,0.428294736430591,0.487200317225778,0.543066707703088,0.53757958518756,0.538615894856839,0.476058999197643,0.811601000630046,0.570156911731503,0.590054082012742,0.545588708634683,0.542730614991943,0.599634100096904,0.793102000586892,0.646021084916144,0.644183926632594,0.608739041401479,0.608199546490413,0.63204903080539,0.695100449616386,0.677391412330157,0.679717981388794,0.955989000004693,1.03816153364419,0.691518241489797,0.663039062972279,0.627864763422754,0.628270036616955,0.745356994577206,0.744561803384725,0.792723415245111,0.940626333340373,0.690584333432844,0.646226752078008,0.668302059125642,0.664108745414461,0.644956009488184,0.78457600068866,0.812650837218922,0.922243705433515,0.978116599806998,1.03882108580086,1.01872999954992,0.746518994696979,0.689116999493288,0.725546099386787,0.730816487285887,0.746113000109076,1.08154,1.32807708232925,1.32577903720481,1.32554062773101,0.867774242535422,0.840517267226169,0.866744859870767,0.954379843811071,1.17110999769465,1.20515046483648,1.20963134847051,1.21908715496276,1.22023193817933,1.22051213404542,1.17663417919105,1.19273582126053,1.05097044551477,1.02145003793202,1.02462596496489,1.08081965658177,1.09483586617708,1.07112009195035,1.07383686058441,1.06878778080092,1.04018725043282,1.02074746011341,0.950909998913348,1.00632338070693,1.03675000083113,0.973492999644359,1.25471382309038,1.05463248422515,1.04538544381348,1.02276274283359,1.10288861668627,1.05052590382373,1.08834841199099,1.13232406277712,1.16122980155601,1.24067999252092,1.2965800008255,1.25659759543407,1.24756629425048,1.20306035613327,1.2266961599115,1.22349855750285,1.46126999946432,1.54986081976726,1.54811246563795,1.3300499994553,1.37946783524655,1.34425384931387,1.35664602669213,1.35698798356037,1.41299999702671,1.42359657706797,1.49277657060276,1.49199124672331,1.48914503350447,1.68284000000939,1.47610580926349,1.46549041099834,1.46163591497022,1.40713000419614,1.39414136722425,1.31787999973077,1.38325148387815,1.38291639632718,1.39833448448483,1.30566812258872,1.44083000013853,1.30880362555524,1.27487673852546,1.23298969711561,1.23719412864151,1.27458999411184,1.19198000057972,0.776888875536958,0.775442652622521,0.751156885205692,0.739894645724141,0.741418256829846,0.797846429104953,0.881571787197069,0.872691115187235,0.749413321406822,0.735221366269092,0.73115303834416,0.719569611224301,0.784158039209308,0.818763999875325,0.715954801400819,0.707376158384286,0.690512980612294,0.687921724573884,0.736253465297103,0.850496872000055,0.852257133652593,0.836079589170636,1.20155468662585,1.18085433022984,0.777182431979422,0.78067392631058,0.775998823135697,0.786731932922279
0.419322425606251,0.448595170913229,0.452877239473913,0.52788716244078,0.557354875480171,0.596477275346654,0.632044877419653,0.642513540779452,0.475161254816585,0.474871409866784,0.472337689992344,0.469473219836141,0.496726996880296,0.560749315793088,0.634394124729296,0.699925882181608,0.713092256793059,0.470153054708407,0.451950196877599,0.451764731198907,0.457126532058724,0.48014164867865,0.534393374830551,0.536173208218347,0.537597217057409,0.510172148754051,0.536244312642933,0.551970530381409,0.55022162451416,0.548867107051489,0.555858582644973,0.600454005445605,0.705217500901242,0.651402417558061,0.641866164395714,0.614343680260276,0.618099429359104,0.623401306790599,0.652333417906545,0.671374982742422,0.681936197540495,0.837401357188379,0.818501669688354,0.672809449289643,0.661317051973393,0.629655367799899,0.629699695715542,0.738686921713775,0.751296211254526,0.791144396185371,0.816843474166683,0.669393265667203,0.651381615818543,0.658111744567316,0.660180736022085,0.668320376628094,0.721685293153773,0.816024213072051,0.91598732958407,0.946486948731855,0.968829840161072,0.799853216398188,0.732390903879619,0.718510804225138,0.720807624375192,0.732713324953837,0.786562481951103,0.886920118407408,1.32773045541664,1.32637718464674,1.32649208529774,0.860768179369266,0.854657639407181,0.859947060184596,0.927756154850444,1.18796372019957,1.20196998243314,1.21200501037213,1.21998577101557,1.22068772776302,1.22080057726268,1.1637088240669,1.1373127756791,1.05494257009463,1.02100980714492,1.02201320449757,1.05965500906573,1.07828285419388,1.0746738529508,1.07300293862364,1.07134732627664,1.03258443720316,1.02724803118341,1.03810140510857,1.05132426172791,1.06170350571304,1.09223492869951,1.12326794563648,1.05394850032964,1.03978907842776,1.03237240964271,1.07359817324662,1.07107649659123,1.07959489306282,1.12362099819111,1.16508953115505,1.22705113933706,1.26625724308215,1.24775629929492,1.2450299947538,1.21023974156792,1.21384723618792,1.21717294811744,1.49730816758306,1.55030655876497,1.54988874215294,1.41384208931248,1.35848811182961,1.35200625552281,1.35517572119862,1.3565971074398,1.40264390973463,1.43713103066094,1.4934304112816,1.4929231948286,1.49079772192392,1.54464252394024,1.47243881333028,1.46909111760552,1.45779244194672,1.42501980066498,1.40419470312782,1.39339351094332,1.3828960538641,1.38321751278436,1.3997290501529,1.40187567321433,1.40286040972035,1.33886861513457,1.26681124404068,1.23497790690554,1.2373232502634,1.23891829878235,1.20817942287976,0.776709462167834,0.760122304090797,0.748095912289716,0.745938488014088,0.743186004335241,0.797872319009507,0.80342918036614,0.781335687187666,0.749075875604145,0.732993133701339,0.728731680254207,0.724442087990821,0.728375684831782,0.711371813111692,0.704996299395461,0.700772870225286,0.692600730387918,0.694398140646093,0.730129631887749,0.8413846890221,0.853008117561634,0.854368856713511,0.897202149760618,0.837340290125426,0.793714764169042,0.786489230102302,0.786716612986785,0.785815659763448
0.420925629539697,0.443085816422978,0.432218738703317,0.550961268924275,0.554175145206256,0.621232684153449,0.687318000547085,0.783851418549814,0.474085584074777,0.451986725282835,0.397507663942083,0.453375873275133,0.440258925046211,0.528073009165954,0.636847506495134,0.680350011568337,0.801912000004693,0.442484718261171,0.45259903573248,0.452056772123874,0.466972351272155,0.472899679145762,0.532608380990536,0.534325492342911,0.536475703898595,0.478137521793936,0.47948806122783,0.55405500510237,0.550652167666338,0.550230430719602,0.564008536054723,0.601201333843688,0.769791000009386,0.667221413974539,0.639583089825723,0.610966543435573,0.659252994621154,0.617154615363635,0.590176007358353,0.662598892860332,0.684440491149499,0.884828000519684,0.786942999485014,0.660423911988135,0.660543563621608,0.618761655320772,0.623213766258082,0.731966429560895,0.759843292878,0.789830604409374,0.869991000851882,0.650442999072223,0.620588999468872,0.656577427285292,0.658199902600931,0.681513745313138,0.654361259156492,0.819718684627266,0.909466743880231,0.924327112996502,1.01570999552208,0.752248999995307,0.672440001940188,0.715490293394901,0.718442193205585,0.734281437027625,0.822559000568509,0.854265000142229,1.33140411823284,1.32870441531794,1.33126012052958,0.828486999999359,0.77047700017534,0.825258912984637,0.903374986734022,1.27811000001194,1.19901642052888,1.22512281973633,1.25756246275734,1.2700499050624,1.3132147032731,1.12606999975095,1.09928999918639,1.0689826696032,1.02258358912628,1.02181317664458,1.02669268113802,1.08330853243054,1.11407999421126,1.09716385760332,1.08184991846379,1.01046489311412,1.00946311731929,1.06493133025056,1.07807071168358,1.07983999972624,1.15250265594349,1.2683429819636,1.05235185365274,1.03018554458385,0.975688495536713,1.07462981291934,1.06763588689874,1.07306810028177,1.11442688907752,1.16822451367645,1.21031000439061,1.39533000000939,1.22108371357182,1.23774430197129,1.16732213539995,1.17564785761376,1.20106000070352,1.5344228435393,1.55621039283843,1.69633000000939,1.56623595415661,1.35108194269326,1.35084143786146,1.3416077273645,1.2979700039175,1.38949619085146,1.4518638676959,1.59601000001652,1.49486354790137,1.48932857493613,1.60126000043,1.45916099655192,1.49478997955857,1.45336304576951,1.44723139108093,1.41279314382058,1.41215231851681,1.33981000005221,1.3846162820998,1.40404798234873,1.40401586814411,1.40487194806087,1.37908000009296,1.25960026809953,1.23128175708489,1.2487657598811,1.24036114423724,1.24729435035144,0.774688997365865,0.755775418601259,0.701593000155976,0.746651611941272,0.742636251725074,0.797433671532325,0.842334001188192,0.744579473707365,0.748810402730649,0.683505096724173,0.688753088734234,0.694933991516557,0.742751881680647,0.70041536264668,0.700347081060913,0.687155441536843,0.657420305767999,0.696231525980879,0.723073701344056,0.831695888974457,0.851458654147194,0.85495147058895,1.14790000000939,0.74369399945219,0.798192863097385,0.787345781651421,0.787084156227789,0.782682796557934
0.456069001193657,0.400271003857212,0.42008599598268,0.495469999755348,0.519407500619964,0.636221316222318,0.659700999533788,0.769318581165399,0.400376999325688,0.431385883630916,0.399030335007269,0.430983337969554,0.428788864641091,0.545726316073544,0.637998219848907,0.700594997614372,0.865864000009386,0.493483000009242,0.409893004171667,0.439302458770574,0.479834052068884,0.521712000010118,0.653338561270833,0.629662438453749,0.659469524894068,0.698266000284803,0.482498513951483,0.544830765595446,0.551661633125924,0.551356951686835,0.591466005063865,0.625774327357658,0.604478677382743,0.805301426768277,0.63793647745311,0.643702208791306,0.630204594905364,0.61502268309295,0.611900698640699,0.651303039846215,0.636369564281852,0.630104487320222,0.867179994826702,0.840519004889042,0.67092622843388,0.616155853180325,0.617072857511572,0.77917198422184,0.749745835216984,0.788716792500936,0.845963999702493,0.682085999934257,0.594965011931771,0.6208689948825,0.643159423277353,0.700431990606041,0.656030839061866,0.653650002937201,0.655158270942689,0.746437105636001,0.995407819634162,0.985874185232437,0.709171997942465,0.668850438963534,0.675028304356662,0.687154454166716,0.770291999751716,0.815185999350825,0.860209000172689,0.834531355604689,0.739770914347727,0.738726711546642,0.753425128062432,0.821360953786005,0.880878413645855,1.15358000000053,1.19970924293542,1.24927999962569,1.33719000010654,1.27887722732169,1.29908529237737,1.17421999997004,1.13690000100251,1.02918822076235,1.02640307665982,1.02880265596871,1.02909580688273,1.11242999529246,1.13552000111287,1.11166238605093,1.10169998825773,1.00126248201465,1.00096209705254,1.09347076077723,1.08624244427785,1.13362999980634,1.1377473436323,1.26631702300336,0.995971899022204,1.00391495382535,0.974286503221915,1.07265599324797,1.03634226685168,1.09458456565194,1.10595729982544,1.11522845779111,1.42973999938071,1.28262000027973,1.14345999999061,1.24472018024739,1.30912999922243,1.15887559992522,1.17457999945594,1.57084946403586,1.55801615056172,1.56203441142577,1.56456613945682,1.47151,1.34890749927409,1.33392459192598,1.32603000008725,1.39092181749906,1.3900719987883,1.49952013237422,1.49755870082904,1.50962823425434,1.53697165701294,1.5628783431004,1.449769999897,1.41240230650619,1.34854710864021,1.43946634200658,1.3996628980722,1.33788999792108,1.38649093152271,1.41546378339957,1.32815999936652,1.37990306315823,1.23633512624072,1.25299277820684,1.23443876756176,1.22686759843632,1.21355000252985,0.766281483509703,0.771063347558098,0.775561982912191,0.681323612994435,0.762241267232858,0.804775316325365,0.799457657785931,0.80843599798844,0.781781421419974,0.687422228617971,0.681164199285618,0.662130087172186,0.624381224457902,0.626670431918233,0.666729996355437,0.669551555241165,0.676720696853124,0.659095839031828,0.69748301951499,0.694562994832292,0.860409633855876,0.850774055030725,0.851278020094989,0.797092998545834,0.839489811300978,0.752308998641013,0.775646850734949,0.800057418181021,0.807370839523896
0.397813773390269,0.374976253484926,0.403044886626646,0.367988004745448,0.449828354068863,0.506342,0.626202999962775,0.813831000303559,0.521403999762416,0.484946271709843,0.449114362253722,0.46326344547946,0.454474358068828,0.553961182225791,0.638078327136469,0.733396663823423,0.719699963894945,0.723818371774163,0.436847751939406,0.434250344401081,0.432769983294368,0.579584192410674,0.556316807038834,0.740805854742524,0.753821781115407,0.756943419022402,0.483769898316342,0.498359262678583,0.52443328079543,0.53927304197125,0.607193354684061,0.63514713678219,0.750399999554137,0.815412573256713,0.631578940784688,0.602897161423478,0.579419850999182,0.56733131184085,0.65221216214913,0.656131243926688,0.698402000215358,0.642655445113503,0.642716285015792,0.887084000303027,0.680612087715861,0.688448926293761,0.646404988674236,0.624621010425093,0.787015678740455,0.787794390513153,0.822574999772071,0.659460001322709,0.62671599290816,0.583408250578076,0.598303257009981,0.598356344723374,0.700970000438387,0.787586000009386,0.668167789281542,0.715070494417603,0.663542469242981,0.674995532443015,0.674707924786182,0.638719992448196,0.670920184625921,0.677422297566766,0.858624093074379,0.850470426243513,1.11390000000939,0.805554313874292,0.756791339155737,0.742655827548819,0.732775089306203,0.810710132802227,0.862254469704793,0.904834,1.19843307973547,1.20785999678833,1.24673901412192,1.25473061853832,1.26202105121319,1.21276542553552,1.09900404298734,1.11508595531239,1.07957590881511,1.10971999101044,1.08817189232513,1.08564216503591,1.16245000072615,1.12937508796868,1.07814000821987,0.994572420820567,1.03690000090983,0.963242360226939,1.01604691777933,1.02449449903806,1.16178765354437,1.28806999505181,1.04327999998339,1.00720627545726,1.01485173716709,0.961944479630915,1.05439773444096,1.08908974676607,1.0901901385877,1.08804682744396,1.45380000063336,1.24978999904984,1.29610000111212,1.25255088879842,1.28659000120323,1.16265440853397,1.19633999781989,1.46826458998295,1.53124909306157,1.5624713280311,1.56405640039714,1.53698000066579,1.37044999337917,1.3245683745336,1.28766111597296,1.37159686905883,1.41240999744371,1.48295931585961,1.48588179625317,1.63198166667371,1.63098833334037,1.42386000036963,1.36955144247386,1.36542033911977,1.33737289031839,1.43673365368274,1.32340001098367,1.38830560287089,1.38742467807405,1.37759580936375,1.40303640854306,1.36476693619301,1.3466205893051,1.26475346264765,1.23228308765234,1.22050169625911,1.15730042986874,0.83239600058008,0.756412962459706,0.726564000000543,0.680239380345194,0.736805083070269,0.736327922190477,0.760478533793827,0.762328375077777,0.781188663457106,0.685437082358432,0.642817573582711,0.645209069761184,0.646558378357116,0.627969843538528,0.663334470620774,0.686119752132067,0.681455672878297,0.663013759826395,0.719313996016618,0.77207700000409,0.849869183017729,0.846349791219552,0.835788256084977,0.854390371128272,0.849562813675625,0.743999481746556,0.743698992981354,0.743183918642858,0.743589508701625
0.414794690140566,0.399288890299902,0.390001353255947,0.399260481911093,0.396259051153291,0.391445232545851,0.344326999717563,0.559220820114032,0.557331933659223,0.522895209456695,0.512219553089023,0.411462998916922,0.450131835912268,0.545183492278688,0.637102010476407,0.631218079997354,0.708177562803147,0.702124438871533,0.417076043023841,0.433626804730279,0.441801658721374,0.514265000400691,0.603456000555185,0.772762000988791,0.76703013359227,0.769121863329616,0.465508341583632,0.5008245992315,0.534629836898555,0.534856009916358,0.607956641215287,0.635457858250888,0.772610767285169,0.839620000384174,0.627774701397961,0.604947235055137,0.573486848363872,0.597861579161262,0.667302914396729,0.670350776776394,0.715168998870144,1.02225406047907,1.00833594011722,0.678879746786933,0.679400136966936,0.665165712464085,0.6683443778672,0.66932082594806,0.637106002504493,0.649278232455293,0.649063234095532,0.641446998578834,0.576373506752617,0.575419269274763,0.597513803902039,0.625411216018414,0.648149991168172,0.662587897671499,0.670473525804076,0.744779454052786,0.991344000009386,0.676619719395813,0.674007181190958,0.621066006381853,0.663257004362319,0.677180214699571,0.7633699976872,0.84431448119844,0.76197367642658,0.770827532989035,0.776856328763597,0.711696000677806,0.692850665295628,0.860634371988442,0.852428919053527,0.846061716920688,1.24130838637421,1.24444481446243,1.22065367513931,1.22175027647957,1.21596193526506,1.21738699043635,1.08114000154935,1.0259000058777,1.04681997382538,1.05602474459994,1.06094754846484,1.10110595630861,1.23532000065413,1.15906271893607,1.1432800003131,1.05067738339388,1.05853750234343,0.953753639018614,1.00878736997012,1.02858514231229,1.17514234708288,1.23504000000469,1.07115000090177,0.993421358979379,0.965584945825708,0.95711038505792,0.987700561817661,1.09652213076538,1.09314728510396,1.09536200083182,1.27005000028318,1.2312265231652,1.09589807537,1.11009309075709,1.11077994289798,1.12388654678232,1.25583998567962,1.46973390609086,1.51532739380995,1.5552085584565,1.56244925548286,1.50575000921755,1.32366908957749,1.31373848108765,1.29050022679327,1.36954313424454,1.43650000104514,1.48395438410499,1.4824874181889,1.48013070414361,1.48479767225291,1.39799048854473,1.35824101205986,1.36205611835807,1.38910998450698,1.31980001400548,1.34532422511646,1.34846575809764,1.38824607089038,1.4439899933188,1.40836142154877,1.40146058559623,1.33842747416646,1.27275452806149,1.23045191086398,1.19635999985019,1.14995275792609,0.805724096308866,0.744107405753,0.676434645238455,0.66889187657732,0.673930969028142,0.761847662992579,0.759457961215473,0.755761934203082,0.768751565976169,0.631743713029467,0.631220184410614,0.630475604268188,0.605384004200683,0.655827179640587,0.732921001148761,0.702804565470717,0.683987918088237,0.66364026851133,0.663987034703235,0.714316115834442,0.710965888967567,0.793818302049995,0.806284424707101,0.952937000009386,0.714022325252977,0.683773493412171,0.709954025087861,0.710148696477518,0.752288063217914
0.383538645724901,0.385605522405233,0.390047829699454,0.392522340861873,0.394749735929901,0.401186830995331,0.448657114766683,0.557596212895938,0.557214847214582,0.530505892196125,0.51140556862031,0.462761172333674,0.474166715702421,0.527051998453339,0.64121403379092,0.660917792120346,0.678452902195244,0.48937083133494,0.424623098769265,0.432755578168557,0.439357801393057,0.494139429006055,0.537174410425642,0.688664216428387,0.689604653477751,0.535530708732065,0.479196662683269,0.489687123923512,0.510221080791944,0.530248774403842,0.576529624370777,0.676744944367323,0.781136352186358,0.792631158538462,0.626284305855879,0.607381859326262,0.607269918474241,0.603872866314353,0.633860833991241,0.671278043808982,0.690755144767168,0.962996711629997,0.981212062775303,0.679479402649722,0.678144896677634,0.666509764639125,0.667231515460944,0.667628730038463,0.656319109868656,0.650161334577416,0.649414534718977,0.623675351389691,0.582894515479327,0.591968330424024,0.595915799028267,0.608998710760442,0.63481078260798,0.671708102524322,0.72184461700109,0.775077460016932,0.806026639600804,0.732660017280351,0.664793361446382,0.646300294458041,0.65521618246402,0.663082266201837,0.749498000000164,0.792738273659034,0.761001750251048,0.747368082807901,0.739906869284903,0.710942828729376,0.709254792743529,0.76328036870462,0.795200788530784,0.824452008191148,1.21808605176798,1.23729953490459,1.22644790624976,1.22315057949608,1.22011627840037,1.18274686420622,1.11840291516533,1.03560214553371,1.04006029808129,1.0706453218321,1.08715626198975,1.13861639248902,1.19339124527718,1.17627950496535,1.15917763064219,1.0490839845297,1.04694098491549,0.983067461310787,1.00054053237685,1.0093411247302,1.05404212073392,1.0643698152995,1.03864612513137,0.988238878096494,0.963135722217084,0.96013968702999,0.988991745488955,1.0748019106137,1.09089393196783,1.10862938712811,1.23442592115451,1.23366409665411,1.09738607371957,1.10858634906677,1.16267887149969,1.19314087175897,1.25831994899696,1.46036649093108,1.50044618617232,1.55528001066535,1.55788475007945,1.52502577095814,1.31134711318067,1.306307644023,1.30179504448579,1.3482672118871,1.41022827065011,1.48343551865383,1.48282594214744,1.48232648925694,1.48327171590175,1.39652152926292,1.35792323246763,1.34720937549856,1.34288623291787,1.33719524703422,1.36655982550882,1.38545142548066,1.38985445728634,1.41479659937374,1.40546193978931,1.3677248312151,1.3365244442618,1.2788328911829,1.25997919033846,1.17136954347441,1.13943161858836,0.803250893277848,0.731242561472155,0.675198740633305,0.672974576476109,0.673631173207875,0.756404438428323,0.760892131247498,0.76319805152347,0.765972832187111,0.631292719042116,0.630822847477162,0.629728916885367,0.628786209648598,0.643407121289163,0.68875052919644,0.703524201640496,0.70423665576955,0.703057616950026,0.700707457509745,0.709411788666061,0.715096657090767,0.773331705950213,0.817808566951693,0.828832569411961,0.72062650479537,0.688453940722402,0.707847479631972,0.709240957065002,0.747939356338598
0.383171984759566,0.329428999335999,0.392550364533406,0.379994028606097,0.388178850667685,0.42066881589869,0.525144376266731,0.556703857060487,0.639464000872637,0.538104891982901,0.510947809769413,0.416456998881361,0.498818853888463,0.498449137917123,0.643507423047335,0.728727167623951,0.727303833611643,0.409761168031113,0.418046701614185,0.431473815975628,0.432262070500965,0.470695612607901,0.476104402874817,0.686570764405942,0.689242595035439,0.439033001553738,0.469663427978707,0.450648457853587,0.463870780823742,0.501030539025779,0.552647999750716,0.724876000004693,0.787886066324666,0.940263000009386,0.62605616232401,0.577526013667963,0.612259431132335,0.569431004896971,0.608766000575933,0.670079805934625,0.667499189187867,0.942882004684882,1.01127000029551,0.669151310153464,0.67445482249984,0.652775224710446,0.652024596769344,0.698596000474792,0.766056000312632,0.712228905914838,0.860452000009386,0.601296999567619,0.569306182981893,0.610992321153188,0.594163047635414,0.576946610542586,0.62474406825091,0.681960767075469,0.891883129254306,0.892789763350189,1.0413383333368,1.03773166667259,0.656849041767565,0.637346375838668,0.638695333609235,0.618503005835778,0.7356260023128,0.841603000453075,0.758861513047773,0.740663656950537,0.721474991689406,0.71074708929151,0.703421402813,0.700892129834224,0.76593654256988,0.77817800005566,1.19941000682452,1.25589998446147,1.23135558171835,1.22527537168076,1.22810737204574,1.16257500225943,1.16331499745101,1.0153034281316,1.03816838540326,1.08889839954375,1.10912744011392,1.18502000009066,1.24662999302469,1.21570858795182,1.24585000062631,1.04989308434477,1.04578700253015,0.930076999193519,0.99515453727713,0.997274221244101,1.04108908504289,1.08126540820292,1.02280000047678,0.984113489493897,0.958099826108212,0.957150048000468,0.990272144205041,1.05484521325732,1.08926912490034,1.12862060790994,1.23659641595074,1.23633187936524,1.06215999938072,1.10658636557409,1.20238000025653,1.23914000005607,1.26079998567948,1.4507603614366,1.4854785520615,1.58233433643793,1.57361566141424,1.53865802810222,1.29530107736166,1.29600819954003,1.29694632316572,1.31320999953168,1.379719999462,1.53695000105484,1.48307835567048,1.46841772647747,1.48253404141826,1.39494248854453,1.35628050636325,1.34567870836683,1.34048873368483,1.27586202740217,1.39154047254156,1.40242661098817,1.40000206051876,1.48847000001027,1.40248525698901,1.34295025879546,1.33515330518944,1.29538642579491,1.29794182357258,1.12724341616847,1.12807248158887,0.800786490320346,0.719372148712739,0.65072200043383,0.611593010012481,0.650893077049396,0.75210646845171,0.77451849540824,0.866822999922293,0.911318000091786,0.631025528441611,0.618013272776546,0.62885269549804,0.627947700174971,0.636121481453772,0.681645928027744,0.701540145505414,0.703990084114089,0.775622000009277,0.697952527845791,0.703451878515958,0.718631154336366,0.751097972794396,0.825855110336463,0.868341000767464,0.726276425712022,0.68144197574545,0.704716476803428,0.705951393413868,0.742192033603223
0.29390666516519,0.306573818342444,0.296287738690963,0.335746557409355,0.344795605004013,0.342223536203246,0.531861623733269,0.642060000286732,0.605112993370481,0.549310436397819,0.445471332960265,0.443516666939151,0.477433642777243,0.649537962388687,0.644450814629623,0.694756614652939,0.693613745707253,0.422231765641263,0.401136006570457,0.4289961499027,0.429360096948448,0.463488550803374,0.502384428089303,0.692523970587067,0.690697567926298,0.689881732407476,0.480588562163512,0.452037668575172,0.452466319018731,0.45676288242374,0.459707050056514,0.573259005291071,0.788435838041599,0.790040879150706,0.623988806735122,0.619144997384608,0.57010383690978,0.610393558897622,0.579455437511613,0.675050611491863,0.734880614991535,1.01170000000469,1.06415000016135,0.664808003058448,0.6759014015367,0.677423695451018,0.630826039069278,0.766178000008941,0.619276253498672,0.620461575551419,0.621277096002094,0.652457996684885,0.612808812159606,0.604445776313062,0.593020299492847,0.567733235173875,0.62479276727232,0.672861397290006,0.893808483891005,0.893200058140991,0.892636147168733,1.11904000000939,0.659462598824041,0.639639654860552,0.640399802395722,0.648598539011973,0.666739999451978,0.779401331786976,0.729447863351028,0.718267061675409,0.685146003372675,0.689078850725617,0.642929099123765,0.713962432983223,0.73975391333571,0.860530000004693,0.981390999785323,1.22833445561356,1.22235071190239,1.22156429290728,1.20570987760905,0.997980248788729,1.05701000093884,1.00879257192602,1.01524752456432,1.01849177647823,1.10576227300017,1.10928999683802,1.2296800078226,1.20826818079573,1.19165810297101,0.97333622244144,0.974710465416651,0.977620293246657,0.986328328621096,1.01240293094796,1.05632575761787,1.05539947683766,0.9455130033866,0.970820052498932,0.95049841636519,0.932611069694503,0.988542573442277,1.05678479007344,1.08833176741569,1.11529938405172,1.20950000010917,1.08515001091698,1.11502007925163,1.10503735663033,1.05596999886732,1.181,1.35015999973619,1.45106843961343,1.46950449515909,1.6197900004648,1.53612145305829,1.51748001309987,1.31473574355486,1.29705421028266,1.30028398695978,1.35689000054288,1.44623678307248,1.48605665155669,1.48397957987541,1.48324632841895,1.48779826743615,1.42306000030428,1.32082570920915,1.33719580729052,1.27852541023912,1.27862527943364,1.44508000009955,1.47914000062512,1.39744797206037,1.39527439400835,1.43469000107055,1.3363497375015,1.2910758528343,1.2908928628078,1.2854401922895,1.22367471199695,1.22506424188734,0.705556985067219,0.708126039760784,0.610083554014082,0.642065119841993,0.64141263478461,0.795214780352628,0.798027369021985,0.824866000669124,0.632104102456243,0.627393595842736,0.66174310160634,0.638626312465847,0.631096614432895,0.632716142116813,0.647113437625494,0.732211001294286,0.684412732058443,0.672865996507506,0.653818999293954,0.678068847525117,0.696853998817921,0.72652674508565,0.774301138487767,0.780237861516926,0.661151999073626,0.722142986352308,0.700252151516682,0.69566251741884,0.703563206146048
0.337325997697475,0.309477251928246,0.289629512198278,0.362974158984406,0.347073159076886,0.348774372401025,0.619400000004693,0.678223999881718,0.590497500904986,0.561433544550656,0.590103995844302,0.467473540180045,0.468877017932586,0.536310999999517,0.622580009706252,0.703115664421194,0.701736674195407,0.458178993936761,0.376433998759215,0.425694964590321,0.419332810775845,0.459435186751258,0.502698571536533,0.655565004135214,0.673553519978288,0.759404000009386,0.447571226143843,0.465728441376351,0.434835008739689,0.454623239029537,0.461068841562736,0.597793209270408,0.597199289007957,0.831908000712363,0.616635246982057,0.597749998076351,0.562279161780327,0.543670009145993,0.684095266005781,0.679259672795316,0.72221463579973,0.714302749213428,1.02227999985272,0.987162000004693,0.682123681460839,0.632586730427657,0.630470231772343,0.693809412050745,0.61939950783319,0.620413065623599,0.620957210455074,0.984141000758315,0.608582896286504,0.64339299429773,0.592703414026176,0.56023671015671,0.614736171278782,0.662854695812005,0.86415363898771,0.865921741298915,0.867620973565428,0.868469876244011,0.649403648040886,0.64523311207908,0.642256288131777,0.660657517584352,0.703961000728761,0.777846667840674,0.701739132758712,0.71019755170586,0.701626145794798,0.661173006301367,0.632541560557137,0.69175061254188,0.693854556801402,0.700634598485826,1.03694000021468,1.25598168358055,1.24685830859079,0.969049939875334,0.921444999995307,0.996930754145531,1.03618155793435,1.0117177636466,1.01150776344433,1.06392000041201,1.09460056556608,1.14302333224469,1.14079666864415,1.03515422020243,0.998024000095493,0.965995198786735,0.958081989358071,0.912318998895753,0.965268063583528,0.951911920175312,1.02412937712947,1.07425976335094,1.00471000017092,0.980488882653357,0.950026397644333,0.926105893216118,0.95010599975326,1.02706550283501,1.08774926028829,1.14141000010694,1.17731538888705,1.14699000041646,1.11183713306618,1.1043195840668,1.10500095889395,1.10446102776989,1.3878100002685,1.44353207452275,1.45773290231743,1.52138999953258,1.55182299260101,1.54746555162692,1.23618000810783,1.26954044597674,1.26932497373044,1.27631692188428,1.44419137487357,1.51078656112215,1.49308626891664,1.49462182244743,1.4925472757381,1.50749356316544,1.46893999999485,1.35713697687329,1.29050728290259,1.39283999702564,1.42267000051786,1.38402603897316,1.38770489739668,1.38297707933475,1.48808000000469,1.27083468599426,1.28677092997109,1.28822497658048,1.28576301922628,1.20864685948652,1.22655829575982,1.07503854375647,0.711862018182458,0.624178635087416,0.607247810617235,0.64012815772636,0.803072803862022,0.800601560465605,0.804889046885704,0.651464515237141,0.639984402093895,0.658881931140873,0.647753693987481,0.615349528849934,0.704208411543008,0.644240666441948,0.642746279473244,0.642163211925724,0.641351134657859,0.639801911916577,0.694739152756901,0.663515685725446,0.652812031122997,0.648955978138133,0.647143943471434,0.732224000179017,0.663058085082168,0.687112124561069,0.687317390481131,0.698839782212857
0.30741434469923,0.305363575087243,0.262304482499814,0.328749004809672,0.338362054906035,0.355181097363552,0.359848691322904,0.721188000132361,0.591238507641087,0.542492407001624,0.491871997701546,0.431731002324562,0.462397275087823,0.48225199971112,0.611002592649858,0.695154300712038,0.660410581174777,0.434793097795042,0.428648589834218,0.428009843774974,0.428494167497634,0.467171740963118,0.609243143830319,0.612143000853026,0.672833399231339,0.704092000094653,0.396854863988535,0.395028740902863,0.40426975763287,0.452798179093013,0.450728509291113,0.589703496425871,0.666605000004693,0.715859000004693,0.609559861137731,0.580871192211032,0.580283730369967,0.570344866104761,0.600943431542883,0.633478840722257,0.642465731962543,0.622467867553038,0.636306201561405,0.624925939731843,0.687778295197994,0.719302897525009,0.675870005861151,0.705070086493273,0.784792649029404,0.783056489004027,0.908245999712628,1.00297168583864,1.00345831335713,0.605481679465692,0.592428235902267,0.561995452640507,0.577573617014417,0.70414970520096,0.864504981080556,0.865550461859242,1.03587513275901,1.02160486725507,0.592393894836506,0.593066970694429,0.599090349810713,0.609390535072548,0.648651999355638,0.793961002051708,1.12758000000939,1.06100431302939,1.05720991040371,0.681923876921261,0.630563338864241,0.681626380608544,0.687981411685976,0.707415416814106,0.937898,1.21132000000573,0.891278301370151,0.889558611641718,0.8813416776182,1.02270999636222,1.04721844200659,0.998371686221161,1.00630320046834,1.1611200000092,1.08563976882906,1.21302000000939,1.11012999977323,1.00394424774209,0.968476000125033,0.9218117617518,0.897772524080658,0.977355724365199,0.978231080427974,0.977835833923637,1.03722592555965,1.07637778755214,1.0366899928527,0.994289552205778,0.991543021165368,0.927560041555071,1.0030599946607,1.03512449022612,1.08707432130271,1.18177120346059,1.18821194385543,1.0340406014288,0.973328999496806,1.03120258380467,1.04289145404856,1.13766000075962,1.13788000014117,1.22190999944742,1.22857718427634,1.23069828594646,1.23926555748945,1.24581212138334,1.26518466747781,1.26797164415465,1.30074927956033,1.29711408986508,1.44379773487599,1.49104789199412,1.49210194934056,1.49375106643016,1.50899395728261,1.4336075559451,1.37318781144858,1.37475481311243,1.38030768422366,1.37177859338572,1.35410688030592,1.54746000000939,1.40808052930526,1.40250245216857,1.55057000000939,1.35152000244961,1.29947908288967,1.28912085468869,1.28931042860248,1.2045510573877,1.20150016562352,1.0694414560851,0.716807110276146,0.581874748775905,0.590170982014823,0.670579982574516,0.637345867639928,0.659186486994511,0.656580654194598,0.650465034577753,0.707815920868107,0.654317510620094,0.664079909881226,0.683295864089763,0.704909195472749,0.69969710355881,0.642910535034459,0.642083995664211,0.640875647785978,0.685234220314207,0.666488307467141,0.650182197363638,0.651034250468983,0.65005911778325,0.753605000302035,0.699962774898256,0.649133916527716,0.686766989439696,0.687423833031594,0.698827166995643
0.304047593210818,0.287642865640905,0.276816883858996,0.307706972898291,0.332497579404,0.356601281630354,0.35706030630413,0.624501618498408,0.608997812715078,0.52280336062334,0.474640356496335,0.45074730151497,0.463346484765733,0.51597488117769,0.60082532852918,0.653225026346639,0.655645867654094,0.432715116470534,0.42900371272618,0.428468964821881,0.429440051015566,0.456491442328651,0.599250060896893,0.637154685153895,0.670876710247384,0.669641792407663,0.42676493398144,0.42038244089949,0.420425522651925,0.452400718756382,0.461566464767438,0.533285555715415,0.565187471050727,0.585344089565055,0.585590602194447,0.584572385849707,0.576380633731496,0.573151755280659,0.61029770869026,0.626912683646534,0.65774602131909,0.668496130577269,0.678132147376059,0.686836810050095,0.693147265211634,0.703057849850346,0.6927487896022,0.695933632573305,0.779052464974058,0.780582911231566,0.932060013784109,0.98072560654194,0.983397180147526,0.613887409537638,0.591231404349523,0.585380874533033,0.585159988908216,0.713557076782732,0.84825359821026,0.853135199028201,0.8944624094601,0.720416157008804,0.59482270869834,0.595514364463181,0.598428190712244,0.599076306999589,0.67584105468614,0.798587578734839,1.02817656448641,1.06232740790794,1.06084889568263,0.686663074943558,0.653074704909695,0.670007907610046,0.682813922306913,0.725760079626633,0.866994400052674,0.905006985094121,0.889504034116033,0.887486818733459,0.884416016209019,0.933644465605254,0.965075330857849,0.999557182833735,1.0021716849552,1.04752663113596,1.08033329233423,1.08042067676613,1.0045289535525,0.973150940312213,0.943100048652966,0.913012813921215,0.90647448941068,0.938378128037618,0.978910576574135,0.987915480754125,1.049206343812,1.06022355149096,1.01273639650699,0.996121183732884,0.994173886438005,0.968688686223242,0.977422751703971,1.01855822699846,1.08597737505788,1.18335674742416,1.18559374914789,1.01915299343512,1.01077865457734,1.02618847316637,1.03265554157043,1.0949370642644,1.18665616267715,1.22403386074503,1.22795247378295,1.23133888193284,1.23669964525275,1.24062719055493,1.2534535359977,1.25619422634247,1.30370154508189,1.31009755603571,1.43007214362173,1.49049390341322,1.49100257783087,1.49177168076834,1.48276286342511,1.43424820938896,1.39087498729443,1.37321027593752,1.36880042429829,1.36557662910288,1.36219792171431,1.41506548683112,1.40846396757815,1.40796213344903,1.39351972785756,1.36809152083238,1.30306154525622,1.27193832629483,1.26442869204759,1.21852272946895,1.20074399140105,1.10244485591851,0.722018303530072,0.603777755803628,0.601609303569714,0.636740951664382,0.639017400190351,0.661423059616622,0.662382172312131,0.674175535231949,0.688609892224385,0.663857646573675,0.664537293551785,0.688088318067137,0.690663175210772,0.691553729382423,0.688503499853966,0.688721204437303,0.687336269942678,0.684802110956869,0.660296092367264,0.651512390684836,0.651794051841989,0.651563733020123,0.679400532719282,0.691374416876757,0.684012103624484,0.685642263740344,0.687456797481547,0.692387326369319
0.303588766607492,0.282354526164152,0.241717998297563,0.282581013264381,0.327382275576687,0.357175718336036,0.354447499746532,0.638598001121564,0.665057597077203,0.502123316058868,0.428070438663747,0.426955122883092,0.463809399903842,0.534482000228733,0.595632976960045,0.652980259438068,0.694702000867633,0.429866464335287,0.41107796993343,0.418194663736929,0.430522890952045,0.448210949247255,0.587548147224124,0.669656372320623,0.669676047707571,0.667397123158186,0.442186989239206,0.418534112588958,0.418610015706519,0.450919970548073,0.476768835158034,0.497236000201945,0.534819000278336,0.585335509513019,0.585882575949375,0.587407564109105,0.574993405561481,0.568674675963181,0.618652912030262,0.621122771679424,0.684959999447744,0.684200001503591,0.930659156574518,0.923011961317484,0.737243916294904,0.733798228004736,0.687611600785901,0.677762116530087,0.776909617353564,0.779057513663932,0.975037374153454,0.97399263977703,0.99171066287091,0.62575860483982,0.589081288975927,0.584882426620391,0.58427393598452,0.721589379794679,0.831426008337242,0.845327884715777,0.978671000004693,0.672811999995307,0.595632932024903,0.576964503270582,0.591584878938514,0.585876422678091,0.692789602494537,0.803253431172715,1.00904564571981,1.06235875359712,1.06106531845652,0.690228751555843,0.628149833659683,0.627953164369275,0.678118708604015,0.742546002207052,0.835584000080013,0.920322063071205,0.884322398133026,0.885219455102861,0.88440247582876,0.868726725425965,0.90437659005977,1.00120974585082,1.00072665819188,0.908595999990614,1.08158840144436,1.08191307228736,0.911627359108089,0.914723589589782,0.887578830865837,0.868029834795867,0.869009164950123,0.894193999881792,0.978663746335154,1.01103999397412,1.09646999977983,1.20180000000939,0.999500177092558,0.998979702558604,1.00128086524768,0.932594998346318,0.956792999942744,1.00053000488666,1.08428227102572,1.23942999485059,1.26359153865242,0.996605300618039,0.997074103444341,1.01968915713534,1.02950438835003,1.0505200038114,1.23871000000235,1.41380179129928,1.42688556331339,1.50610153759613,1.52675846837166,1.2019811322485,1.19150600779116,1.25169456933061,1.38937000030875,1.32312553279711,1.41714360554678,1.56842268453004,1.51068016051386,1.50515176093421,1.45837000251723,1.4347835559464,1.40927999220974,1.37394422638937,1.35793000693533,1.28552999920023,1.34817999986087,1.43091715672769,1.42487849773379,1.52273000000939,0.0043092299569073,1.40955000053966,1.30603618129585,1.25805969981608,1.24810000484423,1.23505154832618,1.1997546888497,1.1295100001379,0.726043213864297,0.603522926644379,0.597641033071805,0.635816318066683,0.643920966923438,0.662441741004495,0.663242590128486,0.699182592532815,0.711899408772405,0.638540999845305,0.665984513007752,0.729458001446891,0.690267519054814,0.692724088059009,0.844743000009386,0.688829282787936,0.68734016201754,0.680962194303392,0.626077966731541,0.636723707215572,0.633441228972293,0.630876203300745,0.666952972407041,0.706699063577715,0.681634528865831,0.683983886050631,0.689186001009072,0.683235958244079
0.380293999686936,0.24970800491423,0.282750987559888,0.298803987173624,0.31717465845642,0.319279356408008,0.404562000283098,0.677280908784811,0.654467405719886,0.480402897812337,0.428305668010912,0.427729776685562,0.508979000363554,0.580006797443239,0.5900434603082,0.658208998227059,0.462499482631601,0.452207993528588,0.409026602623463,0.41251244854242,0.406990710190967,0.487424999964868,0.595849012985854,0.690407995141624,0.660305050100942,0.653287801109832,0.649914579491443,0.379979166241992,0.37900783280976,0.448322754278611,0.447424976985945,0.444113346997308,0.504206999206243,0.637225166048323,0.574582902311199,0.553994024544196,0.557229672695986,0.554202768979662,0.565196799157082,0.605561470789803,0.60957575156614,0.825331394716632,0.862926999891618,0.931814037309766,0.739615271677846,0.714924009240877,0.628461551657687,0.679422868875196,0.657992639482029,0.753215114421471,0.763925994903584,1.00954390200846,1.0042287139185,0.584913863884014,0.586780715803348,0.576674438564471,0.6148793216301,0.636218758664979,0.687011999995307,0.811916785379483,1.07772393661815,1.06745287783874,0.597680743874775,0.608875943619561,0.609018926729855,0.654255001054185,0.702185397341612,0.800996238050774,1.11922000000939,1.0615206701442,1.05876886160018,0.676382467333993,0.664213712335194,0.672597853728992,0.674212061664729,0.762867996224595,0.801965129701381,0.803210718036684,0.850248993794899,0.829077986093042,0.811819004825297,0.829698931378744,0.892261416932544,1.04536999475204,1.02360526010701,1.05438999999715,1.09231715303361,1.09799040790211,1.11977999917905,0.917026707804255,0.894947174694841,0.816939999484424,0.843247000737355,0.962949999144443,0.978236526959275,0.977641806181964,1.14633776438146,1.06245943312934,1.00172855610166,0.998068505718699,0.995670665421272,0.966377969440067,1.077830318243,1.07929576378401,1.08199037371685,1.22018000464257,1.2756684618732,1.06209049638091,1.00700823803288,1.00963221860781,1.06358000097352,1.077909992571,1.23703000000235,1.44173073103994,1.43493149899879,1.53046999405098,1.44658086119717,1.19697744137034,1.20019541897838,1.24044402032463,1.31688000219925,1.32626450969722,1.50294000062739,1.55495731641067,1.51413513287909,1.52410087565044,1.51652903555981,1.46151665475689,1.47050060495877,1.3748638249458,1.3164018899494,1.32662258746323,1.28421999924021,1.41596912270584,1.41807848320833,1.41674890414769,1.40453000316209,1.2808,1.21600000651829,1.23179333835748,1.14975999995799,1.23907501495264,1.22782342844107,1.2070799997273,0.727875433978795,0.625478993882924,0.61126763259594,0.679147141116216,0.675045937254643,0.680297986501747,0.686339440620206,0.766896785635536,0.760748214097518,0.707950000382559,0.669047389034106,0.665791994762833,0.645372829107019,0.644648516114719,0.673396745459058,0.680439359124685,0.728217001076288,0.663928734529806,0.663493649479941,0.633768685532319,0.633294485436713,0.674029000841296,0.702349805814728,0.966620000009386,0.633209998828254,0.677743982156595,0.682392658105376,0.683246456681834
0.407758667885672,0.307776730492787,0.252669302908781,0.261909702913079,0.314834317435215,0.321893858894775,0.321194726318801,0.662426087274443,0.425275642728194,0.451842888890235,0.449360478230684,0.456195562885524,0.449081402449599,0.445688630805165,0.484885072854476,0.466555378897341,0.463550141539823,0.412072176375261,0.415713491804836,0.42720381736355,0.438227584769804,0.520239847554994,0.548983926845076,0.627944574099914,0.628390834401109,0.625944954445325,0.577101999888514,0.55252000067737,0.444992659361876,0.44623671122141,0.447740382741482,0.508650993221683,0.548916000666457,0.639041834184031,0.568852264312721,0.541721321291598,0.522961002560447,0.581220995521692,0.548860787011953,0.604030469744251,0.617406597265051,0.816075605288061,0.925153798212941,0.92490467291857,0.74067307443562,0.620634717827973,0.630489084613779,0.676710126867798,0.723138007381647,0.727869582280449,0.722762477320705,1.02964315038338,1.00350738146555,0.625086024758798,0.599031097211549,0.546452237344877,0.609036679249038,0.64263360351466,0.777007550410031,0.775948014346712,0.774443392495488,1.05883120126497,0.599043714956641,0.571545998243523,0.608381193952517,0.625867200407925,0.729246509503002,0.756629999718923,0.984325211298272,0.984900006054405,0.981200410633467,0.669956656898919,0.645989000150114,0.604712011001669,0.665076867374681,0.673988975530811,0.832142053515348,0.80236255704287,0.810433230156802,0.806259545031781,0.802413030251875,0.83247206571077,0.907877992953378,0.953627978885793,0.99815073183949,1.13663000626496,1.11675691975127,1.1265985259706,1.13819455386762,0.918324703845921,0.918874141529804,0.772338999133808,0.814477942257904,0.985858711596359,0.989592690229113,1.05380999684813,1.13120223596254,1.05436056686128,1.21679000000939,0.984378888355128,0.957839002858479,0.983931027042355,1.03590000065997,0.981579999327034,1.05469366269483,1.08044999242356,1.05449858807821,1.05033092340329,1.0075406595759,1.00858914151561,1.00873265937262,1.05669253467289,1.14173,1.33383999935034,1.35379361271603,1.34006388499785,1.47274913880753,1.15690999942221,1.15726199965035,1.22056021816434,1.23075472135953,1.41355000002032,1.47911999933578,1.50934135493061,1.51015764734134,1.51050767277929,1.52730400180422,1.46187587191208,1.3841546147686,1.37520998222948,1.37506682187953,1.32753552265634,1.35661000065573,1.50618000000939,1.41953483090037,1.4185508763289,1.49539000000469,1.22245001013526,1.24786732661512,1.24974118175637,1.25072372130945,1.20612993743305,1.17792999882566,1.08568833333098,0.727783497354213,0.649247794818157,0.591280250117752,0.669572696140302,0.682998956436124,0.683495887419268,0.684564950203177,0.790418084482385,0.807617281744595,0.752837000638013,0.673616015564271,0.643807670484572,0.645027015764151,0.659592554982574,0.635889863888316,0.652623119947752,0.65270679797906,0.664100206066781,0.607925000583924,0.577026607351461,0.608406455739572,0.607221820156162,0.686872194699941,0.857156000004693,0.693575641345365,0.668489149555092,0.638989841246234,0.670136003744298
0.41077333298236,0.305547192350743,0.308947882198657,0.313410451828774,0.312736315296233,0.312754532881682,0.311471653835717,0.411095944230004,0.449731653856202,0.452530556340614,0.434409019923798,0.462700961542696,0.451219982862818,0.500853814753355,0.507990272647558,0.524681122248872,0.522838311607477,0.47178000482336,0.387433001252467,0.447707837230433,0.459050996783759,0.517590507688605,0.552992072760498,0.617814212486018,0.63091943504338,0.632053829841263,0.634017728534502,0.518402999814416,0.445121177851455,0.444167025174591,0.490017864862336,0.489752143413416,0.503679385999096,0.706101000009386,0.564015046340859,0.53540705350352,0.499287999142496,0.566811779534264,0.559240017681626,0.604787241372224,0.649908319413673,0.708218486825609,0.912121464182937,0.942427909940341,0.740871108574491,0.647029994012083,0.625391651704345,0.684841803245355,0.738064350803244,0.734774573074646,0.863066105058069,1.03257684819086,0.972165467286241,0.622134977641839,0.607943338126306,0.547348719650584,0.54708657069135,0.651978637719251,0.736586555406737,0.77022333453811,0.776783231428197,1.06301198430161,0.625770327055242,0.607484123109342,0.607070092689751,0.631614290862832,0.712385045046495,0.946741101152866,0.986815848956469,0.988111239224858,0.998597244758337,0.592829162642659,0.591649836350694,0.627890483125332,0.65222860505808,0.655533574911616,0.822206322895374,0.841375690031834,0.715986002016654,0.716694986121959,0.715332603132102,0.777336000285827,0.962474657932843,0.963097362823194,0.977932854811218,1.15293999143888,0.759251004986179,0.780655888527747,0.782935105984554,0.811522634515984,0.814498272251497,0.809825797471291,0.822120139907149,0.990478359004812,0.990964688119786,1.0333100037567,1.08195999996777,1.21017000011307,1.15060999989632,0.976231898031611,0.895422833325514,0.894666166637959,0.965475707540574,1.06647999612008,1.04116525693589,0.994978999078618,1.14434000011058,1.09532999841,0.98537422331405,0.99381639793337,0.98369207704901,1.04978317919968,1.05024723879572,1.38864257746313,1.36810278355099,1.44478000000925,1.35832,1.15827799965145,1.21593610995161,1.21492432320536,1.21282137644771,1.35867540277654,1.43805000043414,1.48560388918628,1.49480006557277,1.5024567598649,1.48429395829807,1.4648668690973,1.39910338992243,1.36308542370435,1.29483376922811,1.29043674447652,1.29471949095752,1.19592861023536,1.19405579872409,1.1952076855041,1.55400000000939,1.3733801629365,1.36779932844828,1.30475410422639,1.30676565363054,1.19503441275241,1.20858132951947,1.08788166666432,0.727135732077115,0.65747919430093,0.603472841360195,0.642922137224207,0.688526890988167,0.694711587066387,0.704278548638774,0.804328801997262,0.807130217771913,0.720992272905445,0.678963652224414,0.662289999315932,0.621825110838229,0.635271194780958,0.652989888801477,0.651647515028041,0.644270421969348,0.611461540497353,0.547853999178397,0.59220760118103,0.609735919087102,0.640605443895324,0.586509998988846,0.693139641347094,0.691295709914732,0.660074458956305,0.632623953998986,0.642664317800317
0.372259550340546,0.345558160513268,0.309811787585768,0.310860398662002,0.310498435511435,0.311385495460541,0.355314093507518,0.418183035712796,0.45300837963282,0.454681347183776,0.456726000815778,0.457372551364729,0.46115315590534,0.50771541751276,0.509593257235568,0.517306905877742,0.520580675361009,0.49211411379086,0.492050382604905,0.491186148995097,0.490671506703539,0.504068171317624,0.580635790242009,0.621837037144475,0.631239492835607,0.63146099052734,0.629990742955867,0.540624362479575,0.442799905483214,0.442375285680752,0.467506533474478,0.476978458287378,0.500700613143963,0.608795924844712,0.558955935269119,0.531564851664596,0.528771698364659,0.560315650829825,0.579819494436365,0.606088655782712,0.657406996649217,0.701296255924608,0.899058391452695,0.902087347371291,0.741087239006214,0.699402856935364,0.688532395188515,0.686333347482155,0.730705819320276,0.731755711041382,0.863850015862368,0.986210350658779,0.973155109158633,0.637876404020048,0.615004568072619,0.549862832915098,0.548930506381056,0.686485764188673,0.736371091235383,0.766393653350627,0.76948102882178,0.667892090249671,0.614945716539491,0.605982957040266,0.605663183787668,0.616750905119858,0.714833608158028,0.946845256931934,0.970680988421782,0.992065655950384,0.996013090828949,0.666116442812174,0.615779005014373,0.63538298401057,0.649223361606982,0.657467105283288,0.830534294778042,0.835654620766227,0.717577226592024,0.717717876928324,0.717254811764638,0.754148647961971,0.788111718923302,0.927969497563781,0.913418720770018,0.83832865828909,0.80247056188377,0.803176827705628,0.804920974128788,0.808901301965983,0.811038538412972,0.810563679506121,0.824123327536328,0.953148137982826,0.973636702597381,1.01689457777623,1.06644271048829,1.05626442036612,1.01365230027587,0.96831232078289,0.947177687913575,0.946483388403742,0.979713102210029,1.01224327686581,1.02645106008539,1.04186611183327,1.05879851303532,1.07471494191678,1.03426372586796,1.033236172467,1.03238047084558,1.05441581822253,1.08875240022318,1.15088569538687,1.23562255439351,1.26420646200212,1.22846151508894,1.18504238636767,1.2006307638913,1.20350630472744,1.26052665491736,1.36503632630508,1.4196133587139,1.487646982386,1.48976360351615,1.48993834077718,1.47741424613852,1.44132499967654,1.39227160165757,1.35475914913097,1.31430136756856,1.270005255468,1.24612957183177,1.19359629155243,1.19110150813841,1.26729766777255,1.40714306005514,1.37070753544444,1.36989106787008,1.30328373101193,1.25747225741399,1.20108889608903,1.20427039126963,1.12757077723427,0.726756593927479,0.639871704854633,0.627060253495978,0.653230237425203,0.696563453283406,0.702127209755126,0.75163309181076,0.798126275037114,0.794445644326629,0.711877808001431,0.684229496959967,0.674770521288872,0.630220886734268,0.638037262488789,0.651532858575862,0.64997212584627,0.646470426662296,0.620459987857114,0.591744288913958,0.590567721397863,0.611442663031239,0.638340562325088,0.637619321507996,0.654852495694623,0.670191286018629,0.653891831862848,0.648625562422023,0.646578948095074
0.599639000009386,0.388552392093164,0.282505000458639,0.328439356426349,0.307018525960499,0.305311728795471,0.397690000614306,0.426057550316938,0.719813000613964,0.51724113036589,0.514035349920432,0.420779997362272,0.479160415932694,0.514487305541441,0.513043577075434,0.512715386235794,0.526431115478775,0.491054839542861,0.499778000824687,0.490718665031779,0.490266889736078,0.490933442825834,0.616123000390049,0.776935000009386,0.710846278366285,0.769456000162402,0.626513035297378,0.556043998517535,0.419957467847827,0.417101901600386,0.412896432666645,0.416976929656547,0.497620985999411,0.770122990013708,0.553139212155946,0.524507716628251,0.522958710888417,0.554742962502807,0.603824717002625,0.605916263423532,0.66415752995247,0.694786908673357,0.898204990346538,0.907578779288851,0.742148952341839,0.727083155870971,0.691296679162747,0.643605999592215,0.729851016924133,0.730736944107286,0.864720741510453,1.03558000035684,0.974284667284312,0.660663998138976,0.619492983481055,0.55134778528639,0.54982199321941,0.727496110760166,0.736352902888402,0.765022502984736,0.798585000485186,0.603970808086188,0.604617050138,0.598993606747951,0.604347464397555,0.61202764439805,0.71746101994293,0.946966141437008,0.947839697443338,0.993686166376094,1.036288332905,1.03596166727405,0.586451998635611,0.638297474900173,0.646654918118383,0.659256768661357,0.889730166673706,0.887530833340373,0.688975995107831,0.694437792708645,0.700244125695271,0.714634304218902,0.70129119880417,0.973511000554353,0.899320930453665,0.737969999334155,0.76226500041443,1.11690158054174,1.1195300084278,0.877867634751231,0.894086139235803,0.811096411218999,0.841383437493513,0.922735998193813,0.969339037681212,1.00092000080706,1.0783345302305,1.04321427706134,0.955476165461778,0.957285370592183,0.948495747995008,0.946448095077656,0.993826624238417,0.989672488968849,1.01227033942493,1.11697000000939,0.988676999990614,1.22901000000939,1.04332796938035,1.03238765355399,1.03025262549072,1.05982506819882,1.12960632155446,1.10503800565924,1.20941636940568,1.3825101815271,1.1929600002069,1.15419999962691,1.19265759944366,1.19986957938562,1.34692000000567,1.37114346307056,1.38530999958472,1.55234000014294,1.4898889056299,1.48972561234063,1.47508768130757,1.42240999976958,1.38643255523233,1.34769189412727,1.33043349085233,1.23258999120804,1.14695687544301,1.14686312184786,1.18645320998314,1.50275000018458,1.45348741837879,1.36905925212588,1.37117623925889,1.30243156072347,1.21003372219775,1.19884616618936,1.22925923221194,1.21893076501246,0.731849279128658,0.607861804045463,0.608160867914368,0.66237585510944,0.735292985509799,0.714795530044367,0.888504333340373,0.891533666673706,0.792934370302294,0.7048580730241,0.689136988451627,0.693955705124713,0.623442001216404,0.728547333342096,0.659970696461657,0.658841047968794,0.666359882289902,0.629514830813717,0.593241544969482,0.586322296503331,0.613720082986901,0.636536961571719,0.636429218340609,0.587214001583056,0.869953000009386,0.651720728593399,0.648719122446672,0.621412999866951
0.433878000376512,0.397853608274903,0.365527000004686,0.296157391502116,0.302971335818039,0.269144998831333,0.364495000133185,0.646265023875244,0.695020999400114,0.530094921808102,0.527457616399971,0.403245508433382,0.431924883708157,0.571310776433966,0.565615768932518,0.566940544462174,0.512447017221221,0.476622729795653,0.47476215334431,0.484982036354734,0.504647958882526,0.517808989991594,0.553661999999089,0.680138032580345,0.678927491390913,0.679621237038611,0.6278609372798,0.596389000301306,0.397852289534483,0.405928691178531,0.416288798654531,0.415271563819561,0.754548787161892,0.750606235685973,0.546348561801987,0.529689260903953,0.49168299969607,0.545843605076832,0.595081197134487,0.595401335776242,0.595805746412042,0.696467242444578,0.80872099980976,0.849324000185548,0.744449268977342,0.718621844562338,0.6320110005012,0.592469882173183,0.626301771473326,0.699238568789678,0.885809993877606,0.939479527643488,0.930000472207197,0.625192205126949,0.624076913666501,0.622736205123448,0.551184745945916,0.718454888810773,0.753242511960151,0.76196044569912,1.01445774656281,1.00268225345127,0.590311480367403,0.53560000705671,0.594360304011857,0.64712600248584,0.652104873450262,0.725361,0.988185622706346,0.992606674552425,0.987338965799477,0.656164000413982,0.627015826399379,0.623695271921187,0.643925662254658,0.660122559817376,0.707179996661932,0.738951000255133,0.691070335868821,0.684848841836052,0.656425999407625,0.681200008793528,0.719838921222236,0.808214995372863,0.886303313827858,1.14244999953519,1.17236000047776,1.10419309448921,1.10287439348603,0.866325983133364,0.85327600014187,0.82555737796753,0.838220628011868,0.920968000862499,0.957661637934855,0.959105460119311,1.05108554187856,1.04668942469446,1.00001000004308,0.957856460654965,0.957238509063401,0.954961812442678,0.960430001266655,1.01846974042622,1.00907297410749,0.998226330968428,1.22602000000939,0.991203107670649,1.00937851197228,0.99549654285747,0.984653604001497,1.02203000025932,1.05233999999531,1.11120567299408,1.18560637283527,1.37329981848697,1.12543938481102,1.12495852298546,1.19500955892268,1.19886763124042,1.2240300004278,1.33747999941754,1.46215998693175,1.43056328759728,1.45954330065086,1.46990547820112,1.52544000063538,1.40525172853873,1.34166403698408,1.34043108431957,1.33974550582782,1.21639000808182,1.09729999940077,1.12979000306482,1.18401095184995,1.41868612662045,1.46817258179811,1.30324629481006,1.3031604145967,1.30221915640454,1.33425998795062,1.3141400019859,1.24585999984952,1.10896646449821,0.738441891618277,0.609863530422782,0.609913797506014,0.674719069825989,0.660248690186973,0.703486675358457,0.722491000364004,0.757111994132782,0.812832650004518,0.686984999571657,0.653209700522207,0.591674963871878,0.590487827842728,0.725700666674363,0.669639177217495,0.656525796488713,0.653738502015253,0.586142533935501,0.58616923835002,0.601692323115988,0.616332872128889,0.630620022979964,0.657890000731382,0.611638711222225,0.611202295157963,0.634951258965493,0.629990325553977,0.604752999259072
0.407764557193318,0.363125007144192,0.289135009198606,0.320300947020575,0.319996475191826,0.352741721402852,0.335949949569654,0.65141931847399,0.649427657660151,0.530720400671403,0.529226233174209,0.401498492659437,0.426573595789754,0.469511999995089,0.5603063014959,0.576490480405278,0.552372000274894,0.43758679809259,0.435798977609684,0.441505907588748,0.455393723700239,0.491893821486047,0.62489689518083,0.634603999026621,0.67485496390974,0.686931589655067,0.642645995337242,0.42939899299064,0.382550953614048,0.381069119266281,0.3804553218666,0.397404008866375,0.507189999230801,0.750899987161892,0.544683513305821,0.49497598887343,0.472239541299857,0.498467899640241,0.556752381185331,0.584301212226059,0.650191000802348,0.710098728772335,0.905558237473752,0.913926762909703,0.747873408461845,0.648471999995307,0.603985543051039,0.596375199803509,0.627234464713795,0.667596604036282,0.711144,1.02958000052445,1.00897666825244,0.963845772779871,0.638445881895431,0.568428051071843,0.564938401646286,0.66495301386552,0.661240986783994,0.730333683371689,0.952316718906485,0.898476999464281,0.608057835912696,0.556622185340864,0.579508526678237,0.584227827720063,0.656237124886959,0.561706480743379,0.961064646447885,0.999020395493202,1.00858509042209,0.632164830609018,0.589031715326344,0.625849453570008,0.640151396235259,0.66237965447956,0.727026000829183,1.01263000052041,0.693536273978768,0.681440103448549,0.632823998625442,0.700842042093425,0.72948183026853,0.788880004622444,0.880361471624478,0.908770396698004,1.08029855037053,1.09123253389134,1.09115097988465,0.856714756001935,0.832377997158355,0.798436990974791,0.839168335655439,0.960230410620286,0.958047260784387,0.984754991807211,1.056358313128,1.03018381959502,1.03471618765981,0.957468134956456,0.940222732261638,0.929994827333003,0.930652666408446,0.974627553164704,0.978523333137679,0.973052856989655,1.17806000001996,1.14689999998943,0.933464998871375,0.955304863391044,0.934129999699962,0.992423577622554,1.13698999976295,1.15091001141622,1.17291347691027,1.17121806905087,1.14143209045507,1.17689383407835,1.15473616814185,1.17477960081591,1.15342000564173,1.40551999997254,1.42379999964241,1.44599448022912,1.4544071496457,1.45321283756716,1.4060831004222,1.39947281306707,1.35026140875256,1.32244197274865,1.29369000008096,1.24870000070934,1.19469999552059,1.17527000483056,1.18306591541753,1.43983387304503,1.35047002464032,1.38222947878107,1.36850375605002,1.30096706373427,1.29855160357837,1.22262000000123,1.18159,1.1260221824767,0.750351756359906,0.708304000004692,0.58395178270351,0.684432313610464,0.6612490535851,0.685205395947253,0.662324008993513,0.744048786348558,0.771606000561375,0.64911000025139,0.624387918818809,0.596639208654438,0.535648556824535,0.548888976744201,0.656055761740725,0.647566286172145,0.631411371794921,0.577304229179467,0.577137263829272,0.625243129507419,0.618593394756507,0.608311777987501,0.677598997325966,0.762924000009282,0.639085844881974,0.637972707012864,0.638408049756685,0.587450295526142
0.397751202867971,0.386680825375771,0.384415407217233,0.272164998685922,0.319005093737921,0.334931840767466,0.355418290037601,0.602944000256414,0.558054735906726,0.512897552501748,0.476744690230936,0.486826753700383,0.427694521046615,0.54641566609966,0.555270716067646,0.618160000401994,0.475090998605368,0.437779404840749,0.435791149642003,0.434047460879284,0.422000049640206,0.505630610406531,0.625156857082299,0.671308975360678,0.669334576214927,0.669203478597093,0.697019994298559,0.412108007117118,0.380159234451393,0.380002622323229,0.378573184519466,0.414338992949465,0.541752915947671,0.537285020950275,0.538240785799604,0.47866845720311,0.475971529307822,0.514676055024414,0.569049618683606,0.579039948913494,0.621007999916915,0.71952968866887,0.756516237595907,0.886408999635316,0.751991108652181,0.754962331901175,0.549396010233453,0.595243976755379,0.619865749506723,0.616650900612863,0.612486037779069,1.08838000000939,1.01200333123249,0.970624795138996,0.651276284148813,0.584808005155405,0.606016091565406,0.639284141683317,0.640366360014371,0.706954020873591,0.942443221239803,0.951071060398817,0.539639005672497,0.565233883608603,0.579524567495452,0.57771165435887,0.553753357644105,0.552286478515741,0.969011435597902,1.00168808700845,1.00036593719849,0.634126778157169,0.591287195418268,0.615853271272118,0.635165752601478,0.648081761235873,0.699710002042006,0.984307999493668,0.686960292749202,0.677412713112507,0.659478042371388,0.699261939398565,0.735539144486164,0.864272824291574,0.874269596676853,0.91836051227016,1.11553048399707,1.1067211957836,1.10661065636863,0.849822097765353,0.815792795970687,0.781896006859131,0.830628367920931,0.901067790374327,0.938896799584625,0.93885816838663,1.00562000059693,0.959677464876741,0.953260587819291,0.954760646753611,0.952380573218143,0.884519002242728,0.949588960274447,0.993832537958061,0.988054052031797,0.982176199587404,1.02153431021513,1.02024693974323,0.97387978529096,0.973395095949366,0.975087057006179,0.995405975436231,1.0367358004801,1.17039372773525,1.17320900135305,1.13956156293232,1.08498741625899,1.0984333531504,1.20183569940273,1.19271383610435,1.20113254952235,1.25594999999512,1.4002046587166,1.43489924753887,1.45559906662587,1.46806107981273,1.40425235415589,1.34086670996832,1.32595035920463,1.31028107540824,1.26529952075969,1.11895912613563,1.11867099959272,1.11806251355775,1.16838274040329,1.39811000057088,1.37796998886212,1.34243224965096,1.36416450145375,1.29261187752008,1.27906000301741,1.22333999999877,0.725304999990614,1.12830488751761,0.76343710056902,0.649047235838653,0.590866351184181,0.59133186466679,0.694835890980422,0.700571343200455,0.708612236626903,0.751473210617531,0.638168999995307,0.606458487587019,0.592312817528443,0.565447491959819,0.537964465807958,0.583771952817624,0.599221328043886,0.601692985332312,0.601013185904567,0.563415317320399,0.591811403821703,0.622240887053511,0.620726104402332,0.640772666584457,0.655417878120429,0.712332000409825,0.619692313324019,0.616407612778165,0.547188008844439,0.563367996241388
0.32298574218779,0.332543858546552,0.325226259508696,0.311468502510707,0.317831042811138,0.324982362527259,0.335552280898916,0.571324777356949,0.555519593167211,0.50791885319351,0.485549459146777,0.476637669691822,0.468539987125424,0.502091224169857,0.522330328768432,0.558937601055172,0.45788139196044,0.436770890428307,0.434670959425651,0.43182485895774,0.425881495171318,0.49929920481419,0.620224493342946,0.6700281914575,0.668643599897503,0.668224551846405,0.667840133432495,0.459112691534023,0.400381113057147,0.410040789833773,0.41774586248041,0.424351376203787,0.541291213356581,0.539485555727249,0.538942895670248,0.478649552639753,0.47775539201862,0.515049454030539,0.540725594093126,0.575568787983981,0.599897883821045,0.673802146786975,0.75556933402193,0.754274844257045,0.753335675312824,0.753705434764756,0.572277886368809,0.585781372233508,0.59867785283352,0.603658647047798,0.6406561924006,0.708334415009549,0.966689280507419,0.967626484317944,0.66505108317763,0.607710600367757,0.608489384001063,0.639757224779357,0.640874576001148,0.686265940497281,0.701630137606752,0.599890745986865,0.548553311017751,0.555842857699209,0.580712240654505,0.579977227642253,0.562712784221059,0.613165667754285,0.962653952136658,1.00343981667606,1.0026514029874,0.620591532972477,0.601654155682164,0.608837374806599,0.630367672715091,0.682089270430339,0.736026054760619,0.767777165599379,0.694205424714429,0.66879430628139,0.663736571828046,0.683057182969107,0.713276553869305,0.77283450177276,0.83216969117251,0.912976611670107,1.098437447,1.10399333795936,1.1044233958037,0.843513205573021,0.818008105836996,0.820264564775112,0.828275099072037,0.904019056182237,0.938712389460575,0.938520249328435,0.954391572598162,0.956771620424449,0.955234907065107,0.937925311560964,0.932572866470092,0.911800414877114,0.94119650856349,0.99417843951321,0.993902763857148,0.995212484734365,1.01841191682827,1.01566298956706,0.97269792933627,0.971388024359803,0.978581740037973,0.998754104194731,1.04402830103624,1.17352641729648,1.17433711013222,1.15503502753199,1.11888288298072,1.10690469402372,1.18145099393676,1.18534155503671,1.20935496965373,1.30392924636904,1.40259213611329,1.44198687884935,1.45682980812859,1.45732324367218,1.38626075638354,1.34122232063874,1.31946642001404,1.29383121680002,1.26917843162513,1.13808283493113,1.1321347643176,1.12873893494824,1.15550802582297,1.17206327513766,1.20019182695047,1.12495031965016,1.12495183855113,1.12495200725786,1.12495072694533,1.14260189927638,1.13779324941797,1.12286002737804,0.783606748014111,0.656322271545215,0.596020588272354,0.60370065526893,0.675002434965363,0.710505279367809,0.716481930660047,0.732369321510235,0.685773147522494,0.591082023900188,0.58467393222769,0.56465682495882,0.552080701708928,0.592792790524593,0.602356526176308,0.603763457414643,0.592807526609837,0.591463765576062,0.592895411221472,0.611368522896339,0.612984847017205,0.632283059039625,0.643459670038231,0.676922716200494,0.651701324416735,0.612738972984136,0.586889140964914,0.57274504170796
0.279861999248918,0.349087234776294,0.320519196852863,0.301237790785235,0.317458002943296,0.318083512884977,0.317271304988428,0.592891998862634,0.553352997207505,0.502639839145732,0.493254845166444,0.403545335450154,0.456596341274602,0.477646794742244,0.50965915542908,0.639177000339054,0.400997004672798,0.429276896032012,0.426638335815674,0.425622959588077,0.423074869137837,0.494399645542942,0.615177612846894,0.671993167384173,0.669473440167118,0.669322786055214,0.669247578448137,0.498473501430628,0.391033776753489,0.414191473687218,0.436347141377932,0.43465541795706,0.542521466093823,0.540828977204689,0.539842954966143,0.446933009140152,0.46917398676337,0.515333119790921,0.515116753532829,0.563585027128933,0.567431878208536,0.626197999995307,0.755855094658775,0.753836865731672,0.753336582986376,0.752768713410069,0.498571037046331,0.525261000689421,0.568365638384039,0.599696080453228,0.662578125884633,0.658485135817798,0.967789091712613,0.980589012769592,0.679541544111276,0.603795429439502,0.563368643239251,0.6792229958494,0.642781151666052,0.673975084860038,0.735887000760568,0.535430657280217,0.538001283820441,0.533465057284786,0.581450033906289,0.595500996074482,0.518482999766723,0.749671,0.959072599362242,1.00420386022264,1.00441000093869,0.6098412528632,0.549510821795771,0.551882247575775,0.626862974226997,0.716001000837275,0.7709713939301,0.921024000004693,0.700396353467455,0.661545137576305,0.652619009286659,0.674348046046154,0.679877970398497,0.734466168871081,0.805926664167111,0.908043441467397,1.09568304022876,1.10470705186508,1.10438575436935,0.833574729173246,0.756265999130545,0.822503691736816,0.826012901735133,0.906870990376597,0.938510280716644,0.93773562806486,0.949961999948636,0.998930551175436,0.954822742340511,0.930262025010784,0.875699246877396,0.878823552727049,0.934185275669406,0.994564580311706,0.994146701266482,0.996386810106996,1.03951999670815,1.01319581220277,0.964760245320382,0.967682386809306,0.989138828625159,1.00204209617321,1.0511701376161,1.24217569432452,1.17401891846456,1.17056412365904,1.13713035968413,1.08401000003761,1.17444170124193,1.18151885159963,1.21915623506059,1.35797000012804,1.40486865871439,1.4471184397818,1.45744446848023,1.45775198478505,1.36630000129378,1.34146670997107,1.31356480832065,1.28217697577616,1.27347636967263,1.14772823756461,1.22397000012401,1.03730999948378,1.06863653201042,1.08448000030895,1.30606000000939,0.760547499992961,0.76108549999296,0.816623865632308,0.734940999990614,1.17505999416001,1.15656000521005,1.11233353401353,0.807724096558591,0.664391007348166,0.592721110585347,0.624163512401085,0.65452100556978,0.719998078929572,0.812953999504653,0.838144995682154,0.818840004367784,0.562469356263681,0.569340178325528,0.562943384037759,0.540426878042977,0.602351101539018,0.604774518213748,0.605522467252488,0.569359608037465,0.587478427908231,0.564422331893714,0.603809569513466,0.61139819336774,0.62489230344269,0.635855720371166,0.722920999857412,0.69415500003682,0.608708624093178,0.604387033077218,0.564124005172587
0.550788000009386,0.325545078030209,0.290941838514131,0.279134164954334,0.333981046881534,0.371208989713965,0.460104000764346,0.553435196135894,0.55332184485033,0.495412741956324,0.410471949650023,0.405705573846874,0.464824474791046,0.466112641871781,0.493728074901411,0.604011999675025,0.456557832608502,0.429632057618055,0.382824008651244,0.403343893835864,0.380694003209554,0.412987420063476,0.411560819132687,0.590538168824061,0.590572443171551,0.590623533886697,0.538731999995307,0.501447498926971,0.420517574931097,0.418989010816456,0.417239341003153,0.503355999574922,0.549135831128293,0.698302039064196,0.550109568051538,0.486981001589523,0.451051018679976,0.452581784634184,0.500045000024234,0.561731366865613,0.56327318252012,0.767249468172083,0.817422206647054,0.816868790803936,0.792076322180356,0.827005000684432,0.498289524576233,0.452964007214239,0.5572172304491,0.592668625614241,0.664398735817906,0.719678,0.944062991028159,0.922600052863635,0.693847162673734,0.590272539261309,0.56687853913022,0.614479420772452,0.652780507510672,0.668137677714376,0.51464100025945,0.494467313245782,0.493209158489074,0.573113458997456,0.581901056446653,0.601056002657623,0.676308000259468,0.820650000004693,0.956992400211219,1.00408214051736,1.05411666597856,1.05542333426369,0.550300041164742,0.580379075759272,0.62301467868608,0.686970999882449,0.761484606281704,0.970344999585706,0.666877999643366,0.658453924740524,0.594819999193998,0.662352008329524,0.677237977973676,0.73294683167799,0.780530564964304,0.864033,1.14699000000468,1.22863000000939,1.11121367399109,0.818696942217874,0.78930388086488,0.796694554482791,0.863132997075868,0.951876051691314,0.947770679027095,0.953120992758979,0.976358000423918,1.01276895909796,1.00132936722367,0.911634165967914,0.908465998712549,0.879123728794529,0.87979377476181,0.976243515014067,0.983475935851129,0.999380616178658,0.982885337335957,0.981705392007014,0.980604162026836,0.957923625958979,0.922856998396108,0.975958572254511,1.05347221926523,1.23232430646557,1.18166738880336,1.131509999426,1.10947069080638,1.05322999883148,1.12744762771992,1.14436986629788,1.15329836036084,1.31501999987665,1.48080999976225,1.5174000004969,1.47121184120423,1.48187228274044,1.46539000337167,1.37843000075228,1.35743000009492,1.25639681558957,1.23265999974981,1.17328457253918,1.06623584792382,0.787493999990614,0.850966287763861,0.78647147539205,0.774390524593871,1.35538000034717,1.21568500023036,1.21505790718345,1.20245018627804,1.20600475972656,1.18044999790049,1.14350340129106,0.835604042708107,0.71569500033134,0.707605000421518,0.607995371409866,0.75677599832774,0.729199032042735,0.915881000388863,0.875633915757724,0.83817166528839,0.586814749011585,0.574288277573814,0.580744928948723,0.579534858725053,0.60173676274198,0.607609722063751,0.606949694981811,0.578120528889046,0.571454465399215,0.592026325587134,0.560669003173256,0.585018514248342,0.613777221755995,0.610583784041238,0.756032000441325,0.535508999344968,0.568290463054428,0.541322480144409,0.536237175168714
