0.99319756831955,1.01889941662018,1.05794236101291,1.15573489892893,1.18280394641306,1.21881999997869,1.1851308503536,1.14648992528102,1.13618158833312,1.07444999612079,1.13815709023941,1.18864000000189,1.24223776688565,1.39870857869628,1.29520805886466,1.29594094543986,1.210335782383,1.20902597683347,1.21968039381124,1.23417998439461,1.28312535605055,1.3004993955091,1.31074735698935,1.31739920833371,1.31125817819173,1.30924626884093,1.31895510452397,1.31420521916478,1.36435946926508,1.47813999997724,1.44160368851676,1.43237579176623,1.43079303259311,1.41775193286081,1.42497390491643,1.47672000101147,1.49031387614406,1.62123999996184,1.55121520324595,1.55061658977223,1.54889858829746,1.54963944526431,1.57339878029039,1.62740998176172,1.61051929150298,1.6150637983295,1.70189642204818,1.7726749967494,1.78162855159225,1.82330852998538,1.81975786459948,1.83151889200668,1.78129256416537,1.78311632882284,1.82698632145143,1.8387790824739,1.86214124211135,1.87963576354338,1.88801355069954,1.92544089608693,1.92712833325072,1.91452361714096,1.61133937933992,1.48604949189624,1.47794189601097,1.46940532541183,1.46924814396522,1.49905929671932,1.52239139874988,1.53601040073847,1.55610459881471,1.55750603681437,1.58203236000882,1.6304999999512,1.46775053979842,1.38011999700327,1.36439952703574,1.34491361400226,1.33851160787623,1.33148517711466,1.31424461017576,1.2605600370911,1.29498114795159,1.30505995728877,1.31521082853426,1.32596528616231,1.32650169662868,1.32021894293892,1.31396329646788,1.30163722379684,1.33727449104945,1.34466478899075,1.40265782672572,1.44066999913326,1.48078294672501,1.70823999996214,1.51500995609405,1.39617984823537,1.40191676421789,1.42153403498512,1.41626811482701,1.39468000276829,1.50636976735552,1.67287999996214,1.55658907431595,1.46510999649672,1.43172816632247,1.39952669107176,1.44936798791905,1.46305407561951,1.50102570812918,1.52691037580363,1.55110058643564,1.90976999996214,1.6726520212426,1.60501343120834,1.50844861642089,1.56236999996214,1.3319072011623,1.30604833326828,1.35210405289471,1.43130690736702,1.45039025767208,1.44736295486571,1.4849799908282,1.49956606498033,1.45934809706066,1.44525660194693,1.45877753720552,1.45979241750033,1.45658037653022,1.46921219809286,1.49410778439716,1.67104499997161,1.5894608931259,1.56859547243322,1.49608765189057,1.49486445227792,1.49368883977398,1.51473000270984,1.57560525930887,1.69044999996252,1.63227740919348,1.60516098249068,1.59179799209327,1.59494096871535,1.37245151736,1.34411497599391,1.3321624405527,1.31729196540803,1.31774652772765,1.44033999996214,1.33469825255776,1.2389565890299,1.25610957251573,1.27214098847084,1.25518742553214,1.2271100031938,1.31704658153588,1.31965660714828,1.32613872560974,1.37197999996063,1.20907286799054,1.13986089812361,1.17178992714739,1.17335922755952,1.17185381813526,1.16859023855432,1.16852287751784,1.13972000004078,1.1546601051328,1.12781000704353
0.993303786722362,1.01627994380086,1.05691754043361,1.14945624024134,1.17947530232832,1.17877872394433,1.18127898926328,1.16334662998451,1.13911364386333,1.13898650520264,1.14145305577126,1.20922874868173,1.24275588857044,1.31721421139899,1.293686080955,1.2638891797698,1.21137645040512,1.20907546052362,1.22061743144334,1.24900931306977,1.2844272670007,1.29420562356798,1.31185807477667,1.31321119938809,1.31187503829446,1.31073526885278,1.32175632829416,1.33949022715216,1.36361307540504,1.45292573663022,1.44698316968212,1.44194295416478,1.43626728134528,1.41946092823383,1.42255850525817,1.45538317804509,1.48511925850916,1.50534633087835,1.5520834108808,1.56633225763974,1.57281278714776,1.57400910621361,1.57318684316953,1.60290664885064,1.6091262180071,1.6505510424475,1.700961990569,1.78158181923976,1.78098267470758,1.80540077066945,1.80013733611699,1.7977172935849,1.78226512222274,1.78554330815747,1.82650679999666,1.83574058246131,1.86994011173721,1.88526322651226,1.89598851250717,1.90922487024657,1.91746032197816,1.91618716627603,1.609555069719,1.48156908648812,1.47373088452748,1.47038440675986,1.46991443643175,1.49904834507538,1.52258606815745,1.55153141851821,1.55562329411429,1.55609694668681,1.52927837750894,1.51557698242845,1.46676041737428,1.40866663383216,1.38500487701512,1.35261499958212,1.33778407599259,1.33357673963623,1.2965998575091,1.2787144579747,1.29021655548228,1.29635708933388,1.3096718785515,1.32644576341848,1.32596271973661,1.32361327642319,1.31082341427552,1.30742620833564,1.33084398630152,1.34193357603924,1.38777316122811,1.42881269702371,1.45380441316076,1.49829806527245,1.49920826107971,1.44109968634785,1.40685347997837,1.40854699319559,1.41125084185332,1.45491308829659,1.50373817007867,1.56331500184219,1.5571969617421,1.48673720456239,1.4306573664288,1.42495286199663,1.4455365917766,1.48533475410408,1.50353702448715,1.52928601966094,1.54442892087404,1.66662022241075,1.66874739270485,1.59517632829523,1.4731452429549,1.38457119705451,1.3292355074541,1.32809534963103,1.35045921345343,1.42075151632064,1.45399328647814,1.46659693975276,1.48369774539094,1.49573806936696,1.4572225862428,1.45066188349791,1.45396945061661,1.45545749516576,1.45581772006994,1.48917892062436,1.49714913355617,1.60629487571077,1.59643473682289,1.58890860199037,1.49687243055019,1.49529819975251,1.49430675839352,1.53856896259917,1.57466730551263,1.66392970502217,1.6454986856979,1.60582089828027,1.59118988410813,1.59319292461913,1.36869452433059,1.33200113972674,1.32675968934025,1.31655425400857,1.31601599477102,1.35717084373187,1.33866148275133,1.25729638763804,1.25707012981762,1.26172491975972,1.25481685301182,1.24054962604914,1.31364962541447,1.31691654990336,1.28988916589067,1.26512873615043,1.20554958911692,1.18562665330432,1.17075453898173,1.17128438490668,1.17045292669127,1.16890727831545,1.16686119585148,1.1617752307952,1.1564198806791,1.15417386501251
0.994734577657137,1.0130919925347,1.05646334177032,1.1428354904668,1.17731996345493,1.17560501194307,1.18298371793305,1.18406723152534,1.13902424585954,1.13932887052574,1.144825315684,1.24427256020285,1.24343364628942,1.37750999996168,1.29121565179516,1.22557454985341,1.2168314644895,1.18549000004478,1.22155351056814,1.26686999317952,1.28566351817551,1.2871110818801,1.32425724487244,1.35404200111102,1.32581075426628,1.29573000993575,1.32276387536909,1.36435013296023,1.3626923485754,1.46134367626963,1.45990826556662,1.45779304547489,1.45121826933625,1.41785875964712,1.42366142562386,1.42319144982954,1.47780378284195,1.47893314702875,1.55223146420726,1.58982714275905,1.58316272588862,1.60032994784843,1.57240620925353,1.57112664512965,1.60599971673705,1.75811623821712,1.75541728079782,1.78892606907263,1.7827742253324,1.80908736329719,1.79026901929804,1.74566727883454,1.78803217064148,1.79168918874991,1.82260379840668,1.83837236120884,1.87315058377859,1.8809730401363,1.89743097404968,1.90402521864011,1.91168591103064,1.90668076748899,1.60789868434239,1.43732195285906,1.43634184123169,1.41620999764297,1.46483440401949,1.49914733613896,1.52175267723948,1.55636234002344,1.55602719124916,1.60738999995854,1.51241889823775,1.49496000390605,1.46473845097159,1.42731000048641,1.40590339614833,1.3654499839003,1.33565073997205,1.33592578607346,1.27224152829024,1.21288000001848,1.24476838155306,1.25475999895815,1.30500655667439,1.43084999996214,1.35202001998477,1.37791000052755,1.30370009055942,1.27075134185676,1.32420573941074,1.33922582124349,1.37334639348308,1.41246000186844,1.4354807861084,1.49591393837242,1.49824685439614,1.52380999995828,1.40655323917936,1.38542002947495,1.40930736374424,1.49906536179654,1.50220336436821,1.61792999996041,1.55300677248783,1.5502023311091,1.42993852809582,1.41933177074792,1.44290048264859,1.50715499648658,1.50749205814048,1.53132182704692,1.53800303464675,1.66586612206819,1.66704085713542,1.58449607028823,1.47210126125799,1.33039532884202,1.32732226612625,1.29406104333102,1.34897653854893,1.40631004177196,1.45803365626353,1.47566400014089,1.48188001832353,1.53789999995874,1.45363259436978,1.43796523597177,1.44027580227577,1.44307505508081,1.45226961224007,1.51338611486094,1.51989184474218,1.62700571567132,1.62802734584394,1.66795999996214,1.49907957561588,1.49523301754282,1.49458299636163,1.54488999661884,1.5736354387114,1.68589999998107,1.64714946724359,1.6061012014714,1.59092332840594,1.59328599503158,1.3638097933553,1.32965587463027,1.32040293975625,1.31085156828384,1.31402008851797,1.37817999821923,1.34048347944442,1.25580307395939,1.25729977329592,1.28337991966972,1.25461178932453,1.22491000148145,1.30637982597293,1.46883999996214,1.26869977241127,1.24233000000173,1.20115673222484,1.19899752461993,1.17034212662553,1.17107175208507,1.17014375521933,1.2636065973115,1.27249171022068,1.42662999997916,1.3910275979002,1.37139000000207
0.996485954725328,0.994791474073118,1.05604065321118,1.17863937317049,1.17762669030409,1.20148988861739,1.18340601820465,1.18437122190776,1.1387161804764,1.13961168794724,1.14958145520206,1.22905501226866,1.23508198557818,1.20120000045448,1.28820159185409,1.28497657095259,1.24902448226644,1.22208125168111,1.22227450377583,1.22300124810988,1.29752610061254,1.31793000111417,1.33058385517618,1.34066248797839,1.33448085698318,1.3289401037203,1.32841266138129,1.32743095818873,1.35978403136049,1.35477123487022,1.46680698835481,1.47599780922533,1.45946423074687,1.41962417877446,1.42549362962609,1.46343431263888,1.46666794464127,1.45378095066815,1.5524899102978,1.58959018730271,1.57877802356212,1.57497403944888,1.573277142925,1.59191749860625,1.59934654074182,1.69359413519084,1.72464396585357,1.72727145057638,1.76551189103525,1.84350999996022,1.75618508344411,1.71928598488243,1.75927485212785,1.80357941777106,1.81983341233428,1.84366467787928,1.87073470928661,1.88379359314622,1.89613476603269,1.89753496082451,1.90598837088214,1.90643407829988,1.60693961279668,1.45016648355951,1.43556353932838,1.39610000242601,1.45237874281913,1.51675299291381,1.51969367617947,1.55724625387935,1.55781650166987,1.56041749045463,1.48636432483852,1.4578157670978,1.46104742319773,1.45808736735729,1.44661609144803,1.43789003972126,1.33296905164741,1.23403087545694,1.23329841823939,1.19144000001947,1.23362728169917,1.28449999819376,1.30079991370278,1.31959619533374,1.34278377707205,1.39508999487703,1.29438589766399,1.26975188193704,1.31562989063812,1.35421996111973,1.35977316298819,1.38768000000127,1.41361092168551,1.54355999996084,1.49141114660781,1.48049710492205,1.4060043852525,1.40450833028458,1.40678744786382,1.49960041720533,1.50117072150618,1.58012999998049,1.55012776638682,1.54732908552629,1.42995911089138,1.42657453400721,1.44026825975151,1.51729961353261,1.5122581235677,1.52112744663952,1.53323615356546,1.65840121159379,1.66561757514594,1.60878000641993,1.47053475957581,1.37264999997307,1.3239766684104,1.28548908360744,1.34792490102547,1.45397326210914,1.46135178898028,1.63466999996214,1.47962078612143,1.47662087153135,1.44949247288467,1.43775396564218,1.41628284962563,1.35069000004005,1.44931396299068,1.49551001742742,1.52431592218179,1.63796008361912,1.6317742880264,1.56459000002335,1.50215256391386,1.44343464569175,1.4914188189271,1.57241473230601,1.57286913555886,1.73703999996214,1.64921641243925,1.653159722887,1.59120154296894,1.59371159937295,1.35309788606656,1.29224520556355,1.29531789068887,1.29819145907133,1.3123085231081,1.42577999995996,1.34142700392006,1.31641999997913,1.25017283131986,1.24806559457881,1.25265731798559,1.37619999996214,1.29833276551569,1.21470000169525,1.24327297597542,1.19213049518944,1.19191775100497,1.14421046462168,1.14861216418379,1.13821796813544,1.16980547201219,1.2665534148097,1.280188734299,1.5252499968348,1.48090076965197,1.46467003466676
1.03505103958618,1.05634494828454,1.05534184629228,1.09038999999776,1.12578567031272,1.19909007859036,1.18431470565999,1.18674079624022,1.13743312895458,1.13232516324513,1.15369237724049,1.20130999999938,1.24181377701707,1.30995000083351,1.2959953985302,1.29222007782853,1.26188421035381,1.23713128121366,1.23832577492518,1.25733875760183,1.30232295674146,1.54202999996214,1.35579649046954,1.36576263623179,1.34266706498999,1.34419076326653,1.34579008090777,1.34950038676683,1.36249849031547,1.54927999996214,1.5050306773252,1.5123599925177,1.46903811375508,1.42959884662002,1.42738961918398,1.40584000407879,1.46995963504883,1.47860999753908,1.55251858688607,1.60475995985405,1.57102832447496,1.55491842620626,1.55961854184072,1.56456724268478,1.58014596074198,1.69607373105813,1.69648411731802,1.70541363406386,1.69530938758483,1.69361381050133,1.69364231468957,1.7031036245025,1.74308620116002,1.82035043859539,1.82007009111278,1.8452501093522,1.86392362914931,1.89268328032935,1.89109449994644,1.90604988285181,1.90417922421423,1.90574861361708,1.80063247176834,1.76876649782089,1.43467921542993,1.42987578734684,1.43816518744775,1.44292155499356,1.494021835437,1.56892346838612,1.57027639730748,1.5705200006274,1.46212483169093,1.4193000035856,1.43269267424608,1.50209999995783,1.45968875359786,1.50255999995713,1.33063838842182,1.31205999998027,1.23251545903003,1.15988001631528,1.21809075932348,1.21458884827745,1.29501388407474,1.31899861327364,1.30914994445005,1.24412000736172,1.268224558986,1.26948802834959,1.3049027601549,1.31727096301916,1.33088693852133,1.33238159262788,1.38721242842448,1.48514999998107,1.39981818988989,1.33107004107325,1.38211235358892,1.40211295324543,1.40520809655409,1.46972999855692,1.48617024792758,1.54720000000231,1.51715340352496,1.42881626668085,1.43112507058578,1.43483769546075,1.43769487016934,1.44696998031598,1.4937362591328,1.5220795630528,1.53028731805239,1.685069999955,1.66769861727621,1.66536701806435,1.46923669715379,1.31747810119317,1.32065168006491,1.29492987314672,1.34677907544347,1.350964107797,1.46220510934945,1.52053999834826,1.47863939670538,1.45359678372073,1.4460292208133,1.34662000844378,1.40072368230961,1.40185107971521,1.44542842129034,1.44198994935864,1.52632236953302,1.66826999995901,1.63554489572962,1.64363166048898,1.50679949731233,1.45763535434839,1.48055161272126,1.51993000000296,1.53989202869544,1.67949922769683,1.64146014774565,1.6355040322714,1.5911314899235,1.56744000870521,1.34228337390933,1.24994833263024,1.27805772099006,1.29346780610424,1.31125277578497,1.38119833320014,1.35110689131946,1.27812999999683,1.23936863185989,1.21832996158381,1.24038963938226,1.26650999994009,1.2941273009364,1.48911999200436,1.25792810836034,1.1944162110018,1.19252368610854,1.16840867252024,1.15206031172934,1.13873008413671,1.17121257717466,1.23649999999995,1.28885773353533,1.49859839430068,1.49074888866582,1.49574925911279
1.04255889127483,1.04080951375577,1.05336017182529,1.06130273088757,1.07080985258345,1.07128437464251,1.13153557635343,1.14515541786407,1.13608304561171,1.10863000743473,1.1585554403022,1.1663176342865,1.24871349913604,1.32810999579321,1.29844572016116,1.27713368206715,1.28108781418526,1.28724970509828,1.24039813579803,1.24377519662814,1.30618832285833,1.31350000124822,1.3479625106532,1.33570937642989,1.33992744995289,1.32649281995334,1.34591009984848,1.3451224583276,1.36531397065962,1.39317998400124,1.48688759799119,1.49000329216013,1.48727010124549,1.49897375276914,1.4459934277638,1.42341999599061,1.47292683289149,1.5475280793309,1.55173154943311,1.5596639370394,1.55964287831108,1.53180000597078,1.55207532484074,1.56090921918001,1.56973592504756,1.67127521065303,1.66188606521345,1.64324006744764,1.68400910243078,1.68540277925512,1.67625915657773,1.62070000537907,1.64517908275582,1.63430130591632,1.78058337242027,1.89051999995898,1.85805508523886,1.85419671615456,1.88739499633909,1.89048680456697,1.88793600752143,1.88786463764281,1.88099819684392,1.88332166663827,1.43312503442232,1.42771478987555,1.433163277687,1.45512471660301,1.47686717444067,1.60119336845576,1.60234962337159,1.61768717748966,1.44084399777382,1.38862142453195,1.41011317568072,1.42657999973683,1.44639962601091,1.47551999998191,1.32886237110662,1.25224997589145,1.23175471198682,1.17456998374623,1.22071625568202,1.22347044252146,1.28679019689846,1.35225999997871,1.30314093070073,1.26519315692564,1.2663857158425,1.25370774145333,1.29278318278814,1.32788706925821,1.32824320756921,1.32502585614401,1.3555639304592,1.3469949432377,1.34630372511177,1.34784817493024,1.34940021536748,1.35775281015623,1.39359683536941,1.45206851280034,1.4771966112781,1.62097999996052,1.5150687516242,1.46132999881388,1.41860478893886,1.39869000209711,1.41916566948385,1.4271224375425,1.47972977503608,1.52259410182228,1.52865025368542,1.58489000000087,1.61885271283934,1.63869000393143,1.46880713161102,1.34980999237746,1.33285669203026,1.33213054196602,1.3449365848081,1.35364302631564,1.4615449332343,1.49928000162969,1.47712612833053,1.44612619917464,1.4440366745495,1.36261001986964,1.40037856986749,1.3992483137469,1.4480830447884,1.4881999999769,1.52663519783821,1.54331000510759,1.57765576930102,1.58976997488742,1.51271328570823,1.4300633333802,1.45955184117864,1.45885040021599,1.51403718179542,1.68859077226531,1.6396074350577,1.62383669375385,1.59205401499634,1.59405653760655,1.33361823120735,1.24682167164666,1.25809584984651,1.24421000520266,1.3116342107986,1.38187166677999,1.36407443960294,1.25053999759139,1.23714152664576,1.21745003256371,1.22296902743207,1.23308019117938,1.29441806618813,1.47357000793885,1.27162659213396,1.19308254988355,1.19228028112243,1.17396129347429,1.15537863006012,1.13724196283153,1.17453281328909,1.19852999219823,1.29798348663469,1.53331999742657,1.48677272818789,1.39658000000007
1.04318125317279,1.03032305763174,1.05071908042181,1.04689449715625,1.06886211689246,1.06558919633667,1.11562703434007,1.12287276114162,1.13426006533465,1.13156037711251,1.17710885400336,1.25926786659551,1.26496527594753,1.28894217126563,1.29986361354439,1.30536993696973,1.29028254412362,1.20511000004299,1.23979906325713,1.23888209368659,1.310859575883,1.33542999920607,1.35217958702188,1.35549214900863,1.36622516012682,1.38019520645177,1.36095557709049,1.36109310452276,1.3694945495549,1.37651021976275,1.48523903594408,1.49980045647161,1.48481493105525,1.48293615917126,1.46824277650057,1.47235168549446,1.4742157472445,1.50010271633635,1.54720989970944,1.56248572030566,1.56023587638768,1.51153657898822,1.51359028749169,1.5067045747928,1.55487310240929,1.5587841373084,1.66046888032619,1.67193477108327,1.67647588770784,1.67404299796972,1.67227527919121,1.64826786680994,1.64930908728916,1.73124554103168,1.76476365394566,1.85993695841117,1.85603391448484,1.88712354663179,1.88546563455647,1.88565370623336,1.88625319667906,1.88938956340473,1.8810312288105,1.88260833330494,1.43096483797423,1.38894160620381,1.41385380106937,1.42890999839956,1.45533698381777,1.62020550710217,1.60462814111995,1.59575134373959,1.42038976569645,1.38960112252421,1.38460128439545,1.37914952796184,1.38206851507209,1.38522658715509,1.32768776074026,1.3283431951773,1.231124904294,1.22622370711505,1.22663408246367,1.23055436507472,1.27535970554711,1.46933000880931,1.29978849396149,1.28382999080777,1.26547823889905,1.26402168856396,1.28120573917773,1.4196599999618,1.3592658478172,1.3655930530319,1.36784533472142,1.3683465872257,1.34460100908756,1.33935385847196,1.34539882906219,1.38728999623449,1.3918340313474,1.46099149055399,1.46742869984559,1.58268999998062,1.51233534733619,1.38080422083858,1.38375994460539,1.35633657145942,1.41408808081608,1.42059466665047,1.46977599657198,1.52307142729246,1.52732447917236,1.56523000047428,1.61100067397741,1.73795999996214,1.46901322555705,1.36628999949585,1.33417300555965,1.31523007651691,1.34250783965932,1.36119268767763,1.46002670375305,1.57565999996214,1.47528966442139,1.44286462151614,1.44112155005803,1.37082997647003,1.40190510650971,1.43448209312306,1.44971336956,1.4490486060232,1.52835731353135,1.56194570504165,1.56416394366906,1.56271361469407,1.51887630408911,1.43255666669062,1.45997437845929,1.48738000547657,1.49759723033482,1.37190000003799,1.53876467123364,1.62051336907858,1.53724282691552,1.514060000003,1.3241560415029,1.28358538958236,1.27198064387898,1.28851996797046,1.31378024754031,1.51245999996214,1.40094566554363,1.52054999996214,1.22654848148637,1.20499295366483,1.21569226350695,1.25100993907259,1.29429593441654,1.31281310427624,1.28502948710815,1.25015000000005,1.20105149429421,1.13321166663764,1.15889165959507,1.18416426884579,1.17903200620079,1.31684245613632,1.31597667262996,1.51344000251095,1.48402404231943,1.25202000001893
1.05927507007354,1.0561066670239,1.05384489051362,1.05278535175386,1.06860541443261,1.06712787041467,1.10917595728802,1.09904732705027,1.13511285148518,1.13576329860928,1.18497955173323,1.2084668505645,1.26761272683215,1.31766004871092,1.3287581720514,1.34438993550874,1.29085130126216,1.26029767535674,1.24089634780352,1.24023025816518,1.31590888767848,1.41919748498134,1.40135117959955,1.37918797166986,1.37051796930636,1.36345159049475,1.36190979753541,1.35127501819001,1.38577890089679,1.43998000000199,1.48553174105489,1.47024999108249,1.48359882114671,1.46214029570529,1.46474092741519,1.42901998317256,1.47478094996797,1.50014062423793,1.53170968979225,1.52922659649701,1.55919643365574,1.55877792271636,1.51504807886035,1.50500285752665,1.55190692943059,1.63455007265167,1.65027087715628,1.66125736988749,1.6785963133991,1.71990765363793,1.70840270948455,1.65743471782741,1.65417267435638,1.65409875427262,1.68783212815814,1.73114673148771,1.76646381394451,1.88658545311685,1.88496713631677,1.88317977163669,1.88428119987241,1.88589942465162,1.50015488215878,1.45707999999791,1.42908366627866,1.3856680837297,1.37915800269243,1.35032000916227,1.42907177652742,1.62066364636039,1.60814665045147,1.60237216768217,1.39870818394597,1.34427775312048,1.34931558063045,1.35429854052575,1.36051505866641,1.33244439243059,1.32630840410612,1.31578814754719,1.23062168107665,1.20700000836983,1.22692046217814,1.24419601797561,1.26479043364209,1.4847899911339,1.29919549119616,1.21955000005613,1.24250239263864,1.25023858073511,1.27207947232635,1.35651264967669,1.35164550750701,1.34649320587201,1.36937219025924,1.36954205955479,1.34402769028906,1.33998919696393,1.34358328787051,1.36126999797393,1.36953492447268,1.37007674157573,1.45649559417966,1.56403999998314,1.50617304506944,1.39022113839603,1.38679731935378,1.35556285716905,1.40582936475976,1.41992286664965,1.45964478544895,1.46447000001911,1.5259834199287,1.5640299955983,1.60864072381791,1.6357499754718,1.4685109089144,1.38299000000375,1.33624805260689,1.33111666046293,1.3404154884534,1.33806326329953,1.45855915456066,1.46104757528799,1.47341846986319,1.47233124633708,1.43774226892816,1.38644244323082,1.40409292248242,1.44135792244002,1.45282627223253,1.45569630479822,1.52979233162503,1.61263999995856,1.56681043563287,1.57029782187317,1.52413001651379,1.45939814348352,1.4600101154303,1.59978999996214,1.50343386361144,1.51686643609069,1.53468925269671,1.35058570282047,1.33502967365053,1.2995507427234,1.31300303344158,1.25378207364097,1.26634188749345,1.26464593961479,1.31724075628841,1.42847999998107,1.39910926770667,1.2295099940266,1.21708933336786,1.19740705646132,1.21179582601998,1.2348982656975,1.29310312817703,1.30603686212251,1.2962343578258,1.28844392382343,1.20455474116817,1.13605833344306,1.1622438208577,1.17841403190916,1.17885303807942,1.31087657221027,1.31413394097785,1.4870348461183,1.48326619212064,1.48202401341712
1.06320519502201,1.03277000714741,1.08181801936755,1.12126996447087,1.1069663056923,1.09490003848553,1.13163720360533,1.15296681065876,1.15040006153039,1.14785480098454,1.19242565865392,1.22002315304354,1.26839109682718,1.34304548884419,1.33318966262529,1.3241803264545,1.29212976454976,1.20506000004219,1.24280211731191,1.27702999849406,1.32124091113818,1.42676251194346,1.40882576222865,1.3962300027341,1.37574674353889,1.385382012525,1.37225479586732,1.38088825950923,1.39509850284708,1.46905000222959,1.49092124831526,1.49788626834696,1.48605441041876,1.48140816437142,1.47421863817713,1.41439001689676,1.47526816557717,1.50806665945369,1.53467589890023,1.5897885067097,1.58848726828475,1.60303999372057,1.51742823131051,1.50203256974017,1.55025654618051,1.58781110793219,1.62870191728345,1.64113401641677,1.67933395727152,1.72699234632421,1.72095691341095,1.6923094530882,1.6805102220018,1.59724000583013,1.64205521235911,1.68575006637006,1.72463631164967,1.89118171880705,1.88566245860206,1.8849730136807,1.88412576912189,1.88775518958029,1.47673166072113,1.42902230963535,1.42841624757161,1.4503499603649,1.37547072190051,1.37200579007246,1.40492367073552,1.63038993652361,1.6120419641509,1.61523538750993,1.37747807975842,1.34360791355305,1.34629935799509,1.35703973398206,1.36615714537471,1.3733333503951,1.32497554205912,1.32494852258374,1.23009258089168,1.1659700000436,1.22709330956927,1.23125433541465,1.25582753860271,1.29378411195977,1.29523007795247,1.25555996598244,1.2383645076822,1.20881000308382,1.26577022402259,1.28492999999614,1.3251816007549,1.41045999995554,1.37336310761119,1.37129219893505,1.34404871334108,1.31222000654515,1.3323750525431,1.33917278255329,1.36841259672281,1.39556999399291,1.44427626648315,1.48007440891722,1.49621777964709,1.41011997446474,1.39702264531761,1.35404057145561,1.39521988435962,1.37767006683796,1.44934533094291,1.52171219694563,1.5240784345493,1.5464607361986,1.60543624503758,1.62408812589858,1.46667134452209,1.40730999997015,1.33826403601407,1.33370650804069,1.34114586069593,1.40925994640228,1.45530741859831,1.45288772431551,1.47280024980446,1.47191345532642,1.43589564474112,1.37190755211334,1.40653500324785,1.45166998745752,1.46740015402181,1.5159649553407,1.5310949990286,1.53626946557649,1.55523538115794,1.56840708737143,1.52772095101772,1.46042465931648,1.46035590621837,1.49031310162764,1.49732422145477,1.70653999635518,1.54270262563553,1.32222736200002,1.32687299634151,1.32380293953004,1.31879697553329,1.26961056442839,1.26829404377772,1.26854094772836,1.3212067134247,1.37534744742703,1.38995468345264,1.20641875458106,1.20640045974871,1.16462399947734,1.20543705248063,1.23461174666963,1.29101350618225,1.4416280655382,1.37178091331675,1.44147999996214,1.20848707824245,1.18864832738964,1.16479989551134,1.13535333285836,1.16810175574206,1.24786000000039,1.27730090352005,1.49628622333656,1.48152432108665,1.47529765271577
1.07071291080104,1.09202999723703,1.09413647583623,1.16634999451568,1.15050562478414,1.133200005793,1.16581440615739,1.20106999655217,1.18514688461833,1.16580833842066,1.19977856606117,1.23733774901793,1.2745305615544,1.34085507907392,1.3505948027185,1.36103405261848,1.29458183366954,1.24585964824245,1.24444482348834,1.23575373139795,1.32777494750448,1.46393999998071,1.44820951690551,1.43662049997252,1.36757874832427,1.36058657869458,1.36006411587665,1.36051450230941,1.39973132572656,1.54845999453798,1.52936168995996,1.53502462806116,1.48832240095642,1.47887610010178,1.47581494815104,1.46088998705679,1.47569757600142,1.53183115180642,1.53788752338282,1.59052601804934,1.58798586185812,1.63071002853476,1.52344170235775,1.52565272214647,1.54942454858894,1.6035988856531,1.6263569025559,1.6440456833259,1.67776476959594,1.77957000169844,1.74989651972023,1.79742999996214,1.6820069459591,1.68893213104603,1.46199976021475,1.39139501194822,1.39913331808638,1.40657046193489,1.44335286923168,1.44285761320202,1.46505115536918,1.45071003910519,1.47418642100562,1.39206002880175,1.41549088001887,1.36777966155671,1.35855538509873,1.31932000001986,1.38221778140365,1.43187000000014,1.4631503068875,1.62321931981382,1.35511390854649,1.3034123894757,1.33279300986148,1.38820693128843,1.37686496872879,1.40780999995658,1.32378054312952,1.32225594370939,1.22937863920353,1.20214000119303,1.22791462915061,1.23403963892514,1.23629163483161,1.23695499977417,1.29546485307433,1.34743002070565,1.23719353495282,1.23623635974247,1.24995755497628,1.26762999972599,1.30319205842495,1.37402657782303,1.37430985273502,1.41757999995816,1.34384591672466,1.34305055206326,1.32901195859367,1.30945226797101,1.36655240524231,1.36418895857712,1.4333755094107,1.56560999996136,1.51076899870904,1.56526999997161,1.43614848512804,1.40002676432261,1.39961244212954,1.4099393149219,1.4392096748914,1.50024000505476,1.50956709046248,1.5541692764743,1.60283993619384,1.63294189857281,1.46577940531065,1.34832119456552,1.34169745632485,1.31731002754139,1.34251629935458,1.39297005359626,1.46297738153897,1.52704454780712,1.52950171033536,1.63327999996214,1.43512133033265,1.39882393486633,1.40928644454852,1.50251588587033,1.49600460895174,1.51354506299463,1.5330741109591,1.53517700431938,1.54206520358862,1.53094004740422,1.52957301534621,1.46013645915626,1.44668413447418,1.4150017527366,1.47904624800814,1.68775000139866,1.54710597322139,1.70933999996214,1.41011350710669,1.45140999998067,1.35292059061403,1.45169999996214,1.26203562790426,1.25629494207942,1.32499962303731,1.3984293577721,1.39226226630694,1.46992999996214,1.20596548351482,1.1638400000817,1.17967640864533,1.1782898381251,1.28870822782318,1.43587193440502,1.34549462764021,1.23588000001933,1.21321669558446,1.19580166780932,1.16709717820979,1.13544667062235,1.16245920681837,1.1456500286511,1.15621638575291,1.14892955957223,1.22232016514643,1.37788999998107
1.07005646555233,1.02800000004247,1.10562288982325,1.26245998793859,1.26701669927292,1.29191999994436,1.2275901343579,1.22046814766392,1.19740581029562,1.16640166584583,1.20780201969012,1.2306757603993,1.28092174647232,1.38865997142487,1.38195103232744,1.39482999917919,1.29793435940789,1.29921173696367,1.30014554876262,1.34464357040516,1.34578685039159,1.49565999995943,1.45493238506471,1.46032244517594,1.31659419716794,1.22583000004085,1.33399213381602,1.38959920627483,1.40539683517215,1.52277752954537,1.52475338496426,1.52718602283317,1.49661359319648,1.50113728901339,1.47831708859484,1.44093001919358,1.4765370295251,1.54108537088376,1.54005690607335,1.5851187126137,1.5860581150028,1.64412997140571,1.52529810826947,1.51926309681088,1.54523324392944,1.58882187217432,1.62279746312136,1.65469649102073,1.67486725088146,1.80069999824478,1.7445771613854,1.71140137801929,1.55092915194261,1.48323002799389,1.43707672354214,1.3778474175568,1.38025244436328,1.38102502393408,1.44415793735898,1.89035999996214,1.48971803766419,1.38781000003786,1.48405624445768,1.91271999996214,1.43003032067624,1.34808753069885,1.34868521738889,1.27095000003791,1.36449608218694,1.40434999997857,1.37299812718419,1.32717867334489,1.31788691172241,1.30720907994343,1.31733014856326,1.32954016793341,1.32478637469302,1.23466000004051,1.26046967116419,1.25815300347444,1.22846021173596,1.2223863503213,1.2287761248506,1.23430350727106,1.23550073377293,1.29233006278975,1.29422191443391,1.36165997923756,1.22942347028847,1.20284158864874,1.234750938571,1.23297054648359,1.28028256821323,1.28591998881284,1.2976530664341,1.29213904991839,1.33435445630231,1.34405164007272,1.32502836155554,1.30735150263731,1.36655683325072,1.37608995603838,1.42408010762306,1.47360000028669,1.49064748720858,1.56838999997161,1.46563266225825,1.50409999995417,1.39953194139676,1.36481000004364,1.42882299025607,1.46778000000008,1.49643015359584,1.56962076106528,1.58879102026993,1.59120779509985,1.48736143850217,1.58870999996214,1.34652336227302,1.33670999837272,1.34726300036746,1.54929395311819,1.54437219537373,1.57310999996048,1.53259343451479,1.48958000448951,1.43488614807456,1.40608674547824,1.41201270637907,1.42014974285789,1.49203308796598,1.52929002888547,1.542199907735,1.55442581162964,1.5523766419504,1.5502609355258,1.5301529590762,1.43728075829943,1.4348292717576,1.42095631403544,1.45727765298521,1.67434000217044,1.41158049022832,1.31347000004923,1.38689957814703,1.60300999996214,1.3237511324513,1.22779765798063,1.22992987876686,1.2304874903713,1.32825458049061,1.36631765429053,1.36899692113275,1.20289229474149,1.205024603753,1.16181600106385,1.18146451514971,1.21565768903102,1.28661918555938,1.35821999997716,1.33924787591508,1.28013376285885,1.21863474965042,1.17202598505123,1.16951065060222,1.15081999968166,1.17040008058482,1.18958887482455,1.1666024768231,1.14120044250186,1.15816633664071,1.15872822771373
1.06910720119692,1.0674646685401,1.11771932330306,1.2036937289208,1.26938875791755,1.2779188419169,1.23309937171574,1.2222526993421,1.22330195013482,1.22434054845236,1.2257548825058,1.22704177929404,1.28752980186612,1.37960371025264,1.37451515971234,1.35873444365976,1.3002327498991,1.30112837410622,1.3012064232371,1.34576569141951,1.34536233400248,1.34385733754653,1.32234045689448,1.30755105314838,1.28705317796248,1.27002330891612,1.31065987735448,1.39503979516247,1.41122047338446,1.52135890783555,1.5218122518615,1.52058712126333,1.49133599161978,1.48960530595443,1.47946628877886,1.47937086504092,1.47801873268018,1.52814155539323,1.54028568131964,1.54108062184368,1.54129408381802,1.5415264038035,1.53009322995285,1.52843484817635,1.53589626188655,1.58664011597229,1.6165514519493,1.65111230598173,1.67236985907172,1.70043871109365,1.7004760789573,1.70713268543961,1.5491635612747,1.49797938415635,1.41787805257757,1.38002837171385,1.38105943569731,1.3816150543652,1.44518824158792,1.5799750559541,1.57953975049516,1.57892601810191,1.57842418586864,1.57816992358009,1.4382698778967,1.34936764130165,1.34932141477749,1.33753828735877,1.33320422086061,1.33194364326103,1.33109343547714,1.32952745039225,1.31497999267794,1.31214013472095,1.31669801139933,1.32024532891859,1.32264602130444,1.29379198842177,1.26213800930643,1.25939422552838,1.22743278413118,1.22741677210623,1.2290475756319,1.23383148645703,1.23520251153163,1.2622551096258,1.25413411055303,1.24569768230459,1.22528823242237,1.20851948824328,1.23303681867644,1.23208212142803,1.26690806608295,1.3028707652098,1.30349618940856,1.31988442612294,1.32793669472304,1.32674500880957,1.32451475914561,1.31118677970732,1.36622208762606,1.39512865931887,1.41460646504222,1.41990722956254,1.42785095053375,1.44130078116674,1.45370023913563,1.46693503136522,1.39972786029969,1.39922922439488,1.41778151386734,1.45138967070912,1.47978315788688,1.58668027096327,1.58779447859722,1.589123593217,1.46376081533668,1.43501119558557,1.35860194854347,1.35961178499093,1.3594735443925,1.54373136124141,1.54214830972783,1.53937993080785,1.53611063235542,1.51515023652222,1.43494472777905,1.40862988380899,1.41538328750376,1.43652986588397,1.48929031948352,1.54394017067122,1.54496340279064,1.55371628017211,1.55262386102566,1.55150412417447,1.53010678921691,1.44191644741117,1.43241410951229,1.42949389520619,1.4411838161677,1.44909398413432,1.38572600413968,1.35344559467226,1.37033614210807,1.39444852150985,1.29528793037581,1.22985494130743,1.23074200541827,1.23463268972947,1.3308390243058,1.36899533971929,1.3688000871832,1.20602801694532,1.20595391007645,1.17492928252979,1.1835187050285,1.22352438191117,1.28486278253517,1.3365746122563,1.33510877287931,1.28202340165785,1.22422051176588,1.18324116344945,1.17922459970632,1.16623677414265,1.17148627483356,1.17850794296842,1.16968919524991,1.16397657247815,1.15905784097115,1.15816648167949
1.05645590238958,1.06553455325452,1.12949424535874,1.17420999998105,1.27054170706048,1.34502999996211,1.23938732172703,1.22345557155068,1.22358256567634,1.22391751223928,1.22540284772384,1.201340057256,1.29401230956666,1.38222559862222,1.36571447389134,1.34298356814077,1.30179920450445,1.30385543553127,1.30246698460965,1.34641176017675,1.34426349743809,1.3409603880614,1.30529280546281,1.23786665896804,1.23045668351281,1.22040943876735,1.28923709793604,1.40063037229864,1.41829010773803,1.57550999858146,1.53633090337212,1.51644683346308,1.48852438091677,1.48845467401851,1.48029693881619,1.48065894852957,1.47884802680432,1.51239000286112,1.54002074612229,1.53999596412262,1.54136416812665,1.54012865277142,1.53629154331791,1.52332996030449,1.53046604490737,1.58558732182071,1.60881021776753,1.65023327832838,1.671034964688,1.70863095070107,1.7046523253724,1.71057616435603,1.54465609382703,1.5051866802813,1.39894689741126,1.34378734148921,1.35113138012619,1.36690996196279,1.44557961705606,1.90359333330494,1.78691369113369,1.89841351736748,1.88537068192512,1.89605779467922,1.44427774441084,1.35064682540068,1.35004597883617,1.3432253459389,1.33135172019567,1.28617434899785,1.32644168440018,1.68511999996214,1.3030568689013,1.27311366828079,1.26068290170526,1.23616000004092,1.32372801771602,1.42567999997161,1.27153537436633,1.27461376446336,1.22637270638477,1.22589117832674,1.22806751150658,1.23379641714598,1.23518519115888,1.27550637238169,1.25128428002971,1.2189053765358,1.22290735603002,1.19791000410937,1.23036952958296,1.22726767980523,1.25171058995349,1.32277508865952,1.3196323480427,1.38439333426175,1.3555092512919,1.31427368051352,1.32024037287553,1.30638168384462,1.36591707079218,1.44708999995822,1.4048521551795,1.36471000004795,1.41533228582779,1.3745500000412,1.44679692089485,1.47915997315319,1.39927080679525,1.39723594018955,1.41009694927411,1.42852999956534,1.46646409210405,1.58673368454244,1.58693928271356,1.65463999996214,1.45068737620163,1.40968999999952,1.35764868403312,1.36162542203417,1.35956143976669,1.54527226928344,1.53397215710802,1.51686971353429,1.53984053589143,1.66915999996214,1.4350364758252,1.37949000004347,1.41941390768701,1.45155999170565,1.48545788587486,1.61885999996214,1.56302598201269,1.77182515217832,1.58327894964369,1.56400000139425,1.52995198954931,1.44589695337802,1.43032013752106,1.38945000467091,1.42184212581432,1.45685504297667,1.36729781630295,1.30173766432807,1.34307923732457,1.53723999996214,1.26962542558407,1.19618894998496,1.22211666494688,1.24676533676589,1.3326929371769,1.39557999998205,1.36551441499112,1.20921432666586,1.20679176083516,1.16095000468275,1.18575879171033,1.2300452877683,1.28342470736152,1.49164999996214,1.32905731076194,1.28389376287546,1.22990547500343,1.19844512592828,1.18631654477069,1.15048001633066,1.1930578055727,1.20555998534446,1.24496911323422,1.47531999996214,1.42439827124207,1.4302988527216
1.05299106224376,1.04342236262253,1.13895813790112,1.15396483361365,1.26958507463791,1.28854999832308,1.24874763904748,1.24803904588768,1.23413115206899,1.18579000005393,1.22642273411371,1.23412995630689,1.29960062448026,1.39006352502387,1.35734210495804,1.35295552209103,1.30030301949698,1.2575100013089,1.29778780703217,1.31661002736188,1.32658329059019,1.43989999996214,1.28332330139814,1.23938486244288,1.22537395849394,1.21969546722833,1.26690376304999,1.43851532029865,1.42596853496349,1.55137863412185,1.54234463218594,1.56522999997456,1.48398226101825,1.47281027791745,1.47792308641806,1.54814999995977,1.47813097692668,1.48131061025824,1.53968783329234,1.54159218586343,1.54131482065269,1.54283667363553,1.53947194586986,1.53108671628829,1.43479805715262,1.38586000001994,1.43070948061422,1.65135801617937,1.67093143884267,1.70288657236731,1.70157408311236,1.66536541015397,1.53656594748803,1.52345111022754,1.38032482848104,1.33799210937282,1.33813707337118,1.33796398244603,1.44498330987834,1.90392666663827,1.78691378710657,1.89933002850291,1.87657789397945,1.8691586048987,1.5622376425758,1.54095000000368,1.3711814356739,1.36806204918,1.3303464041191,1.28375756234456,1.31991748492345,1.40463999998107,1.28698714046203,1.25075000561915,1.25255378302644,1.32528741665049,1.32408825427066,1.42683999997161,1.27014567090064,1.25064481758169,1.22524230429042,1.2251585970291,1.21918418063043,1.21342215777979,1.2188817330113,1.22056891224545,1.25017051126188,1.34080119424073,1.24005550880587,1.23963072617939,1.22936271043672,1.20871295056196,1.23931241438343,1.24043333644831,1.31530896822766,1.38176666013344,1.36750999615684,1.35714000383331,1.34210393459874,1.30702941385762,1.3657721766998,1.36508135125021,1.3955115950641,1.58838999996214,1.46526237758938,1.59384999996214,1.43873317044103,1.40228283135294,1.38968509799659,1.37660248118583,1.38736627065206,1.38287917031085,1.45254709814604,1.46733000002168,1.5052191168177,1.46804000002183,1.44009839304739,1.37719999859129,1.35143859652454,1.31338666684635,1.35918650741449,1.40520999999987,1.46018944890666,1.57193411216828,1.56116605147048,1.55114100894409,1.43476460008504,1.43444847016173,1.42345604016465,1.47461385865438,1.47759032241894,1.47832473302628,1.54113426366586,1.77855484778382,1.60360296293718,1.57800003311869,1.59718102054413,1.6365699999611,1.42864391181703,1.42701876174395,1.38617989958812,1.33226000414647,1.35501248151738,1.29557327018264,1.28316192578763,1.25256000327816,1.24579878409219,1.19083105005607,1.21675983666325,1.23786344015053,1.33374069220201,1.43603999996117,1.36066204613593,1.20948761637943,1.20773827689843,1.19145642687284,1.1884443038563,1.16685000473631,1.28214532246726,1.28459597887858,1.32056542594632,1.33982999953616,1.23580947340986,1.18159201153672,1.18986850624543,1.19746239036115,1.1987989596103,1.27702000627592,1.28406325122691,1.39650000312063,1.41467517356631,1.40755240658881
1.13612160446931,1.13485834935335,1.14631540774787,1.15402514618206,1.26762032771729,1.26557049264469,1.25482408876594,1.20053000005204,1.2402316315905,1.2643654143917,1.25108807858052,1.25409316194536,1.3059822763038,1.34712815302288,1.34383939117732,1.34122046948934,1.3007486853171,1.29241597137791,1.27983318662066,1.22044000003888,1.29262878628712,1.26119692316234,1.26216816729363,1.19147643518339,1.19443678333667,1.19879265973489,1.24228731724059,1.41928514739798,1.42283962061037,1.51264997696895,1.52335753419048,1.60520999996018,1.48080104522922,1.47439788734033,1.46900102965934,1.46324174249717,1.47471924657616,1.55789410510225,1.55088478446251,1.56444698250011,1.54770747851601,1.55359710411304,1.57225656035558,1.58427999987806,1.40749841700955,1.32678760535532,1.33125603534561,1.33947389996992,1.40304997944687,1.63865011925889,1.67352407621381,1.72303166663827,1.42727511392191,1.36542980773256,1.35701680321989,1.3302620900627,1.33867259497445,1.33794987672524,1.44358671760199,1.44708666667555,1.53842592237897,1.85486783900802,1.85459539659005,1.82750369923738,1.72276919111538,1.68604495390057,1.37441390862154,1.36366067700546,1.32988406765042,1.29652220526841,1.29945139833388,1.30195262961807,1.26175889476515,1.21200000001243,1.24703984256461,1.29112000000016,1.32307037135357,1.3204916851162,1.26923899842494,1.26711976976952,1.22386963886884,1.21980931435048,1.21506254531089,1.20460234690329,1.21076186670363,1.24423672607054,1.24785866655384,1.34427194856844,1.24575155371317,1.23027376236098,1.22818963152042,1.2018770784344,1.23776724157698,1.25019521632039,1.31041662923031,1.44462999996082,1.37712360831258,1.37507960648599,1.35527150926946,1.33471000090613,1.36594166944809,1.36688113910508,1.37963240753896,1.387179223774,1.42692603383534,1.4234830314879,1.42494343649136,1.38500776247407,1.38864340844532,1.39141013738128,1.39012714243058,1.43447001727691,1.44247673465357,1.71097999996214,1.5260581903331,1.66687999996214,1.43322655895027,1.42346003987727,1.34663834738426,1.31557333353049,1.3599525466677,1.35790749488736,1.44991802287518,1.55068007525802,1.56575398939455,1.57190595086073,1.42158143714449,1.42003036377277,1.40750684945248,1.39295000265748,1.44838567751277,1.48971981792208,1.52821601122789,1.86906999996214,1.64459556323563,1.65048224363654,1.60775564510376,1.57561000232405,1.41001067426276,1.3745646529025,1.36882808438013,1.31205500061078,1.3643791484406,1.71792000387372,1.27519886858388,1.27429872916856,1.23002637447955,1.15984000580519,1.20332593404885,1.22543000330515,1.33391415052556,1.34873404257711,1.35481912735575,1.24074999797237,1.20841442357375,1.16159000266743,1.19202923051627,1.19829859000685,1.28064475816046,1.27833272044835,1.31174095069312,1.29879243610554,1.24189895644822,1.22029999456492,1.20313191295724,1.20335499424303,1.20352708060794,1.26241002203471,1.29228423473031,1.37376000147343,1.41878462954773,1.46972999996129
1.13694876041593,1.13389520057633,1.15439758976637,1.21604999997024,1.27191194459868,1.32111002702258,1.27189744363969,1.25039240996371,1.24600143436931,1.25088788076445,1.24913094283527,1.24591449007039,1.31133222900076,1.34072347915924,1.34164231216255,1.34136946724295,1.30197759789242,1.26154634025363,1.27094526454139,1.3558606776445,1.3139644791658,1.26252893640858,1.26261219632361,1.19212095429758,1.19215413644565,1.19086925417305,1.20794546679743,1.21219818838813,1.32770826010033,1.50302819712533,1.5099177865713,1.517779340444,1.47857795611791,1.44440435045235,1.44330104102417,1.39846674119852,1.47244242058575,1.523800256636,1.52512527614126,1.52313067109013,1.54003152524978,1.60538999995825,1.58515123794341,1.62345999996059,1.38673468971849,1.32399860927065,1.3274043259389,1.3024100020436,1.37297968569549,1.39869999999931,1.43091006360388,1.72047833330494,1.39736131635366,1.35086534203404,1.34969943023196,1.34005923967174,1.33814510032627,1.33701863278136,1.4415564263212,1.44483333334347,1.52905700147469,1.90663999995864,1.85448479811158,1.85543675579624,1.73710203328603,1.70399831042618,1.37698634259696,1.37897090687643,1.32525530207955,1.23700002009989,1.25642835706877,1.25122344189946,1.23720687331553,1.19521000002432,1.24432172381848,1.2702933332478,1.32460356086208,1.3428337003162,1.25396147578407,1.2511500038153,1.22250867149651,1.18888668616753,1.18669508227169,1.15520000391617,1.189471165061,1.18973510437421,1.2305530102347,1.34362685711511,1.25899631487436,1.21357471395849,1.22682214030468,1.22623547581618,1.23567349637483,1.23691757635987,1.30516315516374,1.3839311768569,1.37928057057553,1.4469800029977,1.37913841694697,1.37677996417033,1.36496219606342,1.36261965145357,1.37585428896038,1.42818247020242,1.42879421114084,1.46219999997386,1.42767405097279,1.43204259153731,1.37326218693472,1.35379322857237,1.3716850051125,1.35627000494138,1.40711506239607,1.34046000003794,1.40915349340807,1.3489900000465,1.38124968685942,1.3444998004491,1.34428849515283,1.34362551038838,1.36318805991879,1.36499090116459,1.44117057249455,1.58683000553653,1.60328755555251,1.63164000317058,1.41441971571919,1.36575005719196,1.37826118881525,1.3804325871445,1.43093747372242,1.47526167639156,1.51863161186747,1.64045869122364,1.64173004409167,1.66231071659398,1.61735635605807,1.63003998459362,1.39721492086167,1.34759299935414,1.35938064973678,1.31207500000547,1.37512039208394,1.73417996931827,1.27116701106595,1.26655626364628,1.2147427880377,1.18579507376852,1.18109805255744,1.16200001094966,1.3332266228243,1.36444991728138,1.35877985847171,1.20894286797529,1.20849776944134,1.19850961814208,1.20312327021239,1.27861030884046,1.2808515610353,1.46122000000133,1.48732124421721,1.58242999996009,1.24839850658762,1.16588691213462,1.20275186357445,1.20408611516572,1.20881640835811,1.24159995749407,1.3009696063861,1.45743999641611,1.42313939686037,1.13997939261628
1.13991057502495,1.14216405804709,1.15944864257014,1.17894999996723,1.2857182779207,1.32928997640758,1.283270391145,1.27860000014359,1.240260196796,1.23306898313803,1.24908384944107,1.24523949185001,1.32010728175894,1.34850171374451,1.35191426106193,1.35404906519574,1.30460011669229,1.2088864104241,1.25955196225973,1.33744932705059,1.35468210339988,1.4746599977298,1.290153013799,1.18916391241102,1.19098566267837,1.15964877015425,1.20178632727973,1.20411823376203,1.30270543567587,1.50605776655459,1.50603011163211,1.50621890704405,1.47701134315153,1.4761440299287,1.44364478035075,1.40524325886303,1.47149904933606,1.52994082970391,1.52786165437495,1.633689999962,1.51603752864448,1.29376000003786,1.3585190868908,1.30252000003931,1.37796708397415,1.39477999468047,1.33087081547621,1.33434434798828,1.3402025508261,1.31230000145417,1.37189905884841,1.3095100000385,1.37151969646932,1.34845877621659,1.348770017216,1.32168003404854,1.34517674716967,1.35089778268868,1.43874371914994,1.49542508915695,1.51724401330222,1.87873999998363,1.84297446102116,1.80607306650955,1.76083131472737,1.82361999996214,1.36518066680726,1.34806475681239,1.32161847292699,1.2745899967428,1.2618248063067,1.2167721124423,1.2211282937604,1.17731999745846,1.24015179121216,1.26958666677503,1.32592318203741,1.35010629719275,1.25061535273956,1.22664339421416,1.22110222491983,1.16689003473536,1.18375694686484,1.17951655930187,1.18961867382387,1.22226806712384,1.21457011052217,1.17532000382296,1.27079992923802,1.29985000334503,1.24996200324542,1.21159553169125,1.23193928368631,1.22758571250053,1.30120218045995,1.35318000000018,1.37568198990784,1.46137207245895,1.38823668538989,1.36055558880811,1.35712013445338,1.34337623132091,1.37552986946743,1.42787569660004,1.4293772540254,1.66402000419705,1.42507631042478,1.41910072346109,1.36647678220622,1.35307582186518,1.37052197244672,1.46095524119554,1.46842745629393,1.57104002263394,1.58576135333617,1.59423997516829,1.38945744054566,1.36773241271469,1.36237092297198,1.30990000005109,1.36524834534609,1.37442824734375,1.43933545107617,1.65841999996191,1.61530675838362,1.64259999679072,1.41241763967439,1.3880306584798,1.37608130664811,1.37509770819248,1.41445801988646,1.50312806488041,1.51326321440384,1.62464020000907,1.6231903656265,1.62156019932125,1.60924278318909,1.58659000784992,1.38380792813029,1.3712345677767,1.36529498290728,1.3861892504889,1.39517184335311,1.7206400267323,1.26984534595776,1.2647550026592,1.20042758838615,1.14753975193652,1.17741027940107,1.32997588379173,1.33182190087269,1.34844005694748,1.38380434195964,1.49168999998107,1.20744141146065,1.2125641792983,1.21064802190319,1.26511834354899,1.2824598018577,1.53186958150592,1.5293764554691,1.53928942197893,1.25536920123057,1.17270308828434,1.20173446951829,1.22303503766947,1.22207736842234,1.22867150074709,1.31213305096456,1.42800889120782,1.42581570009835,1.41363000310133
1.12406743248676,1.09860000004357,1.16416171339751,1.30792000931265,1.32340829569708,1.34348968871809,1.29715758595963,1.16614000003979,1.19884916384096,1.18757000349658,1.25284395383957,1.28251315038009,1.32939116637418,1.35133203606659,1.35246058570005,1.35465166314707,1.30758584184227,1.22084358961463,1.24679127843232,1.40044999994892,1.37007132003004,1.45036323576511,1.31826684080207,1.23250999984456,1.21597340932221,1.16690122991157,1.19947511164062,1.19662574055394,1.29048572252096,1.56042999996107,1.48940136348258,1.24698000003786,1.32079307783348,1.25285000003786,1.44588482667947,1.44957681170404,1.47156956742087,1.53060958287788,1.52911551431171,1.56483999997931,1.51100238187029,1.40902550660704,1.39940305372199,1.41966999803012,1.36334204636003,1.3535800219611,1.33067826056717,1.28548000004279,1.34375945352732,1.70572999996214,1.49951390477372,1.67921655921559,1.38566940291351,1.34971375618546,1.37630555842374,1.40965000332892,1.37402759040055,1.33055003882566,1.43484488230172,1.49552492453408,1.50725576776879,1.78564250187246,1.8109220019728,1.81498945356833,1.62939497588605,1.41933833334298,1.36360095123515,1.36119504810851,1.31835752461223,1.31268220630877,1.26837266372611,1.25332999338279,1.22442705199708,1.15749000260519,1.22536867454212,1.3268349178099,1.32667362304536,1.46855999996214,1.24850140415078,1.2093405974197,1.2187326024627,1.22104977027496,1.19059445344031,1.19028481805963,1.18993123013263,1.20062607276707,1.20263148646163,1.20569177581637,1.28006685727733,1.31686998630569,1.26502793697145,1.25988462116963,1.25892910746183,1.25782138261681,1.29876152431881,1.31583500066335,1.37285456670619,1.45997377117133,1.39847879381728,1.33685004789056,1.35545607449978,1.35279822218655,1.37526183410925,1.40488000840622,1.41227679605105,1.68131999574616,1.40738806378776,1.36282857068393,1.3650858689173,1.35375634392434,1.37031404832285,1.43249734354781,1.47412167202286,1.63825999778817,1.62641721993042,1.65869003772805,1.40073170932361,1.40634796327287,1.36637508850255,1.37547180128488,1.36866310460411,1.39167999923004,1.43762296562881,1.52350000000267,1.54761505210192,1.71735999996214,1.40941560489228,1.34884000445673,1.37461349792544,1.37414241169926,1.37761198696193,1.38879729741259,1.47986305958205,1.49224000002056,1.53492046520024,1.4954589066111,1.50683794925089,1.32967999910431,1.32024484518304,1.2782000000194,1.32374242042299,1.40869009059075,1.40165659341437,1.52946999998107,1.26127298802966,1.17767247313487,1.17876943708447,1.14549872735701,1.17293825535836,1.16748107306231,1.30436125538818,1.54790999996214,1.41424823928692,1.54835999998107,1.20074631481912,1.19857366476615,1.20783009504461,1.27715772476704,1.28304858545074,1.62374999996214,1.5281805277175,1.52828406569691,1.26262847373433,1.19673451413015,1.19997937002136,1.17589658713373,1.22088707475504,1.29152000000004,1.32286467546057,1.57385305055357,1.56684141722105,1.55429100759327
1.16165701349527,1.18068800177761,1.18064352305707,1.38162999996107,1.3318140633948,1.35349030174246,1.31253340167146,1.33366999421973,1.21631246218872,1.21189155618954,1.25549388547759,1.28760434790372,1.34131470935778,1.3671943979444,1.37266646701753,1.37822218275353,1.31022983775254,1.18831980768588,1.19790929907346,1.21598999079362,1.29099548125638,1.44880033878584,1.44406450120508,1.50539999996186,1.24311445629443,1.23906999995966,1.2125966193888,1.22958997285889,1.27668805508737,1.48161457417562,1.47446793779043,1.46903366470963,1.46813355657644,1.49672999997891,1.46419085498439,1.46459178390149,1.4726214217185,1.52358802228436,1.52147245407132,1.47906418382192,1.49446505313045,1.40318449291719,1.38977800404742,1.37515002994144,1.3474232897385,1.33060493724625,1.3306161175881,1.34958828592718,1.34541317245688,1.39539999999944,1.49840400382339,1.68595343770973,1.40284509607797,1.34901247551823,1.39219887205001,1.42035999662052,1.39637706327269,1.35181999983529,1.4297520267242,1.4237894384179,1.50343874037076,1.77564435599622,1.8084654272069,1.81991590270501,1.62248559306731,1.41745166667623,1.35169401081616,1.26900333324726,1.29624798100175,1.29802823734838,1.27500727348075,1.23076877446428,1.22775047603346,1.19468445922764,1.20929159214698,1.30317114705084,1.31417657413321,1.32988999975216,1.24800429043424,1.21724491766597,1.21747641203673,1.21167784501525,1.19020563077102,1.18259937664258,1.18377409746132,1.18518220703359,1.17820588998508,1.14826000005388,1.28711359630874,1.30019054057116,1.26893681691127,1.26736132683516,1.25885164927126,1.22943001226496,1.29750356743338,1.31525499438897,1.37005046683854,1.46514415329934,1.41900045575553,1.41816468761129,1.35558815931356,1.35378114569178,1.37409866225595,1.45196999995602,1.40906726201273,1.38079397309534,1.37737082021997,1.35725470676087,1.36762799676629,1.37295903555824,1.37072986387642,1.4465049805495,1.4790972144922,1.59559561162448,1.6131129102136,1.67115996221516,1.39736463937823,1.35752161345632,1.35814183482371,1.32594009572348,1.36532629909726,1.42169726100124,1.43391162004201,1.36412000004703,1.42656011450477,1.36416000004795,1.39625497307686,1.38813742434121,1.37412533343447,1.33357499995005,1.37037603391647,1.46083000431407,1.47128886019268,1.75152999996214,1.74316431498088,1.75372814447034,1.51540479859015,1.5254089863299,1.30136031392989,1.23302201494219,1.28178932777172,1.29836999991994,1.33388176616533,1.47586999998107,1.2452467115779,1.21393999996873,1.17918711231723,1.14573269677789,1.19129035490337,1.20297000151051,1.29673261472528,1.33214999999922,1.38331435173819,1.59816999996029,1.1957115700084,1.1618682171847,1.2049366593301,1.22815999634599,1.28382882628866,1.42405000000011,1.45542164081536,1.58691999996151,1.27026871344977,1.2430499999789,1.20068295531075,1.17412342715006,1.21963058052416,1.34876593400992,1.3449141475232,1.60161535401311,1.58083840835141,1.5607490552161
1.16204009423991,1.12935000004653,1.17944860737628,1.22484999999774,1.30863080859064,1.33664833879645,1.31154187787288,1.21684083667172,1.2180241153145,1.25510444872911,1.25611926618058,1.29478250171409,1.35299881850933,1.42560999342212,1.40270986205331,1.40496455760219,1.31211971684282,1.18722629482317,1.18671270989761,1.18579366842329,1.26295525095397,1.44046921251835,1.4411083639182,1.43970945608618,1.25465790864463,1.19370057983048,1.19641373592223,1.17686000301832,1.26304449490698,1.46876936153596,1.46935748361007,1.47063724222188,1.46860902128361,1.54343999996152,1.46394272538885,1.4637508318238,1.46886220279807,1.51728830489033,1.51926116778039,1.52653775466965,1.49680278960575,1.50252072525571,1.35115645710943,1.29566000187878,1.31987215247761,1.33102810025148,1.32094985030071,1.31235618824907,1.32784193843654,1.36456999999783,1.49740789661841,1.66682167006116,1.41777530917522,1.36102998903485,1.41034542768339,1.47524471743481,1.46758410976917,1.50195500056785,1.44635357329933,1.42350112369122,1.49815895044538,1.75392853253403,1.7595319670563,1.76866966159184,1.60876068609382,1.58533150837569,1.34960240311868,1.27141667588991,1.29487462326353,1.29715237404042,1.28137150148057,1.25319999949281,1.23253298419353,1.2046978068713,1.19468449564127,1.15290000345801,1.20696967531636,1.21143587946971,1.24494561855907,1.26054997398365,1.24005994173125,1.24333246467982,1.18857577796715,1.17048400527508,1.16222718877303,1.13831999613567,1.17361037779747,1.36367998242908,1.29237220510739,1.29191134986392,1.27615373283052,1.25816411359697,1.25866325177926,1.24725208027397,1.29679162773065,1.29508625388084,1.3677891473368,1.49098116895054,1.41902231653997,1.31767000004473,1.3412913191547,1.36858276885363,1.37146727040849,1.37100730648079,1.38949593630376,1.35135000176033,1.3749744733912,1.36899735557202,1.36908114511551,1.33558000004807,1.37012062327498,1.43134767826993,1.48345940631393,1.59162305454059,1.59209066052504,1.59262456114424,1.39348371688966,1.37479001870315,1.35907845595714,1.32749991874051,1.36198301221084,1.35314946857542,1.43792271245023,1.46606000000269,1.4901509550362,1.72796800585668,1.42293440029578,1.40300999907119,1.37480047710053,1.33267500011295,1.36604475404071,1.36175679685331,1.41460221225532,1.35018000003807,1.7432119904703,1.75428183246797,1.38449318715914,1.26549433544717,1.26403592737778,1.24592800704361,1.2542636334721,1.26996993047839,1.25121955675265,1.2138994236361,1.21782346876369,1.18348515053451,1.17869546797135,1.14465734788184,1.20298633224466,1.21648999848676,1.2914683663666,1.29969166730014,1.35453139094325,1.56403999998292,1.19122145774775,1.16925427057772,1.20254270506338,1.21391048917614,1.28400957375986,1.36488002771873,1.43885966139942,1.43764527754166,1.27688696117024,1.17452000404428,1.20020690617034,1.19863196622845,1.21927116582405,1.28239999618877,1.34295815584721,1.60823464592848,1.59474630040054,1.60782962513476
1.16195173916942,1.16140868822393,1.17729083361855,1.19771909072481,1.30767685113236,1.33524166596699,1.31012875123367,1.19462293989709,1.19536233906017,1.15385000004561,1.23647360961285,1.40690999994353,1.37469273252872,1.40245547937162,1.40155830539831,1.4021355799231,1.313192241455,1.1695618966972,1.18050326988083,1.18145314290239,1.23816297154939,1.47072061918043,1.4610265670729,1.45804123091349,1.26384012802574,1.28878999018481,1.1988411026995,1.19939618372271,1.24964824844302,1.29328000002264,1.40136589338921,1.43815999286098,1.4214313329846,1.41031289435297,1.40928807374378,1.40823113576976,1.40283082561822,1.39736740080466,1.39964946319191,1.40207510322558,1.33393261608655,1.27800003296347,1.3228399900402,1.35723999995104,1.31427373235629,1.30553053728913,1.2982639524525,1.23963000004128,1.32552528752912,1.32865224010549,1.49774168708275,1.67090833291888,1.44559424192238,1.44431478800644,1.44493193316749,1.44455784727721,1.46402596871728,1.50293499447027,1.44932861055731,1.44702574649437,1.48075422212228,1.4845318268431,1.52990659273416,1.79317999581059,1.51313007893386,1.49524000039263,1.34743299288116,1.28960763633162,1.29197454253007,1.29100317162068,1.28790506338602,1.27938751684878,1.23497808270887,1.18926566641446,1.18980193797346,1.17394892183937,1.20284939514643,1.1922731255499,1.22849904358585,1.22895069299387,1.23768856010177,1.24416403400786,1.18660711151494,1.16484789878698,1.15684913588368,1.12131000742713,1.17009913487529,1.34912001751394,1.29324344536947,1.2942682897064,1.28382599195801,1.21539000004301,1.27087145859044,1.28663295114324,1.29766907703056,1.36506177392392,1.36617828599563,1.4809388309896,1.41803629235564,1.41632643028403,1.33460793991732,1.3169823950119,1.33628576836002,1.35025346367623,1.40542363438055,1.64005999996214,1.4164409578121,1.39096996185707,1.37815949278134,1.36915002533414,1.37193238189078,1.47475000312118,1.4892376908054,1.54897290144341,1.58667818651465,1.63455999995569,1.38935151681257,1.38628366617453,1.36012965617136,1.33974998883276,1.36487135930324,1.3689890760207,1.44076844618478,1.61705573264394,1.60948454869742,1.71760199408654,1.45494592199755,1.44332949964154,1.37654150521669,1.37429000371267,1.3930838318262,1.43816002147898,1.44913484767939,1.75559999996214,1.74345566914416,1.74370077010037,1.35925479589435,1.3138599985887,1.26169972270926,1.20759270034131,1.22580988439776,1.22366978104315,1.24019089440244,1.72102999996214,1.22129927789115,1.17607837114437,1.17762729724812,1.14405147617482,1.21238707759458,1.23732000957077,1.2868360109328,1.30389832799616,1.32771821510921,1.52468999998107,1.18769752221068,1.16688751232248,1.2004228160243,1.19873565263649,1.28362396132582,1.38384997236987,1.43653159298819,1.43740508464172,1.28288096624991,1.22025511345049,1.20723932090367,1.20553541721146,1.2203435547362,1.26813641654835,1.34210799797263,1.34078129023839,1.4805503914031,1.59786037480798
1.16468984864299,1.16334206248269,1.17572622190103,1.18366195104783,1.28830301968273,1.28830089203852,1.28832056768867,1.19316710841348,1.19429630831111,1.1763364386477,1.23108765529442,1.2973663048259,1.3615924271984,1.40043190051849,1.40012351946642,1.40028388885461,1.31380686344073,1.17436210082775,1.17870891223154,1.1805124084857,1.21572185492858,1.46510389123349,1.46194358002917,1.46056721857479,1.24920532690023,1.23929208232993,1.20008987301185,1.2002416384136,1.2357762669611,1.31744125106368,1.38637728465979,1.40632455589699,1.40523340966623,1.40437645500815,1.38844157925931,1.37618703946114,1.36291569627556,1.34816758554548,1.3365382713228,1.32413750585856,1.31194940238095,1.30044891514075,1.30880358339208,1.31737380291845,1.31066698166685,1.30300693692052,1.28963212164952,1.26723782714695,1.32208145435987,1.37547634987613,1.49934443169018,1.5008869825034,1.44606338097423,1.44555107743108,1.44555453000052,1.44853690593732,1.46157564473269,1.47870419922986,1.45148666759008,1.44934794618781,1.47743918955551,1.48341959542235,1.51976928131217,1.53395682593438,1.42792793285051,1.39337817406302,1.33591061920035,1.31166738389373,1.30533322062544,1.29662228844118,1.2919030961775,1.28173190500397,1.23776474535705,1.19331994692389,1.18925737921759,1.18009706101967,1.20556245889386,1.21675124878026,1.22910656241597,1.23090611286841,1.23552362049399,1.2272334524825,1.18478234600899,1.17007363123271,1.14553123834305,1.13953399859012,1.16688837324968,1.22558013850858,1.29068562253738,1.29140007246906,1.29018735736164,1.28981465468424,1.28829624574549,1.28677750654911,1.29796127508404,1.32953701945005,1.34828712432086,1.35025678401889,1.3412105921476,1.33472755081774,1.32878735948373,1.32218382897294,1.32811337389053,1.3920469141253,1.4195235487234,1.44746910525663,1.43423480390683,1.42273104952288,1.41260620678559,1.3776034267419,1.3763480403404,1.43976131132816,1.50052202471183,1.57060857084452,1.58118310846888,1.43993478660178,1.38732047689333,1.37776805293117,1.36061236518017,1.35351916561008,1.37010744696856,1.37891210090429,1.44219232887336,1.61618558417993,1.61100816548492,1.64751374224718,1.46158264357055,1.41865935513799,1.37894270401519,1.38018039718913,1.40428931643244,1.45009622006742,1.45050920233878,1.73286325923869,1.72910745901305,1.72051446799162,1.34856397287559,1.28906050787569,1.25824737450714,1.22382163289259,1.22539229637813,1.2260615010515,1.22834418646186,1.23105541036332,1.22455973936123,1.21962771620444,1.2196199992771,1.21968203017966,1.22327994761629,1.24924524344546,1.28192928362961,1.28859584836888,1.27608723453373,1.25228172845509,1.18534327011704,1.18472655618346,1.20424506755844,1.21254026613301,1.2836292664923,1.3279754204685,1.43060907099897,1.43314435269087,1.28756552874415,1.20677201779454,1.2075791559161,1.2072421435703,1.22246761211489,1.26655859008849,1.34199441572508,1.34327345877427,1.47778771625365,1.48055427405866
1.16576158758842,1.15617908405514,1.17597469311258,1.17786592216087,1.28803519631452,1.28821900563325,1.28795329507626,1.18933514578544,1.19247593084905,1.14997227173757,1.22267697853401,1.24996000001897,1.3493703724043,1.44090903723954,1.42649803987565,1.42948160729597,1.31442967672934,1.13866003559942,1.14877517790685,1.11541141231877,1.19436254737183,1.51162999996214,1.47977946572509,1.4861279268717,1.23956089999643,1.20532999659901,1.18769101000682,1.15992451559143,1.22414953756455,1.3340999989909,1.37065026098467,1.40798281517657,1.40563153242243,1.40408486811123,1.36926601847022,1.35103860586434,1.3440906544911,1.33829860691336,1.29214571102863,1.24418762402,1.2520599303545,1.26033337711158,1.28516136867187,1.33047678361079,1.30638098166393,1.30112869457252,1.27894574083622,1.24656000017333,1.3183863689157,1.68932999996214,1.49931823326578,1.67150000793885,1.41581559061647,1.35884714411573,1.4162655553708,1.45154931772898,1.45737622678849,1.56778999996214,1.45789624247001,1.43994001323666,1.47504425240405,1.48467403612213,1.49942280737156,1.77821999996214,1.40219841306082,1.36283999999972,1.32518217550677,1.32194314196131,1.31240197558592,1.32339199557691,1.30291181986944,1.28421744211605,1.24022471210305,1.19683954285294,1.18884168627572,1.15888000134439,1.20575340969118,1.23084999690784,1.24396423074007,1.31942999995894,1.23855832104564,1.21632001996705,1.18323531192428,1.17379220630245,1.13817618602588,1.11613655623459,1.16373665643583,1.1595392908863,1.29030639489373,1.29943478956382,1.29020850707051,1.29177836799865,1.2879679835893,1.28603056383968,1.29750939189112,1.2979622411141,1.34734885910985,1.36676987240349,1.33875863329651,1.3341977572595,1.32644130568318,1.31965700494027,1.3239476684397,1.43821402418693,1.43964095028865,1.46918999471706,1.44239118501781,1.43322999591208,1.42185294219246,1.37983725655985,1.38112496328764,1.38685071321671,1.50926388903993,1.61224023449112,1.59170015493681,1.38506163717166,1.38595940301113,1.37087917070867,1.36050477724059,1.33934964781607,1.37379206689751,1.40265782968968,1.44236490183175,1.61982759485858,1.61593479641506,1.65517178298916,1.46674785182201,1.34419000004032,1.38018178725608,1.38129052727688,1.4147188221138,1.46168706661118,1.46439311626762,1.72863697003751,1.71864787860476,1.70422083860415,1.33573206551858,1.27622999800758,1.25402095278608,1.21934322717514,1.22423373889598,1.22329494510156,1.2267451003334,1.23330862709582,1.22790726063665,1.21959973922299,1.21895662408801,1.2177500502408,1.2265766046797,1.26710980229535,1.27578197995504,1.34978999996116,1.26382017056374,1.17562000045052,1.18452703796083,1.17727000712422,1.20772323726149,1.23166799992092,1.28469258158832,1.28622662372719,1.42372009425332,1.58238999996214,1.29323123932902,1.17770000481369,1.19425426697067,1.18686750375376,1.22492524254268,1.26496840674762,1.34155077845636,1.34595245620951,1.46964655484791,1.54648999996214
1.16770938757208,1.10352000003868,1.20884922077298,1.34756013818716,1.33283308382648,1.31870002961695,1.30116113992027,1.28689000081278,1.19258309882901,1.13987772832314,1.21296658707372,1.31864240657393,1.34106423405697,1.4151226325606,1.42451423125175,1.44407992866233,1.3151494222536,1.19516999997625,1.15697484423041,1.11998858774169,1.17617388883454,1.1743738748138,1.25241777504183,1.40341999998107,1.21543790323313,1.16235365733983,1.16386278990195,1.16647470974001,1.21112064339605,1.50977999996214,1.35814873902701,1.34390818121328,1.34386782387571,1.34385216563115,1.31360380611707,1.28088444794126,1.27889035955416,1.27699644557873,1.255514489767,1.21579110080006,1.21770122531789,1.20693259759952,1.25439827598102,1.27063549773544,1.25760418677596,1.24968807139203,1.26682677929399,1.29717000119178,1.3013610129537,1.30546854825354,1.39337437475168,1.68704999200436,1.40000077556564,1.36111571458129,1.40185016899131,1.41638361542865,1.42549827361831,1.42555991012748,1.46366713641091,1.47208296127207,1.47244761258561,1.4677588638077,1.48957012902381,1.67817999998107,1.38309118098329,1.29573001963179,1.31065329884845,1.27012000004468,1.30428112208551,1.29464372976351,1.32121303537555,1.35155998796326,1.24180984995483,1.18130205585389,1.18772167866423,1.20541995811044,1.20655262387358,1.2546424159862,1.25912327220719,1.27847000136843,1.24108128504744,1.20273500623701,1.18185836356403,1.12266295721324,1.13354322485262,1.12285345821424,1.16613371977605,1.17877998818378,1.28522556833457,1.2645358127104,1.28607452941396,1.28779086891924,1.28855427147893,1.28885732471108,1.29630012762784,1.31351998300035,1.3458750246348,1.57536999996214,1.33176835689572,1.2714239787033,1.29442583018767,1.30345954369042,1.32033579171642,1.30386000343837,1.44130537703386,1.58172000101917,1.51185121677749,1.50799563503794,1.43810348063606,1.4025300016673,1.41417296306196,1.52257887457502,1.51722688667432,1.6118385591132,1.61202573480036,1.61168383788847,1.39285514774147,1.39199742378887,1.36041569262241,1.3459903651842,1.37819900905253,1.39288215616602,1.45013855224604,1.61154493318283,1.61865928656505,1.63234000569404,1.47516418498655,1.41366277274983,1.40997216655274,1.4028566056145,1.42651977958967,1.4532691401523,1.46697891155452,1.61991001932594,1.71051245697671,1.71077031734495,1.32230297409664,1.26225920402738,1.25023547509959,1.20564440885251,1.22503331442571,1.22496811331777,1.22611464957556,1.21480317184123,1.27814678142263,1.73383000205072,1.25846248967674,1.2332511049692,1.22861583467756,1.20085000435039,1.24360023391269,1.19710000004134,1.24855766830123,1.2323899958544,1.2149871002374,1.19820000101205,1.21103966977324,1.21518330789945,1.28526183272711,1.30274365690536,1.41691190514977,1.40997927752783,1.30251873861298,1.23000994221889,1.19837902933437,1.18464889163078,1.22713460946549,1.31711175066569,1.34094804211378,1.43106001924502,1.45932303138986,1.44369409765147
1.1711400053613,1.17671901296437,1.22836526844321,1.34059274854306,1.34262377745735,1.38622999998061,1.3487693873499,1.32952000000207,1.19278572946181,1.1933698680508,1.20268472806748,1.32381763180848,1.33285268792622,1.45868999995453,1.42387298505967,1.42371449146332,1.31564682401232,1.13339000004249,1.16671935624365,1.1782998410844,1.17742494906244,1.15586003185488,1.17402352661882,1.16029840520325,1.16073869622224,1.15716829081258,1.15955968884085,1.19578141146967,1.20159999290838,1.2071378385699,1.23370928041526,1.1725900000383,1.23288429139569,1.22496000480938,1.25470739854542,1.2555922728394,1.25905033991996,1.26252002134372,1.23332907775242,1.20113000249414,1.21896250417401,1.21968299749406,1.24387795484493,1.22768001591511,1.24113138643985,1.24150246728397,1.25575585823199,1.26427999501362,1.29876798906259,1.32272773354398,1.36443618521496,1.61006999998107,1.38575320549161,1.3630071395785,1.38557374768932,1.41415551868676,1.4238245331436,1.70029999996214,1.48887270002678,1.51609999880897,1.48452211783645,1.47797351441918,1.47454421293672,1.33714000229305,1.36783314299455,1.32646988689734,1.31819429819593,1.31320901831021,1.33002319582485,1.35382999578589,1.33828089739282,1.32688394789336,1.24267754376684,1.17044482806629,1.18698525626761,1.18661660346694,1.20822421001136,1.27612576866137,1.27121950115777,1.3068499976491,1.24272369417087,1.2032349991919,1.1803579919107,1.14505681264947,1.14740853700085,1.14990486838692,1.16835699333093,1.26329000404396,1.29245635026587,1.29994999594226,1.28395477640125,1.27791223774264,1.2720035862853,1.26733631289822,1.2949060932357,1.34008764223687,1.33960667479132,1.28076566800933,1.28605000135656,1.28573514237205,1.28816097999639,1.30333076398858,1.32561670224489,1.42960341989961,1.44256578464843,1.59597999894298,1.52239992814515,1.52199689975538,1.44441566785834,1.41583999887534,1.42020616942235,1.43340994028359,1.51399292710713,1.61042727686872,1.61178368573378,1.5997750314397,1.39583258526576,1.35338425500889,1.36092421829393,1.37429754164789,1.38306579781611,1.46071114185069,1.46766176350416,1.4973399999975,1.60736558382551,1.66192999997948,1.48426677759082,1.41941938783543,1.41376900673266,1.39127098636595,1.43521105808587,1.44017285987067,1.46759063659244,1.74956402296154,1.74075098896158,1.75874207981891,1.30861890873358,1.24404785302423,1.24750245016661,1.22359654259494,1.22529899096002,1.202975503145,1.2435842633727,1.39522000000181,1.41621938397331,1.75441999789249,1.27089727145661,1.24179828431837,1.23473803338505,1.21982999990506,1.26320330528777,1.31582642945413,1.30884291588853,1.30287130584007,1.24199233081456,1.22592619409017,1.2269040154779,1.24108998971617,1.28703537828078,1.29072402511265,1.42407986135641,1.46772999998107,1.3209982031697,1.2131974402026,1.2084843279192,1.20657444586293,1.22878977083361,1.24983782304858,1.3401147750395,1.53810393634584,1.53854314481015,1.53935193633584
1.20131895143545,1.24150033400555,1.24614484621111,1.31170000000098,1.34441408479303,1.41290485986686,1.39673180831355,1.39894948908369,1.18350313358363,1.16085001914764,1.17288074641445,1.18417997319602,1.20221896940743,1.13675000003786,1.42383714993472,1.42533615986839,1.41240944757009,1.41587691186606,1.1905247217227,1.18272973045764,1.17746755844391,1.19718353448419,1.20012688129924,1.44570000374399,1.16407501408575,1.15041282284865,1.15875362716906,1.16043453966955,1.17861953309524,1.15829000391573,1.25564790881831,1.35914666674965,1.25243021757528,1.25125703120558,1.25317707629783,1.28401998974383,1.24929522483657,1.20518587270342,1.19581458754712,1.18811632053125,1.21912422538576,1.31932000000009,1.35073042078434,1.59915444792397,1.24052025762616,1.22671000317255,1.23926634219429,1.3200399612254,1.29780482285095,1.29735443396558,1.32617485335339,1.32887479205537,1.33889799789038,1.35012109761546,1.37006922808646,1.41729591411164,1.4209680817831,1.34125000003831,1.42209422583846,1.35896000003794,1.49214448342559,1.50290201622396,1.47189296371797,1.47170528537664,1.37693278507579,1.34436996230651,1.33401376177873,1.32403232522814,1.33424993525914,1.40307167966348,1.34839859728752,1.35002080842432,1.24334741971774,1.23230000053592,1.20279386305663,1.16578000494944,1.2107659188187,1.25968109984746,1.26658340618282,1.21592000121929,1.24385965553189,1.24485494321386,1.17846967054437,1.12697005814355,1.1510964899076,1.16931716644056,1.17107031511415,1.17436809413347,1.29635556713114,1.32699997360603,1.28263826104972,1.23383519251114,1.23780967147357,1.21408000005093,1.29374098641731,1.33707493110269,1.33897631219413,1.30292428497819,1.2917035072716,1.27515375479202,1.27527171805327,1.27388814081666,1.32547789176308,1.4418707321871,1.44263825790782,1.67553999996006,1.52136815016308,1.51912395675993,1.453485599543,1.46408816110007,1.45623663828774,1.51024015801651,1.51159646306754,1.64165999526318,1.61812040807494,1.6175862437303,1.39916271721858,1.3565343313592,1.36218133465791,1.3813997031779,1.38806463296742,1.45403412190695,1.46815119539943,1.47065046105831,1.60666857047061,1.75716323868925,1.52432790862752,1.50603000155075,1.45071211655732,1.45028367981694,1.45085082381381,1.47335130286671,1.47646726618548,1.73111577095162,1.73887970530374,1.74569379536157,1.29479617534182,1.26366366848068,1.25851762279712,1.24768000702484,1.23240627601109,1.20957450618656,1.2452762087858,1.46992999902534,1.44162361817708,1.67082999998107,1.27343763056025,1.24790164558494,1.25005472854019,1.25200690249744,1.28338567369607,1.30328900636224,1.33419424497771,1.65481999996214,1.25277797408991,1.20801005236995,1.2282960919496,1.26662999996049,1.28958868834067,1.37876000000001,1.42599965325575,1.56515499998099,1.35050823646887,1.51386999996214,1.20978944614715,1.19581776834029,1.22985784678754,1.25863214699974,1.339063779923,1.46941000001949,1.54980661988832,1.59529499940777
1.19683336175962,1.19065868708257,1.25616904542015,1.28520579310918,1.34633750405708,1.39894207589906,1.39762018092887,1.3985314490707,1.17948962267813,1.11534376926601,1.13143200183123,1.13120151481153,1.22007810525993,1.41146179520867,1.42211424631689,1.42828192466368,1.4110146734598,1.4105404923949,1.19468303873603,1.19111319048778,1.17142532932316,1.147060000659,1.19987213250415,1.45989666234266,1.16596774364073,1.15148612654496,1.15556057038155,1.13564000272718,1.18726260662669,1.20208998005769,1.27937764776332,1.35525333321565,1.25173583238725,1.2469761868997,1.24932675904295,1.24031367913957,1.2368358963412,1.18494452764566,1.18306788856383,1.14499000004429,1.21975188422369,1.36344000000135,1.39125403612812,1.60086553600611,1.23976273541414,1.20248000481976,1.22993538255742,1.23028812091651,1.2958796030694,1.30651699259696,1.32410984572276,1.38264999994356,1.33782987118199,1.33014321547045,1.35451119895586,1.36040885592547,1.42149609042986,1.73461999996214,1.5229801989034,1.72801917320357,1.49832232805029,1.46470830817608,1.47098783337903,1.47085032113731,1.38705495490282,1.38266999999312,1.34042529330223,1.35807245780893,1.35113539190909,1.39205832027504,1.34637642133332,1.26860999899606,1.24448118169687,1.25326749281,1.20972780135885,1.20940333454457,1.21401414337803,1.31952999527027,1.29956909713334,1.37282999996214,1.27919256841826,1.27453947004665,1.17637881965131,1.16384683553297,1.16192684119995,1.16471115349743,1.17526124673751,1.23099999999978,1.29689280946343,1.30930873474288,1.28220919435745,1.24253537028004,1.24049101515532,1.25467102322553,1.29334739641503,1.31958652679226,1.34331710943381,1.51012999996214,1.32634802417917,1.27046809233735,1.27758826592318,1.29743994931179,1.32556283166639,1.40172999999891,1.42305016869188,1.64309999998316,1.52115776287562,1.51976086199014,1.45219580773732,1.39691000004105,1.45142917775265,1.50167485172893,1.5084415748003,1.61560038638033,1.61930814221071,1.62324408451612,1.40098329380469,1.35601386172998,1.36386691679159,1.37103552886427,1.38829011053008,1.4432700189705,1.47808612402989,1.47995088785534,1.60562336239628,1.74930676125299,1.54161247484904,1.60309999996214,1.45101405864104,1.45119176230627,1.45119307879121,1.45137462967938,1.47732696304614,1.70444000000637,1.56908156542271,1.24959645698669,1.27904275695808,1.25897594663532,1.27804378232741,1.30625999262987,1.2568619519967,1.25451713852385,1.25743159737731,1.41721000475793,1.42945891904115,1.49330999489533,1.28418633789494,1.28301382086245,1.27945935558405,1.27522196165265,1.30099333614796,1.32169999922977,1.36050096228527,1.59500333331448,1.25760215231543,1.25743248445369,1.22999211680895,1.22477844845806,1.29202524115054,1.50229999995965,1.45385826771068,1.56229499998115,1.35066023766118,1.21973225950414,1.21046362919554,1.17398000034888,1.23051514104928,1.24640250162439,1.33807248489772,1.58510999693786,1.57456307373735,1.59215500447527
1.22255848064776,1.23292995524269,1.27075188528231,1.27494420601823,1.34883397903508,1.42530999951159,1.41452015948604,1.41047780808731,1.17545934827121,1.17548145036786,1.12768906268486,1.11997712740945,1.24051094057507,1.4172244001073,1.41978818268447,1.40642014413634,1.40646283281881,1.38931007218343,1.19819130529441,1.16612138679793,1.16770912594784,1.1897573954727,1.19616879029493,1.45732333383764,1.1671583986667,1.16795888670333,1.20799860783761,1.25661697357083,1.25234540526021,1.36368999996164,1.30531928752076,1.38585999995899,1.25201140128263,1.25053258408825,1.24977159551473,1.29642999995688,1.21805946812144,1.19491863877217,1.18125683923079,1.17972802424452,1.22166481026267,1.60550373139187,1.52231424860467,1.60832001599421,1.23918200030487,1.22974959625892,1.22967818601412,1.24480972985005,1.28477331209666,1.30579865698848,1.32312415292432,1.32299691999448,1.33777300493409,1.33688907417816,1.35077283549648,1.36144644831106,1.42182950602872,1.44375999999695,1.51991309967652,1.7126908267614,1.50892520460026,1.52125045101333,1.47815704316078,1.46875890127878,1.40364366570272,1.31691351191464,1.33673570034578,1.34472916690939,1.34619266496975,1.33835693814169,1.34332785335664,1.34250561383715,1.23789656891017,1.22296436293481,1.21036815680223,1.21132837759995,1.21775063499226,1.27175000235141,1.292362253604,1.29158255987359,1.28325305887787,1.27431458336135,1.17474483746414,1.15475588917123,1.15897361861499,1.18122412389159,1.17887412295461,1.30139229618476,1.29744854245571,1.31714129158671,1.28258047856265,1.21716666959914,1.22693587182748,1.26091893509624,1.29415717281506,1.32233349536014,1.34544056791587,1.41279,1.34450866864302,1.26517373599533,1.28141614021878,1.32953040341371,1.32654648851766,1.37553346248259,1.41908263929334,1.45412000000005,1.49436701421718,1.50555000766539,1.45006450932007,1.44597240597063,1.44729610672051,1.46401000045993,1.50718829972896,1.62438603124071,1.62160404831796,1.61671363418859,1.40448524347392,1.36456588422576,1.36450546547959,1.35364712764848,1.38715048156734,1.41985000126451,1.48779239678421,1.50863566372834,1.60394164757078,1.71778999998204,1.48735675549094,1.40636666459559,1.412554709852,1.41811771178539,1.43236214281866,1.47288921000358,1.47597436495892,1.75766999996132,1.56908176078387,1.25746354307246,1.32445319409401,1.44749999998107,1.28122634666643,1.27979999946322,1.25890843194019,1.25120542759578,1.25782548589069,1.26873713831122,1.36652205081256,1.48292000506681,1.29125552191365,1.31033635098307,1.28239422382208,1.28480282793493,1.32184004158408,1.33951999998243,1.38650651909815,1.59837666664766,1.25997153837787,1.20850003557709,1.23214098875638,1.27102999570296,1.29354462807312,1.40531999999908,1.43438092869013,1.61351000179729,1.34837638843467,1.23309769765811,1.2117237356271,1.17242000007644,1.23111469684677,1.24027533974764,1.3373547477702,1.50825000002155,1.57018221939267,1.61270999603981
1.24269110244043,1.28421297894988,1.29096304622811,1.2941299949447,1.35184283804346,1.44034999931697,1.41741862488543,1.36432000002505,1.17166626519086,1.10519000001997,1.10699704065777,1.31882999996111,1.26362671260535,1.43287733155376,1.42564813630223,1.42606250117796,1.4065392544217,1.40675464268092,1.20024990373725,1.20501523766337,1.16638741943316,1.13211132030821,1.17147628933392,1.16812943806614,1.1671489686582,1.1644570230802,1.23663347825489,1.27099999254347,1.24810749868212,1.24591740989461,1.23877056024764,1.22940448104302,1.23060351010328,1.23211398673294,1.23733503245673,1.24251171759954,1.20545292457863,1.18052829928393,1.18094812772989,1.18107935445495,1.22453520110038,1.61720626427286,1.52154609096394,1.23994351363191,1.23906747932604,1.1720400000426,1.21970088922947,1.21918051054932,1.27264033048162,1.34261699857211,1.34408702650988,1.36776999997442,1.33896580423293,1.28889000329613,1.34587981518125,1.35923264116043,1.42257429900391,1.42260523707468,1.51227023891779,1.74820999995932,1.50068964050813,1.49888084390108,1.48307248774,1.47005315805235,1.41624217872709,1.31740651100569,1.32865200053336,1.32034872918226,1.34707191810491,1.34788311302812,1.34577657696885,1.27045999995293,1.23348468952297,1.23367430507747,1.21041781070707,1.18068000004891,1.22174537971105,1.2258266471391,1.29314729116651,1.31856999192445,1.28714240817955,1.24112000002699,1.17183395680781,1.14968201154474,1.14543140687134,1.13968638664352,1.17918071790636,1.29232692986828,1.29390850944769,1.34633666675452,1.28289642584566,1.21671333465113,1.22169418563968,1.21756389919517,1.2960458151372,1.29471150999277,1.34647613076472,1.55447999996214,1.36393899583481,1.28705773647945,1.28532136180458,1.28757773652099,1.32599787639042,1.38535653754077,1.40725411772434,1.38063000113217,1.4818583735049,1.5833799999621,1.44423503814081,1.4111533332308,1.44231217286455,1.48941643846288,1.5048989674127,1.68234767108095,1.67516061674546,1.68250999996214,1.40978565940974,1.4169459772723,1.39661856100936,1.38941524598741,1.38657691773328,1.44733999999853,1.49318394262559,1.50103253878916,1.60044583341758,1.65948823527392,1.46137536860519,1.43403999400936,1.40499450625624,1.37037004773848,1.41252308141507,1.48010012035404,1.47620294029302,1.28471000003786,1.56908195895646,1.67902000129871,1.50135168558135,1.47994000000363,1.28412386703926,1.24970135111977,1.26008254518215,1.26148549190828,1.28321765066714,1.31831000000021,1.33421990007479,1.2771360909207,1.27874992646801,1.27872175016799,1.27602947983501,1.24906000173286,1.35382126063224,1.40717127345955,1.40866748156251,1.41020327344577,1.26380854081925,1.22203649137067,1.23485377102195,1.24305608295682,1.29373391073814,1.38665000000276,1.41174478254486,1.62886939082703,1.34449582161162,1.21738815134246,1.21414812131879,1.22990295482816,1.23208875508788,1.23066024874332,1.33683460313411,1.55653910942078,1.55334200040043,1.55158710943051
1.2443596425427,1.30135020327107,1.2949092359577,1.33193002571918,1.35497703909626,1.65135999996214,1.4182240684596,1.40876754650448,1.16993007527103,1.07372000004546,1.10621223444214,1.11524427178409,1.19348359650015,1.43418402395721,1.42584795534969,1.4261913688879,1.39626634408531,1.16290000004969,1.18310022336305,1.157294852349,1.16369162856348,1.14392868427293,1.17843025675381,1.36013999998143,1.349702784383,1.35453370815465,1.33525793454119,1.33910998798635,1.24430745237565,1.18178418401925,1.1822467054058,1.18180013243762,1.18350125572673,1.1863450873801,1.22016215152642,1.27545999928198,1.1965521952904,1.13651999953523,1.16803191281949,1.23313733027201,1.23033353876289,1.60183000425955,1.52045899855978,1.23846141099687,1.2385338701607,1.22204524667096,1.2211256468959,1.22133774089788,1.26153072666535,1.34281412249258,1.34419444500147,1.69619800585668,1.33888378145257,1.30765999677174,1.34042293793063,1.41463726375213,1.42394497170905,1.42558640846567,1.49963813318501,1.47957721446768,1.49676023621419,1.49210822462286,1.48806870083985,1.45469003297408,1.42920315819062,1.42280533046785,1.3479851179724,1.33097812144465,1.35020132398007,1.43584999995901,1.36530604720337,1.35717618779142,1.23006598979196,1.20250259346385,1.2109025498352,1.28104998928983,1.27005192536495,1.27430288054659,1.29374333245644,1.29645485239571,1.29550206299827,1.35485999996162,1.1675411788619,1.14414563324362,1.13643198185504,1.11310000061755,1.17765628321128,1.29054469155872,1.29208550685728,1.34720333318461,1.28213374526655,1.26398573585407,1.26497223180007,1.29174999420681,1.299649810356,1.32802999999852,1.3480579364774,1.35598545488281,1.3760391079408,1.43323999873486,1.33675092298983,1.32334149828807,1.32805400891765,1.42425767608779,1.43051666917803,1.46900754709514,1.46808772705132,1.45785001078033,1.44266917517386,1.41328666681045,1.43757585329832,1.49198238695193,1.50207798324267,1.68934232886227,1.59052917932502,0.00443236997013978,1.40764127194665,1.40644347343834,1.39647936201348,1.34996972418921,1.3850689823107,1.50285558053887,1.5025490413877,1.49788890328238,1.5950828600718,1.65287834457504,1.44238420612416,1.3751616241117,1.38476421135432,1.38655212108762,1.38398548582603,1.28212997910091,1.47510421070774,1.76998999996194,1.72226172150568,1.69292759533597,1.69187328580002,1.66966381463713,1.28966557888442,1.289349207412,1.28175149610508,1.28325215857997,1.29242489465913,1.37066999106663,1.34382867616863,1.55812833330494,1.26609152600641,1.25692996550794,1.27263091826802,1.45705999996214,1.38770537248391,1.52343999995718,1.48923834014523,1.5523799999836,1.26778674133816,1.22870347697875,1.23779381417092,1.29531702361359,1.29288297193369,1.33323999381104,1.38553890689141,1.63437756521542,1.34005668450513,1.20655066524413,1.20924952642537,1.19437983037246,1.2338088145516,1.23558174631345,1.33631054771142,1.63306999996214,1.41634845851907,1.26598721389589
1.24481548178777,1.23031842708486,1.2590980714133,1.26442474681098,1.35741749236998,1.53112999998107,1.41881187992288,1.15478481615141,1.1695829037747,1.10837370627391,1.09969671354383,1.05459000004261,1.15518569769884,1.15893025323487,1.21083168508441,1.16889000004501,1.38039824770539,1.37964500652356,1.23179398937947,1.23110154708248,1.17779684764516,1.1551499955048,1.18319198657628,1.38923999995915,1.34445014594366,1.33232612585507,1.32986517396604,1.25770000222729,1.24114993717881,1.22200999050252,1.18248572371106,1.18186113181804,1.18236779326637,1.15541000116068,1.19293944951894,1.1937858665181,1.18487224631955,1.13692000348215,1.15797890861662,1.16030763198831,1.23171492845591,1.56139999998107,1.51968977482301,1.54659999996214,1.25299111088994,1.22299383445824,1.21458514510466,1.18152000004624,1.25192064634861,1.28653999932021,1.33367728528511,1.68583199408654,1.3374725029082,1.33461706742505,1.34067697175561,1.41369824848037,1.43673444176053,1.48895000415844,1.50758268136533,1.65215999996214,1.52614775830478,1.50839974920236,1.51284668450257,1.51539999422095,1.43835394860258,1.37036997965511,1.36127689799667,1.3369555007354,1.35925162198805,1.40135999967365,1.37024539451671,1.35413135649803,1.22877501953257,1.21230008966347,1.21156669638029,1.18812000024216,1.25098765218513,1.25600834078517,1.29366086739684,1.29090053805944,1.29354962649323,1.27464003508122,1.16384340571432,1.12389282567676,1.13285296633596,1.17248309084418,1.17467912072121,1.15647303314141,1.27808813427028,1.27658888940153,1.27994214420666,1.22969000345841,1.26579857727783,1.27102374491994,1.3029770034614,1.38094895836893,1.381362178265,1.39008247165981,1.39349474309009,1.40545477659028,1.33787334634326,1.33071850416345,1.33175682358179,1.43927951183717,1.44089980296809,1.5383099999611,1.46772745520247,1.44047339975389,1.44008543667181,1.3865400008567,1.43388904613804,1.45905997154073,1.49924758770259,1.50567503603293,1.59233962159671,1.75133999996214,1.42848370298121,1.40908580935844,1.39664435818985,1.3432502758752,1.3864566999576,1.48508582992632,1.50650938949384,1.58926511224571,1.58949189899302,1.66450342009426,1.42820368791038,1.37819263493407,1.38209831613546,1.42212999994056,1.38154353346727,1.26792002095587,1.47263428237133,1.724493091393,1.73265976468401,1.73479296655587,1.70238046014537,1.66687173560415,1.29365765815105,1.27857623969131,1.28018636048661,1.25705000771471,1.30279469625316,1.31992287343581,1.33031601381765,1.55828166663827,1.26580565562067,1.24438003983362,1.26916433472001,1.27505426603199,1.36203130146463,1.44332286819926,1.47816541288803,1.58159999995961,1.2705646263208,1.24219991943579,1.24097653878018,1.26870379066806,1.28954313504478,1.32290000261272,1.35728999410695,1.63677304206561,1.33590715749668,1.21146317931742,1.21027247214742,1.19434019941985,1.23489677973133,1.33329054619088,1.33567419551101,1.34797125154598,1.38908590658286,1.63472999996214
1.24502981520456,1.24510739296093,1.25461988958285,1.25894033548409,1.35904512206981,1.43277446523784,1.41954246880263,1.20561001024379,1.18151033134888,1.11449119241408,1.0866173183046,1.080167029274,1.15158539075889,1.18029437070262,1.22704589369629,1.25533474999142,1.3812106393285,1.38110395481131,1.23227616142154,1.21234560060003,1.18174659129072,1.18387026918889,1.18774005375538,1.25322271630528,1.30666886644771,1.32804788420701,1.32854639408595,1.28218044674365,1.23862189905419,1.20036768049698,1.18241999916169,1.18165790285224,1.1817615168237,1.18930512226108,1.19265510396959,1.19294173933715,1.16970442617357,1.15258913713627,1.15533710874637,1.20414614894911,1.23383447769182,1.38085755844194,1.35643536825775,1.32899120658284,1.26680925080958,1.21360581869372,1.21044396109519,1.20639922924157,1.24355891086521,1.26994691278516,1.33137656554028,1.33976071889313,1.33838525205411,1.33777300254188,1.33978435980006,1.37430376003371,1.4440734760434,1.50985827754578,1.52464348055921,1.56171337912322,1.54408361404682,1.52840013623719,1.51487353829843,1.51342301609774,1.44886836808501,1.38766484487398,1.37940185961892,1.36478679491901,1.36977985975276,1.37493451643804,1.37326879081204,1.29224143731346,1.22813624550733,1.22556249688641,1.22577032940666,1.23228992390014,1.24908625392984,1.27119222612323,1.29510475038062,1.29338383551535,1.29357980918556,1.21564042664744,1.16087059947904,1.12830774233941,1.13124438906852,1.15314209522863,1.17389117134162,1.1820720702707,1.27873760898605,1.27877532739885,1.28011694444547,1.25104642558748,1.26627990512211,1.26832671728843,1.30548046699067,1.3629595060382,1.38204609319288,1.3935917403311,1.39579680516632,1.40054082458283,1.34059866464183,1.33724371632132,1.33599427706059,1.39919774726389,1.44193125393719,1.48605566795414,1.46796544193513,1.43905758190681,1.43776567703176,1.41651483706273,1.43183408867737,1.44910663337875,1.49687178427742,1.52164435078438,1.593596710389,1.59362201416925,1.44229909853688,1.42006349607394,1.39824416591998,1.39108427949167,1.38976705598259,1.49574861095946,1.5095187253359,1.58194178225207,1.58331932336591,1.61148270120159,1.41063386044892,1.37977850391663,1.38057866249665,1.37984401727464,1.37999777568388,1.39453712007748,1.46937702019454,1.71900092385795,1.73737160595447,1.7371171353609,1.72002624292259,1.70218425966922,1.29873327193903,1.29983211395469,1.30089520933237,1.30170407429186,1.3101148100942,1.32589818640254,1.33048137479294,1.3076693397844,1.26506843702202,1.26437520757636,1.26593041218866,1.27298506317423,1.34841735227239,1.44712947759652,1.47137492484401,1.47751504181424,1.2732741450846,1.24242412121592,1.24253510501042,1.2660525644225,1.28729945998559,1.30660247357022,1.33022353805609,1.33080825195946,1.33213216975307,1.21460503157437,1.21334800404282,1.20102738571143,1.23678588946525,1.29090741458801,1.33733831975778,1.35005781927094,1.35141780181271,1.35189370552349
