1.1115833100086,1.2131799461774,1.26126402467775,1.24403495498359,1.25485535116404,1.23646959236709,1.23644900040778,1.22851326401674,1.22044450945916,1.18988478277345,1.23215295634932,1.22883932476205,1.27175720236403,1.29356484052964,1.30291623091375,1.29429642287694,1.30409397377969,1.30277736824506,1.30236113654988,1.3229601514677,1.390700102222,1.41836110376891,1.45419362937152,1.44250171878568,1.43087438918932,1.43737340272334,1.49601800988067,1.51408006512732,1.54122621149638,1.59359948950897,1.64218521232796,1.63490482373108,1.60403891285363,1.60791096119339,1.61025826886993,1.6043829250184,1.64991085350304,1.59557603448631,1.63610974512839,1.61475195144203,1.70204438018315,1.69918349431399,1.64730358369428,1.61680593755673,1.59625931457012,1.58905329549766,1.51454461267101,1.51360458498994,1.4709685406525,1.49274875343719,1.49065800101006,1.43376093438173,1.37235009246307,1.42691469494452,1.429828634587,1.43268668292961,1.42351774728756,1.32944074992268,1.29160922233297,1.34278594997363,1.40612779559342,1.42741257895344,1.38732902724574,1.38807351158876,1.38860864540899,1.37758852062612,1.39292643945048,1.36692939128617,1.34573988949637,1.40170384540731,1.34738350116665,1.34563080353811,1.32485683631806,1.45245212082318,1.45519645367616,1.47264692975143,1.50343168373324,1.45121860000522,1.42042814307107,1.42018817929943,1.46857863192406,1.55491193969509,1.93231999993936,1.50814147661891,1.49285696754149,1.45872816677462,1.51520055476694,1.4392102489957,1.5046721424273,1.62467019457247,1.74510003317549,1.77197394588989,1.5823054429475,1.58123942216502,1.54213518590931,1.52254927858684,1.59523996162479,1.62347173922334,1.67010070475398,1.73871113342528,1.73926195777871,1.69282454411006,1.68715664586073,1.70986377513502,1.88112999993936,1.73272017696094,1.75718043600129,1.73552502334478,1.69817209819642,1.69769189823597,1.70015900974693,1.75113862093622,1.84595926871256,1.84778354401027,1.83609794614881,1.84937185762889,1.85869559138594,1.88238468389031,1.91405790888009,1.91517318837356,1.57363661361487,1.53135602397126,1.58537697747608,1.56125784691497,1.55901948996353,1.50161297567236,1.48226431264003,1.48533945924428,1.47088498706811,1.53979993936959,1.48516527326349,1.52234167473955,1.54863784151152,1.54895910281046,1.52697889676255,1.5639899692586,1.56405495324317,1.46751576363513,1.47316534018678,1.47789738024533,1.50834373237282,1.5406724791986,1.64734995405984,1.60211668747044,1.6093659667872,1.52992219682383,1.47424159563957,1.44046374650975,1.46103985849492,1.51302000080204,1.68570218056952,1.6515760859832,1.48948,1.45562299205592,1.40646998113394,1.31640431875156,1.28395669169466,1.24296287277555,1.26664735641014,1.30927651713253,1.36829998399829,1.41208000834294,1.3450541752674,1.32998046340875,1.31120396872499,1.24611457161957,1.2354015713944,1.23497515528601,1.23359765945129,1.25775098107478,1.29236390257819,1.37462941256119
1.11259061618199,1.17525004422374,1.22122161314129,1.22999783088672,1.24667692934131,1.23721255877127,1.23650757256525,1.22552114364984,1.22283990838588,1.23322022142685,1.24604528186706,1.25949562314264,1.2743838323518,1.29147440298593,1.3011592201991,1.30124288487499,1.30245602720081,1.3026363588138,1.30268927707805,1.3297488723235,1.37678114144533,1.40773116793122,1.42118632828943,1.4296136271486,1.43414878762709,1.43712858541096,1.48967366665387,1.5407742350276,1.56487196122701,1.58826628299984,1.6328830067919,1.62846507676289,1.62481644163706,1.62490162031663,1.62531691505565,1.63605919443877,1.64002785513833,1.62290079118906,1.6266914290734,1.66537685789804,1.69970810515921,1.69866521454566,1.64705684859044,1.61808399855822,1.61706898967789,1.57906624927111,1.54497389555019,1.53286275131701,1.47591511937499,1.49344441133963,1.49283167954713,1.4468312732909,1.4386782368388,1.43770950018995,1.41606581559118,1.40572276162584,1.39556336454725,1.35506789689763,1.33437361787169,1.33665710734503,1.39215374019877,1.41508988686714,1.40777241003505,1.40341172474143,1.40109538298642,1.39649422377579,1.39574955644733,1.37595952637708,1.37554055810587,1.40015310718025,1.39771609115401,1.39542857344681,1.3928649040526,1.45666367311372,1.45847994539453,1.46338156209278,1.47549328462849,1.46557111937063,1.44671687964445,1.46774373067575,1.50085713743452,1.58021846238079,1.59206228615869,1.52360068845403,1.51175257072352,1.47232447513908,1.48211482263233,1.47156348477295,1.48554608589329,1.61570351610785,1.73335296857021,1.74571514549341,1.60526734740785,1.58997504190377,1.57146361196117,1.54786148664133,1.56133662789383,1.61171080548722,1.67501971833705,1.73575667798519,1.72677414012832,1.70751893654501,1.7094663843742,1.71402617529252,1.74134217741672,1.74124181606721,1.74029845446428,1.73292563085592,1.69846461933729,1.69874380792038,1.7010962854954,1.74856793018837,1.77412125156767,1.80703862648986,1.84810645529401,1.84563207796539,1.85426624849114,1.90259837342827,1.9175099525359,1.9252010871417,1.6012020734296,1.56122492721146,1.56793731512155,1.56415724939638,1.56135941693012,1.49136668797509,1.48014426239169,1.47785365318002,1.47488852633331,1.47861198597563,1.48029697888122,1.50579506726593,1.54825452405457,1.54822292220264,1.55067960164565,1.55575869208584,1.55458710890701,1.51752707532873,1.50505789328806,1.50594229105491,1.51566202538724,1.51754295084036,1.51986007608701,1.52267017505349,1.52413067112199,1.5221894682924,1.47582737765463,1.44564325203329,1.44928500049073,1.46086532604943,1.45804141951318,1.4548763140483,1.44293542280606,1.44032701015218,1.40962082488891,1.30950748703313,1.26217217431856,1.25049217286337,1.25800055042998,1.30858521364352,1.34895314272196,1.37017406776641,1.35090438152244,1.33524842130619,1.31487287034321,1.27940675245345,1.23715804519498,1.23512535098714,1.23450253805226,1.24282835600032,1.26355229462798,1.26563808778489
1.11110889705325,1.15008001862765,1.20226057881661,1.21643831799884,1.29767992025915,1.2388476861915,1.267337163386,1.19438966944247,1.19308637422055,1.27690333828762,1.25869187400529,1.27367049423046,1.27655385867773,1.28940367001729,1.31303213506932,1.30146097015907,1.32226689048022,1.33179084894661,1.29253047594114,1.33639705222771,1.35715655329401,1.38281885892103,1.40744528746861,1.41898918598605,1.46702833193069,1.43904730931643,1.48305761608363,1.59456959324526,1.59324303169229,1.55597446129896,1.68355983948332,1.62194758643294,1.62587330825783,1.6253654097674,1.62604051785318,1.64294452713681,1.64461385487687,1.59913967619508,1.59902828573508,1.77534160842493,1.74784076008896,1.75897923858288,1.64485546521219,1.62266442778176,1.62373338042938,1.57219447091926,1.57394258375976,1.54384063547136,1.46751323266627,1.54487029455513,1.4994027902562,1.46543006606909,1.44538079583288,1.43905878663628,1.37363012985217,1.38188873281271,1.38082658840943,1.37224852665531,1.32978517137205,1.32914817013715,1.369138979057,1.53621999993936,1.44558991164332,1.40786132862438,1.42714175066891,1.39626529219865,1.40471078017875,1.3771817643981,1.37628146619179,1.40133105003595,1.40521599235821,1.40493621898033,1.38959685628142,1.4666272783207,1.48780199387295,1.4481529143495,1.49151600381438,1.48871242871038,1.41636007850782,1.48413953946918,1.5226899841268,1.64432817430367,1.66437182566601,1.53808345703153,1.51931510968157,1.45756599826473,1.49870545067689,1.44736673220144,1.47141832180999,1.59909952792218,1.70669981864645,1.76450999993936,1.61193840812203,1.59185449228089,1.5721966647581,1.51509187029185,1.51221243431244,1.60628006297749,1.67772448177283,1.73802424347869,1.7025857469423,1.70455705755371,1.7098601383838,1.72290368855353,1.74128236514728,1.74108736831073,1.75042300013637,1.73090618478815,1.69711554889966,1.69583032158798,1.70265426842992,1.74981801302291,1.74861254501034,1.80195877142117,1.87215278023707,1.84219025618435,1.84307915033312,1.94474994804729,1.90684930924597,2.01456999993936,1.60658174521559,1.54404540605758,1.57780179019503,1.56856539062286,1.58683819372643,1.43004604553077,1.42315821213324,1.46988907214383,1.46513598311024,1.47653992153006,1.47783261551516,1.45178487395381,1.54757259349729,1.54725570984946,1.588533423551,1.58103494502981,1.53690737309304,1.52575941359996,1.50512435677271,1.50779322893475,1.53124241270294,1.51866992364095,1.52051390782264,1.52421304337398,1.52698904804655,1.5206967671981,1.47762555957922,1.43861539748439,1.44128885479297,1.46244968502316,1.43735638211021,1.45191968015366,1.39754573870482,1.42267596947413,1.41200588260146,1.30260571857502,1.24021429660241,1.24608619526282,1.24499955983402,1.30839739845405,1.32281005697223,1.3948899249849,1.35588650242515,1.34328698000638,1.31791497098163,1.3149931345916,1.23960978276796,1.19397999324574,1.15072579933053,1.22953794874344,1.2616262215279,1.26704453040327
1.10017336677884,1.10690526926547,1.19610994512492,1.20688340027204,1.25816364639114,1.23335076074607,1.23492830946954,1.18404540956483,1.18484870121606,1.24319046347036,1.24331728141142,1.30990459170945,1.31738765121758,1.28631582690527,1.2813769473561,1.29567521701118,1.31314398721019,1.2806068950236,1.28268788951691,1.30572795977014,1.35658323294252,1.41395392825979,1.41788789600592,1.40490470941963,1.39606527380388,1.41010737381489,1.42979001576616,1.51352856207925,1.52647143983688,1.80167995020364,1.69109016048636,1.58669971222244,1.60223213127686,1.65952580826124,1.66914,1.79322741686647,1.6947400538362,1.5948566450007,1.5951905130638,1.77498827570975,1.7161982313588,1.64220932919713,1.62976958007353,1.62668983774637,1.61017252875462,1.60931061447178,1.6088124780548,1.55161936530643,1.50227004052431,1.53075958848279,1.49904918590389,1.47196093110415,1.50813826658381,1.4516370109514,1.4500133088157,1.50238997001649,1.39602231168936,1.50689999993936,1.35723612501542,1.35642275002854,1.43295481761237,1.41135396050576,1.40905769446495,1.40309193757738,1.3883067104736,1.383124775891,1.38487308266795,1.43716625375324,1.39078073948381,1.38074907789747,1.49591998574506,1.58975999993936,1.47893883721759,1.48200528160099,1.48540871047459,1.46365680368108,1.4816471119177,1.43415488891882,1.51071902992472,1.4940406480846,1.57527984240465,1.67559001468087,1.71652998528881,1.55631096395468,1.51307515764283,1.51129864892065,1.44911739177167,1.51390995109833,1.62905610404633,1.60264838927077,1.6646376425618,1.68361239617291,1.60838639062551,1.59524797851385,1.57214454659162,1.58833254122297,1.52083586953757,1.62223941650075,1.67650152105924,1.74851129231455,1.70792066368558,1.71922487633927,1.68655690547209,1.7290433700904,1.76987662064974,1.7461598025743,1.78040994160092,1.72409463041202,1.70172366581644,1.74764566794384,1.75583057380763,1.75415251942059,1.7823690462185,1.79253148418502,1.80342,1.89954625293853,1.84806415608893,1.85660430504128,1.66222166666732,1.66106833333268,1.60586797340282,1.50855871989494,1.5067228729691,1.49355741428481,1.4861566986412,1.42694967201159,1.41510372645417,1.44773718589142,1.57838999993936,1.44595028575781,1.43376982364687,1.49416565037647,1.52005006285313,1.54671679983648,1.65513000023071,1.59640746500739,1.54244576587127,1.54359867805061,1.53356933294776,1.4920146377308,1.49685794906127,1.49885174714185,1.61207959730437,1.61615749688991,1.6651699883004,1.51082418762395,1.49528430603201,1.39629179683962,1.39854094427525,1.43606746485351,1.45409037496904,1.55740999732569,1.520358870671,1.43271714174405,1.40071082425228,1.36559999975668,1.24362129614856,1.18755612138174,1.23471617445116,1.31766052792373,1.37115159125483,1.42964999427033,1.36099697275325,1.35194536077488,1.33085473003882,1.31946629971199,1.23983183328362,1.15117381278851,1.15134313439241,1.20822694373521,1.29284194362934,1.29448994508458
1.06788600303765,1.10146516299842,1.18642790496431,1.20002434784504,1.195808731657,1.28466997343266,1.25403981527275,1.24835021905469,1.20619795613004,1.21230057218827,1.24355846370458,1.26667782971286,1.27424380086669,1.28207793340499,1.29671723256216,1.29666794112689,1.288937227644,1.27413544313121,1.28156422735377,1.31153943808867,1.3124126178707,1.42056184458875,1.3704411484012,1.40309487512128,1.41634694187783,1.42118063353852,1.46928397728998,1.46839035205448,1.48827034343057,1.77162262480487,1.76123742487021,1.59006652079193,1.66535771187866,1.66128670143709,1.80924030393496,1.80398227910761,1.71893994613348,1.59597509813581,1.63685998632805,1.74395113947094,1.7379708111311,1.6621023599355,1.64919578956107,1.63144837311232,1.62931657584542,1.71540006125793,1.79260997332057,1.56577786153153,1.5955004836092,1.57279959854933,1.56724847398757,1.52089575528418,1.52335581649859,1.45317657518829,1.4543061214364,1.40251432455566,1.36399012046765,1.39236001721693,1.45370104698789,1.37125610488116,1.37047634874423,1.40576592122041,1.38838427234969,1.38950471658223,1.38856501459962,1.40051751527532,1.41481165693526,1.45363358056548,1.40949003048035,1.39945086031072,1.46895747966208,1.47396803305621,1.47400516277378,1.49016360335506,1.55148666707971,1.5556733337119,1.48544874596682,1.45485515427391,1.50635174668471,1.53800440207207,1.59065015759535,1.74423485494229,1.76901599930221,1.58539639374732,1.55977437844336,1.49578081322556,1.45683147306217,1.47836198868342,1.53010996895672,1.72631999996968,1.83818999993936,1.76279999996968,1.60671510174915,1.59781615924671,1.5736212649503,1.54422008523608,1.52206974906861,1.57053960607091,1.66073807941549,1.69731684391073,1.71679768107757,1.69996511710537,1.66521408957562,1.73271500247514,1.75080909245376,1.80221457312978,1.79963286793166,1.79866257319936,1.70307662966497,1.82147999996968,1.87194390031081,1.87183648188185,1.75410044404532,1.75001280832126,1.66981631232219,1.9005266384689,1.88668499367813,1.65133998578506,1.61923189596373,1.61751858284862,1.51571318765112,1.51532121103044,1.49477439398597,1.48730554642586,1.47897629451542,1.43600866375551,1.44298371143466,1.49461013074455,1.49049667912756,1.5653967842027,1.53395002311447,1.47039869170534,1.4916980485306,1.54810997780466,1.54901441247069,1.59899407551626,1.56920396546295,1.54705035920425,1.50889048710228,1.49056754152937,1.56861029007161,1.53524876003,1.61981121327732,1.61731604940594,1.61043999774958,1.52947954196695,1.48606868863061,1.48453997208336,1.39855578890436,1.45343418808777,1.47596280783725,1.68877999993936,1.51289112882775,1.45474529123973,1.45818746200813,1.40597544394088,1.18309663592039,1.21918440043175,1.23622384348886,1.23829257959245,1.3635683972422,1.55393236659661,1.36784195541892,1.35811934855423,1.35218739230475,1.35623977446951,1.17831248766874,1.13973271524671,1.14475450742829,1.21376132332929,1.20172178700269,1.25181999143746
1.0884865512341,1.10246053931994,1.14138199667286,1.20324170433769,1.20454045947075,1.30345273116468,1.30501265450703,1.27070733191322,1.2477406294562,1.20190708328814,1.2191768621783,1.27525899498249,1.27727605931162,1.27205035542057,1.26528992957209,1.29451180693376,1.32366253529012,1.27478943087315,1.32628558328347,1.3622576479415,1.37495751165024,1.41747194378394,1.37449233114248,1.38981297733824,1.38934122965398,1.41422926427673,1.50610155771148,1.46052197814578,1.45933509166764,1.52070423115498,1.54102509618843,1.57182051643931,1.6408531987497,1.65713222223703,1.89330999993936,0.00470882107028941,1.64901440590282,1.59307254808153,1.75417002457873,1.7815012706071,1.78329549236105,1.68961289030051,1.6403373394,1.63765845950832,1.63463900279843,1.74004286415333,1.75102884633514,1.61701528012445,1.5820884273894,1.60464206122878,1.52854010218266,1.49353314418332,1.47499007564258,1.45407255574067,1.45225539273034,1.38259569374392,1.44515264039483,1.43461313068723,1.44302605023951,1.37959180845754,1.3635268957119,1.42271429472454,1.39396690610076,1.39279918023941,1.3950427682914,1.42529723073685,1.40351769895651,1.40389163616196,1.44181961658555,1.46059879757389,1.48766572232609,1.47212195614892,1.50874248714676,1.50826124443551,1.60443999069628,1.48699625482442,1.49074367520296,1.42181008677134,1.50569785061186,1.51991842481255,1.8083499936613,1.74692720428191,1.78462388893206,1.58602094483451,1.58593493538087,1.512503362605,1.50061584751126,1.4615688229451,1.50749245059912,1.54873635477177,1.55405500768526,1.57174335647624,1.58760160835661,1.59926376375319,1.61847216769023,1.57679765353578,1.5685957076539,1.56958366048879,1.64060741863841,1.65862846116711,1.65962970883138,1.66880242108369,1.65730694134767,1.73628219181819,1.73770094458759,1.8326474227501,1.90083999993936,1.74447019323171,1.71888204609718,1.75025559040288,1.86186122874782,1.83975838893824,1.73947101202311,1.74803101284699,1.74113126422273,1.68536817431158,1.88979204489509,1.60691177889078,1.59696896733771,1.59908793675304,1.53188113129893,1.51356652102986,1.46079814048612,1.48214850362151,1.48409512413011,1.48255565414259,1.48030896724012,1.52345632016896,1.50776179135847,1.55411313861308,1.46782530871746,1.46664047223977,1.5123991491143,1.55006930221029,1.55325019885008,1.55167403616151,1.5544419808297,1.52187561360609,1.50081275224154,1.45476876487412,1.55817100987919,1.57465538351136,1.74362999993936,1.68232228358125,1.65616538739549,1.54332421482007,1.53613708906009,1.53181256857577,1.41769513974729,1.43746934317881,1.45339135793865,1.47544616749258,1.48407571189081,1.4514427996971,1.36622009569162,1.42769770346265,1.21199739748421,1.17659990188216,1.22966419461311,1.25713200271547,1.29966998262314,1.53217877161065,1.53181886167145,1.3645986937951,1.35347993619369,1.3440144615289,1.16655682024396,1.09507670148941,1.13634483851908,1.10299184407241,1.10702145175041,1.09139821887851
1.09560368707966,1.09872565790889,1.14250998850441,1.20908245415382,1.23934745921631,1.30346374571045,1.30398352067355,1.27218364527847,1.23230679985791,1.21980393785141,1.21973927731644,1.24393375829502,1.25800706368472,1.25904200688991,1.26217299688978,1.29671321587168,1.30736181839459,1.31052168040477,1.31568775121381,1.36676995423032,1.3735892313941,1.41237176705573,1.40763308684478,1.3904061371133,1.38972933715816,1.42576047752576,1.49486882958742,1.47300731938911,1.47244102803568,1.52125122829562,1.57407295379566,1.60642659756031,1.65371810844801,1.6536549511692,1.65265494756282,1.65371348823927,1.6501783198096,1.65131859537207,1.71934387744742,1.78533965555923,1.78570278864499,1.69398360340507,1.6938524617378,1.69293259930533,1.69375404349371,1.73885715713404,1.74355563322463,1.65407950459974,1.6165301673491,1.61397371735784,1.55992059766778,1.48975350727018,1.4660514774557,1.45533955174013,1.44668424345867,1.42402719944683,1.42213944495348,1.41906823386874,1.41694957549806,1.41573718636966,1.41256307420359,1.40707636123697,1.40116333322369,1.41090483206119,1.41625721212417,1.42364943474404,1.42959799592124,1.44301004961827,1.45568305060255,1.46852386588662,1.47433869305162,1.47757058192918,1.5052991170113,1.50845984866799,1.55152143316862,1.5245046569426,1.49012936581847,1.47227515456382,1.50785303101934,1.51364726863509,1.67957833129096,1.76784820576145,1.77969906123949,1.58752365072159,1.5812141436585,1.50819410034639,1.50329701391115,1.48926683201838,1.49545884771216,1.56777123095047,1.5797199333709,1.59776352043278,1.59841002882854,1.60292130763825,1.60749924635902,1.6034337953464,1.59940484608153,1.58599761573479,1.63655310056066,1.64792391863231,1.66402325024919,1.67031715082459,1.70358124710935,1.73911760495198,1.73974289992974,1.83860914985208,1.8389338730194,1.76089616075469,1.75111265254773,1.74916706676896,1.7916434849112,1.79878020907899,1.76657148780203,1.75551392930938,1.75245315486596,1.71756837308461,1.64213604006848,1.60334273973935,1.60091030181883,1.59948922614883,1.51681542554116,1.51105014266073,1.467639614009,1.48095512898654,1.48883774602198,1.49549616053317,1.50507740954228,1.51867138902294,1.51491504579219,1.50390825456384,1.50195469260247,1.50673111740115,1.53292620798969,1.55136493949683,1.55166875585728,1.5506417739968,1.5488417845203,1.52289919917049,1.48724098385379,1.47636549117271,1.5186479225762,1.61320886201471,1.70577820129417,1.6910820328619,1.67843765082337,1.54641189108052,1.53579589492639,1.53387067677868,1.42480633553438,1.42933002924385,1.44151069790243,1.45526711553685,1.44871462852196,1.44664206018537,1.42381756674924,1.41297846940238,1.21055485490068,1.20832100030227,1.21465071060822,1.25744952432059,1.27483672469715,1.30466812742341,1.40187495509915,1.37542906186554,1.36264095498258,1.34157001132024,1.16672748311425,1.10681769746114,1.10596154887034,1.10544729425581,1.10670927398688,1.16314437791697
1.05198330223386,1.06569085096146,1.14363799668147,1.21300975202435,1.26669001976434,1.32995761990722,1.3202623706359,1.2738273318643,1.22391964019127,1.21917182287287,1.21964666409006,1.21969685383868,1.2492121185112,1.2564920759334,1.25485151737255,1.30041006392757,1.27544413081783,1.31192046938754,1.30595180180145,1.37122369635277,1.37203342870416,1.42812710309726,1.4123227889577,1.39156444824607,1.36655611351045,1.44173017550599,1.51030265196141,1.47370863759543,1.47179429028654,1.52126423117592,1.57832,1.70038624772141,1.68361852257634,1.65218257878396,1.64421001887123,1.76512000023012,1.63120348150361,1.65499846712498,1.68587178353325,1.79669359534138,1.81196358065743,1.69496389277846,1.69646368507041,1.69399275903518,1.69759689515599,1.78516286681057,1.7461018472053,1.74308989800571,1.62219172116308,1.67475740403695,1.697646974217,1.48663759040668,1.45948782195319,1.4571106575324,1.44064844795278,1.42656288221566,1.42315209265974,1.40229713533057,1.41113085184195,1.4251127585352,1.42085073791881,1.39712018606662,1.39376890437579,1.41560257126696,1.4265456113599,1.42169777989795,1.62274002667453,1.47730441832735,1.46129763152228,1.49307293771365,1.47201271285758,1.48134480945065,1.50247386256706,1.50924916716376,1.60026999996968,1.66922999993936,1.48925835083705,1.42723310649584,1.51019993729465,1.50723920654891,1.64168819671584,1.78658230126523,1.79290932645213,1.59105159024759,1.57468910996423,1.49199801552616,1.50542296045349,1.47455569633445,1.47522253559595,1.57316754861038,1.89242999993936,1.61006262592144,1.61332603123543,1.613392714331,1.67295077985074,1.67352125289766,1.6656221306735,1.5446967046411,1.63139436820389,1.63917091857392,1.68272857321145,1.67597640192214,1.71599920046816,1.74147228259242,1.74197493388612,1.83478821084301,1.827084822612,1.77083655899768,1.74958801018253,1.74984256540894,0.00475890106924358,1.85731999993936,1.77103352360414,1.75756859340621,1.75353177310422,1.89842999993936,1.57572324361984,1.59491093640581,1.61627396665871,1.6271807313305,1.46015003998824,1.50895674045178,1.46098424355962,1.48026202777273,1.50985121285758,1.56155994984868,1.50866137697849,1.52561222365018,1.52629233282182,1.49614169439543,1.49370247283405,1.511844092486,1.55290232304331,1.55318704092664,1.55265079278442,1.56982454394644,1.54421284586516,1.52364448644908,1.46798260449884,1.46731093140228,1.46601460865971,1.71387334394198,1.7128466828337,1.69644463944089,1.69963256519134,1.54800572153852,1.53670230721565,1.63040997639834,1.36487851593753,1.4042499619692,1.428424727936,1.5185748479071,1.34739000041583,1.44074774779048,1.43349039030579,1.38945366999213,1.1895417282822,1.20586996534715,1.20498201848777,1.25816402562105,1.19545500709381,1.19687500814749,1.48418752273833,1.38848775659684,1.37173628527577,1.33890170534796,1.16683684181926,1.10678483927832,1.10502318192084,1.17290995157329,1.06101000388455,1.23442280249696
1.04520389961454,1.08918279917918,1.22295736246996,1.21721418541969,1.29489040660966,1.36169272624102,1.34336724912143,1.22097214412008,1.23398670569721,1.26717120598947,1.25301880376412,1.24170853412549,1.2744387709969,1.2701401431554,1.28192772408459,1.26961649587563,1.28774637646095,1.29490126462763,1.31978283185454,1.41765317561667,1.37184953042102,1.37250094894249,1.3913066322532,1.39207482029111,1.39033853445132,1.426324178252,1.4499500660863,1.49170206149379,1.5162129371816,1.54908997872031,1.73562662659092,1.6871270540241,1.67086574837475,1.65080407510313,1.64534432130003,1.70083000620387,1.62217238237321,1.66847203843718,1.65858284639409,1.84240292731016,1.84141578425662,1.71391596562206,1.65545802835376,1.69079266636097,1.68896239008245,1.77589126102541,1.72377677928331,1.7430726194123,1.74798895845348,1.72804812601822,1.68216355269209,1.49236467453215,1.51795664743962,1.47424888914394,1.47063244243422,1.56879412482189,1.55527040623044,1.43706777732172,1.41028559948359,1.47261154527286,1.44084185016582,1.43055033466425,1.43118523805785,1.42529363961232,1.41422182166908,1.48181002826083,1.64757854340353,1.51723998332507,1.48043760776938,1.50684368728407,1.46369810188896,1.47899453539712,1.47309235849023,1.51039206924555,1.53387624307352,1.52702822198398,1.52095859770265,1.41880891432373,1.50911974377099,1.51959176378387,1.55570494446986,1.73624618025757,1.77525825805514,1.59636991967225,1.6024895051187,1.56536465382703,1.5002756643055,1.53474599353328,1.48676722831773,1.59151325831829,1.62370004770543,1.59184359542777,1.59248614857936,1.61343978571334,1.6139506297981,1.70455986578239,1.66592593675488,1.54376337599332,1.67214172249801,1.63570563343073,1.68027832435595,1.72746978269302,1.79918999993927,1.75644721804492,1.89911997977784,1.85116632738427,1.85031936180455,1.77242765687818,1.74651151691687,1.74779957404878,1.7519527403939,1.79199767232909,1.67526681744424,1.70250113024468,1.70988999996968,1.58209007501709,1.63706733264206,1.59125485004401,1.55713000475631,1.44772594861875,1.43677094518965,1.45202346955026,1.47795709405252,1.47935536778598,1.53486996236176,1.56091995230761,1.51271833227328,1.47745431235889,1.49873592853933,1.50067780666332,1.4782611229632,1.49682062200071,1.49601904627204,1.55664984882315,1.55804705474941,1.58255353835364,1.55822028457884,1.52390089594999,1.50065291828029,1.4659986087769,1.52449996271692,1.54332000626932,1.69378181899889,1.69544928549298,1.70135810809718,1.56591127499912,1.55782862885794,1.58837994165133,1.38385812482983,1.38051702957678,1.44869939587921,1.51651427138319,1.51367084798481,1.5023446061284,1.50219237122662,1.42003834962654,1.24229197331327,1.1901936321145,1.20953936187644,1.24249872251969,1.29366070740369,1.49802095603205,1.49884721409776,1.40142289635945,1.13899577390369,1.13989583437575,1.12992992544502,1.12745877220736,1.1003349221031,1.06465001870366,1.18823665115515,1.2158872084395
1.08628678835102,1.08750562297837,1.14167999999999,1.20242022405323,1.27221955410988,1.40763792215102,1.42011550531457,1.28902000044601,1.22457524077009,1.20644640549959,1.24427129952014,1.31030192499163,1.26557599408499,1.2668307925632,1.26616004051302,1.26757318120136,1.27939472325475,1.28264162624504,1.30438196945307,1.39244676119394,1.43763275013194,1.41637450690017,1.39801742460929,1.39534435540562,1.39470556880577,1.46097004999606,1.50288985878521,1.43783840748549,1.49728514781863,1.73696679051316,1.72392655959147,1.69563925573786,1.6426944364562,1.64880529578096,1.65164938361286,1.6374360500478,1.62797887729329,1.62769461078872,1.65840766079363,1.74855000003032,1.85191132056165,1.72043986976668,1.71302262476298,1.70509565969898,1.71326814832129,1.77249572356611,1.73966462235423,1.74253296379697,1.73790420702167,1.73813887179041,1.69916206848118,1.54192839389351,1.47858678265262,1.47637270416716,1.46928437411034,1.55599546888702,1.66573999993936,1.44174170673022,1.43471370703962,1.48243832048954,1.4454071783643,1.43986636204759,1.4854218693102,1.47801813657048,1.50427132164097,1.50615178849248,1.65399145321167,1.69598997655867,1.53656324575653,1.54496968689296,1.48806510240995,1.46038720004056,1.49827009072513,1.51156141101626,1.51256988033208,1.46481687869279,1.46206528199903,1.41794716165759,1.43741997986395,1.49352841800244,1.56609761213545,1.76518088095022,1.75060862928121,1.59574765751372,1.5749132123991,1.55688541969765,1.49997018172273,1.51054138745272,1.48395309374885,1.54330371952845,1.61043842941501,1.6085140779014,1.59402765736021,1.61356624248755,1.63609356591931,1.65490573321093,1.7074637395105,1.72447104492395,1.65166864560653,1.69948994349807,1.73844404378945,1.73956547151394,1.7413047388557,1.73725847246053,1.6987937688264,1.74584001810004,1.86810424686781,1.78274070578436,1.75871546407456,1.75747661472563,1.73330514415667,1.80472232822027,1.66798832547886,1.69387570091604,1.59151726603487,1.70315000392027,1.62347259212203,1.5686000369507,1.45112158862287,1.44206798272693,1.40142037138452,1.42230883802774,1.46471786707008,1.46515309441192,1.46469567040712,1.52578746654507,1.52650446730684,1.51786401498249,1.51131659871009,1.49423755011834,1.50182092481592,1.49850080333936,1.56459659727985,1.55862151426456,1.60060477854198,1.59803130211179,1.53947815422006,1.53710926742896,1.48185909582261,1.44341231801703,1.48538033464316,1.60386999740813,1.63439470733681,1.63450865302855,1.63253869372343,1.57593259602052,1.56050037616805,1.56222856646172,1.37107610151742,1.36469030699604,1.46886199440645,1.71432648042567,1.71330312214785,1.50298199461745,1.50408410196674,1.41791167712723,1.22459869793759,1.19563236930566,1.23946679425721,1.24048778423542,1.29957127631662,1.49149422295829,1.46381008402196,1.42168037552918,1.40705905658677,1.38095531677961,1.11810347572584,1.10889132290879,1.08342991754056,1.02807001830095,1.18530331962473,1.29797311585936
1.16955136340609,1.0708248124349,1.07109203396366,1.19454826581749,1.23041033912188,1.26530737435114,1.41530657241312,1.33685998312312,1.17889672973658,1.18003219821707,1.14258008265617,1.28758203133413,1.28112655746574,1.28021377129564,1.28010580930985,1.29265706394415,1.26905378473981,1.28388900505041,1.30717746768535,1.34724054788757,1.39521548644303,1.39468862242739,1.44950155530843,1.44877535063392,1.45245013872916,1.49270554167583,1.46181324574462,1.43587173723411,1.52126100978426,1.52565017426322,1.77789997795135,1.73316928494555,1.66705760133012,1.64494683726557,1.63756876858903,1.65458174623217,1.65438100831694,1.62506035264718,1.66123959447138,1.87432330519298,1.87457664179925,1.73753318928384,1.66400538842192,1.67738932533932,1.68204637201911,1.74908535236587,1.75039521515234,1.74034566642894,1.7678976315822,1.76653838715282,1.65139237349342,1.54700200719324,1.54230870041689,1.50150485677189,1.48183936847961,1.49416783587362,1.53751994452205,1.4614682945581,1.42452559803361,1.3989026688139,1.46205131245267,1.43222470052981,1.44675074752255,1.46768423477742,1.46475920540974,1.49277512418212,1.56421648219519,1.56790448582296,1.51599655833873,1.50251138171641,1.48517143172027,1.50393225377116,1.57437885674667,1.56474627636541,1.59945314912675,1.61268886094773,1.46399785797448,1.42140089531116,1.484779323651,1.51711926818746,1.56631014045383,1.57495668551792,1.75372442355658,1.59541330147376,1.48703505311761,1.48849505304766,1.54243324017148,1.52711608897591,1.53728210331792,1.54089608266861,1.64053001597693,1.64154813075817,1.57979439852283,1.61512226884125,1.62216900576805,1.66425846817575,1.72025350476829,1.72678815665936,1.69586255832649,1.64980726209072,1.74128057734806,1.71695625200636,1.71642063117122,1.71120295691758,1.69619182132268,1.80106998189996,1.83728002342663,1.79454313826703,1.74169796983648,1.71050881807243,1.82815999993922,1.59425571979327,1.70463991506371,1.69686364629379,1.74327499785705,1.7408549981014,1.57278998502536,1.52593889344737,1.42904236839921,1.39538630488274,1.41428176916745,1.41668619402597,1.45853900912548,1.46003558344909,1.4462828273048,1.49548906750745,1.50968407227531,1.49875450775725,1.51544282239992,1.42584808824247,1.47257443782412,1.49276399298698,1.54403241365585,1.55210626441526,1.57202338425609,1.61713373807268,1.58997645987674,1.5169965349822,1.46200499308248,1.42415782653136,1.48479632522835,1.42580438549014,1.42610433214122,1.56541825000233,1.66075254141875,1.58313326304228,1.55012948678663,1.52457002166796,1.32354115555713,1.31431369200931,1.31803019145013,1.41773999056223,1.7248403973052,1.47315571863696,1.45062930073118,1.44554673471153,1.23824277823879,1.19612634431351,1.22355482870871,1.18770011359133,1.3155808017316,1.15581166671198,1.15721833337865,1.43046241966868,1.48904999993936,1.38858469107384,1.09993390066418,1.138465986376,1.05705308827196,1.05369703680216,1.15791002705459,1.27150108628755
1.17329671456028,1.13172841058974,1.14660251790967,1.18773150540112,1.213217038991,1.27118065659829,1.31949848107519,1.29565719395963,1.20480528926677,1.17799894067144,1.16496595833354,1.22720133598502,1.2803929487343,1.27946339992775,1.27855753598648,1.2762669587127,1.27466651317366,1.27959150119206,1.30625848903514,1.3378907045184,1.39568164127076,1.39582258109217,1.43292038192739,1.44801655670714,1.44926898347186,1.48572716780242,1.47718496498352,1.46807809564797,1.50887204975893,1.52760791322321,1.71890112458932,1.71680091256607,1.67100632234887,1.64271542580001,1.64273305300774,1.65592102148045,1.65418931944934,1.65033665539679,1.64893111095088,1.75433164032433,1.74485727938569,1.73222052674723,1.67841759975881,1.67782026660513,1.6997785299607,1.74722165293034,1.74620123329227,1.74254048435548,1.75632408487091,1.75994384670552,1.70176281350641,1.57443261714997,1.53338546245838,1.5153489454765,1.5114182825939,1.49627721930741,1.49063389551781,1.4765295201454,1.41635328559488,1.40911967787133,1.42336971777083,1.43057914942503,1.45431083384317,1.4716563661658,1.47480630844957,1.48475317442707,1.5328586354669,1.54002970965682,1.52376591757227,1.51057564103481,1.4971765380557,1.50707633751753,1.55529541364472,1.55819585392203,1.60451472060738,1.60839634027758,1.49504182885631,1.49176039623981,1.49481090588449,1.52539479346035,1.57411988209859,1.57707888297994,1.58429809161698,1.57959612842914,1.540501698496,1.54136868349876,1.54190128201427,1.53426636093007,1.53682699400666,1.53906155755366,1.61300554410644,1.63327366202813,1.62848270597501,1.61699620624335,1.61998804323357,1.6574826384525,1.71702930371216,1.72037752654929,1.71761837066671,1.71591783667621,1.73363366264773,1.72677799241933,1.71399162144253,1.70725326605561,1.70601991514937,1.74732667131967,1.83264398492936,1.82024774536895,1.7314512645587,1.70222434370845,1.66114678379473,1.65196282751138,1.66461027270237,1.6744477502491,1.68406546622403,1.69025142239776,1.55993532532123,1.52278349296718,1.42550041479784,1.40042417899635,1.40509247709969,1.43800186551644,1.46005135585508,1.46053081418284,1.46070480921062,1.49597622807539,1.49706630593261,1.49781398718629,1.49585019781448,1.4442575723056,1.45766626770296,1.49574564222538,1.54528717578215,1.54896490860281,1.56489766513213,1.59699385845567,1.5937439864876,1.52994739995396,1.47601133733485,1.47368207287072,1.47949411918658,1.45969251697398,1.44897396668208,1.56515495821038,1.63063911305034,1.61351500361853,1.55499251818387,1.36663655602015,1.3202182701985,1.31729609058346,1.32369589985235,1.38811490598759,1.45160230415845,1.45115851886588,1.44977644948568,1.44713121881192,1.24059123877574,1.20433012629296,1.2086001785822,1.20389485599546,1.30287927836552,1.31440818562875,1.32463124649961,1.43703298860787,1.44176552437825,1.35483737268357,1.16283268162604,1.10481500770649,1.08613767497964,1.09045892252047,1.12476221886352,1.26663463528589
1.17616775560116,1.10208100580971,1.17757292019738,1.18384212802021,1.19975987065865,1.27703244308584,1.36891991790138,1.26781985868046,1.22592096950047,1.17639222455383,1.15490440807542,1.16307336456522,1.28039986058124,1.27872316886093,1.30312640132443,1.25891645266612,1.27514469748866,1.2681011354296,1.30574088375961,1.32784422181593,1.3952351568671,1.37906508071948,1.41395513923748,1.44677182067559,1.44648271822866,1.48970036185896,1.4866225287753,1.45792240343047,1.49647929589816,1.52969816797636,1.72445184569463,1.71714228515774,1.67009638779492,1.64270809675394,1.64239581328716,1.76966999993936,1.72093000007523,1.64618824692319,1.64702046458461,1.77163999996968,1.71008195280421,1.72137183607945,1.68161727192146,1.68121852991554,1.71311154841403,1.76313415857391,1.77195402801205,1.71176115960524,1.73712989742908,1.80994995296367,1.89727999993936,1.83310149340108,1.52586809953131,1.52381262568912,1.52020934785487,1.49840783093762,1.48489276854447,1.49795105762401,1.39311080551895,1.3710592917001,1.41599895572333,1.42821121018139,1.46184802185863,1.4748769017848,1.47925443022998,1.47778070187129,1.51704003783665,1.71432999993936,1.53457945137054,1.52087199086182,1.49206153021889,1.50974703607503,1.55241600332196,1.5569021692934,1.60932863262617,1.64061996264008,1.49843595596131,1.48449273109576,1.49783717662325,1.53124784538575,1.80192999993936,1.75137999996968,1.59021905918178,1.57716681387989,1.53927449713109,1.54190035811318,1.58093994345958,1.52914405695599,1.55548707007743,1.52086513881382,1.58319748523074,1.75384999993936,1.64626491543267,1.61646233743245,1.62257971387743,1.65131233203224,1.71389392243775,1.73317180372401,1.71739183197066,1.7148262083791,1.74300158284966,1.75893106888333,1.71310089826348,1.70544836635829,1.70421233170406,1.71242192273754,1.85807838276237,1.85194509330843,1.7272419654241,1.68599381291279,1.60504933863343,1.63865942651764,1.62321403108056,1.63595090512963,1.64575041787245,1.69197832905319,1.53185826309849,1.51954791551304,1.42268782276373,1.37509630885649,1.38224728266512,1.45474130600374,1.46097159961702,1.46081680870192,1.46060225863018,1.50528499381007,1.45525011801147,1.52626316088511,1.48931028117113,1.43121284665353,1.43040231370916,1.49910090714575,1.54603100443322,1.54731184149685,1.5550608047321,1.59966386286208,1.59828750623076,1.54180084239805,1.49066187711926,1.46393798863792,1.5060199029905,1.71259852229372,1.39690002079591,1.56480510116521,1.67499997401361,1.63331334546478,1.56858807916073,1.29520996245815,1.30220002767281,1.3107890692122,1.32990074914507,1.34464951053802,1.45113936186665,1.41440875967166,1.38980002815986,1.4459867437875,1.24314672442258,1.20061663694165,1.27599993010103,1.19901706112878,1.27805394636322,1.50371093901218,1.50559076880757,1.48844881810164,1.48279719361636,1.32385656670637,1.31986943859043,1.08800047665262,1.07838999517678,1.09524013754584,1.06573581794478,1.27242010634945
1.11294206151783,1.09192152507442,1.13710999955789,1.1529389098698,1.15670418575297,1.33493387900763,1.33618916177008,1.29581091106301,1.28103693180264,1.18656475442997,1.1836592578218,1.20866000319698,1.26314741192081,1.27620140504217,1.30755580455934,1.27701157211219,1.26468343579537,1.26887737647845,1.2532890529163,1.33737571935182,1.36094000541234,1.40149384143224,1.50244997909597,1.44586885058402,1.44424521896642,1.44695096982596,1.47240120543435,1.49331463373857,1.53339000921698,1.55888999101738,1.68479744407134,1.7044493190852,1.6481361163154,1.64664879236271,1.69255093880409,1.65463125338851,1.64857818151905,1.70286996793353,1.81908046588164,1.82142150167746,1.82274231361554,1.85161188034064,1.69099038058776,1.68558780667077,1.68319241490381,1.77991560298001,1.76914635796365,1.69314477777363,1.81670992786529,1.76571477803338,1.8378890236828,1.83919952735267,1.57616566051005,1.56955773878923,1.55547493260369,1.59283959068852,1.52184998947828,1.46911167467728,1.46361803468916,1.4192191649282,1.43319972514074,1.43437389272211,1.43397362429569,1.47653875386124,1.4844553947881,1.48049176294049,1.44339001595061,1.62701833330365,1.57225991532015,1.55413992644053,1.52457019855686,1.50992503508941,1.57170156827223,1.55586476446702,1.51598821372939,1.5148941216625,1.47215016362307,1.48492351971711,1.50735809680013,1.51602096920002,1.62754,1.69226999996968,1.56457855312434,1.56544378077659,1.54427827495039,1.61535522514782,1.60203010840431,1.55900013064274,1.55076784172535,1.54884191109547,1.55052005798783,1.67261857983236,1.69622372926408,1.61077374291311,1.59774421054583,1.6031305215925,1.74093526696395,1.75097441238225,1.74349672010453,1.7274537040432,1.72746374595212,1.79395499038828,1.79333498914289,1.70532504753821,1.67674681246497,1.87204129881567,1.86477628419213,1.85070011654657,1.60308999829954,1.57292790276534,1.59148940268339,1.57368984550101,1.54873807104773,1.58692992814256,1.64988731375952,1.57890000003032,1.55255142201434,1.52936061199827,1.39973488033527,1.37121131887576,1.36994826604434,1.39939995633547,1.43773431865074,1.45513270454098,1.46401280215882,1.62876342116121,1.63299657874783,1.45437583867241,1.47843589616918,1.43085033950882,1.47257330163142,1.49766180403267,1.50131468105198,1.53921809008252,1.54055944202108,1.57760355127803,1.56858345012088,1.51468561586931,1.43366721819322,1.45725230695375,1.47134602824686,1.72014853575504,1.71950287657516,1.56456436405315,1.37553000029267,1.63176668040033,1.30315004068759,1.27085497495855,1.28045269927219,1.28155772602066,1.3386812712901,1.37240524420871,1.37167553659068,1.37319207438815,1.36133788797575,1.34260004369084,1.26487277928356,1.19892684920482,1.18249422018225,1.26267997946378,1.31740734668683,1.35758000003032,1.51256826618223,1.49297531982132,1.47897855447783,1.31936454342367,1.28738003892682,1.05410634976913,1.07747588682662,1.09235177736758,1.09956287527047,1.07476448283696
1.08397435171674,1.09182164154947,1.11595384666523,1.15071251756023,1.1645857559951,1.21069045745725,1.33679791652496,1.28171030590988,1.27494206931907,1.16302422644314,1.17881762000637,1.23406813378897,1.23750654912646,1.2741182985946,1.3165653805831,1.2968603658265,1.31112301101151,1.29240890490444,1.32819511007079,1.30622726157243,1.33041993533474,1.34816002898622,1.37644215110658,1.43548432460489,1.43764848661199,1.50769990097083,1.46180352406977,1.50040523057269,1.584440280852,1.58241255140068,1.61290840123828,1.61667162311859,1.6567657328383,1.65105821150773,1.68232954072996,1.61186043222826,1.64823300113967,1.64828614327301,1.8304664826789,1.85050965025238,1.83220088382712,1.82066570708275,1.73721959767127,1.7305656478242,1.71634108303062,1.74257151849404,1.74313012373165,1.73069243813388,1.73157904316418,1.78046534159736,0.00458274107292235,1.87874992501943,1.61157555471431,1.6114114672387,1.61044761862598,1.6012922535496,1.57479007856239,1.47638433349836,1.55342000165373,1.40482484080063,1.42353287615854,1.42475212025671,1.50598989059059,1.47667567623793,1.47568213133131,1.4194900600599,1.4798599511836,1.62729166663568,1.51775537715565,1.5239145951987,1.53239396812192,1.5291499495833,1.52651012188537,1.53473664886427,1.52442318228463,1.61398999993936,1.51451867090457,1.44885673750219,1.53129655882417,1.53211716023469,1.54085138086496,1.61089995868991,1.57476114543481,1.56942001714164,1.55324079487463,1.61745742478624,1.61866718662413,1.58888757884837,1.58133782943717,1.58032464205137,1.6515285154932,1.64889016246505,1.70363763913867,1.60869734310418,1.59682697974969,1.66569002282069,1.76253922357181,1.76238267130366,1.75315736888002,1.73010583933704,1.72136352846978,1.67937955718386,1.6789214208343,1.67938455984203,1.67848236656113,1.85917410818526,1.85156343043557,1.62949000003032,1.80296002964372,1.58959330972423,1.58952953038828,1.53305517975147,1.52410452172983,1.55050181010616,1.64815658844972,1.65069460884002,1.62920002880224,1.50902991225102,1.40655386214477,1.33582677171506,1.35762507445461,1.36732076566035,1.44822536667985,1.45190623189939,1.48260473425426,1.55969231666185,1.56077009739153,1.56069533869984,1.45839343354001,1.44304010462859,1.45401026545449,1.48570671704445,1.49174205121086,1.53691985956183,1.53159915171647,1.5910008235753,1.62736995019038,1.5234855631882,1.51007738020664,1.45426449710182,1.45204427247204,1.72827121392976,1.73824885129471,1.56447798379971,1.67576999993936,1.35410000003032,1.33328996003941,1.26862509866945,1.22114836817179,1.28762169267647,1.29345082399513,1.38158372094104,1.34610444838097,1.37424498086454,1.44750001350443,1.48892998640461,1.20609184086207,1.2011550592911,1.19795310837863,1.16000547263366,1.32912145061747,1.50401999996968,1.56508999924663,1.49598763383129,1.40686005296438,1.30588637506731,1.16299500001513,1.09805164592973,1.09210219918511,1.06717108000417,1.13924117614723,1.21852441065492
1.16127345444741,1.08436205664203,1.10211441603806,1.14866140107999,1.21683321612279,1.21717751443674,1.32352989331229,1.32486859754416,1.1790100552612,1.17982807606428,1.15323176783766,1.22313025175031,1.2528005958693,1.27293690136521,1.29989112329294,1.43317999993936,1.34810281896067,1.29842411999148,1.30643505234425,1.30564606606771,1.30445132540389,1.40646739121899,1.37610192625212,1.4343467401776,1.46227286640184,1.45033211843813,1.46496874852457,1.46560350161329,1.60979325928993,1.57369932962961,1.57319130135595,1.57271787188423,1.58205773957828,1.59440467287324,1.57653015039962,1.62848816938457,1.65015017755062,1.70934350265385,1.84531655013972,1.85529229876754,1.81953483763816,1.81266276856353,1.73637958263429,1.73820089807819,1.75547483916162,1.75539077223934,1.75545101842385,1.70857594121649,1.70788987479045,1.86782063204695,1.87561933716501,1.83328360530106,1.62758355911295,1.61789364221476,1.58620934529991,1.56400506501818,1.61348010289122,1.49533848861487,1.48218880207864,1.44490186322885,1.42358014375682,1.44478627668118,1.46649868781678,1.46672480708527,1.41341008651336,1.48260759622036,1.69704999993936,1.51034437821434,1.51157567686234,1.50722232308332,1.52718219680093,1.52862493381523,1.55041329382496,1.54659531159302,1.58665989717879,1.5341543773068,1.50254019326107,1.45060340123678,1.48815341509845,1.48830770101743,1.54166456168246,1.57495369332639,1.57718186144577,1.5713156461553,1.55259463539884,1.58914147114505,1.64528470441426,1.63161404666961,1.61288801866465,1.5924777248534,1.61843181596385,1.64510895513286,1.61451258688909,1.61299428660324,1.60108955471578,1.70312372461617,1.75485840289644,1.77383069654767,1.77554118423121,1.74372625986265,1.72330225181218,1.59697959826553,1.65077797764896,1.6374585805979,1.63077750298984,1.86161128554174,1.59989894396718,1.593467064657,1.83748997026531,1.55827545697071,1.54057000504657,1.49032393065471,1.49733472444812,1.51441487640704,1.52211013076179,1.59294500690129,1.59228500609555,1.43442002050321,1.40909127033984,1.36716625418616,1.3641839728294,1.38399375289352,1.4308251860943,1.43071531878372,1.43071324064856,1.48232539874684,1.51615011708648,1.55461259435563,1.46517789987409,1.41453630360194,1.42981293850816,1.46774183908255,1.54384429754517,1.54421923690368,1.54392430072954,1.45032134909945,1.43671594406954,1.45141273605264,1.51015117402453,1.49276712415277,1.49230958514245,1.42941221235888,1.41083538021576,1.43322149082496,1.39886621639248,1.68347999993936,1.62951999996968,1.24926697696077,1.22402169897578,1.29899966859297,1.3858174877607,1.37042096336864,1.37656809874371,1.37474242388529,1.36219628630789,1.34386854247403,1.21797026154075,1.16119959788497,1.1615178217055,1.15982725172602,1.32972122832164,1.36224420824553,1.50929999996968,1.49826295642822,1.4414069559192,1.3222774621804,1.16049500001513,1.08149378018416,1.08214832158819,1.0838933363737,1.12686300356573,1.17213003269015
1.16368059352129,1.09217789154044,1.10312597670846,1.14656499682087,1.20498709361437,1.25767923551779,1.32359376820491,1.32402366075506,1.17901522201081,1.17880517455118,1.17840477029546,1.24838619311916,1.26495390856554,1.27214362025599,1.27846630371374,1.33540115233263,1.33271835325637,1.31743183216737,1.30687352895096,1.30661930687671,1.34204376429017,1.38376669369155,1.40132387065823,1.43112859772291,1.43410567009256,1.44320025980451,1.44928098850125,1.45622325604925,1.58797705415591,1.58651852243165,1.58543966305908,1.58507276359471,1.59477968707451,1.5986266220262,1.60400032346948,1.61357067194929,1.64294911707028,1.74430277906878,1.84955859234633,1.85265451867189,1.84855581154367,1.80778042716972,1.74542692541802,1.74338401731832,1.74592604390626,1.74855547951725,1.74208342806643,1.74011549064621,1.7567006165341,1.8112061990114,1.81538498772698,1.82193900975621,1.67038888696031,1.66593919622651,1.63415409842265,1.59580279883446,1.5932509973012,1.50081974471506,1.47958570230696,1.46929254333786,1.4497117324278,1.44722421238335,1.46770443681528,1.46698170253789,1.46637073890288,1.47115120861646,1.56516342166206,1.52412466663899,1.5080972634627,1.5068782324133,1.5210170343261,1.52644752652858,1.53909927431659,1.5424722163662,1.54528278580246,1.52670743878864,1.49843630184454,1.49566742858616,1.4923107920909,1.51411934440506,1.55906823243593,1.57465918281698,1.57474595687286,1.57276764700277,1.57195355796989,1.5878299120382,1.62883950129893,1.63008484374148,1.63068524278973,1.63259137659327,1.63524040853007,1.63746053729251,1.61369864606553,1.6138788186689,1.61398247248754,1.69212238855173,1.76331037470414,1.76791290012181,1.76744270250199,1.74335903171897,1.74048590389233,1.5964760842786,1.59696086085398,1.5987132788156,1.60115851835548,1.60274479712169,1.60234935287528,1.59133566195887,1.5871382399658,1.55723333410484,1.51669142763364,1.49223072395991,1.49480877200799,1.50992683193604,1.51785636434884,1.54655272545384,1.52664455393425,1.4744210954854,1.44488285837582,1.36568624796886,1.36487369060874,1.37695201131895,1.407907675085,1.41334101610138,1.4189789552759,1.48043911751811,1.51251568271617,1.53091183354732,1.46212538943911,1.45108014853765,1.44214533424174,1.45549148786848,1.52678236348534,1.54590409163448,1.54560244652033,1.53419703589625,1.52692478492263,1.51810353377714,1.50810696521937,1.49186970240307,1.49204617879153,1.47526428705099,1.46440562675449,1.45484551627828,1.39764277986142,1.38866907102616,1.32558553958748,1.26545222398349,1.28604137074973,1.30012112936253,1.3737065433412,1.37275611911904,1.37463125995032,1.37512461608881,1.36540461326781,1.36032087497225,1.25773243114636,1.19207315877144,1.18513233349679,1.18129007458479,1.34896284427879,1.36103437159582,1.50173129652262,1.50059053158806,1.46577731753408,1.32003222046022,1.20033436640184,1.08156863676232,1.08219288155028,1.09514350303733,1.11409611035417,1.14313204112032
1.16592145430712,1.08187016537806,1.10384244155868,1.1442915373788,1.19120839146032,1.34779266334926,1.34708614191461,1.33450291115813,1.17974009611283,1.15176126072175,1.17882591531398,1.27106330640647,1.27950718352168,1.27122752530562,1.25940316450787,1.3377956383454,1.33037820062473,1.33239322135672,1.28981083627707,1.29940296055989,1.37529015919065,1.35491816613354,1.4221838070335,1.42049295324527,1.42089647272684,1.41467986875017,1.44023264588451,1.43097053896687,1.58989088895206,1.69109999993936,1.59964072680293,1.58590796944294,1.65399964829156,1.6034184289995,1.61495764227,1.61065754746827,1.6073313564285,1.84147999996968,1.89373478807652,1.88257035132639,1.93453995540087,1.80915903113617,1.74714155142829,1.74349545209692,1.73871844793285,1.76254026779364,1.73803676092112,1.72313864031699,1.7614899999861,1.81025283852922,1.81219409576856,1.8261536806959,1.67543702742044,1.6695585082045,1.64244991747731,1.60062293778738,1.5904365999999,1.50476141037611,1.47670082959139,1.54795999025781,1.45161163743973,1.44573557169396,1.46943580230012,1.46731140048224,1.4655230720531,1.46229195683828,1.70549999993936,1.54114481152891,1.48328159955065,1.48513399537098,1.49470344331446,1.5246651780999,1.5356725192702,1.53888024084156,1.54799405153724,1.52191222373347,1.452590714865,1.49854669240783,1.4788829859585,1.53902177888953,1.5698864110763,1.61782784372923,1.61696822357795,1.60406610534291,1.5707333631347,1.58538947313793,1.60395519229386,1.66955095470057,1.64537429336571,1.63222375355512,1.73986244793099,1.7404772726267,1.61308032389421,1.61357110392342,1.61347866118827,1.68343780993934,1.77393536879796,1.77860920616813,1.72215170474687,1.74507825567655,1.77961994590052,1.5323093437025,1.53054928515421,1.56222149273107,1.57650763554844,1.58013371046132,1.6072507757027,1.58894247042656,1.58377645869361,1.5559634569717,1.47878144047705,1.46358133395453,1.45311727436979,1.4854461543485,1.51336448925535,1.58975995270521,1.50441230428065,1.50449429405982,1.49442881926414,1.36525057696689,1.31983665109501,1.37076992644439,1.39853799143433,1.40905835071769,1.41645251921571,1.47859741643108,1.50814595924443,1.61691241920043,1.45914809418413,1.46297870039768,1.41158534031702,1.39865287851269,1.5047950905774,1.54843916569573,1.55341086150515,1.65532289862087,1.65612918096109,1.5196138655667,1.50724928700025,1.49086443405354,1.49193225444758,1.62819932855516,1.75486105262558,1.47018570432905,1.39667421652237,1.37171965260971,1.2794988611209,1.24822185128096,1.30440184189968,1.30167680878397,1.37548727135402,1.35031485432704,1.40842800315989,1.4099968980763,1.41406611961691,1.42301662867601,1.33721553609709,1.20206557667162,1.27016996325359,1.17389124110729,1.42272996968077,1.36000108892495,1.50275277470855,1.50179834504077,1.50170301936505,1.31794943669591,1.26357028107024,1.07053100056406,1.07931119647046,1.17067998938028,1.04139833337887,1.0396716667122
1.19482994150064,1.08427237327049,1.08135892306099,1.14168862447759,1.20330040164383,1.364138153804,1.38010434735793,1.32739686384624,1.21004992427946,1.15145271249787,1.15108126721434,1.25007003309612,1.26417901119124,1.27068373358969,1.3141884684478,1.31786082358468,1.32314757895565,1.32222770663029,1.28230125597442,1.30021661093853,1.33254997450429,1.38669357512085,1.47492995549008,1.42091370612354,1.417836362994,1.41818843892852,1.42980563238713,1.4148643070239,1.48263000003021,1.54183568428811,1.5917995953657,1.59033690495851,1.66628035161745,1.60078805141673,1.56418867885812,1.5717242046924,1.6417199557564,1.6623799919124,1.90416072010137,1.87968105647912,1.88971204667467,1.86543999902812,1.7450171533357,1.74311412033382,1.70999856325285,1.7505339792635,1.76856967080059,1.7443064252335,1.88708000244971,1.81017588067104,1.81079074435391,1.81722492807696,1.80548691089935,1.80389511331545,1.80820690016919,1.64870848987804,1.66607181440522,1.64784092996741,1.51300989714553,1.4429288355924,1.45437262784209,1.44662783247889,1.44874911401072,1.45745658993849,1.47559506179153,1.56038149995356,1.55998818148027,1.48014664819576,1.49167875235565,1.50374932435892,1.47639388277213,1.47351510535756,1.53551426010053,1.53667204245763,1.68489691971117,1.55460999275011,1.44601932866618,1.39697853143889,1.50759246441112,1.51077839031412,1.56126705072411,1.61858447882645,1.61456519225468,1.60635806352629,1.57131839115654,1.60308820676239,1.60724279137884,1.70587998655658,1.66573304075903,1.66506591646915,1.7546016603651,1.72590851625857,1.69502168414599,1.6143452408395,1.61313810815522,1.65369010859412,1.78392481903316,1.78394403699297,1.720472247265,1.73739995082006,1.53814788039833,1.51401999295367,1.47441021860588,1.52198051335848,1.53277012697562,1.84618999996968,1.99042999993936,1.71234999996968,1.54356847417846,1.5129900748477,1.45038999258115,1.40962829870239,1.42681366640581,1.45896625501936,1.49224204843388,1.53237996905874,1.46581009578087,1.5142268838357,1.49986768476138,1.46437074243805,1.3187431086638,1.31790195591936,1.35840676227584,1.39060143740398,1.40144216176224,1.45998171619506,1.67820999993936,1.60780758073893,1.47123878313834,1.40747332154729,1.40888854146471,1.52590753849163,1.50771297545373,1.54939664411803,1.55084531277227,1.64348792029675,1.51755938922832,1.51884289385712,1.46697407739082,1.51700223876747,1.5546899737976,1.61700067144484,1.74500364813915,1.74260627205845,1.74209625532807,1.64936,1.29251111964768,1.27424149126798,1.24708236614214,1.27560072009041,1.24560929145883,1.34460579973382,1.40460371219944,1.41211756303006,1.48574999993936,1.35096998738848,1.33033514154101,1.21215656123609,1.19826229354353,1.25219004198915,1.30563998109539,1.35675247895905,1.56021999993936,1.43681574474287,1.40892000969197,1.36103,1.27140971892976,1.08455598870203,1.07210102264669,1.04236847772728,1.14914252127621,1.14390823106673
1.11248393521407,1.07057902500205,1.09030619495712,1.13849386300989,1.13369262671723,1.13092707011161,1.171133197168,1.1481065366467,1.1609652467515,1.17333550065169,1.17760408274945,1.25099054712313,1.22779682655784,1.26884082408721,1.31097200801586,1.31703881189952,1.32289322123807,1.32453983284057,1.25616007420133,1.30270427075446,1.3067444573222,1.3891662137466,1.38910157470124,1.42088644035273,1.42287271518178,1.41759070204857,1.42791926327201,1.4325419818587,1.56149527171181,1.53469907325973,1.56133004170944,1.58213799299083,1.57150583685519,1.56847416128533,1.56649492767246,1.56131980002015,1.56015464794326,1.63436000808752,1.87327185489125,1.87410081250105,1.87822879882555,1.80067999996868,1.7469672322456,1.74844942651526,1.75367827310274,1.76548161737608,1.76612828443762,1.75460222299331,1.82223208558716,1.82291699129586,1.82218247609738,1.88406299412541,1.833609485756,1.86266360968487,1.88696223725617,1.87243453895155,1.70546,1.65557050394982,1.47950996401173,1.4717633990272,1.47372348743623,1.43462301147759,1.42864776092508,1.44319053120268,1.41359007628824,1.57284035072959,1.60937996780626,1.48233966480386,1.49967774817332,1.39650994777773,1.3716200522526,1.48860627042389,1.47911360686114,1.53261572298711,1.70256308019786,1.59963995518551,1.3876472643719,1.41895383236402,1.41691903201148,1.63711999993936,1.5469580300917,1.60522075892788,1.66381351773417,1.64324541814147,1.73244999993936,1.62630682615657,1.62449350543483,1.72106779728546,1.7351122672598,1.67488797117696,1.7329899871996,1.69895014875871,1.69270834865011,1.62392846639294,1.63429088754484,1.78691564399661,1.80876905284977,1.80816923956273,1.67922666666732,1.68169333333268,1.56099069233348,1.4778955996567,1.45242604275177,1.49549717071078,1.49493903034952,1.59349166665151,1.48510166671215,1.48594833337882,1.57199151370799,1.54087998737976,1.40290530183951,1.40243743246323,1.39979741970798,1.4307627222521,1.50813777289646,1.43217006702825,1.53565107077406,1.53580710874805,1.55730317768779,1.47351084741264,1.37184990611121,1.31802840554597,1.36405560858581,1.37316126538364,1.38207063844396,1.48703698628977,1.40236471935544,1.40632528073552,1.48772456538275,1.46477955360477,1.47452221851132,1.49831991847694,1.5161671380713,1.55649403238139,1.56113911033698,1.56438690589406,1.57431827242923,1.52502525636543,1.47212601248312,1.51924258214732,1.49631090951475,1.74008871671292,1.74740160835616,1.7639667082363,1.76769673776082,1.68292,1.33660997681632,1.25450807546793,1.27106307274875,1.31740996691289,1.31596996251409,1.37506999723469,1.47822999821691,1.4139495601042,1.22837000005853,1.35244998771117,1.33131935565537,1.20466432552624,1.21241836180551,1.28167104578713,1.26149124409873,1.308778386227,1.36475001153352,1.40844940331115,1.34733001056354,1.44169999965796,1.33984805483048,1.14943000038547,1.03479518293485,1.10908819329433,1.14773983781084,1.0847800797893
1.09958718276131,1.08837041024952,1.09570621345718,1.13962803743099,1.16759409579905,1.17114932825291,1.39195999993936,1.26011326540613,1.1680255386732,1.21248170374526,1.17573683612226,1.2227155356446,1.22605958654196,1.2666471026319,1.28547419935756,1.31593762528193,1.32750238597941,1.38444994010788,1.30537669916306,1.3041912711698,1.30398737390219,1.38291766102922,1.42191752096436,1.42445584082703,1.42435839103393,1.42854718816478,1.41604889585595,1.42399343159865,1.4439335086353,1.47081003838282,1.51969920256429,1.56812221047435,1.56144905427402,1.56702653572493,1.59118439514077,1.56097907469469,1.56226459478844,1.59544303120569,1.6383796716635,1.86465167397091,1.84913711858767,1.76599982542611,1.74130899419612,1.76171828862044,1.76681059903263,1.86415000004073,1.78288130546092,1.75467849850181,1.81554658079277,1.82183636931489,1.82290199841154,1.86274386992651,1.87340850292957,1.8874144126914,1.97225999993936,1.8933958355074,1.84075968815701,1.64273826176919,1.47809942037564,1.44620798445419,1.44896752913004,1.42197169353143,1.42768981240629,1.47083070725976,1.49484000367095,1.62484032014071,1.66612998607714,1.53834808043637,1.33325591919986,1.30977289237061,1.32778135997013,1.439019999868,1.51756100328045,1.52657175196077,1.64775999996968,1.57156173634899,1.51543995297621,1.39275879488118,1.44788481409392,1.39625109346673,1.39819106142248,1.64338159312568,1.64815482219813,1.63058037215101,1.57944663772099,1.58957731739989,1.66660018010585,1.75603973974633,1.75680387427326,1.66574701390596,1.66643895857896,1.743809934273,1.63211910489745,1.61994242373226,1.57836723856297,1.79131967971422,1.80132769762161,1.80219287922585,1.62129,1.55758208305133,1.56887934421686,1.47496549625466,1.47412759663809,1.49605253102919,1.52772301906973,1.59493833331817,1.91044999993936,1.60989674197641,1.67060795964281,1.58902141879829,1.41551837911197,1.36341018851054,1.36238321051577,1.38163448217943,1.39914768888803,1.48157318081007,1.53094097205576,1.52314968941561,1.50735789629342,1.47474235804601,1.33517972875415,1.34346815590258,1.35426837054765,1.36713378254555,1.35797276324701,1.4684386919023,1.53027000104307,1.56517990279622,1.52907726723319,1.4669534634784,1.41910754952462,1.45481556123213,1.53355591455455,1.55968532157802,1.58234494946361,1.61978062344882,1.57330365133511,1.52576192549799,1.52789453744987,1.57795040266842,1.51723292421878,1.51852312013405,1.76991418775671,1.76723456136323,1.79636160450977,1.77595835776702,1.25017012216242,1.23065503961642,1.24349942979725,1.28149134161331,1.41597748326596,1.40323235572553,1.41707581439918,1.41560649781487,1.41337261592691,1.38859288620022,1.21598362976593,1.19615153387202,1.22337740414133,1.25377595949313,1.33684299485845,1.32598500368203,1.57650999993936,1.49070646563011,1.47798195827362,1.47797639115334,1.35154539570823,1.07777773202858,1.04343489153305,1.10847532662529,1.15422945984611,1.16241179396287
1.10014971731211,1.09016267580536,1.09295915455767,1.14038337435191,1.15265718360642,1.1914634309045,1.23446546727277,1.24482586493582,1.22599960138224,1.19441030190269,1.18290403233556,1.20414801720937,1.23088054069187,1.26521321752203,1.2720906344771,1.3216102212139,1.33860201866641,1.34905827737998,1.31687576186587,1.31079521667972,1.32660403948978,1.39278746417577,1.41857411557263,1.42392029116423,1.42573994341356,1.42428088761248,1.42262280909899,1.42300043161201,1.44251578712634,1.50569448045655,1.52086230366822,1.56711735908406,1.56389841660929,1.5649629846679,1.56906223017298,1.56186339739438,1.56259349910033,1.58515337261323,1.64188572308421,1.86998326611626,1.86248425091459,1.76038645456411,1.75789669269007,1.77714903403166,1.79400583776114,1.81998375241316,1.78098308621137,1.78172764642618,1.81361930067868,1.81707458149294,1.84323043557024,1.85758781780486,1.88082398340536,1.89534136604692,1.91311228149043,1.91191475911867,1.83795399269415,1.53743092835811,1.47681556245486,1.44727898490174,1.44817335338254,1.46702767057487,1.48203678289946,1.50019591333411,1.52711268609889,1.60516152373385,1.60435093901993,1.56926154371133,1.33605609874813,1.31467444649365,1.31890360092211,1.39322589693532,1.45264155021652,1.48208924543103,1.62285018174811,1.60667106551006,1.4946555096651,1.39614013798959,1.39667263520107,1.39674062945742,1.39702675652699,1.56804349951528,1.56788902602353,1.56769762752461,1.56758399997674,1.5675554840455,1.70807885986352,1.74763234376388,1.74548183425985,1.70650377482351,1.66884289933432,1.66402757608375,1.63220298320768,1.61737380500175,1.61759519378832,1.78640953297655,1.79494814041448,1.79532150043087,1.56203578536347,1.5266813460415,1.50212624765471,1.48530382677124,1.49308465305365,1.49667720385062,1.51223780505234,1.56358962043996,1.66627494630865,1.66610382906327,1.66764759071553,1.58158682880146,1.39237923335593,1.36287189322242,1.36247937144623,1.37481907583863,1.38469434082546,1.46568840674918,1.48671584401173,1.48646822044658,1.48468760081733,1.48194705239372,1.35819805141666,1.36889918831653,1.37648507463386,1.37957551452387,1.40041001706352,1.45249413955722,1.48706452655732,1.53546053940066,1.52159742726047,1.4621369580242,1.43446220464719,1.44245074393695,1.55892097068927,1.56134002884179,1.60134595617522,1.6116161392967,1.57317997179689,1.56852728586421,1.56354025231488,1.55579629875486,1.51795466341222,1.51833827191868,1.57765973001124,1.58966446936087,1.60478096651895,1.30159832056442,1.24620036941989,1.2349576924401,1.23863524291437,1.2713072632552,1.3924389789854,1.3959300501757,1.41824218791633,1.41733283444199,1.41577906902043,1.37658652346341,1.21484925903858,1.20871911627503,1.21469701178816,1.26504670504644,1.34317935945415,1.345183200635,1.51395443251793,1.49379783769689,1.49081431788027,1.43811805015408,1.35238896036649,1.09593818545368,1.09159190673039,1.09500217562682,1.14585535735255,1.1794899067521
1.10118718967688,1.05755680219434,1.08059324105084,1.14110049838881,1.14007091409052,1.20719997524345,1.22367902726281,1.29030996519225,1.26068004048545,1.16845075908601,1.17548419130606,1.18780963662243,1.23653126422472,1.26455559484944,1.26117545003767,1.32716130543061,1.36220873483181,1.36026520312727,1.32588886985086,1.2805401190699,1.35516252439958,1.40036173994565,1.41592615491516,1.43182944524604,1.44649508181813,1.4122990825712,1.42331743303123,1.42219853818288,1.44168978971181,1.56378237396553,1.52178731447783,1.57196438787312,1.56081873944302,1.56311751094078,1.57846009565397,1.56111793929225,1.55211457229537,1.56501593234318,1.64377967164592,1.86800665614769,1.88517334376135,1.73966206174015,1.74080878262539,1.79963119540137,1.8789333265191,1.87922665929978,1.77305754602923,1.78562818413349,1.873119955157,1.82023892391003,1.8683409747996,1.83895328734411,1.91927849873094,1.92910526271647,1.920179140475,1.94125099380163,1.84130370166677,1.50928290894429,1.47604621291374,1.40596274077456,1.41034733959642,1.4996899215552,1.54433355456823,1.57225069893536,1.59979849750635,1.60509149007797,1.60265836819252,1.57541004902322,1.3391999190463,1.27749739535185,1.27142047270606,1.35351531017765,1.43168003356965,1.45812907078568,1.63687983038278,1.61721998883845,1.47500939223189,1.39874281293752,1.32961007781178,1.3851275981483,1.39603394408688,1.66016999993936,1.44029339737603,1.4293425466026,1.41910862652553,1.42182900356133,1.73983720480228,1.7502947877038,1.74464476086771,1.73342815906648,1.67115505820417,1.63013935953852,1.63029598085678,1.59769309506941,1.54199584672602,1.78265302754882,1.78373223299498,1.87175999993936,1.53475085164144,1.49530001559911,1.43391878593976,1.45293262703609,1.50113820396941,1.49810713407397,1.50509524291385,1.53369711938491,1.6678690460792,1.75444666662118,1.75299333328785,1.55170678943087,1.37158887060399,1.34493212342011,1.34645651418071,1.34736438620651,1.3490644892951,1.45286660080437,1.48627078041357,1.48818808669911,1.4822862054968,1.49403189146138,1.34641345792889,1.37758822934332,1.39248250652209,1.3898951080581,1.42577071536215,1.43236073799694,1.44586002752237,1.58242998795386,1.50953045171399,1.45789767621521,1.42916288727719,1.42275010218765,1.57244256497505,1.56379284531522,1.67156234198322,1.64465767394569,1.57296895163369,1.57239076440981,1.5746665664668,1.5453423777208,1.47281915563435,1.49474087265917,1.55155571959097,1.57884129941375,1.72647999993936,1.25915696217836,1.24156353964539,1.17673004577398,1.22565161120337,1.26230243100322,1.3898653762618,1.38991431538383,1.4216704422082,1.42146539496422,1.48067999499556,1.36397682028802,1.21403962584177,1.17546345382831,1.20206879544399,1.27491917688493,1.34729135817117,1.3474925919921,1.57270999993936,1.49957548072818,1.50658669598763,1.42063245671002,1.35331337002007,1.10149968297977,1.08380736751882,1.05953219864067,1.13761972200522,1.20488994377
1.05184224876975,1.07365565664167,1.05805647328186,1.1431036165258,1.23841000520425,1.27479902912696,1.26380096639798,1.30892000090203,1.30735999810209,1.24029000155345,1.17336071135556,1.21602989309402,1.27417898233321,1.26767127236768,1.27011927721343,1.30941847419061,1.37178320259102,1.35655512987952,1.32492945815895,1.32806417982581,1.33109986892326,1.49064210219661,1.47273787843583,1.44458997005132,1.43383799443067,1.41205118675291,1.42547262254642,1.42630886293958,1.44432217885565,1.54116505528974,1.52977682275609,1.54845916682436,1.53274673778069,1.53998190284132,1.53897475265685,1.56029654775537,1.57112233013221,1.58925639857225,1.56940528845446,1.5921729759326,1.78994001836643,1.77048068534417,1.77689195854671,1.80991598488766,1.83404165461972,1.83284831936249,1.73221176704872,1.78927442101372,1.81345143480441,1.81564754252673,1.86630090020699,1.92865145852382,1.92029766240182,1.92909033359256,1.92083727569636,1.89012837465026,1.87108419408418,1.49625868037553,1.48574193648708,1.45516908994515,1.46445617636767,1.46915871560369,1.5566666384348,1.57632540644444,1.60977615905359,1.62911342308094,1.62726701626406,1.61569872820275,1.37971933876904,1.28645420504667,1.27865793804158,1.36474937457579,1.40975001941391,1.43566657734786,1.64701011492485,1.59241003988643,1.35149983608069,1.35955305642929,1.37159729827288,1.34375001163287,1.37064010362664,1.45994996443244,1.42947819366513,1.39885422234684,1.35273430363916,1.38555194606875,1.50549005821389,1.7532869674616,1.74586887395036,1.62605999289484,1.3793115683241,1.36901054299343,1.37610672145133,1.43745404648834,1.3782700456491,1.40185995441233,1.77562852392527,1.41151000006064,1.52847918221439,1.46237000116526,1.42577050239674,1.41029684832104,1.41161094556696,1.49795662025257,1.49810031155597,1.5483629752548,1.78146997924725,1.67688912177776,1.59887000003032,1.57910522706157,1.38189115383584,1.31695617814538,1.36427228341454,1.34773307655237,1.34882431687627,1.40413639755563,1.51319355778055,1.44692012176603,1.50109172871208,1.45783537732787,1.44366697901461,1.38013848140214,1.38355804116581,1.38505469436155,1.38167532646018,1.44225839347755,1.47410996100373,1.5067316222982,1.51219725280755,1.4920700325223,1.43493237705275,1.43418917050857,1.59704112244538,1.55941673599695,1.5568203344337,1.6949599839498,1.58067925569698,1.5892010429842,1.60953375753804,1.52960850716595,1.46071001911033,1.40228,1.34508151174916,1.39521125492053,1.53317999996968,1.28476297602206,1.20166001973341,1.17497004080447,1.20946277234497,1.26556330246548,1.31935997297271,1.35412996579804,1.42075645610348,1.42352096153511,1.37956009460389,1.30002997715315,1.19453999326209,1.17166498369128,1.16830074966177,1.22708999489036,1.24665000003032,1.3957899819418,1.45122635166655,1.46540105106738,1.46444422937003,1.40179755175291,1.14099999989618,1.13862995661241,1.07086649799961,1.08169032020337,1.10932419292429,1.1443700566702
1.04294147890594,1.05637273076718,1.11036593985814,1.14559862388657,1.31653999996968,1.37804558963341,1.40195574461161,1.35521002707579,1.3382099840713,1.17213862871615,1.17212345257593,1.23517398500458,1.25826387293441,1.26053905518771,1.24532427280525,1.27145472916313,1.35116072310017,1.32149353043432,1.29612104594544,1.32273638848175,1.32312199634054,1.40143003097552,1.51641994864047,1.46401960270335,1.46112690322987,1.41893708753285,1.44157205578028,1.41662894871526,1.38819958947429,1.42315000316347,1.56303207419379,1.54455252527471,1.58558228572797,1.54066900695533,1.5307225799857,1.58856613007686,1.57685422570578,1.57357276457838,1.57117772036691,1.57110927210715,1.83045994169091,1.75657624220539,1.81967283154296,1.81476327839371,1.81576553021296,1.79089003973058,1.7264383560644,1.75943509340034,1.81793128842423,1.82379861071668,1.94876662480764,1.95171329634861,1.91799259486866,1.92811978196497,1.91899501921193,1.9414852214636,1.85528669950709,1.5032292082713,1.43177003269756,1.46166055294339,1.47406279163515,1.46939288537493,1.58648079412916,1.57895886302112,1.62670449534383,1.60359684400919,1.60308340279873,1.36683771065865,1.36984121228169,1.31353005563072,1.34044999985565,1.3667152729212,1.39394006442484,1.41115149216835,1.57451501370725,1.57485501210864,1.38617999159813,1.43199994244999,1.38244284535774,1.36146701545343,1.32143577316412,1.32405316432339,1.30902405368935,1.35086551251621,1.38542919065886,1.36723983229901,1.54355994178611,1.75078471398698,1.6417500356634,1.59762000710516,1.33615925912614,1.36136104855253,1.51304993749941,1.48232035646095,1.55500293786084,1.5151200394627,1.39972000006064,1.58323247933765,1.44650685118641,1.40945769100469,1.38103563117309,1.44085995872962,1.45843997988803,1.4981509404344,1.49551303868388,1.57171869449259,1.74103999175179,1.69779250749182,1.6881478539671,1.56953930157987,1.57082548660719,1.32630287152941,1.32787871656989,1.34782125585992,1.35111149375358,1.41482319434681,1.48469891839304,1.51601993108066,1.48929691589679,1.47813513850506,1.46142302077159,1.43611994665967,1.39947433455098,1.40622503727489,1.44922002629493,1.46649994425347,1.67203514281869,1.45389003545626,1.55584989827934,1.53013999128944,1.44187090072327,1.54114634993993,1.54508850077307,1.54179469905854,1.44131159314201,1.45187837856093,1.41935975588985,1.41369022602013,1.39143288538435,1.38166075201886,1.39626637639828,1.3706400109195,1.33295799713963,1.33174701673522,1.3175600265601,1.25042003407322,1.24281971820968,1.20951330452518,1.20208231501409,1.25877321597492,1.29480240739998,1.33404037121823,1.38585686212105,1.42897359499536,1.42970060697098,1.27832002284679,1.14033871665206,1.1747768687674,1.17722816571332,1.1782258880122,1.31720666665104,1.31823333331864,1.51114994458172,1.46525126752056,1.46424298792974,1.45028998782277,1.24065999996968,1.0676304732208,1.06934564202864,1.08103547343447,1.12180138347105,1.17085999127153
1.12984365917495,1.0775569515581,1.0893570887852,1.14797152499284,1.18810005421269,1.37136450018393,1.39646352928514,1.39779060281664,1.28560462173784,1.20359403858311,1.2042090409311,1.23610804565822,1.26698655465617,1.26294514335777,1.2595690316174,1.26461430583598,1.33457071620589,1.30718141815165,1.28939066510218,1.31181683521923,1.36097091929278,1.45399555073636,1.43306934655903,1.46680642110728,1.46820628721231,1.46548263407378,1.41590151921218,1.44454599919315,1.42302833447214,1.47401210190551,1.61961210658911,1.59908459538663,1.5470095546653,1.54629821213719,1.54688958123909,1.60631426056342,1.62313719031505,1.59924829255842,1.61173842227603,1.75196053383029,1.77162072529873,1.79244174008195,1.8112108118745,1.81095167947594,1.82871511035305,1.74778177126166,1.77947825667223,1.75527276525805,1.83979589279107,1.83979643405577,1.87647225320449,1.88296403724905,1.9249138187171,1.93071117419333,1.91706601527232,1.95004468548333,1.83864117705144,1.49448509404157,1.46776873694501,1.48146996480892,1.49614488048531,1.5761205073895,1.53316791870567,1.57339166647085,1.66786996498421,1.55743812686616,1.62985604513512,1.4328800246326,1.38491175589376,1.34161007616866,1.37910370822395,1.32902865938213,1.32653191494902,1.3119343750603,1.28535151886429,1.2287287746405,1.28825077592949,1.31830907422834,1.37429191944837,1.3170501326713,1.39301141470471,1.31843903178067,1.32202550600538,1.32332715607708,1.28646910780721,1.3673148593315,1.43767132685968,1.61822,1.70520996430627,1.50990997231244,1.39908995802263,1.36723094082486,1.43385997380412,1.46466418456578,1.52930698389961,1.57687160757239,1.54742551645302,1.58401549628274,1.46139316606592,1.43377394224681,1.39690203142371,1.42640132774853,1.52235313404814,1.5000557360602,1.5042773293552,1.58658627464941,1.63644517772396,1.92734999993936,1.70969054567333,1.6019199426537,1.34145828766607,1.30030275352147,1.30248335712543,1.33994017892599,1.33995443962811,1.42692961829696,1.44285282875252,1.58733000153395,1.5062509528841,1.45579216153464,1.42775864354701,1.38409933143624,1.38202567961498,1.42020641930824,1.48226284569293,1.60086999996968,1.66913571424133,1.66661914281869,1.4870709647023,1.49115757049456,1.44025292568343,1.51611203814537,1.51401124855078,1.53895890085092,1.5362103828904,1.72532999993936,1.61110472531217,1.61556361046213,1.61452181501854,1.59348355654594,1.33673634561021,1.31278725715911,1.32601357350183,1.33072307876015,1.43797832535669,1.43949165974155,1.2397385737743,1.23913171806156,1.28767725393335,1.28351575242737,1.27943419859412,1.31902963182813,1.45726996267565,1.43378738356904,1.38123470352913,1.23641028699913,1.13727108805325,1.13813859987077,1.21622139577013,1.25301991571503,1.17699999948302,1.13523658739577,1.15035341290057,1.4492727572857,1.52609999827747,1.1326317265571,1.13148435731018,1.12211377461047,1.0708384595102,1.11591530906491,1.12249556666272,1.18883999196412
1.13723600407051,1.11448881772633,1.12396022606182,1.15038540382036,1.21600852051863,1.28710192362797,1.36334385795868,1.35542674964418,1.27931054643162,1.20734331124571,1.20538401654963,1.22519944158108,1.27300007213108,1.27753278748386,1.28040516326193,1.28214727417975,1.32467223981487,1.31257076726871,1.30535756353973,1.31876654858729,1.36103971321947,1.44107074514714,1.44959632868444,1.46788052757444,1.46806888041042,1.46730842877028,1.42532082907184,1.4327623771176,1.4260377085467,1.44666098883428,1.52081967516874,1.59292348994704,1.58048890105784,1.55307231833252,1.55343973771323,1.60237597816531,1.60854785827516,1.60565877514301,1.60821364482405,1.75195777677183,1.76430627570933,1.7892255397499,1.80027434814618,1.79765030315161,1.78756704657117,1.77235097178564,1.77764225433161,1.78795601545305,1.83505588929408,1.83385898313743,1.88091339688813,1.88716608567527,1.90473668926471,1.9227864660764,1.92437064801295,1.92769472389438,1.83478790880036,1.48750863152194,1.48013933145014,1.48646400796343,1.49637706780405,1.54241629036437,1.54346289071601,1.5692511564236,1.60645555279843,1.60733925549461,1.61019200099965,1.4534086894678,1.4067087310777,1.36534781166925,1.37183428463492,1.33250743189581,1.32321818718917,1.30186124015164,1.27260786755202,1.25777180825978,1.26783835479788,1.312969269092,1.36535369010214,1.36783630502526,1.37038228980116,1.32059648551455,1.32237173280857,1.32378329364637,1.32700312380964,1.34850675670171,1.42929799790209,1.45871915968999,1.48322230791778,1.48757765702242,1.43438615501206,1.40153649515832,1.4177242828242,1.45279133804201,1.50651708758928,1.57829469712664,1.57995297621668,1.58186850616558,1.49515347782344,1.41612242907622,1.40527767200329,1.43168513116666,1.48815060170641,1.49076212231855,1.51113801884307,1.6051999892589,1.65878480275078,1.68064704212529,1.62958148066722,1.5564785691268,1.33516235163633,1.31240039609808,1.323043794502,1.34011891244025,1.35260171268764,1.41547221163127,1.43400679480039,1.5255080802866,1.5185096784965,1.44446352246729,1.4235824371585,1.40624457640639,1.42300561660842,1.43222294046464,1.46935344121445,1.54238177525757,1.63587523897064,1.64053505886393,1.53910067577577,1.50986212631774,1.49936650962511,1.50630441631093,1.53840473035634,1.55145373323397,1.55922389710476,1.66735895068593,1.62547486204004,1.60520240583713,1.59963180407315,1.59432857823529,1.33790399841524,1.31819279510677,1.32899434088446,1.32991300005965,1.3830910176456,1.39973032182957,1.30081335397455,1.26940324458335,1.27380468204037,1.28206108164474,1.28096480839382,1.29596353816825,1.43928728641115,1.43803889238379,1.40551477107433,1.22631986519837,1.16614579697246,1.15422735057751,1.19974661557039,1.211642330333,1.22789932922705,1.25237172598751,1.27999721176089,1.42127670379744,1.42158532484396,1.19359210856059,1.1307345535489,1.10115054663213,1.087770119305,1.11880796233215,1.13579872772949,1.20962024424044
1.14484824755075,1.09181623068586,1.13562249912152,1.1541860757973,1.24277992999092,1.25242995823147,1.37230424503289,1.34470352651746,1.27213621155397,1.20951711424527,1.18175645581376,1.21845891134275,1.27981263212989,1.28473541639835,1.29600949556412,1.28396302682489,1.35081930182791,1.31899712707918,1.29176821366637,1.32475454785506,1.36148291930102,1.42421470734594,1.4576846755256,1.47443135998509,1.47737579307457,1.4757087499407,1.41444505454721,1.4514297656253,1.42016677023845,1.43339569343305,1.49855002472538,1.63325154604359,1.58619458669834,1.55615553774309,1.55673177800193,1.59807145137186,1.61444137726361,1.5677165796474,1.5671832676739,1.7545489297255,1.75564164272165,1.78817775909636,1.80377586571306,1.7787913731045,1.74431679633358,1.75600212322878,1.70657504628825,1.83658352053769,1.83655236895275,1.83491132363053,1.87814435891905,1.88994351168937,1.90384710624003,1.91811790064552,1.90897773789732,1.90862135670838,1.8374968591534,1.45031556392678,1.42095000245305,1.59089999993936,1.49679281639695,1.52287329940455,1.55432656174264,1.56698193536042,1.60567032740197,1.60541446715341,1.61248429176561,1.48895996105983,1.42535997466108,1.35603879534497,1.39954359748262,1.33622000195796,1.3202218552324,1.28908685125746,1.23001373485648,1.20989162911405,1.25191999219346,1.30674326806617,1.35936309290614,1.42981995111787,1.37398420480856,1.26803672281683,1.26837499248546,1.29337594560497,1.3369858782386,1.3161079665166,1.41967344397841,1.42682497944417,1.47916863842339,1.49483683175642,1.52232348983042,1.36029132192451,1.37300375556317,1.44278345836325,1.49030004400981,1.58626147456461,1.61637706141214,1.60988285317469,1.55804206165724,1.39816312800031,1.39757582888338,1.43740830403692,1.48241922405871,1.48786777061708,1.52288433541622,1.61124479988529,1.66430130518801,1.69392989882334,1.58290713821991,1.53466955251551,1.32657774872204,1.29181239797362,1.33967540320331,1.33987355667686,1.3572473815502,1.40565623338569,1.42596259331969,1.53279250130596,1.53649362137852,1.43338211293034,1.41948864804079,1.38223005728786,1.46739538123509,1.44870343421836,1.45961054414241,1.51061154866903,1.62839203443796,1.65047914298891,1.66593873386173,1.53082152354667,1.47666304579494,1.4928613780415,1.54247668948596,1.55631972192796,1.56882101112275,1.68319999996968,1.63265363400377,1.59276013199191,1.59183413282297,1.64581996446709,1.33972034555558,1.29629007657526,1.32993858622057,1.32976112340349,1.37025732651544,1.40814027272682,1.43729142435059,1.2561876763749,1.24195603088419,1.28141954658459,1.21911667562827,1.22198334354331,1.43871702909396,1.43925017732679,1.48971999993936,1.21538882624798,1.18278096262783,1.13801210525885,1.18619253125261,1.17519511764912,1.26356246032959,1.39182999996968,1.42343326602239,1.42224682300014,1.42286375415242,1.38728001323977,1.1300700632269,1.06091057989703,1.06166198808498,1.12209934789087,1.15808028501492,1.22725996412215
1.18299998591192,1.13706997891311,1.16131051706245,1.16188858331338,1.22060726262284,1.22023397840934,1.25432005241579,1.30273000833757,1.28129797662733,1.21873491165089,1.1936851482368,1.19433348633799,1.22137866117814,1.2873589290037,1.31360851545189,1.32716935541152,1.34224567709134,1.32464206596061,1.31845932906334,1.32447139344343,1.32472085342676,1.35258438935275,1.35128789889499,1.47530030904658,1.58643999993936,1.43971008089051,1.41650453426546,1.40735756864582,1.45736397066433,1.45397080869614,1.45879000770003,1.62652020689751,1.60288669806792,1.5608600460052,1.55049149493954,1.57314536987166,1.53899003126492,1.60324994180145,1.69160022429225,1.71961430425051,1.72676576850504,1.75226001327628,1.81769126360979,1.74774374442138,1.71670974868834,1.70786317297272,1.7063699475253,1.85296717398624,1.84235003869412,1.84398217200053,1.98524000054906,1.8924733690472,1.89790968220429,1.91602550160745,1.90942299818432,1.90972202931682,1.90816136065964,1.46791801585399,1.39358405756243,1.42508660061292,1.5135616667648,1.51192157395251,1.5552117498428,1.56343992614859,1.55093422592371,1.56089605399129,1.57991292807222,1.41958730915502,1.4537899974541,1.54431997158579,1.37627627815552,1.33446584659879,1.32889095894106,1.27668983152834,1.23146703729877,1.19893654576521,1.21941215979468,1.28393001938671,1.31717168479811,1.39852997929548,1.37438495566391,1.25279868067258,1.26826773937292,1.26855819492429,1.26990433698873,1.35197890541691,1.35793096997447,1.3972100001042,1.55957997385482,1.51809124922983,1.48046004249801,1.36138550578719,1.37217021593422,1.43253334175438,1.45138996474223,1.49578996836308,1.57841165994591,1.57749832617331,1.54087875245942,1.43600324504072,1.42646064052979,1.43959587175178,1.47682415872137,1.48073722149403,1.52085666692665,1.58452004791846,1.65929841291175,1.65611825366805,1.61498080151744,1.47824,1.36880996243248,1.28368397006368,1.31817968068014,1.33661652131175,1.33581680132206,1.44320999742581,1.50926297646611,1.63202253731965,1.47895914947597,1.4466715120568,1.38905996461566,1.34987535470303,1.36831233031922,1.42651332821551,1.42879620427051,1.49515751443078,1.63969580232416,1.69158148692871,1.61990668010407,1.47098998364177,1.44072092411859,1.44730144762244,1.57155556181466,1.56108275129226,1.64472067581531,1.80498999993936,1.68554130396822,1.59939051148152,1.63625132059301,1.58390000165401,1.30990001332054,1.24699575237059,1.29790317150639,1.3008989364256,1.30053269645152,1.45732115540782,1.30466845647851,1.26595216147047,1.22553833551394,1.24587170518706,1.36083999996968,1.39517999996968,1.21081000010802,1.27375551294888,1.20952008532997,1.26432987210827,1.20077367573728,1.14085446167432,1.13570837989684,1.21339662441622,1.24194390101129,1.29615,1.5278733577713,1.50539141031616,1.5140201537245,1.46296996662336,1.16699917922525,1.10816763426033,1.07140262285997,1.10507655088063,1.16070043655213,1.26409852835649
1.13671992918191,1.1078042096069,1.15425770727155,1.16170040535542,1.17102330612728,1.20152881645637,1.28860222301577,1.33941073305567,1.31235994428442,1.26426840858128,1.2442799026963,1.21195386636773,1.24546510886207,1.29110686708238,1.36034366805336,1.34735586517055,1.37041603389536,1.35967866003202,1.34064303692236,1.32429994837381,1.32326309587343,1.35904772285031,1.50489405248815,1.48615850253902,1.48695623543273,1.46832726023084,1.44692908693537,1.46383168805823,1.40551968800756,1.40554337532243,1.51597003350723,1.61564729653047,1.60295320579156,1.5669640384503,1.57018705037527,1.55826837967248,1.50065006671986,1.5488687692027,1.6685197883693,1.70000094803766,1.68394491925359,1.69144390618431,1.71690017573712,1.70279963521433,1.62238490650549,1.68908769889768,1.75012995546142,1.84283576939479,1.84374212238601,1.89002934797144,1.8770774603929,1.8981112700904,1.91239730387392,1.91911472051561,1.91182226239663,1.94387990157516,1.76296000003032,1.46686671820667,1.3979649474107,1.4282732710273,1.49246117109642,1.5857130189904,1.5687853608999,1.56994723138255,1.56992951141295,1.5781198425213,1.61069532677488,1.41640270158085,1.47896995565841,1.5019833219509,1.50223665727983,1.3731583032287,1.31322720805465,1.2650565256602,1.20847823901372,1.15829914448469,1.19870788698868,1.2496635777187,1.31605835105357,1.36433005306545,1.23988746904723,1.24703345459197,1.25843388545212,1.26765918964259,1.29529311039653,1.32216416720231,1.31845194991018,1.355049945979,1.41899,1.48065999996968,1.37066395925095,1.35170880341206,1.41928754840716,1.41955366442663,1.4196635480731,1.46712949259387,1.56100489557664,1.54807428582627,1.55344743030371,1.43366355892101,1.39587038431294,1.37955971675401,1.46477548688187,1.47368112902822,1.4987299956067,1.52015546805673,1.56026242997254,1.68336830311724,1.62272918327606,1.31036999039481,1.31192344901659,1.29892993924031,1.31919295894005,1.33625430136511,1.33409087777955,1.49704999996968,1.51663702353389,1.60548748040598,1.50868085323533,1.44360617419891,1.34395009501024,1.37592243816978,1.40259583057416,1.42334896933404,1.41686448649568,1.49771090997395,1.67155755928002,1.6682708307504,1.6448733943739,1.55447999351129,1.52309999996968,1.46009878845343,1.42517985783781,1.49030294511558,1.65470932415437,1.67993999374052,1.66449872859464,1.61956331443115,1.56440005262652,1.55498002977619,1.24595575234259,1.24681679551393,1.29024105910822,1.30122386299444,1.30134402868843,1.43603881116563,1.30018494503162,1.23028994592592,1.20285855554048,1.19908529760976,1.30026999999997,1.44776999996968,1.51855999464999,1.47683645524372,1.48768420011798,1.19300000219173,1.17347184345406,1.15426563796846,1.13561796248089,1.21210329075222,1.2411975582277,1.23995991376699,1.49638473456104,1.4999998495044,1.55165995398147,1.43001003334632,1.18136009605109,1.11552350606221,1.07334298116894,1.13425021182695,1.22693999996968,1.28228409578553
1.11520035369664,1.10567180349333,1.10486019559725,1.16185578915475,1.16327705020162,1.26776877681207,1.27120132433286,1.32669909642041,1.27322396523385,1.28342466497903,1.20810295580555,1.2013602875268,1.24218619070988,1.29589719611422,1.29611006645355,1.33747010833407,1.33505023462312,1.32213923210731,1.3224391712102,1.32344321415999,1.33895531525686,1.38963793056902,1.46957957694369,1.48467074345517,1.48783664101871,1.48170297890501,1.45751468992371,1.44801299039653,1.39572706758956,1.43880994265356,1.54370793073603,1.62984309605951,1.56906636074792,1.57003482618427,1.57380993555728,1.54006880658886,1.55766492737806,1.55792768515697,1.58770785259882,1.669548950158,1.66745483825281,1.67476788899303,1.68144593683102,1.68009525650744,1.61968446474455,1.70423176142186,1.70494058380104,1.78870999975385,1.85104633621215,1.84959976168027,1.87836012796283,1.88541168974119,1.89539603949285,1.90628820752013,1.89867547051904,1.89020455506783,1.88756881766974,1.46892193467077,1.39730780609498,1.39838964155458,1.48765751043759,1.50503201181561,1.57830321769757,1.58759623695032,1.59407351122211,1.61332065504727,1.62072616123229,1.39654318343732,1.41346437908346,1.43130996695605,1.4748800043234,1.36283786984846,1.24712816888026,1.24541472417799,1.20232757701314,1.17111095670714,1.22014071227673,1.24846716624256,1.35120748837803,1.40949990693394,1.28129859705197,1.24733830861669,1.25799495100676,1.26748779205612,1.34261665032776,1.3433192921444,1.32403583202691,1.32461053350938,1.3672042826698,1.36736004141124,1.36800907637586,1.32295613281565,1.34594519825363,1.40432050277741,1.45222989542276,1.50102741375897,1.4859663376039,1.56462263675501,1.44379001247081,1.36837871128662,1.36809864716151,1.39516740594986,1.43098371715166,1.45722504535089,1.4654016920074,1.52012896956246,1.56077442453531,1.69663410375569,1.68596752948252,1.53318987520984,1.34702802767135,1.33819436898168,1.34090190540655,1.33723853085661,1.33618004743362,1.35712769920667,1.63895037318555,1.64898960893721,1.43250302423281,1.4336038383634,1.45029844574917,1.39787222936013,1.37619971624743,1.43227586109686,1.43566260482902,1.47233708833424,1.52010181937073,1.54095503023464,1.58906080328364,1.55407999448415,1.45492930008606,1.4278485230644,1.47094143337863,1.48712908647556,1.38617000022717,1.73395997360566,1.62094032645131,1.60481054414312,1.59848754720118,1.32294117063853,1.30401367101699,1.24529175224163,1.32269206805379,1.31131953797318,1.35445789228321,1.40310072920058,1.28113659885673,1.19819098670716,1.19520413553316,1.23099281187647,1.25147046868042,1.30456699466113,1.47240417006704,1.4724849574411,1.47274813975979,1.2060932551935,1.15867055319414,1.16085826925918,1.16394496916792,1.17965977813111,1.22846798851369,1.36781994057048,1.52276493481682,1.4983357347147,1.48657072541271,1.27817000072747,1.19592076437101,1.12198487278722,1.06159176954254,1.09130365638328,1.11000376013951,1.28565737210111
1.11855241525578,1.12230293582887,1.12386083251769,1.17249138129304,1.17450186866691,1.26028164846932,1.27749144849275,1.29936833182022,1.28917932467926,1.27815693327087,1.20582384520609,1.20354490744558,1.2462968967225,1.30014786661475,1.32195850371589,1.33919191063901,1.3400151233885,1.34063907776136,1.34166731517643,1.34345297374438,1.3461509651752,1.38550726279074,1.42382381605182,1.48223514058482,1.48050683140517,1.48044768133064,1.470825195642,1.43951681426004,1.43435639849966,1.47010611418565,1.53735326919509,1.55307189325281,1.55712416387639,1.55588158408298,1.55484284020714,1.5475690444333,1.55182698760984,1.55458282011746,1.62891830006707,1.67087410362456,1.67066787174216,1.6728274354173,1.68000598053986,1.67976299365221,1.66061101919188,1.6730079897472,1.67846751985126,1.75249527136674,1.76136867815423,1.84555848074664,1.88423518485588,1.88656139088409,1.89421737878268,1.90907353164735,1.9080204948252,1.90111649019207,1.89850853800505,1.47019669645037,1.39776243576326,1.39811903869594,1.48027882598295,1.51212223201838,1.58546053625281,1.58894692509252,1.59274327991449,1.59657031362463,1.48097332836033,1.39233639949804,1.38996036341796,1.38714523586517,1.38439269888569,1.35783333583548,1.29331226281394,1.24356043773371,1.2141023373414,1.18796687954127,1.23745736214551,1.25741579762061,1.3670958352199,1.38319622543866,1.27495136795123,1.25576836503776,1.2605513173156,1.26855306651303,1.31471814874269,1.34975316444781,1.35427737002866,1.35709199401347,1.35920169664996,1.36279339986842,1.35486509570528,1.34745805245968,1.35226559668119,1.3888370739914,1.42268611638379,1.47140179984781,1.47548219118085,1.51645905665066,1.4869973090759,1.38862929160721,1.38366195144278,1.40525807164174,1.41637886460389,1.45209999119949,1.45431174145609,1.50634663038929,1.55900727317313,1.6440349046939,1.64130988782834,1.5530112061468,1.38175088119932,1.34436614632957,1.33875680501104,1.33645744832483,1.33708859687127,1.3683831624924,1.59399302944708,1.60702639465886,1.45489221660538,1.44436690659027,1.42528913798037,1.41205246276061,1.40632567713104,1.43715344199032,1.43759962783355,1.48567753527443,1.51125167394203,1.55857944514014,1.57495234228085,1.52534097523005,1.44388965019752,1.43627724167139,1.48483723254676,1.49414733534806,1.50888549899924,1.51741095549323,1.60979718973074,1.60854378258311,1.59712948289205,1.30048262752978,1.28854457575765,1.2698501452023,1.29840279063214,1.30339728357568,1.37016020989768,1.3848517137959,1.32273812451213,1.21505657764209,1.21159539545305,1.21604397120008,1.24218489378934,1.29954074344577,1.2957996408022,1.29286184554496,1.29190319227112,1.20946287984524,1.17114048582463,1.16978855581515,1.17412767150696,1.18283878888111,1.21862035533779,1.34639486086112,1.39586582171944,1.48715155722479,1.48709720633589,1.32524265358223,1.21203508932955,1.11426250641043,1.08621201982929,1.08844006420219,1.09739278828634,1.21936103555694
