0.161558,0.160552,0.175548,0.175557,0.176363,0.179798,0.180007,0.192753,0.193048,0.190431,0.196839,0.205041,0.204931,0.218113,0.215765,0.22194,0.221397,0.24191,0.241793,0.245226,0.255085,0.264949,0.266119,0.276799,0.273165,0.292704,0.293019,0.291819,0.29076,0.313372,0.312346,0.325262,0.32659,0.325222,0.3381,0.336006,0.338121,0.348342,0.348859,0.359187,0.360501,0.357725,0.368204,0.36593,0.377665,0.378539,0.387348,0.397518,0.398108,0.397488,0.400876,0.41275,0.413014,0.412258,0.42542,0.424409,0.424474,0.431745,0.439566,0.442548,0.440989,0.454825,0.451987,0.455361,0.456177,0.460661,0.460173,0.460364,0.469659,0.469787,0.486226,0.486597,0.485497,0.496116,0.496982,0.500542,0.503872,0.51514,0.514898,0.508788,0.514771,0.513916,0.521345,0.522134,0.523336,0.528808,0.533052,0.538372,0.538616,0.538199,0.538958,0.538323,0.546987,0.554802,0.538087,0.53786,0.560646,0.561478,0.564028,0.563245,0.555418,0.554509,0.88114,0.894465,0.895081,0.573492,0.573368,0.565671,0.911121,0.581167,0.571292,0.573073,0.571601,1.30244,0.00339084,1.25757,1.32398,0.940774,0.547052,0.548032,0.552428,0.551419,0.570292,0.622968,0.620783,0.578447,0.626514,0.627812,0.616057,0.634276,0.615533,0.65003,0.649606,0.626309,0.625556,0.62497,0.663647,0.675777,0.659164,0.693937,0.691311,0.791473,0.745132,0.729649,0.745893,0.776176,0.777249,0.745312,0.760009,0.774501,0.83167,0.819674,0.839043,0.861247,0.860903,0.883299,0.869806,0.868878,0.859515,0.853381,0.849819,0.818758,0.872845,0.852793,0.899949,0.915973,0.895885,0.925475,0.922272,0.920066,0.918278,0.91621,1.01697,1.01724,1.00502,0.970417,0.960672,0.950744,0.974988,0.954157,0.966211,0.973318,0.956646,0.956783,1.04493,1.04726,1.04939,0.964262,0.964577,0.967589,0.939027,0.929455,0.944872,0.961394,0.962218,0.942771,0.935875,0.925329,0.927671,0.928094,0.961761,0.954532,0.96896,0.96396,1.00856,1.00776,0.983144,1.03504,1.03317,1.0453,1.06052,1.07047,1.07112,1.46141,1.11246,1.11476,1.12362,1.43179,1.13998,1.13961,1.13918,1.16908,1.17585,1.18222,1.1848,1.19387,1.20437,1.20347,0.00361279,1.22003,1.22682,1.36775,1.24998,1.25808,1.25929,1.26789,1.27286,1.27447,1.28166,1.29084,1.55425,1.3265,0.0104398,1.34396,1.43428,1.36227,1.37245,1.38752,1.39222,1.40406,1.40419,0.00332049,1.72395,0.00347217,0.00348401,0.00363058,0.00380321,1.47804,1.49438,1.49375,1.49416,1.49434,1.51307,1.51286,1.51501,1.52734,1.52985,0.00385487,1.56762,1.56447,1.57089,1.5708,1.58542,0.00332967,1.59931,0.0035653,0.00318211,1.62191,1.6208,1.62044,1.62251,1.63345,1.63401,0.00376426,0.00374907,0.00376599,1.66463,1.69615,1.67865,0.00363565,1.693,0.00361142,0.00967391,0.00370144,0.00390034,1.72744,1.72587,0.00346383,0.00315861,0.00411427
0.160887,0.162142,0.175715,0.176415,0.175266,0.179572,0.180514,0.188314,0.193588,0.195656,0.206505,0.205115,0.210744,0.216195,0.21559,0.224262,0.223639,0.238226,0.24202,0.248333,0.247917,0.259762,0.272382,0.272692,0.2708,0.269359,0.29313,0.29205,0.290571,0.301649,0.303684,0.314303,0.312867,0.326123,0.325483,0.324273,0.332045,0.341722,0.341505,0.339625,0.355909,0.356614,0.360934,0.366279,0.373683,0.375617,0.376722,0.379992,0.388283,0.387425,0.386289,0.411927,0.412554,0.412843,0.422824,0.423429,0.423994,0.422244,0.424261,0.432734,0.439959,0.441007,0.447297,0.445807,0.448376,0.442785,0.452178,0.461905,0.468601,0.467555,0.479451,0.479616,0.488574,0.488602,0.492339,0.491117,0.503565,0.501188,0.501157,0.50039,0.5071,0.515105,0.510036,0.509584,0.521054,0.521183,0.522909,0.527734,0.528681,0.535844,0.537124,0.538037,0.538704,0.537845,0.538472,0.53827,0.538987,0.537215,0.879777,0.542967,0.552478,0.553338,0.550376,0.552433,0.00389589,1.29259,0.555635,1.11192,0.566452,0.565264,0.563757,1.3024,1.40585,1.32705,1.32714,1.29535,0.572694,0.537533,0.558873,0.550362,0.551474,0.518217,0.51922,0.514301,0.621587,0.622091,0.573259,0.579764,0.620993,0.661038,0.658889,0.65321,0.682465,0.682119,0.683507,0.683291,0.666515,0.714563,0.733716,0.768356,0.762522,0.752427,0.751736,0.779211,0.795612,0.78804,0.787173,0.950746,0.808817,0.830553,0.851952,0.871963,0.871668,0.871125,0.872192,0.874491,0.881024,0.880985,0.897746,0.925103,1.03491,1.03401,1.02584,1.0361,1.03594,1.01573,1.01595,0.947074,0.946605,0.980563,0.984006,1.00208,1.00469,1.00486,1.01498,1.01651,1.00835,0.999597,1.00952,1.02137,1.00866,1.01656,1.00958,1.01015,1.03313,1.06754,1.04776,1.05293,1.05314,0.97524,0.9522,0.961627,0.963836,0.963628,0.963962,0.972087,0.975532,0.954573,0.9718,0.977914,0.978054,0.961423,0.98088,0.96997,0.964615,0.965516,0.978102,0.978704,1.0145,1.01559,1.12715,1.12877,1.07397,1.52636,1.40237,1.51631,1.21524,1.34169,1.34194,1.14369,1.17532,1.16924,1.17332,1.18069,1.18264,1.19281,1.1989,1.20731,1.21186,1.21882,1.22893,1.39463,0.003573,1.25765,1.26465,1.27116,1.281,1.2942,0.00410282,1.322,1.32513,0.00342603,1.33974,1.34445,1.35323,1.5376,1.53879,1.39667,0.00386856,1.40918,0.00294039,1.43769,0.0037494,1.45715,1.46166,1.46904,0.00362103,0.00440891,1.4987,1.49863,1.49682,1.49756,0.00369523,0.010685,1.52782,1.52629,1.53279,1.53971,0.00326363,1.56779,0.00393926,0.0110663,1.58524,0.010562,0.00353992,1.60618,1.605,1.6127,1.61981,1.61775,1.62386,1.62374,1.6299,1.64103,0.00313106,0.00384551,0.00371567,1.83379,0.00348855,0.0041431,0.00362772,1.70136,0.00326487,0.00365257,0.00377811,1.71879,1.71809,0.00374566,0.00382935,1.76033
0.165872,0.164376,0.173615,0.174499,0.171656,0.169862,0.168465,0.187785,0.187026,0.191603,0.196078,0.210679,0.210121,0.208744,0.216042,0.224504,0.230583,0.229195,0.248029,0.24701,0.24591,0.263569,0.262736,0.271308,0.270229,0.280031,0.27905,0.294998,0.293916,0.295024,0.313595,0.312059,0.315427,0.315979,0.317732,0.331975,0.332385,0.340645,0.340085,0.352044,0.351446,0.35662,0.365911,0.368795,0.371719,0.373575,0.373509,0.369475,0.386687,0.386841,0.385378,0.385038,0.391926,0.396132,0.39518,0.394201,0.421031,0.41464,0.420629,0.41992,0.81491,0.436072,0.441702,0.44318,0.442871,0.450141,0.450152,0.457859,0.463135,0.464216,0.462974,0.462613,0.469868,0.485965,0.476809,0.487771,0.500389,0.501526,0.501345,0.500883,0.49742,0.509992,0.508972,0.509243,0.512469,0.507375,0.510061,0.51091,0.512171,0.514157,0.513431,0.518592,0.519877,0.517975,0.51677,0.523728,0.524559,0.533226,0.536473,0.536957,0.538452,0.541443,1.14665,1.14576,0.536683,0.861179,1.2872,0.552537,0.549663,0.552536,0.631217,1.32406,1.32335,1.32183,1.08169,1.05966,1.05027,0.552745,0.550827,0.552727,0.553781,0.512057,0.512215,0.542592,0.5579,0.571112,0.572466,0.621844,0.63401,0.645196,0.635123,0.684179,0.677645,0.67969,0.738207,0.715853,0.699912,0.701541,0.748349,0.787443,0.777869,0.7738,0.772756,0.923041,0.977927,0.978707,0.946139,0.949161,0.949987,0.947514,0.903254,0.904176,0.897686,0.936938,0.929569,0.932517,0.914161,0.928468,1.01388,1.04123,1.04113,1.02929,1.02474,1.02175,1.02163,1.0469,1.01552,0.998988,0.99249,1.02587,1.02593,1.02695,1.03244,1.03218,1.03538,1.01816,1.01485,1.01621,1.01895,1.06048,1.05317,1.054,1.02281,1.02168,1.0143,1.01203,1.01507,0.997319,0.998833,1.0025,1.00095,0.998596,1.00481,0.988295,0.976738,0.978248,0.980047,0.994483,1.01141,0.986031,0.99828,1.00181,0.987777,0.987802,0.99482,0.962187,0.962,0.963196,0.97465,1.00492,0.99677,0.998743,1.00227,1.03475,1.0504,1.10606,1.16,1.25028,1.43437,1.14047,1.16747,1.16481,1.16931,1.17605,1.185,1.19224,1.20551,1.20952,1.21535,1.21939,1.22771,1.38684,1.24873,0.00356073,0.00311139,1.41043,1.2936,1.3113,1.31286,1.32626,1.3333,1.33972,1.34466,1.35192,1.83188,0.00361098,1.3754,1.38742,0.00331568,0.0033749,1.4381,1.44669,1.45051,1.45449,1.46055,1.47016,1.4849,1.48454,1.48435,1.48811,1.48986,1.49091,0.00377665,0.00360802,1.70967,0.00383401,1.6349,0.00330865,1.54911,1.55158,0.00998878,0.00329628,1.58694,1.58324,1.58208,0.00343876,1.78267,0.00384192,1.60684,0.00392253,1.61229,1.6135,1.61338,0.00362701,0.0036954,0.00369474,0.0163848,0.00364921,1.67183,1.67073,1.67254,0.0038184,0.00350865,0.0034833,1.69946,0.00368924,0.00352282,0.00369069,0.00354991,0.00348027
0.159226,0.156871,0.15854,0.160202,0.160446,0.160696,0.179055,0.177282,0.188906,0.203201,0.202118,0.201162,0.203395,0.202863,0.192756,0.229848,0.229531,0.228385,0.244684,0.2422,0.262501,0.263446,0.262176,0.265096,0.273908,0.273713,0.28038,0.283137,0.308743,0.307419,0.311009,0.310625,0.308432,0.312108,0.320476,0.331593,0.338107,0.337901,0.347569,0.346103,0.34795,0.350511,0.36684,0.366514,0.366275,0.366806,0.367304,0.352042,0.368192,0.373142,0.382808,0.383514,0.390945,0.393302,0.392876,0.398438,0.412161,0.413485,0.412384,0.412254,0.422701,0.422587,0.423105,0.42799,0.432435,0.434364,0.435916,0.435651,0.452771,0.459703,0.459611,0.456978,0.465341,0.466598,0.459231,0.474671,0.479605,0.479702,0.493849,0.486264,0.486658,0.491819,0.4919,0.503277,0.502177,0.50299,0.500981,0.501545,0.511305,0.511915,0.511756,0.512466,0.515188,0.515664,0.517238,0.521119,0.525394,0.528213,0.529828,0.798826,0.847956,0.717977,0.0036951,0.533239,1.3123,0.525285,0.720601,0.72049,0.533135,1.28878,1.28647,1.32345,1.00608,1.00607,1.00269,0.512424,0.515025,0.54966,0.548969,0.50031,0.504215,0.506758,0.506123,0.563963,0.553601,0.607217,0.623154,0.631618,0.717575,0.717555,0.717833,0.7462,0.695408,0.704532,0.72995,0.724804,0.736744,0.749586,0.894447,0.904468,0.99528,0.953134,0.93966,0.956419,0.936837,0.934257,0.93094,0.936388,0.927174,0.915133,0.931223,0.971478,0.963601,0.959398,0.966535,1.02743,1.09099,1.10513,1.08113,1.0851,1.08509,1.06763,1.07683,1.07274,1.06569,1.07816,1.0946,1.07195,1.07956,1.07871,1.05359,1.06107,1.06016,1.05958,1.08843,1.08781,1.09437,1.07755,1.07138,1.07197,1.07698,1.07688,1.05162,1.04357,1.03902,1.03573,1.06424,1.03209,1.01631,1.00131,1.00235,1.00287,1.00109,1.00813,0.98918,1.00253,1.01268,1.01212,1.00549,1.01307,1.01671,1.03087,1.03131,1.00796,1.03623,1.02369,0.976093,0.991573,0.988476,0.971569,0.977768,1.03002,1.01647,1.05349,1.10968,1.07782,1.10315,1.36038,1.28526,1.15196,1.18506,1.47525,1.16709,1.33112,1.33145,1.19845,1.20735,1.2204,1.21993,1.36744,1.23973,1.24886,1.25409,1.67221,1.27576,1.38001,0.00334315,0.00343186,1.32621,1.33373,1.33985,1.35076,1.35144,1.36136,1.36653,0.00393548,1.38564,1.39206,1.40534,1.44814,1.44654,1.44643,1.44607,1.44946,1.45308,1.46152,1.4715,1.47988,1.47858,1.4816,1.47724,1.47412,1.4742,0.00382648,0.00392244,1.49056,0.00369118,0.00359678,0.00369007,0.00375796,0.00379775,0.00366843,0.0033863,1.56835,1.57036,1.5825,0.00363163,1.58904,1.61386,1.59211,1.59167,1.5905,1.59073,0.00401674,0.00343661,0.00440339,1.66178,1.66059,1.66003,0.00393835,0.00333241,1.68612,1.68588,1.6847,0.00375515,0.00376082,0.00378414,0.00901461,0.00345683,0.00357714
0.145926,0.155752,0.152222,0.152788,0.159742,0.160119,0.174787,0.171564,0.173823,0.189974,0.196265,0.202306,0.200774,0.199598,0.223879,0.220963,0.235789,0.24083,0.24113,0.241547,0.258604,0.258615,0.257499,0.260231,0.265879,0.281352,0.280083,0.282132,0.284732,0.309241,0.309154,0.308979,0.299609,0.299454,0.31544,0.317469,0.319785,0.332446,0.32873,0.329083,0.340427,0.339875,0.342963,0.341509,0.340891,0.343714,0.348455,0.346556,0.34678,0.375726,0.373458,0.376657,0.384402,0.385962,0.387227,0.386916,0.394626,0.400259,0.400301,0.407795,0.413591,0.421317,0.420072,0.417229,0.425556,0.424957,0.432628,0.437105,0.441918,0.441195,0.440824,0.455643,0.454121,0.458733,0.457539,0.473231,0.473253,0.477333,0.483223,0.484109,0.488951,0.489773,0.488967,0.489567,0.488012,0.488111,0.495511,0.00395776,0.775105,0.773836,1.22408,1.2252,1.22725,1.22902,1.23185,1.23314,1.23281,1.23881,1.2391,1.24048,1.24328,1.2464,1.2459,1.42693,0.866782,0.865702,0.742252,1.25052,1.13629,0.808075,0.809945,0.814455,0.814325,0.514949,0.514046,0.498012,0.507947,0.491447,0.484266,0.482445,0.490242,0.528058,0.528206,0.528574,0.626035,0.59172,0.723741,0.737819,0.742459,0.739198,0.726044,0.749042,0.84561,0.880534,0.882728,0.899126,0.900829,0.914688,0.942406,0.936809,0.977756,0.987066,0.982348,0.967205,0.965648,0.962813,0.971845,0.976148,0.992335,1.00079,1.00307,1.00203,1.00871,1.01872,1.0199,1.10846,1.13272,1.12664,1.136,1.1063,1.10614,1.11291,1.10151,1.11129,1.08865,1.0959,1.09406,1.08729,1.08788,1.09984,1.1135,1.12142,1.12511,1.12855,1.13074,1.14319,1.16029,1.16776,1.17796,1.18619,1.19328,1.10545,1.1366,1.11627,1.11736,1.11837,1.217,1.19077,1.18034,1.02942,1.0396,1.04351,1.04396,1.09684,1.10742,1.02263,1.02697,1.01222,1.03615,1.0363,1.04853,1.0261,1.01897,1.02245,1.03358,1.03715,1.03906,1.00352,1.00578,1.00566,0.988525,1.01194,1.00964,1.053,1.03386,1.03269,1.13346,1.10962,1.12846,1.17821,1.55697,1.40275,1.16132,1.33841,1.56584,1.24019,1.24739,0.00386722,1.23256,1.23946,0.0035387,0.00347073,1.27658,1.28416,1.29246,0.00351464,1.33007,1.3332,1.33412,1.55635,1.94446,1.35761,1.36233,1.37213,1.37408,0.00340694,1.45886,0.00364042,1.40176,1.41086,1.76676,0.00352973,1.43709,1.4446,1.44397,0.00350024,1.46427,1.46295,1.46133,1.46502,1.46747,1.46255,1.46726,1.46908,1.4786,1.48552,0.00387213,1.50133,1.50125,0.00363363,0.0044074,0.00348767,0.00414415,0.00351476,0.0036323,0.00369487,0.00422633,0.00333789,0.00917495,0.00329681,1.59057,1.58937,1.59009,0.00301727,0.00829931,0.0038081,0.00399274,0.00355029,0.0114145,0.00329454,0.00423086,0.00381624,0.00432495,0.00360164,0.00332363,0.00335091,0.00445717,0.0038791,0.00359058,0.00380066
0.155448,0.15627,0.155891,0.155926,0.15917,0.172806,0.170546,0.171532,0.169948,0.179365,0.186423,0.185407,0.194388,0.192406,0.00401063,0.00352297,0.224451,0.235986,0.234708,0.236283,0.25298,0.252939,0.252127,0.251976,0.264334,0.26511,0.264156,0.268815,0.289322,0.290537,0.297738,0.299087,0.299119,0.298523,0.31849,0.316755,0.315518,0.317362,0.324916,0.325295,0.340322,0.33872,0.339327,0.340476,0.332762,0.331811,0.339693,0.350048,0.350109,0.356582,0.370422,0.365358,0.364956,0.386223,0.388443,0.38775,0.395439,0.399997,0.396666,0.401746,0.414014,0.415,0.41489,0.415236,0.425314,0.424843,0.430811,0.431048,0.442986,0.442148,0.442445,0.447034,0.446739,0.455192,0.456734,0.458742,0.464096,0.462603,0.460288,0.478575,0.478742,0.483753,0.483981,0.483586,1.21387,1.36825,1.37498,1.4023,1.30639,1.33429,1.31399,0.728795,1.32081,1.32351,1.13895,0.966798,0.966261,0.732313,1.23964,1.2399,0.815554,0.816735,0.817403,0.815496,0.00349156,0.953908,0.952113,0.812343,0.00344036,1.22021,0.52089,0.852978,0.503431,0.483205,0.486232,0.48428,0.471967,0.490359,0.476643,0.538182,0.539087,0.511797,0.525772,0.559934,0.558786,0.793686,0.802559,0.847308,0.849668,0.84674,0.869904,0.870643,1.01611,1.01552,1.01513,0.978186,1.0051,0.998539,1.00662,1.01008,1.01152,1.01555,1.02245,1.00836,1.01494,1.00983,1.02486,1.01132,1.02858,1.03079,1.07049,1.03874,1.11165,1.10299,1.14535,1.145,1.15064,1.15305,1.14757,1.26013,1.14093,1.14077,1.14404,1.14416,1.15821,1.13121,1.19503,1.13794,1.13165,1.13669,1.15978,1.16285,1.16349,1.16234,1.17895,1.16566,1.16496,1.16145,1.15822,1.15202,1.17747,1.13309,1.14146,1.13105,1.11941,1.13078,1.10889,1.11072,1.19532,1.20511,1.15406,1.15481,1.06704,1.06852,1.05288,1.05498,1.0408,1.03833,1.05118,1.05046,1.06329,1.05458,1.09435,1.04605,1.04,1.03262,1.04945,1.05009,1.05066,1.05105,0.999973,1.01548,1.02579,1.04789,1.03287,1.03347,1.07765,1.07893,1.19317,1.14004,1.22803,1.16289,1.16084,1.17119,1.17463,1.29476,1.30882,1.30232,1.39574,1.31646,1.3133,1.42039,0.00343182,1.40618,0.00396818,1.60196,1.33263,1.33378,1.33971,1.34274,1.35061,1.35457,1.35966,1.37771,1.37607,1.39115,1.39612,1.39472,1.40187,1.40543,1.4158,1.42007,1.42635,1.43064,0.00338817,1.43157,0.00376799,1.44753,1.4509,1.79623,1.45705,1.45741,1.46177,1.46898,1.46948,0.0033214,1.48981,1.49551,1.49688,1.50013,1.51386,0.00345343,0.00354112,1.53375,1.54038,1.54441,0.00337198,1.56466,0.00372327,1.56366,0.0033135,1.58159,0.003344,1.58875,0.00399132,0.00378657,1.84573,1.86179,0.00370762,0.00351479,0.00351771,1.64402,1.64357,1.65837,1.65694,1.66176,0.00349276,0.003337,0.00369482,0.00383205
0.158585,0.159633,0.159147,0.156018,0.166856,0.166707,0.175099,0.173798,0.174244,0.174165,0.189129,0.187362,0.193655,0.186595,0.187016,0.00360628,0.20908,0.22118,0.221282,0.0037482,0.251982,0.250703,0.250325,0.249473,0.259032,0.265466,0.265773,0.270361,0.289044,0.289295,0.289391,0.290877,0.295084,0.301573,0.301315,0.314996,0.314448,0.318444,0.318054,0.31423,0.339212,0.337973,0.332668,0.334473,0.333695,0.332789,0.353837,0.353788,0.353465,0.363483,0.363806,0.363169,0.36378,0.362891,0.391441,0.391794,0.397298,0.40314,0.389496,0.388984,0.410068,0.414977,0.410502,0.411184,0.410577,0.415362,0.427061,0.427602,0.440904,0.441623,0.44139,0.44923,0.448953,0.442014,0.440155,0.453066,0.460007,0.459323,0.458769,0.459349,0.472518,0.473186,0.466747,1.21223,1.21128,0.729187,1.31432,1.13269,1.13408,1.1341,1.13482,0.469798,0.472506,0.457123,0.442437,0.442009,0.458596,0.00375311,1.23349,0.00359398,0.823038,0.00344545,1.27358,1.06543,0.00344549,0.00366403,0.442939,0.443777,0.441409,0.46172,0.461374,0.441594,0.518848,0.471839,0.469977,0.474616,0.465964,0.461674,0.456511,0.528882,0.528325,0.552765,0.570247,0.576989,0.802131,0.901004,0.89563,0.881965,0.900543,0.897362,0.935737,1.03896,1.04658,1.00977,1.01972,0.999416,1.02522,1.02492,1.02883,1.04194,1.18234,1.05994,1.04626,1.03399,1.04685,1.10502,1.10274,1.10172,1.08581,1.12881,1.16476,1.16523,1.15327,1.24048,1.1874,1.17819,1.17254,1.18873,1.18503,1.18364,1.19617,1.2705,1.17488,1.17499,1.17858,1.17931,1.19967,1.19918,1.20951,1.19827,1.20877,1.20263,1.21247,1.19768,1.19728,1.20275,1.20674,1.20209,1.21643,1.18078,1.16456,1.17468,1.1543,1.16869,1.16073,1.1445,1.15757,1.12397,1.1366,1.11404,1.11335,1.21063,1.10001,1.102,1.08504,1.09196,1.08114,1.08207,1.08387,1.11616,1.209,1.20889,1.06275,1.06152,1.06701,1.0597,1.05693,1.03677,1.03774,1.29038,1.01778,1.01442,0.996482,1.0117,1.07342,1.05931,1.03576,1.04985,1.06991,1.14094,1.14526,1.74112,1.60997,1.6183,1.61711,1.39597,1.27515,1.53147,1.21924,0.00336809,1.40443,0.00335188,1.44986,0.00380329,1.74615,1.52935,1.32465,1.3298,1.3299,0.00359634,0.00353233,0.00361442,1.36236,1.64777,1.6474,1.3753,1.37879,1.37929,1.65964,1.40537,1.40948,1.4115,1.41319,1.41315,1.41555,0.00362676,1.43052,1.43719,1.43898,0.00345521,1.44888,1.45494,1.46088,1.45974,1.4671,1.46775,1.48447,1.48169,1.48278,0.003748,0.00363176,0.00342684,0.00346766,0.00419941,0.00962232,1.54609,1.54995,1.5502,1.56453,1.56435,1.56201,1.56717,1.56937,0.00376909,0.00376011,0.00321785,0.0034532,1.606,1.60634,0.00399328,1.64433,1.64352,1.65431,1.65316,0.00348198,0.0038994,0.0035059,0.00345452,0.00380035,0.00359131
0.150803,0.14993,0.15809,0.159232,0.165489,0.172716,0.171769,0.171003,0.171202,0.159472,0.17038,0.174141,0.173946,0.00357655,0.00380245,0.195855,0.193686,0.20241,0.216599,0.216734,0.218751,0.22169,0.216918,0.227761,0.226825,0.248755,0.247233,0.250167,0.253233,0.255128,0.253165,0.251527,0.264369,0.280372,0.27895,0.286364,0.283789,0.306216,0.309237,0.309289,0.308283,0.30834,0.333005,0.310477,0.309643,0.323891,0.331746,0.349796,0.362129,0.363002,0.361418,0.361204,0.361965,0.360813,0.366529,0.377235,0.385802,0.384879,0.387223,0.390177,0.391692,0.401137,0.401764,0.410383,0.412801,0.410806,0.410236,0.408979,0.424173,0.422746,0.424725,0.428425,0.437231,0.439959,0.440273,0.439302,0.442934,0.445705,0.455566,0.454657,0.458733,0.458427,1.09014,1.09025,0.445016,0.444233,1.12392,1.12444,1.13269,1.13313,1.25349,0.410499,0.429308,0.456013,0.441176,0.439959,0.424945,0.435916,0.00336114,1.13603,0.0033641,0.439629,0.003416,0.572496,0.00359411,0.442166,0.443176,0.441906,0.440957,0.460522,0.45969,0.439329,0.473227,0.442485,0.442158,0.465914,0.488165,0.466073,0.552454,0.536573,0.544864,0.57054,0.759696,0.783532,0.8584,0.953046,0.950206,0.937976,0.936519,0.994424,0.998575,1.00491,1.00495,1.02183,1.0291,1.03623,1.04985,1.0492,1.06591,1.0652,1.10018,1.08756,1.07892,1.10987,1.10262,1.10993,1.10675,1.1208,1.13615,1.22021,1.19348,1.21491,1.2413,1.21012,1.21505,1.22558,1.27794,1.27222,1.20515,1.21156,1.21247,1.20543,1.21431,1.32004,1.24297,1.23573,1.24232,1.23931,1.26923,1.24002,1.23878,1.23723,1.23542,1.26178,1.26184,1.26359,1.25104,1.25079,1.21359,1.23684,1.23647,1.21274,1.19501,1.18756,1.17153,1.17376,1.15094,1.14724,1.14432,1.13919,1.12558,1.14326,1.16941,1.2164,1.22357,1.11293,1.11289,1.11761,1.12098,1.10693,1.09448,1.09458,1.11627,1.07133,1.06866,1.05429,1.05515,1.0805,1.14925,1.14967,1.02312,1.02447,1.00256,1.02459,1.04312,1.0403,1.03642,1.05481,1.09813,1.1233,1.23604,1.1812,1.15579,1.15958,1.46466,1.17857,1.18631,1.31456,1.37503,1.23377,1.27065,1.50417,0.00341669,1.77372,1.43762,1.30483,1.31887,1.31629,1.31903,1.32572,1.33206,1.33525,1.34237,1.34904,1.36064,1.35973,1.36493,1.37485,1.3761,1.38903,0.00347283,1.39884,1.40276,1.40487,1.40602,1.40711,1.41175,1.41501,1.4235,1.42769,0.00353099,1.44244,1.45008,1.45366,1.46818,1.46786,1.46728,1.46918,0.00359251,1.48368,1.4927,1.49254,0.00328595,1.50698,0.00355959,0.00422507,0.00366801,0.00340896,1.56264,1.56119,1.5618,1.54856,1.56186,1.56285,1.56901,1.57674,0.0031515,1.58108,0.00329613,0.0033089,0.00347274,0.00365832,0.00332747,0.00366605,0.00357945,0.0035347,0.0034998,0.00394195,0.00344972,0.011275
0.145381,0.146185,0.155041,0.0034896,0.145166,0.155354,0.149244,0.15448,0.158255,0.155665,0.171429,0.169035,0.00361694,0.00381858,0.00403856,0.193008,0.191945,0.00362957,0.00361746,0.207601,0.217786,0.215905,0.214947,0.214083,0.230929,0.228634,0.22824,0.22777,0.245067,0.251249,0.250649,0.259629,0.264846,0.264898,0.264405,0.267239,0.276176,0.279205,0.288268,0.287943,0.266502,0.305964,0.308006,0.308982,0.3114,0.311703,0.321961,0.325191,0.314498,0.342044,0.339113,0.346415,0.35529,0.360756,0.361351,0.372836,0.372241,0.377384,0.38091,0.388981,0.389349,0.399612,0.403706,0.407677,0.406534,0.407521,0.408269,0.412551,0.41176,0.420839,0.419739,0.424469,0.428379,0.430607,0.430918,0.434599,0.426707,0.431711,0.438745,0.446619,0.446536,0.446369,0.445912,0.899426,0.442264,0.838355,1.29116,1.30507,1.30966,1.2855,0.410499,0.410283,0.409133,1.21232,1.26035,1.29802,1.22939,0.00361867,0.463146,0.00355047,0.557273,0.5634,0.572317,0.572738,0.570778,0.576222,0.575152,0.420877,0.441253,0.420677,0.420616,0.418523,0.427197,0.442215,0.433916,0.450265,0.463103,0.510029,0.606635,0.606601,0.958225,0.957805,0.900433,0.935403,0.927231,0.942435,0.938735,0.952529,1.0455,1.04566,1.02481,1.02658,1.04883,1.05266,1.05449,1.068,1.0685,1.0956,1.1076,1.10806,1.16015,1.18555,1.18516,1.15078,1.15196,1.18803,1.18387,1.2161,1.21753,1.2068,1.23464,1.23304,1.2575,1.24123,1.26888,1.27048,1.26107,1.2791,1.27994,1.27475,1.28163,1.29651,1.3024,1.29659,1.30709,1.30585,1.30682,1.29555,1.31014,1.3127,1.32722,1.36084,1.30906,1.30797,1.31926,1.35883,1.34988,1.34311,1.4015,1.25694,1.25176,1.24369,1.23301,1.20224,1.20917,1.2034,1.2038,1.15638,1.16067,1.16505,1.17137,1.14152,1.15371,1.2344,1.20434,1.16269,1.24122,1.13735,1.12162,1.12169,1.10219,1.13332,1.10622,1.09782,1.11924,1.13233,1.10998,1.06534,1.09754,1.05833,1.05936,1.02154,1.04545,1.04592,1.00983,1.00983,1.03696,1.06293,1.07827,1.12187,1.24307,1.21944,1.21138,1.33706,1.43572,1.18223,1.20656,1.22197,1.21975,1.25113,1.42208,0.00389614,1.26863,1.58953,1.28746,1.28876,1.29503,1.29924,1.30572,1.30941,1.3182,1.32385,1.33045,1.34489,1.34695,1.35483,1.36416,1.36486,1.36992,1.37509,1.38564,1.38965,1.3917,1.4043,1.4014,1.40201,1.40539,1.40978,1.41121,0.00339173,0.00379877,1.44287,1.44157,1.44731,1.79281,0.00383016,1.46398,1.46558,0.00378219,0.00367709,1.48898,1.48693,1.4892,0.00366032,0.00950604,0.00385895,1.53034,0.00361103,1.53361,1.54826,1.54562,1.54556,1.54423,0.0037163,0.00326546,0.00394997,0.00359766,0.00348944,0.00946565,0.00365361,0.00307096,0.00343359,0.00382951,0.00352104,0.0031829,0.00339465,1.65124,0.00356113,0.00376484,0.00318172
0.00375522,0.134956,0.134386,0.134298,0.00375444,0.14372,0.143076,0.14108,0.14768,0.00406272,0.00382945,0.00388018,0.00383668,0.697885,0.00367193,0.177028,0.175017,0.174425,0.00351318,0.20067,0.203903,0.203629,0.20093,0.201431,0.201334,0.217584,0.218415,0.228828,0.237341,0.239363,0.245695,0.248482,0.263408,0.251772,0.255655,0.273243,0.279888,0.277519,0.283738,0.283321,0.282666,0.300755,0.298193,0.305227,0.310284,0.325119,0.327468,0.326097,0.333566,0.334934,0.335982,0.342925,0.349509,0.349225,0.353668,0.367506,0.00340209,0.366643,0.382593,0.382572,0.379981,0.387443,0.397588,0.390606,0.00345624,0.412336,0.411641,0.411103,0.412711,0.412678,0.411372,0.415913,0.417727,0.423632,0.423684,0.428295,0.427501,0.42215,0.424477,0.432502,0.431429,0.573416,1.15889,0.673226,1.27347,1.20176,1.19002,1.19077,1.18719,0.407815,0.407578,1.23748,1.19825,1.19948,0.00358191,0.00342706,0.00367142,0.416014,0.544518,0.544575,0.54493,0.543186,0.406875,0.559446,0.563152,0.561725,0.562902,0.449949,0.43378,0.415387,0.406743,0.420852,0.444688,0.432629,0.435001,0.490569,0.473495,0.592196,0.593835,0.91424,0.917692,0.901098,0.910699,0.968102,0.987562,0.988152,0.998006,1.09889,1.07008,1.06784,1.07174,1.08381,1.08276,1.12314,1.10807,1.10878,1.12686,1.11909,1.13971,1.17074,1.15981,1.16282,1.16109,1.23922,1.26077,1.25992,1.28152,1.28916,1.29038,1.32361,1.28329,1.30882,1.33,1.32804,1.31246,1.32231,1.33002,1.29948,1.29962,1.3174,1.34417,1.33987,1.35315,1.35416,1.37537,1.38565,1.38537,1.34434,1.35655,1.35511,1.36873,1.37891,1.34975,1.38144,1.39387,1.31937,1.35757,1.30938,1.28087,1.28478,1.28771,1.27413,1.2613,1.24407,1.24355,1.20459,1.24074,1.23129,1.18399,1.202,1.19433,1.20987,1.19386,1.18613,1.19059,1.17607,1.19631,1.21547,1.14074,1.14039,1.12579,1.13779,1.12355,1.12305,1.11871,1.11767,1.11129,1.08214,1.05232,1.05548,1.0572,1.07323,1.03309,1.03372,1.04461,1.03098,1.04501,1.05491,1.05284,1.05627,1.07474,1.07452,1.20596,1.60572,1.60585,1.2051,1.2003,1.20855,1.20951,1.2302,1.49532,1.49562,1.27106,1.27294,1.28222,1.27858,1.28625,1.2921,1.29934,1.29852,1.30002,0.00412585,1.32278,1.33727,0.00345383,0.00355914,0.00414785,1.6849,0.00324989,0.00382354,0.00340072,1.38452,1.39156,1.39147,1.39346,1.39476,1.41191,1.41026,1.40888,1.4138,0.00354781,1.41477,1.41538,1.42725,1.4378,1.43614,1.43757,1.45402,0.0035384,0.00340597,0.00335214,0.00407311,0.0039445,0.00354879,0.00371721,0.0106704,0.00359802,0.0108621,0.00367747,0.0035367,0.00368508,0.00330774,0.00378836,0.00349362,1.52263,1.51958,1.51813,1.97974,0.00337994,0.00363033,0.00367383,1.66844,0.00332594,0.00306332,0.00356181,0.00354148,0.00387042,0.00353169,0.00301902,0.00382955
0.109787,0.10849,0.109953,0.13437,0.118914,0.121065,0.131586,0.13489,0.142936,0.142144,0.140618,0.0034387,0.161858,0.160651,0.159896,0.165374,0.164683,0.175299,0.185057,0.185943,0.195841,0.201455,0.201516,0.203553,0.210145,0.207485,0.210767,0.236936,0.237827,0.238694,0.236478,0.245908,0.25199,0.259182,0.253061,0.25905,0.258515,0.27208,0.273661,0.27289,0.278654,0.300367,0.301267,0.300186,0.311604,0.32171,0.323562,0.334326,0.334498,0.335738,0.341265,0.342147,0.346755,0.348369,0.347846,0.36372,0.359808,0.36393,0.363247,0.373043,0.381355,0.382162,0.38337,0.387085,0.382725,0.392746,0.390945,0.410647,0.411198,0.412615,0.410478,0.407554,0.411695,0.407559,0.415893,0.415512,0.415391,0.414689,0.413399,0.412393,0.41393,1.15722,1.15268,1.11607,1.09113,1.12604,1.18001,1.19174,1.1081,0.987738,1.19602,1.17066,1.18843,0.00370967,0.00357767,0.00354782,0.490206,0.421774,0.544574,0.544427,0.543914,0.407179,0.407018,0.561065,0.559216,0.560023,0.559943,0.559085,0.386577,0.388975,0.407597,0.422053,0.444668,0.446446,0.45645,0.493389,0.541949,0.921795,0.93616,0.949869,0.936312,0.921637,1.02599,1.01701,1.04626,1.01534,1.04033,1.06151,1.07168,1.07482,1.1545,1.09067,1.12966,1.13268,1.13466,1.19838,1.24425,1.22778,1.26211,1.22687,1.22728,1.24103,1.31205,1.31509,1.31626,1.33064,1.3308,1.33711,1.33928,1.354,1.3503,1.39844,1.39595,1.40553,1.40501,1.40611,1.40431,1.38332,1.47146,1.4716,1.48548,1.46298,1.44464,1.4088,1.4099,1.40902,1.44761,1.40613,1.40713,1.40666,1.39386,1.39317,1.40535,1.39972,1.36806,1.4024,1.38192,1.37414,1.48173,1.31924,1.29513,1.28532,1.27992,1.26146,1.26279,1.23605,1.24811,1.23869,1.24331,1.28583,1.2549,1.22574,1.301,1.30169,1.29029,1.2123,1.19476,1.18543,1.32323,1.25437,1.13234,1.13425,1.13249,1.09839,1.09071,1.08596,1.08293,1.17196,1.09146,1.07115,1.08229,1.05503,1.04381,1.06781,1.05451,1.05537,1.02323,1.02647,1.02602,1.02361,1.03657,1.07639,1.06446,1.0774,1.14797,1.19628,1.18862,0.00326555,1.19212,1.47456,1.64206,1.64181,1.63938,1.25901,1.28521,1.63387,0.00407378,0.00345469,1.28743,0.00359593,1.64925,0.00323558,1.28509,0.00346546,1.30964,0.00353001,0.00351743,0.00379138,0.00315507,0.00372453,0.00337279,0.00359624,0.00377809,0.00346946,0.00374459,1.5424,1.75511,1.75362,0.00361001,0.00348075,1.38793,1.38516,1.39293,0.00342368,1.40834,0.00358934,0.00404521,0.00355322,0.00463809,0.00339754,0.00340326,0.0036373,1.45756,0.00334226,1.47164,0.00373533,0.00368229,0.00326675,0.00349098,0.00336932,0.00354572,0.00368192,1.63752,0.00333141,1.50568,1.50918,1.50867,1.51043,1.98226,0.00337035,0.00384392,0.00354853,0.00397724,0.003377,0.00345247,0.00355106,0.00361496,1.60522,1.60256,0.00354706
0.108826,0.107346,0.106744,0.11965,0.119433,0.117387,0.116035,0.125732,0.131936,0.141425,0.14154,0.140877,0.139393,0.161332,0.15929,0.158521,0.164648,0.165458,0.185632,0.18226,0.183905,0.182947,0.184293,0.196955,0.195844,0.207572,0.210193,0.209224,0.230322,0.232548,0.234001,0.234548,0.240755,0.239799,0.253848,0.255112,0.255087,0.255551,0.265614,0.263451,0.27341,0.292825,0.29593,0.296896,0.295457,0.310684,0.307993,0.312939,0.327404,0.326166,0.325293,0.342642,0.342893,0.342316,0.341217,0.34005,0.363755,0.364762,0.364364,0.363741,0.362663,0.378946,0.383541,0.383272,0.382736,0.381649,0.383396,0.392437,0.396173,0.394817,0.400924,0.4015,0.406614,0.405276,0.405448,0.404108,0.411051,0.409454,0.405303,0.406694,0.39802,0.402018,0.401208,1.09179,1.09266,1.12613,1.15982,1.34986,0.622121,0.614974,0.611522,0.400602,0.399876,0.400758,0.0037233,0.548337,0.445551,0.567095,0.470917,0.519666,0.556019,0.546653,0.459864,0.460834,0.37121,0.371146,0.370151,0.36967,0.395408,0.404686,0.41435,0.412698,0.410894,0.505165,0.507052,0.581503,0.627197,0.951917,0.953105,1.01929,1.01944,1.0291,1.02295,1.04507,1.05722,1.07065,1.08041,1.10165,1.08812,1.18395,1.10162,1.1016,1.23367,1.23441,1.25467,1.31802,1.29408,1.32993,1.31,1.26577,1.30035,1.29989,1.35932,1.36767,1.37466,1.36862,1.37085,1.38251,1.38415,1.3755,1.4063,1.39929,1.40305,1.40603,1.40664,1.41052,1.48664,1.504,1.50442,1.46875,1.47097,1.44996,1.45818,1.45717,1.50672,1.47133,1.47179,1.46088,1.44497,1.43487,1.43678,1.42118,1.41549,1.39401,1.39538,1.37571,1.41171,1.41031,1.35931,1.33672,1.32761,1.29926,1.28523,1.28839,1.28588,1.27526,1.29814,1.30047,1.30836,1.26342,1.25718,1.29498,1.29611,1.29997,1.38697,1.20398,1.20881,1.18081,1.18072,1.18039,1.17103,1.3332,1.14419,1.1428,1.14322,1.10775,1.12891,1.1301,1.10209,1.08171,1.06961,1.08511,1.07133,1.04755,1.04234,1.04256,1.04096,1.01892,1.01841,1.02031,1.02331,1.02226,1.06233,1.07345,1.07538,1.11517,1.17769,1.17739,1.18476,1.18461,0.00337935,1.56333,1.21603,1.22192,1.22705,1.2317,1.60954,1.2457,1.23997,1.25009,1.26074,1.26074,1.26501,1.26465,1.27075,1.28566,0.00372931,1.30906,1.30629,1.31244,1.31396,1.55912,1.55826,1.34334,1.35168,1.36455,1.35749,1.358,0.0035168,0.00376095,1.37435,1.3751,1.37837,1.38101,1.38188,1.39141,0.00325042,1.41577,1.41615,1.42381,1.42307,1.41632,1.41947,1.42317,1.43281,1.43706,1.44729,1.45435,1.45867,1.46121,1.46945,1.46966,1.48184,1.48201,0.00366751,0.00354032,0.00384187,0.00352413,0.00380596,1.5297,0.00315132,0.00359557,0.00334491,0.00394654,0.00364546,0.00408854,0.00339461,0.00317786,0.00330649,0.00339064
0.0841718,0.083247,0.116112,0.115624,0.116895,0.116576,0.115639,0.116003,0.128182,0.138734,0.140483,0.14023,0.13919,0.154682,0.15763,0.159874,0.160721,0.160307,0.17117,0.179418,0.180223,0.178736,0.180806,0.180773,0.203231,0.199322,0.203503,0.207329,0.227979,0.225567,0.225621,0.233795,0.238314,0.23768,0.256366,0.255019,0.256253,0.254936,0.261348,0.259071,0.259856,0.260115,0.267286,0.287687,0.288546,0.303534,0.295912,0.302557,0.311441,0.319962,0.323676,0.33627,0.339613,0.339782,0.340517,0.342787,0.348614,0.362094,0.363692,0.362278,0.361557,0.919553,0.918961,0.379062,0.379487,0.380517,0.38297,0.38237,0.390775,0.391225,0.396532,0.395522,0.394236,0.396954,0.397101,0.396776,0.39402,0.398762,0.959587,0.390263,0.392928,0.391716,1.13661,1.09872,1.13966,1.1415,1.10884,1.07005,0.598459,0.603166,0.603431,0.344499,0.344487,0.343079,0.457801,0.445931,0.446807,0.446209,0.484421,0.323496,0.32347,0.325171,0.324892,0.324465,0.35827,0.403212,0.390794,0.40808,0.41105,0.388927,0.381438,0.450681,0.451658,0.459529,0.522515,0.578436,0.742091,1.01113,1.02054,1.07619,1.06761,1.06773,1.06881,1.07735,1.0776,1.08055,1.0988,1.25689,1.22314,1.222,1.24416,1.24477,1.24635,1.3428,1.30363,1.31857,1.32045,1.37139,1.33717,1.33657,1.46161,1.46092,1.46076,1.42795,1.41945,1.41989,1.38592,1.4133,1.39276,1.43043,1.43211,1.47938,1.47998,1.46627,1.49721,1.49459,1.51252,1.5093,1.49143,1.49881,1.49555,1.49339,1.49479,1.48297,1.48623,1.48174,1.46515,1.46698,1.46976,1.45237,1.4268,1.43914,1.42307,1.40942,1.40259,1.38742,1.3668,1.36592,1.36513,1.3613,1.36072,1.34071,1.33998,1.35037,1.37566,1.38098,1.33366,1.3712,1.34076,1.34103,1.31689,1.27127,1.25684,1.25729,1.23787,1.23693,1.26622,1.2672,1.19569,1.20011,1.19188,1.17473,1.29479,1.21805,1.169,1.13762,1.1094,1.13584,1.13749,1.15636,1.11313,1.10129,1.11931,1.05296,1.06524,1.04642,1.05252,1.01917,1.02535,1.01703,1.01818,1.03671,1.0381,1.00881,1.0576,1.06071,1.15612,1.10533,1.17357,1.17414,1.56784,1.56971,1.5923,1.20946,1.21105,1.43292,1.2222,1.22228,1.22611,1.46336,1.23743,0.00367159,1.25543,1.26108,1.2708,1.26823,1.26872,0.00388934,0.00380497,0.00342514,1.46224,0.00342662,1.32908,1.33339,1.33742,1.34047,1.34112,1.3459,1.34544,1.34978,1.35271,1.62792,1.50334,1.37251,1.37556,1.37847,1.38387,1.39563,1.39843,1.39953,1.40058,1.40665,1.40648,1.41511,1.41964,1.42107,1.42914,1.43698,1.43948,1.44813,1.45165,1.45494,1.46072,1.46231,1.47158,1.47112,0.00380858,1.49042,0.00364438,1.51339,1.51222,1.51241,1.52529,1.52871,1.52974,1.72838,0.003183,0.00358803,0.00369563,0.00316901
0.0857995,0.0856876,0.0902995,0.0895796,0.0963098,0.113423,0.104222,0.104762,0.1076,0.120674,0.119719,0.138435,0.138406,0.137561,0.137206,0.16361,0.162072,0.160373,0.159993,0.175612,0.177691,0.182687,0.182492,0.181872,0.180809,0.195606,0.193935,0.203807,0.203819,0.221572,0.221707,0.219855,0.229645,0.23885,0.240619,0.254539,0.251582,0.254537,0.253542,0.253191,0.255427,0.259035,0.258811,0.285922,0.284616,0.300473,0.304369,0.302418,0.303266,0.302768,0.322724,0.323858,0.321612,0.33957,0.337015,0.351413,0.351757,0.354569,0.352419,0.351894,0.362251,0.363067,0.365789,0.36651,0.369791,0.371944,0.38681,0.38696,0.381191,0.385848,0.382377,0.383852,0.390131,0.392493,0.393154,0.392022,0.384756,0.389303,0.389551,0.388352,1.15415,0.376114,0.374034,0.374233,0.37317,1.1226,0.61796,0.748564,0.597472,0.622408,0.613492,0.343181,0.343585,0.606723,0.594953,0.602859,0.486656,0.486743,0.32567,0.326014,0.325818,0.325148,0.338882,0.337992,0.360057,0.358721,0.358569,0.358784,0.390876,0.380446,0.378423,0.378958,0.454001,0.521865,0.522037,0.994929,0.990596,1.02564,1.09968,1.10308,1.16385,1.0913,1.09519,1.24736,1.19933,1.21172,1.20472,1.1779,1.25927,1.26807,1.24504,1.26799,1.31359,1.31266,1.34672,1.3399,1.34825,1.34976,1.46978,1.44075,1.45342,1.44326,1.44088,1.43114,1.42762,1.44665,1.44102,1.44129,1.43235,1.49691,1.49839,1.52109,1.54946,1.53733,1.53686,1.57538,1.55197,1.56687,1.56545,1.54386,1.53502,1.53915,1.53101,1.50948,1.50913,1.51757,1.55034,1.54581,1.53281,1.59333,1.54243,1.55354,1.54719,1.41597,1.41403,1.4076,1.40805,1.40198,1.43556,1.4256,1.37933,1.38152,1.39135,1.37006,1.38574,1.39173,1.3347,1.4935,1.42618,1.4231,1.31072,1.31595,1.30926,1.51356,1.3781,1.26647,1.26556,1.26874,1.23208,1.27931,1.27794,1.49016,1.17723,1.17826,1.23053,1.22827,1.12253,1.1226,1.13904,1.11106,1.09673,1.09587,1.11906,1.08257,1.07784,1.07055,1.07403,1.06266,1.04084,1.06558,1.02439,1.07307,1.0225,1.00436,1.00401,1.02162,1.02121,1.04328,1.08739,1.16749,1.16394,1.60045,0.00329209,1.40527,1.20158,1.19998,1.20841,1.20848,1.21027,1.55106,1.22759,1.53056,0.00358837,1.25116,1.25819,1.25819,1.26387,1.26717,1.27419,1.27554,1.28073,1.28621,1.30937,1.31022,0.00361518,1.32304,1.32588,1.33159,1.33643,1.34151,1.35003,1.34824,1.35446,1.35759,1.36028,1.36123,1.37208,1.37548,1.38588,1.38926,1.38973,1.39504,1.39695,1.40219,1.40776,1.41625,1.42,1.42562,0.00348286,1.57851,0.00336232,1.4446,1.45014,1.45529,1.45862,1.46639,1.47382,1.4746,1.48319,1.48752,1.4937,1.49421,0.00332453,1.51335,1.5205,1.52747,1.53749,0.00414078,0.00350733,1.56405
0.0903323,0.083349,0.0895829,0.0860571,0.0862734,0.104772,0.104072,0.104199,0.104762,0.117882,0.119244,0.119589,0.123725,0.124878,0.131203,0.148588,0.158742,0.161298,0.16143,0.162055,0.160656,0.160284,0.179068,0.197705,0.198016,0.198201,0.197507,0.196555,0.204955,0.214159,0.214426,0.227036,0.225206,0.231686,0.241477,0.240446,0.246416,0.251646,0.249491,0.249423,0.255347,0.253011,0.260562,0.283646,0.283327,0.294272,0.290495,0.290843,0.300002,0.299892,0.324441,0.32547,0.326926,0.327031,0.341595,0.34014,0.360228,0.36131,0.360582,0.361032,0.362694,0.360354,0.36229,0.367088,0.373558,0.372675,0.37813,0.376991,0.384292,0.384059,0.384241,0.38581,0.383651,0.383388,0.381871,0.385403,0.384653,0.383183,0.380426,1.10626,0.375193,0.375442,0.374166,0.350007,0.348758,0.347881,1.13821,0.604532,1.24462,0.621214,0.599327,0.624361,0.599889,0.624256,0.624278,0.623682,0.619049,0.00343512,0.32535,0.324848,0.323658,0.395201,0.390904,0.39124,0.361473,0.376355,0.361592,0.356981,0.389817,0.386734,0.441259,0.622329,0.546771,0.534744,1.00639,1.00675,1.05434,1.0819,1.11965,1.14382,1.19812,1.11536,1.1093,1.18561,1.19446,1.19453,1.24576,1.23922,1.25767,1.27483,1.31638,1.34704,1.34733,1.35553,1.37942,1.37791,1.42561,1.44749,1.45885,1.4674,1.47433,1.4646,1.46965,1.47181,1.47963,1.50381,1.503,1.50124,1.50978,1.55107,1.55264,1.55821,1.56893,1.5792,1.56858,1.56795,1.56528,1.55502,1.57043,1.55751,1.56779,1.56594,1.56486,1.58853,1.58885,1.57338,1.54761,1.55382,1.54255,1.53605,1.54727,1.52515,1.54453,1.52242,1.52226,1.43781,1.46424,1.42627,1.42196,1.41128,1.43543,1.40138,1.40201,1.40863,1.39203,1.40388,1.40949,1.39,1.4118,1.37202,1.35235,1.3436,1.327,0.00341903,1.37961,1.44645,1.36633,1.37759,1.28336,1.25292,1.22379,1.22453,1.21238,1.21721,1.18748,1.18641,1.18646,0.00368176,1.1328,1.13027,1.1309,1.11994,1.09566,1.10605,1.17492,1.45042,0.00352762,1.59822,1.0729,1.06799,1.06155,1.05832,1.08805,1.02501,1.02063,1.03593,1.00981,1.0197,1.04944,1.06664,1.1374,0.00345745,1.15611,0.00336087,1.18706,1.18787,1.20568,1.1959,1.19664,1.21268,1.21419,1.22715,1.23358,1.23744,1.24192,1.24479,1.24798,1.25297,1.26259,1.26847,1.26932,1.28463,1.28575,1.30152,1.30629,1.30879,1.31461,1.31731,1.32487,1.32786,1.33632,1.58807,1.35077,1.34942,1.35047,1.35596,1.36216,1.36927,1.37596,1.38417,1.38389,1.38543,1.39161,0.00334572,1.40173,1.40599,1.40942,1.41631,1.4214,1.42575,1.43411,1.43699,1.43764,1.45155,1.45168,1.45394,0.00338145,1.46962,1.4757,0.00346443,1.48975,1.4929,1.49681,1.5034,1.51184,0.00367525,1.53391,0.00320106,1.5441,1.54689
0.072271,0.0830778,0.0845993,0.0807643,0.0809081,0.0816947,0.0806372,0.102827,0.105853,0.116476,0.122871,0.122771,0.120582,0.121425,0.00332869,0.13779,0.138615,0.160822,0.161367,0.160128,0.161959,0.176185,0.175962,0.174415,0.195545,0.19452,0.193454,0.20334,0.204467,0.212182,0.214175,0.213947,0.230472,0.228329,0.233423,0.237026,0.248173,0.246611,0.250518,0.251592,0.25163,0.255133,0.27502,0.283909,0.286299,0.290555,0.287863,0.298653,0.306897,0.307772,0.322101,0.324295,0.325866,0.327815,0.337605,0.336284,0.359137,0.358528,0.358666,0.356545,0.362092,0.35681,0.365187,0.36686,0.367035,0.367008,0.374435,0.379969,0.384453,0.380311,0.383421,0.380381,0.37907,0.379575,0.380626,0.366633,0.365799,0.373735,0.371877,1.19892,0.603046,0.346088,0.347804,0.347583,0.346593,0.345543,1.19905,0.61803,0.59755,0.596823,0.596317,0.625801,0.597676,0.622771,0.614359,0.62862,0.624658,0.905783,0.402,0.321349,0.390983,0.393237,0.395247,0.376142,0.363833,0.36139,0.362235,0.36079,0.393144,0.383523,0.422198,0.620045,0.544051,0.987704,1.136,1.07426,1.0757,1.09505,1.11023,1.12354,1.15647,1.17185,1.199,1.24451,1.29304,1.32274,1.32104,1.34727,1.3346,1.34747,1.36377,1.3797,1.3811,1.36381,1.41982,1.43434,1.4457,1.45237,1.46088,1.48537,1.48529,1.49754,1.51484,1.51883,1.51257,1.52852,1.58603,1.53713,1.59145,1.58432,1.58984,1.57783,1.58293,1.58417,1.63769,1.61919,1.59021,1.5905,1.6042,1.57285,1.57933,1.5711,1.59625,1.54811,1.56212,1.56475,1.55478,1.55685,1.53309,1.50006,1.49838,1.49211,1.48663,1.47234,1.47214,1.44827,1.43762,1.43173,1.42863,1.42592,1.4044,1.40369,1.39986,1.39903,1.39173,1.42268,1.40727,1.3922,1.3813,1.37946,1.39158,1.3485,1.34717,1.35038,1.4087,1.28849,1.43922,1.29135,1.29534,1.34622,1.36135,1.35834,1.35915,1.25009,1.22383,1.21702,1.21824,1.15901,1.15508,1.15438,1.16437,1.12642,1.12694,1.13113,1.15506,1.17163,1.17023,1.1698,1.18762,1.04946,1.05629,1.05451,1.04012,1.03378,1.017,0.999842,1.00144,1.02048,1.02679,1.03288,1.07296,1.09745,0.00330493,1.1439,0.00345535,0.00320913,1.3646,1.18138,1.54428,1.55632,1.55582,1.2113,1.2172,1.22917,1.22927,1.23941,1.24336,1.24766,1.25616,1.25682,1.26865,1.27509,1.29139,1.28981,1.29654,1.29877,1.3083,1.30915,1.31454,1.31805,1.31851,1.48091,0.0035352,1.34345,1.34477,1.35112,1.35355,1.36592,1.37018,1.36962,1.37436,1.38291,1.38378,1.39187,1.3963,1.40285,1.40223,1.40639,1.41377,1.42592,1.4262,1.42932,1.43211,1.44097,1.44454,1.45249,1.45791,1.46217,0.00333441,0.00356956,1.47889,0.0031917,1.49332,1.49829,1.5032,1.50669,0.00328768,0.00317434,1.5393,1.53782
0.0670334,0.0808508,0.0796055,0.0803859,0.0807673,0.0802621,0.0858237,0.0846167,0.0917015,0.0909552,0.107513,0.113137,0.108003,0.118305,0.120269,0.120287,0.138528,0.157363,0.158122,0.165708,0.165986,0.166099,0.176295,0.17394,0.178667,0.177868,0.176814,0.175629,0.191569,0.198119,0.203673,0.201803,0.230798,0.220494,0.217267,0.231058,0.243626,0.242737,0.248449,0.249026,0.261472,0.26094,0.275886,0.26212,0.276,0.286733,0.287687,0.300653,0.299797,0.300174,0.310507,0.320188,0.326886,0.327776,0.329234,0.328976,0.33915,0.356135,0.35494,0.35453,0.36261,0.362136,0.364963,0.364045,0.363608,0.361775,0.360828,0.380166,0.380336,0.380119,0.378244,0.376435,0.363252,0.36309,0.362229,0.365887,0.364977,0.365317,1.39458,1.2085,1.2193,1.22934,1.19782,1.41104,0.605182,1.18281,0.00373683,0.615333,0.618446,0.625828,0.601252,0.599575,0.601369,0.613868,0.526362,0.521972,0.528143,0.435419,0.435471,0.401718,0.289692,0.297543,0.296537,0.313664,0.313195,0.359889,0.374056,0.404844,0.428794,0.435741,0.587499,0.949709,1.06663,1.06374,1.0715,1.09506,1.11355,1.13623,1.25233,1.25026,1.24582,1.27278,1.28732,1.3314,1.33018,1.38502,1.36155,1.36117,1.40763,1.37235,1.38552,1.38293,1.40236,1.41739,1.43997,1.44189,1.44633,1.50364,1.48982,1.52823,1.53002,1.54199,1.55637,1.54614,1.66812,0.0034318,1.63985,1.62014,1.61011,1.73039,1.7306,1.63751,1.63506,1.67164,1.67162,1.64177,1.63802,1.64725,1.68957,1.60406,1.58889,1.57083,1.57681,1.5646,1.54984,1.55202,1.54528,1.52824,1.5498,1.55238,1.50464,1.50003,1.49737,1.49607,1.4954,1.4955,1.4504,1.47939,1.44994,1.4416,1.44096,1.41711,1.41648,1.40874,1.41512,1.41465,1.40888,1.40984,1.54227,1.39687,1.39676,1.38096,1.3841,1.35051,1.39174,1.33238,1.31264,1.32823,1.36384,1.34315,1.34321,1.34842,1.25678,1.34647,1.27404,1.33046,1.21013,1.16681,1.17999,1.17714,1.21286,1.14877,1.14142,1.15085,1.17847,1.13511,1.13477,1.12585,1.12653,1.12729,1.07726,1.04975,1.04192,1.03944,1.02549,0.99636,1.01303,1.00839,1.03673,1.03634,1.04238,1.0428,1.10811,1.08838,1.12634,1.26706,1.33693,0.00346533,1.18784,1.18266,1.19511,0.00339286,1.21106,1.21891,1.22404,1.22574,1.23584,1.24459,1.24828,1.25711,0.00351219,0.00347715,1.27718,0.00357613,1.29154,1.29526,1.30206,1.30831,1.31193,1.31819,1.31856,1.32914,1.33221,1.33921,1.34063,1.34559,1.35051,1.35741,1.36814,1.36749,1.36967,1.3739,1.53999,0.0034386,1.39105,1.39315,1.39732,1.40515,1.41268,1.41625,0.00389214,1.42752,1.43383,1.44328,1.44383,1.45044,1.45829,1.46024,1.46611,1.47172,1.47991,1.48511,1.49445,1.49289,1.4998,0.00308739,1.51121,0.00336861,0.00366995,0.00359546
0.0786011,0.0801707,0.0796063,0.0805469,0.0803421,0.0884392,0.0858538,0.0926189,0.0890784,0.086665,0.111475,0.110443,0.113504,0.111678,0.122895,0.117536,0.116616,0.115534,0.1387,0.138577,0.163146,0.168864,0.166055,0.169202,0.179262,0.175171,0.174022,0.174933,0.186983,0.00329571,0.206047,0.204127,0.204658,0.203499,0.21036,0.217293,0.239151,0.239115,0.238399,0.239401,0.238984,0.26544,0.265484,0.266736,0.265462,0.290226,0.28688,0.282627,0.28657,0.308762,0.320248,0.317762,0.324971,0.316655,0.324815,0.327243,0.327367,0.32849,0.351894,0.351648,0.352309,0.350107,0.355347,0.354808,0.355447,0.356853,0.359426,0.360199,0.355378,0.3702,0.36235,0.363262,0.362498,0.362963,0.361806,0.359077,0.355027,0.355054,1.36132,1.20906,1.20982,1.20732,1.2081,1.11604,0.00306464,1.28566,0.543582,0.543795,0.542408,0.559702,0.499637,0.504479,0.514292,0.514832,0.512155,0.653913,0.65961,0.281113,0.281986,0.280649,0.326808,0.291437,0.370099,0.333903,0.349593,0.355353,0.397821,0.397401,0.618173,0.768027,0.768351,1.07675,1.1015,1.11523,1.24706,1.33477,1.23719,1.26855,1.26684,1.32056,1.29663,1.36683,1.36755,1.38845,1.3718,1.38089,1.37505,1.3889,1.40028,1.59012,1.49054,1.4554,1.46108,1.44845,1.55073,1.57704,1.57338,1.56772,1.58677,1.5457,1.57639,1.57578,1.59315,1.64172,1.62539,1.62373,1.63668,1.65327,1.66365,1.6614,1.6615,1.66883,1.66838,1.67051,1.66468,1.65267,1.64336,1.64505,1.62327,1.61764,1.61881,1.61278,1.59167,1.59581,1.56855,1.56858,1.56113,1.54091,1.54323,1.52706,1.52631,1.51978,1.5566,1.55587,1.50311,1.52279,1.52156,1.4769,1.49095,1.48118,1.46731,1.47208,1.45517,1.44288,1.43253,1.42416,1.42056,1.40952,1.41047,1.39334,1.39526,1.36921,1.36704,1.39732,1.3983,1.38122,1.38228,1.37737,1.3783,1.27394,1.26737,1.26129,1.24503,1.2453,1.23632,1.22391,1.20875,1.21652,1.21957,1.16593,1.20913,1.16065,1.1953,1.13069,1.12974,1.1304,1.10965,1.09779,1.10927,1.08431,1.08854,1.07507,1.02581,1.02266,1.00374,0.9997,1.01516,1.00263,1.0024,1.02638,1.02613,1.05666,1.04789,1.06289,1.08064,1.35564,1.15017,1.15186,1.3685,1.17466,1.18878,1.19339,1.19659,1.21606,1.21948,1.2241,1.22447,1.23908,1.25068,1.25129,1.26277,1.26667,1.27208,1.27485,0.00334708,1.29431,1.30193,1.30496,1.3113,1.31166,1.31894,1.32619,1.32801,1.33754,1.33876,1.3441,1.35423,1.3504,1.35882,1.3591,1.36456,1.36917,1.3711,1.37834,1.38626,1.39091,1.3986,1.40079,1.40615,1.41084,0.00365574,1.42597,1.43195,1.43816,1.44469,1.44504,1.45379,1.46107,0.00357021,1.47558,1.47652,1.47984,1.48547,1.49815,1.49882,0.00392283,0.00340385,1.51713,1.52864,1.53554
0.0556398,0.00323373,0.0515197,0.0787176,0.0736076,0.0867392,0.0861307,0.0762766,0.0738206,0.0936032,0.0937781,0.00314058,0.10288,0.114481,0.118257,0.118792,0.117942,0.140957,0.141934,0.141792,0.139191,0.00379928,0.167299,0.167894,0.173772,0.178327,0.175723,0.173235,0.180644,0.189494,0.188097,0.200434,0.206734,0.200915,0.198587,0.202407,0.224766,0.00333122,0.230507,0.235648,0.234307,0.00322476,0.252329,0.257639,0.258568,0.277328,0.280091,0.277071,0.28219,0.281531,0.312356,0.311877,0.312116,0.315208,0.320999,0.321448,0.32751,0.327521,0.338973,0.342275,0.353016,0.354641,0.35471,0.353636,0.354601,0.355425,0.350611,0.353528,0.355982,0.354909,0.354763,0.358826,0.353823,0.354681,0.345919,0.345161,0.348254,0.345109,0.343665,0.912252,0.908349,0.614155,1.2062,1.20955,0.00358425,0.618484,0.542572,0.561602,0.508434,0.501434,0.503464,0.503406,0.513666,0.514859,0.642919,0.662214,0.611142,0.345455,0.292075,0.301227,0.322174,0.348709,0.349946,0.35205,0.366353,0.380562,0.404612,0.424723,0.450979,0.926961,1.1172,1.22954,1.16717,1.23904,1.25812,1.27528,1.27597,1.28789,1.34609,1.34341,1.32667,1.34782,1.38748,1.38232,1.44736,1.448,1.48391,1.44686,1.46099,1.46416,1.45902,1.51855,1.51919,1.56666,1.65399,1.64043,1.59667,1.59484,1.59374,1.65859,1.66216,1.61889,1.62046,1.68196,1.68004,1.67886,1.67872,1.71349,1.73813,1.74038,1.72111,1.72053,1.72624,1.69026,1.67767,1.74179,1.70131,1.69934,1.63534,1.6383,1.64704,1.6457,1.64092,1.59893,1.59844,1.57132,1.57095,1.56702,1.57501,1.57582,1.55819,1.58456,1.54129,1.57429,1.53643,1.54314,1.5409,1.5313,1.5211,1.54682,1.54522,1.54442,1.54518,1.47203,1.46807,1.45423,1.46477,1.43254,1.42285,1.43387,1.4069,1.40291,1.39232,1.39093,1.38204,1.3806,1.37134,1.4475,1.4447,1.44138,1.28098,1.262,1.2906,1.29126,1.32966,1.21073,1.20223,1.1882,1.18052,1.17218,1.17104,1.14427,1.15627,1.15497,1.1294,1.15711,1.10486,1.19134,1.09127,1.07233,1.08964,1.1394,1.07772,1.05161,1.00246,1.00514,1.06393,1.0843,1.01482,0.991765,0.99215,1.0443,1.04641,1.07023,1.07199,1.10177,1.14414,1.14493,0.00376189,1.16748,1.38599,0.00353036,1.19696,1.19665,1.20841,0.00343174,1.22662,1.23016,0.0033556,0.00355812,1.25922,1.26023,1.2648,0.00343168,1.4577,1.28538,1.29412,1.30275,1.30486,1.3059,1.3121,1.31955,1.32046,1.32895,1.33109,1.33663,1.34259,1.34401,1.34895,1.35449,1.35559,1.36485,1.3657,1.37431,1.37815,1.38096,1.38148,0.0034569,1.40886,1.40784,1.41067,1.41864,1.42534,1.42903,1.42902,0.00343362,0.00365913,1.45404,1.4537,1.46593,1.47509,1.47709,1.48633,1.487,1.495,1.50713,1.50557,0.00336227,0.00323994,1.52875
0.0419243,0.0509351,0.052675,0.051105,0.0503131,0.0582055,0.0034406,0.0035132,0.00338683,0.0785293,0.0873687,0.0868258,0.115971,0.116098,0.109113,0.104452,0.00327612,0.120023,0.125599,0.00384831,0.00384259,0.00352518,0.149573,0.148329,0.157818,0.157995,0.156965,0.166719,0.187199,0.176117,0.178329,0.177741,0.199524,0.19827,0.196285,0.00328647,0.00340306,0.2255,0.234775,0.234892,0.235571,0.247945,0.25156,0.252889,0.252672,0.255149,0.273978,0.273626,0.280486,0.280498,0.310454,0.308233,0.316446,0.317853,0.31555,0.318561,0.319117,0.32638,0.00354076,0.325413,0.348711,0.342561,0.348674,0.348825,0.349264,0.348559,0.350456,0.349842,0.351598,0.341761,0.34173,0.347619,0.344817,0.344256,0.344271,0.34186,0.340276,0.338843,0.340812,0.337539,0.332775,0.331441,0.330995,0.333771,0.334641,0.331805,0.330871,0.32957,0.329142,0.328817,0.329115,0.327581,0.326719,0.52779,0.884312,0.346919,0.346174,0.327781,0.323881,0.287427,0.333541,0.307728,0.357065,0.357113,0.358393,0.432301,0.431319,0.961051,0.960987,1.01142,1.19982,1.21627,1.24321,1.29606,1.32182,1.32303,1.34011,1.3648,1.36443,1.38559,1.39528,1.39527,1.39438,1.45668,1.44922,1.44583,1.44018,1.47395,1.46128,1.4617,1.5269,1.57411,1.57403,1.59159,1.58259,1.62285,1.62599,1.70089,1.66822,1.66504,1.66161,1.67978,1.68017,1.70325,1.70366,1.71599,1.73197,1.71924,1.7543,1.73409,1.72635,1.72453,1.7505,1.76134,1.73694,1.73771,1.7106,1.70913,1.73258,1.68393,1.6724,1.71312,1.68964,1.6369,1.61753,1.65835,1.63387,1.59906,1.5884,1.57983,1.57825,1.60586,1.5971,1.59602,1.57368,1.58357,1.55427,1.55091,1.56531,1.56524,1.53377,1.53172,1.52865,1.52333,1.51299,1.55103,1.4767,1.47583,1.45622,1.45444,1.44474,1.43357,1.49531,1.50292,1.39576,1.39461,1.3958,1.45065,1.39858,1.39607,1.30887,1.2737,1.2463,1.24035,1.22911,1.22318,1.2132,1.20567,1.19201,1.18208,1.18039,1.15712,1.15006,1.12749,1.12746,1.1323,1.13783,1.12985,1.08406,1.08147,1.13931,1.13906,1.13951,1.02895,1.03438,1.02605,1.01182,1.01525,1.0021,1.01717,0.991127,0.997044,1.01887,1.04389,1.04256,1.09043,1.09197,0.00342917,0.00365655,1.16645,1.29872,1.17837,1.17965,1.45464,1.7932,1.20957,1.21651,0.0036841,1.2322,1.23944,1.24472,1.25403,1.25819,1.26136,0.00342681,1.27601,1.28386,1.28909,1.29344,1.29991,1.30208,1.3075,1.31392,1.32129,1.3249,1.3259,1.34003,1.33939,1.34017,1.35015,1.35511,1.36023,1.36482,1.36572,1.37183,1.37492,1.38395,1.38282,1.39512,1.40248,1.40949,1.40956,1.42334,1.42918,1.42744,1.43426,1.43988,1.45448,1.45044,1.45108,0.00355765,1.46886,1.47837,1.47787,0.00371844,1.49396,1.49945,0.00402807,0.00337449,1.51731
0.0411002,0.0415442,0.0400424,0.0415335,0.0403516,0.046316,0.045693,0.00343176,0.00301587,0.0693603,0.0766163,0.00329013,0.0805256,0.00329637,0.106132,0.109637,0.108171,0.00321876,0.00371371,0.00358875,0.00329967,0.130404,0.147653,0.147297,0.151585,0.157683,0.154507,0.151599,0.163038,0.178631,0.178566,0.177401,0.176666,0.00327159,0.00353119,0.00359384,0.00329804,0.21349,0.214043,0.215832,0.217777,0.238734,0.24864,0.248034,0.25932,0.261387,0.262219,0.256976,0.274352,0.00361622,0.00359836,0.00325092,0.00331515,0.312436,0.314787,0.311515,0.320312,0.316754,0.322581,0.32365,0.342888,0.342769,0.342593,0.341769,0.347384,0.346637,0.346538,0.346048,0.344237,0.342965,0.340338,0.340913,0.341207,0.340921,0.339989,0.339525,0.334332,0.3349,0.332978,0.333726,0.333581,0.331432,0.330263,0.33198,0.332704,0.33169,0.33085,0.32932,0.32893,0.328574,0.327873,0.568901,0.523048,0.522346,0.580225,0.579962,0.579149,0.321392,0.373504,0.329728,0.331018,0.329105,0.371848,0.394218,0.638804,0.542653,0.794583,0.995177,1.02403,1.22293,1.22314,1.32158,1.33392,1.33399,1.33456,1.3353,1.39879,1.39485,1.39825,1.45624,1.41287,1.43874,1.45093,1.45868,1.45966,1.47691,1.48095,1.49611,1.51261,1.58472,1.58235,1.5857,1.5712,1.57159,1.59947,1.5999,1.69304,1.69308,1.69072,1.73059,1.71238,1.71478,1.75176,1.74407,1.74316,1.73988,1.76278,1.78706,1.79238,1.82752,1.82719,1.80635,1.79148,1.79228,1.79007,1.7788,1.72705,1.72762,1.69555,1.69796,1.71799,1.73862,1.72171,1.71663,1.67916,1.69603,1.7051,1.65936,1.66502,1.62272,1.60447,1.6034,1.5982,1.61341,1.58548,1.58582,1.57968,1.5884,1.61233,1.55798,1.57339,1.55828,1.5292,1.52662,1.52736,1.51986,1.52805,1.52351,1.50254,1.48454,1.48168,1.46298,1.49265,1.50582,1.46451,1.41482,1.37805,1.38111,1.37757,1.39332,1.32731,1.32279,1.29664,1.30162,1.29922,1.23907,1.22849,1.25315,1.24348,1.24275,1.17157,1.17263,1.14893,1.13621,1.14357,1.11607,1.10447,1.10033,1.0919,1.08439,1.09142,1.12324,1.05834,1.03668,1.04385,1.05936,1.03884,1.0642,1.06623,1.00081,0.994181,0.997082,1.01539,1.03311,1.06242,1.07208,1.07415,1.12646,0.00331856,1.4923,1.15666,1.17206,1.31983,1.3054,1.51343,0.00350444,0.00318501,1.31919,1.22562,1.23428,1.24243,1.24344,1.25213,0.00374053,1.27085,0.00327854,1.28337,1.28456,1.28967,1.29612,1.30139,1.30295,1.31019,1.31388,1.32545,1.32366,1.32904,1.33507,1.34026,1.34963,1.35738,1.36061,1.36511,1.36794,1.36773,1.37534,1.37823,1.38362,1.38871,1.39819,1.40533,1.40813,1.41455,1.41775,1.42619,0.00319361,0.00365681,0.00333832,1.44744,1.45066,1.45538,1.46428,1.47038,1.47645,1.47826,0.00354299,1.49389,1.49415,0.00387324,1.50919
0.0406457,0.0359647,0.0424092,0.0415529,0.0419812,0.0406602,0.0496027,0.0488632,0.0639908,0.0613391,0.00365941,0.0824607,0.0852479,0.0875806,0.00342392,0.00345695,0.102733,0.108908,0.00341725,0.129659,0.129388,0.129427,0.13101,0.13461,0.00366508,0.150928,0.145183,0.155633,0.162309,0.175947,0.175181,0.172402,0.179025,0.00357634,0.00350282,0.00361604,0.00342413,0.213643,0.213903,0.214732,0.218582,0.220706,0.00326172,0.245986,0.252337,0.249962,0.258232,0.25953,0.25923,0.72186,0.00328328,0.00345419,0.00362472,0.303214,0.312958,0.313388,0.302301,0.321475,0.314994,0.331587,0.33172,0.331556,0.337266,0.34826,0.348186,0.347198,0.346262,0.341568,0.341284,0.337295,0.333258,0.332969,0.33302,0.332811,0.331965,0.332275,0.333351,0.333722,0.332899,0.33243,0.329781,0.329637,0.327835,0.328684,0.335159,0.334835,0.631449,0.628701,0.328393,0.515532,0.567539,0.515069,0.570875,0.519232,0.518079,0.513249,0.580299,0.402683,0.32902,0.327633,0.481023,0.503678,0.467033,0.46597,0.739326,0.750651,0.809074,1.12991,1.23092,1.2371,1.33339,1.35386,1.35636,1.35039,1.34789,1.4157,1.45723,1.49162,1.4266,1.4269,1.43462,1.48056,1.4818,1.52587,1.53819,1.5193,1.51666,1.57372,1.57424,1.62328,1.57458,1.61694,1.59281,1.61392,1.70007,1.70417,1.70348,1.762,1.76395,1.74052,1.74673,1.75387,1.75093,1.75899,1.80778,1.80154,1.78569,1.82012,1.84752,1.86943,1.82949,1.77873,1.79865,1.79094,1.79517,1.78554,1.74817,1.7999,1.79999,1.77776,1.77164,1.75116,1.74817,1.7366,1.75111,1.72093,1.75795,1.80418,1.66247,1.69285,1.62777,1.61726,1.62438,1.60266,1.61064,1.60447,1.59849,1.62095,1.59852,1.58121,1.56816,1.56473,1.59588,1.55741,1.53913,1.53906,1.53934,1.50829,1.50666,1.62293,1.62298,1.48313,1.45423,1.45359,1.50941,1.39445,1.40125,1.38218,1.43046,1.42924,1.34363,1.34823,1.40102,1.40143,1.27503,1.26438,1.29648,1.23326,1.21766,1.24602,1.19819,1.17475,1.1669,1.1437,1.14307,1.1703,1.1267,1.1048,1.11333,1.09039,1.08006,1.08547,1.0881,1.06203,1.04854,1.06312,1.04733,1.07041,1.01838,1.04961,1.04245,1.00908,1.03653,1.02631,1.05734,1.05152,1.1387,1.13854,0.00352638,1.34129,1.15464,1.37412,1.16421,1.69589,1.1888,1.20247,1.20859,1.20942,1.22297,1.22891,1.23568,1.24312,1.24621,1.26003,1.26361,1.27087,1.27546,1.28218,1.29024,1.29525,1.29678,1.30519,1.30745,1.31288,1.32001,1.31993,1.32706,1.33295,1.3407,1.34386,1.35155,1.35514,1.357,1.36089,1.36648,1.37597,1.378,1.38602,1.39051,1.39856,1.40069,1.40838,1.41683,1.41571,1.42386,1.42801,1.43505,1.43946,1.44802,1.45121,1.45765,1.46545,1.46577,1.47305,1.48198,1.48896,1.49582,1.49682,1.50128,1.50995
0.0376169,0.0370213,0.0437496,0.0434745,0.0414806,0.0479933,0.0764703,0.0755303,0.0752151,0.0614948,0.0754614,0.0904444,0.0921867,0.0887392,0.0985002,0.102402,0.102959,0.114615,0.11467,0.128489,0.128521,0.124379,0.130502,0.128867,0.129026,0.143594,0.141439,0.143753,0.144882,0.158478,0.160063,0.159137,0.163441,0.162228,0.00306693,0.00368541,0.183194,0.197718,0.197874,0.212403,0.00375333,0.00329812,0.225005,0.00366936,0.251404,0.24921,0.251377,0.250982,0.250464,0.257092,0.263288,0.268898,0.275924,0.00351953,0.305096,0.306424,0.306765,0.303656,0.314926,0.316086,0.324891,0.331585,0.329492,0.341198,0.340875,0.337588,0.337306,0.335519,0.333884,0.331607,0.332238,0.333807,0.333066,0.331878,0.333981,0.334095,0.333214,0.333721,0.332196,0.329263,0.327437,0.328256,1.22019,1.00797,1.00749,0.410022,0.837679,0.00340506,0.515976,0.516165,0.515706,0.516652,0.518868,0.517874,0.515224,0.00357997,0.356543,0.355467,0.380433,0.386032,0.403928,0.397536,0.529549,0.520578,0.785929,0.787536,0.867302,1.20407,1.26656,1.35678,1.34983,1.34956,1.35739,1.36245,1.40214,1.4761,1.47535,1.46798,1.47205,1.4697,1.47492,1.47306,1.47066,1.55953,1.65965,1.55513,1.55064,1.55123,1.55158,1.59598,1.61064,1.63812,1.63807,1.74352,1.74904,1.75763,1.7552,1.77231,1.77135,1.75768,1.75984,1.7634,1.77101,1.79082,1.82162,1.82515,1.82439,1.82616,1.83077,1.84843,1.82527,1.80021,1.83127,1.81391,1.81357,1.80747,1.79988,1.80892,1.77868,1.77999,1.76438,1.79414,1.77734,1.77566,1.7523,1.75799,1.7327,1.7963,1.69297,1.69182,1.71357,1.6901,1.6869,1.63732,1.6352,1.63388,1.61983,1.6117,1.60341,1.61668,1.6444,1.64487,1.58876,1.58872,1.59111,1.58572,1.58521,1.56113,1.53954,1.52694,1.52241,1.50891,1.49885,1.51198,1.50646,0.00347467,1.40997,1.40795,1.38313,1.40927,1.40877,1.36047,1.44652,1.40928,1.30404,1.25545,1.27174,1.25188,1.23252,1.20478,1.20573,1.1856,1.19444,1.16889,1.15282,1.16102,1.12452,1.12727,1.12051,1.10593,1.10788,1.10945,1.0604,1.06082,1.04329,1.06292,1.0373,1.01457,1.02479,1.02532,1.04231,0.998068,0.998387,1.01345,1.02798,1.04233,1.06527,1.06632,1.07845,1.10284,1.10142,1.1013,1.41382,0.00326291,1.4203,1.72036,0.00317373,1.2087,1.21601,1.22208,1.23007,1.23317,1.24293,1.24543,1.2544,0.00322662,1.27097,1.27927,1.28527,1.29222,1.29606,1.29799,1.30572,1.30885,1.31638,1.3192,1.32592,1.32817,1.33879,1.33989,1.34677,1.35064,1.35842,1.35973,1.3654,1.37254,1.38001,1.38215,1.39109,1.39383,1.40192,1.40327,1.40847,1.4155,1.42032,1.42702,1.42875,1.43602,1.43959,1.45313,1.45295,1.4592,1.45959,1.46092,1.47458,1.48256,1.48231,1.49198,1.50219,1.50084
0.0375168,0.0368529,0.00333954,0.00338572,0.00382377,0.0464411,0.077451,0.0756932,0.0757694,0.0730525,0.0934753,0.0934312,0.00340885,0.0971052,0.00332393,0.00363889,0.117405,0.116153,0.115532,0.114862,0.12381,0.124573,0.124528,0.130373,0.131164,0.130358,0.13108,0.143702,0.143976,0.159088,0.159183,0.157985,0.162584,0.161773,0.161157,0.183443,0.176929,0.184505,0.184799,0.184119,0.00314864,0.00365828,0.00335049,0.228142,0.226921,0.238313,0.239417,0.252724,0.252885,0.251342,0.26707,0.265835,0.280547,0.28146,0.299648,0.299597,0.306669,0.307319,0.31194,0.328935,0.329565,0.330542,0.328687,0.344646,0.339491,0.339455,0.334949,0.333819,0.331959,0.330915,0.334021,0.328345,0.326807,0.330969,0.331651,0.331487,0.331424,0.330706,1.06766,0.400587,0.00356157,0.367403,0.780629,0.347123,0.345476,1.0025,1.00735,1.00671,0.612742,0.61088,0.00335913,0.357076,0.367055,0.355759,0.00324461,0.00339952,0.352937,0.421097,0.421272,0.00354723,0.00342972,0.505201,0.521032,0.520552,0.519686,1.17431,1.21833,1.24737,1.30699,1.37747,1.3776,1.33857,1.34063,1.42038,1.41962,1.43218,1.42762,1.42762,1.45645,1.45409,1.45431,1.48967,1.48512,1.5282,1.52648,1.58301,1.58937,1.61421,1.62487,1.64335,1.64452,1.65591,1.67896,1.6959,1.73046,1.73702,1.75823,1.7537,1.7631,1.78566,1.77778,1.77882,1.78189,1.84358,1.84477,1.83769,1.83267,1.84785,1.84829,1.86901,1.85638,1.8663,1.84601,1.85804,1.8423,1.83832,1.84787,1.80267,1.79649,1.80925,1.77934,1.77896,1.79396,1.77359,1.76922,1.7732,1.77631,1.76526,1.72413,1.75549,1.78479,1.70078,1.69525,1.6416,1.64204,1.62538,1.63639,1.63731,1.63339,1.63218,1.601,1.62697,1.59652,1.58591,1.58684,1.58713,1.59022,1.55268,1.54748,1.54646,1.60382,1.4906,1.47407,1.49286,1.49177,1.50216,1.48922,1.39154,1.36934,1.35967,1.34323,1.33205,1.33351,1.3186,1.29189,1.26774,1.34525,1.36139,1.21867,1.20962,1.19631,1.19622,1.20705,1.24062,1.15414,1.15487,1.14347,1.14671,1.11585,1.11256,1.106,1.11625,1.06647,1.06709,1.05321,1.05952,1.07068,1.02087,1.0658,1.01559,1.00404,0.995442,1.03382,1.03419,1.02068,1.04729,1.05268,1.06422,1.09468,1.08854,1.14357,1.14624,1.40572,1.16391,1.1773,1.1792,1.35343,1.25795,1.20701,1.21922,1.21943,1.22793,0.00346684,1.24081,1.25051,1.25017,0.00350481,1.27435,1.27685,1.28489,1.28411,1.29072,0.00338407,1.30029,1.30886,1.31845,1.31778,1.32908,1.33126,1.339,1.34026,1.34456,1.3531,1.35374,1.36351,1.3701,1.37777,1.3794,1.39111,1.39584,1.39481,1.39969,1.40001,1.40564,1.41263,1.41897,1.41948,1.42896,1.43701,1.44379,1.4429,1.44413,1.45614,1.45998,0.00355682,0.00329441,1.4824,1.48077,1.48898,1.49517
0.0357498,0.00345924,0.00340166,0.00334796,0.0104791,0.00338226,0.0752487,0.0737268,0.0721625,0.0715884,0.00322798,0.0972055,0.0967876,0.00356671,0.00349208,0.00362949,0.11699,0.113962,0.112098,0.12723,0.122975,0.12077,0.127645,0.129135,0.12894,0.127504,0.131823,0.134682,0.136019,0.14137,0.154915,0.153511,0.151718,0.179168,0.189408,0.176175,0.180732,0.182343,0.213805,0.215609,0.215572,0.00361824,0.00355497,0.003454,0.00359212,0.238835,0.238227,0.00330581,0.276224,0.275622,0.285215,0.287234,0.286726,0.00341238,0.330386,0.32932,0.30342,0.333357,0.335913,0.338997,0.339343,0.348139,0.34941,0.342226,0.340794,0.341684,0.342277,0.342633,0.341824,0.339048,0.338136,0.338319,0.34063,0.338295,0.334349,0.573897,0.574619,1.13231,0.916523,0.349241,0.350156,0.348309,0.348398,0.605659,0.602298,0.545481,0.00318627,0.376336,0.376574,0.376128,0.373196,0.373922,0.37286,0.3868,0.384099,0.383413,0.382267,0.380814,0.557354,0.496116,0.506507,0.721526,0.932573,0.935742,1.01855,1.19582,1.28469,1.32185,1.33348,1.3534,1.34722,1.39699,1.38931,1.45098,1.42888,1.4291,1.45907,1.46511,1.48535,1.48197,1.50856,1.50749,1.54237,1.53071,1.54334,1.5847,1.59872,1.58198,1.62444,1.65475,1.6524,1.65321,1.67428,1.68663,1.74767,1.74552,1.82176,1.82083,1.82098,1.8143,1.8264,1.84797,1.81316,1.84479,1.83469,1.89817,1.89773,1.89394,1.86106,1.90761,1.90666,1.90633,0.00339157,1.86843,1.85556,1.86525,1.85148,1.82691,1.82489,1.80009,1.80014,1.81665,1.79677,1.85099,1.79414,1.79319,1.75607,1.74662,1.74495,1.73633,1.72977,1.70428,1.70743,1.70773,1.72793,1.72666,1.6335,1.66242,1.63435,1.61442,1.62749,1.61712,1.62339,1.61339,1.59251,1.59607,1.57354,1.56938,1.54191,1.60522,1.60511,1.48087,1.48558,1.50248,1.49541,1.50192,1.38687,1.38757,1.39173,1.34967,1.34775,1.3275,1.31535,1.29827,1.29162,1.29921,1.30885,1.36467,1.23555,1.23514,1.27083,1.28272,1.19002,1.19212,1.1844,1.18173,1.15184,1.19148,1.16715,1.13174,0.00311476,1.13819,1.10075,1.12028,1.06685,1.06673,1.06783,1.06667,1.0591,1.06072,1.02195,1.02684,1.02661,1.02153,1.0201,1.02913,1.04237,1.04063,1.05454,1.08273,1.2995,1.14605,1.35744,1.27055,1.17205,1.17093,0.00351294,1.45863,1.20173,1.20738,0.00316773,1.22367,1.23034,1.23499,1.23932,1.25026,1.25757,1.26423,1.26896,1.27366,1.28035,1.28213,1.29553,1.29682,1.30512,1.31032,1.31792,1.32269,1.32372,1.33275,1.33231,1.33847,1.34767,1.35608,1.35931,1.3621,1.36673,1.36866,1.37304,1.37915,1.38517,1.3938,1.39388,1.3975,1.4054,1.40908,1.41069,1.41654,1.43052,1.43095,1.43629,1.44485,1.44839,1.44861,0.00334759,1.46866,1.4681,1.47988,1.48204,1.49212
0.00324928,0.00318238,0.00314678,0.00409869,0.00379333,0.00326181,0.00322213,0.00396522,0.00348005,0.00342816,0.00326118,0.0969204,0.00357043,0.00306124,0.00323833,0.114793,0.00367017,0.00342863,0.00338122,0.126648,0.00314173,0.00389771,0.0031495,0.00357846,0.00349615,0.0102247,0.00323658,0.00327128,0.0034072,0.00356144,0.00322622,0.00349667,0.224685,0.225499,0.228024,0.227953,0.22822,0.227578,0.214445,0.216356,0.217395,0.00364645,0.236423,0.00350605,0.0032738,0.00396985,0.00322748,0.280376,0.289272,0.289267,0.291537,0.288998,0.288317,0.33238,0.332714,0.332942,0.331383,0.332153,0.338678,0.339254,0.347626,0.348739,0.352806,0.362186,0.363653,0.362681,0.341548,0.343744,0.343044,0.342882,0.349503,0.348895,0.342235,0.341058,0.00315946,0.625234,0.00347595,0.00355438,0.00349507,0.00357383,0.00316808,0.00336106,0.00345781,0.00320655,0.594162,0.00361969,0.381363,0.380839,0.380172,0.379693,0.378954,0.372674,0.414664,0.39004,0.386131,0.384589,0.383852,0.665591,0.664696,0.583027,0.669112,0.936053,0.93507,1.11951,1.12007,1.20937,1.30124,1.37703,1.38617,1.38613,1.38861,1.39065,1.42043,1.45818,1.43206,1.43101,1.43678,1.47545,1.47173,1.48832,1.48726,1.51588,1.51568,1.55908,1.56037,1.5923,1.58596,1.65811,1.67172,1.64586,1.70313,1.68006,1.76892,1.76543,1.81296,1.79382,1.79272,1.80148,1.80915,1.8093,1.80984,1.85535,1.88913,1.88907,1.88896,1.87024,1.89502,1.87131,1.87105,1.93478,1.92893,1.92852,1.89939,1.90043,1.89943,1.85573,1.86126,1.85942,1.8722,1.84135,1.84509,1.81101,1.80401,1.79996,1.77639,1.75859,1.75806,1.76903,1.74442,1.7485,1.72071,1.71809,1.71771,1.71007,1.74845,1.75169,1.70095,1.68143,1.68146,1.63038,1.63308,1.61407,1.60485,1.5919,1.59222,1.58933,1.56903,1.54434,1.52732,1.51833,1.49473,1.48926,1.47601,1.44347,1.44461,1.41784,1.41668,1.37503,1.37091,1.36745,1.40647,1.35591,1.34536,1.3088,1.30902,1.34461,1.31416,1.29109,1.29034,1.28338,1.24067,1.23442,1.29858,1.29884,1.25107,1.18109,1.18355,1.34434,1.34476,1.155,1.1698,1.15331,1.24729,1.24746,1.07118,1.07163,1.06303,1.303,1.03141,1.03927,1.0216,1.03568,1.03524,1.03615,1.03057,1.03283,1.0467,1.04652,1.07014,1.08993,1.39007,1.38958,1.38973,1.39097,0.00295949,1.16584,0.00320775,1.26238,0.00318913,1.20847,0.00352494,1.21415,1.21312,1.23566,1.23972,1.24178,1.25026,1.2591,1.26741,1.26971,1.27598,1.2778,1.28434,1.52093,1.30136,1.30243,1.31253,1.31326,1.31971,1.32377,1.33092,1.33354,1.34123,1.34761,1.35379,1.35447,1.35869,1.36204,1.36518,1.37494,1.37985,1.38088,1.39172,1.39197,1.39549,1.40331,1.40899,1.41306,1.42375,1.42284,1.43133,1.43872,0.00295196,1.44895,0.00371327,1.45846,1.46805,1.4781,1.47846,0.00350908
0.020413,0.0207367,0.0212231,0.0197041,0.00335701,0.00330852,0.00350209,0.00336663,0.00392679,0.00342147,0.00351105,0.00325042,0.00370907,0.00390322,0.00369271,0.00330147,0.00329674,0.00339453,0.00329427,0.00365734,0.00376461,0.00326749,0.00348363,0.00340355,0.00355408,0.00356664,0.00356823,0.00375162,0.00363211,0.00339258,0.227187,0.22833,0.228985,0.229023,0.228571,0.228173,0.230697,0.230772,0.00321962,0.0036768,0.00356551,0.288498,0.287923,0.286946,0.302533,0.304001,0.297774,0.299059,0.299821,0.299349,0.301915,0.290385,0.310648,0.317507,0.334545,0.33223,0.332646,0.335163,0.334795,0.339312,0.35315,0.349769,0.354909,0.365501,0.364368,0.363422,0.361175,0.35685,0.355141,0.353854,0.35149,0.351567,0.352401,0.00323073,0.003026,0.00340515,0.00354619,0.00354145,0.00315138,0.00345095,0.00334565,0.00334514,0.0037794,0.594979,0.592965,0.381714,0.382121,0.382639,0.381914,0.380729,0.380167,0.462357,0.711255,0.431006,0.42911,0.430269,0.414546,0.00347895,0.691326,0.704387,0.798287,0.9415,1.1459,1.18374,1.30541,1.27237,1.29429,1.32948,1.32987,1.40167,1.45337,1.41002,1.40317,1.40394,1.43007,1.43085,1.46853,1.46831,1.49007,1.47389,1.47566,1.53383,1.51724,1.57186,1.59764,1.65955,1.66176,1.65557,1.69213,1.69195,1.67376,1.74229,1.74895,1.77577,1.79554,1.8151,1.81468,1.79432,1.79438,1.85987,1.85904,1.84526,1.88338,1.86832,1.86801,1.86783,1.87888,1.87061,1.94834,1.9565,1.95594,1.96175,1.93227,1.88249,1.8813,1.8804,1.91859,1.8759,1.89006,1.86233,1.86019,1.85275,1.82171,1.80406,1.8234,1.79957,1.79716,1.75981,1.84374,1.75534,1.73057,1.78336,1.72784,1.72992,1.70491,1.70562,1.71017,1.6925,1.67016,1.6483,1.65115,1.6254,1.60017,1.59566,1.66396,1.57898,1.56158,1.54106,1.53101,1.52468,1.50219,1.48984,1.46979,1.44671,1.44468,1.41722,1.41593,1.51975,1.5255,1.38174,1.38169,1.38236,1.33195,1.33262,1.31795,1.31808,1.31497,1.41661,1.36416,1.29077,1.29214,1.30934,1.30394,1.25052,1.25096,1.21701,1.21498,1.21342,1.16088,1.16098,1.13311,1.12998,1.15037,1.09901,1.10213,1.16789,1.05188,1.04554,1.04602,1.0348,1.03089,1.04293,1.01115,1.02914,1.0296,1.03239,1.0421,1.04386,1.05627,1.08951,1.26692,0.00333179,1.70322,1.14654,1.15479,1.16281,1.17517,1.17666,1.31736,1.20235,1.20765,1.21442,1.21798,0.00334434,1.23141,0.003458,1.24591,1.25082,1.26415,1.26617,1.26932,0.00333798,1.28225,1.28803,1.2927,1.30012,1.30175,1.31049,1.31659,1.32086,1.3231,1.33029,1.33264,1.33686,1.3448,1.34541,1.3534,1.36141,1.36769,1.36805,1.37097,1.3761,1.38302,1.38695,1.39066,1.39577,0.00335794,1.41361,1.41825,1.42048,1.42289,0.00360529,1.43907,1.44464,1.44966,1.46087,1.46313,0.00330151,1.48005,1.48644
0.0179515,0.0184209,0.0204402,0.0200663,0.018663,0.023432,0.00330731,0.228788,0.00356321,0.0034561,0.0796941,0.0028962,0.00346316,0.00329402,0.00348625,0.00364934,0.0038351,0.00318014,0.00368894,0.00329701,0.00330866,0.0038115,0.00329213,0.00404372,0.00344671,0.00323322,0.0032455,0.00344095,0.00360264,0.227368,0.228496,0.229299,0.229319,0.228968,0.227355,0.226184,0.236413,0.240809,0.00384902,0.00296044,0.00349427,0.288574,0.28776,0.288118,0.305335,0.305945,0.303876,0.299913,0.302463,0.302929,0.302123,0.30107,0.331029,0.331648,0.329866,0.332695,0.337336,0.337006,0.337209,0.352328,0.357298,0.357578,0.356553,0.363164,0.361921,0.360766,0.359527,0.35817,0.356633,0.355443,0.35494,0.354803,0.00349293,0.00350883,0.00358103,0.00352537,0.00355814,0.396009,0.394803,0.394236,0.39309,0.398702,0.00358629,0.00365877,0.00316588,1.00319,0.378483,0.379783,0.387386,0.386651,0.385631,0.713109,0.711551,0.711428,0.405311,0.586486,0.583892,0.58135,0.690954,0.690432,0.939039,0.97304,1.1873,1.28767,1.28735,1.28913,1.3486,1.36938,1.4232,1.40217,1.42433,1.40232,1.403,1.43137,1.4401,1.43227,1.45295,1.49028,1.50939,1.51058,1.4811,1.52616,1.56927,1.57172,1.56175,1.66968,1.66501,1.65963,1.6513,1.75886,1.79063,1.76642,1.74749,1.74673,1.76632,1.78966,1.79206,1.82657,1.82446,1.85638,0.00323619,1.86596,1.86651,1.88586,1.87323,1.85944,1.87195,1.88284,1.92061,1.91816,1.9192,1.91441,1.90728,1.89611,1.89314,1.89028,1.87889,1.87939,1.89316,1.86307,1.86103,1.83862,1.83722,1.82063,1.80312,1.79224,1.77774,1.76898,1.76258,1.76148,1.76899,1.76827,1.76355,1.76369,1.76287,1.70681,1.69637,1.69162,1.67622,1.66783,1.66799,1.63769,1.62391,1.62303,1.633,1.69308,1.54445,1.54381,1.53609,1.54336,1.54356,1.48927,1.49744,1.47134,1.46802,1.46926,1.62383,1.48197,1.48198,1.4292,1.38162,1.3681,1.35619,1.34469,1.37888,1.40877,1.33057,1.30529,1.29985,1.28572,1.28757,1.30777,1.236,1.23342,1.24123,0.00408841,0.00327898,1.20147,1.16833,1.1355,1.13615,1.12396,1.1218,1.12251,1.0767,1.07124,1.09036,1.09085,1.04671,1.02957,1.03146,1.03626,1.00853,1.0273,1.001,1.02763,1.04391,1.02172,1.08112,1.08162,0.00331655,1.51406,1.43926,1.43968,0.00343856,1.41276,1.4559,1.45606,1.18857,1.19258,1.20194,1.20509,1.21213,1.21854,0.00366523,1.23221,0.00350709,1.24672,1.25457,1.25952,1.26206,0.00301729,0.00336549,0.003131,1.28816,1.29153,1.30107,1.30247,1.30432,1.30929,1.3142,1.31634,1.32737,1.32733,1.33693,1.34306,1.35048,1.35218,1.3512,1.36392,1.36513,1.36884,1.37577,1.38081,1.38094,1.39071,1.39321,1.4038,1.40567,1.41545,0.00358189,0.00325014,0.00345796,1.43674,1.4444,1.45137,0.00348765,0.00305562,1.46953,1.47813
0.01858,0.0213957,0.0177174,0.0172398,0.00355729,0.0032483,0.00353234,0.00322457,0.00338894,0.0809473,0.0805489,0.078271,0.0713413,0.0692787,0.0678687,0.00318279,0.00354555,0.00342638,0.00389721,0.00302397,0.00394047,0.00338024,0.00339533,0.00314355,0.00314913,0.00339003,0.00351242,0.00312083,0.00327974,0.227177,0.227239,0.227178,0.22723,0.226589,0.226289,0.236297,0.235656,0.00328241,0.00350729,0.00348041,0.288727,0.289691,0.287908,0.286702,0.285727,0.303149,0.301934,0.300512,0.300098,0.30007,0.300006,0.307604,0.309573,0.320404,0.333566,0.331632,0.332036,0.336677,0.349978,0.35007,0.356046,0.355939,0.355038,0.358408,0.35834,0.358387,0.359561,0.359269,0.358728,0.35959,0.358088,0.356819,0.4997,0.500983,0.495329,0.00351751,0.394443,0.399767,0.399563,0.401544,0.402338,0.401903,0.400735,0.399521,0.00324924,0.834173,0.00340413,0.383785,0.384683,0.383929,0.383119,0.366892,0.387507,0.424467,0.424553,0.593634,0.718088,0.760452,0.973677,0.970205,0.975576,1.18439,1.19473,1.26802,1.2669,1.35836,1.3546,1.36868,1.3748,1.41035,1.42146,1.42821,1.42788,1.42867,1.44464,1.4441,1.47546,1.47373,1.50278,1.50956,1.5135,1.51919,1.51911,1.58178,1.59987,1.64504,1.64388,1.64256,1.64666,1.77515,1.73432,1.73473,1.74193,1.73237,1.76312,1.77988,1.76821,1.79283,1.82544,1.83666,1.83781,1.82758,1.82725,1.84598,1.84497,1.86903,1.86944,1.86895,1.87156,1.86785,1.91924,1.93754,1.90573,1.92027,1.91017,1.9163,1.90951,1.89672,1.8902,1.87968,1.87784,1.86587,1.85725,1.84832,1.83553,1.81779,1.78277,1.77581,1.77521,1.7734,1.75535,1.75211,1.80883,1.74923,1.72068,1.7116,1.71341,1.70667,1.70067,1.69981,1.69238,1.69267,1.67378,1.62806,1.64874,1.61684,1.62412,1.62475,1.56041,1.56025,1.53055,1.53229,1.52632,1.52496,1.46793,1.46704,1.44649,1.44031,1.50703,1.56372,1.47314,0.00358379,1.36168,1.356,1.35128,1.40892,1.32424,1.32985,1.30966,1.28286,1.35991,1.36039,1.35597,1.24982,1.21545,1.21671,1.21723,1.18175,1.19957,1.18059,1.18684,1.18705,1.1805,1.17804,1.11643,1.09387,1.0564,1.04339,1.06012,1.02503,1.02668,1.01293,1.0215,1.02339,0.991843,0.992272,1.02093,1.03845,1.04295,1.09092,1.31581,1.36875,0.00311576,1.25853,1.14376,1.15014,1.15866,0.00347389,1.17765,1.18213,1.182,1.19886,1.19921,0.00332391,1.21948,0.00336647,1.237,1.23762,1.24595,1.2563,1.25866,1.26896,1.27406,1.27523,1.28512,1.28741,1.28881,1.29565,1.29966,1.30257,1.30944,1.31637,1.32244,1.32286,1.33356,1.33529,1.33699,1.34388,1.34921,1.35014,1.35583,1.36377,1.36359,1.37791,1.37929,1.38485,1.39069,1.39468,1.40211,0.00320177,1.40911,1.4197,1.42667,0.0031923,1.4369,1.44373,1.45364,1.45438,0.00331209,1.4749
0.016538,0.0319296,0.0298758,0.0299422,0.00355756,0.00333154,0.00348609,0.0690949,0.0665415,0.0883328,0.0858409,0.0830633,0.0850019,0.0703109,0.0714252,0.0689361,0.100926,0.0999078,0.0985548,0.128874,0.129306,0.128508,0.127867,0.127695,0.00336186,0.00340059,0.00316948,0.0037285,0.225973,0.227164,0.228354,0.227528,0.226536,0.2403,0.240411,0.240091,0.23893,0.237479,0.00328777,0.00324077,0.00343048,0.286996,0.283221,0.278121,0.280402,0.282631,0.297408,0.296971,0.297114,0.29952,0.309059,0.309259,0.317592,0.32517,0.327344,0.326792,0.332424,0.338084,0.35036,0.351007,0.351928,0.353183,0.353815,0.357909,0.360305,0.361577,0.360754,0.35904,0.357893,0.359727,0.502151,0.362007,0.362351,0.487688,0.540726,0.54004,0.539141,0.403819,0.404332,0.404808,0.404846,0.40361,0.402747,0.400918,0.834923,0.838282,0.835656,0.380987,0.343805,0.365105,0.368785,0.363629,0.389578,0.388537,0.528926,0.527404,0.866562,0.966194,0.966521,1.12913,1.12006,1.17935,1.27738,1.29511,1.29658,1.32555,1.39743,1.36663,1.36693,1.44027,1.4472,1.45401,1.45987,1.4606,1.4957,1.48199,1.5323,1.53279,1.59107,1.5911,1.59182,1.51104,1.51997,1.59879,1.59697,1.60029,1.66562,1.66441,1.66835,1.66709,1.67842,1.71776,1.71715,1.73723,1.73712,1.73678,1.76123,1.78565,1.77189,1.83357,0.00340563,1.83941,1.84718,1.86509,1.86107,1.86202,1.90025,1.87042,1.8718,1.89702,1.93143,1.93012,1.91015,1.90985,1.93404,1.94351,1.94242,1.9265,1.9266,1.89623,1.91144,1.91058,1.89581,1.84923,1.89838,1.8423,1.86521,1.78723,1.78705,1.78627,1.76189,1.75078,1.74917,1.73201,1.73085,1.79742,1.74804,1.72144,1.7094,1.71097,1.70656,1.72723,1.71861,1.6713,1.6886,1.6277,1.62652,1.62421,1.6044,1.58726,1.55954,1.58546,1.51173,1.5087,1.54463,1.48316,1.54807,1.47873,1.46377,1.485,1.48428,1.48493,1.42586,1.40944,1.4169,1.37084,1.35325,1.33251,1.33204,1.30833,1.30445,1.27518,1.25991,1.25868,1.23656,1.26019,1.26086,1.20153,1.16701,1.15645,1.14138,1.13888,1.12503,1.08811,1.08812,1.06733,1.18056,1.07135,1.03946,1.03254,1.04624,1.01288,1.0257,1.02501,1.02292,1.00774,1.01851,1.03573,1.03416,1.08894,0.0032612,1.40527,1.40579,1.37028,1.37951,1.42878,1.42638,1.43291,1.43203,1.43393,1.43626,1.42678,1.43224,1.21111,1.47391,1.47299,1.47751,1.23374,1.24429,1.24794,1.25382,1.25711,1.26579,1.26937,1.27644,1.28449,1.28851,1.29129,1.29713,1.29786,1.30174,0.00331173,1.31224,1.3174,1.32211,1.32467,0.00324052,1.33973,1.34162,1.3501,1.35137,1.35377,1.36069,0.00313748,1.52912,1.37963,0.00302752,1.39142,1.39018,1.40266,0.00324263,1.41236,1.41349,1.43032,0.00319019,1.43801,0.0035102,1.45199,0.00360052,0.00352963
0.0267922,0.0338133,0.0327656,0.0325807,0.0316541,0.00349072,0.0035916,0.0724386,0.071865,0.0699934,0.0864831,0.0889789,0.0875118,0.0867231,0.0869561,0.087728,0.0923009,0.092588,0.103766,0.102897,0.11808,0.128584,0.128379,0.136213,0.13521,0.00332637,0.00349757,0.00342741,0.00349645,0.00338966,0.227031,0.230718,0.231746,0.241434,0.241851,0.241099,0.240484,0.239607,0.00362571,0.00345019,0.274862,0.27576,0.27213,0.279926,0.284636,0.286156,0.279765,0.296058,0.298033,0.297928,0.304299,0.314325,0.316192,0.327442,0.330117,0.333721,0.33533,0.33427,0.348049,0.34838,0.349234,0.350266,0.35246,0.351698,0.365086,0.364464,0.365009,0.36077,0.363347,0.364281,0.3661,0.365049,0.465148,0.448149,0.540703,0.401186,0.401847,0.40328,0.405405,0.40537,0.40391,0.403274,0.87689,0.874856,0.386848,0.0033422,0.346577,0.346914,0.346263,0.390695,0.362775,0.371193,0.374216,0.634394,0.634248,0.855613,0.952662,1.08555,1.07349,1.14611,1.12827,1.22116,1.25391,1.29933,1.31664,1.41379,1.39319,1.40817,1.42686,1.4458,1.47075,1.47585,1.48169,1.48182,1.53121,1.52354,1.53738,1.53668,1.5558,1.5601,1.5587,1.58163,1.58719,1.58622,1.60566,1.61004,1.63107,1.64001,1.65621,1.71549,1.6923,1.71313,1.71562,1.75535,1.77924,1.76842,1.76678,1.76564,1.78718,1.81389,1.83032,1.84385,1.84447,1.85555,1.88309,1.89017,1.89038,1.8848,1.88335,1.88938,1.88771,1.88753,1.89464,1.94373,1.94827,1.96565,1.96703,1.94663,1.9306,1.95134,1.9259,1.93115,1.92144,1.92621,1.91809,1.84287,1.84245,1.87169,1.81151,1.78314,1.7795,1.77877,1.78543,1.74488,1.74482,1.73645,1.7373,1.72974,1.7137,1.72255,1.72073,1.72321,1.73813,1.69577,1.7274,1.72667,1.66289,1.65359,1.59194,1.60665,1.55554,1.52695,1.52757,1.51266,1.50833,1.49397,1.55398,1.52265,1.47254,1.44069,1.44068,1.4481,1.41367,1.40362,1.37571,1.3808,1.38153,1.35092,1.32992,1.31146,1.30868,1.36203,1.2808,1.3,1.30057,1.31696,1.25747,1.17247,1.19133,1.26815,1.15178,1.14523,1.15702,1.11657,1.11843,1.08729,1.03367,1.03363,1.06642,1.0291,1.03376,1.03518,1.00218,1.00448,1.00246,0.973957,0.974367,0.992597,1.02993,1.01011,1.08349,1.19351,1.40025,1.40512,1.1325,1.60415,1.60759,1.61049,0.00364145,1.50653,1.18708,1.19146,0.00348174,0.00330478,1.20918,1.21753,1.23594,1.23585,1.23659,1.24601,1.24646,1.25343,1.2647,1.2634,1.27119,1.27724,1.27898,1.28415,1.28876,1.29395,1.29803,1.30292,1.3029,1.31119,1.31594,1.32037,1.32691,1.33436,1.33568,1.33874,1.34437,1.34848,1.35869,0.00326642,1.37343,1.37572,1.38006,1.38139,0.00347242,1.39737,0.00309428,1.41398,1.41465,1.4217,1.42965,1.43707,0.00320969,0.00320509,0.00381851,0.00310952
0.0318953,0.0321834,0.0313893,0.0302415,0.0492961,0.048096,0.0481071,0.0601375,0.069244,0.0665734,0.0721255,0.0864466,0.0873831,0.08277,0.0933719,0.0927168,0.111074,0.110807,0.100916,0.126093,0.127104,0.129961,0.128589,0.140685,0.0032287,0.159167,0.00306177,0.00392654,0.00337107,0.00370488,0.00332065,0.232676,0.23147,0.237701,0.22759,0.240546,0.239388,0.23818,0.00303087,0.00298917,0.272157,0.273304,0.27314,0.271106,0.282259,0.276679,0.276988,0.296695,0.295094,0.29364,0.30744,0.306959,0.307229,0.307238,0.32184,0.318833,0.328516,0.327415,0.344731,0.344768,0.345849,0.348799,0.349566,0.349721,0.364294,0.365184,0.365365,0.36536,0.366262,0.366139,0.365253,0.36399,0.429583,0.428334,0.00345277,0.524768,0.398632,0.400697,0.400518,0.400244,1.05793,0.89665,0.00377331,0.00369703,0.00339909,0.423059,0.413673,0.294808,0.300321,0.338627,0.363344,0.363411,0.358294,0.633559,0.633215,0.819802,1.08803,1.08822,1.13998,1.12651,1.25722,1.2515,1.41901,1.4888,1.44099,1.45422,1.4314,1.43186,1.43253,1.46071,1.4755,1.51952,1.51326,1.51394,1.53389,1.53387,1.53403,1.54485,1.56206,1.56207,1.57207,1.60288,1.6016,1.60092,1.60278,1.63723,1.66298,1.67713,1.70447,1.70383,1.69706,1.70952,1.711,1.75575,1.75548,1.7616,1.75144,1.76625,1.81337,1.81403,1.82071,1.82074,1.83201,1.85632,1.87246,1.86183,1.86272,1.88601,1.94552,1.96099,1.92943,1.93146,1.90427,1.9169,1.92508,1.93519,1.93828,1.94077,1.93328,1.94488,1.9279,1.93155,1.93602,1.92728,1.88667,1.89046,1.88501,1.82791,1.8276,1.84727,1.80639,1.80599,1.79106,1.79009,1.78231,1.80092,1.75992,1.79915,1.77802,1.7979,1.73497,1.70605,1.71587,1.68044,1.67216,1.65719,1.72546,1.72547,1.72531,1.61662,1.56817,1.56283,1.56185,1.51927,1.51006,1.48661,1.48622,1.49768,1.48233,1.45524,1.44441,1.43875,1.43779,1.48092,1.40384,1.39912,1.37105,1.35432,1.34062,1.3401,1.30975,1.29852,1.2683,1.27452,1.25764,1.22954,1.17408,1.18769,1.17402,1.15216,1.15216,1.20167,1.10269,1.11036,1.11015,1.05295,1.05349,1.04514,1.04382,1.06249,1.03923,1.01567,1.00448,1.00909,1.02617,0.984466,0.968942,0.987181,0.994756,1.00073,1.06685,1.42212,0.00340804,1.11525,1.25382,1.44035,1.13642,1.13954,1.15367,0.00351521,1.17551,0.00328696,0.00338786,1.20272,1.20388,1.20893,1.21379,1.22552,1.22946,1.23338,0.00313962,1.24637,1.25082,1.25747,1.26336,1.26404,1.26744,1.27527,1.2783,1.28608,1.28863,1.29314,1.29437,1.29873,1.30326,1.31402,1.31561,1.32271,1.32562,1.32749,0.00336934,1.3501,1.35287,1.35816,1.3671,1.36951,1.37715,1.38132,1.38827,0.00345547,0.00339204,1.40921,1.419,1.42557,1.42886,1.4305,1.43435,0.00324374,0.00323048,1.45773
0.0295331,0.0276454,0.00321652,0.047955,0.0478675,0.0467828,0.0461714,0.0611651,0.0596371,0.0657475,0.0928786,0.0925628,0.0914517,0.112756,0.110701,0.111019,0.110092,0.00369845,0.124233,0.124948,0.126356,0.124893,0.126797,0.135113,0.162247,0.16169,0.168762,0.172465,0.173904,0.00326009,0.00373156,0.00319193,0.22708,0.227921,0.229107,0.227914,0.227864,0.00334387,0.241651,0.262391,0.259653,0.261103,0.260163,0.257946,0.269318,0.268888,0.275747,0.275665,0.275866,0.277715,0.485946,0.305914,0.30405,0.309171,0.309404,0.324477,0.324448,0.00346154,0.331169,0.336921,0.336063,0.347158,0.347928,0.347608,0.346002,0.362516,0.363485,0.363813,0.363916,0.362945,0.364827,0.364263,0.513909,0.512897,0.515468,0.00360579,0.527708,0.528641,0.531247,0.00315407,0.379576,0.378478,0.377429,0.00335572,0.00369443,0.466826,0.295417,0.293155,0.292549,0.291443,0.358914,0.338545,0.460675,0.797137,0.800333,1.02022,1.0318,1.13862,1.12511,1.1914,1.3535,1.4041,1.42996,1.42346,1.49409,1.45654,1.48531,1.46024,1.47383,1.4777,1.48854,1.48322,1.48479,1.52276,1.55021,1.56559,1.54352,1.56124,1.55883,1.56161,1.58212,1.60074,1.62453,1.64423,1.70914,1.70916,1.74734,1.68523,1.70924,1.70983,1.73139,1.73693,1.76077,1.74208,1.74217,1.7693,1.77139,1.78946,1.8196,1.81135,1.80745,1.84661,1.86051,1.91899,1.88623,1.88283,1.8834,1.9135,1.91006,1.9193,1.91937,1.92735,1.91893,1.93619,1.9177,1.92407,1.93086,1.92781,1.94238,2.00025,1.99937,1.92506,1.92336,1.96133,1.88937,1.88023,1.88507,1.88935,1.86879,1.82894,1.85509,1.86451,1.84366,1.86597,1.8345,1.82574,1.82751,1.78239,1.77963,1.78262,1.78548,1.78659,1.72033,1.67592,1.7437,1.67436,1.72486,1.72313,1.68371,1.61564,1.58894,1.57409,1.57008,1.55246,1.54076,1.50999,1.51727,1.51305,1.50295,1.49939,1.46229,1.4472,1.44667,1.42976,1.47031,1.39818,1.35767,1.35931,1.33354,1.34457,1.31033,1.29236,1.27977,1.25712,1.24225,1.24191,1.19148,1.17777,1.22418,1.16498,1.16178,1.30597,1.08802,1.08532,1.0833,1.09374,1.04174,1.05976,1.08573,1.02416,1.01038,1.01666,1.01537,1.02751,1.02128,1.0015,1.00548,0.988867,0.970182,0.982273,1.01898,1.0839,1.09489,1.76501,1.34114,1.12216,1.12729,1.32386,1.15099,1.15472,1.16336,0.00348744,1.18413,0.00328396,1.19855,1.2071,1.21476,1.21564,1.22619,1.22713,1.23374,1.241,1.24595,1.24867,1.25472,1.25713,1.25926,1.26324,1.2658,1.27566,1.28363,1.28592,1.29251,1.29585,1.30465,1.30419,1.31572,1.32442,1.32437,0.0034235,1.33753,1.33998,1.34585,0.00308743,1.35891,1.36696,1.36766,1.37806,1.38439,1.38817,1.4044,0.00331651,1.41526,1.41388,1.42352,1.42541,1.43717,1.43977,0.00340154,0.0034037
0.0319471,0.0303792,0.045162,0.0458728,0.0457279,0.0442661,0.0567453,0.0559293,0.00341813,0.00342788,0.00337606,0.0924039,0.114563,0.111307,0.107395,0.114842,0.108494,0.125237,0.133434,0.12599,0.125534,0.126478,0.126765,0.137882,0.138573,0.158609,0.152318,0.17623,0.176562,0.174979,0.422303,0.00341759,0.209558,0.227935,0.227902,0.228618,0.230978,0.235008,0.00325107,0.251531,0.260458,0.26018,0.259743,0.264876,0.269783,0.270302,0.270582,0.277172,0.276817,0.285187,0.294584,0.293948,0.296424,0.295618,0.308957,0.311773,0.314099,0.315834,0.314023,0.315457,0.334393,0.335561,0.346005,0.490493,0.00303543,0.490835,0.489065,0.492017,0.504053,0.505264,0.360945,0.368842,0.514779,0.515821,0.521374,0.825954,0.0030938,0.970253,0.00335889,0.00363637,0.37956,0.378787,0.00349281,0.714403,0.00334889,0.301842,0.293152,0.294594,0.293278,0.292805,0.294852,0.293484,0.384579,1.03426,1.01271,1.03735,1.2482,1.24332,1.24009,1.37919,1.40207,1.40076,1.42686,1.46987,1.47162,1.4609,1.46198,1.46649,1.49002,1.51027,1.50799,1.51936,1.51685,1.55276,1.55396,1.5748,1.58559,1.58585,1.58905,1.58365,1.58309,1.60225,1.59889,1.71855,1.71027,1.7098,1.75043,1.74628,1.74485,1.73083,1.70672,1.71778,1.71691,1.77006,1.78328,1.78304,1.78229,1.76107,1.75895,1.75797,1.85596,1.83437,1.86697,1.87902,1.87248,1.87754,1.87629,1.89032,1.9213,1.92165,1.92629,1.92555,1.93626,1.93518,1.92071,1.93464,1.92664,1.92801,1.92775,1.94465,1.94485,1.93792,1.92914,1.9063,1.90427,1.91191,1.90463,1.89428,1.8647,1.87722,1.86933,1.86548,1.87357,1.85438,1.85151,1.84259,1.82081,1.83919,1.78895,1.79444,1.7753,1.77599,1.70791,1.70749,1.69359,1.66845,1.66604,1.67166,1.64168,1.64106,1.6311,1.61378,1.6011,1.57849,1.53231,1.5374,1.54046,1.51414,1.50702,1.49252,1.46007,1.45577,1.47801,1.47617,1.47526,1.38967,1.3777,1.37486,1.3509,1.32753,1.33211,1.3157,1.29304,1.28903,1.28894,1.20918,1.19307,1.19348,1.16712,1.15681,1.15281,1.12238,1.12419,1.12288,1.08535,1.06762,1.07283,1.0874,1.04273,1.0213,1.02325,1.02326,1.02516,1.01692,1.01834,0.997399,1.0053,1.01305,0.946969,0.991007,0.992682,1.20184,1.20189,1.21111,1.2125,1.21879,1.22133,1.1325,0.00306527,1.14952,1.15834,1.16996,1.17241,1.18494,0.00340549,0.00325375,1.20131,1.2088,1.20959,0.00330022,1.22459,1.23414,1.23611,1.2404,1.24137,0.00297084,0.00323824,0.00349059,1.26639,1.27435,1.27577,1.28517,1.28887,1.29283,1.2975,1.30113,1.31143,0.00327629,1.32105,1.32635,1.3334,1.33557,1.34094,1.34457,1.35318,1.36329,1.36593,1.37059,1.37775,0.00360746,1.39836,1.39798,1.40701,1.40937,1.41987,0.00370951,0.00326608,0.00307292,1.44841,0.00373747
0.0313289,0.0512041,0.0522865,0.0517534,0.0503477,0.0620469,0.0590952,0.0582909,0.065005,0.07592,0.0918272,0.090349,0.110842,0.109817,0.10611,0.104025,0.135571,0.135633,0.135619,0.132717,0.137528,0.145366,0.145788,0.145432,0.145082,0.144298,0.14995,0.154216,0.153048,0.169772,0.155315,0.423445,0.423716,0.210824,0.209522,0.208745,0.207578,0.00361485,0.252469,0.252205,0.255025,0.256159,0.260594,0.265262,0.265236,0.265337,0.2679,0.266973,0.281975,0.283924,0.295855,0.292829,0.296726,0.302931,0.301916,0.306637,0.314192,0.31463,0.315595,0.314951,0.316972,0.319242,0.320547,0.748962,0.323948,0.00337956,0.55615,0.511722,0.00377109,0.00304295,0.905895,0.905075,0.521279,0.00337944,0.907885,0.907086,0.00315679,0.00327443,0.00345037,0.00334846,1.07067,0.0032364,0.932122,0.469876,0.745613,0.00370357,0.294168,0.27139,0.270564,0.270823,0.281107,0.297588,1.03278,1.02493,1.22196,1.22188,1.27129,1.37071,1.40288,1.40331,1.44483,1.42785,1.43788,1.44572,1.44253,0.00325679,1.6276,1.47089,1.49311,1.60551,1.6057,1.5508,1.55103,1.54435,1.51052,1.50883,1.5095,1.57744,1.58487,1.59399,1.59265,1.59547,1.59374,0.00328702,1.73077,1.7003,1.70007,1.68607,1.69474,1.70093,1.7313,1.72323,1.74714,1.77544,1.76194,1.78275,1.78269,1.77899,1.822,1.8123,1.83147,1.83541,1.83396,1.87341,1.86558,1.86622,1.86561,1.85456,1.86959,1.95544,1.9598,1.95502,1.95698,1.93872,1.93202,1.93995,1.9793,1.96448,1.95468,1.95266,1.95815,1.95189,1.93261,1.93736,1.94879,1.95908,1.91705,1.90464,1.90559,1.90536,1.9039,1.90156,1.86938,1.8492,1.84963,1.82301,1.82286,1.79671,1.7969,1.78263,1.75776,1.75941,1.75067,1.72177,1.70525,1.68579,1.67195,1.66526,1.67077,1.64351,1.63582,1.63458,1.62673,1.59881,1.59725,1.58485,1.52966,1.51695,1.50661,1.50699,1.45488,1.45824,1.43281,1.47822,1.38932,1.37607,1.37707,1.35466,1.35363,1.32714,1.31757,1.3032,1.32981,1.27219,1.22007,1.21069,1.26946,1.20659,1.17429,1.17526,1.17452,1.12158,1.12387,1.10274,1.07822,1.07149,1.04801,1.05647,1.03557,1.01938,1.03256,1.0614,0.958933,0.95806,0.981888,0.949089,0.953145,0.947714,0.973572,0.971832,0.972552,1.0638,1.19645,1.21088,1.09944,1.2283,1.22952,0.00316398,1.5234,0.00344272,1.1546,0.00348699,1.16813,1.1743,1.18049,0.00334087,1.19435,1.20162,1.2051,1.21016,1.22074,1.22594,1.23215,1.23378,1.23833,1.24136,1.24625,1.25368,1.25899,0.00343181,0.0037196,0.00356847,1.28547,1.28639,1.28991,1.29744,1.29896,1.31441,1.31707,1.31882,1.32694,1.33609,1.33941,1.34234,1.35032,1.3558,1.36029,1.37095,1.3746,0.00368015,0.00348049,0.00308017,1.40919,1.41065,0.0108628,0.00329631,1.43689,0.00329209,1.45135,0.00310184
