0.957223902655385,0.956239144210963,0.958405147869115,0.958104835730233,0.959218893465441,0.958363994096684,0.959223337682078,0.957502254653956,0.958823665917008,0.95609134861428,0.956284869371455,0.95492405852146,0.958063756680425,0.957389132851667,0.959178219078546,0.959255837278147,0.959168890549566,0.960149607114837,0.9596997831443,0.961196085842639,0.960929993406655,0.962765462495265,0.964433381200206,0.966080464955178,0.968133971392203,0.967988602094934,0.968571987405733,1.15699358309282,1.15843878899128,1.18859745967925,1.18318139953452,1.17803410417427,0.972754791654002,0.973851940782971,0.975041540796622,0.97499776112768,0.973313658928223,0.972537012905477,0.972589051369433,0.972225958782275,0.972742233893169,0.975524873439575,0.977998080122177,0.975360154231183,0.983742835891903,0.970372039907389,0.964827870703669,0.963629827356053,0.961753027522161,0.960437130747265,0.985776510407323,0.9939230210185,1.01667320567181,1.03960692358478,1.04074389149622,1.06505225369215,1.07319009089406,1.09693003374686,1.14652082225335,1.15147761136683,1.19883280468684,1.20741269608092,1.20822356997065,1.19983287369505,1.21059175006435,1.21002780309431,1.20957006028421,1.2098920730673,1.26215575543239,1.20698919818727,1.1916732513002,1.26747140294049,1.26820965919186,1.26865320993296,1.29475333190802,1.29287357791077,1.29447217609626,1.26628160919695,1.25706614976318,1.2466782029742,1.24464146108935,1.24388365854435,1.24292208066046,1.26408196255764,1.26087244983814,1.27002827669593,1.29303645089018,1.29322431710914,1.29213871668004,1.31948735483971,1.30976634959882,1.38916438069206,1.38692562701136,1.3884855446463,1.39132423225309,1.37676341038874,1.34902924247287,1.36369892040791,1.37700716153336,1.4618544100656,1.46139087486404,1.41763621517555,1.40870146771805,1.41731521794186,1.41573076300118,1.4135187609023,1.43641982365613,1.45429815866288,1.47378370409921,1.47987174481704,1.5540732500169,1.58028182506819,1.52314922571143,1.55463815360474,1.57700320265518,1.57299734517867,1.57741238190653,1.50089660985622,1.60460004295363,1.54299181174109,1.5429943141439,1.5430179277309,1.54199678972081,1.6567483229195,1.54924125255856,1.58329521010976,1.60352590044703,1.5909290172224,1.63355039207609,1.64390368148559,1.66344244992575,1.70079500732568,1.67398434283318,1.68270643336164,1.64810165426752,1.64809045284622,1.65051293421304,1.62070968865754,1.550564751978,1.54089068444304,1.57684655228105,1.51070531503254,1.5105851333109,1.59158753916391,1.59934344391045,1.60139141398351,1.60595390555389,1.52586592849661,1.5253157878443,1.52473370737499,1.54060234270321,1.52642488413974,1.49005311712357,1.49014479563218,1.46528493066405,1.46339836655061,1.46474596874158,1.44652292698591,1.43363163805359,1.3887596048001,1.40072804106612,1.38035021789378,1.35258870156386,1.35135736774377,1.34879403605052,1.34260569411439,1.33544916137057,1.37399849181704,1.33434031784867,1.39710837443785,1.30390766719223,1.30251264057555
0.957298426883929,0.957564907684866,0.95688591902148,0.958984513202757,0.958895359795825,0.959184189368012,0.958976306593687,0.96024216121437,0.959366974620126,0.960521227041457,0.958912457489684,0.959847938854664,0.958797850356426,0.960967751277614,0.960531382787768,0.960694693616395,0.961279671932932,0.961691728442436,0.962201963874586,0.963191824693837,0.963681192280349,0.965254352469566,0.966015425022546,0.96770942430702,0.968305788699256,0.968895393825941,0.969113141734736,0.971245021606747,0.972847157032483,0.974047305632847,1.09991080375924,1.17358591292954,1.09889542050671,0.97420278417906,0.974736110670081,0.974911708635294,0.973750859550181,0.972853364318877,0.973041207598285,0.979654345300793,0.976821653734052,0.976362520249321,0.976842697815093,0.977907733957245,1.02703569453254,0.974302260343949,0.958073356214158,0.959059966602527,0.986415952909608,0.952253222324837,0.950160634730736,0.950920676873304,0.997539357970108,1.01629541028173,1.06057452024475,1.06307396786388,1.06145777333124,1.12663773349331,1.16626869131349,1.15265787547505,1.16262865915417,1.17755989801123,1.19397877301982,1.18294123853205,1.24081321445264,1.24105843864397,1.2401018381886,1.21110092538075,1.31508357137237,1.24386694705811,1.24176927571948,1.22947191322351,1.22440459738342,1.23516362432202,1.31055769722698,1.27916172339967,1.27415576911966,1.26827658871153,1.24647795428653,1.24076523651708,1.24181550981713,1.24396791753523,1.25155650904581,1.28876870378704,1.26094220112131,1.26324761946224,1.26248577265295,1.30682654293615,1.29335368400214,1.2642834031221,1.31079945764985,1.31469027581755,1.31645497549114,1.38645487680463,1.39124860904473,1.3905927991208,1.40482503252369,1.36981417220523,1.36978845407473,1.41452049021894,1.4617565104263,1.41779008652501,1.41807022843884,1.43372934391451,1.41244930362101,1.41290550307005,1.46443208598986,1.45190104811578,1.49723325222819,1.55548701348957,1.54427195480948,1.5487930271588,1.62146175736334,1.53618188501615,1.5348410909376,1.56678181696093,1.56829926697304,1.5683131747802,1.55495805575517,1.54381030840882,1.54238571723648,1.53958184009008,1.53918793719822,1.65757857901902,1.6596143733191,1.65991623993379,1.6850963117742,1.67584835092726,1.67377992946001,1.63112277225146,1.66646202158308,1.63041431219317,1.62992756121738,1.64201421329784,1.67520525199933,1.64195233255865,1.61468907272991,1.61912169078407,1.61451209413928,1.54140520994123,1.54268911300473,1.60597239774385,1.53174823744994,1.60592161872753,1.60626922961208,1.60342897909526,1.6084371633019,1.60687500553586,1.53164538438341,1.52507658516423,1.5793684485854,1.51643122163086,1.54162993921787,1.49824588327139,1.46393735194898,1.4622891783911,1.46386144523564,1.42672622058857,1.47197900605055,1.43300708875778,1.40071722463065,1.40012543346446,1.33088548464078,1.3294903730094,1.30719184018477,1.32035263159134,1.33842658386295,1.4121801033482,1.3983347652594,1.37841719980372,1.30338243487868,1.29255535053943
0.957609006067547,0.957682965061144,0.958238862693588,0.958699590570145,0.959205277159313,0.959304297123606,0.959665855775414,0.959708434344987,0.960384964840417,0.95971622942952,0.960351988911796,0.959671196088052,0.960458793304194,0.960376283387964,0.961154137317161,0.961397746741879,0.962150044100085,0.963162167938031,0.963409762295513,0.964558358395127,0.965453317780811,0.966068719885867,0.967004898815922,0.967892022284356,0.968841096357112,0.96954241131253,0.970142084336979,0.971527632427025,0.972917134790285,0.973824947286487,1.02558929574511,1.0835701491683,1.09035877603394,0.97507483007587,0.975359320143295,0.975583367436126,0.975260989263289,0.97496269938651,0.976189462370197,0.978489871108306,0.977685866056911,0.977079385943588,0.976755997160807,0.977717485120745,0.97977260887506,0.978775786204642,0.978372092402807,0.97539853688881,0.980986853673042,0.964423405923674,0.951451654309812,0.951062233398698,1.01046203781881,1.01388900126726,1.05936908426921,1.07352372226703,1.10344064016436,1.12955766210953,1.14820827211377,1.14968689807789,1.16153892203848,1.17292085631349,1.17692865407314,1.18456798268211,1.24139296059381,1.24217965303065,1.24390129470328,1.24830495238739,1.24990939117636,1.24787973372475,1.23446265726933,1.230354139428,1.22966017637633,1.23307043417722,1.24291113600744,1.24947424192202,1.26289007193956,1.26121568133917,1.25425116178368,1.25441390398433,1.2551612971751,1.25580063480187,1.25553058623237,1.271663057809,1.26018226195105,1.2619191485719,1.26245681542764,1.26302107066829,1.26380708611254,1.26408613077588,1.2813736816116,1.31670628201155,1.31680506091749,1.36386923396862,1.39102386870322,1.39050374093344,1.3806464585051,1.36984916412735,1.36987666082349,1.40437106456045,1.40779710408722,1.418603507168,1.4178615417507,1.41713383014673,1.41842309200436,1.41644833907305,1.44938672700073,1.45340970488665,1.52419705492777,1.54074233000603,1.54337931914886,1.57672832877914,1.59572532143151,1.57091437658436,1.56242803665166,1.56253869499936,1.56162474433928,1.5615987665602,1.56093288210574,1.56383957272756,1.55639535446192,1.53753100797768,1.53736183943041,1.62735110196053,1.63460243186166,1.64964737933215,1.65382695012459,1.6582369068104,1.66946462736289,1.62400705240199,1.62382003263531,1.62647798228967,1.62704972680435,1.65283411026033,1.67146332384664,1.62797374121219,1.62083667526448,1.61935661489955,1.6134866345477,1.54031423727469,1.54066353732987,1.57999574432364,1.54139497635671,1.55620429344374,1.57522301308637,1.59452699961027,1.59609223912553,1.56999301328836,1.54351756976943,1.54569526618363,1.57494118629935,1.569499714544,1.55981409036256,1.50185530172423,1.46078018377246,1.46050801121105,1.46024344579074,1.4275862136664,1.42866047810927,1.43106400537977,1.37983489922467,1.36738376492868,1.32986654893332,1.32146010579808,1.30464171851391,1.30543628032825,1.30852307109192,1.31059344557496,1.31003349928677,1.30773414999915,1.30472228592401,1.30066759809789
0.957679499195551,0.958254696020457,0.958517019008899,0.95921972642344,0.959260865615624,0.959690556407242,0.959361621695716,0.960735314756086,0.959870971350286,0.961141147501079,0.959702087167993,0.961597793494738,0.960084092062444,0.961127285343556,0.960939239484439,0.961875830114599,0.962762385362276,0.965076454487619,0.96408222769738,0.965847583112642,0.967527888363822,0.966766165045773,0.967578519787943,0.968352028747077,0.96909896775958,0.970124973544873,0.969844542929124,0.971799648240563,0.972916099358676,0.97436307097387,0.975509071044753,1.07520072931723,1.16506546241311,0.975175384136081,0.975380264658006,0.975898339923005,0.976001182328639,1.08158055978419,0.978205344442406,0.979244601820513,0.980077530830104,0.975996680525609,0.976119912083167,0.975495371537369,0.981583745211128,0.980991158524082,0.982160462704356,0.970273525630549,0.984822945416362,0.98618370223118,0.953352964769295,0.951239897746306,1.02181536413201,1.01094046587861,1.05895082105384,1.0777356563327,1.14515929658583,1.13192899341058,1.14724875391904,1.14229327836675,1.15850399297498,1.16841902634004,1.16784198453939,1.18588928944577,1.2409777762986,1.24188116452615,1.26352457789734,1.25320832626237,1.22144708697839,1.24722177871108,1.21117020989711,1.21666146898685,1.21656466471991,1.2166560709203,1.23142676278608,1.24540572737891,1.29669112225638,1.25593174631713,1.27905721866008,1.25220628557339,1.2529379517697,1.25518272711183,1.26318764140736,1.27954603305463,1.25996735321733,1.26147339473541,1.28599514299663,1.2623716151608,1.26373756894913,1.26318874887158,1.2596048405362,1.31791438183811,1.2833183008079,1.35178778464169,1.42189182312717,1.40519470504415,1.37024350142288,1.36994209712365,1.37066871088509,1.39608261535437,1.40087239315562,1.41845247641507,1.41809652651295,1.41599074831346,1.42333858359554,1.42009118813852,1.42410676780045,1.45505163154849,1.54341450330559,1.54135845670304,1.54705209535757,1.62423515760061,1.60600953551678,1.60695660898807,1.53490903196295,1.56247992643031,1.59774899622067,1.59778944656813,1.59964009342505,1.5778726524024,1.57794779105386,1.53890277102968,1.53862825424361,1.6137979537196,1.62101840368461,1.62478747615914,1.62463230086896,1.62932069284357,1.70303784984855,1.62761455630872,1.63061240871997,1.63057371459402,1.63023349393812,1.65666216378444,1.67880942104205,1.61832256906675,1.59253034979098,1.57064613171271,1.60414338296023,1.54145631132323,1.54149866386741,1.60668917142456,1.53265774219708,1.53174217342408,1.53075690184438,1.58281511552375,1.61265939633234,1.54519455383536,1.54326963900762,1.54912585368493,1.64891744210779,1.67556083845121,1.65374301736009,1.50760471165147,1.45678745829805,1.46173496929825,1.50092098410794,1.42721275338101,1.42719992031284,1.43148180084573,1.36613872006711,1.35869051738028,1.32876570554497,1.31407839488468,1.27550840860957,1.2755793500051,1.27442349212526,1.31024702439345,1.30832358759595,1.3061663245427,1.30489888916633,1.3081844012433
0.957965332398364,0.958387087300558,0.959434294561719,0.959890652717945,0.959971844863634,0.960143970070151,0.96038143405339,0.96009358981248,0.96241082453849,0.960282425850088,0.963262166790796,0.960175761127165,0.962217412081695,0.957819743861564,0.958900342005023,0.961384302596327,0.962767201238841,0.962771762942684,0.963473298148666,1.22601099592881,0.968299005391755,0.967939433037933,0.968486897709646,0.969545975559149,0.971243600753209,0.971632954940454,0.972230204001784,0.972778518185732,0.974781795990922,0.975635207429841,0.976486473788089,1.15639605115102,1.16180092287719,0.976576509645403,0.975928943059297,0.97591625601459,0.97568289598948,0.987972715299372,0.987461579367821,0.987663011209291,0.980978746651332,0.981727822066414,0.975880489955887,0.978290898854653,0.979564822413844,0.980429130267444,0.980695697774441,0.980993961100603,0.982108827921995,0.956004562637235,0.955814449215386,0.989853732158871,1.01690662491362,1.0612040344926,1.06903266328394,1.08086210349904,1.11454951861449,1.16052256471285,1.13765843997628,1.1382282080039,1.1477839291209,1.15730014282352,1.20004851031569,1.20069157026754,1.18432956181491,1.2128513240331,1.24465268683359,1.2444494679683,1.23279801913325,1.20908546119745,1.20869235833128,1.22577418809691,1.20977776315719,1.20763595088369,1.22065128710329,1.23830803037688,1.2444253333769,1.2535434135095,1.25341390069102,1.25315623318116,1.25322839175181,1.30177243371293,1.28872347430098,1.27795803062533,1.26004370910479,1.26076887849375,1.25914475020282,1.26488111309481,1.26198627332745,1.26078181015609,1.25948702337124,1.31994706813202,1.32004245639479,1.34926330126847,1.48589924330428,1.41962943801555,1.36842587017867,1.36828596471674,1.37116264917578,1.41296410318636,1.42859009259537,1.45592994449671,1.42915906041682,1.41613842144816,1.41559681947528,1.41730261114803,1.46199673998254,1.48014166037351,1.45252433489389,1.45203680394103,1.55038967556363,1.55101421894171,1.60565126020795,1.60670888778216,1.61060835204098,1.56268745836047,1.54313526409491,1.59860861068038,1.57381915775129,1.57414863304051,1.61533420926637,1.57061830169066,1.56443806111545,1.62788329049168,1.62675855041183,1.62443241285668,1.62490354923153,1.63242958331614,1.71279846680204,1.71257107874694,1.62868831030824,1.64060589679787,1.64336051403466,1.63433175291959,1.62751317438368,1.61099745304049,1.59406336141569,1.57266430789542,1.57125083642795,1.56609761512155,1.54335256384015,1.51572513296226,1.53652059172001,1.53733293896873,1.55256635528439,1.54765157500874,1.55146481512466,1.53960924299083,1.5315071698859,1.53158304150868,1.62745740847637,1.64988782308364,1.44091929895788,1.4400331857314,1.45642502305711,1.46375107010945,1.46208447721117,1.44728925617554,1.45178224405598,1.373509468704,1.37017048358175,1.33044464200267,1.34029488401234,1.32872697416973,1.28101342712298,1.27791851192224,1.27438352714169,1.29326495118572,1.36173525296685,1.30817755167619,1.267755074465,1.26672077476533
0.958355230356034,0.959175875549283,0.959804445499035,0.960611389605421,0.961077654837055,0.961397539442944,0.961210615068994,0.962996330128837,0.961847711255894,0.964203820555056,0.96269300640467,0.963551472272073,0.961052318868054,0.962140581190262,0.963578436164383,0.963599112237904,0.963626306967075,0.964237977952346,0.964669021858071,0.967328596848082,0.968554146659933,0.968874203726649,0.969175260660058,0.97097763348247,0.972580980354852,0.973033706366498,0.973900939699409,0.974978943119625,0.976053326801326,0.977535188274731,0.97764556781892,1.04876618826071,1.16460392836793,0.977067445763877,0.975687287628189,0.976006393541163,0.974621174565215,0.974903229738194,0.98747438714476,0.98611381840634,0.986028880195124,0.981887744988126,0.981347205107793,0.978007688444085,0.979110940176691,0.978720682459061,0.979712969063923,0.969864707550634,0.954264423702805,0.954897651314663,1.01547986620789,0.975813671681502,1.04899867735758,1.05054864111188,1.08603148317718,1.08634679283468,1.12985497637621,1.13295890221164,1.13564304446448,1.13821155259206,1.17852482805097,1.17718089807675,1.14773404463876,1.16549536313528,1.1804862440931,1.17518811319022,1.17312425818839,1.25848264848713,1.28124634594762,1.23806447852562,1.21972398646217,1.20991905289418,1.20943392563024,1.19513144661818,1.21329609973434,1.23551873759985,1.24081777057353,1.24036275784025,1.27619747310517,1.25770768079803,1.2693743347981,1.28652635946122,1.23477942082881,1.24334319016037,1.24293944390048,1.24682797365385,1.24140721891211,1.26762976466676,1.26719873158704,1.31667944156296,1.31752678841089,1.31863991286499,1.32026388048875,1.35208957028514,1.48790971357683,1.43575193199238,1.48839484884615,1.37439951449326,1.37473597245554,1.41287769547055,1.41525107765067,1.41502481979875,1.42900359729479,1.41642414862863,1.41588656871508,1.41596662406156,1.41588818925642,1.44756059485317,1.44370648911319,1.45271316122675,1.58888345891008,1.55478844193265,1.55432891361878,1.55405135898066,1.54136999620401,1.56380269006254,1.60523656732106,1.60131375623704,1.57407353140024,1.57381297178162,1.65489135462605,1.59744981722108,1.56503567606817,1.66301732957821,1.56011556830328,1.55727324168732,1.56309451620671,1.53041769097842,1.71153379263531,1.71145329802892,1.6405993169388,1.64018188627617,1.63986639467362,1.63823123341965,1.58787660894822,1.60458864317987,1.63471340332263,1.5730168196065,1.57033567101681,1.63647037678186,1.55445763244944,1.51668038024637,1.51650770633476,1.5434232574854,1.54791458064208,1.54454915178461,1.58897958553252,1.52366745066279,1.52274030351074,1.62662883957335,1.62692939830832,1.62600236837037,1.4451334855752,1.43999208395058,1.43150509856581,1.46711294300359,1.50408289357579,1.5201830412526,1.36612356473273,1.39451246637022,1.36137663444097,1.33283616002664,1.32054822204899,1.31393918695113,1.27872076410205,1.27834487173374,1.30110814076418,1.27718579654072,1.27914185805039,1.29881422235566,1.26989090348983,1.26863505499139
0.958527558635598,0.959560417506265,0.960875506363956,0.961116526489753,0.962101621890137,0.962326761846889,0.963120482840802,0.963321487692796,0.96463394274586,0.964433774727647,0.966746656897509,0.968741633169436,0.960943702637496,0.960516013268842,0.962499085341964,0.964098821077783,0.965362542134134,0.965445791342488,0.965449487113071,0.966930417381143,0.968708735218546,0.969963003249424,0.97061152380673,0.97190064906361,0.973322736807262,0.973751024276431,0.974556692097766,0.975110580508368,0.977074951325533,0.977226726948658,0.977953377224729,0.980296384099942,0.982109755926689,0.98172494074713,0.978461367467544,0.977417382333438,0.97578753932594,0.976360326732932,0.97741015507671,0.987980142777532,0.985850616293802,0.985346095903602,0.981713580120937,0.979682298080379,0.977292875878969,0.975987429727688,0.969815840321109,0.96878774239907,0.976373014319448,0.956489579412487,0.977875833452893,0.977832848773016,1.04799287113726,1.06481298933211,1.08488595424146,1.09175751015481,1.15727977153379,1.17173000993389,1.16291475954644,1.12393830680305,1.1238453710606,1.13748420933227,1.13872917679809,1.14857807205658,1.16492103808335,1.17224077320362,1.20072479440437,1.20066640933665,1.24705102669227,1.20785487605597,1.21455820685789,1.20648954339827,1.23215388866047,1.20939908473759,1.21108487533699,1.23095130818728,1.24142099730461,1.23911945945394,1.24327768711698,1.23954255710106,1.26245821490512,1.2407673372123,1.23309949851229,1.25300846474683,1.30439258988459,1.25162772483004,1.25604243243307,1.26853348709171,1.32426939758089,1.31880664399092,1.31808801123762,1.31772570920806,1.39554062532818,1.35281593511944,1.35917121080181,1.38600540717196,1.35872884751763,1.37956924232874,1.51655017383688,1.41806697911061,1.41636243639273,1.41254782124778,1.41454445049657,1.41432407399906,1.42334467244851,1.45192400280921,1.5341199357839,1.44411415056354,1.44296588579615,1.44148885171054,1.47079035838889,1.55947357796645,1.55162378043656,1.54750761376285,1.54448957028474,1.53905607558739,1.54367710442892,1.55297989519218,1.55346549435038,1.58541461773936,1.64883577775693,1.56522431214516,1.56493065895266,1.58560197297664,1.54476373305239,1.53939016147331,1.54517639326401,1.54906529257062,1.55102068296722,1.70282557541767,1.65648470856343,1.63994801221988,1.63904210474169,1.58851211107961,1.58789425676797,1.60162440769541,1.57011976200474,1.57045567760824,1.63366446645744,1.58857177240196,1.57580633200514,1.51813435759078,1.51849856489003,1.5190228953986,1.54105713198789,1.52978673122986,1.52432621947793,1.52292985391496,1.56139243479257,1.62700037367364,1.6269726591272,1.51613933840176,1.44333765923151,1.44246533850579,1.44022890246591,1.47000656811849,1.50344188017691,1.52020634480834,1.34874730312505,1.36420678178788,1.36378926250817,1.36304789815454,1.3526849283289,1.28881828940817,1.27941893064899,1.28002827932923,1.28461080596994,1.26224761197518,1.35553778297689,1.32629853672925,1.30837037399562,1.25630054538622
0.959375307647809,0.960166745588915,0.960947894052927,0.961818782102078,0.962470393829519,0.963304975543667,0.963944695963674,0.96507035256263,0.965556491758108,0.96683214832587,0.967736676385992,0.96913803848434,0.961193578990352,0.961711790038789,0.96415756350975,0.965716642714571,0.966376873866635,0.966841098466007,0.967262879533972,0.967945227521407,0.969188940412216,0.970178279101939,0.971249731115068,0.972236799774105,0.973538365803039,0.974311624080268,0.974860138924974,0.976124346428729,0.976727061616313,0.977931100745175,0.978413951781876,0.980847210010094,0.981667793958521,0.98195718152218,0.980562829790632,0.979408559832415,0.97822384541689,0.977984092766212,0.978853417125664,0.980560227201062,0.982642044254933,0.982404301798285,0.981833566808691,0.980780559993653,0.975501491323043,0.973621054083971,0.970472431223617,0.968663990383203,0.967044858401109,0.966122171072627,0.966826680579039,1.00984482269198,1.04993310839361,1.06433283574581,1.09694580788652,1.09882800080793,1.12534964452377,1.13729138181792,1.13372129595539,1.13072964712981,1.13269295736003,1.13492960194112,1.14245923217903,1.15054795374472,1.16907446613728,1.1702101988724,1.18289954525709,1.1901308862779,1.19481774789818,1.20056932777931,1.21964682247204,1.22179135012308,1.23184239685828,1.22837669443386,1.22406261772053,1.22574783555035,1.228968727762,1.23272391691872,1.23674575274581,1.24745109796096,1.25482342185286,1.24367942005825,1.24587880515484,1.24728557611405,1.24897061573346,1.24917354157453,1.2594507081517,1.27242089456931,1.30134632501607,1.32100657103626,1.33884475346066,1.3588979638185,1.38817278803233,1.39358982259535,1.39722217163795,1.39861579767707,1.39999664897838,1.40373440300083,1.42804196749486,1.41716017932096,1.41696629171089,1.41723313400138,1.41966447207007,1.42184530698199,1.4508323874272,1.4749637832902,1.49806420446379,1.48129691840342,1.46907975869746,1.47671786776693,1.50298433856285,1.53995057299644,1.54075364452289,1.54283127258944,1.54263409379407,1.5403284273655,1.54156594056171,1.54987839115358,1.55083111809666,1.57921990528852,1.58997783849734,1.56065323900961,1.55744339611033,1.55222278642833,1.54019026693289,1.53716930395096,1.54161647716131,1.54362851286366,1.58400848659432,1.65577052608526,1.65266796990735,1.6504275230851,1.6472636124255,1.62268920662515,1.62228154529708,1.6044316346792,1.56968482721716,1.57120460042365,1.57792372741754,1.57884906137116,1.56246066487124,1.51921892289217,1.52019649151687,1.52388421955857,1.52475836192798,1.52362220983946,1.52377989409029,1.54080651426938,1.55105830481018,1.55962180737444,1.56445245180096,1.47903032072091,1.44370602139012,1.44352145177402,1.45743657819832,1.47331291722458,1.47531766693114,1.41870421123102,1.37407534960979,1.36374740402823,1.36330579535873,1.35901276130706,1.35055243939983,1.29852673370024,1.28966660836083,1.28740118255724,1.28452788233531,1.27232575151046,1.26715061951251,1.26301686730275,1.25815764190699,1.24491089128843
0.960775639255315,0.960070373326843,0.961583808890045,0.962201962252487,0.963040029988076,0.96413663542922,0.96517265219444,0.965994157640747,0.967485799548031,0.967835230981112,0.970055935186672,0.971262544984641,0.960313465709851,0.960235545695099,0.967137316462632,0.967671732909144,0.967274311701757,0.968585486359985,0.96806507356823,0.969287968565789,0.968975019315097,0.971149584939267,0.971310452218215,0.972664992826285,0.974181644819024,0.974804429003466,0.975652406832912,0.975754980041382,0.978326164928064,0.976460610585787,0.979707032244997,0.980412146508851,0.9839352740884,0.982400292679841,0.983285031048415,0.981184688625511,0.979682368418143,0.978993729924407,0.979257886262043,0.980153061785247,0.980781935773234,0.981307813962242,0.980849244232677,0.980896047170711,0.967327216439888,0.97022404974019,0.959184723809731,0.958922999094535,0.956844923017275,0.965507831970937,0.962210948039246,1.02816037538502,1.05221355522755,1.06358036451048,1.11378195555223,1.1058294751001,1.11081093026125,1.14269373522756,1.12774437569516,1.12877980009292,1.13453188996448,1.1332645451855,1.14472780042794,1.15009354020982,1.17351422356803,1.16986678115132,1.1654490562131,1.16380159966857,1.17847737849558,1.19889540652782,1.24652905243667,1.22388624746055,1.24595704208309,1.22721592134939,1.21832578245843,1.21821759623267,1.21716098862102,1.22840212338917,1.22858362425697,1.26664459046283,1.26729935289541,1.24303748482091,1.24581576818944,1.24470860093431,1.24311704672425,1.24679370395083,1.27834560444157,1.29364235596767,1.29497400592966,1.32420009837041,1.38416540841244,1.38443870569742,1.38224590142576,1.41757028182888,1.43024786861019,1.40768578590611,1.40930393671054,1.40847063921553,1.43812489025996,1.41850483934833,1.41784193971899,1.41640371666232,1.52535253716058,1.42816763673496,1.52180422508643,1.51675921867954,1.53374914986735,1.53171621466879,1.45048222647475,1.48596467057663,1.51262929467886,1.53891524266868,1.53632527224607,1.55822135951622,1.54705761715622,1.5475454815708,1.54612793243617,1.5534179290366,1.55353121490177,1.54163959051391,1.59431079346987,1.55421883976841,1.55186468589897,1.55047633851193,1.54618184275774,1.53895099085554,1.5449337607241,1.54610346083454,1.62818654687682,1.63306071033005,1.70917072189629,1.65397354182059,1.71582721646317,1.69927460339584,1.70038244787138,1.6067645463667,1.57692872841282,1.5761719976811,1.58149416506992,1.58133271598598,1.53082578571717,1.51884379225598,1.51944995746382,1.52963413644217,1.52960697370884,1.5260229309932,1.52745785282145,1.5614274153621,1.50687804813658,1.49521137157611,1.57126992995049,1.43373120352272,1.43380995462625,1.43325484998148,1.48483720443025,1.47531746930772,1.47774002985736,1.37714503422595,1.40101047052599,1.35363919910249,1.37391816743072,1.35629323469399,1.35149416325154,1.32920798113018,1.31021785204842,1.29173771812326,1.28263664520688,1.41024874446377,1.24903808415817,1.22390267654072,1.23918421968786,1.24090782639601
0.961697059695144,0.962922554073105,0.962192987639615,0.963434231530091,0.963274071577509,0.965623562068471,0.966312950282484,0.967809894691183,0.96927790230741,0.970361852978564,1.05152770791441,0.965938102150284,0.96400766576413,0.974764382593064,0.971930491391836,0.969774629194414,0.969467488174659,0.969139274138552,0.970606464480509,0.969244455209944,0.971036431551072,0.971128964729374,0.972867360173883,0.972998847745404,0.974928626601922,0.975925105307209,0.976027923025562,0.978358325771217,0.975869817080581,0.979059159616086,0.976486685978905,0.983468283961191,0.98182592921547,0.984305372086201,0.982833297137683,0.983098320440627,0.982577734831005,0.981132490687754,0.981034923997436,0.980519642745698,0.980950840285973,0.980817099255086,0.980632229569526,0.980431618962561,1.09638811040024,0.986350345575586,0.986554036467058,0.965206315044032,1.05644678115454,0.964577317990765,1.04675352913604,1.04121720749132,1.01714202381515,1.04844638458837,1.04843676891052,1.07689258429899,1.10520162769201,1.11180048336323,1.13125693066985,1.12970381268006,1.11957744576081,1.13269399443538,1.1336286780783,1.14901832981201,1.16030097415989,1.16173324117009,1.16355431334988,1.16193466945627,1.18658317973799,1.18932340805356,1.24723994379641,1.21653651153984,1.24278769094841,1.22802003544839,1.21710368783139,1.21790497992539,1.21727670501503,1.2272345416611,1.2300370308847,1.23007717145,1.24132583259909,1.21413115507581,1.21676632276704,1.2953984868094,1.24160926515191,1.24598973293699,1.28191600209518,1.29758288347665,1.27989135204828,1.31400559725913,1.39799657701946,1.38484317872523,1.40002253414838,1.39541085028203,1.4142299700266,1.40914690726527,1.44364844617847,1.40807826762721,1.41942683796901,1.41923497046901,1.41778397075734,1.41880651958959,1.42025374080039,1.42007652925546,1.51899641243069,1.51576827377828,1.51774883723424,1.45262464280165,1.45343015784089,1.45420935080771,1.50762064033683,1.5142814746046,1.52714419090884,1.52517860021376,1.529517724249,1.56328306958098,1.56463124428968,1.55444139783158,1.60378833434133,1.59516892896925,1.59387555823898,1.59212617403875,1.83013995311827,1.59573714782129,1.61281427178138,1.62485676399276,1.61253471228347,1.73864740703022,1.73760429438246,1.68528981776815,1.62104532883512,1.63808280843848,1.63546964880803,1.60950016903766,1.65196850655934,1.61222229661574,1.5945639949321,1.6281050707572,1.60426738498017,1.58235269361672,1.58181069033398,1.54682483785631,1.52388540505188,1.50528471861331,1.51944669687306,1.51895073143733,1.51888849037684,1.5341437828983,1.49182417251727,1.50633519401048,1.45285337249932,1.43144502810074,1.48051180084383,1.4819861445479,1.41829922055451,1.41881027891674,1.41599314780394,1.37522898699475,1.37823119387447,1.36251330941301,1.38286978514243,1.35730414692619,1.39307236948151,1.30413895953579,1.30528807851112,1.30844530648775,1.30736797071003,1.25885164871496,1.24713520566823,1.22559937648996,1.23860052979953,1.20819304087204
0.968075000375571,0.963679858256971,0.964760338598253,0.965509971841491,0.967522778680101,0.967652186406052,0.968388713658021,0.96924358741613,0.971661986644726,0.971604427109127,1.03908416652007,1.261876037356,0.96598577575173,1.18329287322478,1.02529829954683,0.993824733641038,0.972366688556634,0.972481143113307,0.971508836312866,0.97295876121343,0.972687273084027,0.974613503117929,0.974194303721701,0.975560685322744,0.975856228175982,0.97664810130108,0.978051430947708,0.97629069273202,0.978333662759621,0.97623459774014,0.980749925648535,0.980623786913049,0.983527276101999,0.980948202679116,0.983694996947571,0.984496875978007,0.984413479747133,0.984287451169137,0.982722557761978,0.981735868522682,0.981293016210365,0.982585840509692,0.980431738804123,0.983034828585446,0.98356358599503,0.984550446427325,0.982643155159012,0.998285895535426,1.05636519817623,0.992761459563046,1.04543498328243,1.02899328308188,1.02984928355011,1.0409370582897,1.04899239625621,1.05025303171218,1.05013261115831,1.0936783463938,1.12183093391789,1.17998686101839,1.13011194107702,1.12885058969188,1.13363594000077,1.20806540289222,1.16249172340246,1.16279207161237,1.16284124595836,1.16197449067519,1.17051884303099,1.20512286233591,1.20452291469405,1.20695445593423,1.30782839468518,1.24760117116923,1.21570661725405,1.21933447975798,1.22365731664035,1.22386642006474,1.23572130939233,1.23201221038348,1.22094618988182,1.2444345510661,1.21786311326055,1.21769877542699,1.24404683919454,1.24459559851243,1.24351079487922,1.29808879577534,1.29978091374829,1.29562737331138,1.38644742928556,1.38601966985556,1.39985249889327,1.47178663488345,1.43022681876649,1.40783402994851,1.40646945608707,1.40653648328512,1.40706126722002,1.40733766625082,1.40627785544398,1.42009787313928,1.42331350893369,1.42391699101602,1.42440181241111,1.51302095535964,1.5176138848031,1.54136584809061,1.4540461817198,1.45381121516574,1.52542062537193,1.51423981304726,1.49993417121908,1.51113589142205,1.52400701148917,1.57391771109405,1.57621532570024,1.7486720784621,1.81446421788726,1.78138590708929,1.59437790035488,0.00370348937052283,1.81977561168997,1.81917487916707,1.81880775589826,1.64248167097646,1.81772673645787,1.8336107021682,1.61641063467258,1.62087032479377,1.62113213922065,1.62074603268227,1.61546747560658,1.6095467880183,1.62270923990341,1.61518094294106,1.58795833467897,1.56470385977176,1.59089450350875,1.58257609898279,1.56073394829211,1.56092827931217,1.5080399340161,1.50906742878018,1.50939955753065,1.5067601142384,1.49494390274942,1.48592940545528,1.5160092273484,1.47248410197659,1.47717287700292,1.47160972160807,1.42826019540797,1.42889113317679,1.42085276754047,1.41868235239117,1.41672758121876,1.45801462587859,1.46494103747718,1.36779852868675,1.36231753811078,1.3604005459085,1.30180940756687,1.30155171651557,1.40039748809239,1.32118863205749,1.28937264353932,1.28154379680035,1.25919874073006,1.23857847278152,1.21877081786658,1.24737421336078
0.966893636415795,0.966143344866935,0.96581362383304,0.968440332488393,0.969095740286142,0.969872173402357,0.970333363184264,0.971397030407187,0.971664790616584,0.972073049794544,1.06257477619858,1.01111495565647,1.1033373796162,1.02990262397846,1.02311134450937,1.01179738547979,1.02449775841167,0.972566635581435,0.974058627813124,0.973977142564911,0.976194336695927,0.976051024690269,0.977900834084726,0.977716421742784,0.977591262378318,0.977956798195933,0.977597393280707,0.979189011271061,0.977489683262662,0.98134158296814,0.979824356694579,0.984012040398854,0.980471552305811,0.981246285741296,1.20082767047141,0.987310996907389,0.986141622417929,0.985463634772153,0.985165528102329,0.983519156934803,0.983491909936572,0.983121997467963,0.982560421719969,0.970877467309649,0.969845970358235,0.974586510077503,0.968247420315343,1.02044321819662,1.02093164859048,1.03118214155863,0.999189450122107,1.03434524859055,1.00323674333602,1.03213029965685,1.02894754700069,1.0497758915236,1.04590961514385,1.06811093313979,1.11917122591051,1.18957092446311,1.12931342285267,1.1294862538978,1.19275089032362,1.1470174189886,1.16436355233495,1.16398864507413,1.16326395530761,1.17282151317348,1.17047706088634,1.17577836110515,1.19342795467056,1.20220700096045,1.20331421318104,1.20453262308313,1.2217963860686,1.21995864728078,1.22774193746142,1.20987407033508,1.20658209086506,1.24984617769901,1.25646250726595,1.28332695430845,1.22057759703486,1.24354786311501,1.24391043334773,1.24303563122143,1.24109643802941,1.25973287273179,1.27430799787945,1.33663039161161,1.35448832177616,1.37288008823299,1.40132113338109,1.38122931746325,1.3825154998435,1.38411432794459,1.37856990069973,1.43053996709943,1.44107435633389,1.40707266615919,1.40648844937231,1.40645202557849,1.42284572283687,1.42335515754502,1.44550238454959,1.51098429891717,1.51684420146292,1.48103483514108,1.48200350878594,1.45554786529486,1.45528645176106,1.49446686512068,1.52418201104804,1.52336548212441,1.58211079980308,1.57870693835302,1.59748386484137,0.00371091063040508,1.80922492246396,1.78091388342813,0.00389424673492433,1.92141518085197,1.81963702926801,0.00399105200215058,1.91507782890591,1.65821582395581,1.9151040524312,0.00371768504313623,1.81150364506669,1.86388950753189,1.66645678422806,1.66511058969791,1.66245620755231,1.69402808718603,1.69331713757737,1.61401643411774,1.61584768715707,1.55786253298297,1.55782968082471,1.67660108988166,1.530971587665,1.53782888654556,1.55151798869565,1.48691890150472,1.54920921660966,1.50778885659378,1.5117264280448,1.475735117623,1.4924046755084,1.49115529430391,1.47298846138922,1.47193377882231,1.40314783772767,1.43099284508059,1.42796845025383,1.430660172196,1.47800164985525,1.44587261129357,1.44527751203933,1.39736557655216,1.3994687249895,1.39929085186319,1.42017806461814,1.34387713683859,1.3684033256527,1.32628391749514,1.31426599392182,1.31400381843182,1.25035287698244,1.24143593060972,1.22248157319321,1.2828986077396
0.969493239705866,0.96902283669681,0.969362697239072,0.970060069187303,0.97095652153867,0.971442357406632,0.971921816925159,0.972306753401346,0.972364759936332,0.972390248629987,1.01683442483101,1.01385690686031,1.07031438360456,1.05166240647154,1.02081036745973,0.999844446549336,0.995652708169147,0.978229928894158,0.976257534222701,0.976399201200046,0.976747332128348,0.977964703044704,0.978323492147452,0.978622352121817,0.978653513285456,0.978816476300485,0.979190983776419,0.979108671277098,0.980126051576836,0.980533368770958,0.982594371564668,0.983773604943574,0.988150972731593,1.01902949148832,1.05359913614762,0.989281264981539,0.987958789233218,0.987141287315627,0.986121896696988,0.985109688249341,0.984009850805673,0.983867479255034,0.983842266658617,0.985585543605677,0.986168849260517,0.987164000026246,0.986922258140008,1.01572919558003,1.01443255413492,1.012991043603,1.01286319381447,1.02172748957699,1.02993660064894,1.03447981986725,1.03552578217027,1.05109778612607,1.05065225479389,1.06853741576863,1.13618218534325,1.13965730061777,1.14105775496877,1.14355931119476,1.14562650428355,1.14646036640221,1.15450082183702,1.15617847896852,1.1592781415561,1.17093804851783,1.17039781655339,1.1787170758311,1.19497919352568,1.19829427417752,1.20060598759869,1.20719263939748,1.20963489537409,1.21211709812624,1.21253425196316,1.21034486400251,1.20901397964986,1.2377369016704,1.23408718683906,1.23300114629489,1.23184484895935,1.23603687316701,1.23877910625565,1.24186139811118,1.24633601919557,1.26043324540992,1.2770204200504,1.29964774102392,1.33109390643188,1.38351358119534,1.38546524050954,1.38480584578879,1.38497241831825,1.38520506722755,1.39702475189874,1.42942263224114,1.42615840761059,1.40629571207361,1.40665090806208,1.40792129041453,1.42456324985841,1.42776210387809,1.46499485455698,1.50776005986501,1.50722724057914,1.49944334636307,1.49189497421446,1.48032223289454,1.47937453512352,1.49050253233732,1.50141226438152,1.5216918160054,1.56882533835121,1.55912905762324,1.55142685889739,1.26527349893287,1.26527295587605,1.26527349893289,0.00336875086642173,0.00242945511908944,0.00259055581957258,0.00357314873346483,0.0727070515173079,0.650562084081146,0.971266565084676,0.971266565084653,1.69403601867872,1.6958093053228,1.67525879009623,1.66926074505983,1.67558732796715,1.62544676244163,1.6209197518654,1.61400309138594,1.60746218693482,1.60153097495096,1.59832262590951,1.59838734214094,1.57242637143866,1.54752677830562,1.54554284980245,1.54350760449858,1.54326595156043,1.50717468589747,1.50525145700227,1.47370602007369,1.47479584193988,1.47570539863875,1.46988130650899,1.46950435304593,1.40899435333371,1.42078118775172,1.42908199712887,1.43076254048372,1.43805163380339,1.43922735164496,1.44100278163419,1.40026710917916,1.40107824578267,1.40035524442485,1.38731535794325,1.38510423170317,1.37963330743989,1.3367324654194,1.32457803376496,1.2804174765238,1.25160139011138,1.24157224828127,1.22493521748727,1.22612774661896
0.971649955610792,1.15378266609385,1.07149324361832,0.971024173783509,0.971997366490206,0.972398030697086,0.973044747934292,0.973022151366037,0.972997060194821,0.972423310019791,1.01997536010757,0.974581809392815,1.33140334408567,1.21673660904706,1.01861010159663,0.992885935756146,0.9884875679818,0.979364886154219,0.978179147877013,0.976345717819098,0.978690250174765,0.978906018493693,0.979865289278894,0.979141423253867,0.979394271672936,0.979499606824329,0.979384919301796,0.980594423469029,0.979551544945198,0.98214860907417,0.981490535865639,0.984171628732094,0.992376234456444,1.04847775990798,1.14984039612465,0.99022006208929,0.988594807216233,0.987892951367856,0.988035168549321,0.985821474790217,0.984382240828657,0.983269287193906,0.982972448633688,1.09518182823671,0.985862871101636,0.987124320216807,0.986052596645948,1.0164475329821,1.00123824277793,1.01087569336926,1.0139498254777,0.989086652223845,1.03778206494285,1.03663849698112,1.03686386283343,1.05104322458848,1.05470026850996,1.06860743350768,1.18925438438587,1.13996685932974,1.15946867633433,1.17958594462247,1.13465015541522,1.13596229137943,1.1513992066531,1.14767177422972,1.14754463057073,1.16902416835848,1.16870917005927,1.18031163130289,1.19361624622239,1.18893008629212,1.18793413953876,1.22063180940707,1.2062359081646,1.21455975477257,1.21495656745876,1.2109113305137,1.20948117807604,1.24342432123828,1.23230455830808,1.23158334435457,1.22556807370146,1.22532520461596,1.22552842245111,1.23874015892897,1.25283111567131,1.2609435339507,1.27957498508241,1.28082582112701,1.32646778263749,1.4216385586399,1.38733389675841,1.38781552673831,1.38782952500276,1.38836406316067,1.40532999668961,1.43101369690703,1.42298709801209,1.39236192450383,1.40639462158118,1.41148075986059,1.42574260431813,1.43786310398146,1.50595651447139,1.5063396326628,1.50559391237812,1.50378803610415,1.50061259293045,1.48242772769491,1.48032296973907,1.47896877753581,1.47978736445488,1.47942833855569,1.57369124111115,1.5505858951479,1.52014474603713,1.71464642857273,1.71438169566973,1.71380727680976,0.00346925302423791,0.00350898921719011,0.00360440602801808,0.00371277956874456,0.00386487850664134,0.650562627137983,1.915978169941,1.81715519025157,1.8018505748888,1.79079877600414,1.65898510906984,1.64960429179949,1.72554292925549,1.56646241016487,1.56413321310461,1.55791439667774,1.56318864410931,1.59815281986332,1.59247196382408,1.60090373245265,1.58834923135232,1.55119123522242,1.53687165105239,1.54419459702518,1.54308131485357,1.5071593522301,1.48211190555756,1.46444188256513,1.47788728863813,1.47906803106724,1.44245422265337,1.49141026453372,1.40363025049521,1.40306362287536,1.43467208980326,1.43234741655784,1.43535012789383,1.42412509395335,1.45201518275587,1.38379284800013,1.40325588561127,1.4003655129748,1.30191061992093,1.38936834916416,1.38907298201137,1.35013563681245,1.36685602537098,1.27386915918514,1.25326010533838,1.24133958787833,1.22513536541918,1.22643854245715
0.97242634987202,1.09934262748062,1.00141525576797,1.20286436426925,0.979745479394076,0.977115164191158,0.974623744669144,0.97464005598548,0.974213893635471,0.974677215933768,1.0394036814002,0.973575827706274,0.9736237763066,1.0044643955251,0.974979217366649,0.980709333376133,0.977792898227761,0.980879976943116,0.979044654145921,0.980015603410601,0.97977558889627,0.982312411449001,0.981089850704574,0.979301895664823,0.97911972962223,0.979579721852317,0.980128907888358,0.980529250567943,0.982522938849951,0.981355158099286,0.984416123057126,0.984504603317091,0.991882359690768,0.992313992047011,1.06616112687024,0.990895609542005,0.988750568331229,0.989264018564158,0.988278375257292,0.986205283920684,0.984374408159167,0.984438459170809,0.983721153543554,0.97736369706427,0.987171393257199,0.988008158584296,0.986656853449265,1.01493983216408,1.01313061501208,1.01273016194614,0.991659837331228,1.00499998158269,1.00528312160788,1.02323421174531,1.04839295020994,1.04935538047548,1.0549900679994,1.11658498231378,1.13380195473477,1.14482789330739,1.14162992296651,1.14075847406376,1.16049488011202,1.1638943182706,1.14348424113299,1.14530889847274,1.14546156101553,1.16652108938654,1.27601925908857,1.19486234317168,1.19181167779026,1.20474838130807,1.19623151135695,1.20755866297974,1.21276342679287,1.21476918382297,1.28675343009348,1.21104567117893,1.21043170403044,1.23736306375891,1.23262979804421,1.2315902376654,1.23222837671604,1.23188522107144,1.23238875091908,1.23459076316557,1.23195125163369,1.26235488750263,1.26586347737769,1.34606796887555,1.32666517484699,1.3292019174588,1.3365179909493,1.38842234573461,1.39984066599472,1.39345764153478,1.41291438978044,1.40992578408706,1.40899271603336,1.37973653514924,1.39432746876371,1.41929802642636,1.42824186832276,1.45352608861491,1.54076325932666,1.53466302829814,1.54076324726405,1.50922662236576,1.49675002244549,1.50659402079963,1.50410915205488,1.50223676848056,1.48482195482056,1.55377014198911,1.51522811840713,1.54469406965896,1.62530789428281,1.62694553394499,1.74191512701188,1.91708050150949,1.89944765028033,1.9414412380625,1.9060656660548,1.8693614830405,0.00397167138388336,0.650562084081146,1.82145255092713,1.8202595177898,1.78194085999404,1.7835928244413,1.65353132167473,1.64842846804613,1.59261588672925,1.56655236319098,1.56529481379847,1.55806918655977,1.56331820015258,1.58265396932702,1.59417355148553,1.53414617195482,1.48940877951539,1.58757078010344,1.58742509291233,1.45975890129027,1.45974997290147,1.46451504957505,1.45124449540018,1.45791027514559,1.4558972598006,1.45360149338244,1.46476562438653,1.45171317016482,1.45247107581248,1.43347441580374,1.48246836053398,1.42888551834746,1.42684365012977,1.35040665417288,1.38678785936826,1.40591214220361,1.40401847326074,1.33426168971056,1.3885776757368,1.38042701379762,1.30932031729609,1.31683081532646,1.32241868073787,1.33417404445367,1.33416841884853,1.30964654965051,1.20466640199302,1.23562298577874
0.974747677359646,0.975386234613486,0.992228525915456,0.974112067948382,0.991122602771639,0.977844042196243,0.978826656683713,0.977240516107323,0.977595749012692,0.97677273938155,1.00028755368209,1.02301465236659,1.04641919791907,1.00613688662999,0.98975903802326,0.985208690564743,0.987658718382891,0.981252893072478,0.981804460666243,0.980309654540002,0.982627101541629,0.982454177849501,0.983168914974114,0.979454565814262,1.08491968867137,1.00785710168364,1.02863411009728,0.982216826134687,0.982648156799075,0.98449662825076,0.982788503035196,0.986685379166176,0.987794065050309,1.06641462902181,0.990474669595316,0.991413114166495,0.991345786339612,0.990323956190945,0.991865329997263,0.986517576139834,0.984878589644483,0.993543925068663,1.10358209750591,0.98385472824093,1.0952167929371,0.990034043645312,0.982915978837878,0.983334311139257,0.98651285303065,0.988281831584647,0.966782076751927,0.986159934371243,1.01098890005604,1.03323937054513,1.0544451293919,1.04799725297342,1.03224377348756,1.10165661729057,1.09746386896799,1.12345388829154,1.13285923314837,1.21269243365671,1.19457799654565,1.14529478150882,1.1449796982817,1.14558234612577,1.1466495420496,1.19996965597627,1.19967237483463,1.18392335053287,1.18350480074092,1.20475901544147,1.19640823202803,1.1955046623014,1.21454486239388,1.21566580251854,1.21522476826415,1.21486749054612,1.21282575447729,1.21351453814986,1.22761746746041,1.22913843996112,1.22984881865551,1.23142823710986,1.23865857155168,1.24241303204581,1.25651619063713,1.26829518681146,1.27980698075677,1.33537361960923,1.36679717078347,1.36583032239476,1.3667461348869,1.36767093578438,1.34655930867404,1.35316693123613,1.34606880158748,1.40733403169217,1.40699286534659,1.38610785945258,1.41685194391131,1.41661658599001,1.43125328957001,1.50154565687946,1.50714170680942,1.50816145786805,1.51350922284156,1.51281732632423,1.51304008951753,1.52853821029206,1.48537767117248,1.49676955970513,1.4929073222315,1.50382934564245,1.51016685843475,1.53848534465384,1.5298339913536,1.63859134581616,1.78270149959244,0.00417886503561386,0.00402830244961874,0.00376999799612699,0.00380516029395396,0.00395048688569869,1.81495548772854,1.06568062949272,1.81549711405181,1.7648174115268,1.76562763875084,1.76301041504428,1.76469124490303,1.54000721581928,1.53876983668957,1.54940477718578,1.56940746438982,1.55302447798597,1.48123746060438,1.60674089201488,1.54287859302661,1.49759627637883,1.49678737801438,1.5089827237094,1.46361265405624,1.46270857488923,1.46879219814401,1.46713693024522,1.45103083691112,1.45108311995311,1.52934036695325,1.52901178450244,1.42540672969478,1.43915576682863,1.44052093107354,1.4135543040017,1.36708306383889,1.36233609523507,1.35748718997671,1.34060331477627,1.33390884258227,1.34022507250227,1.33688962769374,1.29228986907711,1.29541533299301,1.296163423477,1.27442855596484,1.30817522626241,1.31877704941189,1.30712754381064,1.30674284754449,1.23565353624202,1.27188391260624,1.18796296134316
0.97680090652441,1.21531179760883,0.990236318054015,0.99093596623807,0.98082440125888,0.97979557738795,0.979180588257172,0.979481711467462,0.978100849892828,0.978391708941082,0.983208904980964,0.98012068659634,1.05301879951456,1.12326524947547,1.11651226972433,0.985155526409722,0.982373501543697,0.982347596990398,0.98202784474925,0.982964149587756,0.982574694442026,0.983923423710756,0.983939176002761,1.03317201448739,0.991603660133568,0.992102419101419,0.994358272525086,0.986004405375285,0.98748900212299,0.986552690741777,0.986482252681038,0.986577745741324,0.988853308044901,0.991342672665134,0.991844333678362,0.992540874610985,0.992717618639405,0.993275501776898,1.12443854128979,0.997252663629547,0.996987907381272,0.99381477931759,0.993084047505896,1.06429927790858,0.991602572967323,0.992861458676152,1.08921160564476,0.982421494284444,0.976696186235089,0.97898440225569,0.981894419948024,0.983192249656918,1.0085463707554,1.00727752539083,1.04318957554075,1.0467835649578,1.11548212424161,1.08973167309141,1.11925699446217,1.12591383561991,1.19857115900132,1.19962823035435,1.14929941007491,1.14840968529328,1.14622505884911,1.1455363816055,1.19214928399748,1.19213402076586,1.16131138848669,1.25707713546045,1.19096340052618,1.204535755115,1.28080068332472,1.19623720658707,1.19773996617563,1.20718528541948,1.21461490038559,1.21434115208736,1.24191921628915,1.22671642395439,1.22502401882371,1.24899537008885,1.33095640313822,1.32137200109763,1.33041655569669,1.32840220160078,1.32820355853192,1.28058537437624,1.26189923686252,1.31181391514944,1.36712174710381,1.36708858565424,1.31203886274921,1.31202717692803,1.38320485532708,1.36670763822541,1.38705086336487,1.36039407280437,1.37097211064833,1.41821595195021,1.4172168030824,1.41602347506046,1.41551507277287,1.41929015571542,1.43765759572251,1.50538133691204,1.51769765085229,1.5127849795285,1.50653570142395,1.4866379709717,1.4853552581181,1.4843642251774,1.48693552879043,1.51444710912833,1.51463588696277,1.54058576144848,1.55694494360253,1.66551001431585,1.6663549911762,1.83895093487448,1.90868756458378,1.89124985081142,0.00386783731554457,1.87839111701951,1.80005362719014,1.06622977548472,1.81585258085877,1.82175911887896,1.76619375487053,1.765112341242,1.76473856779466,1.52493071511913,1.51272699399011,1.52991433959838,1.52937727879296,1.52229059004097,1.51768091141761,1.55696062621228,1.49747449834273,1.49745423750872,1.49707521770327,1.49644253037907,1.46361042722593,1.46380000109626,1.46851735749744,1.4694396982145,1.47203150785966,1.50732475202705,1.52974604377631,1.52929957480279,1.4257708592963,1.43696019955618,1.43487636930786,1.41467922009833,1.41663819621117,1.35718870331695,1.35242709955987,1.31573491540891,1.31359878643841,1.29576831175506,1.32912212546377,1.27557462515871,1.27730879367152,1.27693659841781,1.2744002917022,1.30511597707644,1.30005900958304,1.29860939152901,1.32022954872066,1.26530515967691,1.20396101820694,1.20530729301068
0.976854929937043,0.982416379299688,0.982742515383122,0.983929808902456,0.982358791231311,0.981534284415737,0.981002954488597,0.980337069685084,0.980370385298657,0.980190823159462,0.982252422669082,0.98225487324935,0.984423368522049,0.985674855112672,0.98658121348141,0.986145665407336,0.984901799209038,0.983655521483785,0.983685103146304,0.983446825691232,0.983906789195077,0.984448548057525,0.985479799935413,0.987355235825257,0.989203634707165,0.989741217183681,0.988956975816989,0.987809030987127,0.98758508740908,0.987158729964152,0.986902241992473,0.987898288957588,0.98943330742782,0.991286971954049,0.992368424570524,0.993189637275867,0.993785352807886,0.99452734099124,0.996626025412937,0.997385199356839,0.997124151979568,0.995838561520217,0.995371928976242,0.995149900871195,0.994082570249599,0.994621880056317,0.994114501216661,0.98579951377093,0.984887917017598,0.984592064350263,0.99495143851341,1.00573129884824,1.01649019259963,1.02088692945748,1.03845366665673,1.04811253347824,1.08813739841102,1.08867595480215,1.11688706752524,1.12080833228953,1.1459455278714,1.14603957990927,1.14609840803649,1.14660526549777,1.14570027904855,1.14524666761312,1.14763235758653,1.15798034387542,1.15871311227708,1.17340948055964,1.18673236322196,1.19635298251005,1.19864362743345,1.19679911343426,1.19726917067444,1.20280308103776,1.20635550451075,1.22209194196282,1.23208061916569,1.2277516383237,1.22588921147656,1.25613717495873,1.32804040224283,1.32326813809757,1.32368022779297,1.32575753910817,1.32663492219434,1.29203174347817,1.27882456866591,1.30090876251177,1.3200771087085,1.34384215955022,1.33217912745594,1.32296268292624,1.34834245042367,1.35116965271414,1.35293845807771,1.35601011375953,1.37687736983516,1.39666533411688,1.41636234536338,1.41587972269959,1.41573483736494,1.42223792976321,1.42497079902791,1.50654018890082,1.50837476614811,1.50986048256046,1.50779330624044,1.48679365877412,1.4861562771308,1.48425779102553,1.48484948647367,1.52464583241893,1.533178165195,1.54362582337332,1.55337299001864,1.59880841066758,1.61479388168375,0.147669160859197,0.116923950913151,0.0863884572791624,0.0559969791977917,1.06568062666162,1.06622977394799,1.06699690683396,1.0679976577319,1.66478360730603,1.668224369203,1.67003797939379,1.56292811174295,1.5430091752506,1.52880183706555,1.52636634274702,1.52192819713511,1.51846005517534,1.5127230135766,1.51296063761547,1.50590696243182,1.49673896355662,1.49698409573169,1.49695330250715,1.46877637833921,1.46727880594118,1.46737572801229,1.46788821789228,1.46906235056353,1.50935863045527,1.51014844039509,1.46886496880051,1.42886688750118,1.43174838642195,1.43484636674841,1.39976909099321,1.38619513640797,1.35287876642062,1.35212665486062,1.32338378368323,1.31284488062557,1.29450289931824,1.29232618915816,1.27552889216565,1.27812408597511,1.27793534481439,1.28507939399674,1.30506931471399,1.30213230353951,1.29989136765094,1.28670412262276,1.26502112603843,1.23563761251305,1.20537446340476
0.979566631038816,0.979944610921309,0.983125854481685,0.983251439522733,0.982992932568626,0.982551386192886,0.981496664048254,0.982079885511192,0.980495565031746,0.981823218872031,0.980390014608066,0.982617732632732,0.981299181360095,0.98381736069434,0.98432358349581,0.986043304397857,0.985446894507149,0.98418156950952,0.98432403676082,0.984108221473128,0.984283767209526,0.984560539391768,0.986062841703867,0.986565461425869,0.987938652243191,0.988606606965733,0.987840186913349,0.98921326383934,0.987909318255937,0.98743843532578,0.986559540686858,0.988122622908488,0.989912452057792,0.991818445042854,0.992721850844441,0.993760985176512,0.993494645259041,0.994757541206861,0.996635028252552,0.998469756128293,0.997308428448768,0.996470021738442,0.996250111915205,0.994142123924933,0.993166574416589,0.994203353096751,0.992279502227843,1.08723611235396,0.983781064534922,0.98451939331954,1.00633697710122,1.03216525285051,1.02484448497008,1.03335987440782,1.03383621421454,1.04859871388429,1.08781646910752,1.07442580139922,1.11550945257611,1.11506962308986,1.14402114164888,1.14441412607671,1.14326700917441,1.14557294806533,1.14515600148469,1.1449913174778,1.14565995579565,1.15680306214962,1.15618534743344,1.15665004669291,1.18326689391994,1.1933140428415,1.20154022011514,1.19491037556337,1.19535900284418,1.19545784624464,1.19647023137369,1.22852056076353,1.23613676328686,1.22605972880618,1.22510401967309,1.26170179324933,1.32941566969901,1.32044221892831,1.32063335967951,1.32404266525715,1.32577673490667,1.32622993110803,1.26932243077021,1.29804962931603,1.2869051537938,1.36396527714028,1.36099915196782,1.31386978915445,1.34594754261777,1.35089330091344,1.35185149312128,1.3529233302361,1.38249257934376,1.38105270158999,1.41649556316679,1.38099185831869,1.41611277307994,1.42416692680487,1.4207034440799,1.48296849490009,1.48569779071672,1.55050041127608,1.50632183174026,1.48793581058849,1.48727528183537,1.48306244546561,1.48158019888719,1.54297052514269,1.54282017854425,1.54176656618754,1.54052650792713,1.67285849486251,1.6620861363704,0.00403534723734254,0.00391401911949212,0.00376776793349117,0.00400864305795771,1.8669139541158,1.79771007856772,1.0674547478122,0.00372994891547406,1.81900560664755,1.77592183639458,1.7664300697161,1.50711117576935,1.56402353647598,1.53269328358146,1.44332526212272,1.52145916971951,1.50498494024652,1.47688079048295,1.46235577014195,1.56724024837995,1.49775819375787,1.49765012493339,1.49733899466274,1.46971819346622,1.48140447905308,1.48118353348081,1.4655440903824,1.44276706384112,1.51344563823046,1.51318775507196,1.42496891011415,1.42384593862434,1.41726308480419,1.43751637961888,1.36772254115517,1.35156035043833,1.35124409606472,1.35178229315803,1.34637409524573,1.31077330654422,1.29572448795972,1.28708744300144,1.27408980190337,1.28191501683372,1.28101966627424,1.3155632957448,1.30692923201386,1.31466564643067,1.29835276306191,1.27978755565512,1.26505237189602,1.2641573792907,1.20431752729929
0.978468401049056,0.982190219158249,0.981446243499429,0.984503742646052,0.983273502851811,0.983744082952446,0.984006367516219,0.982744493167543,0.983710750040359,0.981640853069582,0.984263908495929,0.983150901483963,0.985106932151397,0.983197580058716,0.986093611241639,0.986284054097674,0.986032284644671,0.985212944318627,0.984668114119884,0.984568184874564,0.984754573747547,0.985975493024418,0.986061625268981,0.987168142538111,0.987678471977293,0.988443084001832,0.988978468553698,0.988791773734194,0.989523117758804,0.985436798114806,0.985935406268098,0.990396449934065,1.12980562279998,0.993199496298109,0.993948029789119,0.994779428227425,0.995091559368582,0.996095098382568,0.998824748353908,0.998661874516368,0.999475361307183,0.997767663582453,1.10000987005613,1.09953202006472,0.99649323900686,0.996649523640833,0.996157243961273,1.05034833011703,0.982456280340471,1.0158196940609,0.981925581548236,0.982180844295729,1.0249181601075,0.993020679432017,1.04787494454697,1.04819307776546,1.04798654681544,1.06315798055923,1.09323492198995,1.1259799543346,1.12664113720275,1.13246755051525,1.17987076558297,1.17908406077574,1.14315437327815,1.1443146261418,1.1800572605215,1.18044433359859,1.15602339712956,1.15628940969188,1.16571082189378,1.17087853684887,1.19876392520681,1.1967007335533,1.19548830159879,1.19445506618521,1.19203464786191,1.20805138440024,1.22856914672299,1.22693029000791,1.27150326388385,1.2720768835963,1.32015752245716,1.30702293524605,1.31766720241426,1.32232006376215,1.34456978841611,1.34465132659263,1.27064524606009,1.25725306721199,1.25679142497084,1.26996560869302,1.36454919497249,1.33339395489543,1.34825031844665,1.34948625665346,1.43949671667576,1.34061625831188,1.43456231137091,1.48318480776911,1.46409470996635,1.38847449701871,1.41009366656604,1.41083606886994,1.4886420414199,1.4864051115068,1.48746660783135,1.55154735329016,1.55160529607135,1.48785182480816,1.4873812363831,1.48530141128334,1.48244387522922,1.48904223989477,1.52102346120254,1.54513728449166,1.54784376437461,1.68176438884958,1.60879620017318,1.79897754125397,0.00388312489844396,1.85385491449318,1.90791880917801,0.00400077682469881,1.77312987858066,1.06817798558341,1.74794657854867,1.80637055030393,1.76032461789448,1.67485984451614,1.50579934573408,1.50660242368642,1.50654026044103,1.49855231228551,1.46567746193078,1.46729413139125,1.46350096331186,1.46233840493061,1.45932643950823,1.46993755083206,1.52685580114604,1.46832692530194,1.46789688048044,1.48259103780824,1.48251464293909,1.44944811788764,1.42766141523791,1.42496919509034,1.51536149966523,1.51544886288857,1.51409051578171,1.38576795421403,1.43754759159901,1.38945583558182,1.38346485071413,1.3725183506224,1.35149853197654,1.45386718823496,1.29949375248535,1.29566364379303,1.29519562867896,1.29492649288871,1.27184801026962,1.25869976273761,1.25837355351818,1.23248876541052,1.22878873434426,1.22838740020033,1.2539477124605,1.2112716022927,1.24761929094903,1.22501378731457
0.981673727887443,0.98006650540286,0.984156098415557,0.983701939342483,0.98508978607297,0.984820510796217,0.984294311686597,0.98498996669097,0.983178781524449,0.985236736310161,0.982796042367738,0.986588478334392,0.984323211446431,0.986253140297438,0.986102100562813,0.987369923430044,0.987270269424612,1.02302219764824,0.986758162088285,1.18829282538085,0.989313347578913,1.19896580017553,0.986984819783175,0.986792455463162,0.987701923307067,0.988520759574962,0.988863658210311,0.989939687888587,0.988593528667959,0.986087923409958,0.985658556848166,0.99664657721311,1.05866119832021,0.995743933899608,0.995995451212672,0.996898960221335,0.996369081758842,0.998718957400178,0.999259855027441,1.0014323855363,1.00125731259514,1.11935991845509,1.37069492615128,1.0054170635846,0.998065230235572,0.997946214971098,0.997114362896767,0.997002661376094,0.997271475507122,1.02453944655443,1.03720580693698,0.974843162261587,1.00621139808392,1.01611904312096,1.03018936099458,1.03045324790944,1.02919657138442,1.10756727691328,1.09374987976373,1.12816710682743,1.11390847638728,1.13043461092626,1.14483807206366,1.14339915741651,1.14340138202839,1.14443541263434,1.18053751424045,1.18225459704773,1.15535447104451,1.15498287479569,1.16593776418586,1.16540739089137,1.16323154942147,1.18978099394434,1.18448241400808,1.19499326766068,1.1919665571448,1.22633468382379,1.22384150722282,1.26736862860626,1.26765611469277,1.31332660274138,1.342827486352,1.30730074063222,1.30894774088357,1.2903371683895,1.28625987991804,1.28712071168955,1.29180051039377,1.26027301726844,1.25775771200751,1.25728354114997,1.31035359889001,1.30234170731645,1.29633640065034,1.30751290160147,1.32942806436913,1.34072200615514,1.43506929848516,1.45962763735691,1.36489155454514,1.3764792506216,1.3860229361901,1.40748544295682,1.48833499076274,1.48801193334432,1.48904564342901,1.51900379893889,1.50726962904744,1.4871620770544,1.48625481297231,1.48522432977205,1.48186012077147,1.50339566758351,1.53182009396132,1.54837630198616,1.61908999433687,1.61869372179493,1.63874207661699,1.64251772947762,1.81006135117551,1.88116179066887,0.00370174987615703,1.7749830156099,0.00369728313434333,1.0687659678704,1.73142572237401,0.00409464833220824,1.6662233474986,1.66709953674025,1.55013619275272,1.50506490903123,1.44917322374118,1.44892845850551,1.4778504803669,1.47118779494487,1.46332423281672,1.46255453066128,1.48524997583483,1.4498553024281,1.47955735135391,1.45008411586594,1.44946677843122,1.49828522124327,1.40381994203537,1.40668817888869,1.40893685635143,1.40549916727491,1.39782495069206,1.5031065652361,1.38691141411541,1.38639579734484,1.38805197377692,1.42506801632921,1.4246251292881,1.3866262275697,1.38604410093251,1.47445306509591,1.35996951060589,1.3003718923817,1.30039456948573,1.25529898447114,1.25537479567745,1.24673305518095,1.24106341404786,1.22402503270867,1.21024261839414,1.20985449309714,1.20864086736402,1.2377601063921,1.20210258445711,1.20720114532758
0.979898681736173,0.982748396705378,0.982820681438497,0.985854900742443,0.985704198953468,0.986015432923598,0.986173311909245,0.985793674993884,0.987046023785289,0.984405900720099,0.986276347622555,0.984411776697194,0.987414577361291,0.986110772403612,0.987639499742881,0.988121889113283,0.988630727032834,1.00510137673713,0.979077769306548,0.979119841920615,0.988604921293015,1.00618073728869,0.987059723158561,0.98745982439428,0.98787109930712,0.988862024750116,0.989680152374749,0.989670761716997,0.991283797992974,0.995820429653697,0.997134457639054,0.997969939565254,0.998474601970481,0.998449280155067,0.999263257521102,0.999251044593082,1.00081645037457,1.00037778082429,1.0016289443477,1.00146698084594,1.00221188385445,1.00532858690492,1.00321750221126,1.00242907825775,1.00092383862075,0.999999026157842,0.999774787687787,0.997813368814232,0.997839554544447,1.00953440805047,1.02954062501373,1.02259198743133,1.00760877304299,1.00381094839305,0.995110705294097,1.02148657425076,1.089884407829,1.05380848092578,1.11038797533722,1.08138367042114,1.08650514540891,1.12019426839885,1.13676829426237,1.13921367892823,1.13537055078413,1.13483657512493,1.13479490948829,1.17744331103076,1.1558492111265,1.16732369860769,1.16578088614604,1.16512563382214,1.1652154286675,1.20428987291435,1.19453334520297,1.19649248684545,1.31051193583829,1.21436736666617,1.21412016634506,1.2621819562753,1.21824715588888,1.22029955768705,1.30184432284409,1.30978243109441,1.26285935061466,1.26918096561419,1.25347143454264,1.2664061638483,1.26569241679235,1.25901878764323,1.26237626111082,1.26730649730267,1.26623232246486,1.34421801043257,1.28820707308402,1.29860993869342,1.29887743895258,1.34191066661427,1.35580912566136,1.34316848454874,1.42738863487589,1.3576293377138,1.38978436173894,1.39449452254108,1.48320992188126,1.44625835084631,1.41191738152431,1.41208972303163,1.41224137270877,1.50335497117276,1.4858994468495,1.48543534593025,1.48935857295587,1.54674342415064,1.52188831768849,1.55099058979008,1.57287604553225,1.58397922955877,1.65140233716897,1.59661194141001,1.59597696496761,1.595283714144,1.60046367702898,1.60056079588013,1.60014970047323,1.60799690139961,1.60040898762193,1.66977488103918,1.66785415130023,1.63083950203089,1.54145009997209,1.53216507244195,1.52581714907235,1.52540577778338,1.477880281519,1.474342836681,1.50391007427839,1.48835301156754,1.48013507149039,1.44396777154897,1.44234629578722,1.44096904540671,1.50159405959124,1.40509899029799,1.40483020982762,1.4060843967461,1.40366585330263,1.46318572507356,1.47351694050753,1.50366608707932,1.38707890946288,1.38662726933664,1.38764161446649,1.3872167083273,1.3864586632605,1.38542894425073,1.38316947225285,1.49296611165979,1.29797615794789,1.29949750916277,1.28266135103596,1.25486465420373,1.25060512784926,1.22739406867814,1.22606835182518,1.21413728204315,1.20871070380133,1.20905091765958,1.25997050698103,1.19540961569109,1.19454127615464,1.16240607638733
0.981375751701948,0.982232156986748,0.983922536518241,0.985486633301225,0.986485453691019,0.987006332248301,0.98699167775877,0.987111810421502,0.98702107961247,0.987101769708114,0.986511196448205,0.987283105033613,0.987142044205749,0.988203786083592,0.988458376215193,0.989092115360337,0.988859333586351,0.994680974537855,0.97986465007885,0.983067608319368,0.992257559923539,0.992231431771609,0.987617348814288,0.988049712448372,0.988723430292139,0.989378137614461,0.989959413840473,0.990893769633925,0.991689592652523,0.994046863625905,0.997012704823374,0.998280667949927,0.998913629228693,0.999434325572221,1.00000986475709,1.00060611062217,1.00121353574566,1.00162438503487,1.00174906592643,1.00198198233054,1.00258527770911,1.00388519891716,1.00342120823912,1.00257748182275,1.00183444385649,1.00124380768429,1.00066212267361,0.999593651913202,0.999305032241324,1.00814461004558,1.00750298472798,1.00702743355285,1.0074041860259,1.00639634098907,1.00750567048895,1.01686171471067,1.03764825724511,1.0473704678837,1.07656159632648,1.08183409634765,1.0992304389861,1.11276280353393,1.1305283891001,1.1373561796982,1.1359483068149,1.13531807682597,1.13533153220123,1.16525960647457,1.16146353579195,1.17060029060729,1.17110145810131,1.17430663785341,1.17776309023547,1.20059173402732,1.19855967525574,1.19876350660936,1.20105501844105,1.21419865333914,1.21561937447678,1.21779594910722,1.2194378087574,1.22073912486029,1.27520805605072,1.28953970239214,1.27651875576982,1.27220489118522,1.26790813450429,1.2669372117219,1.26553208660789,1.26281226574955,1.26296797381858,1.26922216810693,1.2663751073016,1.29307098558012,1.29242162658617,1.29632231438747,1.29891026544218,1.35085500015664,1.38339216707785,1.39372879931711,1.42277276111917,1.41726481779476,1.41025053702982,1.40545430185167,1.40951196912391,1.41174102147588,1.41246912373668,1.4127458183243,1.41287317033003,1.45545175398674,1.48727371629909,1.4868480302865,1.48843869015067,1.54947770715962,1.55100718689219,1.55208048759633,1.57790341129836,1.58662077225154,1.59533669351476,1.60705300096612,1.60795437524924,1.60535936785785,1.60768131216646,1.60851887868666,1.60798831481558,1.6070075147869,1.59637517292205,1.62286883207109,1.63477891812028,1.63190361474039,1.53720950444212,1.52767972068188,1.52729694184429,1.52548582855755,1.47594987430789,1.47412478363486,1.4741338168267,1.4757498099989,1.47890511422691,1.45305325030537,1.43951726098938,1.43915703545274,1.45894833434082,1.40710824939986,1.40747996229308,1.40810828233224,1.40675015072336,1.39710969269101,1.39563434001028,1.39417033685814,1.39015922364527,1.38723749366362,1.38757199770049,1.38693149341193,1.3854055592973,1.38430117289304,1.38307375183921,1.35391837656319,1.30482218545671,1.30323795011129,1.26501292507588,1.25235534588395,1.25086938811099,1.22842123848832,1.21514320796322,1.20895522808021,1.20606242524349,1.20386939149389,1.20056699162813,1.18234258502183,1.16995057474135,1.15407625465775
0.981489897782676,0.981574639052705,0.984507734801443,0.985881961944795,0.987249909363811,0.987831684756854,0.987717558149059,1.06026083644044,0.988428019268158,0.987375913306723,0.988664193031785,0.987122450541792,0.988555181475649,0.988063065421065,0.989917071525073,0.989900334898595,0.989804845010454,1.12052249484588,0.97839483255998,0.986896318923422,1.30713784201356,1.13014652852605,0.987329334085139,0.988683876787443,0.989077552695772,0.989841012152891,0.990036906157125,0.991350547729004,0.991783590545649,0.991165132430699,0.998818542694209,0.998640817671358,0.999349721868914,1.00012776189827,1.0006855205645,1.00144213420453,1.00224616755038,1.0021799707483,1.00231606498233,1.38311611151954,1.01419849367145,1.00466956640669,1.00383391265175,1.00271929250657,1.00222055731828,1.00250386085458,1.00236411997525,1.00117014585657,1.0009190765916,1.01784473306877,1.00752401170932,1.00683161511112,1.00820362234064,0.991083319706093,1.00631675438067,1.01365444239888,1.00946640268104,1.01393681429866,1.06972570828228,1.08113612158787,1.11349650702574,1.10192658222473,1.12377929610681,1.18140688045175,1.13561932043889,1.13564567353594,1.13587354744787,1.17015564103429,1.15917254665352,1.18940730609975,1.20124678584576,1.18158041602656,1.18244581253534,1.19949170835467,1.19912010429421,1.19968275262057,1.19782439722449,1.21236034891995,1.20557338145451,1.20147524182133,1.20079589930212,1.20792452452164,1.25001506653724,1.33968946872548,1.32281117824436,1.28049501528834,1.30440477909279,1.23715742461476,1.23690490208595,1.26230175137073,1.2483467852304,1.27171719379699,1.26376821636111,1.28904153981892,1.2897608232629,1.29085725380591,1.28684031701002,1.36267968392178,1.51231463607234,1.51211083939028,1.42366700748859,1.4230157658868,1.4209180423062,1.40133497904087,1.39953014743943,1.41158970537305,1.41289397615849,1.38806806578883,1.38895609813364,1.43689203285028,1.4891761791835,1.48640102120423,1.48869500365229,1.54789814842538,1.54902972751258,1.55265304612852,1.57477024518571,1.61896587560017,1.58461955395703,0.00415074046962216,1.81206308027296,1.59585145621748,1.59677853578243,1.59997820679822,1.60038531136848,1.60810029204049,1.60003721837324,1.60219247953538,1.6291720028319,1.62703152711753,1.49157004670297,1.51297887539407,1.53242041588466,1.54918699611622,1.47774156264884,1.47496848769346,1.47532081334371,1.47468731236547,1.48795999117625,1.46422981880189,1.43012744805125,1.4138658112927,1.47688227181211,1.40777394826995,1.40875796572731,1.41042998914491,1.41281527863304,1.39180286728454,1.39171085688981,1.37984684411901,1.39869733076268,1.38438027158233,1.41083972115708,1.44224149678089,1.38319482706668,1.38227341549161,1.38103515258058,1.31466629442306,1.31382752147691,1.34633635055731,1.25908392601077,1.25078913540478,1.25007177661488,1.22869799590794,1.20583780349714,1.19787702550547,1.19462573372758,1.19437463563465,1.19656235239619,1.16530003900476,1.14709125192409,1.14733768772197
0.979198163993625,0.982564881214522,0.983634974320892,0.987618159629858,0.988301510322541,0.989308225199958,0.989282308841185,0.989762518677966,0.989319570330901,0.99048086841687,0.989497868975015,0.992521103035741,0.991147143153863,0.991784044618047,0.990182649265699,0.99113872979925,0.990684860255023,0.9899603408607,1.19793434151396,0.988615029983688,0.985546582856469,0.984905835721049,0.985258849724421,0.989039612001709,0.989932361605177,0.990505903990414,0.990915305015972,0.992472267551196,0.992628221327268,1.00128457907781,1.00100873423563,0.999327198583617,0.99982889783566,1.00117992732556,1.00166488283591,1.00214127617367,1.0023510775992,1.00247141622497,1.28920095060966,1.40961066203095,1.08280432419516,1.00584068120882,1.00403436406084,1.00384742179334,1.00379104197231,1.00391604039755,1.00382233244923,1.00386135516348,1.0048855478649,1.11458725949567,0.992840244983413,0.988589443273602,0.988129836194524,1.02156473554421,1.02050382018149,1.01765320265795,1.00895414951091,1.03832386202314,1.01628007176824,1.05145519927223,1.07237610799707,1.11486573255312,1.11430365320268,1.16928348170141,1.18609387507343,1.14898015115786,1.14789530360523,1.14728456887692,1.15941269853249,1.18900637002372,1.20178970094578,1.20166728654801,1.2025556024844,1.18427929201355,1.19898871728687,1.20149032619573,1.24134310466582,1.1922672989787,1.20827139000124,1.20180132417242,1.20072433693494,1.19943397561051,1.25047240277127,1.24779797080913,1.22592091905784,1.23487377936641,1.24556369552462,1.24667353680432,1.27114161812697,1.27228979987266,1.2615921906582,1.25306220540091,1.25539286287539,1.27540428851666,1.29205466288162,1.29036786608841,1.28654346486549,1.32145586536154,1.51221857250263,1.5122621872149,1.42285527837653,1.35199285268379,1.42174549610557,1.37225180931704,1.3720292604054,1.41071707936797,1.4110207229535,1.38858311776377,1.39193174810115,1.39214706601665,1.42313021441333,1.49201799444565,1.49232501790238,1.49116970365993,1.49619818609451,1.52442487828831,1.55252899375914,1.61478814742792,0.00384199333145839,1.79984291748593,1.93104795580999,1.84571077649331,1.66949836395549,1.6781587602649,1.67635966343473,1.61131348254775,1.6520590596946,1.74632944363859,1.61526641704226,1.61436708029151,1.53141017142556,1.49843299473104,1.42567811500589,1.42527672582686,1.46458106196017,1.46664287315393,1.47390843642999,1.47435761294188,1.47583063843215,1.46495136724818,1.42967875675179,1.41406000996361,1.41257263797618,1.4334241235876,1.38716073143496,1.39006248955364,1.39351741166288,1.39221079954757,1.39159896593508,1.36557392609729,1.36717159127985,1.35922222960389,1.3772405912887,1.38735359906275,1.38517278754929,1.38010629884883,1.37830309843474,1.36210791991921,1.363390017357,1.33753104528398,1.34684932043137,1.23360183361035,1.23444622922477,1.22563284774201,1.18681241461212,1.19340561636343,1.19061673371473,1.20531829142799,1.16906203402162,1.15555149964041,1.14256985561651,1.11728445968586
0.979549207558517,0.978375992751711,0.98569595559995,0.986344662664263,0.989324437016763,0.990750441075833,0.990013798286256,0.990127781400553,0.99182850312321,0.991026532059057,0.99244039289204,0.990489010152744,0.992690008146275,0.991432070847965,0.992914508616302,0.992158656813356,0.992115457741916,0.990575776374405,0.991261165785006,0.987497218165093,0.98705526167137,0.987255680876573,0.986338236878325,0.988890676176027,0.990273884544,0.99166765469071,0.992546123849678,0.993872195234494,1.10274294459375,1.15306588973582,1.00067679449748,0.99999222318252,1.00006093973161,1.00113266054499,1.00243876392786,1.00289642251933,1.00282957661704,1.00276929398561,1.04398478619816,1.00782902859206,1.00892600253898,1.07416804319832,1.12446476481509,1.00592325870013,1.00567919786385,1.00574700006386,1.00561979605104,1.00587394739891,1.0058326755701,1.07502462722377,1.00032706531908,1.00060867124342,0.983437655430459,1.07866067159778,1.07865692297407,1.01873317355625,1.00574832723188,1.04550810813553,1.01432191323585,1.04090937035787,1.05325165390219,1.09678152893264,1.13840678655881,1.14328003927276,1.14513527621236,1.14970181833721,1.20893214920792,1.19202804058031,1.19165509833692,1.18765426523542,1.18708024666328,1.1969600550982,1.19250979340333,1.25369430910967,1.18510978574682,1.1890723733254,1.19323639518003,1.19295585316704,1.21296036357519,1.21077962339588,1.203632421721,1.20237670483499,1.20448040627952,1.21105620181506,1.21265069599433,1.22259923654112,1.21669900057059,1.21366086676341,1.25253733273293,1.23994310108085,1.24034943768856,1.2402081205812,1.24831696786441,1.27134687314936,1.26181364933392,1.26107605240001,1.26134901167509,1.37065124591894,1.51080286606,1.53570199645505,1.60298291320612,1.35227762622172,1.36523229797056,1.37442827978495,1.41691691870506,1.4167355718155,1.41660035987865,1.46015529077879,1.39341745077864,1.392074395008,1.42565028715495,1.44243129498933,1.49807436910963,1.53349938136018,1.49331232059968,1.4882327938533,1.49222775434332,1.56161967264246,1.51712171143961,0.00400792710807182,1.68843114221475,1.84967344345169,1.67975645150785,1.71675623284313,1.84590016918016,1.61318309211974,1.66129186271232,1.63673517086656,1.63669523766801,1.6530940683517,1.63341103752067,1.48562981292328,1.42566716610566,1.42550907434469,1.43778360252192,1.45625698551906,1.45719890905747,1.48997736035581,1.49160884818811,1.48319348030854,1.48932934726845,1.43048362953947,1.41110669747623,1.44284563959916,1.39653978182868,1.38885461026916,1.38327203823689,1.37084224319556,1.35582875712268,1.35514279922828,1.36761556158347,1.34575208310446,1.34423114474848,1.30808304356,1.35657111920374,1.37024178326872,1.38273274909348,1.31098730155003,1.34056448397062,1.33984551745793,1.39175244287282,1.23119195342301,1.24269565071584,1.24349583559115,1.20283716152673,1.19635559564818,1.19275612392077,1.17466839196369,1.14811952150944,1.1365162833006,1.13538897064757,1.12042920347658
0.978103326812733,0.979496363604321,0.983864114144612,0.985778938116489,1.21207756282256,0.995651749774567,0.996194464851687,1.05628363947553,0.99268572918876,0.992966967122211,0.99197398182111,0.992579160609291,0.992005809075402,0.993368892368245,0.99332519525713,0.993595778149839,0.994131404246651,0.993087493064605,0.991137227084791,0.990115316395463,0.988562329346132,0.988946554372068,0.988738226348305,0.98939107853859,0.992615158231777,0.992871628972955,0.993620167433595,0.994842370298784,0.997245080447146,0.998637755780119,0.999966122858847,1.00019088956791,1.00022933114066,1.00062543496111,1.11631798962373,1.00394227961694,1.00304842970318,1.14074957391995,1.22552149002057,1.36590476219756,1.01087561147303,1.01166963705371,1.01165412840508,1.00880221753352,1.00776423028117,1.00731654287555,1.0073650674912,1.00688417798178,1.0064080286936,1.1104789131483,1.05304801917045,0.97340666144104,0.973162791918696,1.0786298641396,1.07810961903075,1.02883651409178,1.02742974364214,1.02674445608375,1.02641513591371,1.05087420473969,1.0526516937339,1.12876149107277,1.12943233236469,1.12991617293631,1.15377634410456,1.15061235420992,1.14868344807913,1.15012939400113,1.18944530086015,1.1867344450792,1.1881048449167,1.19071349826303,1.18594848031102,1.1852993333006,1.21738150797192,1.18172063945371,1.16285442208331,1.16276708035905,1.19223045629507,1.19243850200383,1.2041976937707,1.20393205357372,1.24941267078438,1.21133762837203,1.21081225412862,1.22570523297495,1.23071906810403,1.23078718908607,1.23927655937829,1.24148781766624,1.23900749388796,1.23878846979836,1.25895512716511,1.25054068374566,1.25756489256952,1.2600883318019,1.25859781991378,1.32931178670575,1.33003256178663,1.51794153050432,1.51619913828326,1.3559796033152,1.41283523834049,1.43484241090032,1.43359171419959,1.43506616347492,1.45984060982616,1.45761648049871,1.45637910536614,1.4269825331578,1.42685528263036,1.44323417560969,1.44282063573966,1.49316840038553,1.49192164284294,1.48539955130849,1.51532911849426,1.51970935559933,1.51861306019018,1.49742399852823,1.70868245463427,1.6939478272664,1.84426556943683,1.70832865368303,1.70886076845731,1.61431109953233,1.83936177020684,1.65506307015128,1.62616780292791,1.61276064978934,1.60582504614624,1.60887264326961,1.51707670283998,1.4452882063786,1.46027517627961,1.45794859233382,1.48034490473948,1.49117175212871,1.49133251641053,1.49154188893122,1.44624029961703,1.46162504864714,1.44288366918769,1.44142346951326,1.38731982887105,1.38732569612037,1.38716191190701,1.37743745083303,1.35332691359886,1.35463262304956,1.34981186403245,1.31630357650554,1.30952045739749,1.30769988629119,1.29016977967105,1.29983270660915,1.31256269187127,1.31026779506711,1.35442394263001,1.34141398189736,1.24695899890956,1.23211039368868,1.20547065460756,1.2050140904016,1.20485513659444,1.19748096868433,1.23724302470597,1.16167861671592,1.1671136664132,1.14443547350831,1.12814846479694,1.10273630624102
0.980963043857116,0.981430991366971,0.983724572878755,0.985063389998522,0.988040212544247,0.997458257586155,0.997467874071524,1.02241004851711,0.994152725107647,0.993741896393625,0.993050905840945,0.992864601556356,0.992936454245676,0.993285394569794,0.99370122225969,0.993833685880643,0.994059627471935,0.993175741434869,0.992243333352601,0.991176074897999,0.991172779210952,0.990878193937781,0.991053415629159,0.991667992615927,0.993107399984844,0.993948289849607,0.994555101180875,0.99613959948998,0.997691849869517,0.999521852761696,1.00023054012237,1.00118222945046,1.00122100822063,1.00170457823563,1.0358946370228,1.00509584885368,1.004949809101,1.00641523248573,1.0077171087468,1.00864052157852,1.0099367394619,1.01108270326871,1.01124528518288,1.01021898353955,1.00896522976567,1.00845838291337,1.00807010467481,1.0077615285145,1.0074255454088,1.06678913985069,1.05016440413548,0.975696048855055,0.973572741035251,1.06724613407974,1.06683363879863,1.02975039350328,1.02909911116778,1.02752690888981,1.02709090007191,1.0399030315045,1.05604005303138,1.08901874453949,1.10851427311335,1.11958964732929,1.15738716191772,1.16176414493162,1.16611299560188,1.1707428663452,1.17585851857337,1.18081497681595,1.1851615808918,1.19113061825866,1.18910024411734,1.18870117443343,1.1897607641876,1.17739490183164,1.17167944484295,1.17610035001329,1.19127391445849,1.19685183398029,1.20487943078774,1.21690688311771,1.23074925973628,1.23114738481252,1.23060639547341,1.22834198132723,1.22898753612689,1.22906749694959,1.23925502873691,1.23977432405546,1.23875091502719,1.23824088565962,1.25987009479237,1.26098937690531,1.26127176981649,1.26185404141774,1.26449464244964,1.31749284356923,1.3194963857685,1.3701502496019,1.37717420505165,1.39641621052811,1.41143373284973,1.42151892581816,1.43549483301588,1.4350379483412,1.43305928752231,1.43165936422794,1.43156461761517,1.432057011708,1.43293766616682,1.44068908057701,1.44191568933914,1.45363390102876,1.46474317801937,1.47450785458233,1.48078266077201,1.49303697818345,1.51087293956039,1.50823868901589,1.56452417937085,1.63817178300705,1.63275916754954,1.61569484190388,1.61404764119235,1.61438307734468,1.68546512431318,1.66681042109271,1.64264226682047,1.60893596179791,1.60827470607919,1.60691856546751,1.5508988092104,1.49139207721629,1.46261762392994,1.45989539978408,1.4748287520393,1.47903689857043,1.48285482849941,1.48670641801484,1.46189852406625,1.46153970115944,1.44455164037764,1.43246436027019,1.38786370532418,1.38156784218175,1.37882320055909,1.37367636114901,1.35418626013672,1.35306923213694,1.31844996770914,1.31534370877237,1.31157745300785,1.30601895019251,1.30196053296355,1.30192086282566,1.3053289299054,1.30653708626322,1.30421622448984,1.28155453751284,1.24914422769448,1.23765428639516,1.20596944305724,1.2049483997197,1.20583461290876,1.1921437952179,1.19208194367152,1.18432935683274,1.14751539375176,1.12947435963771,1.12471207786295,1.11209706901108
0.982837474801257,0.98182317905535,0.983517578013343,0.982574278901085,0.98214395113271,0.997768393973349,0.996815984313049,1.05512107652508,0.995937696229466,0.993975147716111,0.994020341354807,0.992261309852722,0.99376854087798,0.993050809393749,0.994241774730685,0.994140661694193,0.994457998490626,0.994198840170792,0.992211878007395,0.992448785474701,0.992947605365677,0.99295586894249,0.992568620666077,0.993161868379749,0.994302294753501,0.994840296462205,0.995611568384472,0.995616784368055,0.999900051838799,0.999115830821094,1.00228540437738,1.00100333746086,1.00279097870483,1.00250502866291,1.06422015654534,1.00513570328262,1.00362509559516,1.00475634370115,1.00537258666351,1.00647376028822,1.00817434371547,1.01071068778026,1.01226706892347,1.01111228061886,1.00964767935237,1.00900689083424,1.00854562614584,1.00831540571991,1.00788722944142,1.07033855029535,1.05131265596346,0.978829498308965,0.97117775887042,1.06983494129313,1.06905415610892,1.03139553863589,1.03141757589294,1.01975324792583,1.01726541367141,1.0333933242808,1.05930175979181,1.06856110037373,1.07304563629587,1.10784479533762,1.19986581834705,1.17623095576919,1.18789949140404,1.19618146920254,1.16538210956017,1.17728669501213,1.15995671683756,1.19360408949973,1.25991219266754,1.25999377713119,1.18801053343399,1.17320554665747,1.16808404038147,1.18276768100087,1.1895870719022,1.32381860281467,1.32363464862346,1.22699808528977,1.22838874981964,1.22989937347547,1.26014373996045,1.22715555500061,1.22748612855125,1.22664584099117,1.26429386293431,1.27395890126381,1.23798841044369,1.23688242894758,1.2806538000789,1.27950388450267,1.2630591737439,1.26305472788515,1.30069561641898,1.31297788239549,1.31098030590801,1.36811868035453,1.36657190876975,1.40982736309509,1.41065649179352,1.41131361080679,1.45212750580576,1.40630262621624,1.38900825179936,1.37966986114461,1.38518423101367,1.59796547869985,1.43477469205716,1.41483653043712,1.4422712832453,1.42485865624443,1.42521131196974,1.44873955364856,1.46197930633486,1.43124531649789,1.51609976843917,1.49175294506701,1.53973942372681,1.71444164293053,1.67300846055859,0.00387006125310964,1.77531505959893,1.64110771399988,1.71488568892393,1.71435422506954,1.71431226679107,1.61180556133379,1.66535691092653,1.66503736339661,1.60114726623003,1.51638974595036,1.46590322458299,1.46166458813122,1.45182862695412,1.45136394847772,1.46876584727943,1.56735388350658,1.45985362823636,1.45968909566983,1.44696930639134,1.41930969761544,1.38702224214416,1.37579727775594,1.36599937828236,1.37012460900619,1.35769363132937,1.38967194552545,1.3116991775461,1.31347982724888,1.31294069431555,1.30496601324312,1.30354616177206,1.27354282464342,1.26906821300704,1.27196461004646,1.30051790896204,1.25154448007831,1.25114956213217,1.24260696709522,1.20695056747667,1.20293346842788,1.23305633665954,1.18724743977679,1.18689403750659,1.22623832620138,1.13826788308314,1.1219149438857,1.12100636399239,1.11151728013444
0.981915853079418,0.984301346083464,0.983211281452798,0.983537967916133,0.982535518675692,0.997268756282855,0.998172328592262,0.998722475837879,0.996200196555984,0.996568114119067,0.992958773142643,0.995536431323496,0.99371555441828,0.994472667503015,0.993137516500769,0.994182391904777,0.993712573418647,0.992625418435541,0.993735357591051,0.995989801320213,0.995939762131635,0.994353214833175,0.995365320125472,0.994883097013473,0.995805806864465,0.996345727480702,0.995665972947207,0.998810199038604,0.998202649227029,1.00271461507573,1.00073337711656,1.00464871687048,1.00397938277899,1.00615885882571,1.00542780600875,1.00557561443031,1.00467366450805,1.00449486756767,1.00557080242864,1.00541342441248,1.00648506386682,1.00805868745589,1.01014565525126,1.011167802465,1.0100253242124,1.00945826238289,1.00855378047392,1.00846666385903,1.00737108263564,1.00276575855549,1.04911946656145,0.9781304287048,0.99197246394525,1.06724963019089,1.09043455706203,1.03240881746829,1.03228801029675,1.01745542248052,1.01712629875095,1.02881417158639,1.02924599228172,1.06328225884477,1.06291365251904,1.14137909499958,1.1467012564278,1.16033591781893,1.18749540462748,1.15196663268831,1.15394013824869,1.15394897715536,1.18697509305988,1.16796517934369,1.16681976615194,1.16443865043745,1.16283271270378,1.16339072511879,1.16348582814197,1.21601546925464,1.21299102283688,1.32306844743195,1.37876517077594,1.32195996110064,1.22224557497347,1.26232104942681,1.22625079607646,1.22627366997716,1.24757038313052,1.22786810784172,1.22638296499637,1.23591564897906,1.2421247823725,1.2584860673935,1.25622717861203,1.25417158777947,1.25382942272195,1.26221319954503,1.26205018876636,1.30779013073204,1.30946619220315,1.31425824068828,1.36583213241068,1.36413473541768,1.36250955040222,1.34261645481433,1.35420747282533,1.36434809632669,1.3603327780379,1.37726251497116,1.39773415389673,1.43048307903152,1.42651376113287,1.40773581729906,1.40717949867892,1.45959249901746,1.40164900689367,1.40784294622368,1.4163173614948,1.42034915845503,1.49507492602582,1.4915709869474,1.52259076487553,1.78469130456896,1.76963584836555,1.7521431081451,1.7753150863562,1.64178853306361,1.8373338175841,1.77542881543715,1.65355061094267,1.58107305290823,1.57951714471961,1.66939683035482,1.66322784824793,1.5275783575113,1.52916121395125,1.45796293582293,1.45206027966353,1.48235406092038,1.402278177268,1.40199589063913,1.40427991427405,1.40432142284192,1.41542189934116,1.41101303559778,1.41757171594049,1.37094021879657,1.34542738354726,1.3249570466995,1.29412234764442,1.30753008928676,1.28965516640457,1.27317022831531,1.30670433936807,1.28964720423584,1.26501033366617,1.264807267868,1.26631451624444,1.262227927442,1.30813116397978,1.24350789418079,1.25000632067964,1.26554264072087,1.26271941843979,1.20069412226912,1.24699769420379,1.18446435664368,1.17816554388297,1.16265834758169,1.13631626819264,1.1276939515906,1.11965071879577,1.11869317333721
0.985479391158371,0.987495655796345,0.990554035236133,0.990549305844044,0.995110157648841,0.996171044027689,0.996072739575411,1.20157941152984,0.998244305954246,0.996292333145529,0.996968635203822,0.994238863919959,0.995971147456365,0.994431895909884,0.996215484780229,0.995319293138083,0.995505943025151,0.99374118722594,0.992774436188602,0.995310987422898,0.995295818150869,0.996167764921151,0.995526964064899,0.996662118159144,0.997426621788932,0.997799503667626,0.99934277373889,0.99895814705349,1.00267479551021,1.0008943798606,1.00504246096328,1.00468009354556,1.0074871344486,1.00705976511507,1.00763067241674,1.00672833351074,1.00522280166489,1.00552600263437,1.00460519669393,1.00529920036638,1.00605962615547,1.00755861753764,1.00904693209006,1.01002169621982,1.00889352526556,1.00971596407313,1.01039302285233,1.01079231033907,1.10221847775206,1.0527434617596,1.01450896037715,1.01310868610251,1.03803084195997,1.01005947561548,1.02044304086189,1.02230720046477,1.02102244411538,1.0199137329179,1.03044291363992,1.03578386556192,1.03656497879121,1.07198180263265,1.10224510175562,1.11200836237564,1.15039785797184,1.14012522029407,1.13163622305128,1.16015793157469,1.14738809446938,1.14734592291932,1.17663016226332,1.187027269304,1.16277999140616,1.16208841715826,1.16273260698044,1.16405313338722,1.16546028940266,1.23586559121723,1.38627172415766,1.32965479838238,1.3764904265897,1.32089936518875,1.25450997974495,1.2279954892833,1.26703340870385,1.22658560050664,1.22878995909363,1.21637520470323,1.20582337228578,1.20510145689176,1.23400279464642,1.24700879104088,1.27682967447587,1.2580808807853,1.25698091630534,1.26033310820013,1.26984029891735,1.26921254843626,1.29476920163051,1.30250388068613,1.32785152993607,1.3259517778749,1.35243884883896,1.37066925124358,1.37044229763517,1.36432023776708,1.36344885983014,1.36291738681383,1.38686624477935,1.40724359510647,1.41950396371998,1.40101058950314,1.42021784858954,1.39908621975175,1.40094688017189,1.39165478431077,1.38668325620863,1.3883069652876,1.38994445118189,1.39113460927347,1.45559795967286,1.76563019267128,1.74051269663459,1.73084390186018,1.70724795633088,1.64271074092615,1.70801393945514,1.70870158177219,1.55572058881803,1.53732328080908,1.57486029782444,1.54002974667528,1.66131573118195,1.48306025579178,1.41102150846145,1.41479986036162,1.42309056281703,1.43122076975671,1.40161483752756,1.40127875558848,1.40421857189227,1.40396205305015,1.41299253124207,1.40821135199893,1.3802387050164,1.36585824866383,1.34058085043694,1.33209534029998,1.29918354398649,1.26597877756726,1.25911594609452,1.25739407570604,1.30739322874751,1.24909584412454,1.23611069232412,1.2376570531315,1.23978541432382,1.23177491825032,1.26555599158184,1.24252531517539,1.24658328939493,1.20240584355516,1.19038009246651,1.19037262035437,1.25527665173747,1.1821324420109,1.17051053116722,1.14999884825182,1.14950562233566,1.18578415821783,1.11122767700724,1.09297113100224
0.99035049887021,0.992009721074513,0.991032070815213,0.992273995722429,0.993442987182612,0.99520696219462,0.995326464637486,0.997758506741273,0.998281780952413,1.00020664604387,0.99600253528603,0.997254029706657,0.995085435001131,0.996442479594285,0.995697720671779,0.995822529773648,0.996013415052141,0.994019778923097,0.993851224828668,0.993890346991091,0.996838868666285,0.995941987745069,0.996617412055854,0.9970618383939,0.998932586939723,0.999292167483577,0.999704649344179,1.00182830719619,1.00090439322707,1.00416913810377,1.00389540360597,1.00791220479576,1.00743072957627,1.00927987541746,1.00860693934533,1.00814904983462,1.00761812404975,1.0059615562395,1.00488106511649,1.00428673590038,1.0056625023819,1.00771742776873,1.00819755312105,1.00807613408273,1.00766542904437,1.01032739116782,1.01169599415141,1.0126041188198,1.01367780019657,1.01385253562695,1.01403050800013,1.01234422689305,0.996763182368869,1.05263788920468,1.01896589837265,1.02523063032775,1.02857267290225,1.02952033589617,1.04743343475887,1.05365128483411,1.06005481702698,1.08023796324549,1.12092593048149,1.11400143058523,1.11427046060852,1.11712168952523,1.11716067314414,1.13840880093296,1.13996982464,1.14715830550484,1.15637004257467,1.15989057511795,1.16042075590701,1.16015735763587,1.16229532038723,1.1642683241221,1.22725067126894,1.22576252588018,1.21857913817062,1.38359162887797,1.37735002520423,1.25343309364763,1.25333217706655,1.20730682866276,1.20731824232231,1.21214990357575,1.21515559384555,1.21026958892466,1.20792443309131,1.20555389871168,1.20456465289167,1.2386448608427,1.24039607211902,1.27063768174625,1.25491200120543,1.26270134283474,1.26554425480627,1.27298303685819,1.27961172165224,1.31352320123402,1.293369689663,1.29219639503217,1.29014718671533,1.33469624457534,1.33450545649121,1.35316865948686,1.38921804529806,1.36841208335681,1.3799166991202,1.37978432689387,1.41853925012891,1.3889855122434,1.39022428323985,1.39396796936434,1.38363718333033,1.38429362533025,1.38408188175055,1.41276362848887,1.41380677534038,1.38310638489148,1.41029692936095,1.58785193900869,0.00379445880703002,1.71505540824135,1.70149372628051,1.64259086771239,1.74422285682718,1.66020264519227,1.54374880860547,1.55829835863106,1.57868131901364,1.56244380793008,1.58255447539484,1.48313862952377,1.43752056952903,1.41010575891212,1.39317030959832,1.38590021953187,1.4047868199565,1.41710379820661,1.41626284302243,1.40380144009566,1.42487568665337,1.37418269327096,1.44277470836418,1.35851298385534,1.33090406310489,1.33140658732465,1.28091808052232,1.29537501900586,1.29482339996525,1.25106628912338,1.25539671913604,1.22881271816552,1.22287328980936,1.21703920316323,1.20385537896684,1.222171291392,1.21841233226601,1.24623371059886,1.20589005282796,1.22159257726998,1.25161140853345,1.25478055318889,1.23104643561351,1.17969638193118,1.16075858000372,1.16024985849785,1.13680946365799,1.13839576289521,1.12271108091963,1.08659185159917
