1.2281,1.22893,0.00374405,1.24739,1.24628,1.24442,1.22932,1.25016,1.2365,1.23683,1.24057,1.24273,1.23811,1.23856,1.23978,1.23984,1.24131,1.23834,1.23748,1.23797,1.28098,1.23281,1.23206,1.23034,1.2331,1.23092,1.23095,1.23202,1.23226,1.23203,1.23028,1.22969,1.2281,1.22829,1.22816,1.22714,1.22231,1.22286,1.22401,1.21925,1.21346,1.21382,1.21195,1.22127,1.20297,0.00373046,1.2068,1.20828,1.20846,1.20384,1.20207,1.20247,1.20366,1.20349,1.20545,0.0038969,1.20247,1.20079,1.20152,1.20123,1.19657,1.19605,1.19242,1.19708,1.19583,0.00348881,1.1987,1.19545,1.19516,1.19403,1.19541,1.19959,1.19949,1.19825,1.1967,1.19775,1.19157,1.19149,1.30228,1.19819,1.19862,1.19783,1.19796,1.19866,1.20101,1.20076,1.2045,1.20466,1.20478,1.20464,1.20469,1.20217,1.19969,1.20023,1.28402,1.22555,1.1946,1.18767,1.18824,1.29952,1.20179,1.20394,1.20471,1.20483,1.20598,1.20836,1.20831,1.21031,1.25106,1.20194,1.2016,1.20451,1.31606,1.23543,1.23327,1.43524,1.43557,1.32442,1.21479,1.21383,1.21235,1.21206,1.21183,1.21176,1.21305,1.21404,1.2119,1.33622,1.33037,1.20348,1.32014,1.19593,1.1953,1.19286,1.19179,1.19092,1.19075,1.19023,1.1898,1.18937,1.18914,1.18942,1.19196,1.2186,1.21964,1.24688,1.48449,1.2255,1.22447,1.22279,1.22308,1.22577,1.22535,1.22555,1.22541,1.22681,1.22896,1.22929,1.23153,1.41211,1.24628,1.24595,1.27382,1.25376,1.25304,1.25586,1.25661,1.26017,1.32326,1.32406,1.32255,1.27459,1.27418,1.27329,1.27434,1.27589,1.27549,1.27637,1.27499,1.27162,1.27379,1.27737,1.33692,1.28308,1.37928,1.29725,1.2968,1.39326,1.39184,1.28587,1.28658,1.28619,1.29532,1.41123,1.30754,1.38205,1.40266,1.24612,1.41902,1.32354,1.52172,1.42206,1.33979,1.36625,1.23454,1.23558,1.33505,1.34042,1.21672,1.216,1.21499,1.21539,1.21362,1.21182,1.21176,1.2106,1.20967,1.21174,1.20919,1.20884,1.20987,1.21085,1.21083,1.21189,1.21279,1.21183,1.21251,1.21287,1.21217,1.21477,1.21342,1.21437,1.21648,1.2163,1.21715,1.21629,1.21605,1.2143,1.2141,1.22513,1.22023,1.22109,1.22072,1.22076,1.21974,1.21818,1.2137,1.24452,1.20652,1.20487,1.20479,1.2045,1.2042,1.20388,1.20365,1.20345,1.20344,1.20091,1.20038,1.20298,1.20435,1.20426,1.20697,1.20554,1.20445,1.203,1.20213,1.20273,1.29144,1.20513,1.20633,1.20802,1.21015,1.21172,1.26185,1.20906,1.23818,1.20942,1.20994,1.21164,1.31297,1.61599,1.61677,1.60221,1.6067,1.22936,1.42262,1.26416,1.31523,1.22932,1.31838,1.28079,1.23312,1.23393,1.23432,1.2326,1.2333,1.23474,1.23644,1.23913
1.22821,0.00354596,0.00351123,0.00346285,0.00378266,1.25353,0.00359319,1.29386,1.31751,1.24016,1.24116,1.24117,1.2647,1.24256,1.24356,1.2413,1.2418,1.24281,1.23715,1.2377,1.23966,1.28173,1.23321,1.23323,1.23256,1.23232,1.23053,1.23187,1.23201,1.23126,1.23085,1.23092,1.2273,1.22716,1.22867,1.22807,1.22859,1.22626,1.22531,1.22218,1.22307,1.21353,1.21091,1.21033,1.28044,1.2837,1.2117,1.21191,1.21202,1.21551,1.201,1.46066,0.0036037,1.20827,1.20876,0.00375882,1.21048,1.20254,1.20174,1.20251,1.19976,1.20062,1.1979,1.1976,1.19585,1.19793,1.19781,1.19826,1.19827,1.1934,1.19883,1.19889,1.19983,1.20182,1.19795,1.19849,1.19106,1.19128,1.21316,1.19879,1.19909,1.19871,1.19766,1.19771,1.1994,1.19947,1.19962,1.20518,1.20477,1.20482,1.20508,1.20372,1.20215,1.27957,1.22041,1.20081,1.31498,1.19465,1.19483,1.19798,1.20161,1.20257,1.2037,1.20732,1.20816,1.20865,1.20887,1.21055,1.20198,1.20188,1.20178,1.20377,1.20294,1.23247,1.20564,1.34585,1.34449,1.21005,1.2139,1.2129,1.21222,1.21276,1.21315,1.21244,1.21252,1.21437,1.21506,1.21382,1.23934,1.23773,1.25001,1.19785,1.19517,1.19501,1.19101,1.19074,1.18936,1.18929,1.19008,1.19005,1.19098,1.3654,1.29927,1.22663,1.19872,1.24582,1.24498,1.388,0.00376143,1.22377,1.22412,1.22527,1.22574,1.22642,1.2259,1.22873,1.22871,1.229,1.23256,1.36046,1.36104,1.28902,1.2879,1.25299,1.25322,1.25659,1.26027,1.26035,1.2636,1.26825,1.38864,1.27419,1.27299,1.27387,1.27668,1.27727,1.27752,1.27728,1.27636,1.27648,1.2776,1.34649,1.35116,1.35375,1.29868,1.29681,1.29726,1.3237,1.28506,1.28391,1.28716,1.28801,1.30959,1.30792,1.42819,1.35422,1.47134,1.42608,1.4522,1.42132,1.42139,1.22917,1.40344,1.41286,1.41401,1.23825,1.33392,1.27956,1.21654,1.21644,1.21495,1.21424,1.21005,1.21135,1.21035,1.20912,1.21004,1.21057,1.20991,1.21252,1.21246,1.21213,1.21155,1.2092,1.20814,1.20843,1.21087,1.21017,1.20906,1.2113,1.21532,1.21423,1.21577,1.21476,1.21518,1.21698,1.21619,1.2163,1.33803,1.21925,1.21862,1.21827,1.21864,1.21845,1.21921,1.21902,1.21544,1.21511,1.2088,1.20821,1.20687,1.20446,1.20448,1.20402,1.20331,1.2027,1.203,1.20219,1.20026,1.20067,1.20307,1.20301,1.20303,1.20279,1.20295,1.20207,1.20136,1.20156,1.33431,1.20655,1.20816,1.20818,1.21064,1.21131,1.21264,1.21592,1.27033,1.2302,0.00369988,1.28207,1.22512,1.22323,0.0033685,1.22448,1.22302,1.22782,1.51119,1.29235,1.2316,1.24617,1.23569,1.23007,1.23348,1.23637,1.23715,1.23766,1.23716,1.2375,1.23917,1.24029
1.50608,0.00389424,1.23878,0.00353377,0.00433904,0.00337989,0.00363726,1.31853,1.30278,0.00357232,1.24468,1.24725,1.24622,1.24267,1.24278,1.24347,1.24351,1.24595,1.23873,1.24065,1.23963,1.24649,1.23604,1.23578,1.23585,1.23366,1.2323,1.23221,1.23277,1.23025,1.22955,1.23025,1.2308,1.22898,1.22881,1.22899,1.22892,1.2277,1.22743,1.22391,1.34115,1.34153,1.22262,1.2163,1.24769,0.00386307,1.21415,1.21169,1.21189,1.21302,1.31988,1.21996,1.21399,1.21356,1.2115,1.21056,1.21066,1.20908,1.2037,1.20274,1.20099,1.20097,1.26717,1.19823,1.19892,1.19953,1.20048,1.20052,1.19749,1.19705,1.201,1.20158,1.20085,1.20111,1.20012,1.20798,1.19091,1.20391,1.19767,1.19848,1.19925,1.1996,1.19934,1.19956,1.20012,1.19961,1.19912,1.19944,1.20544,1.20809,1.20801,1.20536,1.20375,1.20363,1.20569,1.20299,1.2014,1.19922,1.26733,1.1991,1.20165,1.20399,1.20607,1.20716,1.20813,1.20834,1.20702,1.20621,1.20588,1.20277,1.20229,1.20464,1.20454,0.00361637,1.20735,1.20858,1.20859,1.21058,1.21045,1.21124,1.21219,1.21254,1.21278,1.21342,1.21336,1.21388,1.21495,1.21545,1.32768,1.23564,1.23521,1.19861,1.19809,1.19488,1.23201,1.23688,1.23337,1.28542,1.28197,0.00361451,1.22717,1.22399,1.22374,1.19666,1.20104,1.20292,1.4332,0.00376708,1.22387,1.22321,1.22208,1.2224,1.22788,1.2269,1.22872,1.22814,1.22676,1.22671,1.2361,1.23582,1.32203,1.24616,1.24635,1.25164,1.25336,1.25575,1.26001,1.264,1.26661,1.26687,1.27228,1.27374,1.27413,1.27727,1.2772,1.27659,1.27859,1.27911,1.36023,1.3592,1.28516,1.28489,1.35348,1.35289,1.29684,1.29648,1.2937,1.28225,1.28815,1.28848,1.28758,1.28684,1.37535,1.31025,1.42021,1.36499,1.46751,1.45976,1.42266,1.4191,1.23717,1.2428,1.37143,1.21172,1.21157,1.2106,1.21026,1.26363,1.21567,1.21545,1.21251,1.21239,1.20997,1.21013,1.20969,1.2101,1.21178,1.21102,1.21181,1.21173,1.21172,1.2139,1.21553,0.00346894,1.22287,1.21024,1.21056,1.2116,1.20895,1.21282,1.21449,1.21494,1.21395,1.21484,1.21507,1.21566,1.21703,1.21652,1.2184,1.21865,1.2179,1.21663,1.21846,1.2187,1.2191,1.21869,1.21965,1.21629,1.21023,1.20797,1.20767,1.20453,1.20426,1.20388,1.20318,1.20245,1.20225,1.20488,1.20124,1.20119,1.20148,1.20092,1.20125,1.2021,1.20176,1.20137,1.20055,1.19989,1.20552,1.20507,1.30689,1.21266,1.21256,1.21302,1.21338,1.21508,1.21641,1.22054,1.22031,1.22168,1.22377,1.22555,1.22584,1.22691,1.22644,1.22743,1.23193,1.23303,1.31036,1.2568,1.32565,1.23246,1.23419,1.23849,1.23889,1.23823,1.23906,1.2417,1.24326,1.24325
1.24943,1.24323,1.24326,1.24281,1.24556,1.26161,1.2636,0.00405498,0.00356073,0.00392378,1.24989,1.24978,1.24652,1.2433,1.24322,1.24393,1.24506,1.24658,1.24629,1.24072,1.24082,1.2409,1.24115,1.23773,1.23709,1.23637,1.23287,1.23312,1.23229,1.22927,1.22979,1.23306,1.23099,1.23072,1.22913,1.22933,1.22941,1.23077,1.24765,1.24664,1.35888,1.22358,0.00387028,1.22052,1.21938,1.21899,1.21842,1.21704,1.31862,1.21472,1.2159,1.2168,1.21554,1.21234,1.20988,1.20976,1.20978,1.2102,0.00340464,0.00425309,1.29152,1.21041,1.20249,0.00362714,1.20176,1.20149,1.20287,1.19743,1.19722,1.19746,1.20128,1.20118,1.20115,1.20097,1.20028,1.19922,1.1982,1.19813,1.19798,1.19869,1.19923,1.1981,1.19792,1.20024,1.20037,1.19971,1.19939,1.20125,1.20152,1.20345,1.20842,1.20785,1.2031,1.20306,1.20457,1.20466,1.20469,1.20514,1.20279,1.20242,1.20219,1.20565,1.20681,1.20778,1.20787,1.20749,1.20706,1.20623,1.20498,1.20275,1.20695,1.22396,1.20907,1.21181,1.20981,1.20904,1.20853,1.21049,1.20948,1.20892,1.21198,1.21253,1.21247,1.21287,1.21365,1.21488,1.21506,1.21475,1.21557,1.3267,1.20287,1.23328,1.23224,1.2261,1.20918,1.2231,1.2096,1.21229,1.23275,1.19666,1.22566,1.22588,1.22458,1.19999,1.20201,1.24655,1.21116,0.00378974,1.22262,1.22214,1.22198,1.22342,1.22793,1.22906,1.22831,1.22801,1.22871,1.23664,1.23744,1.23947,1.24701,1.25159,1.25158,1.25216,1.25038,1.25549,1.26044,1.26409,1.26657,1.26738,1.26908,1.27401,1.2754,1.2769,1.27758,1.2785,1.27846,1.28183,1.28261,1.28259,1.28571,1.28601,1.30194,1.30049,1.30908,1.29762,1.32689,1.28484,1.29142,1.28922,1.28947,1.38879,1.54128,1.26715,1.30881,1.25184,1.46239,1.46129,1.23482,1.42442,1.42017,1.39575,1.3282,1.21191,1.21163,1.21075,1.2102,1.215,1.21388,1.21316,1.20973,1.20868,1.20865,1.21002,1.21097,1.21053,1.21278,1.21275,1.21185,1.21233,1.21248,1.20622,1.206,1.20566,1.2056,1.41115,1.20901,1.21044,1.2114,1.21594,1.21474,1.21418,1.21763,1.21945,1.21844,1.21787,1.21764,1.21938,1.21936,1.21878,1.21808,1.21598,1.2157,1.21914,1.21972,1.21861,1.21902,1.21907,1.21988,1.21152,1.2082,1.20824,1.20621,1.20403,1.20367,1.20256,1.20207,1.20423,1.20426,1.20132,1.20153,1.20187,1.20528,1.20467,1.20526,1.20528,1.20013,1.29486,1.20512,1.20576,1.21077,1.21029,1.21335,1.21499,1.2153,1.21854,1.21741,1.22083,1.22046,1.22235,1.22319,1.22609,1.22676,1.22939,1.23058,1.23224,1.23211,1.23605,1.23612,1.37274,1.4,1.23459,1.23341,1.24012,1.27148,1.36079,1.24446,1.24504,1.24552,1.2436
1.24312,1.24319,1.24426,1.24529,1.24512,1.2453,1.26369,0.00364176,1.28109,1.30532,1.25326,1.25349,1.25169,1.24526,1.24473,1.24699,1.24863,1.24767,1.24717,1.31467,1.28267,1.24187,1.24343,1.24172,1.24057,1.2376,1.23649,1.23544,1.23403,1.23602,1.23609,1.23348,1.23293,1.23247,1.23058,1.23068,1.23126,1.2323,1.23439,0.00338728,1.22722,1.22859,1.22725,0.00379055,1.22472,1.22015,1.34288,0.00359576,1.2202,1.21884,1.21911,1.21845,0.00388848,0.0032892,1.20929,1.20877,1.20873,0.00389916,0.00363089,0.0037163,1.20847,1.20841,1.20869,1.20469,1.20238,1.20173,1.19714,1.19691,1.19708,1.20205,1.20089,1.20105,1.20132,1.201,1.1991,1.19842,1.19755,1.19768,1.19845,1.19863,1.19888,1.19965,1.20006,1.19993,1.19979,1.19956,1.2,1.20227,1.20171,1.20309,1.20355,1.20358,1.2028,1.2023,1.20256,1.20459,1.20374,1.20368,1.20294,1.2014,1.20402,1.20684,1.20726,1.20799,1.20755,1.20713,1.20652,1.20591,1.20511,1.20973,1.20924,1.20992,1.20968,1.20939,1.20891,1.20928,1.20894,1.20835,1.20954,1.21145,1.21153,1.21207,1.21249,1.21339,1.21427,1.21456,1.2145,1.21478,1.21522,1.23301,1.23038,1.22927,1.22926,1.22893,1.55136,1.30144,1.20651,1.47486,1.47404,1.27576,1.22294,1.22771,1.30611,1.49637,1.25351,1.24691,1.20991,1.2154,1.21837,1.22229,1.22547,1.23067,1.22912,1.22896,1.22894,1.22632,1.22664,0.00364312,1.25849,1.24339,1.24739,1.25006,1.2502,1.25076,1.25358,1.25564,1.26467,1.2648,1.26509,1.26928,1.27072,1.27167,1.27551,1.27569,1.28063,1.2799,1.27871,1.2784,1.28492,1.28681,1.28664,1.35415,1.30094,1.29992,1.3033,1.30313,1.4291,1.28514,1.28967,1.28864,1.40336,1.38883,1.389,1.38944,1.25786,1.53348,1.24495,1.24026,1.38732,1.44301,1.23626,1.36402,1.26115,1.21264,1.21148,1.21064,1.21396,1.2131,1.2119,1.21051,1.21027,1.20963,1.20931,1.21247,1.21341,1.21147,1.21216,1.21311,1.21317,1.21924,1.22088,1.20549,1.20579,1.2058,1.20564,1.20598,1.3524,0.00374035,1.20996,1.2149,1.21536,1.21752,1.2181,1.21835,1.2184,1.21849,1.21695,1.2197,1.22117,1.22185,1.21762,1.21578,1.21547,1.21651,1.21928,1.22107,1.22026,1.22028,1.21858,1.21918,1.2073,1.2081,1.20934,1.20478,1.20504,1.20479,1.20279,1.20409,1.20501,1.20888,1.20288,1.20372,1.20533,1.20463,1.20493,1.20377,1.29614,1.32732,1.28738,1.21291,1.34901,1.40205,1.50853,1.50903,1.21948,1.21876,1.219,1.22189,1.22184,1.22349,1.22715,1.22779,1.22989,1.23168,1.23118,1.23092,1.2341,1.23414,1.23614,1.2368,1.29373,1.2364,1.23604,1.24174,1.24126,1.24341,1.24562,1.24817,1.24633,1.24859
1.2437,1.24347,1.24438,1.24669,1.24572,1.24542,1.24413,1.30953,1.30152,1.25529,1.25306,1.25283,1.25196,1.24997,1.2499,1.24966,1.25106,1.25214,1.25375,1.25417,1.25431,1.25279,1.24365,1.24288,1.24308,1.23845,1.23852,1.23944,1.23612,1.23585,1.23631,1.23781,1.23615,1.23603,1.23304,1.23265,1.23302,1.23342,1.23372,1.23246,1.23263,1.22943,1.22911,1.22941,1.22695,1.23688,1.34014,1.32595,1.31891,1.22224,1.22304,1.2232,1.22395,1.45163,1.44909,1.45099,1.26765,0.00400453,0.00364528,1.21473,1.2131,1.21158,1.2104,1.21027,1.20814,1.23989,1.19706,1.19623,1.19658,1.20237,1.20266,1.20166,1.1996,1.19976,1.19758,1.19747,1.19648,1.19508,1.19785,1.1987,1.20019,1.20014,1.20143,1.20109,1.20155,1.20365,1.20312,1.20299,1.20186,1.20388,1.20476,1.20273,1.20343,1.20211,1.2016,1.27713,1.30593,1.41355,1.19883,1.1991,1.21639,1.22334,1.20619,1.20595,1.20811,1.20738,1.20754,1.208,1.20882,1.20857,1.2085,1.21089,1.21188,1.20883,1.20833,1.20859,1.20831,1.20826,1.20994,1.21188,1.21237,1.21222,1.21056,1.21525,1.21491,1.21464,1.2145,1.21422,1.21434,1.23354,1.20836,1.20747,1.2278,1.21569,1.21564,0.00405582,0.00358427,0.00396544,1.21178,1.21051,1.21186,1.52135,0.00350726,1.50562,1.47177,1.26422,1.27181,1.21528,1.21821,1.21926,1.2252,1.22939,1.22989,1.23001,1.22722,1.22573,1.22573,1.39861,1.23943,1.2448,1.24651,1.33706,1.2519,1.25187,1.25674,1.25784,1.26114,1.26365,1.26345,1.26922,1.27292,1.27226,1.27842,1.27941,1.28265,1.28183,1.28002,1.28053,1.2824,1.28634,1.3289,1.31946,1.30143,1.30121,1.30172,1.30221,1.32,1.2911,1.28886,1.29038,1.42497,1.35749,1.3227,1.53329,1.50011,1.4975,1.24378,1.47205,1.23611,1.23615,1.35098,1.50717,1.30015,1.21169,1.21093,1.20967,1.21272,1.21192,1.21007,1.20876,1.20862,1.20811,1.2082,1.21344,1.21205,1.21545,1.2099,1.2098,1.21855,1.21965,1.22234,1.20376,1.20529,1.20521,1.20531,1.20566,0.00370761,1.22221,0.00393275,1.3054,0.00385257,1.21509,1.21683,1.21869,1.21756,1.21715,1.22233,1.22068,1.22045,1.22131,1.21951,1.21575,1.21613,1.21843,1.21905,1.22009,1.22046,1.21966,1.21898,1.21643,1.21567,1.21027,1.2108,1.21177,0.00363388,1.32963,1.23491,1.20469,1.20554,1.2068,1.20481,1.20709,1.20517,1.20669,1.20761,1.20738,1.29582,1.30784,1.20707,1.21126,1.20908,1.21228,1.50695,1.50749,1.22177,1.22189,1.224,1.22287,1.22571,1.22547,1.22765,1.23023,1.232,1.23087,1.23229,1.23236,1.23421,1.23557,1.23674,1.23585,1.23551,1.23897,1.2364,1.24046,1.24068,1.24638,1.2489,1.247,1.24674,1.24987
1.24634,1.24601,1.2459,1.24593,1.24364,1.24366,1.24392,1.24603,1.25467,1.25578,1.25644,1.25374,1.25411,1.2493,1.25004,1.25303,1.25221,1.25188,1.25351,1.25715,1.25662,1.25573,1.24646,1.2459,1.23667,1.23834,1.23837,1.24074,1.23918,1.23592,1.23736,1.2373,1.23683,1.23669,1.23454,1.23469,1.23467,1.23561,1.36898,1.23684,1.23719,1.23325,1.35344,1.23235,1.23183,1.23178,1.2305,1.23947,1.2315,1.22742,1.22602,1.2248,1.22499,1.48642,1.23239,1.44135,1.22239,1.22049,1.21913,1.21491,1.21193,1.21109,1.20987,1.20966,1.24495,1.25084,1.19738,1.19576,1.21569,1.2015,1.20155,1.1992,1.19947,1.19969,1.197,1.19647,1.19589,1.19552,1.1992,1.20046,1.20061,1.20145,1.20146,1.20138,1.20471,1.20475,1.20523,1.20529,1.20442,1.20491,1.205,1.2044,1.20237,1.20208,1.20103,1.19791,1.19774,1.19703,1.21668,1.19781,1.21546,1.22477,1.34788,1.20591,1.20503,1.20475,1.20829,1.20783,1.20794,1.20778,1.20585,1.21069,1.21075,1.20906,1.20884,1.20842,1.20888,1.20864,1.20947,1.21055,1.21177,1.21205,1.21129,1.21373,1.21563,1.21513,1.21408,1.21367,1.21424,1.21607,1.2306,0.00341815,1.22231,1.22275,1.22447,1.21929,1.26515,0.00372237,1.50153,1.21086,1.21174,1.21157,1.21132,1.4715,0.0105124,1.2597,1.45872,1.45016,1.44714,0.00345753,1.22815,1.22909,1.23472,1.23217,1.22936,1.22873,1.22981,1.2371,1.23898,1.24544,1.24586,1.29854,1.25432,1.2554,1.25942,1.2616,1.26304,1.26439,1.26561,1.27222,1.27149,1.27212,1.28301,1.28356,1.28459,1.28224,1.27932,1.28064,1.28361,1.35862,1.29701,1.29984,1.29982,1.31568,1.47794,1.32481,1.46501,1.28862,1.28869,1.29023,1.34802,1.28308,1.28391,1.25822,1.25381,1.39449,1.48503,1.44373,1.23249,1.39252,1.23707,1.23792,1.25441,1.21126,1.2104,1.20885,1.21234,1.21208,1.20945,1.20866,1.20825,1.20755,1.20837,1.20806,1.36837,1.20808,1.21561,1.20828,1.2049,1.20462,1.20281,1.20398,1.20465,1.20601,1.20506,1.20454,1.22086,1.22118,1.22267,0.00366289,1.25733,1.25458,1.25368,1.25872,1.21966,1.21974,1.22166,1.22185,1.22157,1.21964,1.22046,1.21663,1.21572,1.21867,1.22177,1.22073,1.22031,1.21911,1.21853,1.21859,1.21977,1.21367,1.21043,1.21201,1.22275,1.22318,1.22725,1.46289,1.42623,1.21047,1.20839,1.20899,1.20819,1.20897,1.20929,1.21082,1.3227,1.29238,1.20989,1.21119,1.21312,1.21262,1.35723,1.51274,1.30733,1.2255,1.22473,1.22829,1.22934,1.22896,1.36108,1.23386,1.23342,1.23447,1.2342,1.23649,1.23376,1.23266,1.23346,1.23443,1.23598,1.23627,1.24012,1.24126,1.24249,1.24647,1.24767,1.24952,1.25041,1.25161
1.248,1.24759,1.24801,1.24419,1.24404,1.2441,1.2445,1.27044,1.25328,1.25576,1.2547,1.25361,1.25359,1.25021,1.24979,1.25189,1.25166,1.25181,1.25667,1.25629,1.25579,1.35365,1.29804,1.24811,1.24826,1.25897,1.24275,1.24218,1.24069,1.24058,1.23933,1.23956,1.2376,1.23619,1.23712,1.23636,1.2365,1.23825,1.23824,1.23572,1.23663,1.24029,1.23581,1.23206,1.23204,1.23243,1.2322,1.23235,1.23088,1.23273,1.23302,1.23163,1.23065,1.23012,1.2268,1.2238,1.2219,1.22117,1.21841,1.2127,1.21156,1.20977,1.20973,1.21047,1.20764,1.54049,1.19658,1.19604,1.21473,1.20284,1.20194,1.19979,1.19817,1.19867,1.19838,1.19682,1.19733,1.19861,1.19918,1.20007,1.20013,1.20133,1.20238,1.20508,1.20358,1.20531,1.2066,1.20712,1.20574,1.20501,1.2049,1.20449,1.20389,1.20234,1.19969,1.19795,1.21885,1.19472,1.21852,1.21773,1.19696,1.39438,1.37443,1.20572,1.20639,1.2064,1.20802,1.20894,1.20954,1.20992,1.20991,1.20937,1.20901,1.20853,1.20834,1.20888,1.20749,1.20943,1.20817,1.209,1.21181,1.21352,1.21362,1.21393,1.21396,1.21517,1.21433,1.21417,1.21535,1.21522,1.22372,1.21751,1.21963,1.22005,1.22198,1.2219,1.22246,1.21919,1.21847,1.211,1.21163,1.21079,1.21102,1.48136,1.50221,1.45538,1.43332,1.49015,1.226,1.22909,1.22891,1.23336,1.23347,1.23234,1.23102,1.22964,1.23037,1.23573,1.23618,1.24503,1.2451,1.24638,0.00361077,0.00388066,1.25748,1.26156,1.26331,1.26394,1.67188,1.27362,1.27415,1.28407,1.28183,1.28605,1.28435,1.28421,1.28402,1.27906,1.39134,1.39151,1.29822,1.29821,1.2979,1.41183,1.47726,1.33298,1.32074,1.28777,1.28833,1.28956,1.33934,1.28623,1.29119,1.25695,1.60597,1.24348,1.48168,1.23428,1.22897,1.22745,1.23596,1.25807,1.52454,1.21138,1.20995,1.20923,1.21274,1.21228,1.21042,1.20816,1.20739,1.20806,1.207,1.20667,1.208,1.20723,1.2061,1.2052,1.20469,1.20439,1.20334,1.20253,1.20335,1.20351,1.20292,1.20344,0.00341964,1.22161,1.2101,1.21105,1.21166,1.2579,1.25396,1.37159,1.22045,1.22044,1.2194,1.21963,1.21916,1.21919,1.21883,1.21924,1.21706,1.21849,1.21915,1.2192,1.21958,1.21852,1.21719,1.25914,1.21895,1.21857,1.21158,1.21146,1.21542,1.2138,1.21339,1.42782,1.21587,1.21216,1.21071,1.2102,1.21006,1.2123,1.21504,1.21365,1.21343,1.2122,1.24375,1.21229,1.21292,1.278,1.359,1.35625,1.35027,1.22618,1.2283,1.22925,1.2293,1.2305,1.23452,1.23347,1.23453,1.24005,1.23819,1.23653,1.23483,1.23354,1.23647,1.26795,1.27247,0.00338449,1.39943,1.39835,1.25058,1.24971,1.25406,1.2527,1.25283,1.25618
1.25472,1.28449,1.24413,1.24416,1.24412,1.24452,1.24627,1.27323,1.25411,1.25613,1.25396,1.25325,1.25362,1.25301,1.25129,1.25312,1.25284,1.25398,1.254,1.25536,1.25519,1.32153,1.311,1.24879,1.24861,1.24791,1.2461,1.24459,1.2435,1.24263,1.24283,1.24062,1.23886,1.23821,1.2375,1.23577,1.23631,1.23734,1.23906,1.24174,1.23795,1.23565,1.2354,1.23597,1.23457,1.2346,1.2341,1.23402,1.2341,1.23015,1.22994,1.2303,1.2303,1.22977,1.22853,1.22532,1.22532,1.22042,1.21961,1.21239,1.21114,1.20937,1.20939,1.20945,1.20988,1.21545,1.22284,1.22236,1.20211,1.20159,1.20144,1.19825,1.19771,1.19842,1.20109,1.20005,1.2009,1.20325,1.20491,1.20201,1.20294,1.20395,1.20358,1.20469,1.20494,1.2064,1.20826,1.20844,1.20868,1.20825,1.20842,1.20453,1.20615,1.31137,1.29588,1.21834,1.19504,1.19426,1.19431,1.21913,1.21878,1.35184,1.28194,1.37598,1.20824,1.20821,1.20982,1.21006,1.21145,1.21154,1.21213,1.20813,1.2079,1.20746,1.20831,1.20627,1.20627,1.21264,1.2126,1.21286,1.21626,1.21493,1.21426,1.21473,1.21596,1.2148,1.21722,1.21558,1.21524,1.21607,1.21827,1.21967,1.22036,1.22063,1.22213,1.22262,1.22536,1.22538,1.3173,1.2865,1.21325,1.2124,1.21197,1.2135,1.34644,1.25719,1.25513,1.25449,1.22876,1.22947,1.23324,1.23278,1.23058,1.22939,1.23214,1.23105,1.23289,1.23381,1.2356,1.24177,1.24569,1.40027,1.27158,1.44454,1.39979,1.34441,1.669,0.00382577,1.2703,1.56273,1.28075,1.28041,1.2807,1.28277,1.28398,1.28395,1.28307,0.00342985,0.0105201,1.34003,1.29815,1.29791,1.29787,1.39135,1.45783,1.32731,1.32596,1.30913,1.2908,1.29077,1.5584,1.57689,1.28409,1.24043,1.33901,1.2329,1.2322,1.23217,1.3927,1.22569,1.22403,1.22968,1.24516,1.22059,1.21908,1.21803,1.21594,1.21614,1.2089,1.20805,1.20715,1.20826,1.20602,1.20679,1.20775,1.2073,1.20609,1.20524,1.20482,1.20449,1.20354,1.20247,1.2017,1.20137,1.20209,1.23684,1.39184,1.22635,1.22793,1.22725,1.61408,0.00365372,0.010517,0.00364351,1.21998,1.22189,1.22076,1.21989,1.21864,1.21827,1.22004,1.22023,1.21778,1.21887,1.21899,1.22182,1.2211,1.22233,1.22205,1.29821,1.29805,1.22583,1.21952,1.39271,1.21709,1.21572,1.21524,1.21511,1.21443,1.21465,1.21164,1.20988,1.20935,1.21411,1.21503,1.21599,1.23617,1.23694,1.32999,1.2461,1.2832,1.25699,1.27414,0.00381142,1.34346,0.00382141,1.22754,1.23255,1.23005,1.23284,1.23355,1.2346,1.23757,1.23795,1.23834,1.23585,1.23536,1.23311,1.32279,1.23908,1.36134,1.27614,1.51302,1.25,1.2522,1.25062,1.25289,1.25457,1.25651,1.25787
0.00363222,1.24458,1.24429,1.24402,1.244,1.24481,0.00357755,1.27403,1.25438,1.25564,1.25551,1.25318,1.25303,1.25329,1.25162,1.25312,1.25578,1.2573,1.25761,1.25645,1.2563,1.2553,1.33925,1.25269,1.25136,1.2499,1.24788,1.24533,1.24562,1.24429,1.24381,1.24418,1.24134,1.24064,1.23958,1.23564,1.23739,1.2384,1.2392,1.24027,1.24005,1.23977,1.23962,1.23668,1.23572,1.23722,1.23624,1.23455,1.23455,1.22968,1.22954,1.22783,1.22693,1.23006,1.22992,1.22939,1.22382,1.22325,1.22088,1.21219,1.21159,1.21203,1.20962,1.20946,1.21076,1.20903,1.20894,1.21931,1.2042,1.20314,1.20145,1.19695,1.19763,1.19907,1.19956,1.19855,1.206,1.20507,1.20437,1.2041,1.20378,1.20269,1.20475,1.20444,1.20443,1.20777,1.20796,1.21141,1.21111,1.2102,1.21164,1.21017,1.20836,1.20939,1.42775,1.25232,1.21843,1.19423,1.19407,1.1943,1.19441,1.21863,1.23704,0.00358337,1.21011,1.20991,1.21034,1.21181,1.21156,1.21387,1.21396,1.20696,1.21,1.20862,1.20833,1.20856,1.21013,1.21266,1.21222,1.21555,1.21561,1.21513,1.21706,1.21908,1.21885,1.21859,1.21695,1.21736,1.21741,1.2175,1.21877,1.21856,1.22048,1.22102,1.22143,1.22418,1.22436,1.22374,0.00367837,1.38124,1.2499,1.24796,1.21266,1.21608,1.21801,0.00386742,1.22571,1.25449,1.22931,1.23211,1.2343,1.33955,1.22974,1.22907,1.22926,1.2308,1.23359,1.23606,1.23585,1.33111,1.45957,1.45018,1.45871,1.43373,1.74059,1.35888,1.33313,1.55729,1.71337,1.27698,1.27775,1.2795,1.28128,1.28271,1.28266,1.28102,1.28116,1.50955,0.0035516,1.34284,1.29653,1.29716,1.29862,0.00388543,1.49561,1.27357,1.27408,1.28961,1.29072,1.29193,1.2772,1.28557,1.28545,1.34601,1.40138,1.23144,1.22996,1.22903,1.22765,1.22629,1.22216,1.2247,1.22265,1.21978,1.21962,1.21902,1.2162,1.21616,1.2114,1.21144,1.21038,1.20846,1.20613,1.20692,1.20753,1.20671,1.20578,1.2049,1.20469,1.20384,1.2026,1.2015,1.20144,1.20133,1.23916,1.24083,0.00366831,1.22979,1.23106,1.23298,1.23253,1.60434,0.00355957,0.00423611,0.00387215,1.22315,1.22623,1.22186,1.2205,1.22178,1.22109,1.22257,1.22127,1.21933,1.22007,1.22153,1.22182,1.22167,1.22105,1.22208,1.22697,1.22626,1.22527,1.22498,1.21895,1.21715,1.21494,1.21362,1.21359,1.21157,1.2115,1.21204,1.21213,1.21462,1.21571,1.22364,1.22261,1.55431,1.23956,1.21634,1.26057,1.2498,1.46675,1.35037,1.44084,1.36808,1.23283,1.23255,1.23248,1.234,1.236,1.23512,1.23785,1.23814,1.23662,1.23975,1.24,1.23949,0.00388793,1.27897,1.35664,1.3988,0.00382855,1.25515,1.25425,1.25283,1.25322,1.25396,1.25499,1.25986
1.24985,1.27451,1.24409,1.24392,1.24403,1.24732,1.24925,1.25198,1.2543,1.25498,1.25382,1.25393,1.25315,1.25307,1.25396,1.25316,1.25417,1.36008,1.26654,1.25745,1.25683,1.2571,1.25775,1.25834,1.25415,1.25084,1.25072,1.24676,1.24659,1.24765,1.24704,1.24513,1.24386,1.24145,1.24108,1.39844,1.24006,1.23946,1.23895,1.23921,1.23986,1.23901,1.23911,1.2387,1.23718,1.23578,1.23586,1.23493,1.23534,1.23011,1.2303,1.23001,1.22818,1.22979,1.22956,1.22942,1.22238,1.22229,1.22628,1.20968,1.21096,1.21121,1.20963,1.21072,1.20816,1.20813,1.20815,1.20872,1.20214,1.20294,1.2012,1.19981,1.19848,1.19711,1.19936,1.20056,1.20292,1.20465,1.2046,1.2045,1.20449,1.20597,1.20577,1.20378,1.20473,1.20574,1.20915,1.21151,1.21165,1.20928,1.21002,1.20979,1.20944,1.21032,1.40669,1.31912,1.35098,1.1942,1.19354,1.19373,1.22016,1.22067,1.35401,0.00336639,0.00397256,1.21111,1.21163,1.21189,1.2125,1.21362,1.2141,1.21499,1.20941,1.20825,1.20979,1.21142,1.21276,1.21524,1.21604,1.2189,1.21713,1.21766,1.21892,1.21857,1.21847,1.21823,1.21952,1.2166,1.2186,1.21851,1.21911,1.21754,1.21439,1.21552,1.22202,1.22183,1.22504,1.22521,1.22618,1.26196,1.21651,1.46517,0.00342524,1.21855,1.21844,0.00371888,1.25799,1.41524,1.4551,1.23505,1.23565,1.30635,1.22922,1.22893,1.22888,1.39256,1.5439,1.24122,1.24191,1.31169,1.2455,1.3789,1.44267,1.24478,1.33607,1.3877,1.33182,1.33156,1.28247,1.66605,1.27727,1.27768,1.28061,1.283,1.28261,1.28213,1.28013,1.28217,1.34196,1.36169,1.36302,1.31966,1.34364,1.34231,1.31892,0.00376953,0.00408954,1.28901,1.28886,1.50333,1.53545,1.34117,1.28166,1.34503,1.23287,1.23189,1.22907,1.22844,1.22773,1.22827,1.22525,1.22516,1.2252,1.21935,1.21911,1.2197,1.219,1.21629,1.21253,1.2112,1.21144,1.3811,1.3798,1.20752,1.2064,1.20562,1.20485,1.20461,1.20404,1.20291,1.20184,1.20151,1.20161,1.23916,1.24036,0.00322157,1.38491,0.00361655,1.23121,1.23251,1.23245,1.60098,1.59582,1.59368,1.22985,1.22468,1.22501,1.22384,1.22274,1.22132,1.22133,1.22301,1.22272,1.22416,1.22031,1.22188,1.22191,1.22365,1.22255,1.22267,1.22631,1.22758,1.22755,1.27324,1.27486,1.21543,1.21591,1.21505,1.21564,1.21159,1.21063,1.21203,1.21389,1.21928,1.21989,1.22167,1.22217,1.22128,1.54402,1.25505,1.22023,1.28176,1.24841,1.27374,1.31633,1.36598,1.23204,1.23535,1.23497,1.23549,1.23795,1.23916,1.2402,1.24106,1.24211,1.36126,1.24002,1.28093,1.28098,1.35367,1.25318,1.43621,1.25665,1.25456,1.25381,1.25415,1.25396,1.25663,1.26071,1.26034
1.25093,1.27591,1.24421,1.24479,1.24724,1.24735,1.24767,1.24968,1.25203,1.25587,1.25869,1.25448,1.25693,1.25684,1.25244,1.253,1.25399,1.25677,1.26297,1.26204,1.2573,1.25645,1.25764,1.25925,1.25773,1.25357,1.25225,1.25112,1.25027,1.24892,1.24988,1.24673,1.25001,1.24305,1.24497,1.24396,1.24531,1.24403,1.24586,1.24237,1.24259,1.24512,1.24134,1.24161,1.23854,1.23959,1.23816,1.23905,1.23581,1.23562,1.23319,1.23536,1.22997,1.22913,1.22992,1.23008,1.22508,1.22479,1.22408,1.21607,1.21078,1.20836,1.20744,1.20609,1.2057,1.20677,1.20811,1.208,1.20572,1.20216,1.20033,1.19877,1.19769,1.19757,1.19895,1.19906,1.19965,1.20235,1.3211,1.20574,1.20492,1.20666,1.20619,1.20536,1.20676,1.20724,1.21059,1.21133,1.21092,1.21039,1.21316,1.21248,1.21167,1.21117,1.21133,1.21571,1.21714,1.19385,1.19344,1.19331,1.19449,1.22134,1.19914,1.19903,0.0033517,1.21342,1.21199,1.21273,1.21341,1.21562,1.21601,1.21713,1.22034,1.21679,1.21728,1.21595,1.23818,0.00392399,1.22283,1.22135,1.22116,1.21975,1.21938,1.2192,1.21973,1.22146,1.22176,1.22149,1.22089,1.21962,1.22092,1.22101,1.21696,1.22105,1.22586,1.22408,1.22625,1.22531,1.22633,1.2595,1.21881,1.47458,0.0037843,0.00351261,0.00390695,1.24512,0.0034852,0.00403931,0.00332886,1.23721,1.45803,1.64091,1.23015,1.22882,1.22862,1.22883,1.47592,1.45601,1.2433,1.24496,1.23554,1.62991,1.35722,1.35044,1.56799,1.53727,1.54061,1.32934,1.32,1.60873,1.28474,1.27858,1.27904,1.2837,1.28402,1.28317,1.28362,1.28462,0.00362751,1.3085,1.31945,1.29492,1.2913,1.29113,1.3155,1.28942,1.28932,1.28866,1.2895,1.36152,1.4935,1.47999,1.35844,1.32617,1.23381,1.23189,1.23014,1.22918,1.22891,1.22602,1.22803,1.22613,1.22226,1.22037,1.21989,1.21924,1.2173,1.21631,1.2127,1.21253,1.21426,1.21584,1.21643,1.21845,1.22635,1.20603,1.20484,1.20391,1.20461,1.2031,1.2015,1.23571,1.23958,1.24211,1.24219,1.20951,0.00358874,1.22361,1.22853,1.36205,1.23224,1.23036,1.35205,1.58222,1.22895,1.22692,1.22769,1.2249,1.22586,1.22418,1.22202,1.22238,1.22314,1.22324,1.22278,1.22338,1.22166,1.21559,1.22333,1.22344,1.22593,1.22645,1.22652,1.24708,1.24823,1.37083,1.21626,1.21539,1.21471,1.2083,1.20835,1.20822,1.21543,1.22013,1.22013,1.22272,1.22196,1.22248,1.28758,1.26936,1.22082,1.24154,1.24046,1.24622,1.26714,1.26607,1.34715,1.23685,1.23681,1.23893,1.23946,1.24128,1.24144,1.24307,1.3284,1.24399,1.3323,1.35435,1.3021,1.38514,1.24676,1.24951,1.25528,1.25693,1.2565,1.25448,1.25623,1.2562,1.25963,1.35007
0.00368733,1.24471,1.24429,1.24525,1.24672,1.24697,1.24706,1.25039,1.25292,1.25684,1.25884,1.26099,1.26021,1.26027,1.2584,1.25299,1.25319,1.25623,1.26108,1.26666,1.25961,1.26063,1.25834,1.25783,1.25692,1.25528,1.25691,1.25391,1.25429,1.25157,1.25009,1.24812,1.24923,1.24986,1.25389,1.39644,1.24863,0.00372538,1.47966,1.37768,1.25421,1.24299,1.24557,1.24769,1.24361,1.24096,1.23987,1.23982,1.23925,1.23514,1.235,1.23706,1.23248,1.23023,1.43276,1.22548,1.22485,1.22476,1.22527,1.21629,1.21319,1.20864,1.20802,1.20672,1.20588,1.20563,1.20758,1.20695,1.20888,1.19877,1.19884,1.19513,1.19543,1.19767,1.19875,1.19956,1.20078,0.0035668,1.29411,0.0034472,1.2993,1.20435,1.20562,1.20799,1.20953,1.212,1.21139,1.21175,1.21512,1.21215,1.21254,1.21201,1.21152,1.21117,1.35505,1.45164,1.21868,1.1934,1.1936,1.19293,1.19325,1.22065,1.19779,1.19955,1.20239,1.2738,1.21228,1.213,1.21553,1.21895,1.22142,1.21982,1.21904,1.21816,1.21858,1.21837,1.23761,1.23815,1.22129,1.22142,1.22173,1.21847,1.22089,1.22161,1.22238,1.22219,1.22315,1.2226,1.22236,1.22182,1.22188,1.22599,1.22633,1.22551,1.22421,1.22652,1.22585,1.22641,1.22228,1.25823,1.38172,0.00330158,1.24502,0.00364751,1.24701,0.00397444,1.23809,1.23964,1.2407,1.24055,1.31741,1.45833,1.47864,1.22944,1.22824,1.22756,1.26099,1.22888,1.22916,1.23152,1.23432,0.00342362,1.36836,1.42949,1.56822,1.33295,1.33303,1.32372,1.61021,1.60954,1.28422,1.28401,1.27912,1.27828,1.28211,1.28307,1.28481,1.28516,1.28735,1.30889,1.30965,1.2917,1.29148,1.29144,1.28872,1.2878,1.28744,1.28934,1.29299,1.38046,1.35689,1.25149,1.37168,1.37188,1.23164,1.22908,1.36841,1.22969,1.22842,1.22889,1.22909,1.22427,1.22209,1.21968,1.21898,1.21864,1.21827,1.21629,1.21498,1.21672,1.21647,1.21753,1.21661,1.2168,1.21524,1.51482,1.22532,1.22629,1.22806,1.36253,1.20793,1.23475,1.23966,1.24393,1.24663,0.00376759,1.49826,1.22115,1.22147,1.22444,1.22613,1.22709,1.22792,1.39916,1.22992,1.22747,1.22872,1.22579,1.2258,1.22552,1.22473,1.22417,1.22339,1.22296,1.22297,1.22347,1.22623,1.22097,1.22199,1.2238,1.22511,1.22534,1.22342,1.24593,1.40487,1.41552,1.2151,1.21524,1.21481,1.21329,1.21389,1.21385,1.21523,1.21915,1.21861,1.22273,1.22397,1.22471,1.22573,1.25866,1.22228,1.22175,1.22709,1.27492,1.23349,1.26419,1.40219,1.23923,1.23765,1.24306,1.24023,1.24143,1.24665,1.24613,1.24664,1.24497,1.24365,1.32895,1.35724,1.35056,1.25322,1.2496,1.2506,1.25652,1.25708,1.25767,1.25659,1.26379,1.33856,1.26146
1.29138,1.29478,1.27254,1.24828,1.2476,1.24804,1.24993,1.25055,1.25433,1.25762,1.25987,1.25978,1.25968,1.25943,1.2586,1.25831,1.25963,1.25997,1.26033,1.26812,1.25776,1.25994,1.2594,1.25972,1.25786,1.25629,1.25586,1.25348,1.2531,1.25321,1.25339,1.25386,1.2561,1.25269,1.26041,1.25349,1.25075,1.3746,0.00360636,1.25306,1.25307,1.24757,1.24773,1.24758,1.24751,1.33523,1.23849,1.23965,1.23803,1.23793,1.23824,1.23839,1.23851,1.23414,1.53092,1.22453,1.22494,1.22512,1.2255,1.22584,0.00383484,1.20711,1.20814,1.20828,1.20666,1.20728,1.20675,1.20687,1.20709,1.19975,1.19913,1.19402,1.193,1.19588,1.19634,1.19706,1.19774,1.23981,1.24043,1.28861,1.20196,1.3572,1.20524,1.20933,1.2095,1.20978,1.21285,1.21211,1.21286,1.21273,1.21235,1.21195,1.21095,1.20908,1.20802,1.29602,1.22226,1.1935,1.19343,1.19263,1.19253,1.21993,1.21976,1.1987,1.26049,1.23833,1.34404,0.00370297,1.2185,1.22172,1.22123,1.22197,1.22193,1.2204,1.21941,1.21949,1.25907,1.23689,1.22043,1.22258,1.22182,1.21931,1.22075,1.22099,1.22313,1.2247,1.22541,1.22591,1.22617,1.22627,1.22457,1.22546,1.22535,1.22452,1.2256,1.22593,1.22439,1.22558,1.22284,1.26196,1.26261,1.2602,1.2557,1.25642,1.25138,1.22912,1.25035,1.24317,1.24303,1.47483,1.23658,1.25647,1.45978,1.23108,1.22582,1.22673,1.22659,1.22743,1.2599,1.23564,1.23216,1.37501,1.3851,1.43259,1.68122,1.84159,1.60733,1.60868,1.28613,1.60745,1.28325,1.55155,1.55362,1.28117,1.2813,1.2843,1.28682,1.28565,1.2845,1.36085,1.30903,1.29952,1.29855,1.30112,1.30734,1.28631,1.2883,1.28817,1.2818,1.48208,1.38576,1.40095,1.47946,1.40685,1.2279,1.22638,1.22646,1.22534,0.00359984,1.22556,1.22592,1.22543,1.22693,1.21887,1.21938,1.21951,1.21906,1.21667,1.21521,1.21497,1.21522,1.21686,1.21883,1.21863,1.21617,1.21571,1.21497,1.22595,1.22745,1.22894,0.00371515,1.23931,1.23763,1.33416,1.26163,1.24135,1.50647,1.2213,1.22162,1.22476,1.22552,1.22814,1.22904,1.22894,1.22959,1.22907,1.22762,1.2288,1.22737,1.22613,1.22625,1.22532,1.22602,1.22537,1.22706,1.22606,1.22277,1.22186,1.22023,1.22215,1.22367,1.22604,1.22608,1.22336,0.00364931,1.21613,1.215,1.21693,1.21693,1.21432,1.21495,1.21367,1.21521,1.21611,1.22538,1.22206,1.22457,1.22957,1.22824,1.22966,1.22907,1.22688,1.23305,1.23228,1.23269,1.2574,1.24055,1.23974,1.23737,1.25415,1.25466,1.24459,1.24413,1.24675,1.25279,1.25152,1.2533,1.25039,1.25051,1.25076,1.25097,1.24995,1.25285,1.25447,1.25912,1.26734,1.26712,1.26719,1.26816,1.25983
1.29649,1.28616,0.00349584,0.00368488,1.25458,1.25199,1.25229,1.25296,1.25391,1.25493,1.26117,1.25874,1.25981,1.25994,1.26013,1.25768,1.25999,1.25867,1.25384,1.2535,1.30247,1.25817,1.25869,1.2586,1.25683,1.25516,1.26579,1.2523,1.25221,1.25145,1.25207,1.25507,1.25435,1.25771,1.25719,1.25718,1.32769,1.25651,1.25541,1.25383,1.25301,1.24662,1.24694,1.24708,1.24694,1.24646,1.24765,1.23758,1.23719,1.23712,1.23926,1.23904,1.2348,1.23639,1.23477,1.59367,1.22369,1.22438,1.22459,1.22481,1.2465,0.00361648,1.28613,1.21173,1.20897,1.20807,1.20783,1.20726,1.19949,1.19992,1.19994,1.19444,1.19449,1.19492,1.19428,1.1949,1.19626,1.19691,1.26064,1.19894,1.24014,0.00356768,1.33099,1.20852,1.20886,1.20825,1.21248,1.21202,1.21338,1.21306,1.21179,1.21156,1.21112,1.20874,1.20904,1.30124,1.37518,1.19687,1.19379,1.19247,1.19175,1.19216,1.19533,1.20022,1.20035,1.20466,1.23733,0.00353545,0.00358195,1.21967,1.223,1.22222,1.22216,1.22202,1.22234,1.22209,1.22437,1.23378,1.22768,1.22446,1.22237,1.22277,1.22232,1.22262,1.22379,1.22536,1.22643,1.22574,1.22726,1.22776,1.22769,1.22437,1.22409,1.22475,1.22479,1.22616,1.22757,1.22877,1.25787,1.26094,1.25986,0.00379373,1.25628,1.25494,1.2529,1.25136,1.246,1.24464,1.24433,1.60514,1.25338,0.00334999,1.23309,1.2323,1.24294,1.22735,1.22668,1.22622,1.2274,1.23894,1.23305,1.23268,1.38222,1.62812,1.8424,1.84202,1.66139,1.28094,1.35011,1.45561,1.58239,0.0036322,1.55281,1.28141,1.2833,1.28475,1.28354,1.28618,1.28457,1.28415,1.28832,1.2957,1.28457,1.28415,1.30539,1.28902,1.35389,1.35371,1.29178,1.43656,1.38776,1.36781,1.47968,1.23752,1.22665,1.22661,1.22631,1.22373,1.22423,1.22457,1.22444,1.22477,1.22605,1.21794,1.21694,1.22034,1.21861,1.21952,1.21868,1.21729,1.21545,1.21667,1.21786,1.21797,1.21915,1.21872,1.21841,0.00369102,1.56779,0.00370376,1.23228,1.23655,1.23755,1.21503,1.21512,0.00384376,1.22132,1.21999,1.22308,1.22313,1.22707,1.23018,1.23134,1.23178,1.55616,1.23215,1.22982,1.22948,1.22978,1.22911,1.2277,1.22692,1.227,1.22573,1.22953,1.22901,1.22624,1.22472,1.2236,1.222,1.22456,1.22538,1.22597,1.26357,1.23882,1.21783,1.21699,1.21717,1.21624,1.21658,1.21324,1.2142,1.214,1.21703,1.21929,1.2226,1.22405,1.22589,1.23008,1.2295,1.22953,1.23092,1.23282,1.2327,1.23563,1.24119,1.23926,1.24075,1.4271,1.42702,1.24446,1.24434,1.24654,1.25121,1.25131,1.25184,1.25067,1.25164,1.25384,1.25136,1.25224,1.25263,1.2508,1.25559,1.25703,1.34723,1.26473,1.26354,1.23456,1.27095
1.29774,0.00372037,0.00355674,1.25553,1.25567,1.25664,1.255,1.25548,1.25546,1.25642,1.26355,1.26255,0.00381596,1.26302,1.26357,1.26095,1.26091,1.26084,1.26256,1.26463,0.00393132,0.00361195,1.25709,1.26358,1.2602,1.26089,1.26147,1.25221,1.25144,1.25521,1.25443,1.25488,1.25614,1.25661,1.25511,1.25488,1.25692,1.25958,1.25389,1.25346,1.25207,1.25042,1.24921,1.24676,1.24621,1.2462,1.24657,1.24537,1.23646,1.2364,1.23965,1.23667,1.23486,1.23554,1.2348,1.25921,1.22329,1.22327,1.22376,1.22379,1.22441,0.00418661,0.0040378,1.21108,1.21013,1.20905,1.20901,1.20813,1.19963,1.19995,1.19966,1.20198,1.19443,1.19282,1.19432,1.19423,1.19479,1.19714,1.26403,1.20074,1.22979,1.22221,0.0037995,1.20844,1.20805,1.20832,1.21169,1.21161,1.21223,1.21299,1.21209,1.21157,1.21138,1.20998,1.20832,1.30491,1.37778,1.19708,1.19466,1.19208,1.19881,1.23091,1.34403,1.19975,1.20033,1.20243,1.25759,1.24132,1.24316,1.42692,1.22642,1.22044,1.22366,1.22479,1.22878,1.22657,1.22671,1.22887,1.22791,1.22543,1.22372,1.22376,1.225,1.22457,1.22661,1.22559,1.22757,1.22767,1.22904,1.23056,1.23063,1.22548,1.22649,1.38278,0.0037332,0.0041035,0.00379315,1.23038,1.26368,1.25934,1.25868,1.25864,1.25769,1.2556,1.25361,1.25362,1.24374,1.24592,1.24613,1.24715,1.25373,1.25716,1.2322,1.23182,1.23129,1.22752,1.22829,1.22653,1.22965,1.23192,1.23315,1.3547,1.30304,1.69715,1.69691,1.43674,1.25227,1.27985,1.2832,1.26214,0.00356364,1.62981,1.56567,1.28261,1.28699,1.28719,1.28672,1.28499,1.28359,1.28295,1.3476,1.30181,1.28081,1.27981,1.30131,0.0034491,0.00370565,1.4419,1.45103,1.46826,1.27011,1.24372,1.24407,0.00425573,1.25148,1.22557,1.22786,1.22433,1.22416,1.22364,1.22302,1.22353,1.2253,1.22089,1.22192,1.22188,1.22117,1.21985,1.21859,1.21801,1.21594,1.21784,1.22054,1.22009,1.21944,1.22129,1.22118,1.22217,1.23211,1.23058,1.23173,1.23317,1.23334,1.21544,1.23113,1.22778,1.22484,1.22322,1.22422,1.22605,1.22793,1.23235,1.23333,1.23374,1.2344,1.23377,1.23026,1.2289,1.22894,1.22995,1.22738,1.22712,1.2258,1.22576,1.22814,1.22848,1.22933,1.22856,1.22663,1.22372,1.22455,1.22551,1.22535,1.22455,1.219,1.21856,1.21878,1.21771,1.21835,1.21902,1.21661,1.21738,1.21616,1.216,1.22085,1.22242,1.22525,1.22928,1.22971,1.22955,1.22774,1.22958,1.23089,1.23424,1.24138,1.2403,1.23966,1.24143,1.24366,1.24818,1.24869,1.24495,1.24957,1.24971,1.2507,1.25057,1.2498,1.25073,1.25361,1.25513,1.25363,1.25403,1.25413,1.25638,1.2565,1.25869,1.24657,1.26351,1.2447,1.25388
1.28237,0.00338636,1.28844,1.25489,1.25553,1.2561,1.25647,1.2531,1.25393,0.00377332,1.27583,0.00366372,1.27013,1.27087,1.27087,1.26256,1.26146,1.26213,1.26355,1.26396,1.26346,1.26662,1.26602,1.26224,1.26149,1.25943,1.2607,1.2621,1.27252,1.25389,1.25781,1.25723,1.25798,1.25787,1.2578,1.2571,1.25801,1.25862,1.25732,1.25414,1.25204,1.25155,1.24995,1.24777,1.24596,1.24579,1.24594,1.24511,1.24405,1.24389,1.24418,1.24086,1.24088,0.00377642,1.23792,1.23726,1.25138,1.25134,1.22589,1.22553,1.22291,1.22301,1.23632,1.21517,1.21048,1.20994,1.20909,1.20933,1.206,1.19956,1.1992,1.19844,1.1937,1.19079,1.1914,1.19422,1.1954,1.19628,1.20156,1.20004,1.20111,0.00350922,1.23481,1.2113,1.20965,1.21044,1.21074,1.21165,1.21181,1.21272,1.21221,1.21184,1.21003,1.2095,1.30189,1.29576,1.37438,1.35582,1.19771,1.19654,1.19541,1.19596,1.19734,1.353,1.45309,0.00359656,1.22813,1.22948,1.24106,1.21664,1.28101,1.22618,1.22624,1.22585,1.22823,1.22857,1.24248,1.22755,1.23844,1.22813,1.2257,1.22545,1.2255,1.22711,1.22643,1.22747,1.22919,1.22922,1.23187,1.23025,1.23261,1.2315,1.23328,1.36883,0.00342977,1.44679,1.23452,1.2503,1.2514,1.25097,1.24961,0.00388143,1.25975,0.00349616,1.45016,1.24666,1.2455,1.24573,1.24584,1.24629,1.48183,1.25695,1.25709,1.25729,1.23199,1.22839,1.22672,1.22616,1.23129,1.23094,1.27265,1.27354,1.63471,1.6341,1.63292,1.27362,1.46251,0.00391847,1.66656,1.28065,1.40898,1.62825,1.28561,1.28541,1.28568,1.28718,1.2866,1.28371,1.2838,1.34369,1.34194,1.32361,1.33629,1.38336,1.3831,1.27178,0.00384431,1.40971,1.50608,1.4447,1.44485,1.24224,1.24346,1.24146,1.33678,1.23635,1.23101,1.22528,1.22477,1.2241,1.22463,1.22558,1.2259,1.22281,1.22215,1.22077,1.22057,1.22007,1.21868,1.21968,1.2185,1.21883,1.21869,1.22183,1.22228,1.22269,1.22232,1.22115,1.2322,1.22931,1.2312,1.23346,1.21836,1.2182,1.2267,0.00359876,1.22551,1.22438,1.22588,1.22533,1.22745,1.23107,1.23355,1.2374,1.23696,1.23359,1.2298,1.22856,1.23021,1.23078,1.22722,1.22652,1.22573,1.22577,1.22802,1.22925,1.22911,1.22893,1.22585,1.22517,1.2245,1.22486,1.22387,1.22581,1.22523,1.22853,1.22,1.21864,1.21864,1.21985,1.21946,1.21804,1.21857,1.219,1.22268,1.22335,1.22539,1.22634,1.23031,1.22995,1.23118,1.23233,1.23486,1.23894,1.23899,1.23944,1.23941,1.24556,1.24823,1.24739,1.2484,1.24742,1.24867,1.24842,1.24982,1.24998,1.24971,1.25092,1.25312,1.25513,1.25682,1.25447,1.25729,1.25791,1.26058,1.45838,1.27127,1.26959,1.2749,1.26579
1.29146,1.27681,1.25739,1.2562,1.25435,1.2559,1.25689,1.25266,1.25303,1.28751,0.00397619,1.27034,1.27146,1.27119,1.26971,1.26455,1.26529,1.26352,1.26369,1.26725,1.26822,1.26788,1.26651,1.26585,1.26551,1.26477,1.26477,1.26481,1.26125,1.2611,1.261,1.25648,1.25668,1.25725,1.25802,1.25768,1.25686,1.25685,1.25692,1.25677,1.25355,1.25314,1.25081,1.24797,1.24833,1.24506,1.2456,1.24608,1.24405,1.24385,1.2434,1.24264,1.2431,1.24265,1.24,1.24003,1.23851,1.43017,0.00371384,1.23138,1.23319,1.2234,0.00381619,1.21298,1.21261,1.20845,1.20853,1.20907,1.21908,1.19841,1.201,1.19853,1.19619,1.19612,1.30809,1.19778,1.19702,1.19767,1.1987,1.20174,1.20311,0.00361783,0.00349164,1.20725,1.20934,1.20955,1.21092,1.21156,1.21169,1.21165,1.21289,1.2122,1.20984,1.20809,1.20802,1.20832,1.2746,0.00394521,1.23977,1.23973,1.23812,1.24162,1.23975,1.48513,1.24011,1.23935,0.00351119,1.44572,0.00360974,0.00404204,0.00361376,1.22747,1.22735,1.22898,1.22869,1.28915,0.00353224,0.00418412,1.25873,1.24239,1.25059,1.22349,1.23292,1.22737,1.22588,1.22952,1.22953,1.23041,1.23146,1.23213,1.23263,1.23229,1.23246,1.23644,1.23564,1.46392,1.44139,1.2429,1.24996,1.25365,1.24958,0.00407059,0.00360933,1.2848,1.24877,1.24873,1.24458,1.2452,1.24472,1.2466,1.25328,1.25602,1.25718,1.25663,1.23278,1.23194,1.26433,1.26567,1.41421,1.41674,1.27201,1.27244,1.27066,1.63302,0.00352989,1.66829,1.56436,1.25808,1.26177,1.63001,1.40841,1.40858,1.55749,1.28278,1.28461,1.28459,1.28436,1.28219,1.32128,1.32184,1.33946,1.31691,1.33103,1.43126,1.40027,1.38136,1.27888,1.283,1.25816,1.25554,1.24625,1.24535,1.24305,1.24099,1.23506,1.23501,1.23647,1.2346,1.22752,1.22774,1.22586,1.22607,1.22598,1.22264,1.22229,1.22169,1.2216,1.22122,1.21705,1.21994,1.21861,1.21876,1.21881,1.22645,1.22191,1.22264,1.22404,1.22529,1.22574,1.22621,1.22743,1.23224,1.22883,1.22397,0.00396733,1.29723,1.22608,1.22562,1.22679,1.22676,1.22907,1.23207,1.23379,1.23598,1.23804,1.23909,1.23576,1.23072,1.23317,1.23244,1.22709,1.28851,1.23025,1.22924,1.22841,1.23027,1.22927,1.22838,1.22559,1.22544,1.22529,1.22467,1.2241,1.22527,1.22502,1.22212,1.22095,1.21915,1.21841,1.2168,1.21803,1.22106,1.22382,1.22232,1.22307,1.22568,1.22465,1.42,1.23155,1.2328,1.2326,1.23206,1.23791,1.23703,1.23949,1.2382,1.24073,1.24339,1.24614,1.24991,1.24973,1.24989,1.24905,1.24762,1.2475,1.24875,1.25033,1.25362,1.25369,1.25816,1.25808,1.25846,1.25858,1.25856,1.25961,1.2598,0.00368279,1.25549,1.25507,1.27306
1.54649,1.27622,1.27839,0.0037765,1.25461,1.25528,1.26126,1.26047,1.27272,0.00377387,1.26736,1.2724,1.27253,1.27178,1.27164,1.27052,0.00366579,1.27045,1.2668,1.26728,1.26774,1.26782,1.26815,1.26747,1.26464,1.26327,1.26389,1.26396,1.26105,1.26078,1.26058,1.25592,1.25645,1.25636,1.2564,1.25668,1.25678,1.25721,1.25735,1.25689,1.25485,1.25318,1.24922,1.24027,1.2475,1.24667,1.2458,1.24496,1.24373,1.24303,1.24264,1.24306,1.24539,1.24499,1.24431,1.2395,1.24031,1.24765,1.233,1.23075,1.23076,1.2306,1.23656,1.23597,1.21286,1.21322,1.21041,1.2086,1.39119,1.19905,1.44316,1.19981,1.19823,1.1984,1.19931,1.19955,1.19852,1.20103,1.20145,1.20307,1.20378,1.23599,1.23373,1.22514,1.21151,1.21148,1.20975,1.21137,1.21151,1.21203,1.21175,1.21163,1.20899,1.20864,1.20816,1.20796,1.20775,1.29222,1.26237,1.35819,1.24084,1.24038,1.24155,1.24313,1.43285,1.24417,1.24355,1.2359,1.22473,1.22422,1.22588,1.22668,1.22953,1.22977,1.23063,0.00393543,1.27483,1.23467,1.23438,1.24509,1.23321,1.23385,1.23352,1.233,1.23456,1.2352,1.23091,1.23391,1.23727,1.2373,1.23724,1.23601,1.23577,1.2365,1.23684,1.24019,1.24096,1.2403,1.23954,1.23915,1.24399,1.24104,1.24157,1.24623,1.24393,1.24421,1.24477,1.24542,1.24633,1.24711,1.25351,1.2551,1.25824,1.25954,1.34213,1.23555,1.37485,1.48319,0.00357502,1.27467,1.27528,0.00361739,1.2701,0.00374861,1.44699,1.67316,1.26037,1.26079,1.26131,1.26357,1.26737,1.26701,1.55725,1.55695,1.28263,1.28202,1.2821,1.28018,1.27466,1.37261,1.27928,1.31415,1.28164,1.26206,1.26131,1.26166,1.27446,1.47047,1.27815,1.25085,1.24344,1.24312,1.40982,1.24129,1.24071,1.23849,1.23756,1.2364,1.23006,1.22886,1.22779,1.36888,1.22293,1.22288,1.22218,1.22186,1.22244,1.22047,1.22258,1.21961,1.21859,1.21786,1.21965,1.22019,1.22322,1.22262,1.22379,1.22531,1.22643,1.2276,1.22813,1.22704,1.22722,1.22438,1.22731,1.22717,1.22578,1.2281,1.22933,1.22824,1.22977,1.23154,1.23347,1.23602,1.23658,1.23716,1.23405,1.23358,1.23327,1.23426,1.29302,1.29037,1.32565,1.2323,1.23046,1.23,1.23245,1.42256,1.22537,1.22529,1.22519,1.22523,1.2246,1.22443,1.22216,1.22216,1.22087,1.21922,1.2182,1.21726,1.21788,1.22143,1.22489,1.22635,1.22472,1.23465,1.22816,1.47315,1.24226,1.24388,1.23678,1.23687,1.23712,1.23866,1.23853,1.23974,1.24203,1.24308,1.24962,1.25047,1.25401,1.25283,1.24928,1.24681,1.24901,1.24922,1.25383,1.25414,1.25709,1.25819,1.25897,1.26015,1.25926,1.26049,1.26232,1.27381,1.27427,0.00374272,1.26992,0.00389682
1.52765,0.00368542,1.28448,1.27871,1.26125,1.28967,1.29523,1.26468,1.26403,1.26376,1.26614,1.27101,1.27175,1.27183,1.27135,1.27258,1.27152,1.27146,1.26984,1.26776,1.2674,1.26737,1.26797,1.26931,1.27102,1.26262,1.26655,1.27512,1.2607,1.26428,1.26495,1.2557,1.25558,1.25569,1.25604,1.25637,1.25571,1.2599,1.26028,1.26069,1.25811,1.28632,1.2585,1.25801,1.2529,1.24905,1.24794,1.25025,1.24333,1.24326,1.24499,1.24764,1.24746,1.24761,1.24766,1.24766,1.24071,0.00396099,1.22949,1.23065,1.23004,1.23034,1.22916,1.43505,1.21584,1.21434,1.21382,1.22651,1.3911,1.62174,1.20394,1.20124,1.2021,1.19988,1.20051,1.20088,1.20132,1.20128,1.20128,1.20132,1.20318,1.28205,1.23319,1.21346,1.21273,1.21268,1.21147,1.21031,1.21086,1.21197,1.21155,1.21054,1.20936,1.21002,1.20847,1.20819,1.21014,0.00394377,0.00367292,1.35571,1.34054,1.24049,1.24194,1.24153,1.41437,1.24289,1.24279,1.23101,1.22964,1.23405,1.22772,1.22947,1.22962,1.23013,1.23312,1.23317,1.23279,1.23342,1.23414,1.23578,1.23265,1.23237,1.23222,1.2321,1.23156,1.23603,1.23637,1.23584,1.23585,1.2363,1.2377,1.23683,1.23749,1.23897,1.24082,1.24201,1.24148,1.24259,1.24285,1.24217,1.24203,1.24065,1.2404,1.24151,1.24246,1.24289,1.24296,1.24332,1.2464,1.24812,1.24894,1.25697,1.25893,1.2602,1.35717,1.23635,1.27788,1.48226,1.23592,1.23641,0.00354558,1.28079,1.5682,1.56672,0.00357016,1.26117,1.25975,1.26003,1.26027,1.26224,1.26557,1.34721,1.50305,1.27884,1.2786,1.27918,1.27926,1.27728,1.31878,1.31835,1.32264,1.45416,1.27792,1.37526,1.2611,1.26027,1.29098,1.43099,1.37859,1.4691,1.24083,1.24146,1.23964,1.23924,1.23903,1.23863,1.23944,1.23512,1.23555,1.23088,1.22631,1.22638,0.00360261,1.22262,1.22194,1.22189,1.22131,1.22029,1.2207,1.21885,1.21832,1.21699,1.21722,1.22076,1.2262,1.2258,1.22508,1.22653,1.2268,1.22847,1.22762,1.22635,1.22671,1.22734,1.22661,1.22903,1.2254,1.2268,1.22669,1.22875,1.22879,1.23077,1.23342,1.23483,1.23691,1.23949,1.23901,1.23346,1.23316,1.23225,1.27422,1.39466,1.23393,1.23355,1.23192,1.23033,1.22993,1.36977,1.22532,1.22509,1.22499,1.22525,1.225,1.22448,1.22254,1.22139,1.22042,1.21881,1.21775,1.21714,1.21975,1.32866,1.22358,1.22392,1.22525,1.2508,0.00383125,1.24224,1.24245,1.24266,1.23585,1.23881,1.33745,1.23897,1.23961,1.2401,1.2432,1.2429,1.2494,1.25009,1.2541,1.25427,1.24745,1.24937,1.25051,1.25354,1.25399,1.25551,1.25488,1.26004,1.25964,1.26329,1.26392,1.26145,1.26722,1.26675,1.26715,1.28123,1.27139,1.2712
1.36975,1.28397,1.26294,0.00366441,1.26188,0.00361723,1.33679,1.26734,1.26742,1.26687,1.26806,1.26907,1.2718,1.27257,1.2733,1.2741,1.2741,1.27314,1.27145,1.26729,1.26705,1.26783,1.26913,1.26887,1.2679,1.26822,1.26947,1.26857,1.26708,1.26812,1.46183,1.27957,1.25588,1.26092,1.2614,1.25692,1.42078,0.00360756,1.26296,1.26199,1.26188,1.28428,1.35013,1.34434,1.25361,1.25124,1.24955,1.24972,1.24785,1.24715,1.24619,1.24646,1.2465,1.24643,1.24665,1.24676,1.24657,1.25131,1.25049,1.22916,1.22934,1.22915,1.23123,1.43419,1.23614,1.21385,1.21493,1.29933,1.44833,1.20689,1.20495,1.20461,1.2032,1.20218,1.20521,1.20255,1.20472,1.20385,1.20338,1.20512,1.20639,1.20724,1.229,1.21316,1.21215,1.21239,1.2107,1.21067,1.21108,1.21156,1.20855,1.20768,1.20838,1.21004,1.21039,1.21188,1.21434,1.21467,0.00376542,1.40342,1.30301,1.27622,1.2393,1.2402,1.2457,1.23864,0.00362072,0.00372443,1.232,1.23261,1.23123,1.23006,1.23305,1.2325,1.23311,1.23366,1.23345,1.2346,1.23557,1.23581,1.23228,1.22983,1.23034,1.23264,0.00367731,0.00371696,1.23473,1.23687,1.23742,1.23738,1.23707,1.23934,1.2391,1.24031,1.24158,1.24368,1.24975,1.24434,1.24426,1.24136,1.24106,1.24088,1.24015,1.24066,1.2403,1.24237,1.24267,1.24645,1.25034,1.25013,1.25226,1.25184,1.24811,1.26221,1.46153,1.27129,1.23753,1.2382,1.27883,1.27903,1.565,1.69192,1.27681,0.00372821,1.26297,1.26062,1.26104,1.26052,1.25978,1.26202,1.55487,1.2746,1.27567,1.27532,1.27638,1.27739,1.27705,1.27557,1.26827,1.26821,1.33436,1.27736,1.32892,1.26103,1.26022,1.26006,1.26026,1.26821,1.39542,1.47255,1.23932,1.24079,1.23942,1.23931,1.23924,1.23908,1.23913,1.23675,1.23607,1.23226,1.22782,1.22717,1.30982,1.2224,1.22199,1.22146,1.21998,1.2184,1.22022,1.22153,1.21711,1.237,1.23951,1.2221,1.22234,1.22637,1.2254,1.22705,1.22661,1.22846,1.22862,1.22896,1.2282,1.22797,1.2288,1.2279,1.22689,1.22768,1.22833,1.22955,1.22911,1.22871,1.23466,1.25652,1.23973,1.23946,1.24062,1.23474,1.23612,1.23722,1.28582,1.41396,1.23222,1.23475,1.23292,1.23254,1.24906,1.24934,1.37365,1.22553,1.22535,0.00364062,1.24213,1.28014,1.2205,1.2203,1.21939,1.2184,1.21727,1.21691,1.34505,0.0035171,1.22487,1.22337,1.32185,0.00370136,1.25671,0.00372065,1.24222,1.23779,1.23745,1.24248,1.24259,1.42649,1.42407,1.24234,1.24443,1.24609,1.25089,1.25017,1.25459,1.25382,1.2515,1.25227,1.25135,1.25329,1.25605,1.25759,1.25739,1.25857,1.26306,1.26411,1.26708,1.26535,1.27084,1.26801,1.26713,1.27216,1.27354,1.27787
0.00356645,0.0102182,1.28443,1.28444,1.28413,1.27934,1.2682,1.26731,1.26789,1.2673,1.26982,1.26821,0.00359448,1.27368,1.27531,1.27537,1.2748,1.27393,1.27097,1.26986,1.31685,1.2672,1.26796,1.26786,1.26801,1.27032,1.26866,1.26919,1.2679,1.26763,1.26858,1.26923,1.27003,0.00370527,1.26171,1.26141,1.5193,1.26253,1.26198,1.26358,1.26299,1.26372,1.26448,1.35968,1.25524,1.25158,1.25034,1.24998,1.24959,1.24958,1.24803,1.24829,1.24734,1.24638,1.24647,1.24684,1.24661,1.24671,1.25643,1.25875,1.22853,1.22872,1.22959,1.24044,1.24056,1.21927,0.00347521,1.23051,1.39948,1.20994,1.20869,1.20633,1.20594,1.20579,1.206,1.20506,1.20586,1.20824,0.00350992,1.32299,1.21133,1.21094,1.21399,1.21527,1.21484,1.21365,1.21051,1.2103,1.21252,1.21001,1.21322,1.21347,1.21343,1.21681,1.21547,1.21478,1.21494,1.2178,1.21708,1.31707,1.40356,1.23356,1.43283,1.23995,0.00343712,0.00379032,1.23922,1.23204,1.22446,1.23484,1.23285,1.23456,1.2339,1.23242,1.23314,1.2335,1.23329,1.23513,1.23516,1.23121,1.23108,1.22922,1.22827,1.22873,1.22925,0.00402112,0.00353003,0.00392397,0.00359048,1.23649,0.00373906,1.24278,1.24287,1.24374,1.24499,1.24598,1.24613,1.24613,1.24613,1.24131,1.23979,1.24034,1.24289,1.24265,1.24141,1.24362,1.24494,1.24695,1.25116,1.2511,1.25232,1.25359,1.25493,1.46279,1.45156,1.26903,1.24288,1.28059,1.27785,1.55482,1.55432,1.28156,1.27778,0.00388581,1.26743,1.26702,1.26632,1.26002,1.26242,1.26394,1.26512,1.2713,1.27233,1.49804,1.27424,1.27541,1.27495,1.27397,1.26692,1.26867,1.26964,1.34506,1.26251,1.26081,1.26107,1.25876,1.2569,1.43304,0.00382058,1.23738,1.23707,1.23754,1.23686,1.23659,1.23734,1.23773,1.23926,1.24006,1.23704,1.23352,1.23106,1.23039,1.22881,1.22627,1.22196,1.22111,1.21934,1.21879,1.21779,1.22324,1.22561,1.2408,1.2376,1.23838,0.00358685,1.2269,1.22688,1.22895,1.22875,1.23279,1.2331,1.23297,1.23018,1.22913,1.22928,1.22943,1.22769,1.22742,1.22638,1.23002,1.2323,1.23228,1.23436,1.23869,1.23894,1.24224,1.24222,1.24084,1.24081,1.25188,1.23146,1.23566,1.23221,1.23775,1.23671,1.23445,1.23412,1.3369,1.37063,1.42548,1.23331,1.44018,0.00359602,1.35898,1.21984,1.21909,1.21858,1.21771,1.21668,1.21719,1.46185,1.44122,0.00349953,1.26657,1.25828,1.25766,1.28859,1.28765,1.23988,1.24145,1.24184,1.24295,1.24416,1.25744,1.25026,1.24501,1.24347,1.24922,1.24876,1.25021,1.25008,1.2528,1.25295,1.25343,1.25396,1.25548,1.25757,1.25835,1.2605,1.26229,1.26358,1.26736,1.26773,1.26564,1.26818,1.26789,1.2667,1.26995,1.27298,1.31695
1.27809,0.0037194,1.28621,0.00374076,1.35475,1.2859,1.26746,1.2674,1.26764,1.26954,1.27032,1.27298,1.4158,1.27628,1.27779,1.27749,1.27737,1.2742,1.31015,1.31225,1.27041,1.26699,1.2671,1.27315,1.27431,1.27313,1.273,1.27387,1.26769,1.26912,1.26833,1.26808,1.2689,1.2696,1.26754,1.26377,1.26368,1.26452,1.26217,1.26332,1.2638,1.26307,1.26217,1.26202,1.25669,1.25251,1.25327,1.25283,1.25263,1.25363,1.25366,1.25167,1.251,1.24831,1.24732,1.24627,1.24626,1.24667,0.00371839,1.32027,1.25831,1.23271,1.23153,1.23022,1.23928,1.43949,1.22902,0.003727,1.21587,1.2138,1.21182,1.21227,1.20971,1.20955,1.21014,1.21528,1.21254,1.21466,1.21404,0.00349331,1.21092,1.21522,1.21565,1.21441,1.21459,1.21403,1.21449,1.21369,1.21412,1.21407,1.2141,1.21286,1.21459,1.21506,1.21568,1.2159,1.21853,1.21872,1.21849,1.21799,1.40385,1.23387,1.23511,1.23395,1.23323,0.0034596,1.41931,1.22915,1.22715,1.2284,1.23271,1.23321,1.23329,1.23258,1.23226,1.23236,1.23306,1.23353,1.23456,1.23017,1.22367,1.22345,1.22405,1.22534,1.29591,1.29233,1.29253,1.29509,0.00418567,1.27235,0.00416357,0.00381593,1.24403,1.24363,1.24464,1.24582,1.24596,1.2508,1.25071,1.23967,1.23905,1.35066,1.3551,1.25014,1.24369,1.24854,1.43262,1.25186,1.24968,1.25096,1.25479,1.25484,1.25427,1.4687,1.45533,1.41702,1.86367,1.27472,1.27433,1.27705,1.55467,1.27923,1.27823,0.00381144,1.26552,1.26511,1.2656,1.26719,1.26442,1.26368,1.26555,1.26666,1.27245,1.27237,1.27459,1.27551,1.27515,1.27311,1.27046,1.26921,1.27044,0.00383776,1.27816,1.26052,1.264,1.2587,1.37165,1.38594,1.42647,1.23628,1.23595,1.23594,1.23503,1.2357,1.23591,1.23847,1.23938,1.24043,1.32432,1.32263,1.23262,1.22915,1.22776,1.22575,1.2213,1.22125,1.21978,1.21915,1.29128,1.2258,1.22544,1.23056,1.24621,1.24162,1.23946,1.22589,1.22926,1.23257,1.2301,1.23243,1.23172,1.23158,1.22976,1.23146,1.23166,1.22843,1.22685,1.22933,1.23343,1.23727,1.2338,1.23424,1.235,1.23701,1.23933,1.23955,1.24113,1.24248,1.24034,1.24035,1.23486,1.23444,1.23392,1.23564,1.23608,1.2341,1.23619,1.23703,1.23556,1.23567,1.23373,1.23231,1.23234,1.27787,1.2232,1.22279,1.21782,1.21707,1.21695,1.22161,1.22356,1.22366,1.26166,1.41991,1.2599,1.258,0.00380894,1.23925,1.23879,1.24059,1.24196,1.24267,1.24521,1.24572,1.24353,1.24354,1.24392,1.24592,1.24851,1.24851,1.25093,1.25415,1.25669,1.2557,1.26079,1.2583,1.25867,1.26092,1.26039,1.26268,1.26645,1.2697,1.26827,1.26991,1.26723,1.26675,1.26759,1.26964,1.27399,1.27672
1.27949,1.27939,1.28827,1.35032,1.34993,1.34817,0.00380837,1.26781,1.2679,1.27008,1.27091,1.27474,1.27482,1.27539,1.27561,1.27703,1.27506,1.27509,1.27577,0.00397307,0.00361572,0.0102324,1.27197,1.27296,1.27288,1.27419,1.27482,1.2758,1.27564,1.27263,1.26977,1.27025,1.26956,1.27063,1.27549,1.27444,1.26325,1.26337,1.33252,1.2642,1.26501,1.26271,1.26261,1.26169,1.2605,1.2565,1.25682,1.25429,1.25439,1.25343,1.25415,1.25305,1.25283,1.25265,1.24908,1.24604,1.24617,1.24542,1.24308,1.31503,1.37883,1.23369,1.23397,1.23311,1.23351,0.00362134,0.00366515,1.21929,1.21645,1.216,1.21585,1.21606,0.0035274,1.21389,1.21339,1.2137,1.21274,1.21269,0.00356435,0.00417708,0.00350901,1.22953,1.21512,1.21593,1.21592,1.21564,1.21633,1.21539,1.21392,1.21385,1.21427,1.21416,1.21447,1.21575,1.21618,1.21621,1.21613,1.21685,1.21833,1.22076,1.21955,1.21863,1.21775,1.21933,1.23298,0.00372142,1.22906,1.22937,1.2303,1.23139,1.23455,1.23382,1.23562,1.23541,1.23534,1.23053,1.23106,1.23366,1.2344,1.22875,1.22481,1.2233,1.22255,1.22279,1.22255,1.22629,0.00354543,1.30957,1.37192,1.28863,1.56758,1.27485,0.00363766,1.24529,1.24539,1.24494,1.24713,1.24972,1.2496,1.24952,1.25069,1.25029,1.25062,1.24773,1.2483,1.24916,1.25061,1.25184,1.25323,1.25496,1.25466,1.25452,1.25372,1.25081,1.25023,1.2683,1.4815,1.27335,1.37259,1.25007,1.56158,0.00428457,0.0036139,1.26791,1.26736,1.26755,1.26586,1.26696,1.26849,1.2651,1.26568,1.26781,1.2687,1.27103,1.27274,1.27457,1.2736,1.27275,1.27038,1.27058,1.26667,1.32377,0.0037825,1.37056,1.25537,1.25476,1.25464,1.38593,1.23972,1.23826,1.23601,1.2346,1.23348,1.23502,1.23525,1.23618,1.23916,1.34302,1.25953,0.00400547,1.30202,1.22927,1.22879,1.22694,1.22667,1.22624,1.22564,1.22276,1.22602,1.22626,1.22653,1.22995,1.22976,1.25057,1.24408,0.00366118,1.23111,1.23107,1.23244,1.23249,1.23078,1.23284,1.2306,1.23133,1.23008,1.23073,1.23015,1.24396,1.23795,1.23684,1.23442,1.23325,1.23297,1.23341,1.2354,1.23863,1.24189,1.24164,1.24069,1.23991,1.23669,1.23594,1.23535,1.23582,1.2366,1.23578,1.23789,1.2375,1.23696,1.23542,1.23229,1.23169,1.23247,1.23447,1.22373,1.22152,1.22335,1.22398,1.26323,1.22273,1.22659,1.22688,1.27263,1.27376,0.00364576,0.00350538,1.24391,1.24069,1.24068,1.24378,1.24349,1.24323,1.24359,1.24465,1.24436,1.24412,1.24286,1.24304,1.2468,1.24849,1.25299,1.25644,1.25724,1.26018,1.26212,1.26276,1.26103,1.26168,1.26474,1.2637,1.2653,1.26853,1.27087,1.26779,1.26631,1.26577,1.2706,1.27028,1.27441,1.27419
1.28283,1.2815,1.28119,1.28166,1.28194,1.28243,0.00409781,1.28387,1.28385,1.27147,1.27869,1.27905,1.27791,1.27491,1.27417,1.27405,1.27409,1.27508,1.27622,0.00315633,1.42346,0.0036251,1.27409,1.27475,1.27548,1.27723,1.27966,1.27979,1.44069,1.27412,1.45689,1.27695,1.27049,1.2723,1.27278,1.27294,1.27283,1.26555,1.26727,1.26725,1.26622,1.26557,1.26528,1.26031,1.26023,1.26039,1.25727,1.25759,1.25774,1.25804,1.25322,1.25429,1.25387,1.25381,1.25002,1.24798,1.24751,1.24778,1.24301,1.24126,1.23774,1.23542,1.23469,1.23478,1.23596,1.23072,1.23293,1.22342,1.22034,1.21954,1.21698,1.2229,1.22012,1.21718,1.2158,1.21788,1.21567,1.21579,1.22158,0.00374256,1.21475,0.0036369,1.21902,1.21789,1.21899,1.21583,1.21681,1.21599,1.21657,1.21482,1.21491,1.21515,1.21525,1.21619,1.21671,1.21849,1.21948,1.21895,1.21984,1.21997,1.2186,1.2183,1.21741,1.21801,1.22122,1.22364,1.22931,1.22806,1.2282,1.23155,1.23307,1.2348,1.23406,1.2328,1.23426,1.2339,1.23292,1.23226,1.23221,1.23246,1.25207,1.22299,1.22185,1.22165,1.22114,1.22289,1.22763,1.22917,1.25218,1.29934,1.28491,1.28133,1.26494,1.24462,1.24615,1.24763,1.24823,1.24842,1.24921,1.24846,1.24972,1.25042,1.24833,1.25041,1.24992,1.24958,1.2496,1.25057,1.25488,1.25484,1.25453,1.25397,1.2514,1.25107,1.25188,1.26494,1.27089,1.27159,1.27487,0.00369422,1.58964,0.00364924,1.48292,1.26942,1.26998,1.26953,1.26855,1.26847,1.26965,1.26801,1.26657,1.26865,1.26694,1.27126,1.27291,1.27517,1.27363,1.27144,1.27116,1.2656,1.26478,1.30157,1.3014,1.28748,1.29006,1.25392,1.25489,1.25324,1.23707,1.23613,1.23518,1.23298,1.23242,1.2319,1.23416,1.23515,1.23801,1.23802,1.34023,0.00349301,1.31201,1.22884,1.22756,1.22602,1.22631,1.22632,1.22575,1.2242,1.22448,1.22673,1.22871,1.2294,1.23043,1.23218,1.23301,1.23484,1.23507,1.23351,1.23288,1.23152,1.22968,1.22887,1.229,1.22947,1.22983,1.23269,1.23332,1.23562,1.23603,1.23601,1.23725,1.23341,1.23063,1.23502,1.23451,1.23833,1.23933,1.23981,1.23939,1.23923,1.23737,1.23618,1.23554,1.23441,1.23279,1.23715,1.23684,1.23794,1.2339,1.23106,1.2296,1.22991,1.23343,1.23409,1.23036,1.22414,1.22205,1.22266,1.3386,1.22532,1.22572,1.22574,1.26871,1.27069,1.3753,1.37456,1.24157,1.23994,1.24082,1.24389,1.24525,1.24386,1.24618,1.24672,1.24635,1.24486,1.24366,1.24488,1.24634,1.24971,1.24994,1.26034,1.25855,1.2611,1.26482,0.00362462,1.26529,1.26499,1.26353,1.2636,1.36668,1.26786,1.2669,1.26697,1.26701,1.27086,1.27204,1.27521,1.27381,1.27558
1.28662,1.28496,1.28454,1.28582,1.28132,1.28115,1.28043,1.28215,0.00380999,1.29832,1.27875,1.27841,1.27698,1.28046,1.27768,1.27549,1.27339,1.27442,1.27746,1.27916,1.28026,1.27893,1.2744,1.27407,1.27473,1.27872,1.27877,1.27923,1.32642,1.28097,1.29934,0.00339653,1.2745,1.27129,1.27191,1.27252,1.27316,1.27513,1.2685,1.26993,1.27121,1.27076,1.26624,1.26458,1.26045,1.25991,1.25667,1.25777,1.25816,1.25705,1.25601,1.25435,1.2545,1.25512,1.2563,1.25334,1.24973,1.27889,1.24151,1.2415,1.24089,1.23327,1.23382,1.23417,1.23536,1.23167,1.23002,1.22672,1.22591,1.2237,1.22226,1.2219,1.22251,1.2165,1.21717,1.21905,1.21928,1.2267,1.21567,0.00366211,0.0037881,1.2252,1.22416,1.21925,1.21814,1.21842,1.21865,1.21907,1.21703,1.21626,1.21557,1.21528,1.21502,1.21586,1.21869,1.21838,1.21857,1.22206,1.22123,1.2198,1.21846,1.21856,1.21843,1.21833,1.22112,1.22546,1.22617,1.22913,1.22888,1.23111,1.23155,1.23457,1.23436,1.23463,1.23645,1.23591,1.23365,1.23218,1.23168,1.23168,1.22623,1.24642,1.43322,1.21922,1.22098,1.22245,1.22776,1.22916,1.31304,1.25752,1.24388,1.26594,0.0037986,0.00380458,1.25317,1.25181,1.25011,1.25165,1.25161,1.25171,1.25064,1.25121,1.2523,1.2542,1.25692,1.25026,1.25089,1.25188,1.25359,1.25228,1.2525,1.25297,1.25283,1.25077,1.25267,1.2628,1.27084,1.27011,0.00365849,0.00378153,0.00357628,0.00382818,1.27123,1.2688,1.26822,1.26875,1.26925,1.26986,1.27287,1.27468,1.26774,1.2675,1.27065,1.27053,1.27061,1.27296,1.27194,1.27055,1.35774,1.26455,1.26444,1.26149,1.26001,1.26182,1.27159,1.25628,1.26103,0.00400555,1.375,1.2371,1.23437,1.23068,1.22909,1.2278,1.23636,1.23529,1.23848,1.23793,1.33772,1.34176,1.34097,1.2285,1.22741,1.22659,1.22534,1.22638,1.22746,1.22389,1.22272,1.26045,1.22855,1.23048,1.23208,1.2323,1.23449,1.23537,1.23468,1.23451,1.23353,1.229,1.22921,1.22782,1.2285,1.22958,1.23075,1.2317,1.23596,1.23552,1.23549,1.23474,1.23513,1.23456,1.23678,1.23414,1.23496,1.23612,1.2393,1.23912,1.23902,1.23871,1.23716,1.23618,1.23544,1.23412,1.23334,1.23625,1.23573,1.23361,1.2343,1.23019,1.23024,1.23143,1.23341,1.23394,1.23514,1.34815,1.22345,1.22283,1.22413,1.22673,1.2275,1.22944,1.51646,1.33241,1.33221,1.23971,1.24076,1.24283,1.24285,1.24229,1.2441,1.24486,1.2466,1.24691,1.24731,1.24492,1.2431,1.24649,1.24782,1.25217,1.25215,1.28549,1.2594,1.26157,1.27148,1.2706,1.26918,1.26757,1.26206,1.26187,1.35309,1.26737,1.26663,1.26805,1.27042,1.27464,1.2737,1.2735,1.27458,1.34216
1.28679,1.28691,1.28571,1.28483,1.28453,1.28555,1.29144,1.31595,1.29626,1.2812,1.28182,1.28772,1.29927,0.00386458,0.00391203,0.00351475,0.00383696,1.28103,1.27929,1.28126,1.2816,1.32621,1.27257,1.27329,0.00398907,1.27957,1.28027,1.28211,0.00385889,1.28342,1.28279,1.28257,1.27126,1.27039,1.27104,1.27098,1.27375,1.27368,1.26959,1.27073,1.27264,1.27351,1.27258,1.2681,1.27518,1.26053,1.25751,1.25994,1.25994,1.25576,1.25431,1.25302,1.25021,1.25531,1.25499,1.25517,1.29559,0.00373437,1.23976,1.24312,1.23759,1.2335,1.23381,1.23572,1.23566,1.2337,1.23311,1.22983,1.23264,1.38111,1.24381,1.22674,1.22582,0.00366848,1.22014,1.21954,1.22558,0.00364887,1.2322,0.00363352,1.33405,1.22333,1.22294,1.22299,1.22249,1.21776,1.22031,1.22103,1.22033,1.21909,1.22087,1.22055,1.22003,1.21767,1.21694,1.21978,1.22113,1.22196,1.22048,1.21967,1.21939,1.21653,1.21773,1.22012,1.22002,1.22423,1.22608,1.22804,1.22836,1.22879,1.23202,1.23428,1.23486,1.2361,1.23571,1.23683,1.23415,1.23171,1.231,1.23128,1.23261,1.39002,1.21544,1.2153,1.43272,1.22579,1.22626,1.23232,1.23412,1.23651,1.2433,1.27871,1.25435,1.25065,1.25174,1.25243,1.25269,1.25268,1.25291,1.25334,1.25347,1.25476,1.25638,1.2554,1.25528,1.25288,1.25187,1.25158,1.25394,1.25369,1.25839,1.2564,1.25364,1.2537,1.26256,1.26164,1.26069,1.26332,0.00391651,0.00377778,1.55574,1.52715,1.5195,1.26696,1.27057,1.26958,1.2702,1.26921,1.27093,1.2729,1.27149,1.2704,1.26996,1.27034,1.27054,1.27031,1.27033,1.40642,1.29404,1.41056,1.32164,1.25958,1.25792,1.25442,1.25617,1.25452,1.25511,1.25455,1.24102,1.24015,1.23485,1.23448,1.22962,1.23631,1.23628,1.23833,1.23868,1.23739,1.23665,0.00385473,1.33939,1.22837,1.22744,1.22639,1.2255,1.22381,1.22759,1.22692,1.22622,1.22801,1.23038,1.22984,1.22986,1.23248,1.23549,1.23462,1.2345,1.23665,1.23508,1.23482,1.23071,1.23051,1.23024,1.22979,1.2329,1.23282,1.23584,1.23552,1.2344,1.23379,1.23844,1.23563,1.23451,1.23524,1.23615,1.2357,1.23912,1.23914,1.23917,1.23792,1.23675,1.23602,1.23503,1.23357,1.23277,1.2346,1.23532,1.23505,1.23337,1.23181,1.23059,1.22996,1.23263,1.23276,1.23662,1.23236,1.2708,1.2256,1.3827,1.30718,1.2366,1.23577,1.25653,1.25984,1.4084,1.40883,1.24412,1.24672,1.24488,1.24533,1.24637,1.24615,1.24679,1.24843,1.24869,1.24716,0.00390075,1.25058,1.24855,1.25125,1.26113,0.00374509,1.41423,0.00376468,1.27034,1.26993,1.26911,1.26418,1.2618,1.25965,1.26213,1.34979,1.26684,1.27055,1.2714,1.27372,1.27354,1.27731,1.32204,1.49365
1.29102,1.29047,1.28938,1.28839,1.28791,1.28663,1.2985,1.28783,1.28352,1.28378,1.28406,1.284,0.00357562,0.00356806,1.44411,1.28415,1.28147,1.27862,1.28012,1.28044,1.27999,1.33021,1.32734,1.3284,0.0035248,1.27983,1.28019,1.28304,1.28576,1.28564,1.28456,1.28244,1.28166,1.27083,1.27153,1.27161,1.27237,1.2724,1.27101,1.26881,1.2729,1.27269,1.27356,1.27133,1.26903,1.26918,1.26598,1.26144,1.26098,1.25486,1.25332,1.25302,1.25209,1.25296,1.25544,1.39991,1.30591,1.26793,1.26847,1.2462,1.48848,1.23278,1.23436,1.23563,1.23339,1.23243,1.23236,1.23246,1.23138,1.23064,1.23208,1.23239,1.23258,1.22998,1.22645,1.22539,0.00369637,0.0039312,0.0035153,1.48947,1.48891,1.22261,1.22514,1.22586,1.22607,1.22166,1.2231,1.22604,1.22586,1.22641,1.22321,1.22585,1.2221,1.22401,1.22369,1.22316,1.22191,1.22187,1.22196,1.22093,1.21922,1.22017,1.21913,1.21785,1.21788,1.22502,1.22554,1.22714,1.22737,1.22758,1.22937,1.23382,1.23295,1.23718,1.23572,1.2352,1.23328,1.23238,1.23207,1.2317,1.23224,1.42906,1.2149,1.21589,1.23211,1.22566,1.22596,1.2307,1.24797,1.23913,1.24106,1.24442,1.24661,1.24948,1.25028,1.25165,1.25084,1.25284,1.2541,1.25373,1.25357,1.25436,1.25472,1.2556,1.25712,1.25682,1.25281,1.25299,1.25394,1.25756,1.25775,1.25748,1.25839,1.25912,1.26356,1.26337,1.26337,1.26357,1.26344,0.010294,1.55352,0.00399309,1.26819,1.27139,1.2704,1.2693,1.26889,1.27047,1.27131,1.27204,1.27295,1.27052,1.26847,1.27019,1.2707,1.40323,1.31597,1.39251,1.35715,1.34194,1.25626,1.25631,1.25388,1.25274,1.2538,1.25388,1.25562,1.35727,1.24321,1.36821,1.23641,1.23608,1.23563,1.2365,1.23666,1.23724,1.23812,1.23425,1.234,1.23465,0.00355439,1.22826,1.22678,1.22575,1.22472,1.22657,1.2277,1.22673,1.2266,1.22611,1.22602,1.22972,1.23014,1.23524,1.23622,1.23678,1.23597,1.23616,1.23719,1.23786,1.23018,1.23147,1.23119,1.23064,1.23273,1.23396,1.23582,1.23465,1.23633,1.23654,1.23732,1.23754,1.23317,1.23555,1.23665,1.23571,1.23748,1.23898,1.23908,1.23748,1.23632,1.23573,1.23437,1.23295,1.23301,1.23313,1.23429,1.2355,1.23346,1.23253,1.23208,1.23273,1.23417,1.23428,1.24005,1.2376,1.2334,1.23455,1.2337,1.24814,1.23615,1.23551,1.23776,1.2414,1.25365,1.43473,1.24653,1.24656,1.24781,1.24611,1.24679,1.24616,1.24691,1.24906,1.24733,1.24543,1.24333,1.24724,1.24729,1.26535,1.26284,1.38054,1.26698,1.26737,1.26893,1.26962,1.26962,1.26687,1.26132,1.2604,1.26075,1.66414,1.34303,1.34936,1.2748,1.33982,1.26861,1.26878,1.26724,1.26751
1.29025,1.29317,1.28771,1.2915,1.28879,1.29054,1.28789,1.28675,1.28571,1.28403,1.28445,1.28641,1.2866,1.28859,1.28878,1.29146,1.28694,1.27789,1.28236,1.28314,1.28293,1.27422,1.27468,1.32801,1.32941,1.33134,1.28397,1.28535,1.28688,1.28687,1.28717,1.285,1.28247,1.27087,1.27448,1.27417,1.27249,1.27421,1.27655,1.2748,1.27276,1.27271,1.27225,1.27153,1.27158,1.26982,1.26663,1.28218,1.25947,1.25931,1.25751,1.25109,1.24978,1.25311,1.25653,1.25668,1.39223,1.39207,1.39153,1.434,1.44601,1.29947,1.30341,1.23764,1.23067,1.232,1.23254,1.23393,1.23527,1.2383,1.2325,1.23287,1.23295,1.2329,1.23336,1.36228,0.00396534,1.22436,1.38591,0.00382828,0.00371026,1.22909,1.22902,1.23008,1.22764,1.39715,1.2248,1.2255,1.22525,1.22623,1.22578,1.22421,1.22544,1.22553,1.22408,1.22224,1.22188,1.22205,1.2222,1.22208,1.22109,1.22073,1.22126,1.22121,1.22608,1.22372,1.22578,1.23619,1.22934,1.22981,1.22918,1.23174,1.23353,1.23845,1.23737,1.23406,1.23333,1.23132,1.23026,1.23226,1.23229,1.39672,1.3739,1.36446,1.36725,1.23614,1.22999,0.0036073,1.23655,1.24018,1.24091,1.24284,1.24339,1.24715,1.24773,1.24948,1.24953,1.25314,1.25371,1.25403,1.25558,1.25621,1.25692,1.25748,1.25721,1.25686,1.25661,1.25378,1.25337,1.25604,1.25995,1.25996,1.26022,1.26151,1.26327,1.26252,1.2622,1.26239,1.26222,1.26406,1.54527,1.2685,1.27323,1.27203,1.27131,1.26889,1.26821,1.26932,1.27143,1.27135,1.27226,1.27103,1.26743,1.26691,1.29157,1.65132,1.29645,1.29887,1.29827,1.29884,1.34544,1.25321,1.25289,1.25087,1.25135,1.25264,1.32375,1.35681,1.24398,1.24192,1.23675,1.23502,1.2398,1.23582,1.23607,1.23792,1.23805,1.23478,1.23415,1.23357,1.23022,1.22934,1.22651,1.22561,1.22455,1.22563,1.22902,1.22857,1.22784,1.22642,1.22659,0.0032935,1.4002,1.23638,1.2392,1.23793,1.23931,1.23806,1.23631,1.23605,1.23572,1.23505,1.23604,1.23303,1.2349,1.2344,1.23508,1.23605,1.2362,1.23679,1.23757,1.23861,1.23692,1.23752,1.23634,1.23618,1.23953,1.23944,1.23922,1.23918,1.2364,1.23532,1.23381,1.23282,1.23326,1.26985,1.236,1.2348,1.23491,1.23645,1.23575,1.23422,1.23425,1.2359,1.23513,1.23661,1.23695,1.23382,1.23606,1.32992,1.3297,1.42295,1.24057,1.2498,1.24997,1.25071,1.25165,1.24818,1.24863,1.25054,1.24971,1.24576,1.24718,1.24714,1.24637,1.24483,1.24391,1.24946,1.25821,1.26773,1.26269,0.00368007,1.27268,1.28531,1.26877,1.26942,1.26711,1.26673,1.26262,1.26118,1.25999,1.26045,1.34881,1.27778,1.2774,1.33689,1.33594,1.26485,1.26558,1.29489
1.31779,1.31878,1.29393,1.29238,1.29177,1.29204,1.2857,1.28563,1.28472,1.28415,1.28568,1.28805,1.28818,1.28822,1.28985,1.29004,1.28823,1.2877,1.28105,1.28231,1.28225,1.28288,0.00399698,1.35791,0.00372106,0.00402604,0.00354889,1.28591,1.28587,1.28595,1.28564,1.28704,1.28493,1.42326,1.27144,1.27721,1.27341,1.27388,1.27794,1.27919,1.28037,1.27552,1.27636,1.28282,1.27394,0.00361528,0.00356122,1.26185,1.25928,1.25906,1.25961,1.2538,1.2511,1.25335,1.25532,1.25654,1.26064,1.36082,1.42958,1.26491,0.00359448,1.30187,1.24932,1.32509,1.24928,1.53066,1.53427,1.32974,1.24889,1.24657,1.24,1.23423,1.23273,1.23219,1.23228,1.24866,0.00360128,0.00343201,0.00382619,0.00402258,0.00355757,0.00380206,1.23331,1.23284,0.00334589,1.23613,1.23684,0.00389629,0.00389597,1.2304,1.31536,1.23029,1.22984,1.22944,1.44376,1.22093,1.2201,1.22025,1.22183,1.22331,1.22259,1.22201,1.22191,1.2219,1.22366,1.22379,1.22543,1.23752,1.2311,1.23138,1.22956,1.23247,1.23348,1.23882,1.23975,1.23301,1.23482,1.23414,1.22984,1.23031,1.23714,1.23677,0.00340799,1.3789,1.23283,1.23159,1.23403,1.23561,1.23944,1.23944,1.24192,1.24251,1.24325,1.2464,1.24557,1.24538,1.25007,1.25125,1.25183,1.25569,1.25686,1.25729,1.25876,1.25952,1.25778,1.25762,1.25779,1.25161,1.25668,1.25777,1.25793,1.26287,1.2634,1.26427,1.26606,1.26447,1.26416,1.26176,1.26051,1.26417,1.26481,1.2687,1.2706,1.27166,1.27045,1.26779,1.26678,1.26778,1.26941,1.27157,1.27142,1.27048,1.43971,1.43302,1.4313,1.29144,1.29144,1.3457,1.29396,1.40533,1.28651,1.25286,1.25251,1.25076,1.25067,1.25299,1.25431,1.24988,1.24414,1.24297,1.23888,1.23909,1.23829,1.23783,1.2391,1.23737,1.2354,1.23478,1.23353,1.23404,1.2326,1.22776,1.22633,1.22572,1.22539,1.2251,1.22883,1.22858,1.22747,1.22664,1.24357,1.24344,1.23408,1.23361,1.23725,1.23883,1.23827,1.2377,1.23831,1.23576,1.23601,1.23802,1.23724,1.23723,1.2352,1.23514,1.23583,1.23674,1.23808,1.23792,1.23731,1.23831,1.23858,1.23885,1.23876,1.23798,1.23902,1.23858,1.23801,1.23833,1.23829,1.23497,1.23351,1.23339,1.23669,1.37537,1.23982,1.23954,1.23985,1.23816,1.23564,1.23515,1.23595,1.23629,1.23884,1.23859,1.23641,1.42743,0.00408776,1.26442,1.24224,1.23942,1.37884,1.25466,1.24648,1.24656,1.24952,1.24785,1.24896,1.24887,1.24693,1.24464,1.24402,1.24571,1.24519,1.24415,1.43904,1.41301,0.00377205,1.26768,1.26738,1.26723,1.27097,1.5965,1.26845,1.26784,1.26679,1.26635,1.26324,1.2617,1.26095,1.26161,1.26333,1.26415,1.26532,1.26461,1.26319,1.33251,1.29405,1.29309
1.31796,1.319,1.29543,1.29813,1.29855,1.2936,1.32799,1.28404,1.28178,1.28189,1.28269,1.28945,1.29044,1.29359,1.2888,1.29362,1.29258,1.29189,1.2843,1.28252,1.28178,1.2823,0.0038573,1.31764,0.00365351,0.00352902,0.00401896,0.00396224,1.28509,0.0036232,1.29177,1.2917,1.29066,1.29038,1.34627,0.00356632,1.28021,1.28188,1.28206,1.28362,1.2801,1.2781,1.2772,1.63762,1.63717,0.00356831,1.45745,1.26116,1.25986,1.25881,1.25936,1.25949,1.30587,0.00374333,1.2607,1.26015,1.26022,1.26028,1.25836,1.25835,1.25888,1.29144,0.00378302,0.00382994,1.24874,1.25064,0.00414696,1.24642,1.24508,1.24622,1.2459,1.24199,1.24191,1.23746,1.23628,0.00386446,0.0038962,1.24816,0.00379394,1.23486,1.39552,0.00380245,0.0037787,1.23931,1.23685,1.24055,1.24152,1.25032,1.24336,1.23922,0.00357078,1.23128,1.23068,1.23298,1.37162,1.21902,1.21867,1.23704,1.23005,1.22936,1.22636,1.22597,1.22567,1.22581,1.2241,0.00349719,1.23902,1.23883,1.23352,1.23319,1.23357,1.23371,1.23481,1.23909,1.23914,1.23978,1.23868,1.23748,1.23655,1.23932,1.23549,1.23559,1.23405,1.23621,1.23475,1.23397,1.23559,1.26747,1.24126,1.24075,1.24087,1.24073,1.24244,1.24527,1.24474,1.24401,1.24993,1.25002,1.25148,1.25164,1.42324,1.25987,1.25975,1.26064,1.2592,1.25877,1.2596,1.26879,1.31247,1.25736,1.25989,1.26063,1.26743,1.26553,1.2656,1.26447,1.26649,1.26432,1.26456,1.26184,1.26416,1.2712,1.27037,1.2697,1.26834,1.26682,1.26898,1.26925,1.26934,1.2713,1.27154,1.27146,1.4366,1.34294,1.29042,1.29088,1.25321,1.29218,0.00352594,1.3209,1.34533,1.31337,1.25172,1.25127,1.25184,1.25263,1.32134,1.32665,1.24462,1.2436,1.24309,1.24253,1.24042,1.23924,1.24347,1.24099,1.23549,1.24016,1.23417,1.23602,1.23446,1.22723,1.22749,1.22627,1.22545,1.22559,1.22572,1.22642,1.22639,1.24014,1.23971,1.24226,1.24107,1.2378,1.23965,1.23941,1.23824,1.23737,1.23931,1.23964,1.23937,1.23917,1.23956,1.23712,1.23611,1.23495,1.23573,1.23846,1.23679,1.239,1.23907,1.23784,1.23693,1.23804,1.23918,1.24074,1.24031,1.23938,1.23731,1.23649,1.23999,1.23872,1.23392,1.23333,1.26067,1.36704,1.24093,1.24111,1.23917,1.23921,1.23979,1.2384,1.2391,1.24015,1.24104,1.24028,1.23774,1.33561,1.271,1.44004,1.25725,1.24609,1.24474,1.24838,1.24772,1.24651,1.24718,1.2471,1.24824,1.24762,1.24614,1.2451,1.25102,1.2489,1.2469,1.24498,1.25772,1.42141,1.254,1.46778,0.00367216,1.26812,1.26368,1.26503,1.26554,1.26514,1.26464,1.26479,1.26535,1.26159,1.26123,1.26284,1.26373,1.26432,1.26449,1.26391,1.26332,1.26219,1.26129,1.29529
0.00355645,1.30197,1.30139,1.29763,1.34681,1.2986,1.28586,1.28385,1.28481,1.28418,1.29495,1.29133,1.29137,1.2915,1.29131,1.29114,1.29163,1.29114,1.29177,1.28125,1.28131,1.28274,1.40591,0.00384217,0.00358398,0.00401014,0.00379387,1.29198,1.30964,1.28958,1.29119,1.2912,1.29085,1.29127,0.00373051,0.00413476,0.00358162,1.28287,1.28435,1.28367,1.28248,1.28408,1.30918,1.30897,0.00373315,1.45259,0.0035674,1.30153,1.25791,1.25783,1.25759,0.00393953,0.00387189,1.26241,1.26137,1.25987,1.25988,1.259,1.2587,1.2571,1.257,1.26093,1.25443,1.25522,1.25366,1.25218,1.25166,1.2519,1.24709,1.24599,1.24659,1.24333,1.24288,1.2408,1.24056,1.24015,1.25091,1.24994,0.00386515,1.2374,0.00373388,1.38815,0.00395266,1.32468,1.24142,1.24298,1.24331,1.243,1.24354,1.24113,1.23939,1.2364,1.23499,1.23213,1.23229,1.2395,1.24215,1.42875,1.23233,1.23202,1.22656,1.22223,1.22093,1.22595,1.2362,1.23663,1.23914,1.23959,1.23576,1.23428,1.23337,1.23333,1.23618,1.23932,1.23919,1.23784,1.23668,1.23939,1.2383,1.23777,1.23693,1.33798,1.23945,1.23576,1.23601,1.23833,1.23991,1.24427,1.24214,1.23951,1.23929,1.23853,0.00363444,1.24333,1.2484,1.2507,1.25025,1.25074,1.2496,1.24415,1.24263,1.25654,1.26036,1.26027,1.26169,1.2612,1.26011,1.26475,1.26093,1.25982,1.25985,1.26122,1.26221,1.26248,1.26789,1.26815,1.26611,1.26408,1.26421,1.26497,1.2645,1.26546,1.27048,1.27019,1.26702,1.27133,1.27013,1.26746,1.26964,1.26998,1.27063,1.27056,1.26779,1.31966,1.29068,1.38865,1.25208,1.36337,1.32615,1.29877,1.31695,1.28424,1.30883,1.25584,1.2584,1.3898,1.32263,1.38312,1.24449,1.24277,1.24159,1.24274,1.24245,1.24119,1.24014,1.24061,1.2388,1.23761,1.23745,1.23782,1.23767,1.31411,1.22685,1.22585,1.22555,1.22557,1.22558,1.22606,1.22536,1.24623,1.23955,1.24201,1.24102,1.23904,1.23955,1.23866,1.24059,1.23733,1.23568,1.24014,1.24179,1.23708,1.2369,1.23881,1.23845,1.23638,1.2354,1.23726,1.23903,1.23927,1.23922,1.23794,1.23675,1.23751,1.24035,1.24017,1.23931,1.24003,1.24008,1.23824,1.2391,1.23911,1.23955,1.36116,0.00354702,1.25107,1.24296,1.24278,1.24168,1.24046,1.2392,1.23961,1.23938,1.24089,1.24031,1.24123,1.24123,1.2668,1.26617,0.00421503,0.00377412,1.24839,1.24679,1.25,1.24936,1.24957,1.24959,1.24798,1.24732,1.24644,1.24533,1.25101,1.24987,1.25073,1.25078,1.24843,1.26357,0.00362928,0.00340734,1.2567,1.26277,1.26235,1.26368,1.26238,1.2643,1.26583,1.26765,1.26889,1.26617,1.26395,1.26131,1.26295,1.26384,1.26456,1.26463,1.26393,1.26338,1.26231,1.26108,1.26115
1.3171,1.31683,0.00361442,1.30282,1.29953,0.00355148,1.29297,1.28181,1.28254,1.28341,1.29142,1.2924,1.29151,1.29022,1.29101,1.29137,1.29087,1.29063,1.29086,1.28915,1.28337,1.28307,1.35095,1.35055,1.34765,0.00384062,1.29255,1.29215,0.00390374,0.00330551,1.28999,1.28975,1.28901,1.29115,1.29187,0.00373758,0.00407993,1.28646,1.28499,1.28513,1.28491,1.45151,1.46959,1.38579,1.38531,1.30059,1.40166,1.30055,1.29948,1.25748,1.2574,0.00351954,1.26562,1.26698,1.2668,1.2662,1.26536,1.25962,1.26035,1.26033,1.26018,1.26018,1.30376,1.25743,1.25381,1.25233,1.25093,1.25135,1.25325,1.25018,1.24982,1.24915,1.24833,1.24527,1.24341,1.24606,1.24265,1.24529,1.24193,1.24282,0.0165633,1.45801,1.50158,0.00379542,1.24379,1.24359,1.24388,1.24374,1.24409,1.24418,1.24333,1.24265,1.24047,1.24023,1.23608,1.23628,1.23676,1.7279,1.23269,1.23337,1.23313,1.22021,1.22022,0.00344374,1.24281,1.2428,1.23978,1.23882,1.23574,1.23504,1.23597,1.23704,1.2367,1.23678,1.23751,1.24408,1.24355,1.2507,1.23937,1.24073,1.24013,1.24985,1.24415,1.24618,1.24643,1.24169,1.24332,1.24597,1.24185,1.23951,1.23926,1.23941,1.29678,1.29646,1.24922,1.24943,1.24974,1.25215,1.25179,1.25549,1.2426,1.25521,1.25588,1.26159,1.26155,1.26419,1.26466,1.26376,1.26233,1.2614,1.26373,1.2628,1.26401,1.2708,1.26751,1.26728,1.26631,1.26569,1.26584,1.26443,1.26383,1.26541,1.27,1.27003,1.27065,1.27313,1.27228,1.27224,1.27023,1.26956,1.27076,1.27032,1.27052,1.51004,1.38214,1.38643,1.38436,1.24726,1.24699,1.24743,1.24749,1.28504,1.29417,1.25603,1.25642,1.26564,1.33398,1.40136,1.24647,1.244,1.2409,1.23999,1.24161,1.2416,1.242,1.24068,1.23967,1.23853,1.23778,1.23777,1.23705,1.23686,1.22701,1.22728,1.23089,1.23258,1.22581,1.23054,1.24661,1.24568,1.241,0.00372244,1.25796,1.23922,1.23796,1.23924,1.23961,1.23987,1.23725,1.24102,1.24119,1.24176,1.23971,1.23965,1.23929,1.2389,1.23719,1.23681,1.23828,1.23872,1.23821,1.23698,1.23603,1.23611,1.23765,1.2384,1.23784,1.24101,1.24147,1.24105,1.23924,1.23831,1.24134,1.24159,1.24335,1.24007,1.24104,1.24251,1.24266,1.2427,1.23856,1.23828,1.24148,1.24202,1.2427,1.27141,1.24165,1.26654,1.38664,1.42907,1.24862,1.24859,1.24932,1.25033,1.25259,1.25325,1.25304,1.24887,1.24765,1.24633,1.24743,1.24984,1.24935,1.25076,1.24987,1.25069,1.42909,1.2678,1.41406,1.2608,1.26065,1.26282,1.26334,1.2644,1.27101,1.26897,1.27007,1.27119,1.35126,0.00389859,1.28136,1.26362,1.26438,1.26434,1.26438,1.26362,1.26339,1.26203,1.26052,1.26006
0.00364412,1.31182,1.30941,1.30383,1.30631,0.00388752,0.00358771,1.57154,1.28504,1.28776,1.2879,1.29153,1.29263,1.29476,1.29546,1.29405,1.28867,1.28893,1.28968,0.00406548,1.28602,0.00364508,1.29099,1.29192,1.29281,1.29499,1.29493,1.29553,1.29507,1.29636,1.29027,1.29228,1.29098,1.29098,1.29142,1.29226,1.29197,1.29381,1.28785,1.28737,1.28612,1.28652,1.30331,1.46608,1.46514,1.29925,1.30291,1.30356,1.29789,1.29717,1.3016,1.29934,1.26526,1.26655,1.26661,1.26601,1.26523,1.3785,0.00372735,1.26172,1.27334,1.2726,0.00368408,1.28979,1.33722,1.25435,1.25427,1.25522,1.25512,1.25125,1.24705,1.24737,1.24809,1.24863,1.25023,1.24758,1.24738,1.24631,1.24751,1.24655,1.24387,0.00421657,0.00391687,0.0033456,1.24412,1.24491,1.24457,1.24516,1.24464,1.24282,1.24425,1.24024,1.24009,1.23973,1.23935,1.235,1.23606,1.2383,1.23377,1.23353,1.23411,1.23076,1.23551,1.23393,1.23342,1.23353,0.00367834,1.24339,1.23567,1.23578,1.23649,1.23699,1.23579,1.23814,1.24368,1.24274,1.24276,1.24486,1.24315,1.2428,1.24277,1.24375,1.24322,1.24297,1.24345,1.24303,1.24497,1.24644,1.24642,1.23968,1.2392,1.23918,1.2937,0.00376193,1.24743,1.24871,1.25123,1.25163,1.25308,1.25344,1.25244,1.25484,1.25593,1.2573,1.26337,1.26371,1.26677,1.39823,1.26224,1.26278,1.26478,1.26497,0.00392198,1.26807,1.2676,1.26705,1.26662,1.26648,1.26539,1.26458,1.26293,1.26396,1.26735,1.27023,1.27021,1.27058,1.27197,1.27094,1.27028,1.27042,1.27071,1.27005,1.26366,1.36089,1.3601,1.30642,1.30604,1.24686,1.24625,1.24635,1.24716,1.26763,1.29626,1.2549,1.2567,1.25504,1.25529,1.24651,1.24547,1.24543,1.24527,1.24345,1.24276,1.24114,1.24164,1.2425,1.24005,1.23916,1.23903,1.23885,1.23731,1.23612,1.2342,1.2327,1.23134,1.23409,1.23275,1.23297,1.23243,1.23244,1.28479,1.23372,1.26592,1.23921,1.23838,1.24158,1.24028,1.23939,1.24254,1.24083,1.24021,1.24103,1.24196,1.23939,1.24122,1.23839,1.23786,1.23625,1.23661,1.23684,1.23664,1.23647,1.23611,1.23583,1.23679,1.24079,1.24127,1.24311,1.24232,1.24155,1.23942,1.24373,1.24169,1.24315,1.24265,1.24977,1.24005,1.24155,1.24231,1.24181,1.24036,1.23916,1.24261,1.24252,1.27519,1.26176,1.26095,1.40175,1.38555,1.25346,1.25204,1.25353,1.25138,1.25339,1.25472,1.25538,1.25402,1.25327,1.24761,1.24647,1.2514,1.25107,1.26551,1.26509,1.26754,1.4237,1.3407,1.27401,1.41072,1.41046,1.26752,1.26886,1.26716,1.26818,1.26884,1.27073,1.27098,1.27398,0.0035828,0.00389898,0.00359443,1.27261,1.27396,1.26439,1.26354,1.26334,1.26252,1.26134,1.26021,1.25978
1.31198,1.31086,1.31039,1.30911,0.00358229,0.00356152,1.34401,0.00370232,1.32495,1.28664,1.28762,1.29194,1.29486,1.29562,1.29849,1.29989,1.44211,1.28879,0.00341364,0.00361697,1.40295,1.29293,1.29415,1.29437,1.29623,1.29587,1.29485,1.29454,1.29684,1.29676,1.29699,1.29476,1.29066,1.29099,1.29132,1.29149,1.29146,1.29221,1.29248,1.28694,1.28533,1.28596,0.00342679,0.003753,1.37836,0.00373617,1.30084,0.00377009,0.00369914,0.00338536,1.31184,1.3119,1.29663,1.2642,1.2651,1.26465,1.26411,1.28618,1.28989,0.00352537,0.00384927,1.2687,1.26855,1.2676,1.28845,1.26411,1.26445,1.2585,1.41603,1.24698,1.24646,1.24661,1.24698,1.24752,1.24939,1.24971,1.24976,1.25127,1.24855,1.24971,0.00392217,0.00375843,1.3919,0.00386829,0.00356075,1.24596,1.24655,1.24612,1.24675,1.24629,1.2465,1.24354,1.23982,1.23962,1.23867,1.23463,1.23805,1.23918,1.23728,1.23463,1.23502,1.23418,1.23335,1.23267,1.23269,1.23249,1.23977,1.23639,1.23931,1.23855,1.23925,1.24122,1.24031,1.23873,1.23978,1.2422,1.24429,1.24446,1.24464,1.24497,1.24297,1.24303,1.24631,1.2459,1.24453,1.24481,1.24558,1.24608,1.24611,1.23934,1.23923,1.23892,1.23927,1.28722,1.32081,1.24944,1.24993,1.25177,1.25254,1.25358,1.25418,1.25514,1.25678,1.25685,1.26205,1.2623,1.26728,0.00384954,1.292,1.26197,1.26169,1.26762,1.26804,1.26771,1.26749,1.26688,1.2672,1.26548,1.26319,1.26365,1.26348,1.26335,1.26562,1.2673,1.268,1.2707,1.27043,1.27056,1.26735,1.26781,1.27027,1.26354,1.26295,1.54058,1.30561,1.30178,1.24892,1.24651,1.24614,1.2462,1.24615,1.2916,1.29193,1.25335,1.25441,1.25366,1.25175,1.25024,1.24821,1.24706,1.24599,1.24485,1.24453,1.24414,1.24405,1.24376,1.23974,1.23928,1.23878,1.23765,1.23791,1.23689,1.23629,1.23479,1.23503,1.23375,1.23043,1.2539,1.25239,0.00379888,1.24819,1.24894,1.24877,1.29185,1.241,1.24036,1.24279,1.24321,1.24253,1.24325,1.24105,1.24095,1.24215,1.24083,1.2401,1.24304,1.23704,1.23578,1.23602,1.23611,1.23592,1.2363,1.2356,1.24024,1.23637,0.00361593,1.24649,1.24431,1.24279,1.24651,1.24457,1.24365,1.24412,1.24459,1.302,1.49545,1.23989,1.24104,1.24105,1.24058,1.24143,1.24056,1.24646,1.24612,1.47602,0.00383654,1.26157,1.26049,1.25095,1.24952,1.25296,1.25355,1.25443,1.25449,1.25486,1.25315,1.25297,1.25404,1.29846,1.46829,1.28042,1.26389,1.26618,1.26609,1.27489,1.26504,1.40274,1.40259,1.29973,0.00332602,1.2646,1.26758,1.27054,1.27109,1.27066,1.27424,1.27421,1.27719,1.27938,1.27978,1.28066,1.27435,1.27382,1.27341,1.26521,1.26454,1.26212,1.26107,1.26004,1.2598
1.31193,1.31116,1.30977,1.30922,1.31006,1.3724,1.45092,1.62017,1.29403,1.29111,1.29155,1.29278,1.29434,1.29605,1.29763,1.29923,1.30139,1.40904,1.39987,1.45092,0.00359663,1.2955,1.29534,1.29636,1.29573,1.29528,1.29438,1.29424,1.29743,1.2961,1.29517,1.29433,1.29273,1.29133,1.29116,1.29087,1.29112,1.2917,1.29207,1.28998,1.29141,1.28455,1.30617,0.00391851,0.00377673,0.00399384,0.00387087,1.34017,0.00353757,1.29825,0.00368276,1.29377,1.29552,1.26382,1.26397,1.26372,1.47787,1.28918,1.28624,1.28434,1.27549,1.276,1.27041,1.27017,1.26986,1.26818,1.26714,1.26198,1.26128,1.31047,1.24636,1.24633,1.24685,1.25181,1.26723,1.5112,1.25249,1.25165,1.25195,1.25144,1.24961,1.24842,0.00363495,1.32633,0.00352232,1.24884,1.24844,1.2487,1.24856,1.24675,1.2509,0.00379125,0.00394603,1.24365,1.24328,1.24134,1.24101,1.24321,1.24283,1.24238,1.28555,1.24006,1.23445,1.23609,1.23249,1.23218,1.2392,1.24148,1.24292,1.23814,1.24001,1.24003,1.24095,1.23956,1.24004,1.24025,1.24122,1.24663,1.2463,1.24776,1.24714,1.24764,1.24621,1.24824,1.24706,1.24858,1.24719,1.24724,1.24811,1.24698,1.2393,1.23869,1.23908,1.33904,1.2491,1.24941,1.25151,1.2522,1.25241,1.25408,1.25575,1.25649,1.25732,1.25872,1.26091,1.26213,1.26307,1.27167,0.00355292,1.26568,1.26426,1.26715,1.26715,1.26757,1.26763,1.26657,1.2666,1.26533,1.26308,1.26168,1.26205,1.26221,1.26375,1.26496,1.26681,1.26773,1.27028,1.27005,1.26672,1.26943,1.2697,1.26117,1.26116,1.35483,1.33874,1.32763,1.2473,1.24649,1.24619,1.24584,1.24585,1.27866,1.29157,1.25619,1.25491,1.2554,1.25201,1.2482,1.24715,1.24712,1.24644,1.24421,1.24303,1.24314,1.24293,1.24349,1.23863,1.23903,1.23939,1.23924,1.23829,1.23917,1.23915,1.23643,1.23713,1.23602,0.00363171,1.24781,1.25098,1.24751,1.24829,1.24961,1.25165,1.47218,1.24027,1.24445,1.24324,1.24191,1.24193,1.24106,1.24178,1.2431,1.24091,1.24082,1.24283,1.2398,1.23917,1.23642,1.23723,1.23867,1.23643,1.27526,0.00380578,0.00431981,0.00375819,0.00391148,0.00367306,1.24354,1.24616,1.2457,1.24519,1.24678,1.24644,1.24808,1.24838,1.29188,1.2409,1.24224,1.24221,1.24156,1.35847,1.24707,1.24619,1.24657,0.00374659,1.43308,0.00364627,1.39455,1.25124,1.25175,1.25278,1.25312,1.25399,1.25858,1.25981,1.25839,1.25286,1.30167,0.00362827,1.28446,1.26955,1.27172,0.00359986,1.33725,1.41986,0.0163856,0.00373737,1.29138,1.3956,1.55566,1.26757,1.26912,1.27309,1.27301,1.27167,1.27588,1.27606,1.27826,1.27965,1.28074,1.28097,1.28127,1.27232,1.27412,1.46473,1.44533,1.31556,1.2618,1.26068,1.26128
1.31468,1.31566,1.30939,1.30922,1.31015,1.31256,1.46172,1.36491,1.34714,1.29456,1.29445,1.29448,1.29479,1.29805,1.29721,1.29876,1.30129,1.30256,1.30295,1.30188,1.29804,1.29714,1.29647,1.2946,1.29435,1.29471,1.29459,0.00360037,1.29885,1.30672,1.29795,1.29628,1.29541,1.29072,1.28955,1.29049,1.29074,1.29214,1.29185,1.28967,1.29006,1.28896,1.30668,1.28817,1.28778,1.28763,1.28829,1.28563,1.28466,0.0039028,1.56321,1.29557,1.29704,1.40007,1.48854,0.00366312,1.29244,0.0036497,1.28687,1.27845,1.27683,1.2756,1.27469,1.27428,1.2691,1.26602,1.266,1.26429,0.00410519,0.00355024,1.31916,0.0036724,1.27752,0.00351762,1.37146,1.25945,1.25721,1.25678,1.25502,1.25499,1.25431,1.25059,1.25365,1.26343,1.47769,1.25392,1.25423,1.25347,0.00361144,0.00359091,1.2512,1.38628,1.25131,0.003658,1.2438,1.24407,1.24565,1.24323,1.24441,1.24451,1.28545,1.31986,1.47752,1.30879,0.0107783,1.24164,1.24079,1.24383,1.2427,1.24123,1.24136,1.24005,1.24013,1.24156,1.24044,1.2391,1.23936,1.25316,1.24675,1.24942,1.24941,1.24962,1.25062,1.25342,1.25124,1.25117,1.25106,1.24822,1.24652,1.24659,1.23919,1.23787,1.2394,1.24132,1.25596,1.25251,1.25103,1.25085,1.25158,1.25295,1.25399,1.25503,1.25782,1.25768,1.25799,1.26071,1.26062,1.26238,1.28476,1.28424,1.26825,1.26666,1.26711,1.26673,1.26653,1.26474,1.26474,0.0036616,1.26028,1.26125,1.26054,1.26043,1.26089,1.26101,1.26519,1.26577,1.26787,1.26732,1.26855,1.26719,1.26556,1.2641,1.35362,1.31457,1.31402,1.30942,1.24652,1.24619,1.24594,1.24506,1.24524,1.28774,1.28939,1.29278,1.25471,1.2533,1.25014,1.24831,1.24683,1.2465,1.43041,1.24299,1.24267,1.24308,1.40284,1.29108,1.23698,0.00366883,1.24132,1.24027,1.24066,1.24071,1.2373,1.23631,1.23849,1.23975,1.24012,1.24294,1.24296,1.24344,1.24331,1.25152,1.25086,1.25382,1.25753,1.24736,1.2494,1.24389,1.24298,1.24078,1.24379,1.24553,1.24542,1.2438,1.24033,1.24244,1.24341,1.23727,1.2569,0.00343642,1.43778,0.00374711,0.00397783,0.00351325,0.00393387,0.00375178,1.56811,1.24555,1.24471,1.24671,1.24812,1.24949,1.25,1.2534,1.25275,1.29246,1.2473,1.24588,1.35468,1.25289,1.37466,1.24651,1.24618,1.24649,1.24835,1.25177,1.25153,1.2533,1.25291,1.25348,1.25446,1.25466,1.25666,1.25605,1.25747,1.2576,1.26585,1.4834,1.29176,1.27531,1.25742,1.27023,1.33747,1.52196,1.52017,0.00382971,0.00393151,1.33658,1.2845,0.00352954,1.46503,1.2713,1.27116,1.27418,1.27653,1.27721,1.27686,1.28163,1.28036,1.27939,1.27931,1.28525,1.27632,1.27493,1.46083,1.43425,1.31979,1.31049,1.30992,1.27048
1.31434,1.31443,1.3117,1.31011,1.30977,1.31098,1.36166,1.34001,0.00384405,1.29539,1.29448,1.2935,1.2945,1.29529,1.29833,1.31924,1.3017,1.3037,1.30464,1.30311,1.30171,1.30154,1.30196,1.31146,1.31403,1.38091,1.30625,1.30588,1.30445,1.29876,1.29827,1.29508,1.29423,1.29137,1.28972,1.28982,1.28967,1.29097,1.29126,1.2908,1.28973,1.28961,1.29,1.28937,1.28782,1.28954,1.28844,1.28529,1.28462,1.28473,0.00392384,1.40929,0.00353851,1.31076,0.00360287,0.0106308,0.00410611,1.29769,1.28237,1.28218,1.27593,1.27541,1.27597,1.2752,1.27365,1.27141,1.26743,1.40171,1.54388,0.00377433,0.00355767,0.00381205,0.00358656,1.26202,1.26203,1.25989,1.25733,1.25812,1.25824,1.25712,1.25771,1.25708,1.25744,1.25747,1.25981,1.25973,1.25587,1.25759,1.25761,1.25933,1.30591,1.3863,1.25582,1.25519,1.24677,1.24627,1.24933,1.24855,1.24717,1.24639,1.24664,1.24678,1.24685,1.2521,1.25121,1.2811,0.00377205,1.24381,1.24469,1.24388,1.24386,1.24351,1.24402,1.24152,1.24087,1.24162,1.25708,1.24382,1.25189,1.24921,1.24853,1.25199,1.25345,1.25506,1.25491,1.25345,1.25451,1.2463,1.24585,1.24262,1.23859,1.23794,1.24074,1.24883,1.25387,1.25412,1.25434,1.2545,1.25302,1.25302,1.25367,1.25414,1.25731,1.25697,1.25689,1.25862,1.26091,0.00386801,1.28333,1.28459,1.26852,1.26851,1.2667,1.26533,1.26459,1.2649,1.26375,1.64998,1.52935,1.25879,1.26205,1.26181,1.25995,1.26177,1.2636,1.26475,1.26636,1.26723,1.26791,1.26618,1.26534,1.26046,1.31518,1.29982,1.30008,1.30226,1.24635,1.24609,1.24529,1.24393,1.24428,1.24491,1.24742,1.28803,1.25409,1.2528,1.25062,1.24587,1.24497,1.45865,1.24025,1.23804,1.39268,1.29268,1.29472,1.24905,1.23683,1.25574,1.25722,1.23995,1.24013,1.24056,1.24156,1.24251,1.24286,1.24065,1.24008,1.24287,1.24274,1.24243,1.24399,1.24404,1.25072,1.24279,1.2437,1.24992,1.24785,1.24628,1.24475,1.24492,1.2466,1.24636,1.24384,1.24352,1.24587,1.24361,1.24354,1.24287,1.44029,1.4443,1.25421,0.00430593,1.24771,1.24889,1.24851,1.25003,1.24987,1.36368,0.00352179,1.24881,1.25094,1.25361,1.25314,1.25409,1.25614,1.3225,1.29492,1.34983,1.33521,1.27777,0.00369136,0.00367423,1.24666,1.24997,1.24952,1.24996,1.25063,1.2531,1.25475,1.25595,1.256,1.25594,1.25587,1.25648,1.26025,1.25981,1.2613,1.26525,1.28226,1.28839,1.28106,1.27189,0.00377942,1.51044,0.00359086,0.00361703,0.00354689,0.00375042,0.00394308,1.38585,1.27412,1.27252,1.27512,1.27677,1.27674,1.27717,1.27741,1.28517,1.28452,1.28447,1.2854,1.28579,1.28394,1.27732,1.27652,1.46947,1.34313,1.30515,1.30748,1.26873
1.31297,1.31403,1.31578,1.31524,1.30986,1.31046,1.32664,0.00365758,1.34649,1.29454,1.29445,1.29452,1.29475,1.29552,1.29774,1.3016,1.30588,1.30841,1.30592,1.30528,1.30564,1.30219,1.30095,1.30364,1.30654,1.30548,1.30494,1.304,1.30401,1.29946,1.29797,1.29693,1.29558,1.29269,1.28964,1.2888,1.28885,1.29168,1.29111,1.29093,1.28902,1.28888,1.28861,1.28738,1.28839,1.28769,1.28918,1.2842,1.28438,1.28673,1.28515,1.28496,0.00379755,0.0038753,0.00387247,0.00366825,1.40005,1.28098,1.2818,1.28294,1.28299,1.27728,1.27735,1.27704,1.27459,1.27508,1.40153,1.33412,1.40557,1.31519,1.39206,0.00392179,0.00402126,1.26456,1.26354,1.2639,1.25814,1.26026,1.26048,1.25999,1.25973,1.25668,1.2564,1.25834,1.25987,1.26034,1.26093,1.25984,1.26052,1.26214,1.28658,1.25506,1.25463,1.25424,1.33648,0.00385343,1.24924,1.2484,1.24956,1.24897,1.24634,1.24909,1.25226,1.25164,1.25282,1.25314,0.00397941,1.26224,1.27153,1.25765,1.25741,0.00389165,1.25449,1.24673,1.24498,1.24726,1.2464,1.24545,1.25434,1.25007,1.2501,1.25111,1.25386,1.25451,1.25507,1.25369,1.2521,1.39013,1.38788,1.29556,1.23887,1.23827,1.29127,1.32677,1.25317,1.25393,1.25496,1.25365,1.25339,1.2518,1.25268,1.25466,1.25657,1.25534,1.25714,1.25702,1.25745,1.26905,1.26835,0.00328824,1.2738,1.26939,1.26723,1.26678,1.26672,1.26503,0.00365816,1.25984,1.25977,1.25914,1.26026,1.5404,1.26222,1.26219,1.26198,1.26277,1.26571,1.26619,1.267,1.26665,1.26488,1.2619,1.31596,1.31525,1.36357,1.30648,1.24595,1.24539,1.24457,1.24417,1.244,1.24418,1.24656,1.24811,1.47715,1.25084,1.25204,1.24654,1.24701,1.23665,1.23627,1.23628,1.397,1.39292,1.2459,1.23572,1.23558,1.23569,1.2359,1.23937,1.24012,1.2403,1.24009,1.24273,1.24283,1.24384,1.24282,1.24237,1.24336,1.24401,1.24288,1.24611,1.24567,0.00381954,1.24449,1.24763,1.24771,1.24715,1.24624,1.24511,1.24661,1.24625,1.24595,1.24603,1.24468,1.24357,1.24327,1.24603,1.34237,1.25021,1.24924,1.35184,1.24984,1.24827,1.248,1.24934,1.2515,0.00356686,1.25309,1.25313,1.25655,1.25544,1.25477,1.25689,1.25474,1.25471,1.32208,1.3227,1.30074,0.0035253,1.30388,1.26417,1.253,1.25187,1.25211,1.25196,1.25409,1.25491,1.25682,1.25634,1.2563,1.25576,1.25644,1.25732,1.26013,1.26004,1.26128,1.2625,1.46742,0.00338021,1.35788,0.00365204,1.51932,0.00372297,1.27476,1.27378,1.27586,1.27614,1.27669,1.27638,1.27246,1.27294,1.30489,1.27823,1.28087,1.28158,1.28062,1.28039,1.27809,1.28812,1.28824,1.28635,1.28099,1.28103,1.27697,1.27774,1.42645,0.00356956,1.42301,1.45155
