1.11220950998232,0.925783610474558,0.890236036975282,0.889440591521544,1.11175875755854,0.90325482756813,0.971919446791371,0.900506121611324,0.893903924345297,0.89142036687307,1.05157005155902,0.887381271624644,0.884623727385019,0.879483382097306,0.876531395635656,0.878874424411056,0.870189927712799,0.866800446251592,0.857748276988052,0.857474290220654,0.854224453627992,0.852988861689852,0.925173768960026,0.94132131167091,0.827801523311375,0.828899238037533,0.886090882333024,0.836288042474479,0.841447831984394,0.840640012934708,0.8399311826526,0.833727591941724,0.835770119101267,0.834842983233521,0.833738197881107,0.831637338054957,0.835275175263386,0.835716205576069,0.836177563939237,0.835611913838802,0.832296673953277,0.837911635028387,0.842617136801389,0.998664090602612,0.840562236045899,0.839023491007056,0.839772093561852,0.835607494697392,0.835654337596334,0.837983225119223,0.838427790745035,0.839673104794276,0.841705026014436,0.848581210047861,0.84887375720918,0.855116236364461,0.850919819681851,0.853162975861393,0.853308807527911,0.854214731516891,0.859153563956323,0.859068716441258,0.882004944185656,1.07562785739319,0.863979266375668,0.858772633966811,0.860591552571025,0.862238124660263,0.900187943429829,0.856272283757227,0.885931793242277,0.864049972638222,0.863383566113646,0.862347719367223,0.863655785224481,0.863890883547475,0.869300796461176,0.866896783534323,0.864374337617691,0.858857481481876,0.857071264524093,0.913144866042941,0.868267601199598,0.830313363288623,0.829775995693209,0.847694730281084,0.843338340679445,0.930087854207564,0.867594124048767,0.849119461471557,0.848814540714291,0.847808744129453,0.842963597487906,0.846085278979687,0.838443699654109,0.828828531774979,0.828461743037977,0.879802444107084,0.877766987573796,0.863876742294964,0.894239779092431,0.885357304859022,0.864940871546409,0.874358945718669,0.857070380695811,0.85163306910537,0.903060385346105,0.914338034223548,0.866104873393713,0.868550426249816,0.872706186831457,1.04615218419078,0.957946121654038,0.87082186493438,0.871176280075434,1.03545786197941,0.8766613183931,0.878248673987448,0.876064734302796,0.875819913868701,0.875085452566416,0.927922474916832,0.892180459195531,0.918783690481663,0.885914116676638,0.880738418257649,0.879779464571753,0.880825033429278,0.884667918799115,0.881813153448477,0.880840058510071,0.880776422873772,0.876825710453539,0.874028393941227,0.872256318235954,0.87264343502344,0.873598853396208,0.865281145434953,0.866799562423311,0.869763922480908,0.868520376088231,0.868988805077654,0.872679671982999,0.872275762458157,0.871026029267506,0.872939517497887,0.864531659051875,0.864186966021922,0.925580329969714,0.922398548154762
1.24975086721647,1.09116555858954,0.915610746949529,0.893806703234285,0.895176637071278,0.913348146547785,0.912853202709904,1.10213386756831,1.02555014693896,0.890686789399067,0.890686789399067,0.887142637988523,0.887204505968258,0.879421514117571,0.877552217301287,0.880911648600907,0.870668078813324,0.867881368240394,0.866609539342695,0.85937186954196,0.857213560877484,0.939703905914976,0.916529928362738,1.06627695417035,0.830039376521225,0.830182556702898,0.831918395448611,0.832850834286048,0.834092613022162,0.840948469005103,0.838948365603092,0.837102048322138,0.83732300539262,0.836798895221435,0.835518228040917,0.836161655030163,0.837298258200726,0.838587763664064,0.838883846138511,0.838986370219215,0.83928598800679,0.839651892915509,0.846343356838011,0.862553651356913,0.843337456851163,0.840944049863693,0.840643548247836,0.836478065555094,0.839896713349604,0.837754313594203,0.841834064943598,0.845388822293525,0.835920369909196,0.836211149413951,0.845881998474843,0.854136954628081,0.85587986400005,0.85523466935424,0.857280731826911,0.858663039259851,0.863554144972059,0.863609826153821,0.88237261675094,0.865405765222705,0.865027486718038,0.903396240093239,0.916918812806788,0.859833227905128,0.859213664279494,1.04189213187187,0.882483979114463,0.867496019109472,0.868834135128316,0.868943729835276,0.8674995544226,0.865451724293365,0.868343610431844,0.867957377472641,0.858775285451656,0.895768802020172,0.878094887866392,0.863702628123423,0.832501722114685,0.830142784430211,0.840532185884313,0.830131294662546,0.8529375996495,0.849295343299661,0.853570420699363,0.848909110340458,0.847108752130164,0.889608518895111,0.892304195155001,0.859414293299493,0.873415900941848,0.868106744452287,0.873648347779996,0.876085062353281,0.919605650783859,0.906374741403347,0.884102268698679,0.930989359055134,0.865023067576629,0.87593834685848,0.869755084198089,0.950663376610924,0.843797047557767,0.858248523795625,0.866540600736705,0.873498096972068,0.869801043268749,0.886736076978834,0.876905254998913,0.878725941259691,0.873229413174361,0.875507038656897,0.876290110514689,0.878421904330707,0.881261644600552,0.880993844631127,0.876306019423763,0.937450143796051,0.894054175153225,0.896219554443957,0.890209522126824,0.891862281014036,0.986113728999188,0.885268922030829,0.883890149911016,0.882764152679835,0.882498120366974,0.883157456265295,0.880121506116861,0.876040870939184,0.875722692757689,0.876251222070284,0.876426220070106,0.867397914170178,0.870082100662403,0.872761868013219,0.874984696142276,0.874280285001577,0.875355020192405,0.877121792927986,0.867249431018814,0.870230583813768,0.872372983569169,0.865347432556098,1.01097581856991,0.918536218562722
0.907594424432413,1.02927106400589,0.901018742014844,0.899737191006044,0.896838234241309,0.909379757561914,0.910740853116088,0.930900976226941,1.08407725576845,1.02329638482004,0.888636307784987,0.886585826170906,0.890403964348849,0.884853522738321,0.88550755566695,1.08994587556047,0.869992834005928,0.868736030189022,0.86654325222155,0.85774739315977,0.859401035875264,0.918668792805012,0.956797144887527,0.834419629486476,0.832582150488341,0.833250324669481,0.832709421760939,0.833010807205078,0.942496803285879,0.84236612956932,0.842046183731261,0.843083798134248,0.841559194347917,0.83881932667393,0.836873136797117,0.837018968463636,0.840975867681842,0.840783193116381,0.840385470389512,0.840247593177531,0.849217566410852,0.849567562410496,0.849666551178073,0.852704268983071,0.845788312676958,0.844520019092387,0.842835442387026,0.842048835216107,0.84211865765038,0.845826317293081,0.848532599492355,0.848117200199847,0.86284973383136,0.855559034333709,0.852329525791532,0.854405638425788,0.857529971402415,0.860009109733232,0.860769202055694,0.859537145430681,0.863803384547563,0.866811052190976,0.86868918729008,0.867260036958197,0.867548164978106,0.897810445351433,0.875269288849058,0.904174008981339,0.869801043268749,0.870676033267861,0.874490636132677,0.878788693067708,0.874617023576993,0.873958571506954,0.874578135132588,0.876898184372657,0.893859732931201,0.901752319488847,0.857047401160481,0.852166901387656,0.848828681966802,0.864420296688352,0.836595614716591,0.860704682591112,0.880330089591397,0.896811719392851,0.88949362121846,0.900117237167274,0.922831624012908,0.879420630289289,0.9000376926219,0.925297504919496,0.927445207644589,0.928629537542377,0.922601828659606,0.890350934651933,0.900285164540841,0.936787272584603,0.905420206858862,0.897165250705624,0.854991616576709,0.854792755213274,0.909998437359266,0.872123743993665,0.953995409233805,0.874180412405719,0.859232224673415,0.8662180034138,0.875400979263066,0.928258329663966,0.88563129162642,0.903334372113504,0.874852121899986,0.864794156051608,0.86433279768844,0.8742449318703,0.877276462877324,0.879162552430965,0.8820615091957,0.882154311165303,1.03742879904812,0.89707686787743,0.897191765554082,0.897492267169938,0.894946841717976,0.896864749089767,0.891331984044877,0.889723416571762,0.933578975921192,0.889343370410532,0.888273938189395,0.886691885564738,0.885463364252853,0.885542908798227,0.880320367480295,0.878658770310264,1.00397589857702,0.914223136546897,0.915266053919576,0.877361310392389,0.883872473345377,0.88058816744972,0.881689417489007,0.898314227472134,0.869319356855097,0.869118727835098,0.871239915711733,0.878815207916166,0.879105987420922,0.880389306086286
0.911889829882599,1.13592262278654,1.13595797591782,0.903025032214828,0.896025112221932,0.895742287171714,1.09841295050138,1.246790042472,0.936548638948482,1.01843532926941,0.894610986970842,0.885949469807916,0.887938083442261,0.887858538896887,0.887478492735657,0.881367703994384,0.87375529100211,0.870524898631651,0.867990079119072,0.870133362702755,0.864034947557429,0.998239853027285,1.18840434616762,0.882199386407681,0.884367417183259,0.909910054531073,0.840913999702107,0.842612717659979,0.843971161729308,0.842915870760682,0.843932273284903,0.844802844142605,0.845114835526127,0.844016236971686,0.841195940924043,0.843812956466842,0.843025465467641,0.84295652686165,0.844261941234063,0.848407095876321,0.850631691661942,0.85131754240872,0.851243300833038,0.855077347920056,0.855200200051244,0.853859432547555,0.851121332530132,0.847690311139674,0.845250061253262,0.846625298059947,0.850481440854013,0.85291903925558,0.857951557492896,1.05539702801978,0.858849527027339,0.858275922472365,0.859019222057469,0.862980540417085,0.859240179127952,0.859108488713945,0.866124317615915,0.86688175845353,0.87020406896531,0.870183740914826,0.871506831852877,0.882843697225209,0.884146460112776,0.882891423952433,0.874754900788974,0.875712970646587,0.87580577261619,0.87639616990852,0.876414730302441,0.866694386857761,0.87645980554482,0.882925893255429,0.883706313628374,0.859133235905839,0.886294162837869,0.890792848792899,0.867601194675022,0.873093303618943,0.852314500710739,0.873514889709424,0.900373547369034,0.913772384123112,0.964256655587027,0.977257769614236,0.971451017801948,0.918739499067566,0.96113674175181,0.948860366915784,0.973430793153474,0.946553575099944,0.936919846826893,0.942576347831253,0.942558671265614,0.920551347045525,0.901416464741713,0.895866023131185,0.866985166362516,0.876905254998913,0.916194073615604,0.957857738825845,0.957698649735097,0.996251239392939,0.925394726030509,0.888936809400843,0.877872163139346,0.924767207950337,0.890624921419332,0.887849700614068,0.893842056365562,0.895468300404315,0.872455179599389,0.870887268227243,0.879169623057221,0.879625678450697,0.881557727074999,0.88769061152332,1.16016603255991,0.901893732013956,0.905994695242117,0.905508589687055,0.897872313331169,0.895547844949689,1.09806825747142,1.09063526162038,0.892313033437821,0.893948115759394,0.891146380105672,0.89052770030832,0.891544102832541,0.892012531821964,0.890943099600827,0.886550473039629,0.884119945264318,0.881602802317378,0.912402450286119,0.888123687381467,0.885109832940081,0.884685595364754,0.88472978677885,0.955276960242605,0.973413116587835,0.947914670654118,0.878294633058109,0.880434381328664,0.882003176529093,0.882401783084244
0.912367097154842,0.91226103776101,0.908840622309936,0.909547684935481,0.897200603836901,0.896520056059814,1.02979252269223,1.11737990543162,0.938006955613668,0.938219074401331,0.88988250566251,0.888768882027276,0.890165330712728,0.887416624755921,0.88731056536209,0.88296743318468,0.874648841395142,0.872895326083791,0.870587650439668,0.865079632586672,0.863032686285719,0.964150596193195,0.95277572620474,0.960730180742121,0.913427691093159,0.999159034440493,0.839694316673042,0.843181019245261,0.84512544146551,0.843434677962175,0.843851844911247,0.844953978778815,0.851278653964315,0.850573358995334,0.850592803217537,0.848933857532352,1.13603752046319,0.84584399385872,0.846496259130785,0.852258819528977,0.854837830455653,0.854587707051866,0.858399658431836,0.859297627966278,0.859432853693413,0.856106124040224,0.855418505636881,0.851577387923608,0.847300542867343,0.850691791985113,0.856093750444277,0.855226714899702,0.859977291915083,0.861097986176572,0.861919946478768,0.896555409191091,0.860783343308204,0.861745832307227,0.861884593347491,0.86461650656694,0.86917440901686,0.869367083582321,0.870839541500018,0.873597969567926,0.875377115899454,0.880969097439233,0.881794593054557,0.881860880175702,0.881757472266716,0.883934341325112,0.877497419947807,0.874845935102013,0.896378643534705,0.885922954959458,0.875290500727824,0.885701997888975,0.889122413340049,0.892383739700375,0.916512251797099,0.943698809749305,0.903988405042133,0.903617197163722,0.876491623362969,0.895583198080967,0.949134353683183,0.976382779615124,0.955524432161546,0.987315735462614,0.997930513128609,0.974606284768442,0.98055444910584,0.973121453254798,0.999167872723313,0.983144065971899,1.01570429987825,0.973059585275063,0.9828700792045,0.96550285346455,0.915310245333673,0.885949469807916,0.894160234547057,0.89361226101226,0.91521302422266,0.957778194280471,0.984098600516384,0.985671814858222,0.953040874689319,0.963072325689239,0.904235876961074,0.890421640914488,0.888318129603491,0.866591862777057,0.864689864314341,0.865065491334161,0.864393781839894,0.875122573354257,0.88936104697617,0.882148124367329,0.883326267467144,0.890580730005236,1.02934177026845,0.96485765881874,0.906259843726696,0.902424028983115,0.900833138075638,0.899516233935561,0.971504047498864,1.04040730035823,0.895044062828989,0.896422834948801,0.896732174847477,0.896723336564658,0.898720788481823,0.895185475354098,0.891111026974394,0.882197618751117,0.882398247771116,0.884941905566514,0.888256261623756,1.02393274118303,0.89219813576117,0.891632485660734,0.88743430132156,0.956063567413524,1.00532815584837,0.970063407399316,0.949523238127233,1.03530761117148,0.885958308090735,0.885242407182371
1.06284770043646,0.913745869274654,0.910148688167194,0.909326727864998,0.902901296255358,0.896413996665982,0.89746575232148,1.09987126716656,1.05161424297312,1.17203584638625,0.890492347177043,0.890677951116248,0.893850894648381,0.888220908492479,0.886691885564738,0.885445687687215,0.87257449641745,0.87851470630031,0.872475507649873,0.861254423782474,0.8596829770972,0.935558751272718,1.10469696958591,0.853217773214872,0.851767411004223,0.848025282058526,0.845410918000574,0.845372913384451,0.849218450239134,0.852673334993203,0.852995932316108,0.853563350073108,0.851279537792597,0.849663015864945,0.849914023097013,0.851260093570395,0.854951844304022,0.852196951549242,0.851132822297797,0.854277483324908,0.855743754444632,0.860722359156751,0.860757712288028,0.858668342229543,0.860411251601511,0.861914643509076,0.860542942015519,0.855196664738117,0.855140983556355,0.856967856615107,0.857642217594221,1.08107223960988,0.86830030284603,0.868206617048145,0.868281742452109,0.869719731066812,0.869567712602319,0.869557106662936,0.871070220681603,0.872575380245732,0.872393311619654,0.87210341594318,0.873589131285107,0.87521095618245,0.876515486726581,0.881431339630683,0.882311632599486,0.88169560428698,0.879767090975806,0.886859812938305,0.878575690451763,0.86397131192113,0.858541954785227,0.855292118192565,0.867690461331497,0.860598623197281,0.885472202535673,0.88124220037835,0.893055449194643,0.967721262452198,0.964672054879535,0.978318363552554,0.95959004225843,0.936645860059494,0.982684475265294,0.973651750223957,1.02540873441385,1.04396029005159,1.01790503230026,1.06210528467964,1.00498346281842,0.994404038283703,1.05134025620572,1.1297269865302,1.09422360444502,1.01836462300686,1.01315003614347,1.03520155177765,1.01062228725714,0.969674522955266,0.922071531690447,0.963805903163242,0.979661782541089,0.979599914561354,1.0040112517083,0.999052975046662,1.01061344897432,0.956620379231141,0.901937923428052,0.904138655850061,0.886179265161218,0.885171700919816,0.867392611200486,0.860649885237633,0.861300382853134,0.868868604431312,0.87603468414121,0.877564590897234,0.880627939722407,0.894169072829877,0.942470288437421,0.916273618160978,0.913533750486991,0.912844364427084,0.908319163623596,1.00590264423163,0.911934021296695,0.937538526624245,0.898102108684471,0.896467026362898,0.899498557369922,0.900417738783131,0.895167798788459,0.895273858182291,0.89206556151888,0.884941905566514,0.886621179302183,0.890669112833429,0.900886167772554,0.903493461204252,0.904589408273846,0.89477007606159,0.889316855562074,0.889475944652821,0.946253073484087,0.946200043787171,0.901398788176074,0.90068288726771,0.893435495355874,0.892861006972618
1.27826316759157,0.91894277957241,0.918094304421756,0.91611452907023,0.906675243019204,0.905932827262382,0.901619745246557,0.901920246862414,1.06154847286202,0.998540354643142,0.977248931331417,0.897023838180515,0.896581924039549,0.890660274550609,0.885525232232588,0.88094965321703,0.882305445801513,0.880992960802845,0.878167361785511,0.864706657051697,0.858170746906815,0.857135783988674,0.856174178817933,0.857372649968232,0.854191751981561,0.849334231744067,0.848171997553327,0.849709858763887,0.851927383923253,0.851613624883167,0.859560124966011,0.860568573035695,0.862138252064405,0.982808211224765,0.852717526407299,0.855510423778202,0.855002222516092,0.855837440242517,0.858845107885929,0.858222892775449,0.859202174511829,0.860831070035429,0.861149248216924,0.862027773529164,0.861771463327404,0.863266016952149,0.864559057728615,1.03030514309575,1.02635443067552,0.861549622428639,0.863390636739902,0.86992036008681,0.869802810925313,0.869703822157737,0.870486894015528,0.87096858042918,0.869681726450689,0.873056182831102,0.872333211296482,0.875845544888877,0.879577951723473,0.876747049736447,0.872243060811725,0.872219197448113,0.877449693220583,0.890686789399067,0.885313113444925,0.883405812012517,0.880893972035269,0.882916171144327,0.858311275603643,0.858748770603199,0.87578721222227,0.897377369493287,0.881976661680634,0.885171700919816,0.877163332857237,0.923600554618188,0.995650236161226,0.991372507276679,1.04562188722162,1.02098075472138,1.02306658946673,1.00358701413297,1.00019311353035,1.03727854824019,1.0379679343001,1.0505536490348,1.06138938377127,1.04459664641458,1.01543915139367,1.0454274449996,1.09457713575779,1.09858971615776,1.06602064396859,1.02893520925876,1.10169195342734,1.07539806203989,1.05042991307533,1.06572898063556,1.04647920065509,1.04704485075553,1.04981123327797,1.10813506160262,1.06973272275271,1.02292517694163,1.0512872265088,1.05921516619772,0.951679779135145,0.933543622789915,0.906905038372506,0.873975364244311,0.869200040037036,0.859516817380197,0.857959511947434,0.861120965711902,0.858358118502585,0.870521363318523,0.875284313929851,0.887717126371778,0.909017387966322,0.912888555841181,0.912561539376867,0.912146140084359,0.912826687861446,0.910166364732833,1.01022456453027,0.912941585538097,0.91277365816453,0.91251734796277,0.909892377965434,0.905950503828021,0.899419012824549,0.898358418886231,0.900258649692383,0.909538846652662,0.991787906569186,0.892480960811388,0.895238505051013,0.899542748784019,0.900824299792819,0.90145181787299,0.899922794945249,1.00995057776287,0.955303475091063,0.998319397572659,0.942311199346673,0.89939249797609,0.900276326258022,0.904730820798955
1.04517113479784,0.923079095931849,0.92203617855917,0.921488205024372,0.909070417663238,0.906931553220964,0.902052821104704,0.901982114842149,0.903705579991915,0.986069537585091,0.905994695242117,0.898323065754954,0.899737191006044,0.899118511208692,0.891561779398179,0.879515199915456,0.883260864174281,0.883619698456745,0.878525312239693,0.92434297037501,0.995199483737441,1.22229916077968,0.863323465790475,0.860406832460102,0.859851788299049,0.854090995557421,0.853961072799977,0.854331396850106,0.856512685049912,0.857219747675457,0.860363524874287,0.86020001664213,0.85998966551103,0.864892260990903,0.864643021415398,0.856046907545335,0.856312056029914,0.85903778245139,0.862001258680706,0.865171550727993,0.861371089115689,0.863374727830827,0.864980643819096,0.864892260990903,0.939960216116736,0.86641951626208,0.867383772917667,0.870180205601698,1.02236836512401,0.868855347007083,0.868052830927089,0.873552010497265,0.875127876323949,0.872728282538506,0.890633759702152,0.885074479808804,0.877118257614858,0.878521776926565,0.878915080512025,0.881875021428212,0.882118074205744,0.876754120362703,0.877311816008601,0.87643240686808,0.883742550587933,0.885189377485455,0.885233568899551,0.881380077590331,0.881803431337376,0.878263699068241,0.879798908793956,0.860379433783362,0.905464398272958,0.913242087153953,0.928709082087751,0.91290623240682,0.952996683275223,0.991885127680199,0.980483742843285,1.02015879441918,1.03186068087195,1.0258860016861,1.02621301815041,1.02517010077773,1.0266637705742,1.05316978074931,1.0623174034673,1.04388958378904,1.07121755426635,1.05768614326998,1.06922894063201,1.08308736809269,1.04829988691587,1.05593616327176,1.05651948993783,1.1179632320977,1.10758708806782,1.09484228424237,1.09090041010496,1.09147489848822,1.13257291359802,1.08603935455434,1.07776672183546,1.07853565244074,1.08709994849266,1.05688185953343,1.1084002100872,1.05917981306645,1.02578878057508,0.955453725898992,0.931334052085087,0.904306583223628,0.872688510265819,0.86074003572239,0.865122940172487,0.921320277650805,0.863084832154353,0.869345871703555,0.879996002500827,0.904987131000715,0.888945647683663,0.919110706945977,0.9170160339178,0.915540040686975,1.17772770052189,0.915778674323096,0.953818643577419,0.951202511862902,1.00386983918319,0.915354436747769,0.915080449980371,0.910422674934593,0.905782576454454,0.906374741403347,0.906268682009516,0.909353242713456,0.901248537368146,0.900400062217492,0.896882425655406,0.900196781712648,0.901876055448317,0.901354596761978,0.904571731708208,0.999291608682783,0.949567429541329,0.936619345211036,0.904562893425388,0.904642437970762,0.903802801102928,0.905411368576043
0.939642037935241,0.927675002997891,0.927118191180275,0.922893491992643,0.911916344731057,0.909963084227989,0.907939117462366,0.904695467667678,0.906578021908192,0.909583038066758,0.909291374733721,0.900691725550529,0.898685435350545,0.895070577677446,1.04875063933966,0.878570387482071,0.881739795701077,0.882079185761339,0.883087633831022,0.880467966803378,0.90428006837517,0.865085819384646,0.864709308536543,0.862150625660352,0.859936635814114,0.856963437473697,0.854759169738561,0.858320113886462,0.859955196208035,0.858754957401172,0.861205813226968,0.860555315611466,0.858853946168748,0.8571295971907,0.859268461632974,0.861173111580536,0.860204435783539,0.866682013261814,0.863310208366246,0.864906402243414,0.864931149435308,0.865205136202707,0.868200430250172,0.869532359471042,0.869434254531748,0.869614555501262,0.870508989722576,0.872584218528551,1.01407805583949,0.871370722297459,0.8714078430853,0.873503399941759,0.879826307470696,0.883468563820534,0.891605970812276,0.890439317480126,0.886426737080158,0.885109832940081,0.884579535970922,1.08337903142573,0.889148928188507,0.882529054356842,0.878096655522956,0.8905188620255,0.880400795853951,0.880998263772537,0.87974587909704,0.874535711375055,0.875172951566327,0.874632048657786,0.883002786315957,0.864886074192929,0.899189217471246,0.919128383511616,0.937458982078871,0.942912202578387,0.97810624476489,0.99560604474713,0.983400376173659,1.00120067777175,1.00976497382367,1.09364911606177,1.09834224423882,1.07333874214299,1.06230856518448,1.05959521235895,1.07458494002051,1.07126174568045,1.14479625873713,1.14421293207106,1.15488957771678,1.05414199185944,1.06738173952277,1.06109772043824,1.08367953304158,1.13286457693106,1.14539726196884,1.14168518318473,1.09367563091022,1.09914652797538,1.13555141490813,1.13172443844737,1.16303847447619,1.09541677262563,1.09212893141684,1.11191784664929,1.11158199190215,1.08195606789182,1.08019724961077,0.988995009198284,0.946138175807436,0.931015873903592,0.8879557600079,0.843466495780325,0.864518401627646,0.857873780604087,0.869489935713509,0.867362561038901,0.89476123777877,0.894655178384939,0.894584472122384,0.948497997320192,0.922265973912472,0.920630891590899,0.920975584620852,0.92152355815565,0.94363694176957,0.951016907923696,0.967155612351762,0.916600634625292,0.915920086848205,0.914682727253502,0.911386047761898,0.910351968672038,0.912190331498455,0.911686549377755,0.910502219479967,0.903369725244781,0.901115963125857,0.9020970125188,0.905216926354018,0.906003533524936,0.903935375345217,0.936902170261254,1.1197043738131,0.916202911898423,0.910599440590979,0.910988325035029,0.907037612614796,0.907470688472942
0.930750725419012,0.924625795425228,0.92229248876093,0.92268137320498,0.920993261186491,0.913507235638533,0.91354258876981,0.906569183625372,0.905994695242117,0.905393692010404,0.910466866348689,0.910793882813004,0.897280148382275,0.897642517977866,0.992839662224685,0.878773667986916,0.880306226227784,0.882530822013405,0.882220598286447,0.880166581359239,0.876542001575039,0.866685548574941,0.864551987102359,0.863134326538141,0.858597635966988,0.859154447784605,0.857284267140038,0.857764185897127,0.860950386853489,0.860931826459569,0.863731794456727,0.865223696596627,0.86176527652943,0.859469974481255,0.857614818917481,0.862621706134621,0.859249017410772,0.866647543958818,0.869089561501795,0.8662180034138,1.30042958090241,0.89117289495413,0.870386137591388,0.870777673520283,0.871583724913405,0.872235106357188,0.874079655981579,0.87521979446527,0.876063850474514,0.875962210222092,0.876133672908787,0.878893868633258,0.879774161602062,0.882892307780715,0.884579535970922,0.885277760313648,0.887036578594691,0.885207054051093,0.887911568593803,0.887725964654598,0.891190571519768,0.953014359840861,0.87519239578853,0.880954956186722,0.885834572131265,0.876199960029932,0.879583254693165,0.870096241914914,0.871255824620808,0.869138172057301,0.904359612920544,0.921629617549481,0.918783690481663,0.952872947315752,0.954101468627637,0.97154823891296,1.00921700028887,1.00435594473825,1.02637210724116,1.01172707260956,1.07793464920903,1.10335355059737,1.08292827900194,1.06051439377216,1.07612280123107,1.12907295360157,1.09408219191991,1.09461248888907,1.16918991931843,1.15669258741192,1.08546486617108,1.0844661402125,1.08643707728121,1.13528626642355,1.15306005317319,1.21264775594099,1.22746071794616,1.11517033472679,1.12140132411441,1.11273980695148,1.15884029013702,1.17594236739239,1.14099579712483,1.13582540167553,1.1253785513831,1.11676122563427,1.10749870523963,1.08682596172526,1.06599412912014,1.08808983616842,0.999742361106568,0.956019375999428,0.938183721270054,0.890810525358538,0.892268842023724,0.87102779692407,0.87372347318396,0.875176486879455,0.894929165152337,0.894390029900359,0.893408980507416,0.901239699085327,0.930379517540601,1.01703004230114,0.921629617549481,0.95135276267083,0.942956393992483,0.944326327829477,1.02303123633546,0.924846752495711,0.91971171017769,0.919473076541569,0.919234442905448,0.916821591695775,0.915151156242925,0.913957988062318,0.90891132857249,0.906639889887927,0.905985856959298,0.906197975746961,0.907346952513472,0.910148688167194,0.911995889276431,0.908239619078222,0.911792608771586,0.912446641700215,0.913242087153953,0.913577941901087,0.912941585538097,0.921532396438469
0.935072645717656,1.0011741629233,0.922964198255198,0.923123287345945,0.920657406439357,0.915575393818252,0.91212846351872,0.911951697862334,0.911297664933705,0.90569419362626,0.909079255946057,0.908946681703767,0.902972002517912,1.04368630328419,0.989101068592115,0.882742940801069,0.876108925716893,0.882303678144949,0.882165800932968,0.874855657213114,0.874427884324659,0.868213687674401,0.866638705675999,0.863349096810651,0.862042798609956,0.860857584883887,0.861320710903619,0.866309037726839,0.864306282839982,0.86083637300512,0.863835202365713,0.866491990181198,0.867261804614761,0.863353515952061,0.863767147588004,0.864815367930375,0.866177347312831,0.864343403627824,1.07804954688568,0.87102337778266,0.871079942792704,0.872356190831812,0.885613615060782,0.874733688910208,0.879543482420478,0.878611927411322,0.877502722917498,0.875688223454693,0.881305836014649,0.881044222843197,0.881710629367773,0.881101671681523,0.882994831861419,0.887239859099535,0.888300453037853,0.887204505968258,0.88472978677885,0.886585826170906,0.888123687381467,0.958476418623197,0.891234762933865,0.886400222231701,0.884924229000875,0.886426737080158,0.88756687556385,0.915327921899311,0.872349120205557,0.899799058985779,0.876234429332927,0.913843090385667,0.913189057457038,0.95817591700734,0.975269155979891,1.01205408907387,1.0219087744174,1.01580152098926,1.00103275039819,1.00542537695939,1.02076863593371,1.08869967768295,1.11408322594002,1.0988371880767,1.09227918222477,1.07857984385484,1.07358621406193,1.12003139027742,1.17029470467085,1.11806045320871,1.11654026856379,1.11739758199726,1.11658445997788,1.14636063479615,1.1606167849837,1.19166567252795,1.18682229354296,1.18516069637293,1.16334781437487,1.13848572480414,1.12939113178307,1.11372969462725,1.21095964392251,1.29509125807954,1.13951096561118,1.14046550015567,1.15262697731504,1.12733181188617,1.12106546936728,1.11085725271097,1.10247856059826,1.11726500775497,1.08671106404861,1.00158072393299,1.00146582625633,0.95701810195801,0.92010943290456,0.882218830629884,0.884827007889863,0.887425463038741,0.885693159606156,0.890766333944441,0.944317489546657,0.908407546451789,1.08626031162482,1.00734328433118,1.11243930533563,1.12147203037696,0.934780982384619,0.934710276122064,0.929690131480695,0.930079015924745,0.922964198255198,0.923980600779419,0.921302601085167,0.91856273341118,0.917882185634093,0.925845478454294,0.906312873423612,0.908292648775138,0.908389869886151,0.908973196552226,0.911960536145153,0.912314067457926,0.915495849272878,0.912835526144265,0.912305229175106,0.912561539376867,0.915071611697551,0.914983228869358,0.920498317348609,0.921815221488687
0.940437483388979,0.93991602470264,0.940649602176643,0.928152270270134,0.928249491381147,0.920003373510728,0.920719274419092,0.91881904361294,0.915080449980371,0.910952971903752,0.910281262409484,0.906374741403347,0.90313109160866,0.993422988890759,0.987191999503144,1.09136000081156,0.936893331978435,0.88409343041586,1.08074522314557,0.895468300404315,0.875279894788441,0.868534517340742,0.869171757532014,0.865461446404467,0.863906792456549,0.863372076345981,0.864534310536721,0.866271033110716,0.865587833848783,0.864415877546942,0.864176360082539,0.867994498260482,0.869182363471397,0.867623290382071,0.869216832774393,0.869207994491573,0.87226338886221,0.867382005261103,0.869791321157648,0.875195931101658,0.871638522266884,0.871620845701246,0.877438203452917,0.878175316240048,0.881157352863284,0.880637661833509,0.882209108518782,0.88054662752047,0.880846245308044,0.884075753850221,0.884827007889863,0.883054048356309,0.886223456575314,0.885869925262542,0.890996129297743,0.895185475354098,0.890280228389379,0.890898908186731,0.896917778786683,0.959704939935081,0.949496723278775,0.890121139298631,0.888176717078383,0.887646420109224,0.888123687381467,0.931272184105352,0.897792768785795,0.909971922510808,0.911536298569826,0.92293768340674,0.942823819750194,0.971610106892695,0.952846432467294,1.05844623559244,1.01749847129057,1.02389738805175,1.05743867135104,1.05477834822243,1.04855619711763,1.06511030083821,1.11491402452503,1.10005687110577,1.13774330904732,1.14278996853715,1.12024350906508,1.16594626952375,1.15861049478372,1.13939606793453,1.13040753430729,1.09384355828379,1.12561718501922,1.1330678574359,1.13556909147377,1.16991465850962,1.14627225196795,1.14950706347982,1.15508401993881,1.1639576558894,1.15974179498459,1.19386640494995,1.21153413230576,1.20269584948645,1.19408736202044,1.14905631105604,1.14963963772211,1.14585685267545,1.12768534319894,1.13669155339182,1.13426986389933,1.13745164571428,1.1370008932905,1.08758605404772,1.04156511540756,0.988005121522521,0.965202351848694,0.921983148862254,0.912579215942505,0.891517587984083,0.9000376926219,0.896166524747041,0.907691645543425,0.939580169955506,1.02884682643057,1.04671783429122,0.972131565579035,1.17795749587519,0.930123207338841,0.932235556932657,0.933720388446301,0.931979246730897,0.930635827742361,0.925845478454294,0.923423788961802,0.919252119471086,0.918492027148625,0.927922474916832,0.906666404736385,0.908814107461478,0.910732014833269,0.911987050993611,0.912013565842069,0.913383499679063,0.915230700788299,0.917263505836741,0.915663776646445,0.915053935131913,0.914178945132801,0.914373387354826,0.920312713409404,0.922778594315992
0.945669746818012,0.941011971772234,0.934940071475367,0.931148448145881,0.929610586935321,0.928355550774979,0.924555089162674,0.923892217951226,1.19898377070234,0.914771110081695,0.914762271798875,0.915319083616492,1.00523977302018,1.0221827611848,0.977169386786043,0.970894205984331,1.08508482000985,0.924820237647253,0.925686389363546,0.881880324397904,0.873118050810837,0.871725137438514,0.870513408863986,0.868748403784969,0.869661398400204,0.86731660196824,0.866403607353005,0.867553467947798,0.870233235298614,0.869328195137916,0.869292842006639,0.871239031883451,0.871320344085389,0.865221045111781,0.865099960637157,0.872677904326436,0.875315247919718,0.875358555505533,0.875509690141743,0.875653754151698,0.878822278542422,0.881403057125661,0.881662018812267,0.88221706297332,0.884800493041405,0.886143912029941,0.891597132529456,0.888229746775298,0.881776916488918,0.884694433647573,0.88031771599545,0.888344644451949,0.889811799399955,0.890421640914488,0.890996129297743,0.896997323332057,0.896749851413116,0.898013725856277,0.90055031302542,0.96190567235709,0.949823739743089,0.887664096674862,0.887938083442261,0.899675323026308,0.913410014527521,0.897801607068614,0.930220428449853,1.00166910676118,0.907647454129329,0.96537911750508,0.955144386000315,0.936097886524696,0.982569577588643,1.0275829519874,1.06756734346197,1.05499046701009,1.06201690185145,1.07174785123551,1.11988113946949,1.07620234577644,1.09982707575247,1.14323188267811,1.13170676188173,1.21611236280616,1.14407151954595,1.12263868370911,1.12477754815139,1.13234311824472,1.13198074864913,1.13095550784209,1.17556232123116,1.16714827598717,1.16877452002593,1.18430338293946,1.17829335062233,1.14800455540054,1.16856240123826,1.16843866527879,1.19445856989885,1.19697748050235,1.21160483856832,1.2113220135181,1.20971344604498,1.26398934083838,1.16673287669466,1.2670650632595,1.19973502474198,1.12999213501478,1.17178837446731,1.13686831904821,1.12519294744389,1.11232440765897,1.04060174258025,1.02542641097949,1.00445316584926,0.956337554180923,0.91418778341562,0.919172574925712,0.919835446137161,0.901107124843037,0.974579769919985,0.921178865125696,0.985150356171883,0.998628737471335,0.968746503259238,0.944467740354586,1.00931422139988,1.00805034695672,0.940119305207484,0.937547364907064,0.93656631551412,1.09240291818424,0.927471722493047,0.924360646940649,0.924130851587347,0.922725564619076,0.932589088245429,0.907258569685279,0.915363275030589,0.913701677860558,0.913233248871134,0.915009743717816,0.915080449980371,0.916096852504592,0.917837994219996,0.916547604928377,0.916052661090495,0.917820317654358,0.922230620781195,0.924263425829637
0.948365423077903,0.944485416920224,0.939960216116736,0.932164850670102,0.930273458146769,0.929133319663078,0.930715372287735,0.930529768348529,0.930680019156458,0.914514799879935,0.921072805731865,0.917829155937177,0.917484462907224,1.00053780656031,0.904465672314376,0.905031322414812,1.26181512326483,0.896926617069502,0.916521090079919,0.905269956050933,0.877737821240492,0.871695087276928,0.870831587045481,0.870389672904515,0.872099880630052,0.873725240840524,0.874104403173473,0.871442312388296,0.872549749225556,0.867788566270792,0.867664830311321,0.884234842940969,0.880654454570865,0.941082678034789,0.87714654011988,0.876278620747023,0.876391750767111,0.877079369170453,0.8779428694019,0.879191718764269,0.883414650295337,0.88313712821481,0.885481040818492,0.887443139604379,0.887743641220236,0.891208248085407,0.892092076367338,0.890350934651933,0.887805509199971,0.888530248391155,0.890253713540921,0.890943099600827,0.890589568288055,0.892436769397291,0.89836725716905,0.898508669694159,0.897315501513552,0.89811094696729,0.976373941332305,0.910687823419172,0.909697935743409,0.903679065143457,0.92743636936177,0.885410334555938,0.908283810492319,0.897403884341745,0.97091188254997,0.995058071212332,0.948984102875255,0.984257689607132,0.950539640651454,0.933587814204012,1.00416150251622,1.03164856208429,1.06066464458009,1.13563979773632,1.11820186573382,1.12509572633288,1.14345283974859,1.15422670650534,1.12150738350824,1.1325198839011,1.16608768204885,1.17758628799678,1.21307199351632,1.18248269667868,1.11872332442016,1.13857410763233,1.16857123952108,1.20626651574545,1.23055411693292,1.20776902382473,1.19664162575522,1.19936381686357,1.1688540645713,1.16403720043477,1.23631667733111,1.17847011627871,1.19201920384072,1.19204571868918,1.21113640957889,1.20955435695423,1.2398343138932,1.23696187197692,1.21611236280616,1.18613290748306,1.18770612182489,1.23118163501309,1.20275771746618,1.17824915920823,1.21052656806436,1.15522543246392,1.09523116868642,1.06541964073688,1.01448461684918,0.982578415871463,0.929478012693031,0.927401016230493,0.96408872821346,1.08700272738164,1.02495798199007,0.970982588812524,1.04205122096262,0.976497677291776,0.976241367090015,0.977416858704984,1.0090490729153,0.96742959911916,0.944370519243573,0.939677391066518,0.93734408440222,0.936840302281519,0.936849140564338,0.928046210876303,0.924201557849901,0.92421923441554,1.0708728612364,0.956364069029381,0.988376329400932,0.915053935131913,0.916706694019124,0.915867057151289,0.917334212099296,0.918748337350385,0.919190251491351,0.91919908977417,0.916980680786523,0.919773578157426,0.923697775729201,0.925960376130945
0.949549752975691,0.947216446311392,0.943336440153714,0.935567589555538,0.934197655718544,0.93154617087275,0.932774692184635,0.934321391678015,0.93386180097141,1.09272109636574,0.926004567545041,0.921090482297503,0.918642277956554,0.911138575842957,0.9108380742271,0.900090722318816,0.899825573834237,0.900771270095903,0.898650082219268,0.895379917576122,0.860555315611466,0.873109212528018,0.875607795081038,0.873881678446426,0.8758101917576,0.878801950491937,0.880968213610951,0.873346962335858,0.873632438870921,0.873562616436649,0.869154964794657,0.871411378398428,0.893523878184067,0.884393932031716,0.885472202535673,0.885578261929505,0.880460896177122,0.877218130210716,0.874388995880254,0.873602388709336,0.885808057282807,0.886736076978834,0.889166604754146,0.889635033743569,0.888291614755033,0.887469654452837,0.892542828791123,0.892339548286279,0.893408980507416,0.89104032071184,0.89090774646955,0.891323145762058,0.899100834643053,0.900064207470358,0.899030128380499,0.899162702622788,0.898455639997243,0.898455639997243,0.908681533219188,0.909883539682615,0.910157526450013,0.911456754024452,1.03818889137058,0.903802801102928,0.934100434607532,0.95906858357209,0.982958462032693,0.955621653272558,0.985742521120777,0.989958382025589,0.973192159517352,0.988473550511944,0.986325847786851,1.0229605300729,1.09894324747053,1.09790916838068,1.13774330904732,1.11834327825893,1.11848469078404,1.12955022087382,1.12330155492056,1.13944909763145,1.19292070868829,1.20490542019128,1.17783375991572,1.2300414965294,1.15924685114671,1.17651685577564,1.17239821598184,1.18777682808745,1.20495844988819,1.20616045635162,1.21835728664227,1.20924501705556,1.21619190735154,1.21605933310925,1.19767570484508,1.20846724816746,1.19387524323277,1.22980286289328,1.2264708302704,1.26640219204805,1.25760810064284,1.22832686966245,1.26049821912475,1.31183096573932,1.26162951932563,1.29371248595973,1.2282119719858,1.190684623135,1.18745864990595,1.2097222843278,1.13960818672219,1.08323761890062,1.05231246731584,1.00644177948361,1.00565517231269,1.04641733267536,0.952351488629413,0.952581283982715,0.9592099960972,0.959890543874287,0.969913156591387,0.970187143358786,0.954782016404724,0.961737744983523,0.961967540336825,0.953191125497247,0.962586220134177,0.943654618335209,0.943062453386315,0.936354196726457,0.93644257955465,0.934356744809292,0.929893411985539,0.92498816502082,0.925421240878967,1.19756080716843,0.939368051167842,0.916485736948641,0.920180139167114,0.920807657247285,0.921461690175915,0.923733128860478,0.967571011644269,0.921187703408516,1.00456806352591,0.921178865125696,0.922000825427893,0.923671260880743
0.952068663579195,0.946279588332545,0.945678585100831,0.943698809749305,0.943451337830365,0.935779708343201,0.934047404910616,0.938599120562562,1.08974259505563,0.93411811117317,0.929177511077175,0.92228365047811,0.922858138861366,1.00423220877878,1.05968359518715,1.21790653421849,0.899038966663318,0.899710676157586,0.897916504745265,0.894451897880094,0.897456914038661,0.877661812008246,0.878755107592995,0.878511170987182,0.880787912641437,0.882997483346265,0.88245039363975,1.15800065326918,0.877779361169743,0.873049996033129,0.872735353164761,0.873188757073392,0.894734722930313,0.890660274550609,0.889449429804363,0.887717126371778,1.0721102208311,0.909574199783939,0.891614809095095,0.884915390718056,0.888963324249301,0.892869845255438,0.894310485354986,0.893930439193755,0.893771350103007,0.89361226101226,0.894018822021948,0.895742287171714,0.896502379494175,0.895167798788459,0.894628663536481,0.892100914650157,0.894619825253661,0.903307857265046,0.904200523829797,0.906940391503783,0.903281342416588,0.903696741709096,0.907214378271182,0.906905038372506,1.03770278581552,0.918854396744217,0.957884253674303,0.924104336738889,0.925871993302751,0.986971042432661,0.98377158405207,1.07690057011917,1.03248819895212,1.01340634634523,1.02294285350726,1.00767913907831,1.07694476153327,1.08402422607153,1.11432185957614,1.11999603714614,1.13837966541031,1.18991569252972,1.18992453081254,1.12400861754611,1.15271536014323,1.14207406762878,1.20424254897983,1.19090558020548,1.21133085180092,1.1585574650868,1.23532678965535,1.17575676345318,1.23692651884565,1.24196434005265,1.23819923157163,1.22371328603077,1.21680174886607,1.21269194735509,1.19753429231997,1.20346478009173,1.22513624956468,1.20030951312523,1.21620958391718,1.2223079990625,1.236811621169,1.34016650045804,1.30112780524513,1.27297787446562,1.3183182653287,1.30914412776225,1.31494204129172,1.33045322763961,1.26183279983047,1.24635696661385,1.25445283367634,1.20116682655871,1.1590612472075,1.10918681725812,1.0733917718399,1.05316094246649,1.0293682851169,0.986131405564826,1.00172213645809,1.08747999465389,0.959386761753586,0.96396499225399,0.967509143664534,0.965679619120937,0.954614089031157,0.949390663884943,0.961596332458414,0.961949863771186,0.962108952861934,0.946686149342233,0.94196650631672,0.941798578943153,0.935426177030429,0.937158480463014,0.93155500915557,0.92910680481462,0.926287392595259,0.927339148250758,0.941568783589851,0.918076627856118,0.922009663710712,0.924263425829637,0.924298778960914,0.925792448757378,0.926031082393499,0.959298378925393,0.98582206566615,0.923733128860478,0.922964198255198,0.924360646940649
0.957442339533337,0.949001779440893,0.947605330755442,0.94711038691756,0.944847786515816,0.949337634188027,0.944556123182779,0.944087694193355,0.943248057325521,0.937388275816316,0.936513285817204,0.92718005916001,0.927330309967938,0.922257135629653,0.918253393512504,0.976541868705872,0.904447995748737,0.897306663230732,0.899666484743489,0.897156412422804,0.891331984044877,0.928046210876303,0.880668595823376,0.880636778005227,0.882133099286536,0.883309474729787,0.883476518275072,0.883264399487408,0.874822071738401,0.878785157754581,0.878385667371148,0.875588350858835,0.875851731686851,0.891632485660734,0.89244560768011,1.03289475996181,0.912358258872022,0.88525124546519,0.908858298875574,0.907285084533737,0.890863555055453,0.893842056365562,0.897006161614876,0.896873587372586,0.895353402727664,0.8925781819224,0.894009983739129,0.896069303636029,0.900868491206916,0.900718240398987,0.897368531210468,0.89606046535321,0.897483428887119,0.902821751709984,0.907108318877351,0.907612100998051,0.913834252102847,0.909114609077334,0.90917647705707,0.906631051605108,0.944715212273526,0.958608992865486,0.96434503841522,0.953367891153634,1.01097581856991,0.996313107372675,1.00503649251534,1.0775104116337,1.05278973458808,1.05005870519692,1.03859545238027,1.1655573850797,1.10769314746165,1.11818418916818,1.13060197652931,1.17880597102585,1.14232153954772,1.14225083328517,1.15130123489214,1.15154870681108,1.15534916842339,1.16666217043211,1.16110289053876,1.16087309518546,1.16045769589295,1.22867156269241,1.17847895456153,1.19409620030326,1.19467952696933,1.23915376611611,1.22213123340612,1.22176002552771,1.22756677733999,1.22861853299549,1.26283152578905,1.30916180432789,1.24812462317772,1.23242783289062,1.24508425388787,1.25788208741024,1.2613908856895,1.27343746517223,1.32796083188457,1.32483207976653,1.32429294451455,1.32431062108019,1.31064663584153,1.31158349382038,1.28700422929987,1.23218036097168,1.27248293062774,1.21520201967578,1.24559687429139,1.15016993469127,1.10685351059382,1.09835108252164,1.14142003470015,1.0536647245872,1.06123913296335,1.04695646792734,1.03200209339706,0.983091036274983,0.984399102132241,1.09525768353488,1.09501904989876,0.952598960548353,0.951679779135145,0.949532076410052,1.01516516462627,1.01547450452494,0.948259363684071,0.943831383991595,0.94222281651848,0.939553655107048,0.934241847132641,0.932156012387283,0.930786078550289,0.929398468147657,0.928567669562642,0.94376951601186,0.939765773894711,0.928505801582907,0.932235556932657,0.928841656330041,0.928152270270134,0.954154498324552,0.927330309967938,0.927621973300976,1.03591745268602,0.999963318177051
0.958228946704256,0.954764339839085,0.954631765596795,0.953712584183587,0.95342092085055,0.954905752364194,1.16847401841007,0.945678585100831,0.946668472776594,0.943495529244461,0.940402130257702,0.936239299049805,0.931060065317688,0.92665860047367,0.919694033612052,0.918571571693999,1.04926325974318,0.900391223934673,0.897403884341745,0.895097092525904,0.894045336870406,0.88936104697617,0.885445687687215,0.885719674454614,0.886753753544473,0.868567218987173,0.890616083136513,0.911589328266742,0.882680188993052,0.882151659680457,0.880728696146547,0.881663786468831,0.881845855094909,0.887584552129489,0.890050433036077,0.889590842329473,0.888698175764722,1.07297637254739,0.890183007278367,1.05139328590263,0.907956794028005,0.897032676463334,0.899728352723224,0.900788946661542,0.902203071912632,0.893568069598163,0.989357378793875,0.903069223628925,0.902901296255358,1.16076703579163,0.905579295949609,0.898358418886231,0.898588214239533,0.901752319488847,0.907302761099375,0.90775351352316,0.917290020685199,0.909600714632397,0.909211830188347,0.919632165632317,0.91972054846051,0.913295116850869,0.955117871151858,0.964018021950906,0.975834806080327,1.00148350282197,1.01870931603681,1.06883121790514,1.07684754042225,1.07689173183635,1.15641860064453,1.12212606330559,1.12086218886243,1.11351757583958,1.14623689883668,1.15043508317585,1.14248946692129,1.14316117641556,1.15770898993615,1.21642170270484,1.20240418615341,1.17638428153335,1.1845066634443,1.1750762156761,1.17436915305055,1.23452250591879,1.23465508016108,1.22382818370742,1.30704945473407,1.30282475554644,1.31007214745828,1.24046183197337,1.22665643420961,1.31387260907058,1.29066327838707,1.28398153657567,1.27851063951051,1.29692962090596,1.30610375847241,1.34326873772762,1.26702087184541,1.32165029795158,1.38329732061629,1.4260480946133,1.32653786835066,1.32264018562734,1.32264018562734,1.30058866999316,1.25473565872656,1.25774067488513,1.19368080101075,1.19351287363718,1.21439773593922,1.21308083179914,1.17018864527702,1.18187285516415,1.1294971911769,1.07931342132884,1.06556989154481,1.05086298893347,1.00433826817261,1.00546956837348,1.0065301623118,1.08460755273761,0.970558351237197,0.96936518305659,1.01589874210027,0.957981474785315,0.977637815775467,0.954896914081375,0.986361200918128,0.948630571562482,0.943141997931689,0.940455159954618,0.936530962382843,0.935214058242765,0.932951457841021,0.930856784812844,0.931395920064822,0.929575233804044,0.9285941844111,0.929566395521224,0.930688857439277,0.93129869895381,0.932509543700055,1.32639645582555,1.02439233188963,0.930538606631349,0.932262071781115,1.0384275250067
0.960774372156218,0.96023523690424,0.956028214282247,0.958096372461966,0.958016827916592,0.956779468321889,1.20970460776216,1.102540428578,0.949337634188027,0.947269476008308,0.94505990530348,0.940994295206596,0.930927491075399,0.927533590472782,1.03538715571686,0.91958797421822,0.912402450286119,0.906418932817444,0.899772544137321,0.895503653535593,0.894398868183179,0.893081964043101,0.890890069903912,0.889564327481015,0.890739819095983,0.891482234852805,0.892914036669534,0.891986016973506,0.892304195155001,0.88705425516033,0.885348466576202,0.880897507348396,0.884694433647573,0.885560585363866,0.890686789399067,0.890598406570874,0.890730980813164,1.10610225655418,0.914099400587427,0.911147414125776,1.26073685276088,0.899666484743489,0.899878603531153,0.903104576760202,0.962612734982635,0.897280148382275,0.90595934211084,0.905473236555777,0.905915150696743,0.909079255946057,0.90403259645623,0.905066675546089,0.902848266558442,0.902830589992803,0.909158800491431,0.911279988368066,0.915787512605916,0.917024872200619,0.982578415871463,0.928143431987315,0.925465432293063,0.964999071343849,0.955542108727185,1.01703004230114,1.04540976843396,1.01960198260156,1.03588209955474,1.05944496155103,1.05985152256071,1.15131891145778,1.14292254277944,1.14470787590894,1.11779530472413,1.12132177956903,1.12696060400776,1.13302366602181,1.13976727581294,1.16620257972551,1.16666217043211,1.17329972082941,1.18977428000461,1.19213410151737,1.17229215658801,1.26892110265156,1.21567928694802,1.21492803290838,1.19824135494551,1.24868143499533,1.33725870541049,1.33429788066602,1.2763982899167,1.2643163573027,1.24197317833547,1.2727834322436,1.31594960553312,1.3089850386715,1.41954311845829,1.34319803146506,1.34944669741832,1.30118083494205,1.31656828533047,1.35583677589668,1.35173581266852,1.32871208592421,1.32843809915681,1.31527789603885,1.31704555260272,1.27620384769467,1.25617629882611,1.24688726358301,1.2434933629804,1.19361009474819,1.1884396992989,1.18114811597296,1.17898273668223,1.18698138263371,1.17460778668667,1.12488360754522,1.0890443707129,1.05680231498805,1.03446797430365,1.04351837591062,1.00431175332415,1.09326023161772,0.968861400935889,0.983029168295247,0.982666798699656,0.966413196594939,0.949876769440005,1.07473519082844,0.952448709740425,0.953244155194163,0.94196650631672,0.942267007932577,0.938811239350226,0.937653424300895,0.936133239655974,0.93515219026303,0.935947635716768,0.934286038546737,0.931113095014604,0.931351728650726,0.932527220265694,0.933808771274495,0.93644257955465,1.01654393674608,0.9319350553168,0.932376969457766,0.970796984873319,1.06815067012805
0.965529368313008,0.964619025182619,0.963213738214348,0.95972261650072,0.962100114579115,0.961198609731545,0.960350134580891,0.958582478017028,0.952280782366858,0.95200679559946,0.948701277825036,1.12066774664041,0.985512725767475,0.930688857439277,0.929177511077175,0.924254587546817,0.912950423820916,0.908752239481743,0.909079255946057,0.897041514746153,0.896838234241309,0.897456914038661,0.89515012222282,0.894398868183179,0.894858458889783,0.893621099295079,0.89464634010212,0.894425383031637,0.892277680306544,0.894628663536481,0.894177911112696,0.889246149299519,0.888353482734769,0.889714578288943,0.892295356872182,0.89180925131712,1.18743213505749,0.918801367047301,0.918580409976819,1.04117623096351,0.904580569991027,0.903838154234205,0.901283890499423,0.905888635848285,0.907576747866774,0.906189137464142,0.90762977756369,0.908584312108176,0.90711715716017,0.906030048373394,0.905146220091463,0.905013645849173,0.908354516754874,0.90351997605271,0.908575473825356,0.91662714947375,0.917617037149513,0.918350614623516,0.913772384123112,0.925465432293063,1.0008559847418,1.00581426140344,0.993864903031725,1.12061471694349,1.10135609868021,1.09830689110754,1.0836883713244,1.18203194425489,1.08499643718166,1.15476584175731,1.12579395067561,1.15078861448862,1.13275851753723,1.13198074864913,1.13114995006411,1.16649424305854,1.18531978546368,1.18740562020904,1.17390956234395,1.17314063173867,1.16819119335985,1.16610535861449,1.18694602950243,1.27180238285065,1.26615472012911,1.25819142730891,1.37711936092559,1.45345560963599,1.39508758989725,1.31180445089086,1.31647106421946,1.26735672659254,1.25252608802173,1.31861876694455,1.31601147351286,1.40737280301609,1.41097882240637,1.42299888704064,1.38738944556163,1.37055251679084,1.49527836393698,1.43547854238151,1.39600677131046,1.39887037494391,1.34955275681215,1.34782045337956,1.34660960863332,1.31535744058423,1.29197134424433,1.27585915466472,1.26049821912475,1.30035003635704,1.19468836525215,1.18213800364873,1.1856026105139,1.22777889612766,1.22085852068014,1.16147409841717,1.1181488360369,1.1003927258529,1.09844830363265,1.04351837591062,1.07566321052447,0.995464632222021,0.970125275379051,0.970920720832789,0.972343684366698,0.947614169038261,0.944255621566922,0.940658440459462,0.956098920544801,0.952121693276111,0.953199963780067,0.944591476314056,0.940331423995147,0.940251879449773,0.945563687424181,1.20142313676047,1.13358931612224,0.940490513085895,0.941948829751082,0.937043582786363,0.937184995311472,0.93952714025859,0.94274427520482,0.943062453386315,0.995296704848454,0.964124081344737,0.942664730659446,1.05035036852995
0.973024232143785,0.971601268609876,1.24052369995311,0.958458742057558,0.963858932860158,0.963134193668974,0.960924622964146,0.961596332458414,1.04159163025601,0.949319957622389,0.950875495398588,0.940958942075319,1.19664162575522,0.930759563701831,0.926897234109792,0.922539960679871,0.906392417968986,0.908336840189235,0.906136107767226,0.90376744797165,0.900311679389299,0.901160154539953,0.896325613837789,0.89618420131268,0.897801607068614,0.89682939595849,0.897112221008708,0.898464478280062,0.900621019287975,0.899586940198115,0.898605890805172,0.895185475354098,0.894867297172602,0.894230940809612,0.895848346565546,0.891977178690687,0.958290814683991,0.995455793939201,0.899993501207804,1.15271536014323,0.909530008369842,0.908884813724032,0.9082749722095,0.9082749722095,0.910175203015652,0.908752239481743,0.909052741097599,0.909026226249141,0.909441625541649,0.905650002212164,0.904509863728473,0.904120979284423,0.908955519986587,0.907859572916992,0.910855750792739,0.912322905740745,1.00483321201049,0.927073999766178,0.958635507713944,1.01241645866946,1.0124341352351,1.01668534927119,1.08059497233764,1.10292931302204,1.17246008396158,1.12749973925973,1.12942648491434,1.10908075786429,1.14495534782788,1.10551009160528,1.12078264431706,1.19256717737552,1.15000200731771,1.13587843137244,1.15970644185331,1.16610535861449,1.19474139494907,1.19976153959044,1.17027702810521,1.1644614380101,1.16514198578719,1.19863023938956,1.31309484018248,1.26265476013267,1.29186528485049,1.27666343840128,1.3020735015068,1.32434597421147,1.33704658662282,1.3002881683773,1.30331969938432,1.26072801447806,1.28977061182232,1.27412685123213,1.31270595573843,1.43592929480529,1.42691424632959,1.46415877013018,1.45528513417959,1.50127955797129,1.56399601285714,1.46912588507463,1.39111920091138,1.38967856081183,1.34883685590379,1.37087953325515,1.37496281991767,1.34773207055137,1.32073111653837,1.31252035179923,1.31617056260361,1.26433403386834,1.2110038353366,1.18206729738617,1.20325266130406,1.20734478624941,1.18430338293946,1.19882468161159,1.14356773742525,1.1695876420453,1.10656184726078,1.13013354753989,1.04638197954408,0.996595932422893,0.977160548503224,0.97437648941514,0.968216206290079,0.970841176287415,1.00239384595236,1.00440897443517,0.943186189345785,0.943548558941377,1.05833133791579,0.950035858530753,0.947870479240021,0.943504367527281,0.944193753587187,0.994589642222909,0.953491627113104,0.961499111347402,0.949364149036485,0.942620539245349,0.94274427520482,0.941736710963418,0.943035938537857,0.943557397224196,0.945280862373962,0.991646494044078,0.946783370453246,1.09554934686792
0.980483742843285,0.976798178907632,0.984390263849422,0.970028054268038,0.969347506490951,0.967199803765858,0.961454919933305,0.961428405084847,0.946288426615364,0.94711038691756,0.947525786210068,0.940136981773122,0.938219074401331,0.930291134712408,0.922124561387363,0.916574119776835,0.913498397355714,0.910988325035029,0.909803995137241,0.906127269484407,0.908283810492319,0.906153784332865,0.90338740181042,0.901672774943473,0.901513685852726,0.901434141307352,0.896838234241309,0.897810445351433,0.901937923428052,0.904386127769002,0.903917698779579,0.901213184236869,0.897041514746153,0.898473316562882,0.899790220702959,0.897059191311792,0.898208168078303,0.900020016056261,0.903334372113504,0.904872233324064,0.90994540766235,0.909583038066758,0.912057757256166,0.912181493215636,0.913684001294919,0.914771110081695,0.912154978367178,0.912305229175106,0.909026226249141,0.906631051605108,0.90442148090028,0.904651276253582,0.909786318571602,0.910413836651774,1.03789722803754,0.921170026842877,0.957645620038181,0.938581443996923,0.940437483388979,1.03482150561642,1.02532035158566,1.10387500928371,1.08090431223632,1.17525298133248,1.17566838062499,1.11450746351534,1.11528523240344,1.12027886219636,1.11841398452148,1.12096824825626,1.14133165187196,1.17628706042234,1.17550929153424,1.2483455802482,1.17725043324965,1.20357967776838,1.19369847757639,1.19345984394027,1.17774537708753,1.21311618493042,1.19423761282837,1.22945816986333,1.2699905348727,1.30772116422834,1.34908432782273,1.29990812221607,1.29777809605662,1.35663222135042,1.33710845460256,1.33643674510829,1.30973629271115,1.30704061645125,1.28567848687698,1.28527192586729,1.35581909933104,1.4149737262407,1.41416060422133,1.41315303997992,1.55726124134882,1.50287928716159,1.53543068278512,1.48408025960491,1.46202874397072,1.38240465405154,1.38105239678018,1.35801099347023,1.39006744525588,1.33640139197701,1.33116912854798,1.33125751137617,1.30575022715964,1.28556358920032,1.30932973170146,1.25784673427896,1.18613290748306,1.18676042556323,1.20137894534637,1.19990295211555,1.226196843503,1.14482277358559,1.11799858522897,1.11913872371266,1.09890789433926,1.05358518004182,0.987863708997412,1.00494810968714,0.979246383248582,0.979158000420388,0.964592510334161,0.964459936091871,1.06189316589198,0.945015713889383,1.1632240784154,1.04966982075287,0.953191125497247,1.03887827743048,1.07246375214387,0.952749211356282,0.952218914387123,0.982534224457366,1.02528499845438,0.950884333681407,0.946836400150162,0.944750565404804,0.943972796516704,0.945042228737841,0.948648248128121,0.962197335690127,0.954030762365082,0.954808531253182
0.984567029505808,1.19533355989796,0.977708522038021,0.976992621129657,0.971062133357898,0.970125275379051,0.9671732889174,0.960986490943881,1.05111929913523,0.949452531864678,0.94814446600742,0.938192559552874,0.937317569553762,0.933419886830445,0.916185235332785,0.91406404745615,0.912844364427084,0.914125915435885,0.913312793416508,0.912464318265854,0.911474430590091,0.91135953291344,1.00519558160608,0.907417658776027,0.904103302718784,0.905048998980451,0.904501025445653,0.902910134538177,0.905817929585731,0.905923988979563,0.906312873423612,0.905623487363706,0.905853282717008,0.906454285948721,0.900214458278287,0.900391223934673,0.904041434739049,0.910360806954858,0.911253473519608,0.910263585843845,0.911456754024452,0.914930199172442,0.916070337656134,0.916026146242037,0.917935215331009,0.918023598159202,0.915716806343361,0.913489559072894,0.912331744023564,0.911995889276431,0.907488365038581,0.906144946050045,0.906542668776914,0.912676437053518,1.06215831437656,1.03798561086573,0.936522124100023,0.938934975309696,0.970372747297992,1.04517997308066,1.04505623712118,1.09052920222655,1.11821070401664,1.12754393067383,1.13506530935307,1.14292254277944,1.2023069650424,1.12787978542097,1.16031628336784,1.16909269820742,1.14891489853093,1.17123156264969,1.16746645416867,1.1634096823546,1.17469616951486,1.16783766204708,1.20214787595165,1.18030847910513,1.22172467239643,1.29327057181877,1.25512454317061,1.25556645731158,1.27253596032466,1.37148053648686,1.32482324148371,1.29369480939409,1.29235139040556,1.29102564798266,1.45923584659982,1.40478318615004,1.35597818842179,1.30781838533935,1.32853532026782,1.39862290302497,1.3990029491862,1.39842846080295,1.41226921169799,1.41104952866893,1.58807149525694,1.5546893010484,1.54022103207318,1.45165259994085,1.51032995957827,1.43494824541235,1.3772165820366,1.37062322305339,1.35463476943325,1.3520009611531,1.35843523104556,1.39134015798186,1.27825432930875,1.24285700661741,1.23642273672495,1.21875500936914,1.21838380149073,1.21531691735243,1.18947377838876,1.23705025480512,1.18179331061877,1.19486513090854,1.11342035472857,1.09108601404417,1.04984658640925,0.992751279396491,0.972396714063614,0.984628897485543,0.973324733759642,0.967376569422244,0.97373129476933,0.964035698516544,0.941904638336985,0.942938717426845,0.958865303067246,0.987006395563938,1.10464393988899,0.956691085493695,0.95650548155449,0.958494095188835,0.956549672968586,0.957071131654926,0.956814821453166,0.956708762059334,0.952448709740425,0.948648248128121,0.9489133966127,0.949479046713136,0.989065715460838,0.954843884384459,0.956691085493695,0.959086260137729
0.987960930108424,0.983736230920793,0.98235745880098,0.977796904866214,0.976515353857414,1.11656678341224,0.968605090734129,1.04091992076175,1.01626111169586,0.952651990245269,0.945386921767794,0.934869365212812,0.935099160566114,0.935320117636597,0.922849300578546,0.914099400587427,0.912287552609468,0.909839348268518,0.913498397355714,1.00846574624923,0.913825413820028,0.912040080690527,0.913250925436773,0.913613295032365,0.912093110387443,0.910316615540761,0.906825493827132,0.90762977756369,0.904951777869438,0.902848266558442,0.904271230092351,0.908734562916104,0.909795156854422,0.906825493827132,0.90557045766679,0.904492187162834,0.907399982210388,0.913701677860558,0.914152430284343,1.01701236573551,0.915274892202395,0.915336760182131,0.918244555229685,0.921709162094855,0.923370759264886,0.92396292421378,0.923308891285151,0.918624601390915,0.915071611697551,0.913268602002411,0.914134753718704,0.906869685241229,1.14537074712038,0.916485736948641,1.11097215038762,0.97168081315525,0.950610346914008,0.940994295206596,1.00535467069683,1.04545395984805,1.05552960226207,1.07992326284337,1.09565540626175,1.11524987927217,1.14446040399,1.14397429843493,1.18854575869273,1.18714931000728,1.1992400809041,1.18099786516504,1.16377205195019,1.14461065479792,1.15062952539788,1.1508239676199,1.24654257055306,1.19140052404337,1.19826786979397,1.21711992704757,1.31553420624061,1.31193702513315,1.29407485555532,1.28425552334307,1.27649551102771,1.29426045949453,1.28360149041444,1.27625687739159,1.30333737594996,1.29166200434565,1.39956859928664,1.41732470947064,1.45596568195668,1.41086392472972,1.41284370008125,1.46436205063502,1.44398980873651,1.38464073960482,1.38882124737836,1.39750044110692,1.43994187520526,1.44316784843431,1.50790827008578,1.53306202298954,1.43520455561411,1.47154757456712,1.41612270300721,1.37707516951149,1.3777645555714,1.36808663588425,1.38586042263389,1.32490278602909,1.37706633122867,1.25850076720759,1.24217645884032,1.25286194276887,1.26497039023133,1.23758055177428,1.28444112728227,1.28238180738537,1.17993727122672,1.17505853911046,1.15231763741636,1.07813792971387,1.04983774812643,0.994739893030837,0.980996363246806,0.981703425872351,0.975932027191339,1.01099349513555,0.976170660827461,0.962002893468102,0.946694987625052,0.953217640345705,0.955648168121016,0.995968414342722,0.985168032737521,0.966952331846917,0.96178193639762,0.960845078418772,0.961826127811716,0.961366537105112,0.965166998717416,0.962727632659286,0.958670860845221,0.9509727165096,0.950831303984491,0.952183561255846,0.953465112264646,0.961428405084847,0.95997892670248,0.961667038720969
0.988641477885511,0.989030362329561,0.988261431724281,1.11127265200348,0.979555723147257,0.976038086585171,0.971017941943801,0.964035698516544,0.959386761753586,0.956443613574755,0.940967780358138,0.940066275510568,0.936743081170506,0.936893331978435,0.926623247342393,0.916680179170666,0.908946681703767,0.909653744329313,0.909141123925792,0.912738305033253,0.913904958365402,0.917855670785635,0.918156172401491,0.918288746643781,0.918288746643781,0.980368845166634,0.915955439979483,0.915062773414732,0.914841816344249,0.907046450897615,0.908637341805092,0.909998437359266,0.910785044530185,0.96331979760818,0.913816575537209,0.913816575537209,0.916803915130137,0.917590522301055,1.05039455994405,0.921187703408516,0.99174371515509,0.920630891590899,0.927471722493047,0.928099240573218,0.92846161016881,0.929672454915056,0.928832818047221,0.924466706334481,0.922981874820836,0.915796350888735,0.915672614929265,0.915619585232349,0.915460496141601,0.922973036538017,0.9638324180117,0.945652070252374,0.947119225200379,0.997647688078391,1.04241359055821,1.06865445224875,1.089822139601,1.10431692342468,1.0888587667737,1.10506817746432,1.14421293207106,1.17858501395536,1.18927049788391,1.19984108413581,1.19679187656315,1.19673000858341,1.14357657570806,1.1469793145935,1.15408529398023,1.16959648032812,1.2009812226195,1.23947194429761,1.24648954085614,1.24560571257421,1.31582586957365,1.33226507561757,1.31472992250406,1.28935521252981,1.29655841302755,1.28590828223028,1.28451183354483,1.30851660968208,1.3124142924054,1.318548060682,1.43106823925467,1.41897746835785,1.41545099351295,1.468471852146,1.47369527729222,1.45773333852054,1.49724930100569,1.48537064889653,1.43143944713308,1.4576714705408,1.44808193368185,1.43427653591808,1.43215534804145,1.43756437712687,1.43669822541057,1.4458193332801,1.42560618047234,1.43031698521503,1.42255697289967,1.41154447250681,1.43838633742906,1.41247249220284,1.32910097036826,1.29043348303377,1.28539566182676,1.23536214278663,1.28572267829107,1.26995518174142,1.26906251517667,1.26775444931941,1.18209381223463,1.18085645263993,1.16743110103739,1.0960000992917,1.04796403216874,1.03085311663055,1.0320639613768,0.99329041464847,0.991496243236149,1.01848835896633,0.961074873772074,0.998973430501288,1.04076966995382,0.946350294595099,0.959307217208212,0.983038006578067,0.98261376900274,0.983497597284671,0.965900576191419,0.966050826999348,0.96435387669804,0.965317249525345,0.964831143970282,0.964141757910376,0.964079889930641,0.957177191048757,0.956841336301624,0.955763065797667,0.957946121654038,0.960191045490143,0.960562253368554,0.961658200438149
0.990886401721617,0.994722216465198,0.994792922727753,0.992318203538345,0.983391537890839,0.982569577588643,0.974730020727913,0.961994055185283,0.959537012561514,0.954048438930721,0.944865463081455,0.94157762187267,0.93669888975641,0.93644257955465,0.921116997145961,0.91997685866227,0.912968100386555,0.909211830188347,0.909079255946057,0.916644826039389,0.915672614929265,0.920162462601475,0.921276086236709,0.922372033306304,0.924449029768842,0.923503333507176,0.912269876043829,0.916202911898423,0.916521090079919,0.916874621392691,0.915487010990059,0.914090562304608,0.909256021602443,0.916989519069342,0.917431433210308,0.919393531996195,0.922248297346833,0.923662422597923,0.925536138555618,0.927321471685119,0.947437403381875,1.01813482765356,0.924616957142409,0.928726758653389,0.933676197032205,0.934825173798716,0.928965392289511,0.925527300272798,0.928019696027845,1.14797804055208,1.15938826367182,1.00593799736291,0.916512251797099,0.921594264418204,0.941436209347561,0.948904558329881,0.946032116413604,1.08306085324423,1.10866535857178,1.064924696899,1.09607080555426,1.09605312898862,1.10017176878242,1.11679657876555,1.14852601408688,1.14897676651066,1.18274784516326,1.18782985778436,1.18414429384871,1.18410010243461,1.24913218741912,1.17027702810521,1.17559767436243,1.20272236433491,1.21303664038504,1.20204181655782,1.24630393691694,1.24951223358035,1.30011140272091,1.3069699101887,1.30720854382482,1.30709364614817,1.34569042722011,1.30253309221341,1.31848619270227,1.33306935935413,1.38250187516255,1.36407405548428,1.41106720523457,1.41655577886536,1.41704188442042,1.41773127048033,1.44295572964665,1.50723656059151,1.46997436022529,1.49764702373255,1.48213583738466,1.47184807618298,1.4510339201435,1.45634572811791,1.43645959177445,1.43434724218064,1.42886750683266,1.43520455561411,1.44708320772327,1.4594568036703,1.48651962566304,1.43846588197444,1.37860419243923,1.3339266727876,1.31425265523181,1.30896736210587,1.29499403696853,1.26970770982248,1.27645131961361,1.29190947626459,1.19695980393671,1.16988814366116,1.15975947155023,1.16141223043744,1.1441422258085,1.06617089477652,1.05582126559511,1.01683560007912,1.02202367209406,0.994430553132161,1.03750834359349,0.98506197334369,0.96614804811036,1.05660787276603,0.951980280751002,1.05661671104885,0.966041988716528,0.966369005180843,0.968472516491839,0.970275526186979,0.997090876260774,0.967844998411668,0.969294476794035,0.969789420631917,0.968048278916512,0.96794221952268,0.965494015181731,0.963867771142977,0.961560979327137,0.962639249831093,0.960915784681327,0.960129177510408,0.961189771448726,0.96306348740642
0.992530322326009,1.11528523240344,0.997594658381475,0.994916658687223,0.989357378793875,0.98350643556749,0.974385327697959,0.961799612963258,0.957380471553602,0.953058551254958,0.947251799442669,1.1510537629732,0.931687583397859,0.933552461072734,0.924449029768842,0.918766013916024,0.913595618466726,0.913489559072894,0.913657486446461,0.917608198866694,0.919808931288703,0.923883379668406,0.924325293809372,0.925916184716848,0.92640229027191,0.916406192403267,0.912809011295807,0.914373387354826,0.919110706945977,0.919561459369762,0.919649842197955,0.919526106238485,0.92100209946931,0.921249571388251,0.921302601085167,0.923467980375899,0.925491947141521,0.926296230878078,0.92794898976529,0.931236830974074,0.938068823593403,1.2097222843278,0.937087774200459,0.93669005147359,0.936345358443637,0.936946361675351,1.06172523851841,0.931139609863062,0.931263345822532,0.932094144407548,0.936778434301784,0.929186349359994,0.928443933603172,0.979617591126993,0.986378877483767,1.00036104090392,1.04972285044978,1.05564449993872,1.08106340132707,1.12337226118312,1.1243267957276,1.16302079791055,1.16362180114227,1.1357193422817,1.1264303070386,1.19370731585921,1.19315050404159,1.18965938232796,1.18492206273681,1.23199475703247,1.24489864994867,1.21597095028106,1.19417574484863,1.21449495705023,1.21957696967134,1.23981663732756,1.29281098111216,1.26899180891411,1.26906251517667,1.34413488944391,1.30719086725918,1.33179664662815,1.29599276292711,1.34561972095756,1.37407015335292,1.37219643739523,1.34912851923682,1.38504730061451,1.47119404325435,1.53123249844594,1.47152989800149,1.43770578965198,1.44759582812679,1.46581152901739,1.51158499573861,1.49927326777131,1.48374440485778,1.58423568051336,1.50243737302062,1.45637224296636,1.46684560810725,1.45630153670381,1.43595580965375,1.43550505722997,1.43464774379649,1.48220654364722,1.476249541027,1.47379249840323,1.40009005797298,1.36043268296272,1.32301139350575,1.31580819300801,1.30353181817199,1.28926682970162,1.30674895311822,1.27720257365325,1.18968589717642,1.17179721275013,1.20678797443179,1.11954528472235,1.1277118580474,1.07885383062224,1.06511030083821,1.05969243346997,1.05318745731495,1.0011299715092,0.981897868094375,0.98377158405207,1.0677175942699,1.02075095936807,1.01605783119102,1.04140602631681,1.00671576625101,0.962268041952682,0.969250285379939,0.971557077195779,0.975083552040685,0.976886561735825,0.971433341236309,0.970505321540281,0.970072245682135,0.970973750529705,0.970169466793147,0.969047004875095,0.964106404779099,0.961949863771186,0.962170820841669,1.1636394777079,0.963717520335049,0.964300847001124
0.995411602525105,1.0279011301689,1.02024717724737,1.17803704042057,0.992433101214996,0.983594818395684,0.975348700525265,0.972900496184315,0.957742841149194,0.955877963474319,0.947304829139585,0.946889429847077,0.936363035009276,0.932376969457766,0.920648568156538,0.920904878358298,0.920153624318656,0.915071611697551,0.915584232101071,0.919755901591787,0.921099320580323,0.928143431987315,0.927940151482471,0.927887121785555,0.92602224411068,1.01330912523421,0.914099400587427,0.915575393818252,0.921337954216444,0.924793722798795,0.926800012998779,0.924334132092191,0.924378323506288,0.924077821890431,0.92589850815121,0.930185075318576,0.930246943298311,0.930715372287735,0.930812593398747,0.935779708343201,0.937688777432173,0.937476658644509,0.939695067632157,0.938263265815428,0.935443853596067,0.940402130257702,0.945218994394227,0.958414550643461,0.935991827130865,0.934392097940569,0.939226638642733,0.928320197643701,0.933791094708856,0.943159674497327,0.95521509226287,0.998328235855478,1.07507988385839,1.08064800203456,1.08110759274116,1.12925855754078,1.24070930389231,1.18916443849008,1.17394491547522,1.18840434616762,1.12939997006589,1.14492883297942,1.15316611256702,1.20855563099565,1.24545546176628,1.19639415383628,1.22092038865987,1.27925305526734,1.20357967776838,1.22723092259286,1.27478972244358,1.26907135345949,1.29676169353239,1.29242209666811,1.49601194141098,1.45300485721221,1.30895852382305,1.31366932856574,1.35684434013808,1.39773023646022,1.37701330153175,1.40592332463373,1.40221124584962,1.38964320768055,1.47616999648162,1.45919165518572,1.45342025650471,1.45243036882895,1.44867409863074,1.49872529423651,1.49617986878455,1.51208877785931,0.00408485987686435,1.51568595896677,1.54131697914278,1.49070897171939,1.46688979952135,1.48464590970535,1.50188939948583,1.50142980877922,1.46934684214512,1.48655497879432,1.47580762688603,1.50736029655098,1.4631600441716,1.36547934245255,1.36203241215302,1.33086862693212,1.3525489346879,1.30476917776669,1.27638945163388,1.27596521405855,1.23683813601745,1.16288822366826,1.13625847753367,1.12873709885444,1.10899237503609,1.09093576323624,1.06396132407169,1.04146789429654,1.02229765886145,1.00829781887566,0.98017440294461,0.973466146284751,0.986971042432661,0.943778354294679,0.926508349665742,1.05634272428145,0.977187063351682,0.969285638511216,0.972953525881231,0.973810839314704,0.973307057194003,0.97784993456313,0.979290574662678,0.976206013958738,0.974031796385187,0.974314621435405,0.974756535576371,0.975658040423941,1.05733261195721,0.961242801145641,0.962603896699815,0.964185949324472,0.967005361543833,0.962886721750034
1.00310090857791,1.18507231354474,1.01307049159809,1.1583276697335,0.992088408185043,0.982463518194811,0.976860046887367,0.970620219216932,0.957097646503384,0.958485256906016,0.952563607417076,0.949885607722824,0.937025906220724,0.928859332895679,0.918332938057878,0.918394806037613,0.915937763413844,0.921797544923048,0.919481914824388,0.922787432598811,0.927268441988203,0.927613135018156,0.928541154714184,0.931086580166146,0.967588688209908,1.01721564624035,0.915495849272878,0.918218040381227,1.01635833280688,0.928576507845461,0.927347986533577,0.92718005916001,0.925916184716848,0.925147254111568,0.928426257037533,0.931616877135305,0.933411048547625,0.933685035315024,0.93669005147359,0.938006955613668,0.941347826519368,0.940640763893823,0.941277120256814,0.955922154888415,0.946182367221532,0.945837674191579,0.946845238432981,0.944715212273526,0.946933621261174,0.93927083005683,0.940525866217172,0.94634145631228,1.01641136250379,0.942213978235661,0.98608721415073,0.974473710526153,1.04832640176433,1.09714907605821,1.13928117025788,1.15184920842694,1.16483264588851,1.27833387385413,1.15950316134847,1.17185024244705,1.16825306133959,1.14827854216794,1.16760786669378,1.17724159496683,1.20007087948911,1.1878917257641,1.18879323061167,1.22731930542105,1.21052656806436,1.43531061500794,1.40337789918176,1.30103058413412,1.30132224746716,1.29423394464607,1.3413861834871,1.38566598041186,1.34691011024917,1.33367920086866,1.3643568805345,1.44862106893383,1.44676502954177,1.43227908400092,1.52445353552353,1.42625137511815,1.48978095202337,1.55963873942721,1.45986336467999,1.45083063963865,1.45115765610297,1.49411171060483,1.50991456028576,1.57363857941301,1.58232661142439,1.56472959033114,1.57904760849843,1.49942351857924,1.53046356784066,1.60276955958546,1.60199179069736,1.54273110439387,1.4789982469838,1.47038975951779,1.50296766998978,1.44495318156381,1.4710791455777,1.45824595892406,1.36452480790807,1.37317748678817,1.36800709133887,1.43364017955509,1.26238077336527,1.2357156740994,1.21240028402205,1.28529844071575,1.14251598176975,1.13806148722881,1.12421189805095,1.09607080555426,1.05016476459075,1.02994277350016,1.03217002077063,1.00986219493468,0.965432147201996,0.983400376173659,0.94878082237041,0.957840062260206,0.939977892682375,0.973395440022196,1.01475860361658,0.971919446791371,0.973952251839813,0.97360755880986,0.977169386786043,0.97810624476489,0.981995089205388,0.982472356477631,0.982118825164858,0.979405472339329,0.977602462644189,0.976020410019532,0.990409134449374,0.967517981947353,0.967350054573787,0.966342490332385,0.966687183362338,0.965052101040765
1.00526628786864,1.00583193796907,1.00607940988802,0.998398942118032,0.997691879492487,0.984734956879375,1.02824582319885,0.97321867436581,0.958246623269894,0.958184755290159,0.952855270750114,0.950230300752778,0.997709556058126,0.936716566322048,0.925041194717736,0.924537412597035,0.946774532170426,0.92434297037501,0.923220508456958,0.923609392901008,0.937202671877111,0.930954005923856,0.930556283196987,0.930954005923856,1.10185988080091,1.10025131332779,0.918774852198843,0.921567749569746,1.32979919471099,0.930494415217252,0.928912362592595,0.927109352897455,0.926455319968826,0.924873267344169,0.928938877441053,0.930255781581131,0.934003213496519,0.935461530161706,0.937388275816316,0.940693793590739,0.941524592175755,0.942708922073542,0.942514479851518,0.945174802980131,0.945705099949289,0.946712664190691,0.951803515094615,0.946155852373074,0.94736669711932,0.947402050250598,0.961887995791451,0.951777000246158,1.00500113938406,0.991646494044078,0.957813547411748,1.0354048322825,1.028678899057,1.09628292434192,1.10726007160351,1.16019254740837,1.17339694194043,1.19913402151026,1.18865181808656,1.23167657885097,1.23328514632409,1.17337926537479,1.15261813903222,1.19604062252351,1.18828944849097,1.18957983778259,1.20924501705556,1.21755300290571,1.23458437389853,1.38599299687618,1.42780691289435,1.48065100587102,1.3044068081711,1.32606060107842,1.33952130581223,1.3422081437893,1.34012230904394,1.33413879157527,1.42392690673667,1.39326690363647,1.47797300617676,1.44021586197266,1.4703455681037,1.46765873012663,1.47134429406228,1.61434771007876,1.56602881790558,1.51679074431919,1.52572624824951,1.47727478183404,1.50879209836771,1.56428767619017,1.60122286009208,1.58369654526138,1.57263985345442,1.52301289542398,1.52116569431475,1.59950823322514,1.60576573746121,1.58990985808336,1.47312962719178,1.44166534035503,1.44093176288102,1.44121458793124,1.45963356932669,1.45110462640605,1.44744557731886,1.39405351080739,1.39499920706906,1.27011427083217,1.25526595569572,1.24513728358479,1.21451263361587,1.21321340604143,1.19564289979664,1.22947584642897,1.21179044250752,1.10402526009164,1.0624057862955,1.03797677258292,1.05630737115017,1.02701730188697,1.05541470458542,0.948736630956314,1.01648206876635,0.961923348922729,0.959174642965922,0.940234202884135,1.00019311353035,1.01144424755934,0.974190885475935,0.975578495878567,0.9787514394107,0.978866337087351,0.979034264460918,0.982189531427413,0.982322105669702,0.982313267386883,0.979087294157834,0.977779228300576,1.04479992691942,0.972493935174627,0.970690925479487,0.964839982253102,0.966492741140313,0.965494015181731
1.00502765423252,1.00514255190917,1.00171329817527,0.995888869797348,0.99585351666607,0.982437003346353,0.976612574968426,0.967111420937665,0.998876209390275,0.998787826562082,0.951449983781843,0.948904558329881,0.958847626501608,0.936575153796939,0.936239299049805,0.933464078244541,0.935567589555538,0.928373227340617,0.928938877441053,1.04386306894058,0.932986810972298,0.933137061780227,0.932827721881551,0.932933781275383,0.95547140246463,0.95547140246463,1.3218889315877,0.936902170261254,0.93566481066655,0.932916104709744,0.930503253500072,0.93052093006571,0.928249491381147,0.927798738957362,0.92897423057233,0.930370679257782,0.932933781275383,0.938166044704416,0.942823819750194,0.939942539551098,0.940976618640957,0.945298538939601,0.945634393686735,0.94749927136161,0.94865708641094,0.949867931157186,0.955895640039957,0.953014359840861,0.951715132266422,0.949576267824149,0.964327361849582,0.968118985179067,0.967898028108584,0.967464952250438,0.960650636196748,1.03308036390102,1.03744647561376,1.09115672030672,1.12355786512232,1.14435434459616,1.16932249356072,1.15363454155644,1.1855142276857,1.18333117182933,1.16802326598628,1.17228331830519,1.20032718969087,1.19338029939489,1.19121492010416,1.19232854373939,1.20624000089699,1.27624803910877,1.25300335529398,1.38373923475725,1.4189067620953,1.43075006107318,1.42823998875249,1.3268295316837,1.41757218138958,1.3514529876183,1.34059957631619,1.33324612501052,1.41406338311031,1.41731587118782,1.44367163055501,1.43876638359029,1.41218966715262,1.41332096735349,1.41292324462662,1.52904944258957,1.56345687760516,1.55362870711008,1.54158212762736,1.57719156910637,1.48422167213002,1.56206042891971,1.56268794699988,1.62097642219325,1.58399704687724,1.59085555434503,1.58952097363931,1.58761190455034,1.55704028427834,1.48345274152474,1.46323075043415,1.46710191830901,1.44152392782992,1.44047217217442,1.45451620357431,1.45101624357786,1.45990755609409,1.37476837769565,1.39887037494391,1.26671153194673,1.26625194124013,1.23023593875143,1.20939526786349,1.20718569715866,1.21780931310747,1.21468056098944,1.14287835136534,1.11301379371888,1.0754510917368,1.06222018235629,1.04974052701542,1.03833030389569,1.01281418139633,1.01113490766066,1.0355904362217,0.996984816866942,0.938121853290319,0.939518301975771,0.982207207993051,0.982392811932257,0.977558271230093,0.97810624476489,0.981128937489095,0.982666798699656,0.981535498498784,0.982878917487319,0.982313267386883,0.982551901023004,0.979290574662678,0.97900774961246,0.97772619860366,0.978283010421277,0.979060779309376,0.969992701136761,0.970213658207244,0.970814661438957
1.00607940988802,1.00549608322194,1.22813242744043,1.06139822205409,0.988226078593003,1.06178710649814,1.0711468480038,0.965078615889223,0.957707488017916,0.946783370453246,0.948833852067326,0.945713938232109,1.00748469685629,0.933384533699168,0.937900896219836,0.936663536625132,0.936389549857734,0.931722936529137,0.940764499853294,0.933525946224277,0.933729226729121,0.933419886830445,0.931608038852486,0.932297424912392,0.953323699739537,0.952395680043509,0.935470368444525,0.935231734808404,0.935443853596067,0.934683761273606,0.934931233192547,0.934356744809292,0.933711550163482,0.932871913295647,0.930591636328265,0.931634553700944,0.928452771885991,0.94132131167091,0.951688617417964,0.940119305207484,0.940932427226861,0.945802321060302,0.945599040555458,0.948825013784507,0.948816175501688,0.952925977012668,0.955444887616172,0.958405712360642,0.954481514788867,0.953014359840861,0.952183561255846,0.992883853638781,0.962321071649598,0.979882739611572,0.980987524963986,1.02599206107993,1.09742306282561,1.15048811287277,1.14879116257146,1.13565747430196,1.13559560632223,1.16700686346206,1.17228331830519,1.1570461187247,1.19080835909447,1.2017589915076,1.21129549866964,1.18447131031302,1.20405694504062,1.20388901766706,1.2029963511023,1.31073501866973,1.26220400770888,1.31049638503361,1.38911291071139,1.36995151355912,1.34418791914083,1.33444813147394,1.32292301067756,1.42811625279302,1.35176232751698,1.42944199521592,1.403757945343,1.40785007028834,1.42831953329787,1.43212883319299,1.42344963946442,1.44341532035325,1.53555441874459,1.51136403866813,1.51073652058796,1.5722156158791,1.58287458495919,1.57469917335132,1.52021115977026,1.55007571741672,1.5524001857982,1.60337056281717,1.58001981960855,1.58213216920237,1.56822955032759,1.55176382943521,1.55723472650036,1.47005390477066,1.45027382782104,1.44879783459021,1.47012461103321,1.4587232261963,1.45378262610031,1.44135600045635,1.46247949639451,1.36486950093802,1.34675985944125,1.30109245211386,1.27097158426564,1.25912828528776,1.26369767750534,1.25568135498823,1.25211068872923,1.23300232127387,1.21521969624141,1.1055631213022,1.08344973768828,1.0665244260893,1.06634766043291,1.05426572781891,1.0587025457942,1.00603521847392,0.986529128291695,0.981977412639749,0.969683361238085,0.970213658207244,0.970602542651294,1.01155030695317,1.00331302736557,0.981570851630061,0.983144065971899,0.982074633750762,0.981102422640637,0.983842290314624,0.984275366172771,0.985928125059982,0.97978551850056,0.981111260923456,0.979255221531401,0.977673168906744,0.980625155368394,0.975887835777243,0.970823499721777,0.971742681134985
1.0062561755444,1.20337639726353,1.20342942696045,0.990656606368314,0.981296864862662,1.12365508623333,0.967491467098896,0.958706213976499,0.958326167815268,0.947189931462934,0.947022004089367,0.943566235507016,0.94325689560834,0.996260077675759,0.939748097329073,0.942496803285879,0.942655892376627,0.939438757430397,0.938899622178419,0.934462804203124,0.934754467536161,0.93502845430356,0.92961942521814,0.933181253194323,0.933411048547625,0.93682262571588,0.93643374127183,0.935859252888575,0.936707728039229,0.937202671877111,0.938546090865646,0.938890783895599,0.933508269658638,0.938130691573138,0.933773418143217,0.933729226729121,0.934710276122064,0.935806223191659,0.959996603268118,0.954985296909568,0.946615443079679,0.948683601259398,0.949788386611812,0.951635587721048,0.951812353377435,0.951759323680519,0.953129257517512,0.960067309530673,0.95701810195801,0.953279508325441,0.954348940546577,1.01383058392055,1.01084324432762,0.949196221662918,0.995358572828189,1.05623666488762,1.11427766816204,1.14476090560585,1.13378375834427,1.13430521703061,1.16620257972551,1.16580485699864,1.16281751740571,1.22895438774263,1.24510193045351,1.21575883149339,1.24895542176273,1.21451263361587,1.21729669270395,1.2529680021627,1.30314293372794,1.2729690361828,1.262442641345,1.26234542023399,1.27331372921276,1.31861876694455,1.34926993176193,1.34073215055848,1.34674218287561,1.35831149508609,1.35628752832047,1.39921506797387,1.40704578655178,1.46977991800326,1.50426689756422,1.50471764998801,1.48050959334591,1.48191488031418,1.57304641446411,1.5713936555769,1.56929898254872,1.6365141233896,1.62872759622578,1.62158626370778,1.54648737459208,1.56401368942277,1.58154000425347,1.6944048758561,1.61221768391931,1.55650114902636,1.47703614819792,1.47526849163406,1.46748196447024,1.45600987337077,1.44226634358674,1.44504156439201,1.45674345084478,1.47064606971955,1.47168014880941,1.4561601241787,1.46944406325613,1.39560904858359,1.34612350307826,1.32997596036737,1.28805598495537,1.25471798216092,1.27286297678897,1.26214213972915,1.25867753286398,1.27520512173609,1.17002955618627,1.13341255046585,1.08360882677903,1.07135012850864,1.09600893757452,1.05185287660924,1.03797677258292,0.993705813940977,1.02274841128524,0.988190725461726,0.968419486794923,0.979538046581619,1.00008705413652,1.02585948683764,0.988429359097848,0.985548078898752,1.09016683263096,0.981562013347241,0.982825887790403,0.986387715766586,0.986431907180683,0.985574593747209,0.982631445568378,0.981120099206276,0.979149162137569,1.005248611303,0.98196857435693,0.979617591126993,0.972334846083879,0.972891657901496
1.01048087473203,1.11370317977879,1.14730633105781,1.14172937459883,0.989976058591227,0.979281736379859,1.00344560160786,0.963947315688351,0.958715052259318,0.953058551254958,0.943407146416268,0.942567509548433,0.942540994699976,0.942912202578387,0.940110466924664,0.940950103792499,0.942496803285879,0.942434935306144,0.937679939149353,0.936902170261254,0.931236830974074,0.939217800359914,0.933163576628685,0.933278474305336,0.933570137638373,0.935090322283295,0.93566481066655,0.935638295818092,0.939686229349337,0.939580169955506,0.93952714025859,0.937034744503544,0.931501979458654,0.936460256120288,0.936557477231301,0.936672374907952,0.936575153796939,0.940190011470038,0.942761951770458,0.944573799748417,0.950566155499912,0.94916970681446,0.954799692970362,0.991637655761258,1.14786314287543,0.953270670042621,0.954234042869926,0.957159514483119,0.960305943166794,0.956708762059334,0.954516867920144,0.95830849124963,0.945660908535193,0.945899542171314,1.00421453221314,1.04735419065421,1.10843556321848,1.15165476620492,1.19053437232707,1.24313983166762,1.18731723738084,1.18445363374739,1.17735649264348,1.1925141476786,1.22115018401317,1.21348739280883,1.22749607107744,1.21658079179559,1.21566161038238,1.31224636503183,1.31235242442566,1.28800295525846,1.26474059487802,1.25949065488335,1.30469847150414,1.3273333138044,1.35486456478656,1.3566233830676,1.37319516335381,1.3730537508287,1.59559287393618,1.59701583747009,1.48674058273352,1.47088470335568,1.46201990568791,1.47458794385697,1.50522143210871,1.48023560657851,1.52006974724515,1.70000834716354,1.58104506041559,1.64381454499835,1.62137414492011,1.69407785939178,0.00396300647163449,1.61777696381265,1.65618814094539,1.57659056587466,1.56352758386771,1.52350783926186,1.50698908867257,1.47400461719089,1.46788852547993,1.52104195835528,1.44844430327744,1.44261987489951,1.45450736529149,1.45354399246418,1.44649104277437,1.45398590660515,1.46222318619275,1.39787164898533,1.34654774065358,1.3126440877587,1.30952417392348,1.28227574799154,1.26634032406832,1.24159313217424,1.26123179659876,1.21619190735154,1.17284013012281,1.16972905457041,1.11690263815938,1.10998226271186,1.0616280174074,1.04859155024891,1.0387457031882,1.02119287350904,0.986361200918128,0.97798250880542,0.956549672968586,0.957557237209988,1.01677373209938,1.01147960069062,0.990550546974483,0.989534144450262,0.990082117985059,1.07794348749185,1.00526628786864,0.988491227077583,0.987678105058206,0.986811953341913,0.987103616674951,1.18439176576765,0.980766567893503,0.980837274156058,0.981995089205388,0.982392811932257,0.981155452337553,0.977019135978115
1.09535490464589,1.06505727114129,1.00367539696116,0.995358572828189,0.993361120911024,1.01541263654521,0.969179579117384,0.958989039026717,0.956098920544801,1.00196077009422,0.942779628336097,0.942426097023324,0.939774612177531,0.943557397224196,0.941365503085007,0.940914750661222,0.943813707425957,0.94338946985063,0.939500625410132,0.939491787127313,0.938519576017188,0.939792288743169,0.936857978847157,0.93862563541102,0.936106724807516,0.936663536625132,0.937741807129089,0.938033470462126,0.940481674803076,0.942523318134337,0.936398388140553,0.932279748346753,0.92988457370272,0.931784804508872,0.973810839314704,0.957619105189723,0.94106500146915,1.19495351373673,0.948966426309616,0.950451257823261,0.95251941600298,0.956063567413524,0.956673408928057,0.960491547106,0.963266767911264,0.961985216902464,0.958388035795003,0.961225124580003,0.95816707872452,0.9563729073122,0.956903204281359,0.96306348740642,0.951679779135145,0.951706293983603,0.992397748083719,1.08554441071646,1.08634869445301,1.17179721275013,1.16598162265502,1.16945506780301,1.2063814134221,1.18691067637115,1.17984005011571,1.17938929769192,1.2259228567356,1.20538268746352,1.20440163807058,1.21870197967222,1.24168151500244,1.2342043277373,1.258138397612,1.25150968549751,1.24342265671784,1.28432622960562,1.34418791914083,1.33831046106598,1.36501975174595,1.39811912090427,1.49287435101013,1.37289466173795,1.59649437878375,1.47893637900407,1.46277115972755,1.45964240760951,1.4718127230517,1.46413225528172,1.4744642078975,1.46584688214867,1.5035244818074,1.67298087830208,1.6352325723808,1.71077337563746,1.70996909190091,1.69508542363318,1.72695627147963,1.87465281567316,1.70012324484019,1.5873644326314,1.56421696992762,1.59694513120753,1.54476390944231,1.52731713915699,1.46535193831079,1.48474313081636,1.48611306465335,1.47031021497242,1.47444653133186,1.48623680061282,1.44466151823077,1.52139548966805,1.40488040726105,1.37217876082959,1.3318673528907,1.31798241058156,1.29418091494915,1.29027439394302,1.23563612955403,1.22176002552771,1.19593456312967,1.19326540171824,1.1824915349615,1.13493273511078,1.12761463693639,1.08102804819579,1.04141486459963,1.06165453225585,1.04426079166745,1.00622082241312,0.994580803940089,0.964963718212572,0.952722696507824,0.960739019024941,1.00409079625367,1.00021079009599,0.990594738388579,0.991531596367426,0.992441939497816,0.989878837480215,0.992698249699576,0.991363668993859,0.988703345865246,0.986608672837069,0.987395280007988,0.986476098594779,0.982560739305824,0.980784244459142,0.983117551123441,0.982295590821245,0.982428165063534,0.981296864862662
1.21095080563969,1.06553453841353,1.11137871139731,1.07104962689278,0.995773972120696,0.982764019810668,0.983011491729609,0.958061019330689,0.953111580951874,0.934807497233077,0.94016349662158,0.941056163186331,0.943451337830365,0.942558671265614,0.941303635105272,0.94068495530792,0.942231654801299,0.939730420763434,0.939279668339649,0.939491787127313,0.940596572479727,0.943053615103496,0.946093984393339,0.945068743586299,0.941374341367826,0.939721582480615,0.939889509854182,0.940198849752858,0.942655892376627,0.938687503390755,0.936743081170506,0.936133239655974,0.932871913295647,0.931493141175835,0.9381130150075,0.939668552783699,0.942620539245349,0.949629297521064,0.951379277519288,0.952705019942185,0.954225204587107,0.955922154888415,0.96035897286371,0.961826127811716,0.964999071343849,0.96203824659938,0.961870319225813,0.961013005792339,0.961896834074271,0.959731454783539,0.962409454477791,0.955630491555378,0.951821191660254,1.00838620170386,0.993237384951554,1.04776075166389,1.1591054386216,1.15941477852027,1.16119127336695,1.1577355047846,1.19312398919313,1.17524414304966,1.17900041324787,1.18080342294301,1.18428570637382,1.19463533555523,1.22924605107566,1.22131811138674,1.24299841914251,1.26232774366835,1.25385183044463,1.25766996862257,1.30849893311644,1.32660857461321,1.35644661741121,1.33961852692324,1.40832733756058,1.39332877161621,1.44125877934534,1.44377768994884,1.45943912710467,1.46694282921826,1.4664125322491,1.47505637284639,1.49922023807439,1.47305892092923,1.50332120130255,1.51166454028399,1.49646269383477,1.5665414383091,1.57020932567911,1.72819363107433,1.70298684847365,1.69435184615918,1.74215811792884,1.74166317409096,1.76225637305996,1.68256157687822,1.62188676532363,1.57687339092487,1.593498200908,1.54120208146613,1.53590795005736,1.49108017959781,1.49796520191405,1.47194529729399,1.48445146748332,1.46795039345966,1.47262584507108,1.47177736992043,1.40531348311919,1.39798654666198,1.34232304146595,1.31818569108641,1.28897516636858,1.2393747231866,1.20503799443357,1.20443699120185,1.2030405425164,1.18854575869273,1.20208600797192,1.20471981625207,1.12335458461748,1.10288512160795,1.03954114864193,1.03580255500936,1.03800328743137,1.02202367209406,1.01013618170208,0.970443453560546,0.973386601739377,0.94994747570256,1.01761336896722,1.01949592320773,0.997895159997331,0.99443939141498,0.99508458606079,0.991717200306632,0.992344718386803,0.99148740495333,0.988809405259078,0.985530402333113,0.986617511119888,0.986414230615044,0.982534224457366,0.985486210919016,0.984620059202724,0.985689491423861,0.9849293991014,0.985247577282895
