0.847487917130989,0.847526301565072,0.849132278912975,1.08047195026052,0.853735062650421,0.848835731331652,0.84779921716701,0.846773497612092,0.847157175198875,0.843581480721068,0.843787786400754,0.856315959835063,0.856702412938426,0.855134176709543,0.852424527523874,0.854899698669875,0.857847013089953,0.85856164498382,0.858898876527401,0.85869627022614,0.85603586280921,0.855439451146444,0.967603712220396,0.902243800799881,0.867598862502706,0.873410093442193,0.854333515859322,0.871061382924265,0.859509149709117,0.886511547713159,0.956677876965046,0.956358024636212,0.937668601799623,0.928796616337767,0.977117775362747,0.941446184909884,0.953509158048516,0.959285937750982,0.965398912868073,0.969814641222153,0.994753781470256,0.99957779196496,0.999736748638926,1.00845592477717,1.08353148341482,1.07662732625053,1.07849214251847,1.06634773870451,1.06538951675236,1.04876817742932,1.0484233660759,1.04839080028641,1.05830722326475,1.05472747466248,1.05512754346731,1.12050950606086,1.06792934082814,1.06915555920319,1.07030651887435,1.07161644334409,1.071797056644,1.09311024924418,1.13435716070089,1.12544100733895,1.10641595548283,1.10859297725604,1.10055340773827,1.1008762246448,1.09848071315414,1.11805199296755,1.11878941641253,1.13853420830071,1.12146423399045,1.12032887130913,1.14691955283537,1.14648077737774,1.11436379724529,1.12968497662867,1.14856294324233,1.14089084236228,1.19304587482473,1.2371037096027,1.18624296630612,1.24634719196618,1.28752675830103,1.27085348800224,1.16126913978473,1.16180857241668,1.16168735178247,1.15580480091478,1.1534584176403,1.15308488032042,1.18170435781198,1.19428810916283,1.20777864189402,1.24135256664683,1.21709136487408,1.21726531614284,1.21740536258468,1.21860216273908,1.21687838522794,1.20051033462564,1.20261151671076,1.2590104434886,1.22887955685526,1.21843951467511,1.21487776940265,1.24712621330454,1.24891825383056,1.25350252356864,1.29152914284594,1.3140864229265,1.25191092311115,1.27529572592319,1.23041778334705,1.23330699812951,1.23343757172826,1.23293056660002,1.24754971995103,1.23593254965604,1.20328511263166,1.20285951117422,1.18369319897784,1.16215071692326,1.14709173832903,1.14937611871582,1.11772681183622,1.11696085110954,1.1152520593481,1.13669283343288,1.13638029490716,1.13721341679966,1.0979691978897,1.09708812103206,1.1175188397526,1.10922117278116,1.06149103643534,1.05965749408423,1.05328807062541,1.04483093349587,1.01563466593273,1.01582174332957,1.01204122198172,0.985677380814347,0.96616561931605,0.94067644425293,0.940482871695693,0.940317228368803,0.9396964870633,0.941216519911554,0.939485258059639,0.962870936306595,1.02138103954033,0.910101359346828,0.910049011100056,1.01699647126466,0.904063061170637,0.902653809898024,0.902495084372135,0.933051019273753,0.930656840152013,1.00918397743149,0.893223829949134,0.893903041772229,0.894044649912112,0.893898728206886,0.89366649123242,0.890915333669877,0.89082279005247,0.883238096565606,0.88288464709409
0.848263695114394,0.849045856190722,0.849539446970993,0.851387882364528,0.851288712193913,0.848473848543661,0.847559063238036,0.847463879643942,0.847845137530834,0.847765154359027,0.846351159818383,0.846021607676361,0.846033016856247,0.852673220577064,0.85297080260215,0.853759704093918,0.857150415504674,0.858321020297608,0.858547717796737,0.858798827305781,0.857965457035987,0.857933336938527,0.951599295491326,0.903913770641957,0.866986753800918,0.868034990213413,0.877051093421008,0.878401164354895,0.879604272800089,0.894171903598164,0.894337921366382,0.911568799865773,0.949778478336548,0.977904062553604,0.977843967996842,0.953045170763233,0.953095524371723,0.964591704416974,0.978614383225281,0.995460553411062,0.992708574687898,0.992263578053779,1.07558645687082,1.07597137394813,1.07618282304939,1.07712546678172,1.0681665383162,1.06780531531313,1.07022118540068,1.04629739727471,1.0476731875463,1.04984100126772,1.05054349035176,1.05570977283741,1.05559876931782,1.05992991702722,1.06652784790004,1.06786807343047,1.0678895971179,1.09580983553394,1.08561516066011,1.09160248158659,1.09219063593653,1.09804442639559,1.09820063981558,1.10258983711428,1.12874495485202,1.11524668687867,1.12752831732157,1.10906287115169,1.11173217732452,1.17722273872121,1.18890530989162,1.13824332724239,1.19320279223937,1.13288447387649,1.1330735944981,1.13274823914428,1.13409955941401,1.13614037341605,1.17025365538302,1.25016074959839,1.23155803896657,1.24614433744316,1.24519143631395,1.24254663680633,1.19210511595445,1.16552341789422,1.16382953994043,1.1564755461663,1.16845605213855,1.17307360972436,1.19242137439398,1.27054431060955,1.25209648292194,1.23678864007356,1.32804140969671,1.28966262270066,1.25343709460062,1.28404288200859,1.2571502107615,1.22738728352063,1.23507925598315,1.21648559795609,1.25433072984659,1.21500958123224,1.22884171156568,1.25657793744837,1.25998517373887,1.31391671119311,1.29165097768854,1.28437646403428,1.24219677393225,1.24287397881013,1.23029763954349,1.23114294002458,1.2311356285114,1.23255194646783,1.25081237646929,1.25848253108059,1.23959864544575,1.18497386955219,1.17774547141602,1.16838502191519,1.18093773704464,1.1190167418035,1.11825242864806,1.11694892987715,1.11561322923924,1.11582148178355,1.13729168987251,1.13838871107082,1.13773192225574,1.10273275320857,1.13490693290961,1.11005467419785,1.1103461316322,1.1056521943425,1.09651508240272,1.05747344975421,1.03378891529545,1.01501591095782,1.01375325401041,0.996058397456185,0.967971729868909,0.96247758501927,1.00895995391216,0.991130916913718,0.976574409177788,0.93965131334368,0.93953213934091,1.02205571537348,0.907871202760584,0.907945505698882,0.909375701085761,0.912163643866602,0.902731680811217,0.904172182939011,0.903006742714632,0.904413042156072,0.890956311280734,0.888882952224747,0.886557539251878,1.09676658025541,0.89404168975099,0.892942731114457,0.892886694584233,0.89220352485839,0.892690694806098,0.882477749775638,0.882304895472698
0.85095782753773,0.850122671014721,0.850312039644418,0.850390758941479,0.850076226556006,0.849262473927362,0.847667504087092,0.847890932582752,0.848038305269659,0.849105651640394,0.847341802899315,0.84627734577943,0.845572655132951,0.852075717547647,0.852297702478246,0.854861830151716,0.857147731640098,0.858911374010209,0.860644783589094,0.859646008585487,0.858325944146888,0.857443156145922,0.916268948914647,0.871921985696437,0.867533012574575,0.867947871990879,0.892621087753779,0.897330241355915,0.903698852727106,0.897227296045658,0.896702605961517,0.928410670270343,0.998122569478591,0.955818805863439,0.993313258366766,0.962922622545677,1.00948738051137,1.00885178157926,1.00826200760303,0.983494886113938,1.01567085789743,1.01671803783656,1.02742170820537,1.09995090646388,1.0840254977016,1.07136570507478,1.10177288964942,1.07953126289085,1.08028430377938,1.05032675155731,1.06123980020095,1.05106324644788,1.0510066388935,1.05714799676089,1.05623541734326,1.0966424883481,1.09487526919983,1.09408055423941,1.0931112838165,1.10558917916958,1.1238681520723,1.12278248263627,1.0919645082009,1.09544728765137,1.09948576036589,1.10435821126158,1.11204529477479,1.10224971486791,1.09441267174992,1.11243235469942,1.11158092135528,1.21981610873603,1.19286560415399,1.14243336608132,1.14176363228437,1.1416392654929,1.13311182421941,1.1380554581508,1.15378893373358,1.1685111429698,1.29064618123776,1.29066903658522,1.23359586625718,1.22668737974837,1.22585535452645,1.23654265708653,1.19145087155578,1.17168396139066,1.16201216866619,1.16580086550319,1.16729318007767,1.18783874871352,1.1904726858924,1.22735719302388,1.25323156422638,1.32469926740039,1.35251139505279,1.31645770601472,1.32273081118282,1.31435299299182,1.31391791479265,1.26247398732227,1.24667131367631,1.21703181290094,1.24204638255633,1.24224483749351,1.27021143056646,1.26789856343279,1.26528422596416,1.26487973189764,1.2694675991582,1.30092400278937,1.24270243262029,1.24220763357582,1.2602701307866,1.23137386793666,1.23101438920828,1.23389081339875,1.25001487906491,1.24998868471192,1.18901083524266,1.20560110820631,1.1876096125983,1.17050606664486,1.16278682060806,1.14580608568396,1.13576580000794,1.13938297153049,1.14305948202292,1.10958750015109,1.10977136419304,1.10498063719451,1.16032955392065,1.10231256563543,1.10214193763071,1.15111095714018,1.1133339691993,1.11628625091574,1.11907689460195,1.06823973827592,1.04667915423133,1.03774661871168,1.01388117231933,0.99276325093789,0.986566022489499,1.01764360693752,1.01729906135063,1.01159552325512,1.00757851157921,0.940981587259093,0.941110392563974,0.99207922685422,0.907059425253303,0.907632796672719,0.908519113455931,0.910016981953671,0.909046513147356,0.907857244081231,0.90933285721136,0.902704077194182,0.886307790504639,0.886521724398501,1.00588127556469,1.00530257230906,0.930560073049836,0.892620121170804,0.892465878220555,0.892501251415476,0.892953618888275,0.915610511476535,0.883360875563927
0.851071595457881,0.850803204607069,0.849995944155067,0.850070099703127,0.849412019599087,0.849569578475766,0.847785893710371,0.848085524081827,0.848692758938489,0.849833490495909,0.852280032908168,0.846210466778953,0.846761887778173,0.851792727628868,0.852424490115903,0.857690587766896,0.858720453906053,0.859010272127542,0.859668909239416,0.859840762565544,0.858571854950786,0.856436335409018,0.85628058190928,0.89025598288518,0.868170841145177,0.940710754173309,0.937475482176225,0.93884419221195,0.94066868830254,0.941932470627843,0.929289663471332,0.928798210303793,0.985577413197603,0.985639772252543,1.02814136862259,1.02766615257952,1.0138556614399,1.01360768128239,1.01329928915543,1.01947022844698,1.10659604404543,1.07047321327035,1.05796778042471,1.0816109413296,1.08206005921355,1.05293983009019,1.07639793218345,1.07794717698987,1.07788877174072,1.08001996289098,1.0733375552737,1.12981030558456,1.06023354808065,1.05880986318417,1.05794487218309,1.09647968310446,1.09617740006079,1.10089362336859,1.10582091128434,1.12620231869832,1.12568450841842,1.14735821536471,1.09854489354659,1.09790212326355,1.12906303413588,1.12052096702208,1.09340374695432,1.0988220782355,1.09242022822931,1.11233323074244,1.11193644961439,1.15110465459872,1.19117159503888,1.18351424008614,1.19237024501614,1.1933001892741,1.15633208874738,1.19288348911713,1.27794908713317,1.27850574404134,1.3365731413676,1.29209585486534,1.29633497715633,1.22761718377851,1.22726052909031,1.23016550189542,1.18519577695717,1.17677852433618,1.17342385518213,1.1723706460389,1.17113014222072,1.20181207833974,1.23146978569953,1.23144191308923,1.32203393060198,1.31657495529359,1.31677178391026,1.3160586344928,1.31845950884704,1.31540513131512,1.35121967226441,1.29772550083294,1.25408003899585,1.25400724672466,1.22805044234984,1.3999642018505,1.3324578679964,1.33502761117824,1.33746869444164,1.28791269929218,1.33639925330865,1.26154015869307,1.24250315843276,1.26281226341627,1.26150167831467,1.26068132490418,1.23178498108315,1.23628592926985,1.23972535998302,1.24050383446317,1.22145860186975,1.23241343949358,1.19208336178222,1.19311687296735,1.1770663287665,1.16737342250537,1.14573127576802,1.16285205223042,1.21087005437468,1.11698855356779,1.11639352076269,1.14217317156083,1.14097334712241,1.10842406137555,1.16805892178736,1.1485456054288,1.14231786650534,1.12208361591773,1.11443936661197,1.12139594448137,1.08709424737289,1.03645693603726,1.02202345872123,1.01409539565754,1.02592645174904,1.02630735263386,1.04419790035562,1.04026833981671,1.04657105282866,1.00549721741756,0.959095314295709,0.932316886409092,1.06278016528381,0.909020541726966,0.908803467887366,0.908128387305081,0.908236557149277,0.908863968680413,0.910176071720935,0.910938211202302,0.886575401732243,0.8844540818366,0.882008649327899,0.881529496646496,0.944768615805714,0.894685392586347,0.892313940669231,0.89234043759089,0.892588708858637,0.893320541068742,0.884940875424285
0.852550700110501,0.851193418338376,0.850134292317946,0.848982226515149,0.849321104500523,0.848388678503133,0.848450764914456,0.848309771314628,0.848433960125169,0.851273595147467,0.850769829681255,0.850394933869888,0.848884111177959,0.852320190267232,0.852041713132171,0.857550864770602,0.857980326212729,0.858990608234297,0.859727375855052,0.874910580168349,0.888329977536553,0.879047161595521,0.890467488443589,0.867599959711797,0.867707720055779,0.942018954879292,0.938077276151544,0.93843112600074,0.938451021640063,0.967499633521311,0.971458951061527,0.988272413066502,0.996820341661809,1.00587018211424,1.02847115255511,1.0280642088816,0.99858459929513,1.02918687541722,1.04009783350376,1.01932260744367,1.01848201651582,1.01673733321519,1.08198816637242,1.053533595808,1.05549139076143,1.05607312736835,1.05650204446978,1.06160755009495,1.05120508947593,1.11628305443975,1.13278828585195,1.06221222743494,1.0606927062054,1.06029376076244,1.07828189384595,1.11035779659017,1.15917492168938,1.11744664115332,1.11611886607034,1.14764149131251,1.11026710100251,1.11245287916626,1.1055399812909,1.09653528182694,1.09588649419605,1.09279874606843,1.09468012571985,1.11039836383335,1.1183352791094,1.1170905330529,1.12743070515103,1.17158149800754,1.24650525562981,1.2484673318927,1.22461845838725,1.18171020287881,1.24317849083884,1.23311958877686,1.2991699847005,1.31008741926878,1.36847582143804,1.25214585123801,1.23096874690522,1.25982480437476,1.2595760314788,1.24454154862812,1.18608579977958,1.18009243343107,1.17197003381876,1.18835588899613,1.18809466422966,1.21492642639001,1.20374589096587,1.23685421293839,1.34329824989935,1.31672838998012,1.34939936211137,1.32770830265205,1.37916503403722,1.33391837750051,1.36251798182438,1.32996764839132,1.25458270850068,1.60256868499051,1.41043456371261,1.40598830169224,1.39879953327992,1.35918644344144,1.33464600300502,1.35473001604723,1.29828919255066,1.3174931321919,1.31668823138923,1.26113914424739,1.27554250887532,1.26035890234498,1.30518735234482,1.27413905539814,1.2655974583409,1.24085604042971,1.22887367489309,1.21693246814075,1.20848226370876,1.19404250138045,1.18766825482802,1.17299301278738,1.17375424284279,1.17455730465974,1.21106846596084,1.15064481167402,1.11634992152472,1.14500754223987,1.1056665173246,1.10810183947646,1.13631674228213,1.12703179666758,1.14837722376986,1.13013617114491,1.10238390327733,1.11930233997964,1.12018935442459,1.07358540137765,1.03868891179153,1.03605177172289,1.02324852989196,1.04437013136395,0.976644968592448,1.0367281149317,1.03700434134728,1.02820330028884,1.02774609405697,0.93550081611938,0.998633706320956,0.911304370738389,0.911600062499327,0.905581563600362,0.90708567156291,0.908944951428217,0.91045436928721,0.950241759023046,0.949907725244234,0.940509010625566,0.941463479143006,0.883468544970364,0.885048257019062,0.88629827224219,0.968236408701595,0.891742539609382,0.892455332280203,0.89336699209805,0.922535530279203
0.852238514950303,0.852559808272524,0.849706487872922,0.849800470207878,0.848028150054596,0.848119058199134,0.847409543438533,0.848010226824483,0.848651710297932,0.850483658690361,0.852296270086907,0.850854041043068,0.854967686933704,0.853386755113373,0.855056829119399,0.855251032908595,0.85547330617872,0.868907052875265,0.941732667877782,0.884477965610706,0.868141909895395,0.878495324432542,0.898607713927177,0.864639298584291,0.948156915010195,0.940895747295793,0.961272314506242,0.958882880358687,0.95673985295861,0.977018582413707,1.01784910404107,1.03204931553568,1.03182847465083,1.01528868565348,1.01420272769596,1.05562518263702,1.02010921585836,1.04310942593822,1.05835492423268,1.05936338881739,1.0688355281001,1.07077732708958,1.07056479337337,1.03438650208615,1.06555064304662,1.08577322106732,1.05012717819573,1.06516230143411,1.11496273039684,1.11540085714284,1.0723954124662,1.06389651686665,1.06483784336453,1.1251885776295,1.09126956385914,1.0914851816726,1.11936713275285,1.11840814685145,1.11816467211516,1.12132626213886,1.10943992984348,1.12797738592396,1.11516590843413,1.08886455468012,1.09008460029634,1.09064772428704,1.11756981488401,1.1182809131216,1.11820857692541,1.13334336011986,1.18008460716723,1.17652661682584,1.20036667374997,1.23170335008759,1.19482856348817,1.19427789635196,1.22319675971272,1.22992996307032,1.33405114754347,1.35648032864877,1.23895909339852,1.25191010661171,1.25181330092448,1.21720390701285,1.25789112465654,1.21106924559709,1.21113762408657,1.18887955534345,1.17220181447647,1.19012288136536,1.18994956477627,1.19196429156094,1.20781341795716,1.24793888144107,1.26601259251264,1.34392118702933,1.33358162287627,1.33122166845044,1.33323843276425,1.37589049538188,1.36927993153107,1.36124265947324,1.43659879780158,1.6233379073217,1.59214499916793,1.44805584354064,1.38688289825434,1.36040357973531,1.33246214963197,1.3545040495895,1.29992031878372,1.29964039353228,1.31642659515101,1.26068283890853,1.26071384589014,1.279701915991,1.28701291108767,1.27668986254435,1.28597717392724,1.26025017602904,1.23941985419236,1.22438293172016,1.24077868588526,1.20579176462674,1.20494716965508,1.2128375269601,1.20978834571636,1.17538629350293,1.14915100820782,1.15059572186838,1.12457563676813,1.10697080082076,1.10559714948403,1.10741688422806,1.12219200742164,1.12694091611195,1.13997226500203,1.14124067599159,1.18988762444735,1.09751911763149,1.12026095813781,1.12058223129769,1.07330887719477,1.09431640222961,1.04423271006455,1.05211191710943,1.05742651444622,1.03561916729747,1.03668643563851,0.975875741171868,0.962718413633788,0.93346447197328,1.00226575813643,0.912210433072229,0.990244072520044,0.906245899137578,0.906873744532048,0.909459573073697,0.908929019848096,0.90895740397383,0.947843519024885,0.939593151947011,0.940645389116866,0.941057427915991,0.940991915405902,0.884993184860799,0.884267505279671,0.889841520200591,0.933688898814951,0.937909699674803,0.937375980872877
0.853389931133212,0.852018235979028,0.851900228280955,0.85038963723032,0.848668342235022,0.847234132707428,0.847111760937465,0.847814973665613,0.84794105621607,0.849632197621876,0.850983556161919,0.852548403667734,0.851896656878082,0.854190929377016,0.854873123282696,0.855020233959042,0.855141896718982,0.879657914962134,0.920492123469753,0.895414332557358,0.905186102269717,0.870280467444877,0.870746647350094,0.934172428492998,0.95964229815906,0.965236090087997,0.950066431648225,0.961611366846645,0.973953698729302,0.996410472222663,1.01038238573963,1.01151783868659,1.03383316537886,1.09597909609457,1.08468349997946,1.05543366222341,1.04160151683996,1.0442949580766,1.0595520744529,1.04547080814746,1.03538523245915,1.03003729916495,1.02873150210957,1.08807852275048,1.05202471681012,1.06437935782044,1.05043156118006,1.06761841890174,1.07477159132889,1.07390650891487,1.073666967928,1.07452047872186,1.12701627388364,1.07409813067564,1.07868504258178,1.09303298307217,1.15340737385471,1.16006052800382,1.2263563697903,1.22596505844248,1.14546092933962,1.09965324345592,1.09727449015781,1.13342987755879,1.10813917594662,1.11629954472872,1.11561493077955,1.12213609418044,1.12575268484389,1.22779290464797,1.17600841364829,1.176243120944,1.20370619466236,1.20630920380392,1.19736878822874,1.19567181901889,1.2187772827026,1.22519784245156,1.23649068555906,1.22482396270684,1.23885513734435,1.23827647872468,1.25509237986547,1.25169688887498,1.27090557048692,1.22534003757025,1.19661008133898,1.19195451611756,1.18969140691219,1.20755169469096,1.19195242463562,1.19216406998768,1.22508312425234,1.24545271096673,1.32237849099163,1.34242431613856,1.33482555444428,1.32712924323743,1.32244259307866,1.32962335282388,1.37065100032999,1.3703131557688,1.43700113083633,1.39844147333937,1.39773907328223,1.46022895373888,1.44788715258853,1.36598895019089,1.37074105021122,1.3659873851815,1.30091513199957,1.30041286249224,1.31130159637109,1.31513123660198,1.2618335365325,1.27261965243918,1.27177682599447,1.2703147712121,1.26491587131479,1.2879953450826,1.25995141490436,1.27681975112447,1.23732043633114,1.23689506931645,1.22824270373297,1.23516095267413,1.24531768335402,1.17640023268234,1.15093105093532,1.14309128650213,1.12555862810543,1.10695469102259,1.10677754473101,1.10807357006911,1.10860463734126,1.21056443367616,1.13996799502779,1.1412318806685,1.15795465002303,1.09153295988398,1.08488072678806,1.12221207493137,1.04934510077631,1.04988507471628,1.05415603478549,1.05417793187255,1.02448273925419,1.02628640879025,1.01713013842208,1.01748822770583,0.947854345675739,0.947200436184203,0.933357719948668,1.01527957960253,1.01353795728252,0.907601577746444,0.915768618705967,0.912871136798344,0.909878085139633,0.910057854673203,0.99701438880908,0.939742987841374,0.99064025332373,0.939789315687532,0.89390532088999,0.885079094758517,0.885098702188388,0.886573221554839,0.885483630301674,0.934651804080336,0.937601462844831
0.854007480588212,0.853456159665056,0.851755373535135,0.851988719835586,0.848268288316396,0.847544331808117,0.84753343132091,0.848136968991568,0.848313791526117,0.848693704984092,0.852253968231616,0.852656812860478,0.853264172109152,1.02051829388152,0.861836510619795,0.862472401974333,0.904723718619768,0.898582563654755,0.896622779628976,0.877478437137563,0.877685467626794,0.884997749802515,0.936672271972816,0.935672734048979,0.968115539519303,0.961516477678128,0.961860709907043,0.980682994410563,1.01225001878197,1.03339113274059,1.00684355857814,1.06533149526841,1.10680196623239,1.10019604399294,1.09958656379996,1.0444652354826,1.04869119488535,1.050524079839,1.05308699813093,1.0462676691066,1.05531052491975,1.04741534407413,1.04530829050906,1.04331290009567,1.07341107005481,1.06383533492425,1.06688671575006,1.06999537066245,1.1004218719687,1.09919062244415,1.07353874482055,1.07382943128853,1.16618605697072,1.07711846937037,1.07778166948758,1.12604646861202,1.20601831598319,1.17652906316041,1.20564649443607,1.11650481172246,1.12838424051457,1.10079140838155,1.09919150467004,1.09956430613091,1.1193934655929,1.12754588198731,1.12854297600749,1.13698077526841,1.15176436343415,1.17621966719435,1.17465726411481,1.23671360284669,1.26411760242266,1.26437664248579,1.21566283236,1.2144966644045,1.2117925609052,1.21187490058503,1.21342776329142,1.22512130448003,1.22525178876442,1.2396699755862,1.25043869016961,1.25027714975202,1.26978099231326,1.22525814059593,1.22371961635652,1.22402890840026,1.22234348812367,1.19316660958498,1.20240350246778,1.22210650810744,1.27146070593541,1.32107711918294,1.32315987726939,1.32277270460348,1.32276848925494,1.32442626644974,1.32297444332711,1.32206024774622,1.35368153266448,1.41367536529657,1.39962819075788,1.39883763225507,1.39812916186938,1.42006104026595,1.39409911506132,1.36832392233092,1.36928215858493,1.38715290860287,1.38667202281137,1.35466428924017,1.29300964443749,1.29181876043661,1.27142396222934,1.27145275281055,1.27235103974094,1.27095159194068,1.30015631234742,1.25819693664414,1.26036250509045,1.24523950064302,1.25418015593774,1.27021228520095,1.21061671348066,1.20923952733982,1.20271956169098,1.17795577634512,1.16435803769153,1.22542030984811,1.18830299670308,1.17637827005152,1.1122363211218,1.11024497983192,1.11005722949287,1.11091844006373,1.11171439624521,1.11523366382877,1.09154581709579,1.10433884404041,1.1484163494315,1.14737468266844,1.12505642909177,1.06187576345713,1.05186584559178,1.04011865444022,1.04068599808174,1.04013032185204,1.04782086103467,0.968359717607137,0.960248906305982,1.01497059021432,0.932692886967826,0.919214590716771,0.905628838728403,0.901078691964004,0.901686738795161,0.915505915647573,0.965160536557055,0.916747319873755,0.916856328009832,0.985514686934367,0.904282265574865,0.939241511395391,0.893766987835479,0.937185811837413,0.884949262965132,0.885521851992153,0.885840419251948,0.930184135598343,1.15350430001949
0.856027691175317,0.852707957884719,0.853168499579035,0.851476110184269,0.850856188269657,0.848789685821257,0.84899944847499,0.848716324864936,0.84882363143854,0.849563006843328,0.852432974787531,0.853523873391087,0.85429556688379,0.862009792708428,0.861768158132454,1.03085228043333,0.899325159972543,0.899311108913452,0.89906399578295,0.900418455723462,0.879057003461641,0.927337920246637,0.912655878339711,0.955964412447267,0.951741698346914,0.970014833733115,0.988905174142593,0.99727214474086,1.00536322610561,1.01900862789799,1.04958819200113,1.05412373263214,1.0964048401851,1.09477169222189,1.09333581944231,1.05459161363011,1.06234644152031,1.05446057172508,1.04378725587066,1.04424924374981,1.05754541020377,1.06237485249493,1.11104083130989,1.0708616122265,1.07143324637949,1.07285118787884,1.06520700691448,1.07249588859564,1.09995195385087,1.09969391106654,1.0891980888782,1.09488099880948,1.09557355959642,1.10574185401519,1.08774460565291,1.11080214142234,1.12510231172563,1.15393147570969,1.20594962368055,1.10683136662135,1.09905799756089,1.09926438455229,1.11803054305011,1.16496003212044,1.1248657514006,1.14527541448049,1.14332467408652,1.1561544800442,1.17926058509375,1.20883505966204,1.20278367858257,1.22245440358359,1.22270399155065,1.2116127549194,1.21531518444668,1.21072839018079,1.20951523577176,1.20998196791016,1.20825443385572,1.26281323396099,1.28622685067,1.28777506723013,1.25054384175708,1.25035549219412,1.29581542590379,1.22640486504396,1.22669158272766,1.22531532601167,1.22459377465332,1.22211671809142,1.20209925824495,1.22234656596718,1.30810217997903,1.3076520073275,1.32410060583608,1.3230073774995,1.32232793956175,1.32245015440923,1.38569915010585,1.36745784243355,1.33329702361596,1.51218321469958,1.51141712182987,1.3987324240449,1.40516890598266,1.41112338443221,1.37791140609985,1.36954827450072,1.37231992755291,1.37287223973364,1.38512589970621,1.33378108945828,1.28257716262994,1.2905883073645,1.28854513904614,1.28258394931502,1.27745328992971,1.27156978332465,1.30005694363237,1.25106943573045,1.25075191380321,1.24563412893227,1.2458478593706,1.24644906358209,1.23416990129091,1.29086353220247,1.20269233257342,1.18048725595766,1.17874089460857,1.15355284059365,1.14208025434803,1.19431018844236,1.12598044280047,1.12586492535868,1.1162562068248,1.11355057275058,1.12914353239549,1.11854268070449,1.0984689909402,1.14819997440275,1.11443494197652,1.11437244964216,1.12216278102247,1.08787015128515,1.08194844991115,1.04168017848079,1.04169885776693,1.04120603756148,1.05566994720323,1.02857056379164,0.968256075808238,0.984777525771762,0.920239071673961,0.973766875282032,0.91061243062664,0.943778232265635,0.918458081750314,0.917256931493272,0.916299226677489,0.915657710413754,0.913102812150559,0.909530346993117,0.903680357757426,0.902454959817683,0.937417295158073,0.938017255927901,0.882266975322079,0.884673733911774,0.884780285988683,0.928213193643613,0.928264449653568
0.855930158453669,0.855214258323783,0.85378002905349,0.854261165619461,0.850637702837905,0.849846396157492,0.849170138167485,0.849199776050248,0.848768642489858,0.848719873338095,0.942955564649028,0.855000004054334,0.855396951333293,0.994253453776829,0.995510066541529,0.91098671240195,0.875945537337175,0.876415405062812,0.876371355351182,0.876101451657604,0.877949352775118,0.907561194083568,0.931325476979432,0.976224873948929,0.972420395279182,1.01396076159732,1.01467225875955,1.00020166438073,0.997935688184633,1.01691951475925,1.05083187463735,1.05425449601264,1.06113684261642,1.06159913434116,1.05330585092888,1.05349289292585,1.1015721495931,1.06611390386499,1.06485608848816,1.05533281045305,1.06800186291296,1.08365457270801,1.09342139967556,1.07933544406935,1.08069278541459,1.08853088854548,1.08858835959428,1.07930961970159,1.08944854714501,1.09053523761455,1.08956665618601,1.10549339462175,1.08852531253535,1.0877709452713,1.11372269302514,1.09245460227109,1.12605754357265,1.12558896139222,1.12523599168272,1.1050137326743,1.15953866876688,1.1256553176451,1.12617999372206,1.15610719172456,1.14620215124544,1.15058492473354,1.17512937353273,1.17174872863183,1.16848122224255,1.20801684717721,1.25062701473017,1.25950114612691,1.28031479758758,1.2406536216547,1.23316274769211,1.21062978985242,1.21000848550483,1.20980523830069,1.20881570805259,1.26168889655838,1.2880892211891,1.29000160753241,1.29171588596487,1.31339926781317,1.33639085101042,1.23914967962292,1.22828964176235,1.2269002694035,1.21724587888857,1.2417321109817,1.24091469020035,1.22051275657252,1.3079367813906,1.30741320446616,1.30744327784058,1.35322457638604,1.34062434036775,1.32605983947044,1.35281585791255,1.33893618894274,1.363645320517,1.39056426674051,1.39038563565977,1.38967567884454,1.42426957039619,1.41163423638572,1.35816276698685,1.36477925344656,1.35711570242401,1.41112699729531,1.34895447555425,1.3273233080725,1.3275736731698,1.31120429854301,1.30748576356937,1.28226064410582,1.2705811916663,1.26847853582988,1.2647924651013,1.25014059636997,1.26189802964799,1.28257314752228,1.28156705707625,1.30117774603738,1.21598808144111,1.21546478703304,1.22783497351122,1.18428913177702,1.17483552124059,1.18203130574056,1.14010564273547,1.13982577987282,1.14975802645807,1.15895493233063,1.13762236147885,1.13830624311245,1.12346893180816,1.12104405109651,1.11686371041206,1.09713524649549,1.15576452573998,1.11528441009866,1.1399431529866,1.11722796699482,1.08686232144119,1.07009472723896,1.06452855880619,1.03731702922089,1.03285812516672,0.982132898981688,0.951744342686986,0.944337958829257,0.912941486803669,0.910796915982731,0.91052723438253,0.921330743655686,0.920490626799329,0.91856834420505,0.911391474484672,0.906140243548717,0.910299258861204,0.911329457642616,0.903059265045871,0.902838388045704,0.902079435286256,0.882461182890569,0.882463083147722,0.886379051000461,0.90956951944922,0.987532136267056,0.923678940455449
0.856537477146624,0.855336554096192,0.855276790009082,0.854731626612187,0.853810368023296,0.850709231479912,0.850689617615457,0.849644492555351,0.848594997185664,0.848300680581008,1.08667511803675,0.856964883335864,0.85733555474173,0.870328260396174,0.918801236157204,0.948934216837131,0.87492812398544,0.875898587038077,0.876085873474264,0.878400783612857,0.878658745261514,0.923149405807465,0.923344511938545,0.974743502298554,0.977206635884068,0.976269042136025,0.976863455996834,1.00332835450244,1.00515610483075,1.02609466599959,1.05094207288181,1.08753279676288,1.05438933031088,1.07057105558568,1.06959423629324,1.07200556498656,1.06823818373512,1.07093955313654,1.07363324294225,1.09604509570445,1.09342834818735,1.08991874166845,1.11999339440155,1.07980953286123,1.07992452888371,1.08158288922775,1.08214917827891,1.07968505945225,1.07659400475466,1.07624034750689,1.0826859084645,1.10534974926236,1.08931188787978,1.08867325636959,1.10553185189104,1.09323028056643,1.09399382113887,1.11093533457769,1.10752775530896,1.10560465896136,1.10544718007878,1.13048119849376,1.19060573582405,1.19899803304445,1.20555851297779,1.19316963547367,1.21022644045632,1.20440630087801,1.19249990773041,1.1911488620391,1.19071440124093,1.27963562186079,1.28302438895297,1.21000827626357,1.21218744208189,1.21304061339156,1.21207783881765,1.21010574536624,1.20965189820022,1.20826519412026,1.20805826958708,1.2633753103618,1.30561454485634,1.32897064258126,1.37419546381679,1.3592596795563,1.31944318829258,1.26762639587983,1.23120613443205,1.24295108593953,1.26508639853722,1.35719212444717,1.30754632513345,1.30615182754454,1.30832459483596,1.34172556921304,1.3265865729065,1.31571461648494,1.30209920398743,1.33850325550491,1.33877892337274,1.38876984688501,1.38831572048202,1.44419519674987,1.53127351240756,1.44319468652909,1.38730983959484,1.38185094797872,1.35783775789416,1.38228121199579,1.33966532901265,1.35920706912978,1.34517381898966,1.38243899708314,1.30473354308698,1.28652697683927,1.28956065302793,1.28613283771284,1.28295843146208,1.26195124520623,1.26216969911286,1.28290499372976,1.27276718084142,1.23755968641605,1.23714446902382,1.19737369476629,1.19136586314584,1.18913842680814,1.19102769923509,1.16100101518885,1.21192048665211,1.19028401563049,1.14161887477542,1.14078553086383,1.1400374563334,1.14128757000809,1.14234739857995,1.13965260300175,1.13708796066806,1.12600598182998,1.13294162965124,1.10541594189624,1.13978332589554,1.10128343247225,1.09796506785675,1.03900956898478,1.02037749437234,1.02172736887419,1.00216581752554,0.97362226784069,0.951110438193708,0.929217277192438,0.914406053295536,0.90253674178249,1.01421136698609,0.9931695336058,0.920444777015397,0.917513197345121,0.91491659754439,0.915795317620005,0.907589596816168,0.910943061606111,0.94746018551819,0.904224949926007,1.02251895367795,0.943567324455701,0.883012566655494,0.888263667701599,0.892866006467868,0.893674442383941,0.917114079312191
0.856504731994873,0.855861124550116,0.855577543730099,0.856560950944086,0.855864794183848,0.856390947777558,0.852064087491688,0.850663772221412,0.85029813180983,0.850497924381918,1.08751285987988,0.858414529745823,0.858976201228491,1.03108390410898,0.918847765901683,0.913077474850028,0.887538520615424,0.881283979967659,0.879931761711429,0.880891244424868,0.904438585919022,0.917918789338562,0.966253836348115,0.977863468140132,0.977493690797795,0.975604520087745,1.0089447935608,1.00522943836273,1.00346611668153,1.03443659111261,1.03716920043571,1.05110943821827,1.05880897297986,1.04342914899773,1.07562315724805,1.07643941929195,1.11246992979248,1.11303553205606,1.11475820400717,1.11203224695673,1.10151793519095,1.11156057061282,1.08261523192706,1.08180563162438,1.09500031570433,1.08156178682862,1.07105854501418,1.07063884682931,1.06993845216936,1.07673359405561,1.07718047968139,1.07794216257813,1.0996101623521,1.1039637937098,1.10424420961715,1.12505636984615,1.1084130807512,1.11508638573362,1.12057481121494,1.17604002167217,1.13224608627258,1.22494703015137,1.2246822118392,1.22564737456294,1.228318721354,1.22278196404436,1.21394096284795,1.20697092771847,1.19837933770593,1.19941987570195,1.2024205099091,1.22215455048225,1.22177962665094,1.20350553011091,1.21201128169088,1.1961918763699,1.21165193999369,1.21569011707955,1.2250232209428,1.20854579803814,1.22211472749014,1.38831631017197,1.40007522618127,1.32797921647094,1.44237782447452,1.44215185463525,1.3198581950388,1.31970929822775,1.31895947578197,1.31695537001779,1.33476061532235,1.37027616388521,1.36269625253353,1.3538984808352,1.2959740659337,1.29572796544353,1.29854501375653,1.30012716118156,1.29954806722732,1.30762807614453,1.34796471662145,1.34441652997859,1.38354395119543,1.354984086931,1.39072436103819,1.40241584622125,1.43586122165155,1.44029656677786,1.4442365625018,1.44280452530885,1.37693653668709,1.37297720812889,1.3275229038312,1.31495110632119,1.31029144566308,1.28819113213358,1.29032660932851,1.29086932284721,1.29091603959989,1.27795364674477,1.27844722115595,1.28331643812684,1.29319131637846,1.23789954470372,1.23733430639152,1.28954060582718,1.19045052990724,1.19011227916505,1.19080106203837,1.16280024366101,1.16505303592276,1.15680664425026,1.16607510429315,1.18326340104765,1.17364760488972,1.17145704203461,1.15435039936092,1.17548084235908,1.20186729495883,1.20094137096608,1.12927183757872,1.10414986095767,1.10144505389003,1.10030328286869,1.09449638689392,1.0569794099463,1.02824567959434,1.0231961259441,1.0084500450952,0.980369034767575,0.982294060654432,0.959661043122483,0.947919335416269,0.90526140700085,0.905202640796556,0.919742582268566,0.914473075416954,0.915636117590176,0.914369770411866,0.94546950339574,0.947368186097163,0.913618250428364,0.914688940942959,0.904070065506731,0.902130563516332,0.887582326149154,0.888639251786791,0.890326309848898,0.893034663943481,0.895154135696156,0.895805440373104
0.865988962851604,0.859354255199284,0.857741136993993,0.856474035055314,0.857145049427123,0.85702137057661,0.858103704594863,0.858609493431417,0.976371503332173,0.851575945367935,0.944600735308077,0.860338150262207,0.860197253457643,1.05910855321583,0.9137738984067,0.91389947445524,0.886736888682957,0.883923598772163,0.881989544651828,0.882529545014603,0.967679036961217,0.968211569855353,0.967420335956079,0.993892146943851,1.0122292791622,1.06536745513694,1.01156966862765,1.01383658144873,1.01618387830617,1.02787833608841,1.02041590504903,1.04521927302839,1.0280324211664,1.03928012489271,1.07459785741598,1.10645565029241,1.11169800398158,1.11202283687741,1.11386624036357,1.11328958951511,1.11436615054468,1.12193168811255,1.12183170967846,1.12369184716604,1.10004371940578,1.08134825122858,1.07338153193508,1.07178638189425,1.07066176886095,1.08185894875622,1.07810005220828,1.08140117412349,1.1009862081461,1.10106761886446,1.11470154199961,1.15367216747033,1.12997335424922,1.12760425765413,1.12518588035991,1.13353449518609,1.1422307022227,1.20171564883773,1.23376352992989,1.22357913124711,1.26870260713731,1.22285451223085,1.23033339028686,1.20946104974712,1.19987747067047,1.19829504702744,1.19506665348551,1.21003766009293,1.20782062608947,1.2072552589597,1.22206449039896,1.21238509172326,1.21332725456228,1.22062462495531,1.2253804587279,1.22598502942605,1.27675990488186,1.32711410598068,1.39712083663776,1.32527013987636,1.32436089684847,1.32246372764946,1.32037110501174,1.31975433820685,1.31870924807491,1.37619923410004,1.33742617773414,1.33435931178836,1.3626475825974,1.33346785285379,1.33383737030059,1.29617038799703,1.29836967898607,1.30420271468615,1.31722307772204,1.31672244986802,1.33425339090451,1.36203645883052,1.35901494980543,1.34123429997125,1.39311633051467,1.33790849667489,1.43570989096703,1.43787115896212,1.43488328254227,1.3486635736606,1.3494489796206,1.35926148526987,1.32970368612709,1.32944681820579,1.31018804451422,1.33879394829858,1.31901911427578,1.31886725717274,1.31878601516829,1.30505077055388,1.31676185096747,1.34404697998427,1.28206178799006,1.27029466557507,1.23717887747448,1.28907669810105,1.28797975990816,1.2021876781028,1.20009642692064,1.18887918383326,1.1741212078485,1.15671206381889,1.15606989163203,1.15629185016751,1.17230769479293,1.17229878975114,1.24584851200808,1.20080619988403,1.24786573400397,1.12694720970644,1.1298905739176,1.11272165589486,1.16169663834719,1.1229005263111,1.06895551547347,1.09179871289995,1.09185813308383,1.02445519927738,0.990276593358943,0.989121526675214,0.984092405714369,0.943325483825177,0.932524508463215,0.933359521951533,0.926157702032486,0.919991887788426,0.917507706840291,0.922138530209916,0.939965392220113,0.944762017463808,0.909635553752197,0.925773349520368,0.900012549675384,0.901331797546304,0.901713129330045,0.887325980479427,0.890248211370212,0.891857562106353,0.89544071734923,0.89772055970362,0.984713096975288
0.865199388503399,0.863856772468564,0.862704764775652,0.859269886354752,0.858222034850779,0.858431290294485,0.857756063659485,0.858529416589007,0.85814202157045,0.858479951244018,0.85845927511417,0.861750413346227,0.86628396705243,1.06489135532059,0.883674497202788,0.884266646115307,0.88671300472473,0.886115297213901,0.887045350847572,0.933480341511274,0.929714481196543,0.932751454707117,0.972729042343227,0.984924207893328,1.01151345519865,1.01976021847825,1.03667534226552,1.03472279307465,1.03781769876678,1.03897001548743,1.01969202776011,1.01908898033903,1.02863916881573,1.0403327482561,1.08790993241601,1.10386380915234,1.1047976660756,1.1105486939064,1.11191284551145,1.12081668443697,1.1163677438026,1.18089625169506,1.1201362801603,1.12058442096565,1.10004267786967,1.07164516515084,1.07364784251866,1.09218409403346,1.10841550514383,1.10849325392744,1.08888574104154,1.09117158627919,1.09095627220981,1.11367739726583,1.11626908991937,1.15876285405443,1.15678730186339,1.15439533899284,1.14445453026708,1.16502899907723,1.25354532820804,1.20225257535526,1.21487633457971,1.24500129614742,1.24473682650482,1.24321135490198,1.2510101050148,1.21317398522327,1.20677965097528,1.21050118404203,1.2111759897495,1.21237312700143,1.20260365253763,1.20202588146594,1.20336682097684,1.22248088491037,1.22453765600112,1.22477647157041,1.22496827317593,1.25229726516016,1.33685449663113,1.32980180330147,1.35120899148862,1.33319021925345,1.3244186027839,1.32391805412886,1.37351903073593,1.37424384034918,1.38149382083601,1.37542077306876,1.33418765727469,1.38717950679185,1.36886895118604,1.3792561676409,1.36190087741046,1.36427631238377,1.3376249210192,1.35165008740623,1.35939493010308,1.34435399106643,1.36143367617963,1.34249589779838,1.34859224605827,1.34057347370422,1.33998897518363,1.33885113041178,1.33878168500161,1.3416077309624,1.3507141377022,1.34283653149578,1.35467021770522,1.34215692244709,1.35323450705278,1.35526124752612,1.33819028644519,1.33719972548756,1.32677772827877,1.32865486140782,1.33699080839889,1.31919655608633,1.31879452664977,1.31624009654974,1.29689468575385,1.32356207278257,1.24559233585376,1.24434776918672,1.20526694651732,1.20369649944669,1.20357526951769,1.19380027509121,1.17978666392331,1.15689806261399,1.15662504187556,1.20271297733046,1.171219323462,1.19614674565205,1.18902136470302,1.18305614697393,1.17285502045083,1.1432173447843,1.11202249091711,1.11089466028298,1.11107003411176,1.08898249878641,1.0963811984972,1.06612978494573,1.02397426735403,1.02493386198889,0.989071484991427,0.981774726298954,0.970447438446655,0.949238576681269,0.93679523456189,0.949392066129567,1.02277167086402,1.01400734836921,0.928386046078468,0.928965686509702,0.927538266029148,0.992227578749621,0.953504758018442,1.00198310410721,0.899108541025303,0.935580844793046,0.869376782957023,0.973178921578919,0.890583384898691,0.891784535788096,0.89345581446875,0.898741320935479,0.900112219677351
0.870158660623733,0.870123755147542,0.870038578153222,0.867996543069417,0.861799898782777,0.860031858734002,0.859361499471877,0.858994035166468,0.859097622800726,0.858691729541937,0.858936289635309,0.864737346647585,1.05334080750323,1.06541356812955,0.902735804687431,0.886773935013464,0.886988959584773,0.886681411935658,0.886756650821242,0.915361251989362,0.974271423084525,0.974207027912486,0.97231710165627,0.998189457185671,0.997249347504246,1.00706729738941,1.00797671713199,1.03100717169357,1.02853952682253,1.0307840715534,1.03120507738468,1.0584268129309,1.03248126243111,1.04757049829164,1.09473569730134,1.10981456930079,1.10699271308569,1.10928026520538,1.10896650519165,1.11369300912417,1.1241209661167,1.18140330596441,1.11895638472229,1.12055403651991,1.10210435939493,1.07403397526883,1.10628365768466,1.09565203239126,1.08264580334947,1.09418753224098,1.09399834202135,1.11981792263848,1.10740874781148,1.11329880615481,1.13783373594148,1.12831505223928,1.1372788947378,1.15825839075657,1.16702626691118,1.17247863611051,1.17277876825548,1.19654531498565,1.26299429659551,1.22196001449524,1.24308563297536,1.23020348245093,1.22256208133371,1.21573704231689,1.20719551850194,1.21684870517595,1.2178720789137,1.21912418593986,1.23013986303489,1.23164134715774,1.21833936112199,1.2275634803082,1.23304550789952,1.23173335074944,1.23015140634041,1.27321673354842,1.27419777732766,1.32499758440968,1.32094514092039,1.32098773403146,1.32269305657028,1.32744384643537,1.37426472528244,1.37557899793717,1.37782587375873,1.34380275518762,1.34371760570164,1.38505205299079,1.39624715118688,1.4080244787969,1.39714866452623,1.41925749058923,1.39682405776159,1.37551174669956,1.37387949221644,1.37349124624712,1.35772220794653,1.37110200354586,1.35697040031839,1.3418195298003,1.34122102688894,1.33968979297019,1.33873216421381,1.33789198825322,1.43901168047298,1.3439637838357,1.33653325877434,1.33642931017366,1.35092373336811,1.33569185560907,1.33502908805567,1.33678115394954,1.34241444521286,1.35320762889765,1.40252273546015,1.40237455949394,1.30519958565371,1.27682021297423,1.27614230593515,1.32446044208287,1.243741298494,1.24350765639878,1.22758123533588,1.22796677744663,1.22723539297946,1.20465863697329,1.18889135768631,1.1577754041652,1.15710457828606,1.18233042817147,1.20856787128596,1.19168759962169,1.18974968533189,1.17806923204542,1.13312190435024,1.10056283642471,1.08681704591741,1.08488552825381,1.07537275470638,1.08559490634627,1.06156113148317,1.09045220165168,1.02629441138724,1.02573021088339,0.99704213994155,1.03363769753137,0.980776179787019,0.977035088241486,0.951076532497675,0.950689428817657,0.930012495861299,0.969120672298646,0.928877920611879,0.930229797598066,0.91842250626901,0.918685424812838,0.921502919203714,0.900836329018203,0.900161631224982,0.883763746484932,0.896128051508726,0.982259099671499,0.885987405691977,0.89184590480996,0.891241272479778,0.898172657779458,0.902678860958721
0.869970254734246,0.870127555087426,0.870393165504327,0.870753205133586,1.08797855809175,0.865054129319947,0.982514006125571,0.921271125585022,0.943055376528962,0.859106727188303,0.859186056674155,0.864209730668145,0.977355339082703,0.88272830957296,0.883089569539134,0.886865729833964,0.887007020956266,0.886908424444862,0.887108014105987,0.918797948988942,1.01357342921047,0.961121999769843,1.01649427956547,1.04763389238117,0.996876143906025,1.0535538141957,1.02604890582548,1.02853319080916,1.0279095344805,1.030013255277,1.03058635352807,1.04372487014748,1.0370463529479,1.05663178429511,1.07505694943582,1.1148922250451,1.11350930123612,1.11157920694372,1.11216588922916,1.11189186091211,1.12365349599786,1.12019704206321,1.10763551866857,1.10726567307686,1.10721166994359,1.16803795989045,1.10894648810021,1.1095597664664,1.1103031925747,1.10785638408105,1.10835902266151,1.14219438346406,1.12722498300391,1.12930086858854,1.15706846810689,1.12396580001665,1.136837886781,1.16011566744387,1.19956706013066,1.17095998985075,1.17017277657661,1.22613258353301,1.21644525727529,1.22206313675709,1.22155575757143,1.23026745657771,1.22250017030785,1.2220049359074,1.23923440013,1.21614508112394,1.25943988868612,1.22554621898473,1.24440518272705,1.21986578018508,1.23387819564214,1.24543344225056,1.296798685365,1.25737523708073,1.25130251104221,1.29394739796785,1.29269192858455,1.31945741600564,1.32002853435396,1.32232334908716,1.3235604470182,1.32672146123606,1.32820715981744,1.32739169712444,1.32569025120153,1.40859643045237,1.34320415989123,1.37195205936065,1.37156278440282,1.37665292483237,1.40024697939844,1.41887988877622,1.38775451213504,1.38212428704976,1.38121613235274,1.3726642426149,1.40264470443401,1.4173266791139,1.3632690381562,1.34258779705269,1.34247037433928,1.34141404435756,1.34040352948831,1.33787163885826,1.34032069881413,1.34163782538597,1.3370281606739,1.35222473228109,1.34616073365876,1.36381824680287,1.36750124193308,1.33747398501535,1.36117783137561,1.35952707283936,1.3619134671046,1.3936166374369,1.34402999376464,1.29583421799068,1.32157505557531,1.24621172115799,1.23424951133288,1.21575017163459,1.21432806918807,1.22884807231036,1.22839885039675,1.21116573198014,1.19065463511344,1.18076074701124,1.1783028997653,1.20848384587834,1.20895483670042,1.21011751603599,1.19305025033162,1.17115620534011,1.15188142614124,1.10753908528022,1.08688408108318,1.10907580074735,1.08438674229265,1.08521523461415,1.06993648412107,1.03623227747744,1.02503832129695,1.02538920031947,0.997601078116609,0.988166018511073,0.979130991309546,0.956934562403935,0.95185341848559,0.952885270453478,0.931497315288124,0.931750271439686,0.970682754833658,0.932192597417202,0.918328833057374,0.920030186870815,0.922022199027158,0.900389163185914,0.899855287182886,0.990334778292898,0.958696034706821,0.925231171935584,0.992124236134547,0.965397789325788,0.953913583840774,0.894824846361482,0.90272648329893
0.869933817988333,0.87028110608439,0.870222405364718,0.871623506261453,0.872584420257866,0.96523559942394,0.870698325606893,0.9044971414108,1.05894418947578,0.868234694509642,0.865550603457931,0.975610604050945,0.912879780332037,0.900878375591838,0.887837288943202,0.887684924063272,0.887515596928923,0.904918794617691,0.917273530626839,0.937409991091862,0.937613918555807,0.981137258437052,1.00470528029428,1.00519599569625,1.0332496853536,1.08501294310723,1.0853814099274,1.06554167334983,1.02751539933037,1.03539756790806,1.03133452314251,1.03540511775139,1.05792375253671,1.06085930405453,1.09542494592506,1.13650233631386,1.09549036506088,1.10674347407526,1.10719870604659,1.11219800193564,1.11048753539258,1.10746559030033,1.10751448832953,1.13525671077618,1.09480397890472,1.15749219118141,1.11346980943449,1.11352486762308,1.11350381933633,1.11952949203678,1.12473119319242,1.12374827883851,1.12474993860927,1.1481599812472,1.13687779691547,1.14636417141583,1.14570859016079,1.16328804765591,1.16753195149433,1.2216128275822,1.22643275872096,1.22598777117108,1.1881359589182,1.2591605418957,1.23244060660102,1.23196263308713,1.22385069591138,1.2228298666547,1.2364446909689,1.21412697996839,1.22510624017764,1.22520012326206,1.24919631886795,1.23268579454202,1.23401865137803,1.24925950278172,1.29666163750263,1.26664592118724,1.27291417169646,1.27895824546801,1.29511996775604,1.31856203792088,1.35808545428375,1.37370975287868,1.37338044996982,1.3251166997027,1.32553078681128,1.33153336220361,1.34655935703552,1.35352390839089,1.34884578302575,1.4079898415969,1.37105093048305,1.37664202698479,1.40145693367959,1.41307547881031,1.38714376344222,1.3856329314242,1.38715230329703,1.37396230761566,1.43614319676396,1.43619292299747,1.35968460752646,1.35871478615821,1.36085657321112,1.50254502979352,1.45151997802609,1.34085168260099,1.34054879813308,1.33953976549749,1.34066346032606,1.34222826459852,1.34310497259494,1.410167191127,1.35032917358642,1.36548656989762,1.43892897069234,1.40358852393249,1.44779123088253,1.40897156221532,1.39457799223878,1.34945016831861,1.27670248460624,1.24503604595811,1.26572402513321,1.22647544262925,1.22858924399757,1.22945126449414,1.21066252897331,1.23050147113573,1.20305900842206,1.21989554099033,1.18613350565798,1.20861436018647,1.17816701087816,1.18308205931599,1.18556396420225,1.1627324514881,1.15201904578792,1.17376775436542,1.08256659058515,1.06933086835401,1.08372398470317,1.08948907036973,1.04290925581753,1.04335534116617,1.02650373768243,1.02467246094215,0.997015439106291,1.00857285715137,0.981656373499442,0.982222336058057,0.973463382175664,0.951150528299751,0.965898358843096,0.940859754804887,0.929424491972127,0.932082557135981,0.919632226661818,0.922877085020671,0.921154496078089,0.904565381475253,1.01118467745872,1.17050990828915,0.891555799243562,0.891756967498427,0.988309364508734,0.971720800909874,0.987823457032985,0.904972216451214,0.904630771739074
0.871594457100833,0.871946107221138,0.872289241403732,0.873191418011142,0.876065338317455,0.878059817062971,0.870523151840649,0.871219941842278,0.870568396995277,0.869248704364235,0.870109047753362,0.923617435714534,0.946688079327603,0.959409034928693,0.923446475138221,0.887929268995934,0.942463570675629,0.949676983644208,0.960092494581152,0.987987974286106,0.988120256425575,1.01125127510229,1.02455277913009,1.05151989027795,1.05155295920241,1.06935986377311,1.14229124072965,1.11254964965531,1.0882750883552,1.08879626469426,1.08861615846784,1.06790005555024,1.06223772310337,1.05649532234554,1.08348587551389,1.07405631381324,1.09881979734682,1.10163725243218,1.10300387371608,1.11281486119718,1.11211811850988,1.10671312825833,1.1069360668572,1.11106200842059,1.15195754202668,1.15708485100192,1.1373514662529,1.13789308753113,1.13765580534764,1.1214324658691,1.11864694712896,1.14590824787694,1.13500917436779,1.14792320968804,1.14840063945828,1.15075464419767,1.15941201001137,1.16987318479477,1.17976938509328,1.22969843492689,1.18643920838847,1.27038373149571,1.26237523060948,1.2573013345051,1.25670679185036,1.22342470064855,1.22332263925185,1.22332517032707,1.23618163922186,1.2142995840164,1.21264518889809,1.28503383700111,1.36219291187257,1.31928648078089,1.24861268932199,1.26020389054859,1.27117129557372,1.26863693002835,1.27009335737926,1.28851030425683,1.29620657546662,1.31586898591439,1.34163129671997,1.4312216246945,1.37391762832605,1.37631233498588,1.37602255512187,1.33903272514977,1.34361354536194,1.37629920624044,1.35327908739418,1.39924182586676,1.37029060525108,1.41412665447324,1.40159795274054,1.40173682821862,1.38713556674,1.38706751516361,1.38840710999898,1.41327875677835,1.41996205999537,1.42216782600454,1.36114154714696,1.37011685485435,1.36862480945109,1.35940203879543,1.35990848067645,1.35389173082069,1.35559934219099,1.34350242460916,1.3421242396076,1.34312620695934,1.34304711515795,1.34260296091039,1.34230008611978,1.38483373548367,1.38181824823512,1.38130310400979,1.37930660352872,1.3790423178574,1.37963231089145,1.348501848623,1.31023661673671,1.26012440661648,1.24554412980477,1.23569540931479,1.23345267070892,1.23266237514056,1.2317438596002,1.22905187564621,1.20902502737381,1.20803586715169,1.23426621336653,1.20631594252109,1.19521641765219,1.17798413154687,1.18237149642508,1.15697732956734,1.11032785557463,1.108239130587,1.07590264824695,1.06275845259145,1.07677422816622,1.07670549698667,1.0486974981302,1.06050660306629,1.02260005231127,1.02315097789948,1.02223018718729,0.995200631769025,0.984411565506714,0.970415717343112,0.984802111379347,0.984520991212128,0.956050626714279,0.937157725734256,0.938001566149759,0.933520705393036,0.9202717183352,0.921439438610299,0.924139353598406,0.925348680674889,0.950784679619811,0.983737427391203,0.891905776644809,0.89209041086925,0.931032255456193,0.948190017675136,1.05839855498584,0.942252973974194,0.906160033898193
0.965227324555448,0.873986464725549,0.87402476773345,0.875261312788923,0.876623295267753,0.878028034914761,0.877813657963065,0.872742595099089,0.871554202764629,0.871486089359538,0.870895567333557,0.960209273390866,0.960517421531065,0.960102389026324,0.92709847985412,0.938414536801766,0.939080209520893,0.953648993321903,0.961238774870305,0.957949729968455,1.01544323781264,1.01589629240093,1.06025332934462,1.06545215436894,1.08887700936684,1.09390168784149,1.14261090528471,1.11581007799941,1.08920670113896,1.08956514390376,1.09006271066361,1.06032288264783,1.08509876720426,1.08502748250971,1.07487386154169,1.07398212146522,1.08120077024265,1.09169130115013,1.09210178825538,1.09561532759357,1.13849762535041,1.10855083264201,1.11297607552736,1.1507145540249,1.15210391393344,1.15587124287949,1.13888025097861,1.13884187219171,1.13851410681395,1.12017333596095,1.11874763605781,1.11849158324658,1.14646991199686,1.14731470703826,1.15311253312252,1.16238905082007,1.17932898297621,1.18399859238154,1.18776127441386,1.20230157406325,1.18790746550062,1.18682942187795,1.39388936159314,1.26306065050438,1.22410221133282,1.22398371202473,1.22328984330196,1.22459948628034,1.22532140832182,1.22411923076841,1.23607992758885,1.28221747942932,1.36875718903901,1.29485075225671,1.25352551588701,1.29833350982418,1.32758923382494,1.30610595100345,1.28316824460977,1.29856589629619,1.2984606705054,1.39685796263808,1.43109077932018,1.43246898613285,1.34175043047824,1.35785336441892,1.3414889339954,1.34096331070248,1.34450131559806,1.34494748000093,1.35122298286493,1.39168737186787,1.39498205003483,1.40454923711897,1.40040020030702,1.43017317412996,1.42039714223874,1.42490314697237,1.42324659890332,1.40188099936745,1.42053944317389,1.39214016616586,1.47884024511107,1.37221454868948,1.36965361962968,1.39573912187042,1.38560234642619,1.38394329404146,1.40250685390074,1.34308228831279,1.35894559096561,1.34378142815634,1.34334655046243,1.34269238186561,1.36784177995788,1.3850120781757,1.3837202997067,1.38279275646981,1.38440321199777,1.38229470603397,1.34557966784219,1.36788759312565,1.30245126578124,1.26814473259969,1.24503225305999,1.234009038145,1.23321856491909,1.23798217953052,1.24418432692903,1.24666945512552,1.23332981218479,1.21761880301424,1.2101246839028,1.19528387620315,1.19588558544773,1.1962035251725,1.13943619554241,1.15104998633143,1.13929977220908,1.11136523401772,1.13017524756713,1.0720426861559,1.07479924887733,1.04796363590086,1.04004720624688,1.05351496404284,1.04155388332676,1.02302123570674,0.997397396766495,0.98296660823723,0.985191216203455,0.970920399029762,0.965202520093428,0.965052361868774,0.940969916770298,0.936348225392283,0.936175769192069,0.935035178155983,0.94338003974413,0.972996881682164,0.973288990561119,0.909088858598576,0.908816994626312,0.909148397416879,0.987846105789006,0.947287817126775,0.922090858744971,0.921927580680021,0.921745219962779,0.981752919022114,0.939502258228839
0.89367681109024,0.875661690940283,0.876130278456332,0.875827966331349,0.876503732314375,0.878880351230694,0.870540640671118,0.871753769620132,0.870847963831482,0.872167051627491,0.872986500367194,0.907000963275596,0.96321852931946,0.895392110538887,0.89574255566775,0.936458625667592,0.936616938693011,0.957644270164266,0.965807736719135,0.981398305219128,1.01227042284316,1.01289931313401,1.0578355903911,1.0568940797099,1.07062038943914,1.0712111622856,1.16201495509475,1.14108960397129,1.13147491230078,1.13332704799601,1.09951114260534,1.10992084895916,1.12797082478999,1.05705478332924,1.05816242249132,1.08831884049233,1.07198179330638,1.09079698202264,1.08677911676327,1.12876580829385,1.12904950812756,1.10797141319714,1.13445583494529,1.11967425151278,1.11933286484681,1.14111574174112,1.14129660903508,1.14034867706278,1.14115819324219,1.12125508159895,1.1199433694025,1.14711386360216,1.14768471533924,1.20046670262843,1.20010431214848,1.2011235067405,1.19895262078465,1.20074283700596,1.20194325933691,1.22201755458443,1.2029190927306,1.21613362691289,1.30472561802695,1.26498535852959,1.22429411085904,1.22442958560202,1.22833924607311,1.2267945828281,1.22767974067889,1.27228911938913,1.27374932715279,1.25386223417325,1.24484593732921,1.28740457954648,1.28716136677266,1.3124050879574,1.31230245954801,1.31053956957102,1.31075863259888,1.29903133495028,1.29867509267971,1.36759929654076,1.43195784787302,1.36612502299703,1.3837890897865,1.35915085387955,1.35918020082536,1.34523216700804,1.34486615410553,1.34477826565627,1.39956546663373,1.3979046601528,1.39627480612625,1.39722445555787,1.40650498829993,1.41362076128224,1.43007826146381,1.42738647790544,1.42559579405681,1.43650605706814,1.41514140700519,1.42770736664409,1.47962287216653,1.39540211272931,1.36850523145199,1.44307872485571,1.3871608463088,1.38439662545629,1.37447095367703,1.37439267841632,1.37974048063536,1.41662869821873,1.36913910631742,1.36883460884938,1.37568341686723,1.38529316496869,1.38420004353845,1.38215800998917,1.38052194412669,1.40933720156687,1.34541194352238,1.34549591631603,1.37455598512932,1.27617353379245,1.38493599564465,1.25628772511593,1.24848046336228,1.25268854630394,1.26022031332637,1.24892239207854,1.25277041548667,1.22581249679207,1.19456830128364,1.19464480227989,1.19383607849153,1.21699991520636,1.15304784188807,1.15809355259935,1.17754354373957,1.17660967832185,1.08783369673749,1.07223870527651,1.07204791102771,1.06631464364538,1.03786968523122,1.05269625317857,1.0224063376212,1.02353504621281,1.02470055362738,0.982362779842465,0.986019857461185,0.973229728259603,0.967056463831395,0.957986956789053,0.942671017664468,0.943398780790559,0.933685316638128,0.927676492920468,0.919715155411774,0.913017283918527,0.914487134604895,0.922885031103168,0.883280464332646,0.883688775284699,0.868130792586716,0.986291740210316,0.921768231075627,0.92177790553133,0.921714237419527,0.915445896036574,0.916106572232919
0.888940843543015,0.904679091134033,0.878306660485017,0.878571639453965,0.878733624639261,0.880206284029052,0.881642847653134,0.880241825038197,0.878666043580216,0.877412973202505,0.88300336978684,0.925446584585077,0.925964263329708,0.914970411079444,0.901549377713559,0.922076718184288,0.99151611235856,0.980715638927862,0.993651681845489,0.993155361626562,1.0114868253356,1.01202241472798,1.06674628976102,1.07089020388241,1.0698652667724,1.1613801212815,1.16125819650063,1.17418702319927,1.21024804431631,1.09046637116307,1.09129378878159,1.1524475945113,1.07441778779474,1.05831773597699,1.07852426528512,1.07531454503632,1.0957157578981,1.09343853135644,1.10213428365161,1.08550743526516,1.11865667175901,1.12486763458832,1.12534063430126,1.17737132531518,1.11893627819552,1.11879892887293,1.14163504600431,1.14035631392577,1.14245208579686,1.14488150963341,1.14580235976247,1.17182857001419,1.18232419262457,1.19432416958161,1.18779432030166,1.22091830722639,1.18781190901342,1.20081636049673,1.20048895659373,1.23119970160998,1.26796338177102,1.43118265226132,1.30474534666991,1.30463670977935,1.25568658114305,1.22837027610996,1.22790496859613,1.23939123349381,1.32196481266988,1.24705511218015,1.2840998610457,1.2827633799201,1.30927339606333,1.31108253417247,1.31181275346494,1.31380118096117,1.31553088445496,1.31724780982474,1.31823091106353,1.31685293373938,1.3760902452831,1.4137657587562,1.39036703188387,1.45921673120988,1.35909472018671,1.35907147557824,1.35811704559161,1.35531836388777,1.3550870711477,1.35527920769269,1.35621819647461,1.3964775369654,1.4040628940445,1.40745481039741,1.47245275779068,1.48293252392101,1.48525114134405,1.49292310870147,1.48421942841442,1.44541280775489,1.43234125132091,1.41895248732279,1.3996115253636,1.39584287005886,1.47183208055416,1.3847302539642,1.42694353792199,1.42711409490493,1.40087698039133,1.38932505369916,1.42161910099441,1.42193974518155,1.4026946926061,1.42833635243687,1.36766705230886,1.38507467117597,1.38147553926991,1.38107322603162,1.38069207656004,1.38268438126156,1.40998899499299,1.35018382397251,1.35734144099647,1.37047269369406,1.27666876210863,1.2916577196301,1.26121658195476,1.26221892796973,1.26303565074129,1.26474143327764,1.35434375449399,1.26232538823016,1.22626711895901,1.25698599111981,1.20505030522391,1.18290866732615,1.14933839116589,1.16217501399845,1.18011829824857,1.10198296711047,1.10401527689157,1.06984831885202,1.06797437275908,1.08858474721739,1.08883480744779,1.05443071939957,1.04869081503759,1.02472573328756,0.984613078006706,0.983365383077896,0.980610307867661,0.971254004826353,0.967737135662781,0.958322333849722,0.959160953994847,0.938450168513798,0.939342957734089,0.92506108003679,0.922096093738664,0.923383341457169,0.899470904298035,0.900235032091182,0.89030883182282,0.890531468440743,0.866534442323008,0.866775784246685,1.0767186463449,0.953547495938262,0.987399516423102,0.915158158218858,1.00016447396907
0.886503509634412,0.890307504694516,0.902269068872502,0.879356354617293,0.879972346411579,0.881114679051968,0.883802532083594,0.885127165712877,0.886113162068262,0.956149804989747,0.883581945989722,0.882778147316069,0.882577199525039,0.922046535064167,0.912985750764825,0.968839396401942,0.924134316156362,0.973749255302381,0.98273070883819,1.00529165237351,1.02565805920048,1.04741063670358,1.06416245518319,1.07686830344418,1.0768023604466,1.09237884005777,1.19545882640207,1.19589579642394,1.19623500260922,1.11700264457086,1.08516716635509,1.13282588361658,1.09511524313179,1.06474528616269,1.0763621197149,1.07506532229068,1.07153979550476,1.07927955830661,1.07652100527586,1.07486665614809,1.10410482047469,1.12432176985184,1.12260764835132,1.11280990253154,1.11296150926432,1.11208730599558,1.13893501155132,1.13746596823438,1.15376128566386,1.13107123942276,1.14734201416067,1.18396184937632,1.48540714649599,1.3955180381045,1.20617430145257,1.21489257149305,1.21504455351,1.21362038274463,1.21416948682526,1.23379922649066,1.22493034769317,1.24066501402295,1.24858099660622,1.31358174920403,1.30615062579367,1.27523886755747,1.26800278068087,1.24595287726147,1.24723169295252,1.24718176116722,1.2748146484905,1.28026117965702,1.35452688178858,1.32097852111075,1.3445404045264,1.33811052666805,1.33879382158181,1.33576243094193,1.36816164988478,1.42436844003775,1.42439164523237,1.41458503496864,1.42550506055983,1.51816170599427,1.45894573240555,1.35862542370593,1.35843582144346,1.35685198590445,1.35595830971889,1.35620160750939,1.35825385219646,1.38834706453869,1.43981606281856,1.42236059722121,1.41129475240457,1.47130806352375,1.48297569358667,1.49475625058955,1.50605321425529,1.47320667076671,1.43010326822297,1.46925363276577,1.4128808973372,1.40912887021179,1.44238357872824,1.42373045979067,1.42525644677874,1.46560837784149,1.49837347010082,1.49753445149771,1.39172388743071,1.41948115257218,1.42875862042728,1.385975943614,1.36644457588785,1.36536045435899,1.46545841885638,1.40105321817593,1.40622328470211,1.36934707979044,1.34995968457995,1.37996687157517,1.36387783785309,1.36391664272476,1.37016625581448,1.29467903280423,1.28490339978218,1.3094610621319,1.31426343638779,1.31373255698859,1.33843913603192,1.33799512629936,1.2303786622053,1.18044969145893,1.18057460957551,1.16899914111392,1.19438494335429,1.16699636061333,1.17161103971267,1.18072547969555,1.10258481908842,1.08012748938414,1.06432994370844,1.08645557921473,1.05193514419094,1.05543916498038,1.06282126454642,1.02716504981974,1.01130632493283,0.982179793013762,0.982035120975717,0.962930452623544,0.961089302092914,0.964518544088622,0.942568650441544,0.944284982371129,0.945138695866278,0.917914084035376,0.904282427884123,0.918627626057868,0.893651019902242,0.894524368302929,0.888008528307513,0.896651148177243,0.896743753887364,0.881563162722957,0.909698687125805,0.915180617634526,0.914223200152645,0.985456971425723,0.906124433254144
0.886946248966928,0.888296210324646,0.88645445590058,0.885756841301098,0.880370442678304,1.05019750325833,0.884697681214373,0.885451267117843,0.886343682230474,0.888098988688451,0.94195126052682,0.882819702559739,0.882335147069732,0.925106578869242,0.930381668324809,0.91050015078235,0.910369047298509,0.9724607001981,1.00351644452818,1.00390329696882,1.0344394787183,1.03135337101891,1.08542292884966,1.08648184862228,1.07599740856378,1.09213613968243,1.19638306129479,1.19605945029284,1.19600183995811,1.13549558928409,1.08626379032321,1.10222299092203,1.09393159959002,1.09357772466775,1.07482149829754,1.07445259404446,1.0732004383922,1.08228570404808,1.0941358426382,1.11487929413788,1.10665578604985,1.10745738181938,1.12199248527023,1.11098016113961,1.11133318199365,1.11299398655912,1.11334833964645,1.13421255114611,1.13193638314662,1.14607271951514,1.15878942866784,1.34303325574814,1.31423611794135,1.31381724588367,1.39602193870303,1.20732434954527,1.20728846911948,1.21123454913692,1.21200985654135,1.2120533995386,1.21107842428974,1.24182451277956,1.23954947128182,1.2549315660772,1.27145217215172,1.25719567600813,1.25704495188382,1.24646558047697,1.24859665597971,1.24745070065888,1.25521621752727,1.30505848134897,1.35471910285815,1.35910547273553,1.34712496164312,1.34527369056542,1.34388457823837,1.33768736892323,1.33554270997362,1.33430486391521,1.33336758956621,1.38123450675033,1.45955226074038,1.45973754786308,1.45934857594623,1.44242545080268,1.3596045209928,1.38780415958629,1.39364699984298,1.39371771578568,1.38737768746047,1.38966947802225,1.44088438164721,1.44178262688773,1.47326638676496,1.49070466322173,1.48999692602381,1.49856023005924,1.49216221794632,1.46645975744032,1.46690935023357,1.46885455861213,1.47340841791328,1.45153866243645,1.44325009542005,1.44327130585974,1.49056369887313,1.50010012998584,1.49956772678722,1.49874515347754,1.49064954048739,1.42112090419127,1.39675099174227,1.37371625574334,1.37372681974798,1.37519308942368,1.35446999515083,1.35320917976099,1.35420167115177,1.40459594647359,1.34822092416314,1.42011253663145,1.36464901659915,1.36406248895451,1.38433801785507,1.38341761494658,1.31818164196271,1.3106302049548,1.30254817506874,1.31443916483049,1.30171575068988,1.34170360867014,1.21244989313968,1.18191647411247,1.16829470633426,1.14555239485418,1.14727767622623,1.15796502206263,1.17216527694774,1.17185216254733,1.15636162952526,1.09964145161062,1.07825692188079,1.08256210031188,1.05760048659206,1.04024068961263,1.05126400922321,1.03047390570795,1.01625835478191,0.999885840500959,0.981844747659095,0.965572475344187,0.96734300119863,0.964645724635133,0.959772936815787,0.963223837951828,0.906735156394216,0.91233498912926,0.906265381013467,0.918553571209443,0.884999255862314,0.885400445315683,0.95345422620699,0.896841616670518,0.897329222003266,0.880598757900198,0.916953951490589,0.916282357713142,0.916563577915034,0.911919424098908,0.905042006490549
0.886864634242362,0.88796314501318,0.887800199095347,0.887471510196119,0.888958500422358,0.897420601501409,0.898642194227957,0.897778689581603,1.03323325105027,1.03333245732116,0.937587805267318,0.938206867597535,0.966500892561274,0.896831163548984,0.897790156155541,0.970657095722201,0.942270191838581,0.966128023073488,0.965485993419445,1.01441937124621,1.02604249147166,1.03851661444044,1.05115121884527,1.10281663928905,1.107142070975,1.10717818147915,1.09862610463571,1.11352738247488,1.13290321685086,1.11844016091559,1.10675725911596,1.15323911449114,1.0952311690273,1.09299480074774,1.12202134658341,1.09722985729224,1.09276625123936,1.08772638493102,1.07882370374412,1.10569649110016,1.10166978647372,1.11732780544441,1.10750566110911,1.11183005971947,1.11142368782203,1.13189686090198,1.14828525704109,1.14485068480718,1.14106246082153,1.14423533072922,1.15630317068784,1.2942977271166,1.29295293222049,1.34176470705947,1.36306931425641,1.3675005240534,1.21142545491478,1.21185717698274,1.21334547137303,1.21218272414763,1.23480433436776,1.23709871823283,1.31409432276421,1.25577633298075,1.25506037427054,1.25503360526098,1.25783406614276,1.24711948321915,1.24788357032602,1.29545175127747,1.33241242376675,1.33274060804187,1.31018705671417,1.39459852031489,1.37976825343915,1.34577165162842,1.34521642256103,1.35955986214079,1.38302526658715,1.37158894572029,1.37154663436814,1.37518893532105,1.37454392226232,1.46212774987902,1.46173444691438,1.46678823635594,1.41052167493303,1.41016135821639,1.41110072753392,1.41090639450385,1.43737751021702,1.38168783524693,1.3815473520131,1.39934780157635,1.47992735035931,1.49176930432225,1.50605261051638,1.50528257022145,1.49501755966832,1.47676515235831,1.44624288595008,1.46956069851762,1.4879060003933,1.47405021265378,1.41958015193975,1.43056041951214,1.48865667350514,1.49413626609267,1.49749120002106,1.49737420912414,1.54293391869467,1.48527491169893,1.39557598285286,1.3948253274422,1.39058038601507,1.36626556133265,1.34942781398916,1.35049885469533,1.34943156189902,1.34884144643651,1.34827237861741,1.36353335887768,1.35983670872172,1.36305993710568,1.35577303516493,1.45118375888154,1.31878801359691,1.3176609225286,1.32808460892833,1.30322802894483,1.31680686522907,1.25978735319973,1.22289622160327,1.179767665438,1.16739278722555,1.16792196728298,1.13868954620834,1.13740739587921,1.13654799130978,1.13560140350052,1.19870076787591,1.11240171634178,1.09944897321892,1.0887697050743,1.13402647025528,1.06057154702235,1.04277599440781,1.03353174836765,1.02202289032268,0.999691293562607,0.995310664293036,0.971844331580054,0.984690459130546,0.986638504631134,0.959519719323123,0.960359426922716,0.988236566786269,0.93866609289288,0.91576040244115,0.887156378630604,0.884537876577847,0.951423512453502,0.952252251955564,0.899148464765482,0.898970791899448,0.911400597105294,0.918627015452892,0.917317297583081,0.934554609101171,0.89148550559746,0.90488800809712
0.910793296531213,0.889634165882317,0.888232928107854,0.888075907731368,0.888390288329939,0.901353310296637,0.894671781464316,0.895915657578671,0.894099024915924,0.944716565925605,0.944605804027012,0.927623268216871,0.93430026556477,0.967046762167283,0.967967173151643,0.946443634691772,0.944662971521894,0.964813972726243,0.960601477480191,1.03192990490842,1.02673522946894,1.03875148189472,1.05775675824932,1.08859619940837,1.10511449871961,1.10351639816228,1.09948135292184,1.09683581695763,1.09411044465887,1.11256954779192,1.11097854168352,1.10866493860438,1.14851005487677,1.11390279971044,1.10371217445009,1.08192508081362,1.0819142899074,1.09087584976047,1.09362011867762,1.10452915500903,1.10117146593928,1.11859258338536,1.11581118510006,1.11187835798682,1.11012742764138,1.11068924622744,1.14894574985347,1.14975273785843,1.15062159063789,1.16810256385924,1.18002173286484,1.32777992873559,1.31927202085052,1.47627194261499,1.52586677064365,1.33775628724575,1.33688224879202,1.26957127583851,1.24307884893608,1.21393714762451,1.21399770913897,1.23891931285214,1.24295116281208,1.25589655212411,1.25469736141225,1.25453162731339,1.24811924220422,1.24821338420219,1.24791040879384,1.24802867177678,1.32918389526076,1.30328282021166,1.3191087501284,1.38079160420345,1.36426064608303,1.37955819065029,1.37838269820474,1.36221944981328,1.36930502018297,1.37221400996847,1.37244602703582,1.37236033639736,1.37823643440358,1.37853710338436,1.46542961115783,1.46467745253872,1.46488913869005,1.4705277868151,1.47576338596254,1.45859318880726,1.4381627476173,1.45011130694612,1.37610886041389,1.37532758038271,1.46289742156087,1.46294514850085,1.46121118302655,1.49343127064716,1.51297943455867,1.44424390818247,1.48694397981094,1.46856564839684,1.48920431262724,1.48806630310311,1.41044866252597,1.48299737324038,1.4850494338351,1.48754905024987,1.48914393967855,1.50304958355752,1.53077340067346,1.38727923459372,1.39606350226364,1.39591611648445,1.36950989816279,1.3701598017228,1.35008051350031,1.34993440263862,1.34972028583139,1.34890599701578,1.34877371184247,1.36085090968104,1.35943901603153,1.35691089486559,1.356773703531,1.45003737530672,1.32471420139351,1.32052477868287,1.36382963097451,1.30311633777552,1.3096360934207,1.22521389176066,1.18278461096416,1.18217678894551,1.15549679540503,1.13782559620268,1.13724942801147,1.13685084458939,1.13619723033992,1.1350710535407,1.1373653917033,1.11681786715289,1.11150442133441,1.09939729438326,1.06314524700294,1.06338391629164,1.03579505820104,1.03515498624414,1.02463182256234,1.01407056512385,1.00097639234368,0.996756143402156,0.96733857679758,0.962563336947628,0.971087674766872,0.981999670530112,0.988067069228568,0.94938961593009,0.946494395696103,0.921772236110253,0.946733336573576,0.944140672269676,0.899619659513738,0.900529543206134,0.901298020725498,0.881018221569315,0.879620062086482,0.882311085366955,0.883579106351329,0.933626625475147,0.948811822105739
0.893376670189238,0.891532856093462,0.889939467388079,0.889008723138007,0.888656409735414,0.900787436611711,0.896574192593572,0.896434193065916,0.896006254887273,0.906214728293958,0.906066762095372,0.906261005102154,0.899793972523773,0.899745631902596,0.900078590221628,0.908566836976455,0.938620374305899,0.965191434131808,0.966267749249271,1.03575376200668,1.03386490729467,1.03722125639153,1.07488852230321,1.0911819396465,1.11642963011803,1.08837944080731,1.08188584694416,1.0828052514074,1.08040694526221,1.11063008602946,1.10871205182217,1.10787470847325,1.10549194476785,1.09319604904802,1.09433575946049,1.11162559372773,1.10915979113771,1.1140129939637,1.12014708650019,1.11929610810961,1.11733277068779,1.11668129559156,1.11584883225039,1.11647007208337,1.11589908735718,1.12212611063566,1.13142371678893,1.15186584457548,1.16292158670806,1.15912310286231,1.16820763067153,1.33896857347684,1.3190205756422,1.32617610207249,1.39741943795291,1.33767586033712,1.33776287262334,1.33149369518992,1.33536699371142,1.21458742831029,1.21434852055736,1.33166222817274,1.24289606822593,1.32625698292177,1.25463673775909,1.25381392332986,1.24776286666741,1.24833804875789,1.24771191528424,1.28459708357222,1.3219882908836,1.3216053426314,1.32767596568228,1.35276473762146,1.35298520104626,1.38166598476157,1.37984955801771,1.35802717620518,1.35178731375534,1.3951756957511,1.32195461941733,1.32172483207465,1.37919186565396,1.4276636864035,1.42774920646935,1.49058436861584,1.44823128381006,1.47048852200428,1.47067388002285,1.44057101205505,1.44252163292739,1.43653774811946,1.37597241986773,1.37543801005014,1.4043433809384,1.46346761224014,1.46174013273449,1.49215556474334,1.51635531975055,1.51537775359327,1.48869583173121,1.46763371311305,1.4886935777707,1.48762431775194,1.4870479046057,1.48476511170737,1.48394571860456,1.48205034489504,1.46503816489434,1.5061461515957,1.43601426360808,1.38735115410796,1.39663615403968,1.39868512252782,1.36829522381427,1.37126419485162,1.37114035342273,1.35541947686489,1.34941417998048,1.34858604671575,1.36145029983776,1.36097196918279,1.36020961141115,1.35874491656112,1.35712666831055,1.37485935802078,1.30942335381779,1.30139235410342,1.29267505589141,1.27364365702301,1.30849915498661,1.18650184350245,1.18543398412081,1.18064129240815,1.17996782676933,1.14768641421465,1.12777499152943,1.13640667110437,1.13609585585217,1.13622218498267,1.13765901319556,1.13891890023887,1.1473264274378,1.1370529916222,1.13618185451698,1.06098254377174,1.04502602033449,1.04084374230915,1.03624850427234,1.00024001922989,0.997579611413981,0.99453720518994,0.995680810601185,0.960791603772712,0.989832343305147,0.98223339628003,0.98701833762892,0.959110473982674,0.945337447073808,0.936172942055733,0.980243860601334,0.907306221311518,0.959233926899111,0.937911418377509,0.888495276111301,0.885994452947456,0.880209430301954,0.881308912937572,0.880615342661539,0.936257583611125,0.920302202706099
0.894431204037618,0.89355943746462,0.892023449946952,0.890419441685622,0.890384285525002,0.891161119154118,1.03700363309828,0.903941813653896,0.905270316027018,0.905798784543793,0.906577709104304,0.924926626870921,0.924341480288723,0.899119949649285,0.899293279771316,0.975214098879829,0.961674644759747,0.963510174401902,0.962897575274277,1.05053084874166,1.03287851489928,1.05136634015785,1.07519611373532,1.0774372198012,1.07188518720025,1.07538332749199,1.08601561266667,1.0862453813805,1.08815350889112,1.11101241268276,1.11525863784369,1.11789340147682,1.16733103983676,1.15636021569152,1.1179673363223,1.10725563287572,1.13400700870586,1.12299758741229,1.12156707241839,1.11028091004211,1.11760518387824,1.11629688237906,1.11550602284614,1.13276195734033,1.14084125686044,1.13892574249338,1.23100708820516,1.25552375338847,1.27473302684429,1.22262355613788,1.22238168150895,1.22231932297475,1.33096520729399,1.30575926339522,1.36561933550697,1.35694652466247,1.32844824717309,1.32923734028475,1.32771827521794,1.33101543939884,1.33040989689251,1.22914267627641,1.23821044989034,1.32830127904053,1.26580043530138,1.25508761579783,1.25736673571124,1.28227573086106,1.32709426197859,1.32740571828935,1.3226647417076,1.32568614192431,1.31681993937994,1.33516913991721,1.33481659553751,1.33997069150616,1.34524332873236,1.33889094787563,1.32397747201496,1.32287206244304,1.32241647426732,1.32210342878136,1.46192439955201,1.42796464718322,1.42790618972203,1.4446584331341,1.47251465331455,1.47129337058004,1.45508035574645,1.44821686117217,1.49078173788626,1.47451308088853,1.47359100514692,1.39457330747945,1.41091796580842,1.46537727393764,1.46394757394036,1.49210290876049,1.54813803987652,1.51652627603662,1.46218930977779,1.48587874152009,1.48214638284268,1.48579780639352,1.48615185293582,1.48601965033276,1.45108690263524,1.45434180731727,1.4251786451235,1.42517337766774,1.43675050375222,1.38775882441684,1.38789807024166,1.38709907658635,1.366163672787,1.37209427162192,1.37256056950682,1.36067196588444,1.35042676285701,1.35956101112138,1.36040485387983,1.36011603207919,1.35914358588175,1.35775986084596,1.36720464457691,1.36652629550653,1.29254625947945,1.28953399773953,1.28219360642916,1.34273997617295,1.30855776941676,1.20760823525084,1.18604651290324,1.1735502567697,1.16832090980466,1.15303370308541,1.15346963654356,1.14075078578519,1.13579910390473,1.13500594969561,1.15494128333939,1.15701663059979,1.17006597932653,1.13897289522989,1.10429827130469,1.10092952319232,1.14439336805112,1.04543910575795,1.00268276718597,1.00237701656619,1.01579831648756,0.996773655149532,0.980023168834621,0.980684928525142,0.972388586894673,0.972729203669289,0.978597290144751,0.972465468030544,0.965552908525238,0.95037065364484,0.95945852530292,0.920793624892775,0.933717327725183,0.889542853874442,0.890370003909784,0.878797413103968,0.880704124244949,0.888351142914738,0.931937682579668,0.936922047767854,0.9194490287464
0.896516469927207,0.894814904594093,0.893145424420401,0.892184759683977,0.891891517154865,0.892189756210113,1.04624526316239,0.903613289969161,0.904994752789504,0.904582818169458,0.901960568075863,0.903168515072776,0.924768899125906,0.911325978684651,0.932144505438419,0.954520811050283,0.971777696376881,0.992043967290656,1.02769511056598,1.02679214949922,1.06460807089016,1.06521803993056,1.07514768453016,1.07535033698097,1.0713192249526,1.07070576328425,1.08238033553759,1.0882873905006,1.09024246450179,1.09567649082071,1.14355973222344,1.0924368857828,1.12046664217405,1.10819187438711,1.14261012531849,1.14933318273674,1.12302034699649,1.12436161552746,1.12785734268813,1.10975658298308,1.10930810743402,1.11010580611558,1.12314570126126,1.12378993502718,1.13999102714934,1.12575673855165,1.27885958912412,1.2605460723727,1.26908915140598,1.18788042440946,1.18164353550442,1.19954494676061,1.32225833830551,1.29921767315922,1.30594215039565,1.28088966021568,1.31921859629354,1.32009266929147,1.33640129542041,1.33047160516317,1.2599146714489,1.23766199753398,1.23760254655465,1.33807729786935,1.33681672229345,1.33627468841138,1.26597881592205,1.29059615129146,1.29308794453986,1.33355865967533,1.31588198099301,1.31484174705407,1.31613412649145,1.33560729910332,1.33508646802245,1.39972033983158,1.33657570018436,1.33807234493813,1.34088241059498,1.32300217805765,1.35012262265211,1.44264453142686,1.43623422457677,1.41242427134483,1.41298683639935,1.41250411122392,1.47276351124945,1.4753956538653,1.47629223287765,1.46548218162325,1.48883673572577,1.48287525967693,1.47273160984037,1.51482153709855,1.43690067450581,1.41192516743445,1.46830060153502,1.49019059673946,1.48220490636132,1.49166326214174,1.50852425157112,1.47948441321746,1.48117608557687,1.4811327707068,1.48021181721398,1.45526544840732,1.45130185173291,1.45394426575794,1.42488591092785,1.425848907826,1.43867047314328,1.36039164169945,1.39731195603565,1.35666253602618,1.35586528762686,1.37207336424858,1.37318766983977,1.37292245585612,1.37427732393712,1.37388162104198,1.36188925159086,1.36051671239258,1.3512704323212,1.35669065477467,1.36704036499163,1.36716933051571,1.29158989238074,1.28934477895631,1.28256374745209,1.25774796043164,1.25824055109964,1.21714144552746,1.19471892622269,1.19824144646499,1.17968806801995,1.20119091708975,1.17193128415397,1.16398963465252,1.15475481439458,1.17415440352057,1.18421729170617,1.15625473714102,1.15574134806336,1.19113895921129,1.13638700731197,1.10220092106126,1.1124351306952,1.05299003021206,1.03529177300013,1.00296177174319,1.00562364746375,1.00674212869685,1.00407331078296,0.99098721047292,0.985554795699082,0.98658338647971,0.993557358845024,0.975818690175775,0.976804048886463,0.927610640677833,0.949113251150179,0.917771862690393,0.897415799203456,0.919286908932617,0.890899158004909,0.907335786945174,0.925594280424849,0.895633576614934,0.86395037930667,0.879369190431439,0.942529486568102
0.898732478043914,0.965508376130976,0.894457973431003,0.89299099346552,0.893113500951418,0.89298324841918,0.903241616605159,0.902895700644802,0.970063320003714,0.90118624928828,0.901567680610172,0.901815409197482,0.909731825855957,0.934408963598197,0.93329481363152,0.95443831625134,0.991159365348658,1.00723830333556,1.0285130462514,1.06599233660534,1.06517060370938,1.06752222470624,1.09827802765019,1.075308195758,1.06417592544505,1.06408772896435,1.12568574876662,1.08925569103272,1.09133036332989,1.08875198093801,1.09004055376908,1.0913472290296,1.10946781186286,1.11858496997034,1.12810784574462,1.12537097335385,1.12441011986681,1.13492232316238,1.15701485814789,1.16196849860557,1.14259854124204,1.11677967062448,1.13653209938339,1.12764564924621,1.18632797292876,1.21841680386439,1.22725103679585,1.22734672911395,1.22766423666175,1.21145616400596,1.18106726992276,1.18746425173344,1.23720668003956,1.29883767875632,1.27792013427209,1.28085178430512,1.28196000259731,1.27411980979421,1.25910375254922,1.25832658863073,1.24094849412721,1.23955305905442,1.27913887960178,1.2703822678221,1.26995451282179,1.26358307611108,1.27366240374486,1.31467900608918,1.33674811943536,1.34167464969091,1.31189497769652,1.31323375206703,1.31352210107513,1.3770775204347,1.37682950735763,1.40558458759224,1.43973872399815,1.3713528423694,1.33810664850826,1.37600606039071,1.45069342113162,1.47159902972961,1.47113241925617,1.451131310088,1.4127080354133,1.41267099735661,1.47358234365058,1.47868139805652,1.47319517713502,1.46699543269221,1.46653106147043,1.45313051364803,1.43828678962653,1.45698608485501,1.44551476989071,1.4448352538405,1.49793704784649,1.51092286734177,1.50886937517505,1.56542953568161,1.50451087432151,1.47918967842736,1.48019971920899,1.45795533224955,1.45746861252042,1.38495444271887,1.4508106616933,1.45066283576733,1.45024850128372,1.37797591394519,1.3866658364543,1.36167505163581,1.38256049435229,1.35756173442944,1.35639383117573,1.40983605884997,1.37496090989971,1.37222477466387,1.37484816311731,1.37479020151729,1.36386444444875,1.36586853277597,1.35018914045743,1.3485624646015,1.36361484386431,1.37390136203657,1.37226715775201,1.28464619706607,1.26803087967446,1.25769795032674,1.25715026522415,1.2289850617024,1.21462508974345,1.20278377270962,1.18215225846552,1.1768563845224,1.18589894043111,1.18496445534088,1.20493559142443,1.1788019611877,1.21311822726381,1.17417801003842,1.1733508287981,1.16324792124968,1.12243179169841,1.1047675218406,1.05689317623254,1.06581514798479,1.07087455685751,1.02452328658844,1.02457904953212,0.998516810330186,0.994957146444768,0.995268804940276,0.982551654882414,0.987833942587562,0.990277608878231,0.976208608526335,0.976330208879686,0.980429519213366,0.979880436938971,0.923144717241455,0.892162000591769,0.892070059548127,0.920374108678283,0.905387097551527,0.904664693318191,0.901263589713099,0.898817769162203,0.907309776242349,0.98278614369826
0.899493424638322,0.900039846594868,0.895296167194262,0.894113610605055,0.893092559930191,0.893369855485916,0.904568147189484,0.902804804499067,0.973105644870226,0.89855217198056,0.945986437378776,0.945710864999934,0.895036649160529,0.934375085186224,0.934808558123734,0.983067191749338,0.981411062417907,1.0237252134811,1.06458325912586,1.06209311700562,1.06396455669087,1.06669645930765,1.06301718717687,1.06236569711958,1.0635008200854,1.06422258356723,1.0857738206906,1.0887962775671,1.08970243435666,1.08872545002273,1.0886219249818,1.14994639518178,1.149994343444,1.13716119310897,1.16337722369606,1.19155397849286,1.17597237052431,1.15605054199557,1.16575672841399,1.15210219490832,1.14512043301418,1.1334254841784,1.13193966353139,1.14330233180372,1.16250714229919,1.21745606907607,1.24128904919576,1.22823109860883,1.23042092701159,1.19021629671365,1.18131447201326,1.18082545113584,1.26212145476991,1.20849801714383,1.2301774534253,1.2730992229474,1.25259796932829,1.25465114827528,1.25212926076138,1.26867291010748,1.27040538257463,1.28005253910118,1.31964769321915,1.31860526591524,1.26901089747765,1.2687743576971,1.33848176047824,1.33828194360794,1.33757919963222,1.31400616686314,1.3128309541282,1.31210631279052,1.40296964028191,1.40363595205198,1.39421074138321,1.39551230041845,1.40391672332967,1.39099329800291,1.3984604248202,1.3853436556703,1.38526055099726,1.41716137998726,1.46161257542635,1.41311917935293,1.47139316384637,1.4708341414486,1.49846392254755,1.52263563408241,1.54860158128844,0.00378935384075154,1.52601146927166,1.52758307716623,1.45315165020237,1.43346366855509,1.44682542421208,1.43513914780428,1.45678334979146,1.47907838974274,1.56267160144961,1.56481823613518,1.52059969870611,1.50498357715221,1.46151668511846,1.45652984258832,1.38103328559868,1.38086792146459,1.38024288494723,1.39902276224658,1.40396929139354,1.37849128859522,1.38955566006442,1.36186788300771,1.36151152938419,1.34831543557547,1.35090735727597,1.37417593920962,1.36280715771047,1.36466410661577,1.37580303992195,1.37521089675956,1.37791395298327,1.36305142234743,1.35171820786505,1.36422019176923,1.36332699380325,1.37458950702648,1.36820608318518,1.28632066329733,1.28913819091351,1.2602146555488,1.25902399837183,1.24435761914242,1.24359137985612,1.21097336844924,1.21607040380183,1.17576546666863,1.20653405860013,1.1856375240006,1.18926329816121,1.18109741732442,1.18007140436287,1.1749048530649,1.17404594911424,1.16206835631586,1.14702593703144,1.09721365104914,1.07681079476044,1.07000171536995,1.05883971441609,1.0124713750468,1.00941367182278,1.01139847520275,0.992233561553337,0.978874215851224,1.02033053974289,0.999451253275578,0.978000389691161,0.97693842325791,0.977763838173432,0.930183479110035,0.96910435277277,0.954986483361558,0.893174355364878,0.925913532401996,0.886540683698356,0.887102775067984,0.917473334901429,0.907045970675593,0.899488864531385,0.911574303185184,0.940408771298881
0.900052815218819,0.899293067419841,0.89650647503785,0.894928775702569,0.89377642714709,0.907099821814619,0.906091761379141,0.902042630864019,0.943474756621378,0.933723811684774,0.89086372380776,0.889250185111936,0.890159199011744,0.891081400287122,0.943030051167073,0.954164647663314,1.04427583382267,1.04816799866751,1.06707530166636,1.06771145063732,1.07374456886833,1.06627099687512,1.06192136136172,1.06265861695104,1.08190083631492,1.08845285909973,1.10782475599996,1.1075478852087,1.1082296846128,1.15476041596012,1.11262422078562,1.11197335539172,1.1502466830129,1.14186288177338,1.14104942076881,1.13571128015823,1.1539761226466,1.15098921933965,1.14830642911032,1.14804959744903,1.13782489125777,1.13794794864414,1.19716745538404,1.19518240049771,1.17060280540644,1.22035311194476,1.23931670778283,1.2175694457771,1.1905185058399,1.1904600513219,1.1824994669491,1.18047788239351,1.19370892828285,1.2195282360857,1.22508337845508,1.23341940535837,1.26416834652655,1.25897023114857,1.25953962486619,1.26019495785767,1.25612982796173,1.30833850566561,1.30885036637896,1.27228832651955,1.27144657856748,1.28554453681759,1.33861799193524,1.36737346072759,1.49941988303433,1.49895508135698,1.37335122342282,1.37372608350094,1.37366847184662,1.40694091644693,1.39376367073388,1.39473849833969,1.38430372938085,1.38378747099815,1.38429154952122,1.38566284921253,1.38518207814463,1.38373476153529,1.55143362214329,1.55117728945712,1.55083726216032,1.46975941608806,1.53336932933845,1.54897702482402,1.59695625139073,1.51374700164382,1.52448889524234,1.53032762101543,1.53709197858585,1.5292625601028,1.53627862437865,1.52469354615225,1.49894912524382,1.49393604712128,1.48187152487292,1.47312002520588,1.50728280946851,1.52276291929699,1.44831458125799,1.4566026997709,1.38144808220634,1.38130005665867,1.38014156121384,1.37932188016693,1.38111259219516,1.37238773831667,1.3719529929527,1.36147900233888,1.43997758386437,1.4390792159668,1.35284301417729,1.35200891880905,1.36350667391327,1.36364658621749,1.36276740208469,1.362064081577,1.35357605625923,1.37145759374006,1.36190938481909,1.36334279569909,1.50514919440458,1.37420708110046,1.51991439438981,1.2875459187804,1.2767690211734,1.25577415918386,1.25849319998598,1.23447160561464,1.2042747244299,1.20289341679207,1.21583105276576,1.21505227770793,1.18391790998109,1.18383769907215,1.18349533906684,1.18481166689914,1.1791319699742,1.17449054366505,1.28074460963465,1.19032601102994,1.14162956219751,1.12822292557772,1.07746692637999,1.07321972376765,1.03956288335143,1.03232008256177,1.00159923412142,1.00175938195538,1.00151951949071,0.970082306742483,0.971089098554938,0.979850737705557,0.977194446009732,0.975554862780422,0.990521352066289,0.988739714754268,0.942120057146045,0.94241462199819,0.93629910896478,0.914514009024429,0.906643967689203,0.907974998640107,0.91904345927962,0.925805298041997,0.964994591924897,0.965000435659556,0.957275277994988
0.898532952502356,0.900446220838136,0.901503879699127,0.895161827641046,0.894117790425525,0.894297782841245,0.950172018693786,0.898660910593754,0.897550380185933,0.900150717090274,0.88865735883476,0.900097700827344,0.942402382103354,0.942039938913247,0.930037558102782,1.0139945291695,1.01234467382975,1.05069762587021,1.05232408571676,1.04893516668237,1.08135830034787,1.11438158869637,1.06758582000097,1.09946286101306,1.0722589207969,1.10719152108745,1.10420278401288,1.10707012603833,1.10847205218322,1.10214652986122,1.1019678672487,1.14488968467773,1.1492025671519,1.14453588775173,1.1420227000973,1.13607073978245,1.13521633579871,1.14334990464868,1.14834587575637,1.14833529552873,1.15013681048758,1.13891275352728,1.14401588124296,1.20062369393663,1.22536245176513,1.22411797703933,1.19061970476678,1.19755317502482,1.20625162135564,1.19051591325855,1.18453116888582,1.17834252580494,1.20294186451126,1.22758482791404,1.22358785480209,1.23151250659049,1.25581380569369,1.25675847953125,1.25578421610887,1.26071635319628,1.26844590601833,1.27665876870901,1.29596786716453,1.29540658014676,1.4930914357756,1.49290708438293,1.49300247024951,1.48394184899533,1.49943807010973,1.39125936237503,1.40730598786053,1.37431331118253,1.37403850869614,1.36721408144291,1.36725787811706,1.38709586818982,1.38838940293858,1.38400066136914,1.38420998089699,1.38660515510239,1.37951765923451,1.38001861632916,1.55210584390096,1.55160916622371,1.55090853686176,1.47676284084717,1.54325194244829,1.55603217900788,1.54715024026169,1.51748860043587,1.52308190244644,1.55920031485979,1.58825070994217,1.52080455508035,1.52037277930982,1.51299360497263,1.53159921220876,1.47195722920376,1.54294412744238,1.51914236187012,1.47355952630504,1.46135824835738,1.44850078749639,1.42626037856498,1.40908449772003,1.3807759455727,1.3794609484481,1.37774286813336,1.37479668021997,1.37314927265021,1.37227869594489,1.36032700970266,1.35961773719296,1.35472790955904,1.3539986287907,1.35009011017307,1.3631264475512,1.36340287884476,1.36168240504675,1.36157099163698,1.35479333001786,1.35435486827034,1.36175077959602,1.36106544121969,1.35961026298871,1.35294504357056,1.36476451521209,1.29262723127362,1.3019410019512,1.27605209274917,1.25196140796155,1.23766477534732,1.21905098737622,1.21498259434407,1.19937351931739,1.1998536082445,1.18490622034423,1.18274331128236,1.18237843804172,1.1773506969147,1.19756586219546,1.17489762831927,1.16095787075501,1.16032145412271,1.09821086519841,1.09713972230922,1.10015638682318,1.07326737087932,1.0770869841192,1.04089437125181,1.04288603995634,1.00367860746007,1.01932262865169,0.968901271839716,0.981257791790969,0.981250610325932,0.964698414056552,0.973095049916177,0.993859690898534,0.939073352677815,0.940379389273882,0.916468910524326,0.91687201380531,0.91823404382166,0.897912287044052,0.910182830770876,0.896078559742954,0.928206955428207,0.925434455314917,0.999387016940746,0.932851529136452
