1.71712, 1.71038, 1.70774, 1.70426, 1.75625, 1.71629, 1.70341, 1.69795, 1.70588, 1.69621, 1.69723, 1.70692, 1.69258, 1.69167, 1.69009, 1.68365, 1.68279, 1.67703, 1.67501, 1.67595, 1.6968, 1.6723, 1.67082, 1.67354, 1.68268, 1.6732, 1.67204, 1.67296, 1.6894, 1.67716, 1.6754, 1.66325, 1.65712, 1.64471, 1.64551, 1.64429, 1.64708, 1.65102, 1.63666, 1.67268, 1.68729, 1.72122, 1.76132, 1.80632, 1.82665, 1.87603, 1.88507, 1.89377, 1.88892, 1.85934, 1.81386, 1.69038, 1.64352, 1.60568, 1.61606, 1.63477, 1.63249, 1.63047, 1.61985, 1.61678, 1.62825, 1.61028, 1.6227, 1.59777, 1.60287, 1.60373, 1.58482, 1.58698, 1.58929, 1.58925, 1.5903, 1.58885, 1.58579, 1.61556, 1.57971, 1.57908, 1.57248, 1.57309, 1.59828, 1.56862, 1.56997, 1.58631, 1.56479, 1.5779, 1.57068, 1.57228, 1.57814, 1.57699, 1.57981, 1.57151, 1.56922, 1.55937, 1.55437, 1.55331, 1.55962, 1.54781, 1.54582, 1.5432, 1.54196, 1.54041, 1.5387, 1.53713, 1.53549, 1.54299, 1.54098, 1.54322, 1.53337, 1.54222, 1.53026, 1.52839, 1.52738, 1.52419, 1.52967, 1.52087, 1.53425, 1.53905, 1.52721, 1.53403, 1.50823, 1.49613, 1.51687, 1.58503, 1.66454, 1.63368, 1.66785, 1.69491, 1.67984, 1.6876, 1.66961, 1.65518, 1.64788, 1.59017, 1.54729, 1.49349, 1.45711, 1.47787, 1.48426, 1.48644, 1.49662, 1.50299, 1.50686, 1.50874, 1.49264, 1.48414, 1.47848, 1.50678, 1.48577, 1.48691, 1.47776, 1.49202, 1.47189, 1.46417, 1.461, 1.45875, 1.4564, 1.45242, 1.45337, 1.45033, 1.44754, 1.4456, 1.4462, 1.44744, 1.45457, 1.4508, 1.45231, 1.45146, 1.45095, 1.44789, 1.44505, 1.44227, 1.43902, 1.43589, 1.43738, 1.4358, 1.42988, 1.44312, 1.46377, 1.42942, 1.42224, 1.42067, 1.42339, 1.4265, 1.41948, 1.41763, 1.43293, 1.41617, 1.42336, 1.41321, 1.41027, 1.41195, 1.40841, 1.40857, 1.40962, 1.40859, 1.40889, 1.41038, 1.40775, 1.40918, 1.41011, 1.40918, 1.4099, 1.40905, 1.40507, 1.40058, 1.40014, 1.40361, 1.40621, 1.42008, 1.39506, 1.39584, 1.39166, 1.39006, 1.39631, 1.3992, 1.39669, 1.41528, 1.38937, 1.37428, 1.37772, 1.42284, 1.41703, 1.45457, 1.46898, 1.50032, 1.58269, 1.52349, 1.55882, 1.55574, 1.54597, 1.52932, 1.50675, 1.47505, 1.42473, 1.37805, 1.34934, 1.36953, 1.3749, 1.3799, 1.37178, 1.37364
1.71973, 1.71482, 1.71619, 1.71644, 1.71115, 1.71074, 1.71066, 1.70802, 1.7062, 1.7055, 1.70441, 1.70375, 1.69554, 1.69317, 1.69171, 1.69678, 1.68465, 1.7067, 1.68147, 1.67894, 1.68059, 1.70274, 1.69187, 1.67268, 1.69242, 1.67418, 1.69679, 1.67577, 1.66932, 1.66833, 1.67422, 1.65626, 1.66201, 1.65217, 1.64391, 1.65192, 1.64352, 1.65076, 1.62316, 1.66504, 1.69162, 1.74102, 1.80888, 1.82737, 1.87503, 1.89913, 1.89612, 1.89423, 1.90625, 1.82637, 1.77334, 1.68041, 1.65935, 1.60256, 1.62394, 1.62752, 1.64101, 1.63848, 1.62355, 1.61839, 1.62161, 1.60875, 1.60724, 1.62586, 1.59872, 1.61303, 1.6071, 1.59191, 1.593, 1.58965, 1.58967, 1.58881, 1.58748, 1.58464, 1.58933, 1.5817, 1.57866, 1.58832, 1.5766, 1.57577, 1.57205, 1.57224, 1.57055, 1.57472, 1.58085, 1.58517, 1.58067, 1.58177, 1.5854, 1.56534, 1.56733, 1.56501, 1.55591, 1.55903, 1.54782, 1.54817, 1.56243, 1.54071, 1.55192, 1.55482, 1.53866, 1.54396, 1.53777, 1.53776, 1.55347, 1.5353, 1.53118, 1.54372, 1.52691, 1.52398, 1.52468, 1.52107, 1.52033, 1.52297, 1.52615, 1.53551, 1.53073, 1.52302, 1.51353, 1.50563, 1.52274, 1.56145, 1.59892, 1.63389, 1.638, 1.6723, 1.68656, 1.6833, 1.66886, 1.6509, 1.60351, 1.58341, 1.5859, 1.51934, 1.46127, 1.47442, 1.47907, 1.49042, 1.48893, 1.48808, 1.49884, 1.50329, 1.50348, 1.49337, 1.48649, 1.48427, 1.48163, 1.47924, 1.48359, 1.46826, 1.46496, 1.46266, 1.46159, 1.45756, 1.50374, 1.45296, 1.46071, 1.45093, 1.44803, 1.44942, 1.45174, 1.45059, 1.44973, 1.44777, 1.44917, 1.44778, 1.44631, 1.4436, 1.44216, 1.43776, 1.43678, 1.43746, 1.43794, 1.43602, 1.43382, 1.43965, 1.43208, 1.42939, 1.42916, 1.42815, 1.42807, 1.42725, 1.42371, 1.42363, 1.42229, 1.42107, 1.41773, 1.41604, 1.4138, 1.41389, 1.41219, 1.41322, 1.41231, 1.40928, 1.40809, 1.40772, 1.40631, 1.40701, 1.40652, 1.40631, 1.40461, 1.40353, 1.42266, 1.39924, 1.41043, 1.41669, 1.39552, 1.40596, 1.39493, 1.39479, 1.39538, 1.39247, 1.41405, 1.40551, 1.39925, 1.4129, 1.39176, 1.37792, 1.37835, 1.39825, 1.4086, 1.48662, 1.47721, 1.4887, 1.50589, 1.5097, 1.54405, 1.54666, 1.54825, 1.5377, 1.48265, 1.52977, 1.41574, 1.39496, 1.34791, 1.37522, 1.37436, 1.37872, 1.36829, 1.37335
1.71397, 1.71042, 1.70744, 1.70473, 1.70389, 1.70414, 1.7047, 1.7101, 1.70093, 1.6955, 1.69899, 1.69908, 1.69289, 1.68951, 1.68535, 1.68482, 1.69964, 1.69654, 1.6771, 1.68211, 1.67913, 1.67164, 1.66867, 1.67315, 1.66671, 1.66366, 1.66271, 1.65855, 1.66544, 1.66263, 1.65221, 1.66167, 1.65082, 1.65531, 1.65822, 1.64659, 1.63068, 1.66939, 1.63255, 1.66913, 1.70132, 1.74698, 1.78671, 1.79315, 1.81955, 1.84389, 1.85483, 1.86963, 1.86842, 1.82471, 1.75678, 1.71348, 1.63001, 1.60357, 1.62328, 1.62787, 1.62396, 1.61351, 1.62782, 1.61736, 1.60329, 1.60888, 1.6023, 1.59666, 1.61615, 1.59026, 1.58738, 1.58664, 1.58526, 1.58531, 1.58341, 1.58247, 1.58183, 1.5802, 1.57999, 1.57709, 1.57516, 1.57245, 1.59562, 1.5667, 1.56508, 1.56566, 1.57435, 1.56266, 1.56266, 1.56924, 1.56378, 1.58618, 1.5823, 1.5773, 1.56411, 1.56352, 1.56079, 1.54783, 1.54185, 1.5478, 1.55706, 1.55689, 1.53434, 1.54085, 1.54024, 1.53026, 1.52969, 1.52858, 1.52872, 1.52712, 1.52332, 1.52398, 1.53146, 1.5358, 1.52365, 1.51617, 1.51397, 1.51459, 1.52158, 1.53066, 1.51957, 1.52467, 1.5267, 1.48886, 1.53555, 1.56414, 1.59965, 1.61703, 1.63834, 1.65134, 1.65493, 1.6464, 1.64289, 1.6381, 1.62963, 1.60661, 1.56039, 1.52469, 1.44486, 1.46282, 1.4852, 1.48494, 1.4827, 1.47827, 1.48653, 1.50302, 1.50566, 1.49203, 1.48123, 1.47058, 1.47213, 1.46693, 1.46485, 1.47454, 1.4573, 1.45755, 1.47661, 1.48134, 1.4472, 1.4465, 1.44777, 1.44612, 1.45416, 1.44394, 1.44412, 1.44311, 1.44364, 1.44248, 1.44059, 1.49325, 1.43854, 1.43618, 1.4371, 1.43297, 1.43172, 1.43222, 1.43102, 1.43024, 1.43311, 1.42941, 1.42825, 1.4267, 1.42602, 1.4227, 1.43398, 1.42252, 1.42738, 1.41714, 1.42337, 1.41888, 1.41261, 1.41093, 1.40832, 1.40668, 1.40708, 1.40202, 1.4008, 1.40128, 1.40603, 1.41288, 1.39837, 1.39782, 1.39516, 1.42987, 1.39491, 1.39456, 1.39795, 1.3996, 1.39182, 1.40981, 1.39088, 1.38976, 1.3897, 1.38835, 1.39536, 1.40207, 1.38618, 1.38932, 1.3885, 1.38901, 1.40534, 1.3681, 1.38767, 1.40188, 1.48944, 1.48458, 1.46124, 1.49245, 1.53048, 1.52077, 1.52277, 1.5242, 1.51713, 1.50165, 1.51242, 1.45507, 1.409, 1.40595, 1.333, 1.36679, 1.36813, 1.3681, 1.37846, 1.37434
1.71119, 1.70843, 1.70547, 1.70427, 1.69973, 1.69924, 1.69734, 1.69557, 1.69094, 1.68943, 1.69134, 1.68691, 1.68524, 1.6834, 1.67968, 1.68227, 1.67471, 1.67869, 1.67232, 1.66906, 1.66994, 1.66809, 1.66561, 1.66527, 1.6645, 1.66282, 1.65944, 1.65591, 1.66134, 1.65066, 1.65042, 1.65602, 1.65483, 1.65432, 1.65008, 1.6436, 1.65507, 1.62055, 1.64154, 1.64825, 1.68646, 1.73132, 1.76484, 1.77997, 1.7988, 1.82638, 1.85377, 1.92112, 1.88875, 1.8474, 1.76141, 1.70421, 1.66083, 1.61147, 1.59927, 1.61321, 1.61328, 1.62763, 1.61067, 1.60488, 1.61272, 1.61433, 1.61373, 1.58929, 1.59231, 1.59051, 1.58252, 1.58867, 1.5856, 1.59911, 1.575, 1.57353, 1.58467, 1.57412, 1.57345, 1.57293, 1.57197, 1.56985, 1.5664, 1.56436, 1.56251, 1.56077, 1.5608, 1.55957, 1.5575, 1.55603, 1.56129, 1.54797, 1.57496, 1.57245, 1.58185, 1.55369, 1.54844, 1.5369, 1.53767, 1.53367, 1.53086, 1.52991, 1.53089, 1.54012, 1.52892, 1.52744, 1.52644, 1.5251, 1.52243, 1.52497, 1.52261, 1.52184, 1.51952, 1.51804, 1.52049, 1.52008, 1.51039, 1.51086, 1.51068, 1.51664, 1.52689, 1.51196, 1.51063, 1.48188, 1.5252, 1.55197, 1.58998, 1.58818, 1.63671, 1.64462, 1.64784, 1.64532, 1.63797, 1.63005, 1.60977, 1.60946, 1.55772, 1.489, 1.50953, 1.4528, 1.48257, 1.482, 1.48127, 1.47247, 1.47431, 1.4896, 1.4993, 1.4915, 1.4743, 1.46717, 1.47132, 1.45356, 1.45489, 1.45275, 1.45, 1.44539, 1.44353, 1.44041, 1.43972, 1.43935, 1.44034, 1.44247, 1.4424, 1.44298, 1.44301, 1.44158, 1.44074, 1.43948, 1.43671, 1.43646, 1.43429, 1.43493, 1.43617, 1.4333, 1.43267, 1.43655, 1.42614, 1.42465, 1.42326, 1.42102, 1.42228, 1.42173, 1.41918, 1.41695, 1.41501, 1.44533, 1.41259, 1.421, 1.40633, 1.40637, 1.40429, 1.40405, 1.40282, 1.40191, 1.40022, 1.39783, 1.39579, 1.39317, 1.39191, 1.39295, 1.39239, 1.39261, 1.39045, 1.38843, 1.38816, 1.38919, 1.39169, 1.39115, 1.38767, 1.38758, 1.4026, 1.38482, 1.39189, 1.38285, 1.38166, 1.39251, 1.39898, 1.39146, 1.393, 1.39809, 1.38133, 1.36781, 1.36847, 1.45971, 1.43582, 1.46126, 1.46112, 1.51273, 1.50193, 1.52111, 1.52291, 1.5369, 1.52618, 1.50722, 1.52952, 1.46573, 1.46041, 1.34557, 1.36092, 1.37087, 1.36942, 1.36859, 1.36679, 1.35763
1.71187, 1.70794, 1.70703, 1.70225, 1.70044, 1.69542, 1.69256, 1.69577, 1.68622, 1.68401, 1.69206, 1.679, 1.68189, 1.67939, 1.67697, 1.67433, 1.67293, 1.67103, 1.66719, 1.66601, 1.66832, 1.66681, 1.66537, 1.66556, 1.66382, 1.66176, 1.67358, 1.65298, 1.66596, 1.64935, 1.64431, 1.65173, 1.64352, 1.64248, 1.64362, 1.64726, 1.64675, 1.63803, 1.60803, 1.64518, 1.65826, 1.70865, 1.73604, 1.77741, 1.8031, 1.8072, 1.84755, 1.85209, 1.84441, 1.81446, 1.75301, 1.70189, 1.59756, 1.59998, 1.59635, 1.60676, 1.61978, 1.61233, 1.61646, 1.59919, 1.59629, 1.59343, 1.59526, 1.59177, 1.58156, 1.58192, 1.57614, 1.57404, 1.58458, 1.56969, 1.57782, 1.5638, 1.56236, 1.56316, 1.56512, 1.56592, 1.57037, 1.5637, 1.55949, 1.55559, 1.55364, 1.55221, 1.55406, 1.56181, 1.55486, 1.55914, 1.56526, 1.5527, 1.56129, 1.56746, 1.57701, 1.54427, 1.5446, 1.53502, 1.53994, 1.54007, 1.5275, 1.52704, 1.52577, 1.52362, 1.52319, 1.52177, 1.52274, 1.51844, 1.52641, 1.51622, 1.52442, 1.52428, 1.5162, 1.50942, 1.52122, 1.50469, 1.50304, 1.50601, 1.51297, 1.51253, 1.51443, 1.50969, 1.48811, 1.47304, 1.5301, 1.56001, 1.57164, 1.5896, 1.59779, 1.6236, 1.63705, 1.63745, 1.65532, 1.63806, 1.59259, 1.56962, 1.54705, 1.50075, 1.469, 1.45175, 1.46046, 1.47854, 1.48855, 1.47849, 1.48487, 1.48626, 1.4854, 1.49252, 1.47961, 1.4687, 1.46458, 1.45118, 1.45103, 1.45054, 1.47096, 1.44017, 1.44018, 1.43963, 1.44524, 1.43857, 1.44088, 1.43771, 1.4399, 1.44239, 1.44226, 1.4584, 1.44069, 1.43794, 1.43402, 1.43125, 1.42907, 1.42647, 1.42682, 1.43282, 1.42663, 1.42204, 1.41804, 1.41717, 1.41788, 1.41539, 1.41812, 1.41864, 1.41706, 1.40979, 1.40877, 1.40617, 1.40376, 1.40209, 1.39988, 1.39871, 1.39761, 1.39855, 1.39861, 1.39717, 1.39453, 1.39337, 1.39872, 1.38595, 1.38682, 1.39148, 1.38797, 1.38668, 1.385, 1.38385, 1.38238, 1.38795, 1.38494, 1.38716, 1.38202, 1.37926, 1.37895, 1.3813, 1.37525, 1.37485, 1.37423, 1.3749, 1.37413, 1.37959, 1.38309, 1.38316, 1.38664, 1.35741, 1.38801, 1.46079, 1.43117, 1.45749, 1.45572, 1.49258, 1.49635, 1.5166, 1.53332, 1.5498, 1.55717, 1.518, 1.49587, 1.49697, 1.45164, 1.37516, 1.3472, 1.34912, 1.3576, 1.36785, 1.36135, 1.35826
1.70351, 1.7012, 1.69873, 1.6997, 1.69411, 1.69087, 1.68735, 1.68684, 1.68501, 1.68122, 1.6787, 1.68176, 1.68141, 1.67354, 1.67148, 1.66782, 1.66588, 1.66315, 1.66203, 1.65944, 1.65958, 1.65839, 1.65738, 1.6618, 1.65449, 1.65257, 1.64894, 1.65848, 1.66577, 1.65085, 1.64775, 1.63654, 1.64713, 1.63987, 1.64194, 1.64241, 1.65256, 1.63418, 1.60958, 1.64048, 1.67183, 1.67989, 1.73569, 1.77818, 1.79044, 1.82326, 1.83837, 1.86331, 1.85932, 1.82471, 1.76791, 1.68899, 1.65877, 1.57684, 1.61001, 1.61271, 1.60734, 1.59735, 1.60656, 1.60596, 1.58999, 1.59553, 1.59018, 1.58902, 1.59231, 1.57587, 1.57475, 1.5715, 1.56798, 1.56548, 1.56272, 1.56141, 1.56141, 1.5578, 1.55746, 1.56041, 1.57326, 1.55641, 1.55383, 1.55242, 1.54947, 1.54723, 1.55015, 1.55178, 1.55377, 1.55105, 1.55037, 1.54847, 1.55538, 1.5621, 1.57972, 1.56179, 1.54806, 1.53692, 1.53627, 1.52924, 1.52802, 1.52796, 1.53364, 1.52118, 1.53059, 1.53458, 1.51626, 1.51573, 1.5123, 1.51061, 1.50749, 1.50903, 1.52069, 1.50329, 1.50926, 1.50268, 1.50538, 1.49637, 1.50397, 1.50554, 1.50567, 1.50531, 1.50271, 1.47218, 1.48382, 1.53795, 1.58168, 1.58207, 1.59472, 1.60622, 1.63364, 1.63496, 1.6328, 1.62102, 1.5886, 1.57173, 1.59554, 1.54804, 1.4984, 1.44514, 1.4756, 1.47169, 1.46652, 1.47449, 1.46846, 1.47537, 1.47879, 1.47477, 1.47179, 1.46982, 1.45811, 1.45752, 1.44584, 1.45127, 1.45841, 1.43946, 1.43801, 1.44013, 1.43631, 1.43685, 1.43637, 1.43669, 1.43686, 1.43775, 1.43633, 1.43673, 1.4338, 1.4339, 1.43217, 1.43039, 1.42568, 1.4245, 1.42287, 1.42202, 1.4365, 1.41753, 1.4156, 1.443, 1.41383, 1.42612, 1.41966, 1.42108, 1.41934, 1.41477, 1.40614, 1.40246, 1.40223, 1.39889, 1.39643, 1.3947, 1.39482, 1.39426, 1.39364, 1.39032, 1.38877, 1.38852, 1.38469, 1.38506, 1.3842, 1.38345, 1.38308, 1.38263, 1.38213, 1.38011, 1.38185, 1.37866, 1.38126, 1.38174, 1.38109, 1.37594, 1.37529, 1.37409, 1.37156, 1.36834, 1.36868, 1.38239, 1.37152, 1.38784, 1.38985, 1.39463, 1.39894, 1.36088, 1.37406, 1.39581, 1.42386, 1.43682, 1.4483, 1.47221, 1.48626, 1.52294, 1.53154, 1.54774, 1.55848, 1.54493, 1.52122, 1.49368, 1.43613, 1.40026, 1.33396, 1.35664, 1.35881, 1.36789, 1.36574, 1.3454
1.70202, 1.69906, 1.70226, 1.70318, 1.69371, 1.69433, 1.69043, 1.69608, 1.68629, 1.6834, 1.68377, 1.67569, 1.67544, 1.67255, 1.6693, 1.66877, 1.66532, 1.66357, 1.66319, 1.66726, 1.65807, 1.65858, 1.66011, 1.65487, 1.65174, 1.65043, 1.6483, 1.64511, 1.64378, 1.64254, 1.64473, 1.64569, 1.64251, 1.64385, 1.64339, 1.64108, 1.64405, 1.61284, 1.60085, 1.66835, 1.65789, 1.69784, 1.72806, 1.7759, 1.7926, 1.8085, 1.84323, 1.84402, 1.8794, 1.86579, 1.80256, 1.74675, 1.64132, 1.5961, 1.58588, 1.61309, 1.62839, 1.60187, 1.59534, 1.5911, 1.58649, 1.58277, 1.58197, 1.58135, 1.58112, 1.58059, 1.5818, 1.58783, 1.57399, 1.57265, 1.5729, 1.58231, 1.56242, 1.55955, 1.55821, 1.5571, 1.55562, 1.5561, 1.55647, 1.56531, 1.56742, 1.55096, 1.55204, 1.56521, 1.57238, 1.56219, 1.56227, 1.54876, 1.55095, 1.53512, 1.55434, 1.54334, 1.533, 1.54835, 1.54349, 1.53572, 1.5266, 1.52665, 1.52755, 1.52498, 1.52643, 1.52265, 1.51935, 1.51659, 1.5167, 1.51028, 1.51137, 1.50677, 1.51675, 1.50313, 1.50484, 1.53097, 1.52976, 1.51716, 1.51886, 1.51013, 1.50704, 1.51266, 1.49586, 1.47018, 1.50777, 1.5411, 1.58572, 1.5858, 1.61555, 1.65179, 1.63051, 1.63583, 1.6323, 1.60957, 1.59245, 1.5677, 1.54439, 1.49974, 1.49313, 1.4443, 1.46112, 1.47953, 1.47212, 1.47569, 1.46551, 1.45873, 1.48184, 1.47965, 1.4787, 1.46691, 1.4432, 1.46057, 1.45318, 1.44058, 1.44672, 1.44705, 1.44084, 1.44101, 1.44074, 1.46414, 1.44352, 1.43981, 1.44033, 1.44017, 1.4371, 1.4357, 1.43473, 1.43315, 1.44125, 1.4319, 1.43002, 1.42995, 1.43666, 1.42616, 1.4243, 1.42287, 1.42634, 1.41915, 1.44456, 1.42085, 1.42188, 1.42247, 1.42217, 1.41878, 1.41308, 1.40849, 1.41462, 1.40323, 1.40292, 1.40251, 1.4004, 1.39897, 1.39638, 1.39578, 1.39366, 1.39292, 1.38988, 1.39017, 1.38696, 1.38626, 1.38644, 1.38796, 1.40559, 1.38633, 1.38666, 1.38782, 1.39279, 1.38977, 1.38181, 1.38492, 1.37861, 1.3784, 1.38491, 1.38873, 1.3854, 1.37259, 1.38752, 1.38911, 1.393, 1.38623, 1.39858, 1.3401, 1.35556, 1.40954, 1.41684, 1.44008, 1.44303, 1.49716, 1.4963, 1.56907, 1.57856, 1.54945, 1.64409, 1.53555, 1.50969, 1.48723, 1.42406, 1.38403, 1.35408, 1.3567, 1.37231, 1.37749, 1.36274, 1.35448
1.71036, 1.70335, 1.69913, 1.72852, 1.71344, 1.71224, 1.69207, 1.69026, 1.68976, 1.68598, 1.69124, 1.6814, 1.68136, 1.68016, 1.67708, 1.67661, 1.67392, 1.67179, 1.67126, 1.6702, 1.67426, 1.67462, 1.66144, 1.65965, 1.66541, 1.66915, 1.65245, 1.65942, 1.66427, 1.67634, 1.64582, 1.65145, 1.65238, 1.64859, 1.64664, 1.65567, 1.63905, 1.63, 1.6107, 1.64765, 1.67087, 1.66619, 1.71319, 1.75514, 1.79116, 1.84082, 1.84175, 1.87939, 1.88187, 1.85196, 1.76429, 1.72125, 1.65042, 1.58577, 1.61016, 1.61882, 1.60636, 1.615, 1.61973, 1.60191, 1.59174, 1.58979, 1.58815, 1.5924, 1.59988, 1.60032, 1.58466, 1.58139, 1.59599, 1.57776, 1.5827, 1.57926, 1.56865, 1.56591, 1.56737, 1.58595, 1.60074, 1.5589, 1.55818, 1.55614, 1.56174, 1.55435, 1.551, 1.5561, 1.55749, 1.54754, 1.54415, 1.54169, 1.5476, 1.54881, 1.55111, 1.55809, 1.55703, 1.54022, 1.53192, 1.53502, 1.53198, 1.53106, 1.53545, 1.52637, 1.53648, 1.52426, 1.52078, 1.52578, 1.52282, 1.51342, 1.51937, 1.50933, 1.50645, 1.53469, 1.5042, 1.53091, 1.50963, 1.51638, 1.51212, 1.5092, 1.52068, 1.51115, 1.49637, 1.46999, 1.47686, 1.51307, 1.58338, 1.60485, 1.60841, 1.64588, 1.65246, 1.65139, 1.61742, 1.59777, 1.58561, 1.57313, 1.5477, 1.49934, 1.45507, 1.44136, 1.47468, 1.47576, 1.48942, 1.48685, 1.47562, 1.46151, 1.47816, 1.47498, 1.47564, 1.46211, 1.45712, 1.46106, 1.45805, 1.44517, 1.46592, 1.45689, 1.46092, 1.4449, 1.44334, 1.45788, 1.45138, 1.44019, 1.47893, 1.43946, 1.43654, 1.43495, 1.43379, 1.43302, 1.44004, 1.43289, 1.42959, 1.42956, 1.43682, 1.42675, 1.42433, 1.43343, 1.42156, 1.4239, 1.42668, 1.42106, 1.41769, 1.41787, 1.418, 1.41508, 1.41304, 1.42314, 1.40732, 1.40554, 1.40493, 1.40231, 1.406, 1.399, 1.39811, 1.39524, 1.39738, 1.39482, 1.39365, 1.39206, 1.38894, 1.3892, 1.38859, 1.3885, 1.3882, 1.38706, 1.3885, 1.38866, 1.38316, 1.3961, 1.41621, 1.37946, 1.39895, 1.39584, 1.40554, 1.37813, 1.37974, 1.37434, 1.3859, 1.38502, 1.38234, 1.37462, 1.35063, 1.34362, 1.3885, 1.37839, 1.39343, 1.44008, 1.46201, 1.48114, 1.50188, 1.51792, 1.52836, 1.54798, 1.56077, 1.55985, 1.51579, 1.51615, 1.46888, 1.40044, 1.334, 1.364, 1.36071, 1.35864, 1.36623, 1.36815
1.73462, 1.69824, 1.69688, 1.71978, 1.69286, 1.68831, 1.70278, 1.68573, 1.68395, 1.68282, 1.6853, 1.68655, 1.68001, 1.6769, 1.67589, 1.68654, 1.67407, 1.67243, 1.66983, 1.67341, 1.72488, 1.66169, 1.65886, 1.65535, 1.67293, 1.66936, 1.66213, 1.65865, 1.65156, 1.64271, 1.64572, 1.65806, 1.63869, 1.65831, 1.64251, 1.6381, 1.64431, 1.6281, 1.61948, 1.6381, 1.66453, 1.69133, 1.70367, 1.75431, 1.7825, 1.80873, 1.86797, 1.86149, 1.85915, 1.83675, 1.74635, 1.6931, 1.65509, 1.60082, 1.58935, 1.62321, 1.61448, 1.61602, 1.59627, 1.60884, 1.5907, 1.60102, 1.59979, 1.58996, 1.58104, 1.58476, 1.58349, 1.59385, 1.57301, 1.57206, 1.58912, 1.56764, 1.56482, 1.56767, 1.55974, 1.55836, 1.55553, 1.55365, 1.55236, 1.55025, 1.54844, 1.546, 1.55202, 1.55902, 1.54016, 1.55325, 1.55617, 1.54062, 1.53656, 1.54157, 1.53057, 1.55051, 1.54562, 1.54844, 1.53706, 1.54757, 1.5438, 1.52783, 1.52979, 1.53504, 1.52476, 1.5367, 1.51703, 1.5103, 1.51556, 1.51624, 1.50373, 1.52575, 1.50238, 1.52237, 1.52598, 1.51973, 1.5092, 1.52452, 1.50759, 1.5097, 1.52028, 1.49935, 1.4892, 1.46848, 1.49834, 1.52382, 1.54556, 1.58003, 1.62188, 1.66366, 1.65235, 1.64464, 1.64002, 1.61306, 1.57953, 1.56847, 1.54842, 1.4809, 1.48191, 1.42719, 1.45223, 1.4777, 1.48311, 1.46893, 1.4656, 1.47247, 1.47066, 1.47516, 1.47686, 1.47544, 1.45658, 1.44728, 1.45454, 1.45893, 1.4593, 1.44563, 1.45108, 1.43986, 1.45311, 1.44085, 1.43747, 1.43969, 1.43465, 1.43352, 1.43023, 1.42544, 1.42342, 1.42234, 1.42351, 1.42231, 1.43408, 1.42154, 1.4209, 1.43664, 1.42008, 1.41936, 1.41718, 1.4197, 1.41226, 1.4109, 1.41688, 1.40908, 1.40721, 1.40742, 1.40602, 1.41623, 1.40088, 1.40002, 1.40812, 1.39554, 1.39212, 1.38938, 1.38899, 1.38753, 1.38682, 1.38767, 1.38597, 1.38392, 1.38395, 1.39195, 1.38146, 1.38103, 1.37956, 1.3777, 1.43022, 1.37936, 1.37495, 1.37321, 1.39928, 1.36863, 1.37457, 1.37821, 1.36667, 1.37921, 1.38294, 1.376, 1.37086, 1.37428, 1.37028, 1.37411, 1.36758, 1.32663, 1.33225, 1.34295, 1.38756, 1.4295, 1.45116, 1.3854, 1.39526, 1.5132, 1.5337, 1.55307, 1.5713, 1.5643, 1.50259, 1.50681, 1.45079, 1.35809, 1.36068, 1.34083, 1.35018, 1.35862, 1.36432, 1.35422
1.69379, 1.70038, 1.68577, 1.6821, 1.67669, 1.67403, 1.67006, 1.67145, 1.67491, 1.67342, 1.67189, 1.67197, 1.67208, 1.68549, 1.66597, 1.66545, 1.6732, 1.6622, 1.65748, 1.65567, 1.65516, 1.66809, 1.66826, 1.65138, 1.64627, 1.6428, 1.63897, 1.64456, 1.63447, 1.63133, 1.63065, 1.62755, 1.62681, 1.63422, 1.63045, 1.62292, 1.62393, 1.61977, 1.60245, 1.61776, 1.62507, 1.66949, 1.69991, 1.72808, 1.76946, 1.79699, 1.84169, 1.86718, 1.8895, 1.84167, 1.79285, 1.73321, 1.67967, 1.5717, 1.56213, 1.59191, 1.59259, 1.60224, 1.58911, 1.59365, 1.58615, 1.58259, 1.5863, 1.57096, 1.5714, 1.56803, 1.56643, 1.56717, 1.56475, 1.56189, 1.56142, 1.55977, 1.55788, 1.55619, 1.5541, 1.55416, 1.55041, 1.55025, 1.54718, 1.54792, 1.54329, 1.55203, 1.53774, 1.55107, 1.53317, 1.53193, 1.53014, 1.52721, 1.53979, 1.52497, 1.52351, 1.52587, 1.5504, 1.55544, 1.54034, 1.5324, 1.52983, 1.51513, 1.53839, 1.51293, 1.51001, 1.50672, 1.50559, 1.50319, 1.5018, 1.49947, 1.49773, 1.49729, 1.49513, 1.49382, 1.49166, 1.48983, 1.48788, 1.48801, 1.48785, 1.50863, 1.4989, 1.49584, 1.49646, 1.46504, 1.48502, 1.54438, 1.54791, 1.57858, 1.61286, 1.61615, 1.62988, 1.62337, 1.61984, 1.63903, 1.60694, 1.58388, 1.55575, 1.51347, 1.47553, 1.44426, 1.44511, 1.4671, 1.4822, 1.47128, 1.4689, 1.46114, 1.45676, 1.46945, 1.47067, 1.48205, 1.48476, 1.45005, 1.4387, 1.43806, 1.43665, 1.43985, 1.43162, 1.42967, 1.42992, 1.42939, 1.42784, 1.42793, 1.42539, 1.42389, 1.42209, 1.41994, 1.41853, 1.42709, 1.41353, 1.41473, 1.41247, 1.40967, 1.40886, 1.417, 1.40687, 1.40623, 1.40333, 1.40106, 1.40204, 1.39963, 1.3987, 1.39584, 1.39459, 1.39323, 1.38994, 1.39064, 1.39, 1.38966, 1.38674, 1.38824, 1.38611, 1.38562, 1.38527, 1.38269, 1.38174, 1.37992, 1.37856, 1.3774, 1.37747, 1.37303, 1.37238, 1.37242, 1.37043, 1.3705, 1.3688, 1.37162, 1.36527, 1.36722, 1.36457, 1.36236, 1.36322, 1.36177, 1.35803, 1.35668, 1.35714, 1.35672, 1.35633, 1.35586, 1.37852, 1.3604, 1.34245, 1.33424, 1.36131, 1.3759, 1.38874, 1.39938, 1.41309, 1.46299, 1.45794, 1.51388, 1.52261, 1.51578, 1.54205, 1.54487, 1.558, 1.46301, 1.42199, 1.37614, 1.32127, 1.33738, 1.3399, 1.33687, 1.34831, 1.33381
1.68186, 1.68158, 1.68213, 1.67653, 1.67181, 1.66662, 1.66694, 1.66993, 1.67066, 1.67183, 1.68898, 1.67442, 1.67492, 1.66723, 1.66438, 1.66344, 1.65925, 1.65895, 1.65637, 1.65117, 1.64983, 1.64923, 1.64756, 1.64586, 1.64332, 1.64202, 1.63903, 1.63668, 1.63242, 1.63039, 1.6277, 1.63655, 1.61991, 1.63604, 1.6328, 1.61688, 1.61656, 1.61036, 1.59614, 1.61371, 1.63992, 1.69036, 1.71459, 1.75499, 1.77219, 1.81576, 1.85508, 1.87764, 1.89223, 1.89024, 1.75657, 1.76543, 1.65682, 1.59011, 1.57201, 1.58941, 1.59118, 1.58093, 1.57879, 1.59193, 1.59648, 1.5752, 1.57856, 1.5723, 1.57146, 1.56946, 1.5898, 1.56477, 1.5632, 1.56878, 1.56112, 1.56086, 1.60142, 1.56035, 1.5576, 1.55493, 1.56173, 1.55193, 1.54926, 1.54746, 1.54447, 1.55104, 1.53888, 1.54419, 1.53475, 1.53079, 1.52779, 1.53798, 1.52643, 1.51967, 1.52629, 1.53615, 1.53721, 1.54191, 1.53717, 1.52438, 1.53099, 1.51812, 1.51981, 1.513, 1.512, 1.50608, 1.50843, 1.50202, 1.50012, 1.50006, 1.49794, 1.49656, 1.49413, 1.49533, 1.4918, 1.48955, 1.48954, 1.48909, 1.48925, 1.4961, 1.49547, 1.49184, 1.47918, 1.46022, 1.48915, 1.53741, 1.60267, 1.57892, 1.66161, 1.6346, 1.64132, 1.62511, 1.63422, 1.62862, 1.57636, 1.56888, 1.56561, 1.51959, 1.48891, 1.42692, 1.45725, 1.4618, 1.46346, 1.46436, 1.46818, 1.4549, 1.45381, 1.45652, 1.46564, 1.48017, 1.46498, 1.4405, 1.4362, 1.44818, 1.43929, 1.43037, 1.43082, 1.43725, 1.43006, 1.42718, 1.42309, 1.42301, 1.42074, 1.42035, 1.41744, 1.41547, 1.41412, 1.41202, 1.41093, 1.40916, 1.40879, 1.40839, 1.40863, 1.40544, 1.40377, 1.4025, 1.4018, 1.39922, 1.39818, 1.39223, 1.39153, 1.38916, 1.38881, 1.38711, 1.38895, 1.38812, 1.38763, 1.38834, 1.38839, 1.38815, 1.38793, 1.38632, 1.38507, 1.38273, 1.38036, 1.37794, 1.37542, 1.37555, 1.3762, 1.37281, 1.37363, 1.37041, 1.37058, 1.36761, 1.36803, 1.36683, 1.36368, 1.36207, 1.36106, 1.36041, 1.36075, 1.35787, 1.35748, 1.35635, 1.36027, 1.35655, 1.35596, 1.35434, 1.35546, 1.361, 1.363, 1.36449, 1.33825, 1.35733, 1.42283, 1.41703, 1.46427, 1.47845, 1.48587, 1.48287, 1.51522, 1.54336, 1.54472, 1.52717, 1.5089, 1.52393, 1.46474, 1.38125, 1.32966, 1.33472, 1.33654, 1.34709, 1.34072, 1.33319
1.68407, 1.67973, 1.67683, 1.67241, 1.67169, 1.66702, 1.66771, 1.67164, 1.67017, 1.66998, 1.66647, 1.66639, 1.66653, 1.66569, 1.66553, 1.66098, 1.65757, 1.65661, 1.65467, 1.65286, 1.65113, 1.65236, 1.64449, 1.64357, 1.64, 1.63881, 1.63522, 1.63155, 1.62881, 1.62967, 1.62327, 1.62216, 1.62942, 1.62498, 1.61444, 1.62613, 1.61895, 1.60171, 1.57466, 1.59115, 1.60363, 1.611, 1.64768, 1.73018, 1.76679, 1.79369, 1.84288, 1.84696, 1.86861, 1.84834, 1.79713, 1.72106, 1.61965, 1.56705, 1.58231, 1.59648, 1.59977, 1.59206, 1.58149, 1.5931, 1.58865, 1.57466, 1.57248, 1.56948, 1.56871, 1.56565, 1.56485, 1.56837, 1.56109, 1.56009, 1.55752, 1.55626, 1.55472, 1.5544, 1.55288, 1.55182, 1.55077, 1.54833, 1.5471, 1.54364, 1.54182, 1.53974, 1.53545, 1.53273, 1.53062, 1.53399, 1.53549, 1.53885, 1.52397, 1.51651, 1.51569, 1.51741, 1.55076, 1.5269, 1.53561, 1.5307, 1.51486, 1.52643, 1.52959, 1.52341, 1.50998, 1.52127, 1.50247, 1.50234, 1.50234, 1.50078, 1.4995, 1.49801, 1.49632, 1.49607, 1.49351, 1.49856, 1.49596, 1.50322, 1.49459, 1.49066, 1.49289, 1.50086, 1.4991, 1.4747, 1.46492, 1.48847, 1.53073, 1.573, 1.6135, 1.66568, 1.64502, 1.64114, 1.62794, 1.6223, 1.54394, 1.54313, 1.53432, 1.53997, 1.46898, 1.46002, 1.45616, 1.45825, 1.45972, 1.45524, 1.4521, 1.44807, 1.4677, 1.44919, 1.45129, 1.46406, 1.46545, 1.4503, 1.44794, 1.43345, 1.43312, 1.43049, 1.42771, 1.42633, 1.42556, 1.42562, 1.4239, 1.42226, 1.41966, 1.41868, 1.41542, 1.4131, 1.41188, 1.41036, 1.40893, 1.40656, 1.40575, 1.40555, 1.40392, 1.40221, 1.40121, 1.39996, 1.40047, 1.39872, 1.3949, 1.39344, 1.39191, 1.38984, 1.38867, 1.3878, 1.39026, 1.38883, 1.38847, 1.38844, 1.38781, 1.3863, 1.38595, 1.38317, 1.38145, 1.37923, 1.37795, 1.37981, 1.37726, 1.37308, 1.37907, 1.37483, 1.37127, 1.36785, 1.36716, 1.36666, 1.36563, 1.38154, 1.36226, 1.36091, 1.36348, 1.36337, 1.35723, 1.35603, 1.35454, 1.35441, 1.35247, 1.35105, 1.35057, 1.35722, 1.35807, 1.3547, 1.36126, 1.36052, 1.35136, 1.37385, 1.40507, 1.41651, 1.47996, 1.57233, 1.52783, 1.54317, 1.55347, 1.55202, 1.54465, 1.54341, 1.51505, 1.4879, 1.40479, 1.40613, 1.30037, 1.30258, 1.33422, 1.34391, 1.34083, 1.32591
1.68182, 1.68065, 1.67851, 1.67298, 1.67229, 1.67234, 1.67135, 1.67207, 1.66859, 1.66804, 1.66685, 1.66576, 1.66281, 1.66058, 1.6611, 1.68927, 1.65595, 1.65233, 1.65902, 1.64864, 1.64788, 1.64725, 1.64328, 1.64081, 1.64112, 1.6366, 1.64809, 1.63147, 1.62855, 1.63385, 1.62747, 1.62344, 1.63135, 1.62382, 1.61518, 1.62261, 1.61692, 1.60069, 1.58583, 1.58039, 1.6735, 1.63747, 1.69547, 1.727, 1.79177, 1.79696, 1.89232, 1.90042, 1.86868, 1.86837, 1.77602, 1.72688, 1.65532, 1.59189, 1.56737, 1.58705, 1.59289, 1.58553, 1.57996, 1.58412, 1.57634, 1.5751, 1.57151, 1.58041, 1.56648, 1.58167, 1.56624, 1.56221, 1.56008, 1.55895, 1.55861, 1.55694, 1.55592, 1.55457, 1.55292, 1.55185, 1.55139, 1.54909, 1.54556, 1.54276, 1.53904, 1.54188, 1.53603, 1.53295, 1.53177, 1.52844, 1.52683, 1.52449, 1.52913, 1.52074, 1.53214, 1.51978, 1.53323, 1.52185, 1.53348, 1.53093, 1.52468, 1.51673, 1.51705, 1.51027, 1.50904, 1.50638, 1.50585, 1.50455, 1.51018, 1.50416, 1.50294, 1.50241, 1.49852, 1.49592, 1.49497, 1.4948, 1.49226, 1.49079, 1.49169, 1.50919, 1.50972, 1.50425, 1.4921, 1.46815, 1.48088, 1.48955, 1.52733, 1.54489, 1.57283, 1.61516, 1.62766, 1.62706, 1.6078, 1.60199, 1.62153, 1.59189, 1.55313, 1.52383, 1.4746, 1.44376, 1.43652, 1.46295, 1.4719, 1.459, 1.45612, 1.4512, 1.45759, 1.45095, 1.45942, 1.4649, 1.47519, 1.47061, 1.4648, 1.44318, 1.43429, 1.43285, 1.43184, 1.43128, 1.42996, 1.43476, 1.43026, 1.41835, 1.41902, 1.41879, 1.41656, 1.4171, 1.41445, 1.41458, 1.41028, 1.40904, 1.40662, 1.40612, 1.40504, 1.40228, 1.40243, 1.40146, 1.39956, 1.39881, 1.39658, 1.39589, 1.39576, 1.39485, 1.39481, 1.39215, 1.39134, 1.38994, 1.39042, 1.38955, 1.38914, 1.38805, 1.38545, 1.38445, 1.38307, 1.38139, 1.38124, 1.38098, 1.377, 1.37534, 1.37245, 1.36997, 1.36893, 1.36604, 1.3671, 1.36409, 1.36434, 1.36385, 1.36151, 1.36355, 1.36116, 1.36087, 1.35855, 1.35633, 1.35727, 1.36455, 1.35459, 1.35518, 1.35417, 1.35351, 1.36611, 1.35551, 1.36074, 1.34017, 1.34743, 1.39041, 1.42719, 1.45096, 1.45873, 1.46578, 1.49187, 1.51413, 1.52879, 1.52849, 1.52888, 1.52421, 1.50365, 1.46584, 1.4151, 1.37836, 1.33335, 1.31345, 1.33181, 1.33705, 1.33066, 1.34485
1.68411, 1.68169, 1.68028, 1.68131, 1.67584, 1.67517, 1.67403, 1.67227, 1.66964, 1.66818, 1.66666, 1.6629, 1.66106, 1.6569, 1.65404, 1.6536, 1.65099, 1.64808, 1.6479, 1.64438, 1.64294, 1.64049, 1.63757, 1.63622, 1.63248, 1.63172, 1.63003, 1.62819, 1.62697, 1.62564, 1.623, 1.62212, 1.62287, 1.61844, 1.61998, 1.62454, 1.61981, 1.6121, 1.59676, 1.60778, 1.64533, 1.67924, 1.70666, 1.74883, 1.80278, 1.83063, 1.87726, 1.93824, 1.88907, 1.89364, 1.77879, 1.74801, 1.65415, 1.57969, 1.57061, 1.584, 1.58708, 1.59038, 1.58157, 1.57777, 1.57462, 1.57412, 1.57146, 1.5698, 1.56703, 1.56515, 1.56244, 1.56049, 1.5581, 1.55764, 1.55606, 1.55447, 1.55283, 1.55082, 1.55034, 1.55054, 1.54984, 1.54832, 1.54591, 1.54362, 1.54382, 1.54332, 1.53492, 1.53296, 1.54074, 1.52859, 1.53509, 1.53332, 1.5229, 1.52206, 1.52147, 1.52183, 1.51575, 1.53775, 1.54173, 1.54774, 1.52991, 1.52027, 1.51146, 1.50952, 1.50863, 1.51121, 1.50826, 1.50629, 1.50498, 1.50381, 1.50252, 1.50188, 1.50168, 1.51945, 1.49827, 1.50388, 1.494, 1.49036, 1.48983, 1.49358, 1.49697, 1.49937, 1.49049, 1.45834, 1.48415, 1.49057, 1.51336, 1.56217, 1.59623, 1.62018, 1.61011, 1.6139, 1.66128, 1.61635, 1.59663, 1.58862, 1.53809, 1.55238, 1.50998, 1.48208, 1.44277, 1.47057, 1.4647, 1.46046, 1.46308, 1.47481, 1.45082, 1.4587, 1.45733, 1.46417, 1.46933, 1.45718, 1.44799, 1.43516, 1.43803, 1.43477, 1.43227, 1.42869, 1.42926, 1.42616, 1.4439, 1.42278, 1.42168, 1.41971, 1.41915, 1.41679, 1.4162, 1.41423, 1.41232, 1.41051, 1.41133, 1.40964, 1.40642, 1.40697, 1.40564, 1.40927, 1.40478, 1.40231, 1.40097, 1.40235, 1.40037, 1.39943, 1.41875, 1.39657, 1.39682, 1.39497, 1.39478, 1.40905, 1.39342, 1.39262, 1.39041, 1.38924, 1.38714, 1.38523, 1.38277, 1.38038, 1.37989, 1.38195, 1.37292, 1.37142, 1.37191, 1.37069, 1.36962, 1.36827, 1.36893, 1.37009, 1.36496, 1.36694, 1.36636, 1.36238, 1.36127, 1.36884, 1.3585, 1.36001, 1.35844, 1.35734, 1.35565, 1.36256, 1.37097, 1.36508, 1.3688, 1.34424, 1.3466, 1.3457, 1.37882, 1.43075, 1.46526, 1.46424, 1.47786, 1.50542, 1.50658, 1.52469, 1.52854, 1.54158, 1.51371, 1.47054, 1.41142, 1.36685, 1.33262, 1.3132, 1.3328, 1.33575, 1.34353, 1.32577
1.68222, 1.68172, 1.67856, 1.67609, 1.67642, 1.67517, 1.67331, 1.6711, 1.66991, 1.66643, 1.6658, 1.66838, 1.66159, 1.65837, 1.65523, 1.65128, 1.65047, 1.64375, 1.64242, 1.63971, 1.63709, 1.63611, 1.63268, 1.63134, 1.63084, 1.63037, 1.62873, 1.6345, 1.62506, 1.62426, 1.62345, 1.62353, 1.62193, 1.62136, 1.62789, 1.6334, 1.62032, 1.62359, 1.60558, 1.60533, 1.6408, 1.69758, 1.70463, 1.7445, 1.78866, 1.82688, 1.85913, 1.90044, 1.88892, 1.94541, 1.80626, 1.73428, 1.62981, 1.56736, 1.58979, 1.601, 1.59846, 1.58681, 1.59548, 1.58028, 1.57649, 1.57432, 1.57077, 1.56766, 1.56482, 1.56191, 1.56832, 1.55758, 1.55586, 1.55413, 1.55188, 1.5505, 1.56117, 1.54293, 1.54255, 1.54591, 1.54702, 1.54672, 1.54493, 1.5429, 1.53966, 1.53526, 1.53504, 1.53373, 1.54151, 1.54752, 1.52938, 1.52886, 1.52602, 1.5249, 1.52255, 1.54321, 1.5199, 1.51768, 1.53799, 1.54165, 1.53742, 1.52002, 1.51207, 1.53066, 1.50903, 1.50968, 1.50663, 1.5056, 1.50476, 1.50381, 1.50278, 1.50249, 1.50196, 1.49986, 1.49738, 1.49531, 1.49198, 1.49128, 1.49072, 1.49313, 1.49244, 1.49213, 1.48901, 1.46348, 1.48181, 1.49535, 1.50598, 1.52733, 1.54683, 1.59595, 1.60155, 1.61748, 1.6201, 1.67983, 1.60279, 1.58162, 1.55462, 1.53191, 1.48129, 1.45098, 1.44106, 1.46851, 1.46574, 1.46794, 1.45222, 1.44718, 1.45351, 1.44727, 1.45145, 1.4539, 1.46451, 1.45371, 1.45837, 1.4445, 1.43753, 1.43497, 1.43591, 1.43791, 1.42868, 1.43648, 1.4261, 1.42658, 1.43277, 1.41984, 1.45438, 1.43639, 1.41832, 1.42282, 1.45537, 1.41392, 1.41161, 1.40994, 1.40793, 1.40866, 1.40842, 1.40593, 1.40499, 1.4141, 1.40251, 1.40109, 1.40066, 1.40052, 1.39882, 1.39885, 1.39348, 1.39568, 1.39496, 1.39511, 1.39912, 1.39279, 1.39236, 1.3888, 1.38687, 1.38625, 1.38352, 1.38419, 1.37939, 1.40379, 1.37722, 1.37419, 1.37491, 1.37406, 1.3735, 1.37112, 1.37101, 1.37067, 1.37051, 1.36771, 1.36526, 1.36467, 1.36436, 1.38032, 1.3646, 1.35939, 1.37109, 1.37776, 1.3566, 1.37192, 1.38152, 1.37032, 1.36768, 1.36894, 1.35187, 1.35288, 1.38585, 1.42273, 1.44242, 1.45754, 1.47585, 1.49591, 1.52666, 1.5441, 1.53866, 1.53671, 1.51046, 1.50655, 1.43674, 1.35397, 1.33571, 1.30623, 1.33772, 1.34122, 1.34012, 1.3258
1.68029, 1.68175, 1.67845, 1.67514, 1.67455, 1.67244, 1.6736, 1.66507, 1.66411, 1.6642, 1.66503, 1.66158, 1.65982, 1.65502, 1.65064, 1.64785, 1.64504, 1.64162, 1.63894, 1.63797, 1.63636, 1.63449, 1.63242, 1.62922, 1.62684, 1.62732, 1.62653, 1.62638, 1.6207, 1.62323, 1.62459, 1.63353, 1.62349, 1.62233, 1.64302, 1.62408, 1.63222, 1.63085, 1.6064, 1.60628, 1.64072, 1.65577, 1.71324, 1.74153, 1.77121, 1.81517, 1.85922, 1.87188, 1.87574, 1.86471, 1.83078, 1.72168, 1.62958, 1.58942, 1.5639, 1.58581, 1.58378, 1.59192, 1.5961, 1.58854, 1.57446, 1.56757, 1.57116, 1.57923, 1.56263, 1.56065, 1.57258, 1.5551, 1.55563, 1.55029, 1.5489, 1.5452, 1.55048, 1.54036, 1.54101, 1.5443, 1.54538, 1.54552, 1.54353, 1.53942, 1.53752, 1.53509, 1.53315, 1.53071, 1.52976, 1.5265, 1.52585, 1.52266, 1.52147, 1.52034, 1.52712, 1.52123, 1.52408, 1.52327, 1.53106, 1.52418, 1.52936, 1.53381, 1.50789, 1.50551, 1.50467, 1.50295, 1.51749, 1.50117, 1.50044, 1.49946, 1.50565, 1.49292, 1.49241, 1.50549, 1.49105, 1.48946, 1.48819, 1.48575, 1.4937, 1.48847, 1.49135, 1.49958, 1.49149, 1.46841, 1.46381, 1.52262, 1.52082, 1.52651, 1.52644, 1.58571, 1.60964, 1.6026, 1.60014, 1.59926, 1.59423, 1.60304, 1.54866, 1.51677, 1.47084, 1.45462, 1.42352, 1.45352, 1.45375, 1.46514, 1.44686, 1.44211, 1.44017, 1.44159, 1.44042, 1.45808, 1.46523, 1.46569, 1.44478, 1.43525, 1.44186, 1.42834, 1.42644, 1.42466, 1.42154, 1.42627, 1.41953, 1.4171, 1.41678, 1.41662, 1.41608, 1.41815, 1.42029, 1.4183, 1.41597, 1.41486, 1.4093, 1.40717, 1.40572, 1.40347, 1.4049, 1.4169, 1.42003, 1.41479, 1.40121, 1.40072, 1.40167, 1.40094, 1.40043, 1.39932, 1.39619, 1.39588, 1.39645, 1.392, 1.39198, 1.38936, 1.38812, 1.38763, 1.38525, 1.38302, 1.38144, 1.37934, 1.37848, 1.37758, 1.37414, 1.37097, 1.37217, 1.36936, 1.37733, 1.36819, 1.36695, 1.36589, 1.36502, 1.36345, 1.3616, 1.3594, 1.35823, 1.38211, 1.36326, 1.35865, 1.36034, 1.35415, 1.35707, 1.36121, 1.36133, 1.37844, 1.37211, 1.35625, 1.33637, 1.37369, 1.42634, 1.44692, 1.4494, 1.4662, 1.50611, 1.50366, 1.5336, 1.55015, 1.55157, 1.53692, 1.52003, 1.46168, 1.42367, 1.38198, 1.3407, 1.30641, 1.34993, 1.32998, 1.34093, 1.32307
1.6785, 1.67831, 1.67942, 1.686, 1.67505, 1.66836, 1.66813, 1.66552, 1.66323, 1.66197, 1.6619, 1.66197, 1.65857, 1.65314, 1.65107, 1.64723, 1.64613, 1.64293, 1.63906, 1.63915, 1.64157, 1.64043, 1.64357, 1.63222, 1.62755, 1.62358, 1.62415, 1.62718, 1.63727, 1.6207, 1.62042, 1.62039, 1.62223, 1.62144, 1.62181, 1.62667, 1.62124, 1.6267, 1.60616, 1.59801, 1.6374, 1.6932, 1.68778, 1.73088, 1.78351, 1.82927, 1.86585, 1.8733, 1.87185, 1.85759, 1.79767, 1.73243, 1.63483, 1.57254, 1.5576, 1.58574, 1.58536, 1.59014, 1.5769, 1.58092, 1.57101, 1.56907, 1.56651, 1.56439, 1.56653, 1.55951, 1.57313, 1.555, 1.5537, 1.5513, 1.55005, 1.5489, 1.54585, 1.54094, 1.54215, 1.55068, 1.54666, 1.54566, 1.56014, 1.54092, 1.53961, 1.53499, 1.53225, 1.52991, 1.52944, 1.52746, 1.5265, 1.52181, 1.52126, 1.52072, 1.52097, 1.51794, 1.52489, 1.51148, 1.5173, 1.5208, 1.53027, 1.54122, 1.52202, 1.5072, 1.50303, 1.50032, 1.50175, 1.50016, 1.49833, 1.49953, 1.49295, 1.4927, 1.49174, 1.48974, 1.4888, 1.48809, 1.48645, 1.48284, 1.48703, 1.49192, 1.51071, 1.503, 1.49279, 1.46051, 1.46087, 1.47568, 1.51051, 1.55726, 1.63511, 1.59597, 1.60304, 1.60472, 1.59903, 1.58874, 1.57921, 1.58357, 1.58104, 1.51444, 1.48335, 1.46768, 1.44117, 1.46317, 1.45727, 1.45081, 1.46058, 1.4467, 1.43696, 1.43529, 1.43545, 1.45106, 1.45629, 1.45864, 1.46002, 1.44771, 1.43462, 1.42755, 1.42655, 1.42518, 1.43493, 1.43376, 1.42612, 1.42616, 1.41688, 1.41796, 1.41725, 1.41876, 1.43397, 1.4263, 1.41204, 1.41545, 1.41224, 1.40698, 1.40294, 1.40151, 1.40491, 1.40538, 1.40545, 1.40362, 1.40228, 1.40243, 1.39839, 1.39696, 1.3979, 1.39572, 1.39562, 1.39539, 1.39117, 1.391, 1.38977, 1.38546, 1.38617, 1.38806, 1.38086, 1.38585, 1.38065, 1.38071, 1.37375, 1.374, 1.3729, 1.37025, 1.3695, 1.36757, 1.36596, 1.3679, 1.36817, 1.36696, 1.36533, 1.36152, 1.36469, 1.36084, 1.35769, 1.35929, 1.35861, 1.35828, 1.35726, 1.35848, 1.35735, 1.35676, 1.36419, 1.37835, 1.35876, 1.36486, 1.35118, 1.35482, 1.40223, 1.432, 1.45958, 1.48249, 1.50646, 1.52298, 1.55294, 1.56786, 1.56281, 1.55095, 1.51584, 1.46409, 1.41513, 1.36872, 1.32124, 1.34663, 1.33522, 1.33077, 1.33973, 1.33129
1.6789, 1.67896, 1.6765, 1.67561, 1.67385, 1.67359, 1.67846, 1.66515, 1.664, 1.66489, 1.6636, 1.66187, 1.6606, 1.66121, 1.65336, 1.65086, 1.64808, 1.64792, 1.64387, 1.64256, 1.65078, 1.64659, 1.63863, 1.63707, 1.6312, 1.63002, 1.62675, 1.63397, 1.63477, 1.65435, 1.62036, 1.61964, 1.61981, 1.62755, 1.62202, 1.61638, 1.61745, 1.6331, 1.60705, 1.57773, 1.64293, 1.67288, 1.71611, 1.73421, 1.80652, 1.83894, 1.84865, 1.86917, 1.88986, 1.89621, 1.86009, 1.77852, 1.6585, 1.59274, 1.56948, 1.5891, 1.59278, 1.58278, 1.58649, 1.57611, 1.57205, 1.5714, 1.5886, 1.56782, 1.55984, 1.55948, 1.5586, 1.55636, 1.55441, 1.55082, 1.54875, 1.54837, 1.55697, 1.54573, 1.54239, 1.54297, 1.54283, 1.54384, 1.54198, 1.53917, 1.53778, 1.53629, 1.53378, 1.53063, 1.52792, 1.5268, 1.52507, 1.52449, 1.52326, 1.52041, 1.51975, 1.51859, 1.51568, 1.51565, 1.52273, 1.5226, 1.51975, 1.51688, 1.52331, 1.51046, 1.51715, 1.50264, 1.51587, 1.49882, 1.50971, 1.49349, 1.49348, 1.4924, 1.48961, 1.4899, 1.49597, 1.48419, 1.4846, 1.48892, 1.4826, 1.48927, 1.48844, 1.49012, 1.4817, 1.46737, 1.46908, 1.48247, 1.50053, 1.5274, 1.53301, 1.53908, 1.54798, 1.58113, 1.5626, 1.57444, 1.57822, 1.57096, 1.55738, 1.51032, 1.51332, 1.44298, 1.42589, 1.46496, 1.44884, 1.44845, 1.4465, 1.4394, 1.43496, 1.43338, 1.4335, 1.44039, 1.44005, 1.45306, 1.45264, 1.45047, 1.45748, 1.43545, 1.42558, 1.42915, 1.42149, 1.42429, 1.41805, 1.41863, 1.41789, 1.41785, 1.41651, 1.41584, 1.41344, 1.41248, 1.41106, 1.40992, 1.40777, 1.40573, 1.40479, 1.40367, 1.40303, 1.40076, 1.39984, 1.39956, 1.39951, 1.39773, 1.39593, 1.39624, 1.39351, 1.39462, 1.39337, 1.39007, 1.38906, 1.38771, 1.38764, 1.38489, 1.38435, 1.38159, 1.38114, 1.37919, 1.39187, 1.37423, 1.37274, 1.37108, 1.36946, 1.36719, 1.36724, 1.36699, 1.36528, 1.36541, 1.36383, 1.36464, 1.36222, 1.36341, 1.378, 1.36078, 1.36051, 1.35737, 1.36064, 1.35714, 1.35702, 1.35723, 1.35574, 1.35666, 1.35751, 1.36055, 1.3626, 1.36234, 1.3408, 1.36082, 1.38581, 1.40927, 1.46007, 1.49248, 1.51048, 1.50841, 1.55378, 1.54222, 1.54074, 1.52838, 1.49933, 1.45816, 1.43258, 1.38113, 1.31682, 1.32907, 1.33285, 1.33347, 1.33359, 1.32968
1.68545, 1.67785, 1.67861, 1.67542, 1.67389, 1.67133, 1.66979, 1.67227, 1.67215, 1.66615, 1.66571, 1.67094, 1.66163, 1.6608, 1.65746, 1.65391, 1.65132, 1.64893, 1.64809, 1.64736, 1.64712, 1.6479, 1.64307, 1.64137, 1.63654, 1.63377, 1.63362, 1.64065, 1.62926, 1.6263, 1.63432, 1.62616, 1.62187, 1.61994, 1.62692, 1.61864, 1.6199, 1.62053, 1.59624, 1.58554, 1.59591, 1.63716, 1.69945, 1.75109, 1.76884, 1.82111, 1.8528, 1.88109, 1.89509, 1.89527, 1.85081, 1.70221, 1.62679, 1.57897, 1.57916, 1.59695, 1.59742, 1.5839, 1.58323, 1.57631, 1.59247, 1.56941, 1.5695, 1.56603, 1.56521, 1.56284, 1.56113, 1.55753, 1.57577, 1.55409, 1.55679, 1.54877, 1.54743, 1.54805, 1.54747, 1.54755, 1.55124, 1.54401, 1.542, 1.54089, 1.53699, 1.53493, 1.53415, 1.53221, 1.52912, 1.5279, 1.5271, 1.54471, 1.52235, 1.52146, 1.51929, 1.51793, 1.51665, 1.51375, 1.51379, 1.52104, 1.52553, 1.53168, 1.5227, 1.52651, 1.50911, 1.50273, 1.5022, 1.49874, 1.49565, 1.51031, 1.49368, 1.50406, 1.49275, 1.49945, 1.49345, 1.48576, 1.48464, 1.48538, 1.48554, 1.49149, 1.49405, 1.49585, 1.49658, 1.46722, 1.45485, 1.50347, 1.50042, 1.56591, 1.55005, 1.56142, 1.6078, 1.66578, 1.60982, 1.60689, 1.5875, 1.57494, 1.55517, 1.53342, 1.46804, 1.45008, 1.41969, 1.46593, 1.45763, 1.44832, 1.45122, 1.44668, 1.44123, 1.43709, 1.43506, 1.44049, 1.44081, 1.449, 1.46949, 1.45429, 1.45784, 1.42691, 1.43143, 1.43115, 1.42266, 1.4397, 1.42983, 1.41875, 1.41641, 1.41591, 1.41447, 1.41342, 1.41318, 1.41222, 1.41226, 1.40806, 1.40826, 1.40569, 1.40423, 1.40344, 1.40209, 1.40086, 1.3997, 1.39813, 1.39585, 1.39701, 1.3934, 1.39242, 1.39282, 1.39117, 1.39212, 1.38852, 1.38867, 1.38536, 1.38489, 1.38243, 1.38225, 1.37988, 1.37734, 1.3788, 1.37476, 1.37377, 1.37353, 1.37388, 1.36978, 1.36941, 1.36615, 1.36627, 1.36621, 1.3651, 1.36383, 1.36518, 1.36298, 1.36458, 1.36216, 1.3643, 1.35903, 1.37161, 1.35744, 1.35836, 1.35651, 1.35639, 1.35572, 1.3637, 1.36762, 1.3745, 1.38135, 1.35877, 1.33059, 1.35448, 1.39503, 1.42606, 1.4536, 1.45485, 1.49299, 1.53906, 1.54968, 1.55752, 1.55829, 1.57501, 1.5238, 1.51318, 1.43344, 1.36509, 1.31531, 1.30645, 1.34073, 1.33737, 1.33134, 1.33424
1.68021, 1.67837, 1.67991, 1.67629, 1.67377, 1.67111, 1.66981, 1.66891, 1.66772, 1.66567, 1.67275, 1.66306, 1.66163, 1.66014, 1.65987, 1.65585, 1.65484, 1.65487, 1.65839, 1.65145, 1.65552, 1.65041, 1.64538, 1.64255, 1.65552, 1.65128, 1.6342, 1.63488, 1.6376, 1.63344, 1.63451, 1.62468, 1.62248, 1.61971, 1.61843, 1.62197, 1.6371, 1.62331, 1.60285, 1.58742, 1.62465, 1.61389, 1.66491, 1.72767, 1.75256, 1.82122, 1.85203, 1.86888, 1.87957, 1.88401, 1.82639, 1.79627, 1.67447, 1.60258, 1.56453, 1.58048, 1.60273, 1.60761, 1.58454, 1.57806, 1.58294, 1.57109, 1.56825, 1.57905, 1.56729, 1.56825, 1.57001, 1.55737, 1.55576, 1.5543, 1.55309, 1.56293, 1.55073, 1.54887, 1.54781, 1.54728, 1.54472, 1.54365, 1.54953, 1.53794, 1.53758, 1.53665, 1.53389, 1.53371, 1.53052, 1.52983, 1.52636, 1.52576, 1.52232, 1.52063, 1.51941, 1.51998, 1.51748, 1.517, 1.51241, 1.51304, 1.51891, 1.53359, 1.52649, 1.5212, 1.50956, 1.50621, 1.49799, 1.50239, 1.49695, 1.50145, 1.49962, 1.51325, 1.48923, 1.48845, 1.48691, 1.48522, 1.48429, 1.48895, 1.48356, 1.50227, 1.5041, 1.49059, 1.48374, 1.47632, 1.48159, 1.46191, 1.46898, 1.50673, 1.55849, 1.54221, 1.6, 1.60027, 1.60187, 1.59165, 1.58795, 1.57689, 1.55479, 1.52397, 1.53086, 1.47263, 1.42728, 1.44455, 1.46454, 1.45109, 1.44631, 1.4396, 1.43782, 1.43608, 1.44809, 1.43466, 1.45069, 1.44091, 1.44465, 1.46133, 1.44828, 1.4396, 1.42598, 1.43763, 1.42244, 1.43311, 1.43013, 1.41744, 1.42242, 1.41595, 1.41575, 1.41304, 1.4157, 1.41109, 1.41177, 1.4109, 1.40895, 1.405, 1.40484, 1.40708, 1.40243, 1.40137, 1.39882, 1.39727, 1.39686, 1.39533, 1.39377, 1.39435, 1.39262, 1.39155, 1.3895, 1.38798, 1.38816, 1.38499, 1.38262, 1.38268, 1.38639, 1.37906, 1.37773, 1.37795, 1.3751, 1.37435, 1.37375, 1.3722, 1.37066, 1.36955, 1.3678, 1.368, 1.36688, 1.36498, 1.36581, 1.36398, 1.36373, 1.36358, 1.36306, 1.36871, 1.36229, 1.35846, 1.35793, 1.35823, 1.35792, 1.35745, 1.37756, 1.36277, 1.35059, 1.3659, 1.35753, 1.36589, 1.33448, 1.3716, 1.39249, 1.40552, 1.43847, 1.46072, 1.49943, 1.50933, 1.56423, 1.55903, 1.56624, 1.54405, 1.53057, 1.50139, 1.48896, 1.42702, 1.33425, 1.34021, 1.3337, 1.33893, 1.34305, 1.33459
1.67967, 1.67813, 1.67619, 1.6791, 1.67187, 1.67027, 1.66811, 1.6667, 1.66512, 1.66295, 1.66207, 1.65837, 1.65947, 1.65787, 1.65657, 1.65434, 1.6538, 1.65059, 1.64906, 1.64841, 1.64671, 1.64356, 1.64151, 1.6407, 1.64032, 1.63649, 1.635, 1.63795, 1.63021, 1.62485, 1.62413, 1.62191, 1.61951, 1.61601, 1.62782, 1.61749, 1.61746, 1.63382, 1.59789, 1.58723, 1.58746, 1.63518, 1.70293, 1.71362, 1.7313, 1.79233, 1.82725, 1.87518, 1.87885, 1.86226, 1.80774, 1.73689, 1.69234, 1.58624, 1.555, 1.56119, 1.58749, 1.59855, 1.59676, 1.5757, 1.57459, 1.57731, 1.56786, 1.56598, 1.56199, 1.56223, 1.55468, 1.5541, 1.55227, 1.55028, 1.55006, 1.54882, 1.54711, 1.5463, 1.54383, 1.54177, 1.54357, 1.53919, 1.53884, 1.53672, 1.53702, 1.5346, 1.53365, 1.53702, 1.53045, 1.5283, 1.5255, 1.52394, 1.52124, 1.52025, 1.51856, 1.5167, 1.53931, 1.51366, 1.51045, 1.5223, 1.51349, 1.52613, 1.53616, 1.52469, 1.50447, 1.50438, 1.49861, 1.49749, 1.49363, 1.503, 1.4896, 1.48888, 1.48837, 1.48694, 1.4871, 1.48203, 1.48128, 1.49559, 1.47879, 1.4861, 1.49552, 1.48811, 1.48543, 1.47648, 1.44279, 1.45803, 1.50826, 1.50776, 1.53753, 1.55491, 1.57455, 1.63126, 1.62556, 1.65631, 1.59092, 1.56819, 1.53425, 1.58839, 1.48647, 1.48631, 1.43518, 1.43921, 1.45506, 1.44747, 1.4574, 1.44116, 1.44614, 1.45394, 1.43499, 1.44331, 1.44748, 1.43448, 1.44671, 1.45201, 1.44694, 1.4302, 1.41989, 1.4309, 1.42412, 1.42676, 1.41399, 1.41295, 1.41199, 1.41134, 1.4113, 1.41446, 1.41235, 1.40895, 1.40812, 1.40623, 1.40544, 1.40517, 1.40649, 1.4042, 1.40103, 1.39965, 1.39719, 1.39547, 1.39817, 1.39628, 1.39477, 1.39275, 1.39146, 1.39045, 1.38846, 1.38673, 1.38523, 1.38337, 1.38277, 1.37973, 1.37908, 1.38122, 1.38112, 1.37746, 1.37434, 1.37475, 1.3737, 1.37021, 1.36837, 1.3707, 1.36929, 1.36822, 1.3677, 1.36538, 1.37154, 1.36285, 1.36384, 1.36121, 1.36165, 1.35891, 1.35941, 1.36063, 1.35939, 1.35769, 1.35583, 1.35441, 1.35867, 1.35677, 1.36031, 1.36631, 1.35325, 1.36607, 1.32875, 1.32525, 1.37193, 1.41267, 1.42446, 1.47467, 1.48977, 1.51863, 1.52719, 1.54979, 1.55581, 1.54494, 1.52146, 1.50264, 1.43149, 1.43153, 1.33136, 1.34067, 1.34454, 1.33958, 1.33548, 1.35108
1.67828, 1.67732, 1.66974, 1.66855, 1.66527, 1.66545, 1.66542, 1.66231, 1.66159, 1.66129, 1.65807, 1.65812, 1.65638, 1.65823, 1.65455, 1.6546, 1.65209, 1.64918, 1.64787, 1.64706, 1.66212, 1.64527, 1.63871, 1.63817, 1.6345, 1.64094, 1.63673, 1.62992, 1.62677, 1.6482, 1.62372, 1.62114, 1.6206, 1.61996, 1.61656, 1.61581, 1.63772, 1.6265, 1.6224, 1.58502, 1.61164, 1.6368, 1.68902, 1.69222, 1.72046, 1.77987, 1.8056, 1.84165, 1.85552, 1.89349, 1.76477, 1.73078, 1.66202, 1.58492, 1.56234, 1.5893, 1.58575, 1.57851, 1.57501, 1.5694, 1.56767, 1.56437, 1.56137, 1.56506, 1.55825, 1.55575, 1.55437, 1.55227, 1.55018, 1.55021, 1.55014, 1.55007, 1.54681, 1.54637, 1.54428, 1.54295, 1.54153, 1.54155, 1.53841, 1.53722, 1.53739, 1.53504, 1.53347, 1.5334, 1.52731, 1.52743, 1.52329, 1.52057, 1.52625, 1.53124, 1.52549, 1.51585, 1.52431, 1.51329, 1.50965, 1.50731, 1.52006, 1.53064, 1.53176, 1.52985, 1.52822, 1.49521, 1.49499, 1.49173, 1.49902, 1.49622, 1.49013, 1.48981, 1.48639, 1.48638, 1.48552, 1.48223, 1.48155, 1.47951, 1.48119, 1.47917, 1.48926, 1.4888, 1.48444, 1.47853, 1.4583, 1.51065, 1.52242, 1.52868, 1.55909, 1.57584, 1.58843, 1.59185, 1.58241, 1.57747, 1.56686, 1.56875, 1.5228, 1.50042, 1.49773, 1.46847, 1.41566, 1.44057, 1.46808, 1.46063, 1.45707, 1.44895, 1.43655, 1.43481, 1.43299, 1.44336, 1.43684, 1.45098, 1.45039, 1.4438, 1.44962, 1.44435, 1.43031, 1.43777, 1.43071, 1.42395, 1.41629, 1.41402, 1.41301, 1.41342, 1.41138, 1.41096, 1.40937, 1.4068, 1.40596, 1.40501, 1.40581, 1.40457, 1.40286, 1.39977, 1.39991, 1.39918, 1.39969, 1.39935, 1.39847, 1.39572, 1.39488, 1.39259, 1.43039, 1.38962, 1.38613, 1.38486, 1.38482, 1.38239, 1.38094, 1.38235, 1.37978, 1.37766, 1.37529, 1.37387, 1.37146, 1.3702, 1.36822, 1.36808, 1.36954, 1.36986, 1.37051, 1.36816, 1.3657, 1.36667, 1.36428, 1.36088, 1.36124, 1.35894, 1.35953, 1.35993, 1.35819, 1.35865, 1.35543, 1.36088, 1.35185, 1.34722, 1.35495, 1.34736, 1.34779, 1.34859, 1.35173, 1.34991, 1.32911, 1.34337, 1.3852, 1.39931, 1.42603, 1.44282, 1.47164, 1.50703, 1.54331, 1.55807, 1.54825, 1.55408, 1.53452, 1.49369, 1.41345, 1.39017, 1.34021, 1.3271, 1.34391, 1.34784, 1.34531, 1.35069
1.67575, 1.67343, 1.67055, 1.66845, 1.66868, 1.66211, 1.6623, 1.66262, 1.65904, 1.65742, 1.66025, 1.65729, 1.65525, 1.65404, 1.65274, 1.65211, 1.65098, 1.64943, 1.6475, 1.64504, 1.64368, 1.63878, 1.64041, 1.63778, 1.64017, 1.63151, 1.64582, 1.62823, 1.62545, 1.6237, 1.62581, 1.62682, 1.62027, 1.6175, 1.61764, 1.62718, 1.62535, 1.62413, 1.62097, 1.59729, 1.60311, 1.64321, 1.65116, 1.68923, 1.71458, 1.76277, 1.8071, 1.8422, 1.91736, 1.96973, 1.88911, 1.75248, 1.65817, 1.55622, 1.55302, 1.58829, 1.58834, 1.57759, 1.57721, 1.56889, 1.56538, 1.5614, 1.56266, 1.57269, 1.55687, 1.55464, 1.56512, 1.55078, 1.54913, 1.54824, 1.55064, 1.55055, 1.54671, 1.54322, 1.5435, 1.54222, 1.53978, 1.54048, 1.53958, 1.53356, 1.53533, 1.53356, 1.53301, 1.53129, 1.52621, 1.52562, 1.5247, 1.52253, 1.52043, 1.51959, 1.51725, 1.51572, 1.51325, 1.51205, 1.51229, 1.50607, 1.50594, 1.50219, 1.51938, 1.52909, 1.51368, 1.51601, 1.49296, 1.5067, 1.49376, 1.49317, 1.49062, 1.48941, 1.4882, 1.48662, 1.48571, 1.48435, 1.48277, 1.48259, 1.4823, 1.49573, 1.48216, 1.4828, 1.47837, 1.46089, 1.44488, 1.46763, 1.47313, 1.5497, 1.55839, 1.56564, 1.56136, 1.56182, 1.5607, 1.57747, 1.56778, 1.56566, 1.55776, 1.53936, 1.51964, 1.49006, 1.41893, 1.4571, 1.45825, 1.4584, 1.44679, 1.44416, 1.43731, 1.43622, 1.43649, 1.43475, 1.43667, 1.4368, 1.43146, 1.44922, 1.44821, 1.44809, 1.44772, 1.42689, 1.42238, 1.42248, 1.41736, 1.41415, 1.41271, 1.41209, 1.41268, 1.41033, 1.40913, 1.40715, 1.40559, 1.40346, 1.40273, 1.40469, 1.40249, 1.40161, 1.40197, 1.4015, 1.3971, 1.39716, 1.39736, 1.39481, 1.39452, 1.39233, 1.39152, 1.38899, 1.38805, 1.38499, 1.38506, 1.38115, 1.38127, 1.37891, 1.37868, 1.37702, 1.37482, 1.37154, 1.3719, 1.37088, 1.37072, 1.36778, 1.36865, 1.36531, 1.36528, 1.36528, 1.36371, 1.36107, 1.36123, 1.36206, 1.36063, 1.36164, 1.35875, 1.35667, 1.35726, 1.35707, 1.35603, 1.3539, 1.35382, 1.34926, 1.34663, 1.34618, 1.35897, 1.34752, 1.34784, 1.37367, 1.32794, 1.32499, 1.3979, 1.40235, 1.41763, 1.43046, 1.48677, 1.55096, 1.56659, 1.57863, 1.57144, 1.5545, 1.55825, 1.4679, 1.44416, 1.36424, 1.34426, 1.33073, 1.33286, 1.33682, 1.33704, 1.34104
1.67802, 1.67425, 1.67606, 1.67087, 1.66819, 1.66452, 1.6634, 1.66313, 1.66102, 1.65877, 1.65745, 1.65491, 1.65541, 1.65352, 1.65284, 1.65179, 1.64742, 1.6443, 1.64363, 1.6427, 1.64003, 1.63788, 1.63687, 1.63406, 1.63295, 1.63114, 1.63026, 1.62891, 1.6263, 1.62502, 1.62176, 1.62019, 1.61902, 1.61762, 1.61468, 1.61485, 1.62285, 1.61747, 1.62778, 1.59165, 1.61303, 1.64262, 1.65087, 1.66558, 1.71347, 1.76016, 1.80209, 1.83508, 1.91123, 1.94511, 1.9307, 1.79761, 1.70017, 1.57792, 1.56435, 1.5701, 1.58241, 1.57905, 1.57554, 1.56887, 1.57023, 1.56479, 1.57146, 1.56091, 1.5676, 1.55747, 1.55543, 1.55567, 1.555, 1.55498, 1.5522, 1.55042, 1.54969, 1.54826, 1.55179, 1.54546, 1.54333, 1.54161, 1.53992, 1.53568, 1.53385, 1.5333, 1.53352, 1.531, 1.52981, 1.53346, 1.52617, 1.52404, 1.52103, 1.52045, 1.51765, 1.51577, 1.52025, 1.51119, 1.51023, 1.51107, 1.50871, 1.50775, 1.50966, 1.52674, 1.52713, 1.5273, 1.5065, 1.49993, 1.49701, 1.49615, 1.49628, 1.49386, 1.49009, 1.48839, 1.48758, 1.48698, 1.48941, 1.48535, 1.48376, 1.4894, 1.48469, 1.4853, 1.48297, 1.45927, 1.4568, 1.4749, 1.47832, 1.49219, 1.5339, 1.57799, 1.58968, 1.60752, 1.59645, 1.58795, 1.57843, 1.5674, 1.54675, 1.52752, 1.49992, 1.48784, 1.44711, 1.44712, 1.46487, 1.46153, 1.44649, 1.44307, 1.44333, 1.43684, 1.4364, 1.4347, 1.43341, 1.42949, 1.43127, 1.43698, 1.45832, 1.44149, 1.44633, 1.43767, 1.42214, 1.42024, 1.4169, 1.41613, 1.41257, 1.41075, 1.409, 1.40899, 1.40887, 1.40698, 1.40559, 1.40403, 1.4132, 1.40482, 1.40488, 1.40465, 1.4049, 1.40152, 1.3997, 1.39949, 1.39703, 1.39561, 1.39366, 1.39045, 1.38972, 1.38921, 1.38849, 1.39643, 1.3849, 1.38318, 1.38058, 1.37891, 1.37937, 1.37788, 1.37704, 1.37446, 1.37236, 1.37032, 1.37014, 1.36786, 1.36802, 1.36701, 1.36414, 1.36356, 1.36183, 1.36079, 1.36121, 1.3608, 1.35904, 1.36036, 1.35779, 1.3586, 1.35742, 1.35497, 1.3551, 1.3539, 1.35099, 1.35095, 1.34953, 1.34728, 1.34486, 1.34662, 1.368, 1.35528, 1.34528, 1.33402, 1.34506, 1.41457, 1.4159, 1.44084, 1.49769, 1.5032, 1.51377, 1.54447, 1.56401, 1.56027, 1.53032, 1.56518, 1.42265, 1.38314, 1.3126, 1.32669, 1.3352, 1.34478, 1.33877, 1.3325
1.67793, 1.67488, 1.67199, 1.66854, 1.66854, 1.6692, 1.66302, 1.66125, 1.66137, 1.65971, 1.6605, 1.65781, 1.65542, 1.65506, 1.65263, 1.65037, 1.64753, 1.6448, 1.64327, 1.64065, 1.63896, 1.63752, 1.63373, 1.63201, 1.63807, 1.63015, 1.62508, 1.63658, 1.62323, 1.62169, 1.62019, 1.63143, 1.61822, 1.61573, 1.63616, 1.62752, 1.62105, 1.62177, 1.61436, 1.60649, 1.59982, 1.62413, 1.67169, 1.66816, 1.70595, 1.75086, 1.81328, 1.83775, 1.88324, 1.8898, 1.88954, 1.81938, 1.71034, 1.58834, 1.55943, 1.57975, 1.58998, 1.58902, 1.58235, 1.57948, 1.57132, 1.57453, 1.56495, 1.5633, 1.56102, 1.55918, 1.55869, 1.555, 1.55379, 1.55456, 1.57638, 1.55458, 1.55064, 1.54835, 1.54739, 1.54437, 1.5435, 1.54725, 1.53977, 1.53827, 1.53647, 1.53587, 1.53199, 1.5405, 1.53093, 1.52944, 1.527, 1.52499, 1.52299, 1.52045, 1.5186, 1.51644, 1.51349, 1.512, 1.51038, 1.50994, 1.51031, 1.51405, 1.51763, 1.52581, 1.52629, 1.52448, 1.50657, 1.50068, 1.50959, 1.499, 1.49947, 1.51502, 1.5062, 1.50673, 1.49618, 1.49812, 1.49188, 1.4923, 1.48528, 1.48605, 1.49547, 1.50701, 1.48552, 1.48448, 1.45457, 1.46991, 1.51229, 1.51532, 1.55128, 1.58144, 1.59337, 1.61778, 1.58495, 1.58469, 1.56849, 1.56223, 1.55096, 1.51898, 1.49507, 1.47517, 1.44638, 1.4457, 1.45472, 1.45367, 1.45113, 1.45194, 1.43987, 1.43761, 1.4361, 1.43545, 1.44072, 1.43324, 1.4314, 1.43244, 1.43431, 1.44423, 1.45305, 1.44528, 1.43015, 1.42318, 1.4231, 1.41812, 1.41609, 1.41499, 1.41244, 1.41096, 1.40888, 1.40777, 1.40891, 1.40558, 1.40685, 1.41316, 1.40557, 1.40399, 1.40389, 1.40181, 1.40233, 1.39903, 1.39801, 1.395, 1.393, 1.39033, 1.38937, 1.3882, 1.38715, 1.38523, 1.3848, 1.38338, 1.38193, 1.37854, 1.37924, 1.37828, 1.37758, 1.3751, 1.37328, 1.37175, 1.37059, 1.36994, 1.36561, 1.36797, 1.36405, 1.36343, 1.3615, 1.36072, 1.35958, 1.36508, 1.36007, 1.35926, 1.3575, 1.35099, 1.35185, 1.35356, 1.35301, 1.35022, 1.3519, 1.35056, 1.34801, 1.37464, 1.35022, 1.34752, 1.35038, 1.35051, 1.35515, 1.32038, 1.36387, 1.397, 1.41868, 1.45199, 1.46013, 1.50255, 1.54151, 1.57273, 1.59533, 1.58634, 1.54079, 1.46866, 1.42449, 1.38946, 1.31479, 1.31332, 1.34379, 1.34706, 1.33899, 1.33182
1.67643, 1.67519, 1.67883, 1.67036, 1.66782, 1.66617, 1.66916, 1.66152, 1.66128, 1.65852, 1.65777, 1.65631, 1.65466, 1.65281, 1.65821, 1.65485, 1.64694, 1.6464, 1.64423, 1.64102, 1.63752, 1.63472, 1.63392, 1.63116, 1.62816, 1.62609, 1.6245, 1.62383, 1.64475, 1.63476, 1.62723, 1.6179, 1.63278, 1.63106, 1.63143, 1.62792, 1.637, 1.6157, 1.61385, 1.60778, 1.58461, 1.66476, 1.68124, 1.69788, 1.77877, 1.76475, 1.83827, 1.84794, 1.88909, 1.89592, 1.8724, 1.7916, 1.71379, 1.56516, 1.57093, 1.58304, 1.58851, 1.60114, 1.57525, 1.582, 1.58599, 1.57888, 1.56901, 1.57592, 1.57432, 1.5722, 1.57077, 1.56412, 1.55328, 1.55249, 1.57114, 1.56646, 1.54421, 1.54381, 1.54353, 1.5421, 1.54136, 1.53973, 1.53878, 1.53727, 1.53637, 1.5346, 1.53455, 1.53331, 1.53012, 1.54103, 1.52656, 1.52363, 1.5237, 1.5199, 1.51696, 1.5171, 1.51452, 1.51279, 1.51667, 1.50873, 1.50759, 1.51947, 1.51668, 1.51313, 1.51971, 1.52791, 1.51406, 1.50149, 1.50099, 1.49938, 1.50008, 1.50962, 1.50139, 1.48924, 1.48885, 1.48573, 1.48384, 1.48249, 1.48286, 1.49952, 1.48299, 1.47878, 1.48909, 1.46432, 1.44977, 1.51612, 1.52591, 1.52416, 1.55544, 1.58086, 1.59189, 1.59965, 1.57825, 1.57488, 1.56756, 1.55108, 1.5469, 1.51351, 1.50175, 1.48167, 1.4297, 1.43136, 1.45714, 1.45413, 1.45143, 1.4522, 1.44159, 1.43645, 1.43594, 1.43646, 1.43522, 1.4331, 1.43043, 1.43119, 1.43321, 1.44453, 1.43153, 1.43838, 1.4284, 1.41973, 1.42729, 1.41638, 1.41442, 1.41305, 1.41098, 1.40978, 1.41019, 1.40783, 1.40647, 1.40502, 1.4047, 1.40955, 1.40303, 1.40405, 1.43317, 1.41629, 1.39808, 1.39709, 1.39507, 1.39317, 1.39288, 1.39219, 1.39117, 1.38948, 1.38776, 1.38534, 1.3828, 1.38239, 1.3816, 1.38208, 1.38243, 1.38141, 1.37769, 1.37508, 1.37212, 1.37104, 1.37102, 1.36754, 1.36666, 1.3651, 1.36524, 1.36321, 1.36013, 1.36041, 1.35941, 1.35837, 1.35687, 1.35493, 1.35445, 1.35644, 1.35514, 1.35751, 1.35048, 1.35117, 1.34903, 1.34838, 1.37425, 1.34789, 1.3587, 1.34849, 1.37864, 1.36194, 1.3512, 1.36117, 1.37455, 1.37787, 1.41794, 1.42738, 1.43322, 1.47516, 1.50342, 1.53521, 1.555, 1.5475, 1.53351, 1.51761, 1.44079, 1.42919, 1.34071, 1.31881, 1.34072, 1.34414, 1.34354, 1.34764
1.67534, 1.67494, 1.67264, 1.67192, 1.67054, 1.66934, 1.68511, 1.66719, 1.66796, 1.65975, 1.65827, 1.65543, 1.65409, 1.65264, 1.65155, 1.64893, 1.64442, 1.64287, 1.64137, 1.63909, 1.63427, 1.63379, 1.63214, 1.63186, 1.62758, 1.62703, 1.63457, 1.62261, 1.62251, 1.61956, 1.62201, 1.62844, 1.61491, 1.61403, 1.61409, 1.62285, 1.61896, 1.62024, 1.6277, 1.58377, 1.59471, 1.61941, 1.68341, 1.68683, 1.71125, 1.77717, 1.78702, 1.84672, 1.89908, 1.90067, 1.84897, 1.76213, 1.70122, 1.58533, 1.55852, 1.57994, 1.60394, 1.58564, 1.57335, 1.58469, 1.57197, 1.56436, 1.56825, 1.56063, 1.5585, 1.55733, 1.55608, 1.55252, 1.55047, 1.55023, 1.54878, 1.54366, 1.54194, 1.53996, 1.53835, 1.53687, 1.53625, 1.53544, 1.53454, 1.53534, 1.53634, 1.53058, 1.53377, 1.53165, 1.52978, 1.52744, 1.52135, 1.52004, 1.5201, 1.51871, 1.51676, 1.51382, 1.5117, 1.51012, 1.51196, 1.50711, 1.51273, 1.50442, 1.51281, 1.50297, 1.50312, 1.5246, 1.51116, 1.50759, 1.49614, 1.49392, 1.49903, 1.49193, 1.50879, 1.49215, 1.50605, 1.50349, 1.4979, 1.48572, 1.48044, 1.48855, 1.48219, 1.48365, 1.48073, 1.48198, 1.45607, 1.45914, 1.47821, 1.53086, 1.49804, 1.59952, 1.59168, 1.58664, 1.57196, 1.56413, 1.56392, 1.54289, 1.55145, 1.53342, 1.49904, 1.46086, 1.4262, 1.43375, 1.45554, 1.45373, 1.45728, 1.46231, 1.45575, 1.43759, 1.4445, 1.43445, 1.43211, 1.43037, 1.43057, 1.43751, 1.43398, 1.43931, 1.43616, 1.43626, 1.42371, 1.43597, 1.4149, 1.41568, 1.41288, 1.40909, 1.40846, 1.40869, 1.40858, 1.40622, 1.40434, 1.40483, 1.40331, 1.40295, 1.40318, 1.40946, 1.39984, 1.39769, 1.3965, 1.39599, 1.39735, 1.39433, 1.3928, 1.39021, 1.38969, 1.38939, 1.3898, 1.3863, 1.38356, 1.38161, 1.38067, 1.37902, 1.37956, 1.3785, 1.37741, 1.37465, 1.3745, 1.37262, 1.37169, 1.37018, 1.36745, 1.36523, 1.36227, 1.36126, 1.35763, 1.35657, 1.35411, 1.35255, 1.35335, 1.35062, 1.35211, 1.35231, 1.35339, 1.35476, 1.34895, 1.34819, 1.34665, 1.34859, 1.348, 1.34437, 1.34459, 1.3556, 1.36103, 1.34793, 1.33384, 1.32672, 1.37138, 1.41579, 1.40335, 1.44632, 1.4801, 1.51899, 1.53785, 1.59133, 1.58801, 1.60239, 1.62027, 1.57165, 1.49587, 1.35742, 1.32605, 1.30889, 1.33433, 1.32581, 1.33328, 1.32422
1.67475, 1.67278, 1.6753, 1.67198, 1.6705, 1.66961, 1.66782, 1.66309, 1.66175, 1.66136, 1.65908, 1.65639, 1.65746, 1.65007, 1.64875, 1.64732, 1.64442, 1.64183, 1.63982, 1.63581, 1.63582, 1.64046, 1.63459, 1.63114, 1.62534, 1.62348, 1.62187, 1.62082, 1.62035, 1.61697, 1.61494, 1.614, 1.61401, 1.61371, 1.61279, 1.61253, 1.61235, 1.61414, 1.61199, 1.58665, 1.58073, 1.5998, 1.62703, 1.64451, 1.71432, 1.74647, 1.78589, 1.81311, 1.89014, 1.94046, 1.8482, 1.8144, 1.71088, 1.58681, 1.55935, 1.59562, 1.58189, 1.58966, 1.57242, 1.57542, 1.5661, 1.57665, 1.56153, 1.56751, 1.55736, 1.55802, 1.55255, 1.55168, 1.55276, 1.54931, 1.54876, 1.54539, 1.54452, 1.5377, 1.53828, 1.53666, 1.53606, 1.53285, 1.53274, 1.53219, 1.53343, 1.52806, 1.52767, 1.52589, 1.52847, 1.52816, 1.51971, 1.51904, 1.51604, 1.51377, 1.51417, 1.51234, 1.50955, 1.5098, 1.50728, 1.50631, 1.50508, 1.50296, 1.50379, 1.50425, 1.51566, 1.53308, 1.51677, 1.51472, 1.50117, 1.49313, 1.49206, 1.49201, 1.50311, 1.49014, 1.48708, 1.48524, 1.48263, 1.48167, 1.48163, 1.47922, 1.48621, 1.47969, 1.48688, 1.47948, 1.4716, 1.46021, 1.49812, 1.50765, 1.50587, 1.5071, 1.57171, 1.56638, 1.56041, 1.58128, 1.55331, 1.54898, 1.53504, 1.49625, 1.50165, 1.45088, 1.47492, 1.41803, 1.44047, 1.45712, 1.44631, 1.45002, 1.44264, 1.43663, 1.43475, 1.43325, 1.43341, 1.43008, 1.42891, 1.42653, 1.42672, 1.43553, 1.43734, 1.43641, 1.43344, 1.41922, 1.41302, 1.41629, 1.41945, 1.41902, 1.40737, 1.40734, 1.40695, 1.40648, 1.40707, 1.40554, 1.40532, 1.40235, 1.40343, 1.40055, 1.4, 1.39936, 1.39728, 1.39669, 1.39548, 1.39324, 1.39152, 1.39076, 1.38916, 1.38574, 1.38564, 1.38562, 1.38391, 1.38168, 1.38429, 1.38304, 1.37978, 1.37818, 1.37791, 1.37371, 1.37298, 1.37064, 1.36803, 1.36543, 1.36052, 1.36069, 1.35799, 1.35642, 1.35524, 1.35331, 1.35247, 1.34986, 1.34978, 1.35004, 1.35129, 1.34872, 1.35073, 1.34988, 1.351, 1.35215, 1.35075, 1.3504, 1.34729, 1.34687, 1.3476, 1.34707, 1.3672, 1.35552, 1.36159, 1.32266, 1.34049, 1.36924, 1.42046, 1.44705, 1.49635, 1.52306, 1.54061, 1.61089, 1.60971, 1.59165, 1.58562, 1.55204, 1.45488, 1.37398, 1.33965, 1.30344, 1.32588, 1.32583, 1.3228, 1.31835
1.67509, 1.67264, 1.67288, 1.67181, 1.6684, 1.66709, 1.66628, 1.66392, 1.66208, 1.6616, 1.65909, 1.65584, 1.65469, 1.65128, 1.64837, 1.64681, 1.64417, 1.64222, 1.63965, 1.63825, 1.63483, 1.63414, 1.62986, 1.62892, 1.62733, 1.62521, 1.6234, 1.62123, 1.61719, 1.61812, 1.61801, 1.61406, 1.61373, 1.62661, 1.611, 1.62956, 1.61779, 1.61839, 1.61912, 1.59177, 1.5909, 1.63061, 1.68938, 1.70104, 1.7351, 1.77269, 1.87489, 1.85981, 1.9461, 2.00232, 1.90973, 1.73876, 1.69833, 1.56438, 1.55777, 1.57078, 1.5923, 1.58898, 1.57719, 1.56816, 1.5672, 1.56441, 1.56175, 1.55973, 1.56331, 1.55413, 1.55384, 1.55125, 1.5493, 1.54811, 1.54482, 1.54349, 1.54196, 1.541, 1.53975, 1.53761, 1.53721, 1.5355, 1.53562, 1.53215, 1.53059, 1.53298, 1.52687, 1.52617, 1.5241, 1.52312, 1.52137, 1.51775, 1.51744, 1.51458, 1.51087, 1.50968, 1.50829, 1.50974, 1.50581, 1.50853, 1.50928, 1.51006, 1.49978, 1.49907, 1.51089, 1.52684, 1.5248, 1.50451, 1.51522, 1.50593, 1.49268, 1.49147, 1.49117, 1.48853, 1.48654, 1.48334, 1.4813, 1.47884, 1.47753, 1.47848, 1.48856, 1.48899, 1.48661, 1.48284, 1.45161, 1.47138, 1.49238, 1.52306, 1.52797, 1.53408, 1.55488, 1.56355, 1.54667, 1.55066, 1.55213, 1.54805, 1.51959, 1.5163, 1.51118, 1.50028, 1.44014, 1.43037, 1.44649, 1.46052, 1.44724, 1.4509, 1.44466, 1.43357, 1.43096, 1.4293, 1.43062, 1.42748, 1.42472, 1.42468, 1.43748, 1.43029, 1.42664, 1.44384, 1.44033, 1.43132, 1.41326, 1.41214, 1.40886, 1.40902, 1.40727, 1.40877, 1.40445, 1.40505, 1.40572, 1.40591, 1.40528, 1.40272, 1.40251, 1.40086, 1.40172, 1.3987, 1.39915, 1.39466, 1.39524, 1.39518, 1.39235, 1.38972, 1.38958, 1.38857, 1.38787, 1.38516, 1.38325, 1.38395, 1.38168, 1.37887, 1.37796, 1.37648, 1.375, 1.37242, 1.3715, 1.37103, 1.36802, 1.36636, 1.36225, 1.35986, 1.35679, 1.35724, 1.3571, 1.35506, 1.35307, 1.35323, 1.35292, 1.34992, 1.35038, 1.35021, 1.35008, 1.35008, 1.35221, 1.35134, 1.3488, 1.34848, 1.35216, 1.36016, 1.34935, 1.35273, 1.3598, 1.35064, 1.35815, 1.3382, 1.35659, 1.38803, 1.39583, 1.41283, 1.46096, 1.50592, 1.52244, 1.55753, 1.56677, 1.59242, 1.57005, 1.53814, 1.50609, 1.41985, 1.32976, 1.31488, 1.32085, 1.33942, 1.331, 1.34708
1.67289, 1.67063, 1.67003, 1.6683, 1.66719, 1.66652, 1.66422, 1.66298, 1.66081, 1.66061, 1.65602, 1.65687, 1.65284, 1.65205, 1.64944, 1.6461, 1.64567, 1.64028, 1.63827, 1.63516, 1.63417, 1.63153, 1.62781, 1.6266, 1.6245, 1.62323, 1.62157, 1.62044, 1.62039, 1.61762, 1.61678, 1.63753, 1.61498, 1.61311, 1.61672, 1.6126, 1.61284, 1.61904, 1.61038, 1.60342, 1.58167, 1.58798, 1.66811, 1.66461, 1.73823, 1.78758, 1.83309, 1.85821, 1.91014, 1.91795, 1.89402, 1.8227, 1.72619, 1.58016, 1.56406, 1.5757, 1.58845, 1.58931, 1.57137, 1.56744, 1.56481, 1.56244, 1.56074, 1.55804, 1.55567, 1.55499, 1.55158, 1.55104, 1.54812, 1.5472, 1.54558, 1.54374, 1.54158, 1.53911, 1.53825, 1.53732, 1.53614, 1.53423, 1.53387, 1.52989, 1.52866, 1.52694, 1.52605, 1.5835, 1.52117, 1.53961, 1.51666, 1.51621, 1.51551, 1.51263, 1.51078, 1.50959, 1.50682, 1.50346, 1.50477, 1.50205, 1.50221, 1.50099, 1.50016, 1.51555, 1.50742, 1.50108, 1.50311, 1.52302, 1.51009, 1.49934, 1.49644, 1.48949, 1.48933, 1.49506, 1.49051, 1.48183, 1.47885, 1.47697, 1.47631, 1.47653, 1.48624, 1.47912, 1.47465, 1.4642, 1.44697, 1.488, 1.50521, 1.57874, 1.53875, 1.56554, 1.56274, 1.56941, 1.61289, 1.55141, 1.54847, 1.54704, 1.52966, 1.52011, 1.4889, 1.46563, 1.44088, 1.41582, 1.44445, 1.46165, 1.46554, 1.45211, 1.44014, 1.43379, 1.42956, 1.42894, 1.42638, 1.42716, 1.42324, 1.42272, 1.42013, 1.41742, 1.43243, 1.43757, 1.46501, 1.46213, 1.44908, 1.40699, 1.42668, 1.40874, 1.40733, 1.40512, 1.40373, 1.40416, 1.40358, 1.40227, 1.40094, 1.40064, 1.40097, 1.4017, 1.40032, 1.39835, 1.39731, 1.39518, 1.39504, 1.3933, 1.39281, 1.39354, 1.38956, 1.38919, 1.38804, 1.38654, 1.38618, 1.38178, 1.38083, 1.37872, 1.37808, 1.37765, 1.37627, 1.37364, 1.37416, 1.37129, 1.3696, 1.3678, 1.36298, 1.36098, 1.35965, 1.36056, 1.36003, 1.35798, 1.35157, 1.34978, 1.35079, 1.35046, 1.35042, 1.34799, 1.34849, 1.34938, 1.35084, 1.34987, 1.35051, 1.34853, 1.34886, 1.34797, 1.34904, 1.35003, 1.35823, 1.35026, 1.34833, 1.33356, 1.3587, 1.37182, 1.41606, 1.44159, 1.4791, 1.53905, 1.54442, 1.58595, 1.60976, 1.61262, 1.60195, 1.56725, 1.51444, 1.39377, 1.37778, 1.31605, 1.33391, 1.33955, 1.33114, 1.34037
1.66961, 1.66946, 1.66926, 1.66928, 1.66753, 1.66703, 1.66024, 1.65949, 1.65779, 1.65695, 1.65541, 1.65403, 1.65072, 1.64964, 1.64577, 1.64567, 1.63869, 1.63759, 1.63849, 1.63886, 1.63734, 1.63013, 1.63056, 1.62499, 1.62427, 1.62064, 1.61871, 1.61865, 1.62021, 1.61529, 1.61506, 1.61326, 1.61444, 1.6111, 1.61679, 1.61448, 1.61717, 1.6091, 1.61489, 1.58759, 1.57319, 1.63869, 1.66446, 1.69498, 1.72976, 1.76168, 1.84729, 1.88236, 1.88908, 1.87481, 1.98312, 1.86122, 1.65398, 1.55834, 1.54531, 1.55553, 1.59219, 1.57494, 1.58114, 1.56939, 1.56514, 1.56459, 1.56484, 1.55823, 1.55427, 1.55335, 1.55073, 1.55054, 1.54991, 1.54721, 1.54545, 1.54332, 1.54088, 1.54032, 1.53999, 1.53457, 1.53345, 1.53047, 1.54123, 1.53038, 1.52722, 1.52373, 1.5219, 1.52039, 1.52143, 1.51874, 1.51611, 1.51393, 1.51238, 1.50984, 1.50791, 1.50924, 1.50608, 1.50399, 1.50085, 1.49839, 1.49792, 1.49737, 1.49589, 1.49649, 1.49594, 1.50368, 1.51677, 1.51729, 1.50797, 1.50427, 1.4904, 1.48871, 1.4862, 1.49366, 1.48184, 1.47945, 1.47858, 1.49376, 1.47576, 1.47568, 1.47856, 1.49569, 1.48767, 1.47494, 1.45172, 1.46323, 1.47259, 1.57546, 1.55629, 1.5888, 1.54722, 1.53978, 1.58477, 1.57322, 1.54092, 1.54052, 1.54057, 1.52036, 1.51527, 1.47726, 1.45264, 1.42713, 1.43309, 1.45671, 1.45568, 1.45144, 1.44745, 1.44497, 1.43024, 1.42681, 1.4257, 1.4234, 1.42258, 1.42057, 1.41924, 1.43104, 1.43484, 1.44375, 1.44672, 1.44538, 1.45864, 1.44985, 1.43686, 1.4134, 1.40339, 1.40272, 1.40116, 1.40184, 1.39907, 1.39974, 1.40027, 1.39902, 1.39946, 1.39786, 1.39376, 1.39394, 1.39458, 1.39408, 1.39227, 1.39194, 1.39098, 1.39059, 1.39579, 1.38515, 1.38439, 1.38305, 1.38196, 1.38211, 1.38105, 1.38377, 1.38155, 1.37841, 1.37851, 1.3775, 1.37284, 1.37027, 1.3697, 1.36635, 1.36305, 1.36238, 1.3614, 1.3588, 1.35794, 1.35701, 1.35425, 1.35367, 1.35305, 1.35144, 1.35171, 1.35293, 1.35113, 1.35095, 1.3508, 1.35179, 1.36508, 1.35072, 1.35012, 1.35039, 1.34688, 1.36282, 1.36482, 1.35978, 1.36434, 1.34254, 1.32604, 1.36468, 1.44187, 1.44443, 1.46281, 1.51984, 1.52711, 1.57269, 1.58971, 1.58983, 1.56131, 1.5095, 1.45376, 1.38502, 1.37679, 1.28881, 1.32499, 1.32951, 1.32488, 1.32789
1.66868, 1.66866, 1.66626, 1.66612, 1.66654, 1.65911, 1.66044, 1.65623, 1.65536, 1.65425, 1.65221, 1.65128, 1.64957, 1.64763, 1.6455, 1.64038, 1.63878, 1.63618, 1.63281, 1.63508, 1.632, 1.62759, 1.62514, 1.62313, 1.62241, 1.61969, 1.61672, 1.6163, 1.61671, 1.61319, 1.61208, 1.61398, 1.61112, 1.61069, 1.60969, 1.61671, 1.61741, 1.62438, 1.60978, 1.62435, 1.5725, 1.59376, 1.63715, 1.70626, 1.75039, 1.76546, 1.81684, 1.79261, 1.92701, 1.96596, 1.89203, 1.76894, 1.63235, 1.55689, 1.55571, 1.57091, 1.57812, 1.57565, 1.57576, 1.57293, 1.57165, 1.56204, 1.55793, 1.55727, 1.55489, 1.55397, 1.55265, 1.55036, 1.55093, 1.54768, 1.54662, 1.54371, 1.54048, 1.53974, 1.5401, 1.53367, 1.53166, 1.53041, 1.53061, 1.52878, 1.5339, 1.52351, 1.52302, 1.53053, 1.52019, 1.51915, 1.52588, 1.51256, 1.50941, 1.50821, 1.50551, 1.50541, 1.50777, 1.51026, 1.49785, 1.49652, 1.49515, 1.49574, 1.49334, 1.49202, 1.49962, 1.49111, 1.50653, 1.51842, 1.51255, 1.5101, 1.49247, 1.48714, 1.48547, 1.49223, 1.48192, 1.47934, 1.48551, 1.47042, 1.48123, 1.47528, 1.47617, 1.47219, 1.473, 1.47126, 1.44611, 1.474, 1.48787, 1.53043, 1.54823, 1.63965, 1.60876, 1.56103, 1.56156, 1.55032, 1.53875, 1.54338, 1.54013, 1.54415, 1.50953, 1.49669, 1.45074, 1.42954, 1.43992, 1.4407, 1.44983, 1.44107, 1.44063, 1.43285, 1.42715, 1.42529, 1.42447, 1.42365, 1.42093, 1.41909, 1.41928, 1.41788, 1.42335, 1.42213, 1.41985, 1.41728, 1.43106, 1.41595, 1.41653, 1.41428, 1.40653, 1.40268, 1.39942, 1.3993, 1.39978, 1.39838, 1.3989, 1.39736, 1.39783, 1.39567, 1.39242, 1.39226, 1.39165, 1.38976, 1.38818, 1.38817, 1.38856, 1.38565, 1.38712, 1.38476, 1.38256, 1.38121, 1.38124, 1.38149, 1.38022, 1.37918, 1.3772, 1.37723, 1.37569, 1.375, 1.37454, 1.37176, 1.37134, 1.37043, 1.37016, 1.36398, 1.3643, 1.36045, 1.35861, 1.35767, 1.35673, 1.35499, 1.35405, 1.35282, 1.35063, 1.34967, 1.34916, 1.34775, 1.35036, 1.34772, 1.35044, 1.3467, 1.34451, 1.34449, 1.34434, 1.34419, 1.34665, 1.34753, 1.3422, 1.3317, 1.31385, 1.37479, 1.37797, 1.42344, 1.48642, 1.51632, 1.54033, 1.56815, 1.57554, 1.60141, 1.59332, 1.55148, 1.46693, 1.42265, 1.36093, 1.29931, 1.31141, 1.3244, 1.33045, 1.33556
1.6655, 1.6651, 1.66492, 1.66296, 1.66228, 1.6608, 1.65654, 1.65546, 1.65404, 1.65258, 1.65034, 1.65096, 1.64508, 1.64454, 1.64063, 1.64049, 1.62767, 1.64102, 1.63446, 1.63009, 1.62935, 1.62884, 1.62628, 1.62118, 1.61943, 1.62073, 1.61648, 1.61704, 1.61316, 1.61103, 1.61152, 1.61349, 1.60982, 1.60923, 1.6071, 1.60708, 1.60592, 1.60605, 1.60695, 1.60873, 1.58444, 1.58369, 1.61185, 1.64682, 1.70371, 1.73859, 1.78391, 1.82728, 1.8597, 1.93054, 1.82709, 1.80082, 1.67147, 1.58486, 1.55703, 1.56917, 1.57253, 1.5853, 1.57244, 1.58487, 1.56116, 1.55905, 1.55753, 1.55612, 1.56454, 1.55378, 1.55264, 1.54906, 1.54537, 1.57624, 1.54192, 1.5401, 1.53708, 1.53665, 1.5341, 1.54233, 1.53078, 1.53004, 1.52848, 1.52716, 1.52678, 1.52471, 1.52337, 1.52118, 1.51758, 1.5167, 1.51583, 1.5116, 1.50915, 1.50715, 1.50917, 1.5055, 1.50218, 1.50197, 1.49964, 1.50231, 1.49178, 1.49032, 1.48925, 1.49619, 1.49513, 1.50227, 1.49987, 1.51376, 1.50981, 1.51069, 1.5021, 1.49248, 1.485, 1.48493, 1.49033, 1.4825, 1.48811, 1.47428, 1.48552, 1.48752, 1.47935, 1.48892, 1.47244, 1.45395, 1.44372, 1.49641, 1.49941, 1.5153, 1.54062, 1.57909, 1.58729, 1.57095, 1.57443, 1.54479, 1.53715, 1.53934, 1.53438, 1.52673, 1.5101, 1.46838, 1.48907, 1.41471, 1.44631, 1.44678, 1.43956, 1.4378, 1.43794, 1.42997, 1.42785, 1.42574, 1.42564, 1.42904, 1.42101, 1.41972, 1.41899, 1.42315, 1.41691, 1.41621, 1.42132, 1.4317, 1.41527, 1.41466, 1.40948, 1.40493, 1.40371, 1.40069, 1.39827, 1.39734, 1.39699, 1.39789, 1.39614, 1.39613, 1.39465, 1.39402, 1.3906, 1.38862, 1.38859, 1.38797, 1.38519, 1.38415, 1.38432, 1.38413, 1.38297, 1.38335, 1.38249, 1.38204, 1.37948, 1.38118, 1.37786, 1.37772, 1.37607, 1.37582, 1.37543, 1.37962, 1.37408, 1.37247, 1.36948, 1.3685, 1.36622, 1.36653, 1.36393, 1.36276, 1.36017, 1.36018, 1.35772, 1.3574, 1.35617, 1.35446, 1.35169, 1.35026, 1.34901, 1.37421, 1.37178, 1.34757, 1.34752, 1.34421, 1.34133, 1.34024, 1.34396, 1.35654, 1.35404, 1.34747, 1.34878, 1.3477, 1.34317, 1.35792, 1.41552, 1.424, 1.4552, 1.49509, 1.55127, 1.57921, 1.59358, 1.60585, 1.57881, 1.50692, 1.4856, 1.36748, 1.333, 1.2814, 1.29097, 1.3351, 1.34312, 1.3293
1.66767, 1.66484, 1.66975, 1.66326, 1.66483, 1.65845, 1.65495, 1.65125, 1.65145, 1.6523, 1.6488, 1.64693, 1.6459, 1.64543, 1.64335, 1.6414, 1.63881, 1.63721, 1.63549, 1.63203, 1.63008, 1.62828, 1.62505, 1.62273, 1.6203, 1.61912, 1.61632, 1.61944, 1.61077, 1.61345, 1.61555, 1.60734, 1.60889, 1.60776, 1.60868, 1.60701, 1.60626, 1.6056, 1.60578, 1.60386, 1.58938, 1.60376, 1.61549, 1.65855, 1.73557, 1.75623, 1.77832, 1.8773, 1.97867, 1.98042, 2.077, 1.8094, 1.75367, 1.54893, 1.53386, 1.56367, 1.58142, 1.57625, 1.57492, 1.56426, 1.55995, 1.55918, 1.55821, 1.55701, 1.55399, 1.55168, 1.54808, 1.54728, 1.545, 1.54394, 1.55435, 1.53839, 1.5379, 1.53547, 1.53359, 1.53394, 1.53131, 1.53023, 1.52962, 1.52848, 1.52874, 1.52406, 1.52378, 1.52183, 1.51964, 1.51822, 1.51602, 1.51407, 1.51155, 1.51008, 1.5065, 1.5066, 1.50833, 1.50311, 1.49951, 1.4967, 1.49329, 1.49292, 1.49216, 1.49127, 1.50232, 1.48984, 1.50199, 1.4976, 1.509, 1.52379, 1.516, 1.49206, 1.48599, 1.48513, 1.49022, 1.48203, 1.48621, 1.47626, 1.47739, 1.47848, 1.47429, 1.48818, 1.47278, 1.48133, 1.4574, 1.46492, 1.46963, 1.52217, 1.53122, 1.56962, 1.57498, 1.63839, 1.55548, 1.53595, 1.53998, 1.53501, 1.52034, 1.52416, 1.48146, 1.47181, 1.42347, 1.42243, 1.45029, 1.43978, 1.44748, 1.43824, 1.44, 1.43102, 1.42799, 1.42564, 1.42435, 1.42227, 1.42289, 1.43109, 1.42279, 1.42087, 1.42713, 1.407, 1.41952, 1.42496, 1.43372, 1.42778, 1.39577, 1.40919, 1.40095, 1.39945, 1.39885, 1.3971, 1.3984, 1.3968, 1.39426, 1.39486, 1.39239, 1.39193, 1.3915, 1.38845, 1.38679, 1.38496, 1.38468, 1.38209, 1.38277, 1.38169, 1.38008, 1.38197, 1.37982, 1.38038, 1.37986, 1.37921, 1.37583, 1.37443, 1.37758, 1.37421, 1.37157, 1.36946, 1.36835, 1.36785, 1.36609, 1.36732, 1.36537, 1.36276, 1.3627, 1.36242, 1.3584, 1.3575, 1.35879, 1.35776, 1.35796, 1.35711, 1.35791, 1.35399, 1.35235, 1.35079, 1.34686, 1.34677, 1.34843, 1.34621, 1.3456, 1.34423, 1.34198, 1.33965, 1.35098, 1.34619, 1.35409, 1.35147, 1.34749, 1.39356, 1.43819, 1.41732, 1.4517, 1.49174, 1.51952, 1.54058, 1.56833, 1.56087, 1.53305, 1.474, 1.47957, 1.40918, 1.30876, 1.30304, 1.33697, 1.32806, 1.32622, 1.32443
1.6685, 1.6706, 1.66502, 1.66407, 1.65926, 1.67152, 1.65905, 1.65484, 1.65281, 1.65171, 1.64901, 1.64735, 1.64468, 1.64389, 1.64168, 1.64022, 1.63748, 1.63563, 1.6366, 1.63195, 1.63746, 1.6299, 1.62593, 1.62031, 1.61934, 1.61846, 1.61671, 1.61307, 1.61075, 1.61044, 1.61013, 1.60908, 1.60918, 1.61643, 1.61076, 1.60627, 1.60663, 1.60786, 1.60569, 1.61643, 1.58809, 1.58097, 1.63521, 1.6442, 1.68849, 1.73609, 1.81042, 1.88521, 1.92513, 1.98225, 2.21921, 1.84718, 1.67847, 1.64795, 1.53193, 1.56906, 1.57102, 1.57009, 1.57517, 1.56945, 1.56544, 1.56872, 1.55799, 1.5538, 1.55693, 1.55063, 1.54722, 1.54584, 1.54798, 1.54353, 1.54437, 1.54009, 1.53759, 1.5353, 1.53336, 1.53307, 1.53147, 1.53172, 1.53128, 1.52819, 1.5269, 1.52466, 1.523, 1.52091, 1.51972, 1.51921, 1.51907, 1.51351, 1.51136, 1.51003, 1.50905, 1.50738, 1.50267, 1.50859, 1.4995, 1.49649, 1.49499, 1.49303, 1.49241, 1.49056, 1.49006, 1.48946, 1.51275, 1.49485, 1.51864, 1.51292, 1.50313, 1.50141, 1.48504, 1.50322, 1.47964, 1.48293, 1.49276, 1.48313, 1.47409, 1.48144, 1.47117, 1.47326, 1.48625, 1.48691, 1.46545, 1.48707, 1.49999, 1.49627, 1.51021, 1.51634, 1.56151, 1.547, 1.55357, 1.53298, 1.53166, 1.52617, 1.5072, 1.52719, 1.49581, 1.4692, 1.47301, 1.41987, 1.44175, 1.44341, 1.44124, 1.44492, 1.43376, 1.4301, 1.43693, 1.43295, 1.42708, 1.43444, 1.42634, 1.42593, 1.42733, 1.43319, 1.43671, 1.42135, 1.43182, 1.4304, 1.42772, 1.42828, 1.42051, 1.39853, 1.41224, 1.39667, 1.39844, 1.39498, 1.39525, 1.39418, 1.39588, 1.39332, 1.39206, 1.38942, 1.39005, 1.38785, 1.3897, 1.38401, 1.38166, 1.38045, 1.38089, 1.37922, 1.37943, 1.38189, 1.38104, 1.37689, 1.37752, 1.37518, 1.37591, 1.37378, 1.372, 1.37032, 1.36924, 1.36765, 1.36584, 1.3663, 1.36323, 1.36216, 1.3623, 1.36146, 1.3595, 1.35873, 1.36052, 1.36073, 1.35694, 1.35827, 1.35688, 1.35739, 1.35729, 1.35439, 1.35674, 1.34893, 1.34767, 1.34824, 1.3477, 1.34546, 1.34568, 1.34302, 1.35501, 1.35542, 1.3431, 1.35428, 1.35896, 1.33063, 1.31171, 1.36339, 1.41377, 1.43419, 1.46121, 1.50903, 1.54656, 1.55047, 1.55879, 1.57084, 1.56443, 1.52804, 1.50992, 1.42753, 1.29417, 1.32489, 1.3257, 1.34518, 1.33422, 1.32084
1.66638, 1.66626, 1.66755, 1.66212, 1.65956, 1.65883, 1.65403, 1.66309, 1.65254, 1.65496, 1.65131, 1.64524, 1.64505, 1.6448, 1.64777, 1.63868, 1.63588, 1.63963, 1.63267, 1.62874, 1.62665, 1.62367, 1.62157, 1.61998, 1.61737, 1.61618, 1.61574, 1.62421, 1.61235, 1.61229, 1.61062, 1.61006, 1.61056, 1.6241, 1.614, 1.60804, 1.60594, 1.60382, 1.60531, 1.60306, 1.58425, 1.58035, 1.6166, 1.65264, 1.70088, 1.79097, 1.79598, 1.82049, 1.88636, 1.90793, 1.90375, 1.88246, 1.65109, 1.56329, 1.54305, 1.57276, 1.5748, 1.57641, 1.56432, 1.56413, 1.57187, 1.55566, 1.55453, 1.55223, 1.55094, 1.55076, 1.54714, 1.54439, 1.54364, 1.54066, 1.53987, 1.53968, 1.54434, 1.53939, 1.53616, 1.53302, 1.53281, 1.53319, 1.52976, 1.52694, 1.52553, 1.52332, 1.52167, 1.52079, 1.5183, 1.51735, 1.51773, 1.51395, 1.51227, 1.5104, 1.50817, 1.50679, 1.50383, 1.50188, 1.4983, 1.49517, 1.49432, 1.49261, 1.4949, 1.49049, 1.49025, 1.4867, 1.49999, 1.49962, 1.49167, 1.51948, 1.50916, 1.51219, 1.50188, 1.49337, 1.48215, 1.47943, 1.48686, 1.48208, 1.47159, 1.47907, 1.46894, 1.49038, 1.47726, 1.46867, 1.44833, 1.46527, 1.49432, 1.55255, 1.53685, 1.55144, 1.54858, 1.55065, 1.51905, 1.5291, 1.52444, 1.52078, 1.51322, 1.51318, 1.50029, 1.47453, 1.46703, 1.41219, 1.43727, 1.4414, 1.45115, 1.44463, 1.43332, 1.43183, 1.44801, 1.43768, 1.43002, 1.42827, 1.44145, 1.43736, 1.426, 1.42446, 1.44095, 1.43636, 1.42979, 1.45019, 1.42979, 1.42259, 1.40289, 1.41068, 1.40744, 1.40989, 1.39746, 1.39536, 1.40299, 1.39509, 1.39506, 1.39296, 1.39197, 1.38906, 1.38923, 1.38767, 1.38641, 1.39145, 1.38307, 1.38204, 1.37927, 1.37838, 1.37726, 1.37757, 1.3781, 1.37774, 1.37694, 1.37369, 1.37404, 1.37454, 1.36916, 1.36924, 1.36745, 1.36645, 1.36484, 1.36397, 1.36465, 1.36078, 1.36, 1.35992, 1.35842, 1.35755, 1.3581, 1.35692, 1.3566, 1.35718, 1.35564, 1.35509, 1.35185, 1.35471, 1.35338, 1.34861, 1.34923, 1.34779, 1.34549, 1.34679, 1.34307, 1.3408, 1.33874, 1.34365, 1.34828, 1.35812, 1.34097, 1.34731, 1.33229, 1.36451, 1.3922, 1.41939, 1.4504, 1.49822, 1.53994, 1.57313, 1.59158, 1.59599, 1.59623, 1.58566, 1.47472, 1.37485, 1.30519, 1.28851, 1.31934, 1.32322, 1.32072, 1.31982
1.66532, 1.66451, 1.66413, 1.66137, 1.65929, 1.65753, 1.6554, 1.65145, 1.6507, 1.64778, 1.64779, 1.64398, 1.64124, 1.64399, 1.63922, 1.63779, 1.63493, 1.63293, 1.62699, 1.62483, 1.6264, 1.6196, 1.61665, 1.61472, 1.61615, 1.61555, 1.61515, 1.62701, 1.61298, 1.61144, 1.61025, 1.60912, 1.60957, 1.60786, 1.60396, 1.60407, 1.6065, 1.62763, 1.60593, 1.60054, 1.59189, 1.56122, 1.64103, 1.64723, 1.69251, 1.73655, 1.77747, 1.86837, 1.88224, 1.92431, 1.90636, 1.7622, 1.68174, 1.61685, 1.53355, 1.54236, 1.56508, 1.5659, 1.56073, 1.5582, 1.55756, 1.56476, 1.55231, 1.54944, 1.54624, 1.54356, 1.54275, 1.54203, 1.54092, 1.5404, 1.53749, 1.53721, 1.53565, 1.53357, 1.53201, 1.52942, 1.52923, 1.52662, 1.52652, 1.52456, 1.52256, 1.52124, 1.52117, 1.51938, 1.51796, 1.51461, 1.51405, 1.51264, 1.50992, 1.50775, 1.50701, 1.5039, 1.50194, 1.50652, 1.5031, 1.49479, 1.49289, 1.49442, 1.49137, 1.48938, 1.49073, 1.48781, 1.48602, 1.48534, 1.47963, 1.50653, 1.51418, 1.5081, 1.50673, 1.51379, 1.4927, 1.48633, 1.48815, 1.47165, 1.46933, 1.479, 1.47359, 1.46956, 1.47456, 1.47414, 1.44958, 1.46942, 1.52717, 1.50205, 1.56929, 1.56374, 1.56166, 1.55952, 1.55128, 1.51763, 1.51891, 1.52079, 1.51934, 1.50125, 1.48595, 1.46055, 1.43653, 1.42566, 1.42527, 1.43732, 1.43945, 1.43692, 1.43063, 1.42954, 1.43038, 1.43038, 1.42868, 1.42718, 1.43284, 1.43122, 1.41903, 1.44007, 1.44362, 1.44171, 1.44957, 1.4331, 1.42447, 1.41829, 1.40604, 1.40674, 1.40863, 1.40112, 1.39983, 1.39963, 1.39731, 1.39558, 1.39547, 1.39372, 1.39179, 1.3906, 1.38889, 1.38999, 1.38536, 1.38464, 1.3826, 1.38123, 1.37985, 1.37872, 1.37857, 1.37793, 1.37753, 1.37521, 1.37578, 1.37395, 1.37394, 1.37059, 1.36816, 1.36788, 1.36762, 1.36502, 1.36399, 1.36358, 1.36293, 1.3634, 1.35882, 1.35735, 1.35702, 1.35604, 1.35441, 1.35577, 1.35442, 1.35511, 1.35357, 1.3547, 1.35618, 1.34871, 1.34885, 1.34805, 1.34868, 1.34402, 1.34401, 1.348, 1.33943, 1.33993, 1.3455, 1.33602, 1.34089, 1.34714, 1.34991, 1.35466, 1.3145, 1.36061, 1.38904, 1.421, 1.44691, 1.49704, 1.54399, 1.58964, 1.59633, 1.62625, 1.62091, 1.58159, 1.46563, 1.4412, 1.3026, 1.31995, 1.33355, 1.33303, 1.31861, 1.33642
1.66465, 1.66101, 1.66037, 1.6597, 1.65826, 1.65505, 1.65361, 1.65362, 1.64916, 1.6478, 1.64449, 1.64276, 1.64062, 1.63776, 1.63855, 1.63574, 1.63891, 1.62854, 1.62562, 1.62315, 1.62056, 1.6168, 1.61609, 1.61338, 1.61407, 1.6165, 1.615, 1.61414, 1.61266, 1.61405, 1.61002, 1.60812, 1.60464, 1.60466, 1.6036, 1.60206, 1.60029, 1.6004, 1.59975, 1.60934, 1.56821, 1.57071, 1.60392, 1.65501, 1.69939, 1.7308, 1.76478, 1.8106, 1.8395, 1.89845, 1.89028, 1.80051, 1.76791, 1.62409, 1.53655, 1.55734, 1.55843, 1.57829, 1.55767, 1.5548, 1.55213, 1.55159, 1.54841, 1.551, 1.54552, 1.54546, 1.54446, 1.54002, 1.5382, 1.53819, 1.53526, 1.53294, 1.53272, 1.53261, 1.53047, 1.52935, 1.52669, 1.52924, 1.52234, 1.52104, 1.51911, 1.51607, 1.51579, 1.52289, 1.51323, 1.51031, 1.50806, 1.50689, 1.5083, 1.50262, 1.50182, 1.49946, 1.49849, 1.49794, 1.49669, 1.49408, 1.50263, 1.49104, 1.48998, 1.48865, 1.48676, 1.48526, 1.48383, 1.48303, 1.48512, 1.48895, 1.50758, 1.51047, 1.50036, 1.49196, 1.48803, 1.4749, 1.47392, 1.47406, 1.46843, 1.46693, 1.48256, 1.46773, 1.46856, 1.47445, 1.46125, 1.46485, 1.47416, 1.50595, 1.551, 1.57947, 1.60043, 1.54995, 1.55487, 1.51461, 1.51328, 1.51021, 1.50613, 1.51244, 1.48408, 1.48487, 1.4438, 1.43172, 1.41882, 1.41216, 1.444, 1.43606, 1.43002, 1.42938, 1.4301, 1.43484, 1.438, 1.42908, 1.42909, 1.44315, 1.4452, 1.44443, 1.45041, 1.44412, 1.44021, 1.4202, 1.40934, 1.40264, 1.40916, 1.40505, 1.40077, 1.39883, 1.39819, 1.40222, 1.39528, 1.39559, 1.39501, 1.39167, 1.38867, 1.38777, 1.38828, 1.38717, 1.38407, 1.38308, 1.38155, 1.38151, 1.37892, 1.37792, 1.37925, 1.37913, 1.37489, 1.3727, 1.37371, 1.37315, 1.3711, 1.36897, 1.3707, 1.36739, 1.3633, 1.36343, 1.36346, 1.36067, 1.35868, 1.36054, 1.35779, 1.35481, 1.35205, 1.35352, 1.35268, 1.35327, 1.35161, 1.35314, 1.35269, 1.35046, 1.34915, 1.35005, 1.3489, 1.34934, 1.34688, 1.34505, 1.3412, 1.33942, 1.33961, 1.33681, 1.33732, 1.33301, 1.33611, 1.34685, 1.34047, 1.34659, 1.3245, 1.35661, 1.35779, 1.42662, 1.46734, 1.51664, 1.53175, 1.56559, 1.57928, 1.60206, 1.615, 1.5574, 1.48609, 1.41616, 1.35434, 1.30285, 1.31024, 1.3133, 1.31853, 1.32661
1.66417, 1.66433, 1.6592, 1.66031, 1.65783, 1.65994, 1.65482, 1.65092, 1.64856, 1.64793, 1.65148, 1.64108, 1.64338, 1.64045, 1.63969, 1.63744, 1.63355, 1.63175, 1.62745, 1.62487, 1.62236, 1.62025, 1.61774, 1.61493, 1.61446, 1.61589, 1.61926, 1.6139, 1.60957, 1.60689, 1.60564, 1.60466, 1.60512, 1.60394, 1.60261, 1.60213, 1.59801, 1.60023, 1.61419, 1.60002, 1.60059, 1.58074, 1.63087, 1.66547, 1.71705, 1.73945, 1.81686, 1.87892, 1.88949, 1.93042, 1.91906, 1.89051, 1.74809, 1.58165, 1.53048, 1.54149, 1.57235, 1.56476, 1.56237, 1.55815, 1.55411, 1.55197, 1.55201, 1.5562, 1.54587, 1.5443, 1.54413, 1.54293, 1.56212, 1.53914, 1.53744, 1.53629, 1.5357, 1.53312, 1.53105, 1.52958, 1.5292, 1.52633, 1.52179, 1.52101, 1.5184, 1.51767, 1.51316, 1.5128, 1.50986, 1.50787, 1.50647, 1.50573, 1.50432, 1.5031, 1.50266, 1.50059, 1.49739, 1.49759, 1.49539, 1.49623, 1.49305, 1.49233, 1.49135, 1.49189, 1.48923, 1.48917, 1.48569, 1.49316, 1.48622, 1.49075, 1.50448, 1.52457, 1.51682, 1.51988, 1.48917, 1.47618, 1.48198, 1.47875, 1.46947, 1.46817, 1.47113, 1.46892, 1.47167, 1.47816, 1.44306, 1.44111, 1.48297, 1.48687, 1.51925, 1.54835, 1.54352, 1.53874, 1.53552, 1.53103, 1.52651, 1.52431, 1.52252, 1.51723, 1.51485, 1.51673, 1.45374, 1.43334, 1.4306, 1.43572, 1.45028, 1.44235, 1.43519, 1.43792, 1.43704, 1.42291, 1.41435, 1.43684, 1.45495, 1.43195, 1.441, 1.49041, 1.48575, 1.46439, 1.43772, 1.42145, 1.41241, 1.41038, 1.4081, 1.4092, 1.39704, 1.39618, 1.39571, 1.39565, 1.39872, 1.39135, 1.39018, 1.39251, 1.38813, 1.38709, 1.38544, 1.38504, 1.38379, 1.38143, 1.38043, 1.38078, 1.37756, 1.37736, 1.37469, 1.37297, 1.37456, 1.37361, 1.37255, 1.37172, 1.36822, 1.36656, 1.36461, 1.36427, 1.36281, 1.36163, 1.36004, 1.35888, 1.35918, 1.35736, 1.35683, 1.35581, 1.35541, 1.35372, 1.35388, 1.35362, 1.35343, 1.35124, 1.35157, 1.34979, 1.35144, 1.34846, 1.34651, 1.34581, 1.34472, 1.34452, 1.34393, 1.34116, 1.33739, 1.33674, 1.3382, 1.3413, 1.33725, 1.3396, 1.34394, 1.34696, 1.33056, 1.3153, 1.38077, 1.40759, 1.46886, 1.48177, 1.51689, 1.55538, 1.574, 1.58939, 1.58593, 1.51371, 1.49276, 1.43052, 1.34681, 1.29781, 1.30879, 1.32627, 1.33283, 1.31796
1.66383, 1.66389, 1.66378, 1.66486, 1.66416, 1.65617, 1.65464, 1.66823, 1.64881, 1.64731, 1.647, 1.64385, 1.64373, 1.64113, 1.63963, 1.63752, 1.63742, 1.63465, 1.63177, 1.62965, 1.62646, 1.6231, 1.61994, 1.61858, 1.61996, 1.62361, 1.61701, 1.61473, 1.61251, 1.61092, 1.60547, 1.60516, 1.60382, 1.60268, 1.60667, 1.59937, 1.61469, 1.61005, 1.60139, 1.6101, 1.60402, 1.58946, 1.5816, 1.64231, 1.68989, 1.75147, 1.78407, 1.83077, 1.88743, 1.92312, 1.91377, 1.86934, 1.7285, 1.61671, 1.53508, 1.55454, 1.56779, 1.56566, 1.56315, 1.56216, 1.56875, 1.56423, 1.5645, 1.55031, 1.54732, 1.54573, 1.5487, 1.54812, 1.54923, 1.54462, 1.53827, 1.53676, 1.55072, 1.54057, 1.5314, 1.52793, 1.52475, 1.52357, 1.52308, 1.51971, 1.51755, 1.51671, 1.51064, 1.50819, 1.5061, 1.50551, 1.50364, 1.50175, 1.50155, 1.50152, 1.49851, 1.49713, 1.49636, 1.49525, 1.49474, 1.49413, 1.49255, 1.49243, 1.49187, 1.5003, 1.49044, 1.49063, 1.48966, 1.48989, 1.48678, 1.48352, 1.51632, 1.49716, 1.51069, 1.50923, 1.50758, 1.49177, 1.49226, 1.47799, 1.49311, 1.48694, 1.4695, 1.46737, 1.46768, 1.45879, 1.44366, 1.44419, 1.45182, 1.49344, 1.51463, 1.52709, 1.53547, 1.53776, 1.53947, 1.49088, 1.52354, 1.51992, 1.53166, 1.53346, 1.50992, 1.48156, 1.44802, 1.42039, 1.43223, 1.44298, 1.44896, 1.43689, 1.43212, 1.42908, 1.43534, 1.44799, 1.44023, 1.47112, 1.45072, 1.45584, 1.45095, 1.47446, 1.44286, 1.44351, 1.4569, 1.4171, 1.42257, 1.41951, 1.41947, 1.40291, 1.39997, 1.39915, 1.40607, 1.39667, 1.39559, 1.39311, 1.39606, 1.32283, 1.3892, 1.38913, 1.38586, 1.3838, 1.38129, 1.37805, 1.37892, 1.3775, 1.3755, 1.3731, 1.37459, 1.37537, 1.37376, 1.37261, 1.37206, 1.36777, 1.36641, 1.36442, 1.36567, 1.36464, 1.36231, 1.36339, 1.36028, 1.3594, 1.35974, 1.35853, 1.35718, 1.35657, 1.35733, 1.35512, 1.3548, 1.35208, 1.35246, 1.35114, 1.35022, 1.34852, 1.34838, 1.34684, 1.34708, 1.34535, 1.34481, 1.34179, 1.33959, 1.34004, 1.33771, 1.34383, 1.35509, 1.34754, 1.33663, 1.34953, 1.33623, 1.33748, 1.31351, 1.31642, 1.36369, 1.42004, 1.39573, 1.47275, 1.55035, 1.57213, 1.57799, 1.59358, 1.5937, 1.56483, 1.4871, 1.44429, 1.36767, 1.29524, 1.30604, 1.31861, 1.32075, 1.32118
1.66922, 1.66935, 1.6647, 1.66507, 1.6618, 1.6586, 1.66064, 1.66847, 1.65129, 1.64872, 1.64741, 1.6511, 1.64313, 1.64488, 1.64079, 1.63925, 1.63768, 1.64371, 1.63272, 1.63176, 1.63125, 1.62722, 1.62406, 1.62362, 1.62057, 1.62098, 1.61628, 1.64202, 1.6206, 1.61125, 1.60791, 1.62836, 1.60418, 1.60314, 1.60323, 1.60255, 1.62003, 1.60612, 1.61594, 1.59959, 1.58863, 1.5854, 1.59177, 1.62112, 1.66487, 1.72613, 1.76801, 1.81826, 1.83428, 1.89159, 1.8928, 1.76503, 1.70126, 1.59814, 1.53215, 1.56241, 1.57716, 1.57473, 1.56457, 1.56062, 1.56578, 1.56151, 1.56094, 1.55841, 1.54875, 1.55033, 1.56233, 1.54845, 1.54122, 1.53822, 1.56181, 1.54102, 1.53447, 1.53348, 1.52841, 1.53691, 1.55211, 1.52313, 1.52199, 1.51782, 1.51654, 1.51426, 1.51034, 1.51284, 1.5072, 1.53559, 1.50346, 1.50274, 1.50074, 1.49819, 1.49896, 1.49571, 1.49547, 1.49438, 1.49325, 1.49321, 1.49346, 1.49257, 1.49098, 1.49216, 1.4895, 1.49618, 1.49647, 1.4867, 1.49573, 1.49178, 1.49652, 1.50608, 1.50385, 1.52042, 1.50633, 1.5095, 1.4729, 1.48374, 1.47564, 1.48542, 1.47447, 1.49265, 1.48523, 1.44397, 1.43393, 1.44411, 1.46417, 1.48172, 1.50982, 1.52115, 1.54158, 1.54383, 1.54752, 1.50521, 1.51225, 1.51324, 1.52261, 1.52425, 1.49631, 1.46573, 1.43126, 1.42112, 1.40484, 1.43974, 1.4602, 1.45465, 1.451, 1.45439, 1.4752, 1.46758, 1.46806, 1.49182, 1.47845, 1.47471, 1.46423, 1.45124, 1.44892, 1.4296, 1.42634, 1.41614, 1.41848, 1.41649, 1.41801, 1.4164, 1.41478, 1.40267, 1.39892, 1.39738, 1.40233, 1.41962, 1.39225, 1.39079, 1.40531, 1.38773, 1.38524, 1.38224, 1.38149, 1.38301, 1.37825, 1.37859, 1.37706, 1.37507, 1.37433, 1.37388, 1.37435, 1.37204, 1.36963, 1.36727, 1.36744, 1.36544, 1.36455, 1.36368, 1.36277, 1.36148, 1.36037, 1.35953, 1.36101, 1.35727, 1.3603, 1.35467, 1.3558, 1.35434, 1.35504, 1.35367, 1.351, 1.35044, 1.3512, 1.34954, 1.34995, 1.34725, 1.34661, 1.34597, 1.34292, 1.35221, 1.35604, 1.34316, 1.33788, 1.33383, 1.354, 1.35452, 1.33932, 1.34074, 1.35486, 1.34567, 1.32719, 1.34521, 1.37317, 1.37235, 1.42196, 1.46748, 1.51731, 1.52871, 1.56819, 1.6205, 1.59793, 1.55361, 1.48586, 1.36886, 1.35154, 1.30882, 1.31287, 1.32051, 1.33782, 1.32267
1.67226, 1.67139, 1.66256, 1.66246, 1.65965, 1.65672, 1.65397, 1.65222, 1.65057, 1.64866, 1.64409, 1.64162, 1.64018, 1.64075, 1.63715, 1.63575, 1.63443, 1.63413, 1.63347, 1.63234, 1.63106, 1.62477, 1.62326, 1.62229, 1.61934, 1.61565, 1.6139, 1.61291, 1.61127, 1.60956, 1.61076, 1.60738, 1.60235, 1.60299, 1.59965, 1.59658, 1.59268, 1.5928, 1.60595, 1.61259, 1.6097, 1.56697, 1.62049, 1.66558, 1.72864, 1.75172, 1.75995, 1.80468, 1.89659, 1.92154, 1.92867, 1.94105, 1.70681, 1.64609, 1.54762, 1.54047, 1.58576, 1.5642, 1.56934, 1.57762, 1.56574, 1.56606, 1.55354, 1.56782, 1.54904, 1.54175, 1.54473, 1.54193, 1.54349, 1.53748, 1.53295, 1.55861, 1.55397, 1.5298, 1.54358, 1.52373, 1.52201, 1.51803, 1.51638, 1.51499, 1.51382, 1.51929, 1.5089, 1.50579, 1.50092, 1.50066, 1.50289, 1.49733, 1.49494, 1.49625, 1.49253, 1.49182, 1.50908, 1.49155, 1.49164, 1.49046, 1.48962, 1.48896, 1.49608, 1.48864, 1.48686, 1.48573, 1.48427, 1.48313, 1.4931, 1.48258, 1.48115, 1.49335, 1.52585, 1.52397, 1.52008, 1.49937, 1.47847, 1.48191, 1.48154, 1.46666, 1.46524, 1.47384, 1.4792, 1.46599, 1.45993, 1.44088, 1.46751, 1.46406, 1.48833, 1.50016, 1.53456, 1.52832, 1.50879, 1.51958, 1.5297, 1.50307, 1.5154, 1.51742, 1.50899, 1.47526, 1.4756, 1.4459, 1.43989, 1.45085, 1.45613, 1.46514, 1.47119, 1.4753, 1.47366, 1.4929, 1.48286, 1.46849, 1.4406, 1.4499, 1.44737, 1.44696, 1.42523, 1.42996, 1.4368, 1.41114, 1.41169, 1.40622, 1.40272, 1.40081, 1.40181, 1.39746, 1.39714, 1.39497, 1.39778, 1.39204, 1.29478, 1.38896, 1.38806, 1.38618, 1.38388, 1.38417, 1.37865, 1.37862, 1.37545, 1.37551, 1.375, 1.37236, 1.37104, 1.37031, 1.37006, 1.36687, 1.36871, 1.36543, 1.36439, 1.36416, 1.36056, 1.36107, 1.36064, 1.36413, 1.356, 1.35584, 1.3551, 1.35486, 1.35399, 1.35216, 1.35148, 1.34864, 1.34961, 1.35176, 1.3488, 1.34651, 1.34572, 1.34685, 1.34405, 1.34408, 1.34062, 1.33916, 1.33719, 1.33603, 1.3353, 1.33705, 1.33228, 1.33322, 1.33191, 1.33751, 1.33276, 1.33256, 1.34079, 1.33849, 1.34285, 1.30702, 1.35171, 1.39292, 1.42678, 1.45023, 1.52382, 1.55839, 1.57608, 1.60782, 1.60468, 1.59533, 1.50984, 1.46202, 1.36503, 1.30944, 1.31701, 1.31786, 1.31407, 1.31918
1.66622, 1.6634, 1.66208, 1.66156, 1.65685, 1.66132, 1.65123, 1.65046, 1.65008, 1.65011, 1.64381, 1.64206, 1.63993, 1.63747, 1.63749, 1.63449, 1.63313, 1.63248, 1.62986, 1.62804, 1.62483, 1.62357, 1.62252, 1.62037, 1.61649, 1.61443, 1.6136, 1.6107, 1.60945, 1.60799, 1.60347, 1.60062, 1.59919, 1.59822, 1.59459, 1.59189, 1.59149, 1.59166, 1.59484, 1.59687, 1.60894, 1.57962, 1.57651, 1.63939, 1.72348, 1.75488, 1.78764, 1.83876, 1.89254, 1.91679, 1.96107, 1.81221, 1.68956, 1.60609, 1.5246, 1.54145, 1.57259, 1.5526, 1.56788, 1.57276, 1.5575, 1.56493, 1.55233, 1.55005, 1.55936, 1.54484, 1.54094, 1.54009, 1.53652, 1.53668, 1.53214, 1.53043, 1.52747, 1.5232, 1.52318, 1.53559, 1.52164, 1.51665, 1.51567, 1.5086, 1.51147, 1.51074, 1.51602, 1.50118, 1.49885, 1.49944, 1.49637, 1.49528, 1.49452, 1.49591, 1.49113, 1.48929, 1.49202, 1.48942, 1.48861, 1.4865, 1.48712, 1.48654, 1.48566, 1.48589, 1.48439, 1.48589, 1.48523, 1.48034, 1.47778, 1.48398, 1.47937, 1.499, 1.51188, 1.52118, 1.53183, 1.52981, 1.51014, 1.48663, 1.49057, 1.471, 1.46916, 1.46783, 1.47849, 1.46519, 1.47286, 1.45411, 1.47807, 1.49195, 1.50594, 1.51733, 1.52686, 1.53335, 1.51906, 1.51695, 1.5008, 1.49557, 1.52216, 1.53149, 1.50294, 1.50126, 1.46429, 1.44186, 1.44287, 1.44903, 1.46339, 1.47417, 1.48031, 1.47763, 1.45924, 1.46192, 1.45285, 1.44553, 1.43499, 1.43671, 1.42716, 1.42753, 1.41911, 1.42948, 1.41219, 1.40879, 1.40785, 1.40377, 1.40297, 1.40091, 1.39872, 1.39849, 1.39591, 1.39366, 1.39272, 1.3921, 1.38951, 1.38803, 1.3864, 1.38563, 1.38532, 1.38371, 1.38145, 1.37694, 1.37431, 1.37401, 1.37366, 1.37017, 1.36973, 1.36858, 1.37029, 1.36935, 1.36695, 1.36843, 1.36774, 1.36386, 1.36278, 1.3621, 1.36173, 1.36202, 1.35873, 1.35711, 1.35728, 1.35562, 1.35568, 1.3566, 1.35202, 1.35068, 1.35076, 1.34662, 1.34645, 1.34671, 1.34327, 1.34173, 1.34109, 1.34238, 1.34045, 1.33773, 1.33717, 1.33594, 1.33427, 1.34043, 1.33116, 1.32992, 1.32908, 1.32939, 1.32907, 1.33041, 1.34085, 1.33588, 1.30015, 1.32475, 1.37137, 1.41437, 1.41993, 1.48543, 1.50956, 1.54142, 1.59241, 1.61474, 1.62089, 1.59907, 1.49509, 1.37588, 1.35684, 1.27899, 1.31175, 1.31844, 1.31524, 1.32311
1.66415, 1.66478, 1.65828, 1.65607, 1.65406, 1.6524, 1.65057, 1.64594, 1.64555, 1.64547, 1.64301, 1.66228, 1.63822, 1.63663, 1.63479, 1.63245, 1.6583, 1.6282, 1.6275, 1.62875, 1.62327, 1.62098, 1.62332, 1.62014, 1.61645, 1.6144, 1.61314, 1.61137, 1.60985, 1.6078, 1.60605, 1.60404, 1.60027, 1.5982, 1.59638, 1.59363, 1.59244, 1.59228, 1.59206, 1.61278, 1.59975, 1.6035, 1.60245, 1.65232, 1.65859, 1.69931, 1.76151, 1.75966, 1.80931, 1.84216, 1.83801, 1.79194, 1.68935, 1.56424, 1.54571, 1.57874, 1.57599, 1.57115, 1.57073, 1.57826, 1.55984, 1.55727, 1.56815, 1.55201, 1.55461, 1.54781, 1.54635, 1.54418, 1.55045, 1.53833, 1.53766, 1.55092, 1.52926, 1.52695, 1.52609, 1.52319, 1.52269, 1.51927, 1.51756, 1.5156, 1.51362, 1.51115, 1.50947, 1.5069, 1.50385, 1.50026, 1.50064, 1.49872, 1.49826, 1.49616, 1.49395, 1.4931, 1.49304, 1.49254, 1.49, 1.48884, 1.48894, 1.48914, 1.48578, 1.48417, 1.48413, 1.48248, 1.48007, 1.48465, 1.48014, 1.48493, 1.47527, 1.47649, 1.48785, 1.50827, 1.50382, 1.49596, 1.50055, 1.52415, 1.49602, 1.47165, 1.45423, 1.45865, 1.47366, 1.46637, 1.44777, 1.44877, 1.44887, 1.49376, 1.50352, 1.53856, 1.52813, 1.5247, 1.52641, 1.51654, 1.49655, 1.48468, 1.50517, 1.51879, 1.55039, 1.47633, 1.46576, 1.45263, 1.44575, 1.4415, 1.44769, 1.4372, 1.43487, 1.44263, 1.43677, 1.43368, 1.41619, 1.42618, 1.42108, 1.4311, 1.42422, 1.43145, 1.41622, 1.41336, 1.40961, 1.41079, 1.40517, 1.40439, 1.40555, 1.3997, 1.39829, 1.3985, 1.3957, 1.39459, 1.39514, 1.39199, 1.39458, 1.38859, 1.38591, 1.385, 1.38473, 1.38501, 1.37992, 1.38107, 1.37873, 1.37749, 1.37562, 1.37529, 1.37229, 1.37179, 1.37196, 1.37179, 1.36907, 1.3659, 1.366, 1.36599, 1.3646, 1.36578, 1.36254, 1.36274, 1.36245, 1.36098, 1.36009, 1.35722, 1.35552, 1.35339, 1.35398, 1.35386, 1.35087, 1.34972, 1.34775, 1.34639, 1.34473, 1.34375, 1.34338, 1.34312, 1.33787, 1.33987, 1.33905, 1.33982, 1.33521, 1.33096, 1.33166, 1.33096, 1.32981, 1.33014, 1.32904, 1.32962, 1.33429, 1.3326, 1.33493, 1.30959, 1.33699, 1.42077, 1.43201, 1.4584, 1.49215, 1.55236, 1.59267, 1.60072, 1.60401, 1.58601, 1.49665, 1.38137, 1.31991, 1.27161, 1.27885, 1.30836, 1.31648, 1.31274
