1.07033, 1.01855, 1.01902, 1.07563, 1.07428, 1.08696, 1.04041, 1.0425, 1.04271, 1.04346, 1.11628, 1.1296, 1.11938, 1.05349, 1.05597, 1.05992, 1.06171, 1.06407, 1.07061, 1.07213, 1.07436, 1.07666, 1.08258, 1.08374, 1.08363, 1.08486, 1.09097, 1.09201, 1.09096, 1.09215, 1.19604, 1.10032, 1.10099, 1.10452, 1.10498, 1.11094, 1.11215, 1.11415, 1.11672, 1.11704, 1.24835, 1.20903, 1.27859, 1.2608, 1.17493, 1.27111, 1.16703, 1.16169, 1.29208, 1.21489, 1.1106, 1.10863, 1.10786, 1.10624, 1.21751, 1.10369, 1.10213, 1.09968, 1.33926, 1.23545, 1.24706, 1.37476, 1.08772, 1.243, 1.28101, 1.38957, 1.13996, 1.06555, 1.35305, 1.35177, 1.04531, 1.03491, 1.03745, 1.06769, 1.01847, 1.03656, 1.01315, 0.995621, 0.995294, 0.995251, 0.987354, 0.987074, 0.982038, 0.983593, 0.98256, 0.981156, 0.980076, 0.978355, 0.977589, 0.974507, 0.973871, 0.9715, 0.971057, 0.970554, 0.969706, 0.967246, 0.966973, 0.965798, 0.962527, 0.963106, 0.965083, 0.966337, 0.962736, 0.96278, 0.959465, 0.9592, 0.961334, 0.961313, 0.960293, 0.959662, 0.95699, 0.956901, 0.962088, 0.960265, 0.959905, 0.956814, 0.956317, 0.95735, 0.958337, 0.959221, 0.958882, 0.953848, 0.954751, 0.957078, 0.956899, 1.17803, 0.953482, 0.982131, 0.946598, 0.947676, 0.947362, 0.942892, 0.936607, 0.932923, 0.930475, 0.927343, 0.926349, 0.928322, 0.929006, 0.935339, 1.11636, 0.942447, 0.943204, 0.943086, 0.942964, 0.9706, 0.925724, 0.924629, 0.921122, 0.922615, 0.922062, 0.921927, 0.923175, 0.922976, 0.919074, 0.917264, 0.90927, 0.907615, 0.907611, 0.906552, 0.907501, 0.907445, 0.906039, 0.904157, 0.902939, 0.900844, 0.902492, 0.902371, 0.898781, 0.89682, 0.896231, 0.894975, 0.894893, 0.894542, 0.892395, 0.88783, 0.888098, 0.885903, 0.882129, 0.881084, 0.877459, 0.883397, 0.881677, 0.881825, 0.881187, 0.880315, 0.879396, 0.879996, 0.880247, 0.883444, 0.881104, 0.880405, 0.880365, 0.881111, 0.876506, 0.876176, 0.876754, 0.876432, 0.877555, 0.877572, 0.87737, 0.877082, 0.876356, 0.876672, 0.877387, 0.878143, 0.880817, 0.877008, 0.877544, 0.877041, 1.03704, 0.876643, 0.87675, 0.877814, 0.87749, 0.877449, 0.878199, 0.877918, 0.878555, 0.883312, 0.883313, 0.881913, 0.881693, 0.885002, 0.883992, 0.88939, 0.890662, 0.891335, 0.892039, 0.890826, 0.920405, 0.878077, 0.877741, 0.873612, 0.873066, 0.873395, 0.873333, 0.87159, 0.872381, 0.905191, 0.906821, 0.920239, 0.923983, 0.940221, 0.880588, 0.882085, 0.883254, 0.932443, 0.892194, 0.89356, 0.894154, 0.894817, 0.897384, 0.898263, 0.895129, 0.893731, 0.889686, 0.893863, 0.895432, 0.897224, 0.894191, 0.893642, 0.893257, 0.890847, 0.891047, 0.965757, 1.19089, 1.0464, 0.883751, 0.865189
1.01366, 1.01378, 1.02021, 1.02533, 1.02606, 1.08992, 1.03882, 1.03919, 1.04445, 1.04305, 1.04465, 1.07739, 1.0527, 1.05275, 1.05616, 1.05741, 1.06196, 1.06249, 1.06814, 1.07141, 1.07423, 1.07696, 1.08226, 1.08275, 1.08487, 1.08722, 1.08964, 1.09096, 1.09319, 1.09308, 1.19597, 1.0991, 1.10141, 1.10376, 1.10373, 1.10958, 1.11101, 1.11329, 1.11503, 1.11525, 1.22625, 1.22902, 1.11548, 1.18727, 1.11503, 1.2922, 1.19958, 1.30937, 1.11135, 1.11058, 1.10898, 1.10827, 1.24633, 1.10497, 1.24658, 1.10294, 1.10156, 1.30555, 1.09767, 1.2284, 1.24989, 1.29635, 1.33062, 1.33033, 1.08239, 1.30683, 1.30575, 1.27049, 1.27074, 1.1948, 1.35755, 1.04327, 1.03593, 1.11142, 1.53378, 1.00059, 0.998142, 0.994913, 0.995441, 0.996053, 0.987664, 0.987338, 0.982584, 0.981469, 0.98163, 0.981077, 0.980716, 0.977944, 0.977454, 0.974871, 0.973481, 0.973437, 0.971416, 0.970172, 0.967341, 0.96734, 0.966716, 0.965501, 0.962271, 0.962902, 0.962859, 0.99519, 0.961011, 0.957679, 0.95876, 0.959266, 0.957789, 0.961686, 0.961787, 0.959114, 0.956201, 0.956417, 0.95737, 0.960034, 0.958454, 0.956137, 0.95843, 0.957564, 0.956972, 0.957861, 0.957778, 0.95708, 0.954846, 0.955666, 0.956247, 0.953192, 0.943869, 0.94403, 0.945129, 0.946019, 0.946183, 0.936827, 0.937114, 0.935129, 0.935483, 0.927992, 0.926862, 0.928149, 0.928452, 0.934194, 1.12677, 0.942707, 0.943029, 0.942979, 0.94476, 0.929129, 0.92504, 0.925963, 0.924626, 0.923666, 0.922885, 0.921839, 0.922189, 0.92335, 0.91861, 0.918333, 0.908408, 0.908618, 0.90807, 0.907438, 0.906474, 0.906852, 0.906466, 0.903445, 0.902541, 0.897816, 0.900318, 0.902036, 0.900739, 0.89761, 0.896511, 0.895518, 0.895165, 0.894531, 0.893735, 0.89379, 0.889176, 0.887408, 0.886849, 0.880747, 0.879335, 0.880787, 0.882036, 0.882348, 0.882727, 0.883034, 0.880696, 0.879836, 0.878859, 0.879796, 0.882004, 0.883198, 0.882168, 0.881564, 0.881449, 0.875292, 0.878123, 0.876998, 0.87714, 0.87786, 0.878007, 0.878132, 0.876332, 0.876869, 0.877532, 0.878869, 0.881125, 0.880127, 0.879089, 0.878859, 0.878962, 0.87715, 0.877868, 0.879263, 0.877632, 0.878259, 0.878876, 0.878352, 0.880569, 0.882576, 0.883257, 0.883812, 0.988297, 1.04419, 0.897614, 0.890156, 0.891536, 0.89215, 0.88686, 0.886701, 0.886753, 0.911371, 0.872326, 0.873221, 0.873239, 0.873037, 0.873644, 0.872026, 0.870833, 0.904824, 0.873943, 0.876592, 0.877844, 0.938871, 0.940815, 0.880772, 0.950314, 0.9365, 0.89143, 0.892323, 0.895007, 0.89535, 0.897105, 0.898177, 0.895078, 0.895135, 0.929647, 0.894645, 0.895201, 0.893765, 0.888938, 0.893493, 0.892488, 0.891977, 0.893222, 0.892623, 1.11336, 1.01427, 0.991848, 0.8635
1.00938, 1.01238, 1.01729, 1.01939, 1.0774, 1.07759, 1.03214, 1.04056, 1.04379, 1.04351, 1.04509, 1.12234, 1.04974, 1.05123, 1.05654, 1.05671, 1.06026, 1.06397, 1.0681, 1.07316, 1.0736, 1.13706, 1.15289, 1.08036, 1.08424, 1.08607, 1.0898, 1.09057, 1.09399, 1.09406, 1.09471, 1.10057, 1.10161, 1.10312, 1.10325, 1.10962, 1.11171, 1.11319, 1.24739, 1.24594, 1.2417, 1.21214, 1.21272, 1.11357, 1.11277, 1.11364, 1.11145, 1.1107, 1.20621, 1.21486, 1.10795, 1.10783, 1.10612, 1.10454, 1.10315, 1.10173, 1.22946, 1.26705, 1.30902, 1.09645, 1.25013, 1.2497, 1.32791, 1.27792, 1.08378, 1.08305, 1.30834, 1.27071, 1.37487, 1.34657, 1.04412, 1.38425, 1.07525, 1.11234, 1.0956, 1.00267, 0.997666, 0.997086, 0.994404, 0.989295, 0.985752, 0.985184, 0.982936, 0.981191, 0.980892, 0.980565, 0.979521, 0.977953, 0.978516, 0.974908, 0.974492, 0.9716, 0.970742, 0.970678, 0.96651, 0.966588, 0.966511, 0.963442, 0.962802, 0.962919, 0.962428, 1.20909, 0.956669, 0.957646, 0.95748, 0.957251, 0.957056, 0.959454, 0.959779, 0.960042, 0.956563, 0.955895, 0.95906, 0.9592, 0.95902, 0.958888, 0.959309, 0.956183, 0.955142, 0.954225, 0.957775, 0.958136, 0.955749, 0.955832, 0.955961, 0.956728, 0.945632, 0.94562, 0.94559, 0.946309, 0.943867, 0.943672, 0.936426, 0.935922, 0.936874, 0.932354, 0.932233, 0.928741, 0.928375, 0.932636, 0.942585, 0.941857, 0.942433, 0.943689, 1.09948, 0.925903, 0.927383, 0.928467, 0.923727, 0.923034, 0.92467, 0.922975, 0.923151, 0.924039, 0.925108, 0.9878, 0.907502, 0.907829, 0.907704, 0.907941, 0.907565, 0.906884, 0.906098, 0.903424, 0.90344, 0.899797, 0.90123, 0.903956, 0.901957, 0.899599, 0.898325, 0.898051, 0.897698, 0.896301, 0.896225, 0.895679, 0.885937, 0.886555, 0.885662, 0.884558, 0.883941, 0.881769, 0.882622, 0.883207, 0.883673, 0.883576, 0.882095, 0.879462, 0.879664, 0.881572, 0.88302, 0.88343, 0.880311, 0.880056, 0.88223, 0.883098, 0.877385, 0.880431, 0.877602, 0.878397, 0.879879, 0.88024, 0.878621, 0.878428, 0.878785, 0.879784, 0.882204, 0.883047, 0.881207, 0.880645, 0.881835, 0.88087, 0.8799, 0.879622, 0.878178, 0.87809, 0.876797, 0.878169, 0.880474, 0.886632, 0.8873, 0.88908, 0.891341, 0.895416, 0.896378, 0.896826, 0.890869, 0.890733, 0.891124, 0.887674, 0.887122, 0.915251, 0.873818, 0.872926, 0.871682, 0.872276, 0.873921, 0.870026, 0.870124, 0.873139, 0.91723, 0.921746, 0.931496, 0.9049, 0.882576, 0.884161, 0.887656, 0.950057, 0.964871, 0.89164, 0.894559, 0.895603, 0.896813, 0.896129, 0.894715, 0.895769, 1.03392, 0.901234, 1.04418, 0.888506, 0.889547, 0.890118, 0.889657, 0.892283, 0.893628, 0.892517, 1.10869, 1.17255, 0.877377, 0.864298
1.04595, 1.01323, 1.01804, 1.02137, 1.02491, 1.02696, 1.03012, 1.03636, 1.04538, 1.04588, 1.04583, 1.04702, 1.04951, 1.05131, 1.05451, 1.05484, 1.05946, 1.14009, 1.06664, 1.06999, 1.14999, 1.14629, 1.13319, 1.16302, 1.08467, 1.08609, 1.08738, 1.08989, 1.09322, 1.09368, 1.19343, 1.10122, 1.10154, 1.10178, 1.1061, 1.10941, 1.11137, 1.11204, 1.21634, 1.23824, 1.25392, 1.28638, 1.11332, 1.11207, 1.11195, 1.11136, 1.11052, 1.10963, 1.10881, 1.1089, 1.10782, 1.10673, 1.10634, 1.10418, 1.10339, 1.20784, 1.20776, 1.09797, 1.09756, 1.16122, 1.25197, 1.32918, 1.2447, 1.27695, 1.08461, 1.08319, 1.34607, 1.34617, 1.25574, 1.45385, 1.36618, 1.22378, 1.03567, 1.04823, 1.01203, 1.00079, 0.997344, 0.997419, 0.99243, 0.98865, 0.986988, 0.984096, 0.983358, 0.981826, 0.980159, 0.980169, 0.979957, 0.978141, 0.978177, 0.974855, 0.973455, 0.970133, 0.969721, 0.974128, 0.961543, 0.962855, 0.963434, 0.963654, 0.962759, 0.96187, 0.961349, 0.960681, 0.955889, 0.956049, 0.953396, 0.954892, 0.955784, 0.957499, 0.959431, 0.958135, 0.95561, 0.955552, 0.957304, 0.959142, 0.959589, 0.959421, 0.957982, 0.959681, 0.956304, 0.953467, 0.957683, 0.958762, 0.955067, 0.954213, 0.954603, 0.949506, 0.947805, 0.946578, 0.945733, 0.944832, 0.943256, 0.943566, 0.936008, 0.936394, 0.935625, 0.931879, 0.931431, 0.930771, 0.931105, 0.932741, 1.09295, 0.940853, 1.01472, 1.01231, 0.936027, 0.928341, 0.929156, 0.927535, 0.926372, 0.923409, 0.92255, 0.922865, 0.925454, 0.925536, 0.92538, 0.926075, 0.917621, 0.907679, 0.906801, 0.908407, 0.908972, 0.908856, 0.908326, 0.904073, 0.903059, 0.901549, 0.901184, 0.902588, 0.900379, 0.899416, 0.899291, 0.898358, 0.897432, 0.897028, 0.895285, 0.895527, 0.886896, 0.88655, 0.884532, 0.886483, 0.88707, 0.888053, 0.883624, 0.883691, 0.883968, 0.885146, 0.881965, 0.883546, 0.88389, 0.883125, 0.8824, 0.882208, 0.881115, 0.880044, 0.880173, 0.884237, 0.87977, 0.879104, 0.878196, 0.879906, 0.881556, 0.882041, 0.881436, 0.879294, 0.877443, 0.876871, 0.88005, 0.882182, 0.883406, 0.883033, 0.882862, 0.882886, 0.883272, 0.875363, 0.876603, 0.879046, 0.877703, 0.880231, 0.880872, 0.880774, 0.945772, 1.05985, 0.89421, 0.896775, 0.897774, 0.894988, 0.895824, 0.89052, 0.890314, 0.887273, 0.878561, 0.86868, 0.870193, 0.870934, 0.872802, 0.872659, 0.872766, 0.869861, 0.869947, 0.874625, 0.925177, 0.925267, 0.877271, 0.88038, 0.939481, 0.887724, 0.887049, 0.890286, 0.891127, 0.89127, 0.893364, 0.893883, 0.895261, 0.897103, 0.894988, 0.896095, 0.903835, 0.901863, 1.07348, 1.0064, 0.888562, 0.887116, 0.890796, 0.890748, 0.892312, 0.892518, 1.09679, 0.987619, 1.01535, 1.0775
1.00873, 1.01465, 1.01784, 1.02044, 1.02369, 1.02696, 1.03396, 1.03529, 1.04197, 1.04493, 1.04671, 1.04699, 1.04845, 1.05001, 1.05433, 1.05618, 1.05828, 1.1403, 1.06582, 1.06839, 1.07347, 1.07401, 1.14052, 1.09792, 1.08561, 1.08594, 1.08782, 1.09089, 1.09409, 1.09403, 1.15502, 1.09996, 1.10181, 1.1025, 1.10934, 1.10984, 1.11032, 1.12402, 1.12564, 1.23673, 1.13973, 1.11174, 1.11147, 1.1114, 1.11136, 1.1108, 1.10979, 1.1105, 1.10904, 1.10795, 1.10731, 1.10604, 1.21106, 1.20496, 1.10205, 1.20616, 1.20814, 1.09764, 1.09622, 1.2894, 1.28886, 1.27958, 1.27984, 1.08604, 1.08515, 1.08168, 1.26756, 1.25689, 1.25649, 1.36799, 1.06355, 1.03894, 1.17736, 1.40872, 1.10334, 1.0001, 0.999507, 0.990424, 0.990709, 0.989286, 0.986368, 0.983592, 0.983465, 0.981986, 0.980702, 0.98073, 0.980492, 0.980369, 0.977798, 0.974208, 0.973095, 0.971819, 0.970134, 0.960072, 0.961194, 0.962815, 0.962911, 0.962995, 0.96193, 0.961365, 0.960655, 0.960649, 0.955334, 0.956157, 0.953356, 0.956177, 0.955724, 1.11243, 1.11135, 1.074, 0.954583, 0.9544, 0.955796, 0.95661, 0.956985, 0.959062, 0.957887, 0.958058, 0.952974, 0.952929, 0.95374, 0.954838, 0.950424, 0.953335, 0.948602, 0.947916, 0.948103, 0.948665, 0.94742, 0.945629, 0.943534, 0.942134, 0.935618, 0.9358, 0.930974, 0.931554, 0.931223, 0.931014, 0.991143, 0.93275, 1.09371, 1.07685, 0.939858, 0.935666, 0.935131, 0.931845, 0.927564, 0.927701, 0.928229, 0.925389, 0.92353, 0.924738, 0.924447, 0.92533, 0.926527, 0.926971, 0.917733, 0.918045, 0.9153, 0.911641, 0.909483, 0.909847, 0.909451, 0.919848, 0.898816, 0.898987, 0.900636, 0.902156, 0.900916, 0.899424, 0.899706, 0.899253, 0.896716, 0.89733, 0.89646, 0.893754, 0.888945, 0.886776, 0.886155, 0.885773, 0.887827, 0.888785, 0.887355, 0.884458, 0.88539, 0.885978, 0.885699, 0.885545, 0.883366, 0.883133, 0.883105, 0.883503, 0.881471, 0.881947, 0.881203, 0.878699, 0.87921, 0.878328, 0.882454, 0.881872, 0.883121, 0.881062, 0.880095, 0.880038, 0.878187, 0.878267, 0.880281, 0.884257, 0.884961, 0.88461, 0.883708, 0.88508, 0.885701, 0.874433, 0.877041, 0.877849, 0.878362, 0.879821, 0.877934, 0.878678, 0.971163, 0.894672, 0.894056, 0.895231, 0.897576, 0.894917, 0.895601, 0.886027, 0.887695, 0.888069, 0.88692, 0.871691, 0.870636, 0.869495, 0.872168, 0.872938, 0.874046, 0.875272, 0.871235, 0.873573, 0.876307, 0.93168, 0.878296, 0.880499, 0.934082, 0.933811, 0.956828, 0.889197, 0.891418, 0.892939, 0.89376, 0.894645, 0.895364, 0.897067, 1.00085, 1.02463, 0.904472, 0.906085, 1.00887, 1.14226, 0.882315, 0.883609, 0.884734, 0.885503, 0.890855, 1.11688, 1.12078, 0.955083, 1.18131, 0.881828
1.012, 1.01223, 1.01302, 1.02142, 1.02528, 1.02692, 1.03201, 1.03613, 1.04053, 1.09767, 1.04589, 1.04744, 1.04985, 1.04994, 1.05334, 1.05517, 1.05545, 1.12257, 1.1367, 1.0685, 1.07419, 1.07485, 1.18885, 1.09221, 1.08449, 1.08524, 1.0876, 1.0911, 1.09409, 1.09352, 1.19108, 1.19287, 1.10269, 1.10407, 1.10922, 1.11037, 1.11135, 1.13308, 1.23342, 1.11124, 1.1113, 1.11113, 1.11133, 1.1113, 1.11109, 1.11038, 1.10932, 1.10863, 1.10795, 1.10661, 1.10525, 1.10476, 1.10476, 1.10326, 1.20635, 1.20459, 1.26048, 1.257, 1.09672, 1.09408, 1.09326, 1.09063, 1.09068, 1.08683, 1.08611, 1.37158, 1.26912, 1.26612, 1.34795, 1.35024, 1.34945, 1.36387, 1.03908, 1.05333, 1.0154, 0.998439, 0.998045, 0.994671, 0.992723, 0.99119, 0.985109, 0.984389, 0.983436, 0.979117, 0.978874, 0.979734, 0.982416, 0.978518, 0.978494, 0.973695, 0.97312, 0.969557, 0.969001, 0.961412, 0.9623, 0.963222, 0.962869, 0.962911, 0.962781, 0.962587, 0.962646, 0.956106, 0.955188, 0.953693, 0.953842, 0.953586, 0.953893, 1.06085, 0.948002, 1.09395, 1.07756, 0.951781, 0.956522, 0.955894, 0.955965, 0.956527, 0.957654, 0.958413, 0.952661, 0.953929, 0.954257, 0.949289, 0.946448, 0.95123, 0.950197, 0.945542, 0.946703, 0.947712, 0.947786, 0.945136, 0.943473, 0.941357, 0.939601, 0.934043, 0.933275, 0.931804, 0.929689, 0.930073, 1.14157, 1.11286, 1.10431, 0.934202, 0.934785, 0.93475, 0.9351, 0.934034, 0.929502, 0.928546, 0.92967, 0.929651, 0.926207, 0.927261, 0.926091, 0.928586, 0.928706, 0.918408, 0.918017, 0.917065, 0.916734, 0.914364, 0.914464, 0.915001, 0.919807, 0.92183, 0.897611, 0.898513, 0.901735, 0.902124, 0.901029, 0.900817, 0.898985, 0.898736, 0.897459, 0.897782, 0.897434, 0.895075, 0.888481, 0.887518, 0.887519, 0.887432, 0.887947, 0.888082, 0.885831, 0.886699, 0.886442, 0.887238, 0.886947, 0.885962, 0.887092, 0.883558, 0.882619, 0.883423, 0.882716, 0.88201, 0.882106, 0.878259, 0.879773, 0.883899, 0.887363, 0.886916, 0.882547, 0.880758, 0.882016, 0.880135, 0.879882, 0.878857, 0.882594, 0.883582, 0.884983, 0.886555, 0.885934, 0.886601, 0.890209, 0.890279, 0.880049, 0.87818, 0.877495, 0.876297, 0.878008, 0.878747, 1.06803, 0.895265, 0.896922, 0.896976, 0.897347, 0.898209, 0.899345, 0.885768, 0.888134, 0.8885, 0.878574, 0.87424, 0.870878, 0.869444, 0.873164, 0.873483, 0.874592, 0.875955, 0.875414, 0.876688, 0.874884, 0.87786, 0.877782, 0.881572, 0.882558, 0.885312, 0.889502, 0.889362, 0.891769, 0.892177, 0.893286, 0.893852, 0.907984, 0.99363, 0.925349, 1.00696, 0.908982, 0.907475, 0.953102, 1.07073, 0.883747, 0.884696, 0.88429, 0.881659, 1.04361, 1.02111, 0.88728, 0.887083, 0.887284, 0.880317
1.01059, 1.01475, 1.01839, 1.0175, 1.0689, 1.03151, 1.03276, 1.03508, 1.03599, 1.04098, 1.0435, 1.04538, 1.04634, 1.05238, 1.05236, 1.05454, 1.05542, 1.06066, 1.06209, 1.06739, 1.13348, 1.07544, 1.07586, 1.15484, 1.08367, 1.084, 1.08575, 1.09262, 1.09533, 1.09453, 1.09613, 1.1947, 1.10171, 1.10342, 1.10743, 1.10802, 1.10887, 1.10971, 1.11014, 1.11043, 1.11076, 1.11087, 1.111, 1.11085, 1.11046, 1.10989, 1.1088, 1.10797, 1.10723, 1.10682, 1.10478, 1.10539, 1.23639, 1.10428, 1.26121, 1.24821, 1.20601, 1.09664, 1.09661, 1.09484, 1.09153, 1.16898, 1.17438, 1.08686, 1.0862, 1.0837, 1.37226, 1.2543, 1.36064, 1.35047, 1.3514, 1.03868, 1.09015, 1.07399, 1.55035, 0.998805, 0.998087, 0.993866, 0.993993, 0.988089, 0.987887, 0.984661, 0.995536, 1.15328, 0.972362, 0.976811, 0.977855, 0.978116, 0.97572, 0.97418, 0.973793, 0.970334, 0.967517, 0.96356, 0.961973, 0.962215, 0.963181, 0.962279, 0.963156, 0.962881, 0.962954, 0.955922, 0.955535, 0.953317, 0.953215, 0.955568, 0.954357, 1.05962, 0.946735, 0.946643, 0.951459, 0.953055, 0.953254, 0.95574, 0.955881, 0.955278, 0.955407, 0.95522, 0.953041, 0.952763, 0.953266, 0.988158, 0.944615, 0.945684, 0.945819, 0.944724, 0.945717, 0.94647, 0.945504, 0.945323, 0.940519, 0.940223, 0.939892, 0.936803, 0.931264, 0.930361, 0.929037, 0.92891, 0.929148, 1.14232, 1.10375, 0.935453, 0.934906, 0.935046, 0.933877, 0.93392, 0.932072, 0.929372, 0.929792, 0.953551, 0.932793, 0.932415, 0.926687, 0.929867, 0.930532, 0.931662, 0.919617, 0.920173, 0.918885, 0.91833, 0.914949, 0.91209, 0.912241, 1.00832, 0.926395, 0.902776, 0.902874, 0.903388, 0.90393, 0.902258, 0.902212, 0.90149, 0.897247, 0.897018, 0.895315, 0.895711, 0.891585, 0.888631, 0.888714, 1.12001, 0.896039, 1.12931, 0.885055, 0.887563, 0.887467, 0.884736, 0.88509, 0.887127, 0.885349, 0.884351, 0.883593, 0.882196, 0.883467, 0.886206, 0.887067, 0.883943, 0.8849, 0.885814, 0.887178, 0.886942, 0.885965, 0.885163, 0.886556, 0.879808, 0.880205, 0.880995, 0.882499, 0.883987, 0.88579, 0.886706, 0.88642, 0.887392, 0.886755, 0.883294, 0.880271, 0.881453, 0.875775, 0.874126, 0.875248, 0.882116, 0.888551, 0.888454, 0.896967, 0.896485, 0.897255, 0.898739, 0.89896, 0.991747, 0.890811, 0.91238, 0.87874, 0.874332, 0.871878, 0.871348, 0.872345, 0.873742, 0.874616, 0.874289, 0.876774, 0.990326, 0.877342, 0.878575, 0.879728, 0.880996, 0.882341, 0.885501, 0.888415, 0.890799, 0.891803, 0.892879, 0.893995, 0.894807, 0.951037, 0.955759, 0.956155, 1.02921, 0.910927, 0.910455, 0.98799, 1.05032, 1.03554, 0.88583, 0.883269, 0.880886, 0.880456, 0.879826, 0.881294, 0.885208, 0.883411, 0.883531
1.01183, 1.01149, 1.01575, 1.01663, 1.01844, 1.07353, 1.03262, 1.03192, 1.03221, 1.03806, 1.04289, 1.04137, 1.04436, 1.04866, 1.04983, 1.05404, 1.05682, 1.06093, 1.061, 1.06832, 1.06994, 1.07468, 1.07717, 1.17715, 1.08265, 1.08376, 1.16707, 1.09171, 1.09532, 1.09728, 1.0966, 1.19489, 1.10109, 1.1034, 1.10687, 1.10867, 1.10892, 1.10872, 1.10935, 1.10973, 1.11008, 1.11028, 1.1104, 1.11028, 1.10991, 1.10934, 1.10847, 1.10796, 1.10711, 1.1057, 1.10537, 1.10315, 1.23832, 1.10356, 1.10214, 1.21697, 1.20937, 1.09785, 1.25083, 1.09486, 1.09285, 1.09084, 1.17471, 1.08717, 1.08563, 1.08502, 1.3121, 1.39995, 1.36381, 1.36913, 1.34044, 1.04308, 1.106, 1.07761, 1.08431, 1.54178, 0.997082, 0.995172, 0.991933, 0.993506, 0.986381, 0.991368, 0.991395, 0.971757, 0.970215, 0.970735, 0.977474, 0.973775, 0.966612, 0.967075, 0.966896, 0.967429, 0.966921, 0.963491, 0.962028, 1.06518, 0.960837, 0.962824, 0.96272, 0.96391, 0.958004, 0.957717, 0.953867, 0.953388, 0.953648, 0.953174, 0.952032, 0.95095, 0.945763, 0.947544, 0.949446, 0.952789, 0.953165, 0.956402, 0.956906, 0.955373, 0.955809, 0.952913, 0.953354, 0.948817, 0.949044, 0.985231, 0.945495, 0.945889, 0.946853, 0.945961, 0.945732, 0.947499, 0.945606, 0.941625, 0.940545, 0.939942, 0.988673, 0.968087, 1.08247, 0.929427, 0.929228, 0.929006, 0.929966, 0.971123, 0.931875, 0.934237, 0.935627, 0.93556, 0.935544, 0.935733, 0.937967, 0.938717, 0.931862, 0.933361, 0.932969, 0.932475, 0.932019, 0.930511, 0.930842, 0.922067, 0.92106, 0.921556, 0.920376, 0.918403, 0.918052, 0.911353, 0.911407, 0.910737, 0.910313, 0.903967, 0.904054, 0.905324, 0.902626, 0.903912, 0.902748, 0.902403, 0.900797, 0.899949, 0.899488, 0.897938, 0.897691, 0.891393, 0.893919, 0.896372, 0.896255, 0.898153, 0.90003, 0.891627, 0.884146, 0.884666, 0.883428, 0.882522, 0.883901, 0.883979, 0.884586, 0.8838, 0.884463, 0.886317, 0.88489, 0.88359, 0.885811, 0.88712, 0.887911, 0.888683, 0.885867, 0.885701, 0.8841, 0.884521, 0.880532, 0.88073, 0.882068, 0.883438, 0.886638, 0.886731, 0.887366, 0.888509, 0.887368, 0.884145, 0.882989, 0.882363, 0.881786, 0.873444, 0.877309, 0.879274, 0.881364, 0.887758, 1.09866, 0.895883, 0.897817, 0.898522, 0.896776, 0.90859, 1.04065, 0.883299, 0.875505, 0.874575, 0.871023, 0.871564, 0.871694, 0.876631, 0.877179, 0.875019, 0.877648, 0.879269, 0.878122, 0.879006, 0.880127, 0.881102, 0.882075, 0.950653, 0.889954, 0.890571, 0.890625, 0.980316, 0.973696, 0.899237, 0.984431, 0.90475, 0.981754, 0.996554, 1.01985, 0.911499, 1.03563, 1.04703, 1.04921, 0.884273, 0.879812, 0.880571, 0.880062, 0.880526, 0.88051, 0.87873, 0.883231, 0.883256
1.01104, 1.01147, 1.01593, 1.01571, 1.06489, 1.02874, 1.02872, 1.03033, 1.03546, 1.03669, 1.03902, 1.03802, 1.04493, 1.04692, 1.05003, 1.0528, 1.05542, 1.05787, 1.05974, 1.06663, 1.06764, 1.10956, 1.09514, 1.0807, 1.08163, 1.08306, 1.08936, 1.09203, 1.09411, 1.09786, 1.09746, 1.16049, 1.10228, 1.10349, 1.10479, 1.10788, 1.10795, 1.10793, 1.10847, 1.10899, 1.10939, 1.10961, 1.10973, 1.10967, 1.10937, 1.1088, 1.10809, 1.10789, 1.10678, 1.10579, 1.10557, 1.10447, 1.10297, 1.10358, 1.10112, 1.10094, 1.0977, 1.09729, 1.09528, 1.09412, 1.09338, 1.09102, 1.08983, 1.0876, 1.08654, 1.08522, 1.40093, 1.25343, 1.36209, 1.33574, 1.33412, 1.03822, 1.15049, 1.09272, 1.49859, 1.49796, 0.996709, 0.993706, 0.992606, 0.992672, 0.986588, 0.987379, 0.998091, 0.969208, 0.973142, 0.971874, 0.973785, 0.973579, 0.964977, 0.966242, 0.966154, 0.964537, 0.97695, 0.960331, 0.969782, 0.95649, 0.957222, 0.96142, 0.963058, 0.959004, 0.956699, 0.956949, 0.956049, 0.954172, 0.954414, 0.953242, 0.952433, 0.950834, 0.949261, 0.94959, 0.951197, 0.95302, 0.953612, 0.957142, 0.95772, 0.95649, 0.953233, 0.95248, 0.952599, 0.949815, 0.948939, 0.948138, 0.946463, 0.946358, 0.946818, 0.945589, 0.945622, 0.945792, 0.941331, 0.937427, 0.937405, 0.937378, 0.971356, 0.971973, 0.930055, 0.929835, 0.929247, 0.927643, 0.947395, 0.994372, 0.97089, 0.967171, 0.935591, 0.938644, 0.941647, 0.938624, 0.939279, 0.940729, 1.03332, 0.93317, 0.931701, 0.932975, 0.932797, 0.931741, 0.932, 0.921529, 0.922454, 0.924494, 0.925251, 0.921256, 0.91447, 0.914348, 0.911154, 0.910892, 0.910691, 0.903996, 0.904093, 0.904957, 0.904353, 0.904378, 0.904454, 0.901916, 0.901999, 0.90068, 0.900531, 0.900713, 0.897144, 0.897382, 0.897411, 0.897983, 0.898655, 0.898547, 0.899801, 0.899428, 0.892993, 0.890952, 0.885856, 0.883154, 0.884903, 0.885346, 0.88584, 0.885957, 0.886976, 0.887075, 0.887062, 0.885229, 0.885255, 0.889667, 0.890821, 0.89082, 0.890683, 0.883877, 0.885071, 0.886054, 0.881199, 0.881889, 0.882375, 1.10278, 0.885324, 0.886334, 0.885233, 0.88683, 0.88212, 0.883191, 0.880652, 0.881021, 0.881648, 0.879765, 0.880902, 0.880887, 0.882447, 0.885229, 0.887003, 0.895172, 0.89706, 0.919326, 0.911116, 0.905524, 0.89198, 0.878411, 0.876769, 0.877462, 0.874649, 0.872548, 0.874005, 0.877532, 0.87836, 0.879267, 0.880923, 0.879794, 0.880166, 0.880852, 0.880326, 0.880891, 0.884044, 0.889615, 0.890043, 0.891146, 0.893335, 0.892853, 0.961741, 0.93833, 0.988153, 0.96988, 1.07094, 0.916646, 0.916105, 1.02777, 1.0385, 1.04661, 1.03968, 1.02273, 0.87997, 0.882601, 0.882546, 0.880354, 0.880201, 0.878902, 0.880588, 0.883256
1.01003, 1.01164, 1.01235, 1.04072, 1.02256, 1.02574, 1.02922, 1.02909, 1.03355, 1.03399, 1.03553, 1.03708, 1.1056, 1.04559, 1.04822, 1.04929, 1.05355, 1.05797, 1.0601, 1.06343, 1.06621, 1.07228, 1.14642, 1.08037, 1.08235, 1.0856, 1.08728, 1.08836, 1.09365, 1.09678, 1.0975, 1.16356, 1.10104, 1.10109, 1.10436, 1.10482, 1.10712, 1.10783, 1.10794, 1.10825, 1.10872, 1.10896, 1.1092, 1.10909, 1.10881, 1.10832, 1.10791, 1.10773, 1.10667, 1.10524, 1.10481, 1.10377, 1.10359, 1.10273, 1.10102, 1.10049, 1.09847, 1.21444, 1.24425, 1.09393, 1.09342, 1.09123, 1.21861, 1.08719, 1.085, 1.32459, 1.34172, 1.31176, 1.3585, 1.3541, 1.2295, 1.23601, 1.18834, 1.07044, 1.03244, 1.38514, 0.996238, 0.994213, 0.991822, 0.990958, 0.990903, 0.983603, 0.982441, 1.06501, 1.00597, 0.972417, 0.975195, 0.966682, 0.966883, 0.966803, 0.965668, 0.965667, 0.961048, 0.960902, 0.969485, 0.955757, 0.956042, 0.959696, 0.959841, 0.959392, 0.956743, 0.95643, 0.955679, 0.954541, 0.953681, 0.952684, 0.951497, 0.950331, 0.949974, 0.95053, 0.951092, 0.948959, 0.953544, 0.95664, 0.957524, 0.95676, 0.953003, 0.953291, 0.952921, 0.949737, 0.949014, 0.948383, 0.946655, 0.946275, 0.946267, 0.946872, 0.946865, 0.943179, 0.942429, 0.936548, 0.935975, 0.936043, 0.967312, 0.930508, 0.929627, 0.929122, 0.930061, 0.929601, 0.930442, 0.930262, 1.01834, 0.967227, 0.936412, 0.937712, 0.939264, 0.939434, 0.939965, 0.940306, 0.941031, 0.937946, 1.15995, 1.16064, 0.932244, 0.935211, 0.932073, 0.922645, 0.923178, 0.925137, 0.917053, 0.918024, 0.916381, 0.91138, 0.911644, 0.910922, 0.910732, 0.90707, 0.904748, 0.905764, 0.904496, 0.904361, 0.904975, 0.901003, 0.90098, 0.900457, 0.900929, 0.900099, 0.899648, 0.897268, 0.897588, 0.898337, 0.898983, 0.898556, 0.899896, 1.13809, 0.891513, 0.892027, 0.891053, 0.888154, 0.885028, 0.884873, 0.886089, 0.887537, 0.88739, 0.887073, 0.886869, 0.886569, 0.88705, 0.889499, 0.891395, 0.893126, 0.89081, 0.890898, 0.884912, 0.891001, 1.08916, 0.89475, 1.08129, 0.902819, 0.884532, 0.886647, 0.885778, 0.885511, 0.880922, 0.883131, 0.881834, 0.881654, 0.881235, 0.88266, 0.881832, 0.882399, 0.883533, 0.883742, 0.885511, 1.01703, 1.12778, 0.911774, 0.911538, 0.889463, 0.890692, 0.876613, 0.877687, 0.879485, 0.877036, 0.876123, 0.872049, 0.877283, 0.88001, 0.879749, 0.880539, 0.88061, 0.879785, 0.881365, 0.881478, 0.881334, 0.884412, 0.888003, 0.893318, 0.892242, 0.892, 0.891663, 0.894444, 0.987433, 0.989822, 0.93523, 0.914829, 0.915588, 0.917054, 0.918306, 0.938625, 0.987695, 1.04213, 1.01895, 0.8814, 0.883209, 0.882327, 0.883057, 0.881418, 0.880249, 0.877512, 0.87891
1.00849, 1.00865, 1.01138, 1.06702, 1.02024, 1.02244, 1.05718, 1.02981, 1.03372, 1.0342, 1.03245, 1.03284, 1.04199, 1.0437, 1.04665, 1.04828, 1.05307, 1.08077, 1.05877, 1.0627, 1.06688, 1.07249, 1.13996, 1.07724, 1.08038, 1.0813, 1.08789, 1.0902, 1.09428, 1.09443, 1.16195, 1.09602, 1.09846, 1.10046, 1.10324, 1.10422, 1.20398, 1.10707, 1.10783, 1.10787, 1.10806, 1.10843, 1.10866, 1.10863, 1.10836, 1.10791, 1.10789, 1.10744, 1.10642, 1.10541, 1.10461, 1.10336, 1.10317, 1.10199, 1.10097, 1.10034, 1.09846, 1.21666, 1.21707, 1.09387, 1.09311, 1.0908, 1.08976, 1.26134, 1.0854, 1.08547, 1.36825, 1.31829, 1.32267, 1.11123, 1.3536, 1.34093, 1.31534, 1.0587, 1.04636, 1.00022, 1.00116, 0.993916, 0.993902, 0.98914, 0.988487, 0.984557, 0.982436, 0.98197, 0.980732, 0.976516, 0.974288, 0.973734, 0.966022, 0.964896, 0.966346, 0.966359, 0.960214, 0.961509, 0.970161, 0.954207, 0.958656, 0.9593, 0.959394, 0.959786, 0.958333, 0.955831, 0.955594, 0.955794, 0.951482, 0.952768, 0.951445, 0.951322, 0.95054, 0.949297, 0.949838, 0.948198, 0.949212, 0.95634, 0.95658, 0.955912, 0.954768, 0.95341, 0.953548, 0.949705, 0.946537, 0.947438, 0.946286, 0.945568, 0.945562, 0.944632, 0.945115, 0.942094, 0.940784, 0.936856, 0.936785, 0.934278, 0.934302, 0.929773, 0.928682, 0.928794, 0.929955, 0.931372, 0.930521, 0.931723, 0.942805, 1.06435, 0.938815, 0.939197, 0.939282, 0.940675, 0.941199, 0.94225, 0.939616, 0.937816, 0.938747, 0.939058, 0.939241, 0.959989, 0.932085, 0.922443, 0.92399, 0.923432, 0.917132, 0.91774, 0.917703, 0.9128, 0.909586, 0.910888, 0.911237, 0.908192, 0.906393, 0.907622, 0.904858, 0.904737, 0.903246, 0.902079, 0.901423, 0.901543, 0.900974, 0.90066, 0.90111, 0.898821, 0.895537, 0.898934, 0.897391, 0.898976, 0.904426, 0.90673, 0.90603, 1.14294, 1.14324, 0.888655, 0.888281, 0.888825, 0.888012, 0.887043, 0.888142, 0.88918, 0.888023, 0.887496, 0.888684, 0.891256, 0.891252, 0.893402, 0.893752, 0.888614, 0.922796, 1.04922, 0.87487, 0.875789, 0.876136, 1.05124, 0.884458, 0.885406, 0.885381, 0.885902, 0.88166, 0.881261, 0.882669, 0.883679, 0.884351, 0.884133, 0.883654, 0.8872, 0.883283, 0.884628, 0.887038, 1.15079, 0.893209, 1.16728, 0.914728, 0.884649, 0.885161, 0.877006, 0.878111, 0.877866, 0.876895, 0.875258, 0.87474, 0.876209, 0.876843, 0.880735, 0.881437, 0.881772, 0.882023, 0.881625, 0.880989, 0.883126, 0.885642, 0.935211, 0.891884, 0.893866, 0.893065, 0.894123, 0.894897, 0.979104, 0.931673, 0.935021, 0.916206, 0.917189, 0.91807, 0.917916, 0.939364, 1.03587, 1.04402, 1.06753, 0.880964, 0.881985, 0.882776, 0.8833, 0.882175, 0.876913, 0.877415, 0.876742
1.00806, 1.00973, 1.04584, 1.02071, 1.02142, 1.0222, 1.02682, 1.03021, 1.03223, 1.03073, 1.03049, 1.03071, 1.03758, 1.04178, 1.04349, 1.04838, 1.04925, 1.05527, 1.05898, 1.06285, 1.06723, 1.14269, 1.14432, 1.07689, 1.07769, 1.08177, 1.08558, 1.09074, 1.09275, 1.09445, 1.16657, 1.09675, 1.09801, 1.10101, 1.10294, 1.10357, 1.10525, 1.10625, 1.10724, 1.10786, 1.10787, 1.10797, 1.10817, 1.10816, 1.10792, 1.10787, 1.10783, 1.10713, 1.10621, 1.10516, 1.10462, 1.10331, 1.10188, 1.10252, 1.10086, 1.27688, 1.09763, 1.09765, 1.23115, 1.25658, 1.25698, 1.09083, 1.08898, 1.08812, 1.08551, 1.27738, 1.37221, 1.29486, 1.23653, 1.23334, 1.34776, 1.34749, 1.3181, 1.07168, 1.04342, 1.00251, 1.00138, 0.994008, 0.994724, 0.989992, 0.986823, 0.983918, 0.983478, 0.980559, 0.980004, 0.976524, 0.975161, 0.975128, 0.96418, 0.963911, 0.964879, 0.963945, 0.964834, 0.963723, 0.961842, 0.96131, 0.959373, 0.963996, 0.960309, 0.958641, 0.958515, 0.954577, 0.95605, 0.955762, 0.953764, 0.952949, 0.952891, 0.950888, 0.950738, 0.95194, 0.952505, 0.949212, 0.948909, 0.949784, 0.955407, 0.956082, 0.954989, 0.953619, 0.951434, 0.952118, 0.952153, 0.949142, 0.947142, 0.971338, 0.944638, 0.942882, 0.943814, 0.939887, 0.938905, 0.936897, 0.936743, 0.938585, 0.934907, 0.974725, 0.927544, 0.928904, 0.929504, 0.926463, 0.927142, 1.02904, 1.03092, 0.939141, 0.939108, 0.93994, 0.940678, 0.940798, 0.939864, 0.940476, 0.940424, 0.939113, 0.938697, 0.938644, 0.938669, 0.960522, 1.02878, 0.980273, 0.923005, 0.920144, 0.911223, 0.918836, 0.913282, 0.912246, 0.912992, 0.913344, 0.912297, 0.910961, 0.911267, 0.919807, 1.04656, 1.07821, 0.899891, 0.901558, 0.901377, 0.901745, 0.900347, 0.899987, 0.902599, 0.900959, 0.897784, 0.894805, 0.895699, 0.897766, 0.902244, 0.925853, 0.951416, 1.14293, 1.15797, 0.891776, 0.892627, 0.890836, 0.890024, 0.890262, 0.889259, 0.888889, 0.889356, 0.885467, 0.886293, 0.888914, 0.892763, 0.893542, 0.893851, 0.891112, 1.04956, 0.89788, 0.874747, 0.876409, 0.90294, 0.903157, 0.884364, 0.885514, 0.887549, 0.885479, 0.88347, 0.881982, 0.883056, 0.883993, 0.885121, 0.886477, 0.885775, 0.886356, 0.886611, 0.885965, 0.887417, 0.890769, 0.891711, 1.1358, 0.891155, 0.891784, 0.880934, 0.875489, 0.874051, 0.87466, 0.876167, 0.873665, 0.875574, 0.876277, 0.880256, 0.881053, 0.880636, 0.88169, 0.881178, 0.881378, 0.883167, 0.885335, 0.915091, 0.939532, 0.891963, 0.893182, 0.894313, 0.895242, 0.897091, 0.905509, 0.92689, 0.995702, 0.915047, 0.916458, 0.917839, 0.929275, 1.02522, 1.02762, 1.04752, 0.890046, 0.880773, 0.882539, 0.88327, 0.883485, 0.883484, 0.877234, 0.874791, 0.875756
1.0078, 1.05348, 1.01696, 1.01733, 1.02057, 1.0209, 1.07082, 1.0741, 1.02985, 1.0297, 1.02898, 1.02982, 1.10606, 1.04139, 1.04279, 1.04815, 1.05014, 1.0553, 1.0583, 1.06089, 1.06571, 1.13594, 1.11574, 1.07637, 1.07686, 1.08031, 1.08412, 1.1511, 1.13887, 1.14577, 1.1718, 1.09796, 1.09764, 1.09969, 1.10265, 1.10334, 1.10451, 1.10586, 1.10689, 1.10778, 1.1079, 1.10784, 1.10796, 1.10797, 1.10783, 1.10788, 1.10776, 1.10707, 1.1062, 1.10521, 1.10461, 1.10332, 1.10207, 1.10114, 1.10118, 1.27552, 1.09799, 1.09778, 1.26719, 1.21626, 1.09228, 1.20787, 1.08983, 1.08718, 1.08656, 1.35449, 1.37558, 1.23982, 1.23732, 1.23355, 1.22739, 1.34747, 1.18645, 1.09746, 1.04027, 1.00258, 1.0017, 0.994932, 0.997939, 0.997979, 0.988912, 0.984848, 0.982975, 0.982742, 0.979999, 0.977502, 0.976024, 0.980691, 0.963919, 0.964089, 0.964554, 0.964635, 0.965196, 0.964225, 0.962711, 0.963022, 0.963134, 0.961633, 0.961021, 0.958659, 0.957598, 0.955652, 0.954905, 0.9542, 0.954, 0.954328, 0.953416, 0.950426, 0.951043, 0.952289, 0.951678, 0.950472, 0.949402, 0.949055, 0.949651, 0.954211, 0.955413, 0.952823, 0.951843, 0.952249, 0.95175, 0.950862, 0.972588, 0.972068, 0.94525, 0.943942, 0.940157, 0.938897, 0.938906, 0.935279, 0.93662, 0.937095, 0.936334, 0.980139, 0.93085, 0.929418, 0.928373, 0.92803, 0.927538, 0.927383, 1.03736, 0.939968, 0.940453, 0.941034, 0.941999, 0.941886, 0.943285, 0.939571, 0.940336, 0.938943, 0.938729, 0.938782, 0.938829, 1.15466, 0.979881, 0.928916, 0.922334, 0.920819, 0.912337, 0.908262, 0.911413, 0.913411, 0.912984, 0.912634, 0.913228, 0.924739, 0.914813, 0.923579, 0.970907, 0.971929, 0.981852, 0.900799, 0.900794, 0.900875, 0.901079, 0.900882, 0.900843, 0.900689, 0.89761, 0.895246, 0.896334, 0.900208, 0.901184, 1.29601, 0.909948, 0.911484, 0.910065, 1.01149, 0.892821, 0.891943, 0.887186, 0.888603, 0.892933, 0.894057, 0.893404, 0.885201, 0.886644, 1.08167, 0.892863, 0.893707, 0.89393, 0.890118, 0.968526, 0.949654, 0.874989, 0.903278, 0.903971, 0.946219, 0.884388, 0.886928, 0.886712, 0.886502, 0.884667, 0.883432, 0.884476, 0.884693, 0.885027, 0.885794, 0.888167, 0.890048, 0.887168, 0.88727, 0.888041, 0.890514, 0.891676, 0.891251, 0.9149, 0.877579, 0.876583, 0.876047, 0.876118, 0.875327, 0.872613, 0.874423, 0.874604, 0.876821, 0.878748, 0.880526, 0.880668, 0.881114, 0.882972, 0.882314, 0.883807, 0.885406, 0.889334, 0.891619, 0.894326, 0.893059, 0.895669, 0.897995, 0.898223, 0.90618, 0.907352, 0.954159, 1.00069, 1.00778, 0.939553, 1.01608, 1.03976, 0.939635, 1.06003, 1.02046, 0.883165, 0.88356, 0.88298, 0.880941, 0.885847, 0.87522, 0.87429, 0.876822
1.0064, 1.05074, 1.01611, 1.01896, 1.01965, 1.01848, 1.06904, 1.07255, 1.02701, 1.02665, 1.02604, 1.02951, 1.03748, 1.03931, 1.0424, 1.0467, 1.0493, 1.05414, 1.05538, 1.09436, 1.10912, 1.13221, 1.14018, 1.07397, 1.07683, 1.07859, 1.12272, 1.16429, 1.15365, 1.09981, 1.16414, 1.09748, 1.0976, 1.09867, 1.10359, 1.10402, 1.18086, 1.10564, 1.10664, 1.1075, 1.10789, 1.1079, 1.10787, 1.10788, 1.10787, 1.10786, 1.10767, 1.10705, 1.10616, 1.10516, 1.10455, 1.10328, 1.10214, 1.19523, 1.10102, 1.20089, 1.09764, 1.09775, 1.22827, 1.22685, 1.21919, 1.30595, 1.0901, 1.08821, 1.08603, 1.08244, 1.38202, 1.29331, 1.33052, 1.3323, 1.33144, 1.30489, 1.23967, 1.16179, 1.05341, 1.00404, 1.00489, 0.996569, 0.997429, 0.99767, 0.988018, 0.984648, 0.983723, 0.983296, 0.977584, 0.977832, 0.973711, 0.973637, 0.973956, 0.966295, 0.966475, 0.966707, 0.964962, 0.961328, 0.962532, 0.962675, 0.962842, 0.9628, 0.961492, 0.960582, 0.959606, 0.955691, 0.954534, 0.953763, 0.953519, 0.955697, 0.95003, 0.950782, 0.951811, 0.952878, 0.952586, 0.952548, 0.950782, 0.948218, 0.949126, 0.949033, 0.952105, 0.951461, 0.950417, 0.950578, 0.950938, 0.950599, 1.09859, 1.10029, 0.944893, 0.944315, 0.938684, 0.938573, 0.938702, 0.938558, 0.937142, 0.937224, 0.937403, 0.935923, 0.935169, 0.93478, 0.932318, 0.925016, 0.927252, 0.928429, 0.939581, 0.9392, 0.939466, 0.941377, 0.942907, 0.942524, 0.94086, 0.939649, 0.939629, 0.937846, 0.937677, 0.933893, 0.934367, 0.934532, 0.956413, 0.930128, 0.934219, 0.921965, 1.36747, 0.909085, 0.910959, 0.91285, 0.913048, 0.911515, 0.913123, 0.930692, 0.918991, 0.925444, 0.937252, 0.916686, 0.928566, 0.904655, 0.903191, 0.903404, 0.901857, 0.901059, 0.898853, 0.899179, 0.898481, 0.896834, 0.897762, 0.897997, 0.900297, 1.04354, 0.911902, 0.91287, 0.91267, 0.905802, 1.1334, 0.893129, 0.887708, 0.89263, 0.894237, 0.897664, 0.893733, 0.894051, 0.895224, 0.895546, 0.895196, 0.8956, 0.888901, 0.889501, 0.889582, 0.934045, 0.904859, 0.903953, 0.90383, 0.899524, 0.890217, 0.886611, 0.886096, 0.88587, 0.886755, 0.885423, 0.88456, 0.885757, 0.885639, 0.887173, 0.889982, 0.8904, 0.889424, 0.887978, 0.890001, 0.890276, 0.891527, 0.89134, 0.887446, 0.878871, 0.877561, 0.876562, 0.877177, 0.871812, 0.872771, 0.873153, 0.876504, 0.876116, 0.877366, 0.87898, 0.880405, 0.881609, 0.883527, 0.882533, 0.885242, 0.886432, 0.966422, 1.02075, 0.943515, 0.894446, 0.896159, 0.897625, 0.899366, 0.906492, 0.908003, 0.90865, 0.907104, 0.908099, 1.00477, 0.943585, 1.00097, 1.03704, 1.06028, 1.02177, 0.880733, 0.882309, 0.883648, 0.884615, 0.885326, 0.876796, 0.8758, 0.876733
1.00894, 1.01183, 1.0156, 1.01657, 1.01859, 1.01921, 1.0209, 1.0686, 1.02602, 1.02494, 1.02526, 1.02708, 1.0822, 1.03815, 1.04015, 1.04566, 1.07763, 1.11208, 1.12258, 1.12499, 1.12705, 1.0735, 1.07469, 1.13563, 1.1346, 1.15899, 1.15724, 1.1536, 1.09758, 1.16152, 1.14124, 1.09625, 1.09653, 1.10017, 1.1037, 1.10376, 1.10439, 1.10528, 1.10631, 1.1071, 1.10776, 1.10791, 1.10792, 1.10793, 1.10788, 1.1078, 1.10759, 1.10695, 1.10618, 1.10521, 1.1045, 1.10322, 1.10276, 1.17684, 1.1013, 1.10004, 1.09835, 1.09727, 1.09507, 1.09427, 1.23455, 1.23594, 1.09002, 1.0872, 1.08731, 1.33334, 1.45697, 1.37445, 1.32403, 1.0702, 1.30728, 1.17155, 1.35446, 1.09173, 1.09533, 1.12701, 0.996894, 0.997426, 0.9976, 0.998255, 0.988393, 0.982789, 0.98376, 0.982463, 0.980238, 0.977434, 0.975501, 0.974111, 0.972878, 0.96627, 0.966623, 0.966385, 0.964531, 0.961908, 0.960979, 0.963818, 0.962733, 0.961893, 0.961729, 0.962582, 0.959316, 0.956026, 0.954672, 0.952905, 0.954479, 0.953567, 0.952743, 0.964647, 0.950786, 0.949767, 0.950916, 0.951312, 0.950694, 0.950708, 0.949879, 0.950765, 0.952318, 0.95268, 0.954048, 0.95091, 0.951112, 0.977699, 1.00475, 1.09962, 0.945548, 0.945014, 0.937907, 0.938205, 0.938786, 0.935579, 0.935581, 0.937805, 0.938256, 0.935708, 0.935278, 0.933136, 0.929078, 0.926368, 0.929229, 0.978734, 0.938409, 0.939351, 0.940691, 0.942094, 0.942148, 0.942069, 0.941258, 0.942209, 0.939576, 0.936324, 0.935295, 0.935216, 0.935032, 0.934922, 0.933857, 0.92843, 0.926656, 0.92043, 0.921416, 0.917375, 0.915137, 0.912405, 0.910569, 0.911246, 0.913015, 0.917809, 0.921366, 0.920749, 0.924064, 0.941998, 0.929407, 1.01219, 0.906103, 0.9054, 0.899677, 0.898116, 0.89994, 0.900137, 0.900591, 0.897734, 0.898827, 0.897736, 0.899975, 0.901824, 0.911498, 0.912687, 0.906213, 0.906656, 0.905719, 0.895379, 0.896405, 0.893977, 0.894712, 0.897043, 0.896917, 0.894848, 0.895534, 0.894763, 0.896286, 0.896063, 0.897399, 0.894499, 0.894244, 1.16486, 0.902444, 0.903369, 0.904433, 0.979745, 0.891071, 0.890663, 0.887411, 0.887898, 0.888221, 0.88769, 0.887605, 0.886709, 0.886731, 0.886758, 0.885886, 0.887611, 0.890103, 0.890671, 0.890272, 0.890521, 0.890981, 0.890575, 0.881535, 0.881657, 0.881253, 0.876735, 0.877721, 0.871275, 0.872911, 0.873448, 0.873085, 0.876131, 0.877193, 0.877846, 0.881727, 0.884063, 0.883629, 0.883517, 0.885752, 0.886701, 0.887828, 0.88872, 0.925231, 0.909968, 0.895897, 0.900082, 0.94646, 0.908115, 0.909048, 0.909094, 0.902184, 0.902819, 0.991124, 1.00878, 1.01557, 1.03774, 1.08844, 1.06138, 0.881702, 0.883553, 0.883966, 0.886243, 0.886647, 0.877326, 0.877993, 0.877446
1.00867, 1.0114, 1.01339, 1.01615, 1.01836, 1.01988, 1.02004, 1.02532, 1.02528, 1.02515, 1.02412, 1.02668, 1.03403, 1.03909, 1.04317, 1.04363, 1.04401, 1.06117, 1.12327, 1.13645, 1.12934, 1.07362, 1.07384, 1.13948, 1.14062, 1.14332, 1.1406, 1.16417, 1.16416, 1.16461, 1.09478, 1.0933, 1.09416, 1.09985, 1.10305, 1.1047, 1.10439, 1.10501, 1.10608, 1.10686, 1.10754, 1.10786, 1.10792, 1.10791, 1.10784, 1.10774, 1.10753, 1.10698, 1.10624, 1.10516, 1.10457, 1.10431, 1.1032, 1.10226, 1.10126, 1.24056, 1.09855, 1.20502, 1.34108, 1.0933, 1.28131, 1.19949, 1.08954, 1.0871, 1.08665, 1.29731, 1.29756, 1.35379, 1.33294, 1.23266, 1.30659, 1.30546, 1.17222, 1.3545, 1.16413, 1.12682, 1.00044, 0.997592, 0.998332, 0.991975, 0.990786, 0.982898, 0.984459, 0.982996, 0.980698, 0.978093, 0.974916, 0.973734, 0.973257, 0.970165, 0.970414, 0.966725, 0.965229, 0.9611, 0.960725, 0.963152, 0.962782, 0.961219, 0.961629, 0.961269, 0.959964, 0.956669, 0.954346, 0.95327, 0.952896, 0.953116, 0.947011, 0.948863, 0.95033, 0.950447, 0.949857, 0.950359, 0.950452, 0.950635, 0.950715, 0.950477, 0.952124, 0.952842, 0.95354, 0.954689, 1.09532, 1.10213, 1.0014, 0.999411, 0.945245, 0.944651, 0.942213, 0.940179, 0.939704, 0.936258, 0.935307, 0.938582, 0.938622, 0.938167, 0.934642, 0.934418, 0.934122, 0.989408, 1.19096, 1.0121, 0.939533, 0.940572, 0.942193, 0.941965, 0.9429, 0.94058, 0.941327, 0.93951, 0.939133, 0.935682, 0.935246, 0.934164, 0.933825, 0.934257, 0.933887, 0.928067, 0.924635, 0.925103, 0.922903, 0.922645, 0.917062, 0.91259, 0.911844, 0.911538, 0.911881, 0.912796, 0.920728, 0.920504, 0.920517, 0.920594, 0.927515, 0.912716, 0.913006, 0.918907, 0.901529, 0.900417, 0.899975, 0.900862, 0.899077, 0.897444, 0.898357, 0.899422, 0.9004, 0.90221, 0.9033, 0.905589, 0.901279, 0.90113, 0.902678, 0.896151, 0.896275, 0.898957, 0.897707, 0.895945, 0.898935, 0.898685, 0.897702, 0.897299, 0.897807, 0.899451, 0.900047, 0.898239, 0.897077, 0.901935, 0.908314, 0.904561, 0.903784, 0.901668, 0.894635, 0.894314, 0.893188, 0.890982, 0.887715, 0.889928, 0.890191, 0.888459, 0.886714, 0.884795, 0.886131, 0.88758, 0.888574, 0.890073, 0.889048, 0.890665, 0.890899, 0.888602, 0.88019, 0.881904, 0.881114, 0.88083, 0.878268, 0.871608, 0.872389, 0.872316, 0.872032, 0.873601, 0.965082, 0.890701, 0.891137, 0.881936, 0.8822, 0.884499, 0.879724, 0.88158, 0.887468, 0.925915, 0.908091, 0.895132, 0.895982, 0.898061, 0.946812, 0.947232, 0.907141, 0.956814, 0.902508, 0.903211, 0.991277, 0.956584, 1.03597, 1.0391, 1.03469, 0.876731, 0.879424, 0.881446, 0.884699, 0.886569, 0.886878, 0.877653, 0.877335, 0.879848
1.00833, 1.00928, 1.01307, 1.01492, 1.01762, 1.01944, 1.01979, 1.01946, 1.02261, 1.02487, 1.02335, 1.0992, 1.03377, 1.03584, 1.03946, 1.04348, 1.04448, 1.1234, 1.11459, 1.12382, 1.13301, 1.13158, 1.13505, 1.14242, 1.112, 1.0911, 1.10475, 1.15573, 1.15915, 1.16913, 1.09169, 1.09372, 1.09537, 1.09782, 1.09993, 1.15022, 1.10381, 1.105, 1.10593, 1.10669, 1.10725, 1.10774, 1.10786, 1.10788, 1.10776, 1.1077, 1.10754, 1.10699, 1.10627, 1.10512, 1.10463, 1.10398, 1.10289, 1.24068, 1.2291, 1.22894, 1.20524, 1.09697, 1.22051, 1.09296, 1.09221, 1.19095, 1.08978, 1.08658, 1.08614, 1.31852, 1.455, 1.28232, 1.28712, 1.33129, 1.30543, 1.3041, 1.04326, 1.0451, 1.11586, 1.00609, 1.00447, 1.00436, 1.00508, 0.990314, 0.990527, 0.988073, 0.98604, 0.982287, 0.97894, 0.978794, 0.977001, 0.971209, 0.970187, 0.968564, 0.969951, 0.968814, 0.964335, 0.964926, 0.962929, 0.963195, 0.962989, 0.963007, 0.961218, 0.961339, 0.961036, 0.960068, 0.955576, 0.955483, 0.953639, 0.953802, 0.953331, 0.951075, 0.949088, 0.950139, 0.951135, 0.949555, 0.950726, 0.952507, 0.950722, 0.950634, 0.952654, 0.952892, 0.955192, 0.955125, 0.95423, 0.95042, 0.949538, 0.948422, 0.945465, 0.943913, 0.9433, 0.940611, 0.940205, 0.9357, 0.935494, 0.939143, 0.938751, 0.938902, 0.934182, 0.932784, 0.934417, 1.00124, 0.943203, 0.942091, 0.940565, 0.942125, 0.941909, 0.940075, 0.938723, 0.93903, 0.93886, 0.938503, 0.934006, 0.935611, 0.934658, 0.932582, 0.932138, 0.933439, 0.927066, 0.925619, 0.925163, 0.92549, 0.927153, 0.921043, 0.918285, 0.912638, 0.911504, 0.911244, 0.911015, 0.911285, 0.922103, 0.92175, 0.921992, 0.921827, 0.922183, 0.939636, 0.995483, 0.915585, 0.95906, 0.922377, 0.901306, 0.901568, 0.901027, 0.899118, 0.900687, 0.897073, 0.897892, 0.90081, 0.901007, 0.901417, 0.900728, 0.900328, 0.900343, 0.900107, 0.901004, 0.899302, 0.900933, 0.901726, 0.900106, 0.900589, 0.901309, 0.901079, 0.900247, 0.899197, 0.901796, 0.900959, 0.898763, 0.898597, 0.891566, 0.891164, 0.904514, 0.895232, 0.896083, 0.894982, 0.894062, 0.891778, 0.889513, 0.889942, 0.88961, 0.890505, 0.889643, 0.887148, 0.886702, 0.886125, 0.885537, 0.886908, 0.891228, 0.892048, 0.889195, 0.888385, 0.881621, 0.881541, 0.881761, 0.882348, 0.8817, 0.902411, 0.871224, 0.871038, 0.871736, 0.872598, 0.872593, 0.887541, 0.889292, 0.881538, 0.882564, 0.882291, 0.879018, 0.880379, 0.911728, 0.890226, 0.947679, 0.89383, 0.896626, 0.898128, 0.898762, 0.899847, 0.956665, 0.957512, 0.902113, 0.902355, 0.965704, 0.956699, 1.03357, 0.888133, 1.04679, 0.878692, 0.880093, 0.881121, 0.884295, 0.885889, 0.876504, 0.877619, 0.878367, 0.879838
1.00783, 1.00971, 1.01084, 1.01209, 1.0156, 1.01593, 1.01526, 1.01887, 1.02021, 1.02427, 1.0254, 1.02948, 1.03384, 1.03872, 1.03891, 1.04285, 1.04484, 1.12593, 1.06976, 1.07237, 1.07182, 1.07338, 1.11858, 1.14292, 1.14235, 1.09095, 1.11593, 1.13589, 1.1362, 1.08998, 1.08995, 1.09478, 1.09604, 1.09924, 1.09994, 1.10335, 1.10413, 1.10525, 1.10611, 1.10679, 1.10729, 1.10774, 1.10784, 1.10785, 1.10779, 1.10774, 1.10739, 1.107, 1.10628, 1.10584, 1.10626, 1.10201, 1.27021, 1.30261, 1.29213, 1.1866, 1.29249, 1.20125, 1.20507, 1.0942, 1.32659, 1.20698, 1.17775, 1.10176, 1.08614, 1.31202, 1.27172, 1.31423, 1.28522, 1.32454, 1.32935, 1.17021, 1.03923, 1.16408, 1.11831, 1.00489, 1.00427, 1.00415, 1.00438, 0.989707, 0.992942, 1.4686, 0.984852, 0.984005, 0.982015, 0.979123, 0.977709, 0.976463, 0.973634, 0.971007, 0.96957, 0.968779, 0.967219, 0.964025, 0.963112, 0.962722, 0.963165, 0.961048, 0.962482, 0.962589, 0.959435, 0.959623, 0.957837, 0.955888, 0.95512, 0.954438, 0.952462, 0.951219, 0.950623, 0.951056, 0.95264, 0.95215, 0.952471, 0.949881, 0.949152, 0.949992, 0.952372, 0.95385, 0.955164, 0.955807, 0.953238, 0.952776, 1.13608, 0.949027, 0.944574, 0.94309, 0.942828, 0.942678, 0.937847, 0.935489, 0.93682, 0.939456, 0.939613, 0.939095, 0.937322, 0.933352, 0.934432, 0.943984, 0.943854, 0.943753, 0.943636, 0.942059, 0.940402, 0.938578, 0.937478, 0.936372, 0.936176, 0.93363, 0.934078, 0.935037, 0.935473, 0.931446, 0.931756, 0.931695, 0.923672, 0.925565, 0.925949, 0.925425, 0.925838, 0.922509, 0.915517, 0.914409, 0.912527, 0.91216, 0.911937, 0.911455, 0.916157, 0.922274, 0.922888, 0.923765, 0.922984, 0.931394, 0.933125, 0.918132, 1.0128, 0.925129, 0.904339, 0.903135, 0.904716, 0.903585, 0.899044, 0.897231, 0.897246, 0.897539, 0.899518, 0.900542, 0.898961, 0.900632, 0.901457, 0.90171, 0.900586, 0.900039, 0.902132, 0.902488, 0.902554, 0.901732, 0.90163, 0.9011, 0.902858, 0.902905, 0.903439, 0.901052, 0.901384, 0.899575, 0.892724, 0.892276, 0.895666, 0.898255, 0.899438, 0.896923, 0.895927, 0.895171, 0.891924, 0.890018, 0.890149, 0.889588, 0.888759, 0.889078, 0.8859, 0.887036, 0.886862, 0.886937, 0.88996, 0.889767, 0.887443, 0.886964, 0.879843, 0.879972, 0.881228, 0.883675, 0.883517, 0.89689, 0.895097, 0.871602, 0.871309, 0.872282, 0.87314, 0.873324, 0.959551, 0.880408, 0.882623, 0.879972, 0.879947, 0.880236, 0.887705, 0.888311, 0.891086, 0.893611, 0.895264, 0.897316, 0.899557, 0.899724, 0.942275, 0.904258, 0.898683, 0.899859, 0.998412, 0.955296, 0.991668, 0.88923, 0.888874, 1.0349, 0.879191, 0.879575, 1.05855, 0.885399, 0.877084, 0.877096, 0.877908, 0.876676
1.00336, 1.00794, 1.0101, 1.00991, 1.00969, 1.01647, 1.01602, 1.01739, 1.02155, 1.02234, 1.02583, 1.03073, 1.03529, 1.03658, 1.039, 1.04356, 1.04475, 1.10769, 1.06899, 1.13539, 1.13315, 1.07424, 1.11583, 1.14336, 1.09267, 1.15162, 1.16719, 1.15325, 1.08469, 1.0879, 1.08943, 1.09325, 1.09527, 1.09881, 1.09906, 1.10194, 1.10577, 1.10556, 1.10646, 1.10691, 1.10726, 1.10761, 1.10776, 1.10779, 1.10778, 1.1076, 1.10722, 1.10736, 1.10647, 1.10571, 1.10771, 1.10631, 1.32052, 1.10452, 1.18729, 1.28954, 1.19503, 1.2021, 1.21282, 1.25159, 1.25268, 1.19061, 1.18959, 1.10282, 1.08277, 1.2186, 1.10758, 1.31418, 1.2811, 1.30729, 1.32802, 1.29944, 1.35003, 1.34351, 1.08202, 1.07956, 1.00277, 1.0041, 1.00318, 1.00304, 0.994799, 0.994558, 0.984837, 0.985211, 0.982508, 0.980272, 0.980078, 0.977093, 0.977108, 0.973321, 0.971599, 0.970205, 0.968504, 0.96625, 0.96341, 0.962666, 0.961938, 0.962623, 0.962543, 0.960617, 0.959642, 0.960023, 0.955536, 0.955783, 0.955376, 0.954372, 0.953132, 0.952978, 0.951752, 0.952479, 0.952725, 0.952929, 0.953651, 0.952622, 0.950208, 0.950262, 0.952446, 0.952916, 0.9532, 0.952456, 0.952447, 0.952769, 0.953261, 1.06473, 0.979924, 0.981041, 0.944602, 0.941457, 0.938463, 0.936419, 0.937927, 0.938639, 0.938423, 0.938572, 0.935712, 0.934596, 0.935449, 0.942653, 0.943753, 0.943938, 0.943601, 0.941268, 0.940118, 0.93737, 0.934426, 0.936375, 0.935817, 0.933695, 0.935404, 0.933938, 0.934485, 0.933578, 0.930704, 0.930734, 0.920645, 0.923882, 0.926197, 0.926821, 0.924962, 0.922724, 0.921341, 0.91578, 0.911768, 0.911895, 0.91136, 0.912725, 0.912468, 0.912483, 0.922748, 0.923258, 0.924158, 0.925111, 0.92284, 0.9214, 0.925231, 0.928839, 0.910668, 0.907564, 0.90749, 0.906155, 0.904307, 0.896508, 0.89869, 0.899193, 0.898783, 0.900534, 0.900719, 0.901665, 0.901939, 0.90291, 0.902999, 0.902989, 0.904705, 0.907312, 0.908731, 0.908276, 0.905718, 0.905048, 0.904001, 0.904607, 0.904739, 0.903685, 0.901879, 0.898639, 0.894027, 0.893505, 0.895603, 0.897923, 0.899467, 0.898482, 0.897527, 0.895995, 0.894464, 0.890266, 0.890702, 0.889346, 0.890274, 0.888795, 0.884196, 0.886768, 0.887179, 0.888585, 0.890818, 0.889916, 0.888703, 0.881157, 0.879606, 0.880211, 0.881852, 0.883226, 0.883938, 0.88464, 0.884792, 0.878122, 0.87211, 0.87274, 0.872929, 0.873509, 0.901224, 0.90828, 0.879317, 0.880811, 0.883427, 0.885009, 0.886689, 0.888723, 0.88745, 0.891101, 0.951391, 0.895985, 0.896505, 0.899009, 0.989395, 0.933616, 0.899582, 0.900873, 0.999877, 0.99958, 1.04698, 1.04886, 1.01842, 1.06526, 0.871135, 0.872226, 1.11852, 0.894732, 0.878488, 0.876623, 0.876763, 0.876666
1.00332, 1.00848, 1.00921, 1.00772, 1.01226, 1.01311, 1.01384, 1.0165, 1.0704, 1.02577, 1.02554, 1.02836, 1.03752, 1.03784, 1.03878, 1.04216, 1.12545, 1.1049, 1.06935, 1.07126, 1.07152, 1.12846, 1.12912, 1.14317, 1.1373, 1.11862, 1.13837, 1.0774, 1.08174, 1.08427, 1.09091, 1.09153, 1.09648, 1.09785, 1.09937, 1.10347, 1.10612, 1.10599, 1.10684, 1.10704, 1.10722, 1.10738, 1.10759, 1.1077, 1.10778, 1.10779, 1.10763, 1.10714, 1.10639, 1.1056, 1.10491, 1.31633, 1.29525, 1.20163, 1.29597, 1.22742, 1.19476, 1.09839, 1.20258, 1.1989, 1.09148, 1.17731, 1.08679, 1.24236, 1.36887, 1.34354, 1.21861, 1.28192, 1.33365, 1.33285, 1.29025, 1.29212, 1.28252, 1.03374, 1.06764, 1.11174, 1.00133, 1.0031, 1.00323, 0.998832, 0.998776, 1.01047, 0.990638, 0.984247, 0.984842, 0.984938, 0.988705, 0.977598, 0.975353, 0.974572, 0.973089, 0.96927, 0.969551, 0.969189, 0.967593, 0.964435, 0.962549, 0.961973, 0.962846, 0.963241, 0.961023, 0.959972, 0.958251, 0.959636, 0.954578, 0.953746, 0.951926, 0.951105, 0.950684, 0.952885, 0.95355, 0.954343, 0.953841, 0.952514, 0.952348, 0.952243, 0.952975, 0.953343, 0.953725, 0.952763, 0.952507, 0.952414, 0.952511, 0.952524, 0.979813, 0.947752, 0.960034, 0.942633, 0.937243, 0.93678, 0.938827, 0.939297, 0.939114, 0.938719, 0.93633, 0.933974, 0.934545, 0.946389, 0.945363, 0.943866, 0.94482, 0.943097, 0.94016, 0.937033, 0.935091, 0.934462, 0.934156, 0.932916, 0.933998, 0.932283, 0.931951, 0.928329, 0.928072, 0.922524, 0.92238, 0.922167, 0.925024, 0.92533, 0.924258, 0.923576, 0.919276, 0.914994, 0.911461, 0.91134, 0.91279, 0.912751, 0.911615, 0.912431, 0.921961, 0.923396, 0.925325, 0.92535, 0.924298, 0.92033, 0.920277, 0.923647, 1.03642, 0.907681, 0.907905, 0.905824, 0.904343, 0.90413, 0.899686, 0.900565, 0.900156, 0.89728, 0.898387, 0.901476, 0.9035, 0.90468, 0.904833, 0.904428, 0.90555, 0.911393, 0.908292, 0.907746, 0.907335, 0.907308, 0.905679, 0.904749, 0.905568, 0.900658, 0.897903, 0.89683, 0.896645, 0.893008, 0.894107, 0.897036, 0.899875, 0.899498, 0.897825, 0.897227, 0.897051, 0.89091, 0.890257, 0.890405, 0.888896, 0.890558, 0.885101, 0.884748, 0.887609, 0.889895, 0.889202, 0.889492, 0.88877, 0.879281, 0.880062, 0.879991, 0.881127, 0.883895, 0.884752, 0.885359, 0.884057, 0.880936, 0.877674, 0.874173, 0.872829, 0.873435, 0.919858, 0.963814, 0.878675, 0.881036, 0.881685, 0.884506, 0.887483, 0.887412, 0.887994, 0.89008, 0.891704, 0.893544, 0.895782, 0.897218, 0.962833, 0.934237, 0.991738, 0.973979, 0.981011, 0.944427, 0.874048, 0.875504, 0.879016, 0.874931, 0.871401, 0.873132, 0.873687, 0.901512, 0.876057, 0.877042, 0.876435, 0.87727
1.00232, 1.00419, 1.00646, 1.00798, 1.01236, 1.01284, 1.01469, 1.01476, 1.01372, 1.02468, 1.02568, 1.0308, 1.03271, 1.03643, 1.09855, 1.04046, 1.12239, 1.12266, 1.11883, 1.13141, 1.13099, 1.12671, 1.1153, 1.13936, 1.13552, 1.13642, 1.07276, 1.156, 1.07614, 1.08193, 1.08424, 1.13613, 1.18804, 1.09768, 1.09913, 1.10235, 1.10296, 1.1064, 1.10672, 1.10685, 1.10704, 1.10707, 1.10729, 1.10768, 1.10777, 1.10786, 1.10771, 1.10728, 1.10663, 1.10576, 1.10585, 1.10791, 1.10651, 1.10604, 1.31231, 1.31246, 1.10098, 1.19911, 1.26371, 1.20639, 1.25372, 1.21556, 1.276, 1.31055, 1.09742, 1.0976, 1.28568, 1.28372, 1.33667, 1.32513, 1.32694, 1.3253, 1.06369, 1.02588, 1.13814, 1.01807, 1.00997, 1.00939, 1.01595, 0.99941, 0.998798, 0.998779, 0.996288, 0.994763, 0.985806, 0.986346, 0.981973, 0.979011, 0.97516, 0.974162, 0.974887, 0.973535, 0.969906, 0.968539, 0.967095, 0.963287, 0.963661, 0.962921, 0.963446, 0.963402, 0.963519, 0.960237, 0.957412, 0.95669, 0.955735, 0.956119, 0.956489, 0.956366, 0.953433, 0.952839, 0.95445, 0.955452, 0.956474, 0.952789, 0.952434, 0.951813, 0.954217, 0.95479, 0.95434, 0.952051, 0.952714, 0.953112, 0.952552, 0.95202, 0.953252, 0.994462, 0.945749, 0.953154, 0.942526, 0.938777, 0.93883, 0.93891, 0.938384, 0.936917, 0.935145, 0.935432, 0.93601, 0.943379, 0.945661, 0.945424, 0.943815, 0.941552, 0.93839, 0.938567, 0.935269, 0.935446, 0.933663, 0.930926, 0.931929, 0.931551, 0.931308, 0.929412, 0.928843, 0.923926, 0.924284, 0.924473, 0.926134, 0.923547, 0.924523, 0.924816, 0.916465, 0.917823, 0.91531, 0.912564, 0.91069, 0.906803, 0.912575, 0.913342, 0.913434, 0.923567, 0.924831, 0.924693, 0.924024, 0.922937, 0.922499, 1.03667, 0.911655, 0.908674, 0.908914, 0.904807, 0.906658, 0.905576, 0.904282, 0.903738, 0.902113, 0.896525, 0.901749, 0.904147, 0.904529, 0.906685, 0.906746, 0.906844, 0.907728, 0.908482, 0.909604, 0.908185, 0.908921, 0.906417, 0.906453, 0.906392, 0.901691, 0.900949, 0.897308, 0.897596, 0.898161, 0.895151, 0.893877, 0.896101, 0.900696, 0.898984, 0.899672, 0.899534, 0.893617, 0.891157, 0.890842, 0.890366, 0.890593, 0.890973, 0.891651, 0.890316, 0.887775, 0.887624, 0.886943, 0.887596, 0.888479, 0.886272, 0.886862, 0.88229, 0.88311, 0.884017, 0.884484, 0.884485, 0.884126, 0.879957, 0.876933, 0.877966, 0.872779, 0.873096, 0.908816, 0.902438, 0.880048, 0.880987, 0.881417, 0.883254, 0.886342, 0.886505, 0.885767, 0.881807, 0.945766, 0.897847, 0.89543, 0.893025, 0.89832, 0.897892, 0.979183, 0.913987, 1.0243, 1.02365, 0.875681, 0.87594, 0.87766, 0.875801, 0.874115, 0.873559, 0.873585, 0.877597, 0.874108, 0.875663, 0.876187, 0.878192
1.0025, 1.00314, 1.00365, 1.00456, 1.01182, 1.01244, 1.01264, 1.01307, 1.01759, 1.01897, 1.02655, 1.02881, 1.03297, 1.08618, 1.10591, 1.09975, 1.10132, 1.03709, 1.12726, 1.13154, 1.13214, 1.11842, 1.13132, 1.13703, 1.14958, 1.11554, 1.10566, 1.0738, 1.07743, 1.08316, 1.0856, 1.086, 1.0859, 1.09553, 1.17245, 1.10201, 1.10455, 1.10543, 1.1057, 1.10615, 1.10634, 1.10635, 1.10695, 1.10808, 1.10784, 1.10841, 1.10731, 1.10793, 1.10688, 1.10566, 1.28664, 1.27089, 1.2711, 1.20195, 1.27521, 1.22484, 1.31118, 1.2085, 1.19883, 1.19823, 1.18668, 1.08792, 1.1077, 1.2096, 1.10022, 1.11148, 1.21517, 1.27435, 1.27419, 1.29389, 1.32361, 1.32356, 1.03913, 1.03463, 1.08733, 1.01817, 1.01124, 1.01152, 1.00903, 1.00072, 1.00074, 0.997249, 0.995062, 0.997836, 0.985269, 0.984751, 0.983994, 0.976912, 0.976027, 0.975464, 0.973858, 0.973474, 0.973255, 0.966828, 0.967121, 0.965719, 0.965116, 0.966911, 0.96581, 0.964204, 0.962999, 0.961954, 0.957516, 0.958056, 0.957802, 0.956607, 0.956316, 0.955743, 0.956187, 0.954939, 0.955639, 0.956695, 0.956548, 0.951315, 0.95452, 0.95534, 0.955886, 0.955726, 0.953467, 0.953286, 0.951806, 0.951656, 0.951955, 0.952049, 0.952319, 0.952903, 0.951763, 0.946635, 0.945922, 0.942124, 0.938499, 0.938645, 0.93484, 0.935519, 0.935364, 0.936411, 0.938417, 0.946181, 0.946611, 0.947229, 0.94565, 0.940283, 0.939825, 0.939049, 0.935191, 0.93516, 0.93153, 0.930739, 0.929155, 0.929171, 0.929921, 0.928529, 0.929261, 0.923181, 0.922015, 0.924816, 0.924671, 0.924994, 0.925605, 0.92439, 0.923207, 0.916849, 0.916528, 0.912187, 0.908143, 0.90729, 0.909005, 0.913066, 0.914462, 0.919129, 0.923275, 0.924883, 0.922743, 0.921734, 0.921972, 0.946599, 0.91464, 0.910144, 0.91102, 0.907816, 0.908924, 0.911032, 0.907342, 0.904887, 0.906474, 0.905288, 0.904996, 0.907334, 0.90575, 0.907886, 0.907683, 0.907547, 0.907755, 0.909207, 0.911567, 0.907688, 0.909638, 0.906986, 0.90579, 0.907456, 0.906779, 0.901976, 0.901038, 0.898338, 0.898922, 0.898146, 0.897124, 0.896691, 0.899502, 0.898249, 0.898668, 0.898655, 0.892918, 0.892673, 0.891799, 0.893203, 0.892859, 0.893326, 0.892524, 0.891793, 0.889811, 0.889072, 0.88804, 0.888145, 0.889315, 0.888262, 0.8902, 0.90488, 0.901869, 0.88113, 0.882068, 0.883992, 0.883509, 0.882292, 0.878249, 0.877962, 0.873957, 0.873965, 0.876322, 0.877526, 0.880124, 0.882177, 0.883812, 0.883722, 0.885277, 0.887145, 0.886797, 0.884364, 0.889949, 0.890998, 0.891215, 0.894258, 0.957349, 0.940347, 0.980743, 0.980634, 0.995134, 0.885874, 0.873999, 0.871445, 0.872805, 0.875618, 0.871932, 0.872799, 0.873318, 0.873144, 0.873316, 0.874484, 0.875159, 0.875877
1.00106, 1.0027, 1.00351, 1.00858, 1.01211, 1.01163, 1.01581, 1.01685, 1.01916, 1.02169, 1.02332, 1.02832, 1.02934, 1.09801, 1.03407, 1.08014, 1.03561, 1.03573, 1.12692, 1.12299, 1.12567, 1.12302, 1.10523, 1.14684, 1.14588, 1.15306, 1.07165, 1.07631, 1.07646, 1.08341, 1.084, 1.08608, 1.08641, 1.14798, 1.09465, 1.10127, 1.10003, 1.19449, 1.19345, 1.18213, 1.12591, 1.18663, 1.10817, 1.10939, 1.10872, 1.11021, 1.10934, 1.10888, 1.2327, 1.10639, 1.11024, 1.11008, 1.16822, 1.20611, 1.10675, 1.10516, 1.3019, 1.20908, 1.22899, 1.19817, 1.21672, 1.17855, 1.1044, 1.10348, 1.20923, 1.13082, 1.07165, 1.21892, 1.3002, 1.32734, 1.28762, 1.28865, 1.19209, 1.02668, 1.09839, 1.10572, 1.0128, 1.0126, 1.01128, 1.00393, 0.997859, 0.996997, 1.0002, 0.99466, 0.984917, 0.984562, 0.984182, 0.976822, 0.976292, 0.974425, 0.974506, 0.973491, 0.972042, 0.968023, 0.9677, 0.967375, 0.966474, 0.96631, 0.967419, 0.96462, 0.964345, 0.961197, 0.959554, 0.957814, 0.958006, 0.957187, 0.956258, 0.955834, 0.955851, 0.955811, 0.95742, 0.958168, 0.955654, 0.954644, 0.955206, 0.956101, 0.955866, 0.956502, 0.955686, 0.95257, 0.951604, 0.951611, 0.952554, 0.953062, 0.952947, 0.952511, 0.952761, 1.02096, 1.01833, 0.936545, 0.936866, 0.935455, 0.935625, 0.934101, 0.937514, 0.937377, 0.938765, 0.947272, 0.948039, 0.948307, 0.945217, 0.939469, 0.937177, 0.937002, 0.936712, 0.934571, 0.935313, 0.930389, 0.927664, 0.928251, 0.928787, 0.929566, 0.930212, 0.923239, 0.922236, 0.923166, 0.924597, 0.925206, 0.924711, 0.924575, 0.925643, 0.916688, 0.915901, 0.914578, 0.910393, 0.912575, 0.912181, 0.915604, 0.91448, 0.916744, 0.919109, 0.919575, 0.921343, 0.922074, 0.924896, 0.924647, 0.913966, 0.911021, 0.911152, 0.911138, 0.909131, 0.911201, 0.910961, 0.908473, 0.908499, 1.01247, 0.907859, 0.908446, 0.906832, 0.907572, 0.908265, 0.915131, 0.910138, 0.910373, 0.912525, 0.914381, 1.00658, 0.906454, 0.90553, 0.906475, 0.90539, 0.903406, 0.902163, 0.900506, 0.899636, 0.900979, 0.899819, 0.900021, 0.900667, 0.900671, 0.900581, 0.90048, 0.891979, 0.89395, 0.894842, 0.894166, 0.893473, 0.889748, 0.890286, 0.890791, 0.890337, 0.891248, 0.893664, 0.891358, 0.890294, 0.889266, 0.890876, 0.890205, 0.887775, 0.883892, 0.882466, 0.883746, 0.882967, 0.882257, 0.879785, 0.879131, 0.87535, 0.875548, 0.876283, 0.901103, 0.880167, 0.88347, 0.88222, 0.884393, 0.886478, 0.886609, 0.884479, 0.884397, 0.888576, 0.890647, 0.8913, 0.894469, 0.89488, 0.966491, 0.891749, 0.89204, 0.967312, 0.946751, 0.959702, 0.871055, 0.872299, 0.872871, 0.87309, 0.87148, 0.870232, 0.873965, 0.874376, 0.874678, 0.876132, 0.875955
1.001, 1.00204, 1.00232, 1.00709, 1.00997, 1.01048, 1.01643, 1.01705, 1.0192, 1.0197, 1.02324, 1.0288, 1.0296, 1.08086, 1.03563, 1.03624, 1.03569, 1.03795, 1.03864, 1.1059, 1.13264, 1.1334, 1.09855, 1.1023, 1.11603, 1.13427, 1.12728, 1.07364, 1.07571, 1.07794, 1.08279, 1.08572, 1.08786, 1.08913, 1.09089, 1.09852, 1.09844, 1.15513, 1.19299, 1.16338, 1.16123, 1.1084, 1.10832, 1.11021, 1.11055, 1.11158, 1.11206, 1.24265, 1.28875, 1.28847, 1.11, 1.1112, 1.11091, 1.1096, 1.10962, 1.31655, 1.30968, 1.30994, 1.2838, 1.20186, 1.21986, 1.25086, 1.19536, 1.19501, 1.10835, 1.10854, 1.30653, 1.31538, 1.29047, 1.3021, 1.32414, 1.28992, 1.22199, 1.02776, 1.0246, 1.02398, 1.01281, 1.01264, 1.03677, 1.16413, 1.16836, 0.998735, 0.999333, 1.07862, 0.98739, 0.984688, 0.983526, 0.9793, 0.977378, 0.977354, 0.975261, 0.973344, 0.973084, 0.968327, 0.967949, 0.969297, 0.968731, 0.969478, 0.970156, 0.966501, 0.966093, 0.966172, 0.963055, 0.959233, 0.957329, 0.9575, 0.95706, 0.955923, 0.955735, 0.956789, 0.957505, 0.959106, 0.957846, 0.956479, 0.955658, 0.955793, 0.956721, 0.956115, 0.953785, 0.95253, 0.951859, 0.9514, 0.95228, 0.95237, 0.952342, 0.952983, 0.952652, 0.981639, 1.11231, 0.935544, 0.936705, 0.936225, 0.936926, 0.937016, 0.937737, 0.938381, 0.938975, 0.948258, 0.948712, 0.948043, 0.947768, 0.941687, 0.938554, 0.936685, 0.93626, 0.936999, 0.932612, 0.931813, 0.929418, 0.929646, 0.930927, 0.93141, 0.930446, 0.925273, 0.924692, 0.92414, 0.925188, 0.925159, 0.925629, 0.924895, 0.925409, 0.917868, 0.915795, 0.913778, 0.912063, 0.91336, 0.914113, 0.914826, 0.915395, 0.915938, 0.914899, 0.919647, 0.922668, 0.924767, 0.925008, 0.924796, 0.917506, 0.91252, 0.912041, 0.911706, 0.911155, 0.910931, 0.911357, 0.932315, 0.933086, 0.911326, 0.91505, 0.914597, 0.907331, 0.908604, 0.908884, 0.915399, 0.915182, 0.914941, 0.914205, 0.91445, 0.953492, 0.91253, 0.908709, 0.906384, 0.906979, 0.903505, 0.904709, 0.900269, 0.899348, 0.90094, 0.901055, 0.900816, 0.901637, 0.900948, 0.90228, 0.89633, 0.895378, 0.894513, 0.896232, 0.895516, 0.893477, 0.89226, 0.890709, 0.890814, 0.891211, 0.89232, 0.893896, 0.893781, 0.888663, 0.889583, 0.890969, 0.890748, 0.909207, 0.883992, 0.884259, 0.883583, 0.883375, 0.883456, 0.880649, 0.881973, 0.878999, 0.876063, 0.873832, 0.88137, 0.913003, 0.883152, 0.88382, 0.887028, 0.886809, 0.885275, 0.882543, 0.886702, 0.889017, 0.890567, 0.890973, 0.894667, 0.967779, 0.968112, 0.974114, 0.887066, 0.887848, 1.03354, 0.961918, 0.871667, 0.873292, 0.873069, 0.870598, 0.870391, 0.87047, 0.872756, 0.873965, 0.873682, 0.876621, 0.87624
1.00055, 1.00213, 1.00283, 1.00635, 1.01031, 1.01071, 1.01432, 1.01313, 1.01449, 1.01994, 1.02345, 1.02587, 1.03011, 1.07784, 1.08162, 1.03976, 1.03766, 1.03888, 1.04335, 1.04682, 1.12931, 1.12742, 1.04921, 1.04918, 1.05034, 1.11732, 1.14654, 1.07567, 1.07733, 1.08047, 1.08273, 1.08655, 1.08534, 1.08485, 1.09318, 1.09344, 1.09889, 1.17416, 1.13944, 1.19904, 1.16178, 1.17825, 1.10927, 1.11031, 1.11126, 1.11167, 1.11347, 1.15758, 1.11542, 1.23884, 1.11705, 1.11924, 1.1175, 1.23269, 1.11032, 1.19214, 1.29843, 1.29858, 1.18917, 1.19819, 1.20188, 1.2574, 1.08555, 1.18852, 1.08436, 1.21945, 1.40536, 1.21738, 1.26743, 1.38546, 1.29214, 1.31822, 1.29392, 1.0261, 1.02911, 1.04598, 1.02517, 1.02386, 1.02332, 1.16929, 1.00336, 0.999202, 1.0192, 1.08537, 1.21817, 1.22686, 0.981097, 0.980748, 0.980043, 0.977402, 0.976241, 0.973167, 0.972246, 0.97002, 0.96615, 0.966367, 0.968449, 0.969554, 0.967528, 0.967452, 0.966281, 0.965823, 0.963666, 0.962415, 0.959142, 0.956998, 0.956986, 0.954591, 0.957322, 0.956623, 0.95786, 0.957029, 0.957742, 0.957489, 0.955895, 0.956298, 0.955771, 0.956306, 0.954827, 0.954177, 0.952517, 0.952172, 0.952423, 0.951829, 0.950535, 0.950903, 0.950723, 0.946775, 0.938443, 0.937294, 0.93781, 0.938625, 0.938795, 0.938463, 0.937926, 0.937768, 0.938018, 0.944773, 0.945876, 0.94756, 0.942881, 0.942397, 0.937594, 0.938616, 0.936523, 0.935312, 0.932336, 0.931763, 0.930542, 0.931635, 0.93069, 0.930588, 0.930748, 0.922545, 0.925146, 0.923802, 0.926211, 0.926161, 0.926439, 0.92527, 0.92689, 1.05412, 0.958332, 0.918179, 0.913779, 0.912677, 0.913323, 0.915486, 0.915628, 0.914785, 0.914975, 0.915253, 1.00551, 0.923975, 0.924898, 0.922568, 0.916901, 0.911608, 0.911386, 0.912829, 0.912686, 0.911564, 0.91144, 0.920116, 0.921347, 0.92177, 0.914134, 0.915652, 0.916724, 0.908786, 0.911914, 0.913169, 0.914631, 0.915341, 0.917085, 0.924485, 0.915346, 0.912884, 0.911306, 0.907597, 0.906548, 0.905473, 0.904583, 0.904108, 0.899577, 0.900616, 0.899498, 0.899523, 0.9009, 0.90147, 0.902391, 0.896736, 0.89654, 0.895732, 0.894912, 0.895141, 0.894082, 0.891697, 0.890489, 0.891327, 0.890881, 0.892216, 0.894125, 0.89445, 0.895446, 0.890569, 0.890521, 0.890518, 0.884087, 0.884479, 0.883563, 0.883555, 0.883472, 0.88349, 0.883661, 0.881965, 0.881427, 0.880887, 0.920146, 0.886137, 0.884639, 0.88322, 0.884861, 0.885799, 0.883608, 0.883851, 0.885698, 0.888203, 0.890284, 0.891324, 0.891775, 0.892847, 0.957422, 0.989208, 0.886854, 0.888017, 0.888378, 0.880507, 0.881339, 0.882887, 0.872327, 0.87328, 0.872125, 0.870443, 0.871919, 0.871467, 0.871118, 0.874058, 0.875793, 0.872957
1.00028, 0.999243, 1.00329, 1.00762, 1.00836, 1.00865, 1.01021, 1.01024, 1.01174, 1.01739, 1.02147, 1.02404, 1.0318, 1.03502, 1.03599, 1.03945, 1.03993, 1.04225, 1.04344, 1.04602, 1.04646, 1.0485, 1.04931, 1.04702, 1.14072, 1.14277, 1.12953, 1.07648, 1.07735, 1.08184, 1.08106, 1.0836, 1.08394, 1.08671, 1.08912, 1.09069, 1.09617, 1.19369, 1.19321, 1.16851, 1.19915, 1.16438, 1.19557, 1.11002, 1.16414, 1.17814, 1.27762, 1.11761, 1.11726, 1.11982, 1.11972, 1.11894, 1.20952, 1.11731, 1.11687, 1.22328, 1.24692, 1.29683, 1.1773, 1.25604, 1.21522, 1.23373, 1.08713, 1.09511, 1.26874, 1.31001, 1.40499, 1.26676, 1.30205, 1.29342, 1.29235, 1.2315, 1.02858, 1.02599, 1.02602, 1.13185, 1.02162, 1.02217, 1.02492, 1.16809, 1.09026, 1.01263, 1.01303, 1.01379, 1.00513, 1.22889, 0.980174, 0.980015, 0.980335, 0.978698, 0.976515, 0.975929, 0.973416, 0.970947, 0.96621, 0.967505, 0.966684, 0.968964, 0.969288, 0.968364, 0.966639, 0.966383, 0.962665, 0.96189, 0.960724, 0.957047, 0.95839, 1.02022, 0.95902, 0.958742, 0.957798, 0.957702, 0.957815, 0.957674, 0.954026, 0.955234, 0.955829, 0.955992, 0.955113, 0.954424, 0.952496, 0.952998, 0.953282, 0.951085, 0.950498, 0.949215, 0.950648, 0.945561, 0.941141, 0.937895, 0.93748, 0.939478, 0.938885, 0.939879, 0.939339, 0.938575, 0.938229, 0.987647, 0.94773, 0.9474, 0.946435, 0.942122, 0.94201, 0.939728, 0.938549, 0.935427, 0.933077, 0.934095, 0.929568, 0.930475, 0.929747, 0.930077, 0.929323, 0.927043, 0.925093, 0.925425, 0.926187, 0.928235, 0.927462, 0.927596, 0.927117, 1.05647, 1.02217, 1.08171, 0.913598, 0.914861, 0.915371, 0.915427, 0.915453, 0.914752, 0.913611, 0.913223, 0.916798, 0.919255, 0.919927, 0.921874, 0.921568, 0.920842, 0.918926, 0.916549, 0.914905, 0.914824, 0.917474, 0.921454, 0.922543, 0.918409, 0.91467, 0.915261, 0.915371, 0.91561, 0.916683, 0.916407, 0.915997, 0.918078, 0.918807, 0.918775, 0.915521, 0.916211, 0.912308, 0.90565, 0.907186, 0.905348, 0.905305, 0.903833, 0.904115, 0.901185, 0.899556, 0.896553, 0.898595, 0.900603, 0.90101, 0.901867, 0.901074, 0.90089, 0.896767, 0.895168, 0.894179, 0.894438, 0.891985, 0.890511, 0.890842, 0.891933, 0.893907, 0.893615, 0.893037, 0.891531, 0.890897, 0.884023, 0.884602, 0.884736, 0.884831, 0.882462, 0.883892, 0.884336, 0.884651, 0.882924, 0.8842, 0.884922, 0.885471, 0.885968, 0.887469, 0.887747, 0.882021, 0.883759, 0.88465, 0.884093, 0.88486, 0.929648, 0.891395, 0.893846, 0.893518, 0.947457, 0.889379, 0.960545, 0.89142, 0.887617, 0.88564, 0.883669, 0.881965, 0.878767, 0.8715, 0.873075, 0.870209, 0.87085, 0.869527, 0.869192, 0.869646, 0.871528, 0.873198, 0.87235
0.999864, 1.00114, 1.00434, 1.00961, 1.00973, 1.00816, 1.00835, 1.00974, 1.01123, 1.01812, 1.02145, 1.02313, 1.03554, 1.03427, 1.03551, 1.03644, 1.03796, 1.04135, 1.04258, 1.04534, 1.04896, 1.0475, 1.0451, 1.04887, 1.10322, 1.11798, 1.14793, 1.0775, 1.07998, 1.08253, 1.08237, 1.08372, 1.08385, 1.08538, 1.0895, 1.09112, 1.09269, 1.19472, 1.19328, 1.15675, 1.18105, 1.18325, 1.16962, 1.16488, 1.19545, 1.16499, 1.15994, 1.11622, 1.11691, 1.1226, 1.12336, 1.12383, 1.31398, 1.11605, 1.11599, 1.29786, 1.20269, 1.1749, 1.17391, 1.29905, 1.23896, 1.18996, 1.2318, 1.19563, 1.30904, 1.30859, 1.31095, 1.27895, 1.28509, 1.34509, 1.25912, 1.22949, 1.31719, 1.02679, 1.02714, 1.19054, 1.02491, 1.02496, 1.02491, 1.03268, 1.01268, 1.0119, 1.01193, 1.01548, 1.2045, 0.990501, 0.979918, 0.980004, 0.980483, 0.979886, 0.978037, 0.97773, 0.974006, 0.973636, 0.97094, 0.969817, 0.968885, 0.967937, 0.967717, 0.966014, 0.966681, 0.966182, 0.963351, 0.963111, 0.962091, 0.962258, 0.961058, 0.961736, 0.959336, 0.959734, 0.957419, 0.957151, 0.957172, 0.957194, 0.953855, 0.954096, 0.954103, 0.95511, 0.955238, 0.9554, 0.953946, 0.95256, 0.952736, 0.951127, 0.951401, 0.951824, 0.993336, 0.946845, 0.94034, 0.938959, 0.939766, 0.939556, 0.94007, 0.940316, 0.939262, 0.939144, 0.938844, 0.948135, 0.948738, 0.949063, 0.944697, 0.943193, 0.942719, 0.942375, 0.937698, 0.936284, 0.932192, 0.931203, 0.930859, 0.92809, 0.927939, 0.928591, 0.928237, 0.928366, 0.928365, 0.926447, 0.926674, 0.928153, 0.928449, 0.927612, 0.92892, 0.930033, 0.930369, 0.963248, 0.961021, 0.916895, 0.918911, 0.920898, 0.917442, 0.915783, 0.915038, 0.914345, 0.916514, 0.916038, 0.916307, 0.921837, 0.921542, 0.922467, 0.91981, 0.919802, 0.916232, 0.916557, 0.919199, 0.919542, 0.919396, 0.918649, 0.916971, 0.915771, 0.916448, 0.916438, 0.916937, 0.917131, 0.916879, 0.917882, 0.918129, 0.919709, 0.919093, 0.916655, 0.90814, 0.906925, 0.906628, 0.905371, 0.906083, 0.904064, 0.904209, 0.904196, 0.899368, 0.900012, 0.898382, 0.899718, 0.901137, 0.901539, 0.900975, 0.900482, 0.90001, 0.898743, 0.897537, 0.8966, 0.89965, 0.891335, 0.89387, 0.893731, 0.894482, 0.893858, 0.894208, 0.894147, 0.908637, 0.883171, 0.882412, 0.883768, 0.884789, 0.885309, 0.885248, 0.887045, 0.887078, 0.887275, 0.885777, 0.887428, 0.888265, 0.88763, 0.888072, 0.888007, 0.883291, 0.883769, 0.884588, 0.884079, 0.883699, 0.884552, 0.888198, 0.958911, 0.962933, 0.949901, 0.96515, 0.969326, 0.995211, 0.88481, 0.884015, 1.01868, 0.960837, 0.874257, 0.873616, 0.872919, 0.871604, 0.872934, 0.87305, 0.869457, 0.869887, 1.19432, 1.18049, 0.868492
0.998494, 1.00012, 1.00094, 1.00457, 1.0053, 1.00536, 1.00734, 1.00803, 1.00931, 1.01897, 1.01934, 1.02083, 1.06447, 1.03296, 1.03366, 1.03371, 1.03641, 1.03942, 1.04079, 1.04488, 1.04555, 1.04495, 1.04577, 1.1303, 1.13003, 1.1225, 1.12953, 1.11821, 1.07919, 1.0799, 1.08425, 1.08439, 1.08586, 1.08717, 1.09283, 1.09184, 1.09707, 1.09803, 1.15274, 1.19822, 1.19703, 1.17039, 1.19092, 1.16078, 1.19036, 1.19738, 1.15791, 1.17657, 1.20557, 1.12174, 1.1259, 1.12396, 1.12378, 1.12295, 1.11832, 1.11648, 1.29179, 1.26707, 1.23589, 1.2154, 1.20543, 1.23595, 1.17771, 1.26157, 1.26153, 1.24967, 1.24844, 1.32498, 1.24862, 1.23082, 1.23133, 1.34351, 1.03129, 1.03015, 1.03181, 1.03091, 1.02591, 1.02544, 1.02634, 1.02655, 1.03596, 1.0112, 1.01102, 1.00882, 1.23921, 1.24062, 0.987681, 0.98105, 0.982173, 0.982148, 0.977823, 0.97867, 0.977026, 0.974183, 0.97215, 0.969982, 0.969548, 0.970051, 0.967159, 0.966986, 0.967336, 0.965764, 0.96433, 0.962915, 0.962736, 0.963012, 0.963514, 0.96349, 0.963331, 0.961182, 0.95695, 0.958461, 0.958183, 0.956603, 0.954797, 0.953961, 0.953709, 0.954739, 0.955243, 0.953454, 0.952483, 0.952347, 0.952403, 0.951924, 0.952452, 0.95196, 0.951822, 1.07344, 1.07404, 0.941875, 0.938827, 0.939706, 0.940482, 0.940028, 0.939672, 0.940082, 0.940291, 0.947881, 0.949116, 0.948861, 0.949021, 0.944773, 0.944323, 0.94354, 0.939201, 0.935015, 0.934101, 0.932134, 0.931842, 0.929348, 0.928202, 0.927345, 0.927016, 0.927947, 0.928747, 0.928693, 0.928142, 0.928443, 0.928705, 0.926606, 0.927294, 0.931482, 0.932374, 0.926972, 0.924103, 0.922212, 0.919969, 0.920149, 0.919267, 0.914924, 0.914458, 0.914112, 0.914673, 0.914796, 0.916144, 0.9167, 0.91996, 0.925541, 0.92129, 0.922074, 0.925132, 0.918302, 0.919316, 0.919597, 0.918271, 0.917931, 0.91672, 0.916111, 0.917607, 0.917548, 0.918212, 0.919071, 0.918634, 0.918764, 0.918842, 0.921228, 0.972144, 0.91038, 0.908359, 0.908706, 0.906013, 0.906031, 0.906468, 0.907498, 0.904514, 0.904812, 0.90223, 0.900444, 0.901477, 0.901907, 0.90154, 0.902876, 0.900935, 0.899979, 0.900882, 0.900768, 0.897372, 0.898273, 0.899621, 0.899965, 0.901597, 0.893589, 0.892389, 0.894435, 0.892586, 0.891331, 0.90144, 0.903762, 0.903609, 0.890259, 0.888042, 0.887821, 0.887377, 0.887043, 0.887698, 0.887924, 0.887253, 0.887508, 0.888693, 0.889062, 0.887888, 0.887741, 0.884271, 0.883938, 0.886181, 0.885939, 0.884155, 0.884021, 0.883518, 0.960571, 0.888458, 0.880139, 0.880777, 0.967651, 0.96472, 0.964904, 0.969022, 0.963188, 1.03635, 0.873265, 0.873496, 0.875087, 0.873152, 0.874553, 0.873485, 0.869375, 0.869401, 0.867996, 0.865132, 0.864621
0.997076, 0.997902, 0.999523, 1.00436, 1.00357, 1.0051, 1.00635, 1.00615, 1.01109, 1.01527, 1.01843, 1.02056, 1.06747, 1.02918, 1.03153, 1.03219, 1.03571, 1.03706, 1.03967, 1.04123, 1.04472, 1.04531, 1.13102, 1.08847, 1.14037, 1.13676, 1.12765, 1.13532, 1.07826, 1.07756, 1.08348, 1.0827, 1.08484, 1.08563, 1.09059, 1.08878, 1.09549, 1.15154, 1.15277, 1.10429, 1.17533, 1.18758, 1.20115, 1.19955, 1.19117, 1.14631, 1.14271, 1.2542, 1.18865, 1.12352, 1.12591, 1.12555, 1.12545, 1.12521, 1.12096, 1.29188, 1.27832, 1.26554, 1.28923, 1.25076, 1.22035, 1.22542, 1.28008, 1.2233, 1.22774, 1.26351, 1.2037, 1.06717, 1.24758, 1.24948, 1.25104, 1.03249, 1.03288, 1.03358, 1.03356, 1.03304, 1.02782, 1.02875, 1.02858, 1.03087, 1.03335, 1.0097, 1.00996, 1.00963, 1.21314, 1.23527, 0.988906, 0.981652, 0.981439, 0.982405, 0.982254, 0.980943, 0.976436, 0.974002, 0.971608, 0.971442, 0.96892, 0.968853, 0.967257, 0.96757, 0.967441, 0.964916, 0.964488, 0.9634, 0.963315, 0.963403, 0.963781, 0.964447, 0.963317, 0.964038, 0.964095, 0.957779, 0.958829, 0.959176, 0.95549, 0.954566, 0.954567, 0.954645, 0.953456, 0.951912, 0.95305, 0.95299, 0.953408, 0.952616, 0.950976, 0.952083, 1.04787, 1.04946, 0.949105, 0.941788, 0.93987, 0.944717, 0.944245, 0.943186, 0.943062, 0.99871, 0.947866, 0.948851, 0.94803, 0.948798, 0.949067, 0.94553, 0.944538, 0.942871, 0.943089, 0.934443, 0.933674, 0.932646, 0.930707, 0.931646, 0.927942, 0.928313, 0.928348, 0.928257, 0.929078, 0.929944, 0.928792, 0.928604, 0.927968, 0.926974, 0.928613, 0.932611, 0.93273, 0.924951, 0.924063, 0.922584, 0.922179, 0.922117, 0.919649, 0.913739, 0.914826, 0.912181, 0.911899, 0.911903, 0.916009, 0.917775, 0.921541, 0.922618, 0.923694, 0.923254, 0.924362, 0.92336, 0.9198, 0.916611, 0.916362, 0.916787, 0.917479, 0.916837, 0.918545, 0.918227, 0.919448, 0.921182, 0.920907, 0.918981, 0.921425, 0.921348, 0.921896, 0.975587, 0.909103, 0.90885, 0.909501, 0.905899, 0.908696, 0.906533, 0.905817, 0.908616, 0.903571, 0.90322, 0.902878, 0.902147, 0.904045, 0.904161, 0.898926, 0.898178, 0.898556, 0.900348, 0.898319, 0.897966, 0.900483, 0.900707, 0.899756, 0.894644, 0.892501, 0.892187, 0.89335, 0.89337, 0.894435, 0.891653, 0.891481, 0.892304, 0.888923, 0.889228, 0.88786, 0.887885, 0.888477, 0.890048, 0.888135, 0.890438, 0.88987, 0.890444, 0.887016, 0.886946, 0.883739, 0.884103, 0.885059, 0.88527, 0.884977, 0.88413, 0.88386, 0.963593, 0.891166, 0.87969, 0.875526, 0.937269, 0.938038, 0.946528, 0.87506, 0.873905, 0.870263, 0.871434, 0.876444, 0.875605, 0.875218, 0.874907, 0.87, 1.16747, 1.167, 0.859875, 0.862295, 0.864037
0.996936, 0.997266, 0.997048, 1.00106, 1.00177, 1.00388, 1.00507, 1.00444, 1.05809, 1.01556, 1.0181, 1.01968, 1.06558, 1.02759, 1.02981, 1.03536, 1.03631, 1.03823, 1.04018, 1.04028, 1.04008, 1.13537, 1.14265, 1.13368, 1.12122, 1.13757, 1.14887, 1.07509, 1.07574, 1.07889, 1.08389, 1.08376, 1.08494, 1.08632, 1.08989, 1.08981, 1.09608, 1.09759, 1.10121, 1.10126, 1.10333, 1.10949, 1.12863, 1.1895, 1.18925, 1.20462, 1.141, 1.21436, 1.21396, 1.12856, 1.12557, 1.12521, 1.12507, 1.12537, 1.12206, 1.28799, 1.20083, 1.26664, 1.24936, 1.29955, 1.20327, 1.31167, 1.17793, 1.16837, 1.20145, 1.20164, 1.20231, 1.24581, 1.24621, 1.22548, 1.33391, 1.03532, 1.03274, 1.03341, 1.03273, 1.03284, 1.03094, 1.03078, 1.03278, 1.02989, 1.02992, 1.01188, 1.01019, 1.01076, 1.00133, 0.991791, 0.99022, 0.987461, 0.984088, 0.984039, 0.983776, 0.981498, 0.977858, 0.973335, 0.972818, 0.973351, 0.972892, 0.970387, 0.969918, 0.969437, 0.970045, 0.966948, 0.965204, 0.966341, 0.964238, 0.964086, 0.963097, 0.963312, 0.96332, 0.963599, 0.962107, 0.959192, 0.959387, 0.957814, 0.955896, 0.955257, 0.955301, 0.95833, 0.95839, 0.956945, 0.954758, 0.953582, 0.953936, 0.95348, 0.952838, 0.953693, 1.06758, 0.952284, 0.952705, 0.953215, 0.97058, 0.944477, 0.945298, 0.946021, 0.997329, 0.946526, 0.947713, 0.949206, 0.949508, 0.949142, 0.948519, 0.946546, 0.945896, 0.946456, 0.945749, 0.936752, 0.934197, 0.933861, 0.932817, 0.932378, 0.931731, 0.930916, 0.932273, 0.928486, 0.929466, 0.930416, 0.930012, 0.928733, 0.92724, 0.92704, 0.928377, 0.931706, 0.930773, 0.9285, 0.925703, 0.923277, 0.920891, 0.918958, 0.919123, 0.91873, 0.915758, 0.913698, 0.911239, 0.911576, 0.914457, 0.92093, 0.922807, 0.923963, 0.925129, 0.923476, 0.92453, 0.925501, 0.924878, 0.915828, 0.915316, 0.91756, 0.917871, 0.916626, 0.917221, 0.917687, 0.918846, 0.920282, 0.919322, 0.918904, 0.921741, 0.921428, 0.921836, 0.922682, 0.913323, 0.914514, 0.908615, 0.908809, 0.915787, 0.914901, 0.911421, 0.912459, 0.907449, 0.908527, 0.905172, 0.902571, 0.902197, 0.902524, 0.896232, 0.897202, 0.898236, 0.900008, 0.898458, 0.899091, 0.899432, 0.898684, 0.900918, 0.895264, 0.895584, 0.892174, 0.89222, 0.893681, 0.895335, 0.895531, 0.893027, 0.892776, 0.890218, 0.889305, 0.88783, 0.887793, 0.889322, 0.890001, 0.889751, 0.888544, 0.889587, 0.890001, 0.888889, 0.887859, 0.887617, 0.884287, 0.884537, 0.885177, 0.884351, 0.883207, 0.881899, 0.879768, 0.97658, 0.980433, 0.975312, 0.979225, 0.868712, 0.869546, 0.874193, 0.875172, 0.868671, 0.870914, 0.874078, 0.875681, 0.874503, 1.12038, 1.14336, 0.866851, 0.862237, 0.861174, 0.860729, 0.860495
0.997194, 0.994054, 0.994567, 0.998087, 1.00392, 1.00317, 1.05308, 1.05087, 1.01634, 1.05677, 1.06012, 1.01612, 1.01985, 1.02299, 1.02832, 1.0328, 1.03325, 1.03741, 1.03797, 1.09799, 1.13106, 1.13465, 1.13953, 1.12993, 1.1199, 1.11427, 1.12013, 1.07422, 1.07599, 1.07962, 1.08169, 1.0836, 1.08358, 1.08403, 1.08863, 1.08865, 1.16245, 1.14977, 1.09635, 1.09952, 1.10467, 1.1066, 1.195, 1.1952, 1.18606, 1.19273, 1.1926, 1.21423, 1.16053, 1.12728, 1.13032, 1.12912, 1.12575, 1.12502, 1.20595, 1.28076, 1.19792, 1.27482, 1.30333, 1.24591, 1.28853, 1.22311, 1.28182, 1.27789, 1.2189, 1.2633, 1.29425, 1.24308, 1.24004, 1.24233, 1.28109, 1.03463, 1.03383, 1.03314, 1.03269, 1.03259, 1.03105, 1.03302, 1.03331, 1.02973, 1.02953, 1.01975, 1.03843, 1.04643, 0.998172, 0.995291, 0.990284, 0.988752, 0.987981, 0.984747, 0.983343, 0.980517, 0.979114, 0.973557, 0.973207, 0.973313, 0.97317, 0.972351, 0.970022, 0.969809, 0.968174, 0.966644, 0.969854, 0.966622, 0.961888, 0.961765, 0.963071, 0.964518, 0.964634, 0.965452, 0.96248, 0.960889, 0.96027, 0.959624, 0.956258, 0.955938, 0.95635, 0.958927, 0.959185, 0.957708, 0.957168, 0.954914, 0.955859, 0.956032, 0.956972, 0.957173, 0.952744, 0.952203, 0.951886, 0.952171, 0.947139, 0.94632, 0.944011, 0.942297, 1.00286, 0.994776, 0.949194, 0.949712, 0.949976, 0.949356, 0.94919, 0.946991, 0.946483, 0.945312, 0.945654, 0.940635, 0.936248, 0.93524, 0.933525, 0.932837, 0.931851, 0.931797, 0.931419, 0.930442, 0.928391, 0.930117, 0.93035, 0.926347, 0.927176, 0.926607, 0.926734, 0.929069, 0.928679, 0.928794, 0.925441, 0.922809, 0.922037, 0.918632, 0.918537, 0.916017, 0.915548, 0.915353, 0.910771, 0.913482, 0.923051, 0.918559, 0.919847, 0.925322, 0.927015, 0.925589, 0.925934, 0.926362, 0.926871, 0.914383, 0.914171, 0.916838, 0.91745, 0.918335, 0.917846, 0.917437, 0.919497, 0.919448, 0.9203, 0.920849, 0.922083, 0.922483, 0.92197, 0.922584, 0.913761, 0.913456, 0.910741, 0.918303, 0.899904, 0.9, 0.901271, 0.908253, 0.906182, 0.908866, 0.909012, 0.901818, 0.902092, 0.898092, 0.895942, 0.896826, 0.897435, 0.898768, 0.899489, 0.899181, 0.900187, 0.90066, 0.900854, 0.899456, 0.898333, 0.892193, 0.894273, 0.894989, 0.895599, 0.895976, 0.894497, 0.892528, 0.891313, 0.889032, 0.887953, 0.887012, 0.903967, 0.899355, 0.887486, 0.887043, 0.889086, 0.887651, 0.885946, 0.886718, 0.886934, 0.886974, 0.88555, 0.884136, 0.883494, 0.882134, 0.877855, 0.879901, 0.879817, 0.864603, 0.864987, 0.866488, 0.870057, 0.868624, 0.873561, 0.876436, 0.873387, 0.873993, 0.872821, 0.873332, 0.870491, 0.860779, 0.862823, 0.863922, 0.860805, 0.858471, 0.856357, 0.857391
0.992869, 0.993979, 1.04296, 1.04952, 1.03641, 1.00886, 1.00968, 1.00948, 1.05052, 1.05374, 1.0114, 1.01541, 1.0166, 1.05931, 1.02569, 1.0321, 1.03214, 1.03852, 1.0881, 1.0857, 1.10783, 1.03881, 1.03955, 1.1216, 1.11966, 1.12674, 1.15009, 1.07397, 1.13285, 1.07818, 1.07822, 1.08057, 1.08301, 1.14464, 1.15858, 1.16223, 1.16177, 1.1512, 1.18862, 1.09975, 1.17702, 1.10583, 1.1133, 1.18692, 1.11788, 1.1183, 1.1966, 1.13624, 1.16187, 1.12896, 1.13136, 1.13018, 1.14088, 1.3017, 1.23231, 1.17884, 1.26825, 1.15535, 1.2859, 1.28622, 1.19229, 1.19615, 1.23658, 1.16078, 1.20917, 1.26204, 1.31436, 1.24004, 1.23935, 1.04601, 1.35137, 1.03325, 1.0329, 1.03114, 1.03117, 1.03409, 1.03444, 1.03391, 1.03317, 1.03019, 1.02781, 1.13595, 1.01851, 1.04466, 1.46766, 0.996707, 0.996668, 0.991367, 0.990832, 0.988393, 0.983922, 0.981456, 0.980908, 0.97698, 0.973832, 0.973315, 0.972773, 0.971675, 0.971254, 0.969934, 0.96914, 0.970145, 0.968097, 0.97438, 0.958518, 0.958238, 0.969475, 0.965212, 0.966385, 0.966492, 0.960885, 0.959412, 0.959732, 0.958978, 0.958199, 0.956394, 0.957108, 0.959107, 0.959004, 0.957569, 0.958873, 0.957881, 0.956099, 0.956308, 0.956851, 0.957053, 0.951361, 0.951118, 0.95271, 0.948525, 0.94704, 0.946081, 0.945142, 0.944953, 0.946817, 1.00182, 0.949503, 0.951273, 0.95069, 0.949331, 0.94893, 0.948132, 0.946765, 0.944858, 0.945877, 0.939582, 0.939473, 0.936559, 0.931922, 0.932009, 0.93196, 0.931166, 0.931923, 0.930335, 0.930964, 0.931991, 0.929537, 0.928411, 0.92802, 0.92835, 0.926634, 0.928641, 0.928441, 0.928795, 0.924611, 0.923437, 0.92162, 0.919752, 0.919079, 0.91822, 0.917943, 0.918058, 0.917978, 0.915447, 0.917181, 0.91869, 0.918759, 0.922168, 0.926435, 0.926995, 0.927225, 0.928584, 0.929237, 0.929297, 0.91436, 0.917436, 0.920345, 0.918599, 0.921445, 0.920373, 0.91897, 0.920888, 0.921571, 0.921553, 0.922664, 0.925019, 0.920387, 0.921965, 0.918959, 0.916838, 1.06151, 0.919442, 0.899994, 0.899797, 0.900547, 0.906265, 0.907953, 0.90986, 0.909317, 0.907712, 0.898214, 0.901627, 0.897264, 0.897802, 0.899018, 0.902746, 0.90415, 0.903112, 0.899825, 0.899719, 0.900701, 0.900431, 0.898201, 0.89751, 0.894411, 0.892653, 0.894125, 0.894913, 0.89451, 0.894607, 0.911592, 0.911064, 0.886928, 0.886026, 0.885165, 0.912027, 0.909264, 0.88645, 0.887824, 0.886975, 0.886309, 0.885584, 0.887074, 0.887432, 0.887123, 0.881724, 0.884409, 0.883992, 0.879183, 0.879574, 0.943803, 0.865523, 0.866964, 0.868102, 0.868213, 0.868436, 0.869572, 0.873386, 0.873766, 0.87545, 0.875143, 0.863467, 0.865277, 0.86406, 0.864218, 0.86442, 0.86037, 0.859502, 0.857831, 0.858475
0.989442, 0.995158, 1.0446, 1.036, 1.0415, 1.02535, 1.01897, 1.05781, 1.05629, 1.00667, 1.01287, 1.01229, 1.01594, 1.0265, 1.0246, 1.02364, 1.02844, 1.03213, 1.08646, 1.05762, 1.12646, 1.09548, 1.13592, 1.12343, 1.12227, 1.15701, 1.11258, 1.12179, 1.07404, 1.07349, 1.07717, 1.07818, 1.07813, 1.15024, 1.14622, 1.15311, 1.13006, 1.19333, 1.09869, 1.0996, 1.10516, 1.10585, 1.11189, 1.11568, 1.11661, 1.146, 1.20142, 1.12586, 1.12828, 1.12781, 1.12892, 1.12867, 1.18306, 1.28462, 1.24382, 1.19572, 1.23668, 1.24642, 1.27221, 1.24468, 1.24729, 1.21547, 1.19932, 1.17156, 1.15359, 1.21321, 1.20769, 1.28124, 1.13534, 1.3452, 1.04107, 1.32897, 1.03172, 1.02945, 1.03258, 1.03497, 1.03519, 1.03632, 1.03274, 1.03204, 1.03211, 1.02484, 1.02314, 1.02607, 1.47488, 0.997467, 0.99456, 0.993592, 0.990813, 0.989987, 0.984989, 0.982307, 0.980473, 0.97998, 0.976984, 0.973153, 0.973258, 0.973287, 0.973339, 0.972408, 0.973623, 0.970246, 1.00586, 0.971631, 0.957361, 0.95775, 0.96405, 0.964408, 0.965432, 0.963002, 0.962027, 0.959528, 0.958039, 0.958322, 0.95797, 0.957299, 0.957851, 0.957985, 0.958885, 0.959041, 0.957386, 0.959628, 0.957436, 0.956147, 0.958318, 0.957058, 0.957341, 0.952631, 0.948824, 0.945887, 0.947674, 0.946862, 0.945607, 0.946115, 0.946983, 1.08477, 0.950639, 0.950276, 0.950213, 0.949323, 0.94778, 0.947299, 0.947178, 0.946245, 0.946706, 0.941251, 0.940012, 0.9363, 0.932204, 0.931713, 0.931599, 0.931833, 0.93258, 0.931221, 0.93197, 0.931813, 0.930011, 0.928888, 0.927583, 0.928762, 0.929627, 0.928307, 0.927491, 0.928193, 0.925905, 0.924797, 0.923463, 0.920708, 0.920006, 0.91971, 0.918051, 0.918695, 0.918288, 0.91638, 0.917945, 0.918434, 0.917538, 0.920342, 0.926435, 0.928051, 0.928443, 0.928799, 0.929815, 0.928677, 0.927692, 0.919232, 0.92293, 0.920317, 0.920497, 0.921282, 0.923495, 0.92518, 0.924576, 0.923275, 0.925446, 0.926155, 0.923416, 0.923236, 0.91719, 0.917189, 1.1999, 1.19911, 0.897753, 0.900019, 0.921902, 0.905718, 0.909003, 0.909153, 0.908726, 0.908446, 0.907392, 0.899956, 0.899011, 0.900351, 0.901071, 0.903839, 0.904524, 0.904016, 0.901578, 0.900578, 0.901575, 0.900081, 0.899146, 0.897855, 0.895196, 0.893607, 0.894092, 0.893947, 0.89518, 0.894549, 0.9148, 0.91899, 0.886418, 0.885784, 0.884929, 0.912964, 0.883516, 1.07348, 0.885456, 0.886374, 0.886811, 0.88787, 0.889244, 0.889426, 0.887463, 0.887378, 0.886126, 0.886607, 0.882622, 0.881673, 0.992587, 0.861146, 0.866997, 0.869502, 0.869134, 0.869673, 0.869402, 0.870442, 0.875152, 0.875876, 0.8648, 0.865268, 0.864472, 0.866257, 0.866259, 0.866071, 0.857422, 0.857934, 0.858103, 0.857255
0.987915, 1.04634, 1.01008, 1.04931, 1.037, 1.05307, 1.02213, 1.01847, 1.05531, 1.00428, 1.00869, 1.01582, 1.01555, 1.01904, 1.01973, 1.0214, 1.02322, 1.08054, 1.08777, 1.0952, 1.10981, 1.11359, 1.12537, 1.08133, 1.11643, 1.10694, 1.11274, 1.14797, 1.06978, 1.07128, 1.06875, 1.07807, 1.07839, 1.13932, 1.08432, 1.13719, 1.09174, 1.096, 1.09587, 1.10024, 1.10005, 1.1066, 1.10864, 1.1884, 1.11664, 1.12135, 1.12172, 1.12419, 1.1251, 1.12777, 1.12861, 1.12906, 1.24469, 1.23566, 1.23813, 1.24259, 1.3031, 1.29527, 1.2654, 1.24105, 1.29259, 1.30678, 1.18079, 1.16295, 1.16521, 1.27721, 1.15468, 1.219, 1.27188, 1.27252, 1.22185, 1.27931, 1.03116, 1.03162, 1.30547, 1.03749, 1.03624, 1.03529, 1.03456, 1.03457, 1.03934, 1.33698, 1.02002, 1.01966, 1.00356, 1.00153, 0.999365, 0.994106, 0.993759, 0.990578, 0.987037, 0.984544, 0.981802, 0.980175, 0.977475, 0.974556, 0.973986, 0.974816, 0.975447, 0.974442, 0.97361, 0.972968, 0.971329, 1.10303, 1.10182, 0.966855, 0.965182, 0.964783, 0.963441, 0.961268, 0.961081, 0.960418, 0.958771, 0.958453, 0.95926, 0.957711, 0.958303, 0.959192, 0.958939, 0.96044, 0.959636, 0.960918, 0.957312, 0.956333, 0.956668, 0.95784, 0.957465, 0.948964, 0.947111, 0.945737, 0.947734, 0.946895, 0.945367, 0.945298, 0.946011, 0.949441, 0.949509, 0.949347, 0.949461, 0.949055, 0.948472, 0.948334, 0.946029, 0.946469, 0.946448, 0.945545, 0.94173, 0.938516, 0.940927, 0.93666, 0.932459, 0.93298, 0.932739, 0.932142, 0.932461, 0.931678, 0.930051, 0.929964, 0.93126, 0.928363, 0.928906, 0.919914, 0.92845, 0.926555, 0.925902, 0.92535, 0.924188, 0.920572, 0.921987, 0.917213, 0.918172, 0.917813, 0.918103, 0.916484, 0.922343, 0.920062, 0.920372, 0.919204, 0.919521, 0.922, 0.928434, 0.93033, 0.928747, 0.929523, 0.928931, 0.922984, 0.924131, 0.923691, 0.92247, 0.921956, 0.925902, 0.92594, 0.924447, 0.925058, 0.924671, 0.926506, 0.926115, 0.923238, 0.918163, 0.917825, 0.925505, 0.926936, 0.927501, 0.929115, 0.919849, 0.920739, 0.909198, 0.908472, 0.908012, 0.909526, 0.907776, 0.900049, 0.901248, 0.900871, 0.902437, 0.905015, 0.904308, 0.903687, 0.90454, 0.901106, 0.900006, 0.900337, 0.901404, 0.900766, 0.901173, 0.894892, 0.893634, 0.894662, 0.894647, 0.894542, 0.912605, 0.914292, 0.907644, 0.884699, 0.884006, 0.883639, 0.882599, 0.883906, 0.88495, 0.885297, 0.886537, 0.888627, 0.889764, 0.890928, 0.888942, 0.887678, 0.887263, 0.886707, 0.886391, 0.883612, 0.987186, 0.963476, 0.99226, 0.870038, 0.869309, 0.870155, 0.870453, 0.872953, 0.875191, 0.875583, 0.866191, 0.866395, 0.864258, 0.863978, 0.863871, 0.862659, 0.858959, 0.855799, 0.856091, 0.857041
0.986917, 1.0292, 1.02875, 1.02238, 1.05679, 1.0526, 1.02054, 1.06474, 1.0602, 1.00276, 1.05262, 1.00866, 1.01391, 1.01826, 1.01858, 1.02035, 1.02166, 1.08469, 1.08553, 1.06761, 1.07735, 1.08613, 1.12511, 1.08883, 1.12063, 1.12092, 1.13737, 1.10479, 1.06885, 1.06938, 1.0701, 1.07221, 1.07716, 1.1426, 1.08499, 1.08553, 1.09091, 1.09213, 1.09785, 1.09865, 1.10109, 1.12315, 1.10814, 1.11087, 1.11501, 1.11687, 1.12193, 1.12347, 1.12568, 1.12708, 1.12775, 1.12595, 1.12602, 1.23348, 1.23547, 1.11406, 1.11379, 1.10821, 1.28379, 1.26196, 1.24223, 1.17786, 1.17882, 1.23957, 1.20601, 1.20776, 1.09501, 1.16492, 1.24952, 1.27125, 1.21524, 1.24306, 1.03347, 1.03272, 1.33372, 1.03878, 1.03895, 1.03452, 1.03398, 1.03564, 1.51365, 1.06763, 1.03755, 1.04901, 1.00263, 1.00083, 0.999762, 0.995043, 0.993811, 0.993561, 0.989291, 0.983664, 0.982745, 0.981452, 0.977484, 0.976849, 0.974933, 0.976403, 0.975197, 0.975922, 0.976702, 0.97737, 0.977634, 0.970363, 0.969684, 0.966313, 0.966045, 0.964667, 0.964527, 0.963886, 0.9624, 0.961288, 0.960492, 0.959406, 0.960133, 0.958293, 0.95735, 0.95727, 0.957985, 0.960346, 0.960675, 0.96164, 0.961639, 0.961459, 0.956041, 0.958363, 0.96045, 0.948928, 0.945511, 0.944609, 0.944722, 0.94513, 0.944314, 0.945682, 0.947876, 0.950001, 0.949151, 0.948902, 0.949081, 0.949409, 0.948003, 0.947483, 0.94666, 0.947622, 0.948431, 0.948683, 0.94198, 0.940216, 0.940482, 0.937869, 0.938111, 0.935252, 0.935496, 0.935277, 0.932244, 0.931743, 0.931656, 0.931171, 0.931544, 0.929694, 0.928585, 0.920478, 0.92415, 0.925709, 0.925848, 0.925246, 0.925164, 0.922261, 0.922466, 0.92369, 0.917873, 0.917014, 0.932063, 0.923028, 0.921346, 0.921314, 0.920694, 0.921935, 0.919402, 0.920868, 0.920156, 0.926214, 0.923083, 0.929835, 0.929619, 0.928615, 0.92406, 0.923067, 0.92464, 0.923948, 0.928102, 0.929388, 0.930092, 0.923839, 0.92352, 0.925107, 0.925204, 0.9229, 0.92001, 0.918804, 0.917084, 1.07488, 1.07559, 0.928227, 0.907366, 0.908061, 0.910963, 0.910953, 0.91045, 0.90862, 0.907674, 0.904219, 0.901293, 0.900881, 0.90332, 0.903246, 0.903346, 0.903378, 0.903965, 0.902717, 0.900765, 0.902422, 0.904097, 0.904002, 0.901997, 0.902119, 0.89358, 0.895644, 0.895438, 0.895057, 0.912175, 0.909978, 0.903909, 0.884406, 0.883758, 0.883221, 0.882641, 0.884155, 0.885245, 0.886414, 0.887246, 0.888452, 0.890176, 0.89254, 0.893105, 0.888679, 0.889275, 0.887111, 0.88832, 0.887465, 0.884354, 0.983391, 0.984995, 0.982733, 0.868604, 0.870399, 0.871729, 0.873144, 0.874827, 0.86535, 0.866841, 0.866547, 0.866581, 0.864036, 0.863014, 0.857071, 0.857948, 0.855706, 0.855739, 0.856604
0.985951, 1.04465, 1.0406, 0.97711, 1.01933, 1.05378, 1.05979, 1.0607, 1.013, 1.05223, 1.04601, 1.00924, 1.0494, 1.04837, 1.01592, 1.02078, 1.01992, 1.05899, 1.0251, 1.08507, 1.08456, 1.07522, 1.08851, 1.14694, 1.12202, 1.12185, 1.05846, 1.06268, 1.06673, 1.07195, 1.07386, 1.07337, 1.07311, 1.15055, 1.08376, 1.08484, 1.09212, 1.09195, 1.09409, 1.09768, 1.09934, 1.10232, 1.15031, 1.1085, 1.1124, 1.11559, 1.11727, 1.12324, 1.12537, 1.12694, 1.12672, 1.1265, 1.12609, 1.22507, 1.19346, 1.11473, 1.11199, 1.10827, 1.10809, 1.26573, 1.17409, 1.19864, 1.18079, 1.18577, 1.28716, 1.21154, 1.27106, 1.16423, 1.24964, 1.05125, 1.05167, 1.2469, 1.03671, 1.03498, 1.03816, 1.03978, 1.03951, 1.037, 1.03271, 1.03263, 1.36566, 1.20844, 1.01834, 1.07163, 1.00017, 0.99982, 0.996955, 0.994952, 0.99389, 0.992632, 0.988003, 0.985235, 0.9841, 0.980847, 0.979917, 0.979633, 0.980196, 0.978384, 0.977724, 0.976862, 0.977644, 0.977348, 0.977172, 0.977255, 0.969798, 0.968667, 0.968004, 0.966176, 0.965538, 0.966771, 0.963544, 0.963302, 0.963286, 0.962596, 0.970181, 0.958267, 0.956864, 0.955217, 0.95822, 0.962058, 0.962885, 0.960592, 0.961625, 0.962489, 0.968495, 0.955186, 0.949012, 0.948209, 0.94414, 0.943907, 0.943771, 0.946712, 1.02326, 0.946219, 0.949051, 0.949371, 0.949631, 0.948948, 0.949051, 0.949571, 0.947283, 0.947125, 0.947851, 0.947964, 0.947633, 0.943394, 0.942596, 0.940302, 0.941454, 0.938624, 0.938302, 0.935927, 0.93542, 0.931896, 0.932245, 0.935553, 0.932462, 0.931633, 0.930726, 0.931513, 0.93166, 0.926344, 0.925486, 0.928889, 0.925745, 0.925908, 0.925114, 0.924706, 0.925145, 0.923935, 0.922923, 0.923446, 0.923295, 0.926307, 0.92432, 0.921592, 0.922523, 0.921837, 0.92146, 0.921683, 0.921229, 0.921117, 0.922605, 0.923111, 0.927344, 0.928067, 0.928677, 0.924252, 0.925758, 0.926741, 0.928506, 0.929757, 0.931266, 0.929959, 0.923746, 0.925249, 0.926163, 0.922869, 0.9228, 0.920732, 0.918806, 0.917192, 0.915012, 0.908426, 0.909153, 0.907912, 0.908329, 0.91141, 0.909731, 0.91227, 0.912407, 0.918947, 0.902536, 0.904881, 0.901994, 0.902068, 0.902368, 0.900692, 0.901115, 0.906565, 0.904374, 0.904775, 0.905148, 0.904526, 0.900803, 0.90125, 0.897198, 0.897466, 0.896746, 0.909805, 0.908383, 0.911848, 0.884899, 0.884446, 0.883612, 0.882666, 0.88136, 0.930486, 0.884728, 0.884997, 0.887393, 0.889348, 0.8919, 0.894073, 0.89469, 0.889503, 0.88936, 0.888571, 0.889087, 0.888525, 0.885338, 0.884865, 0.997518, 0.87752, 0.876918, 0.981695, 0.873157, 0.873777, 0.873202, 0.866636, 0.866334, 0.866997, 0.86623, 0.865507, 0.856459, 0.856933, 0.857428, 0.85585, 0.857114, 0.858059
1.02241, 1.04697, 0.976751, 0.978185, 1.02118, 0.979625, 1.04274, 1.04051, 0.99315, 1.05308, 1.05436, 1.05513, 1.04477, 1.01056, 1.01131, 1.01531, 1.01604, 1.09219, 1.07464, 1.08401, 1.05828, 1.0541, 1.07695, 1.06087, 1.05269, 1.05579, 1.05719, 1.06336, 1.06517, 1.07147, 1.0735, 1.07281, 1.15695, 1.07867, 1.08357, 1.08469, 1.09046, 1.09283, 1.09299, 1.09723, 1.09756, 1.09906, 1.10434, 1.15302, 1.11059, 1.11443, 1.11758, 1.11966, 1.19961, 1.12448, 1.12503, 1.12502, 1.24676, 1.22511, 1.23238, 1.11487, 1.11326, 1.10806, 1.10811, 1.1677, 1.28759, 1.18708, 1.19804, 1.18171, 1.18063, 1.26444, 1.27088, 1.26981, 1.15999, 1.05092, 1.05109, 1.11575, 1.0346, 1.03592, 1.03916, 1.03884, 1.03817, 1.29508, 1.03183, 1.03119, 1.35165, 1.21032, 1.01815, 1.05836, 1.00037, 0.999266, 0.997869, 0.994922, 0.99448, 0.990972, 0.990693, 0.98632, 0.981722, 0.979041, 0.97914, 0.980675, 0.978545, 0.979076, 0.97902, 0.977929, 0.975667, 0.977325, 0.976998, 0.976656, 0.971186, 0.970764, 0.967625, 0.966924, 0.966601, 0.96631, 0.965434, 0.963845, 0.963332, 0.963877, 0.973744, 0.974582, 0.955799, 0.955108, 0.96488, 0.960019, 0.96255, 0.963473, 0.963718, 0.963784, 0.973733, 0.954791, 0.947314, 0.949428, 0.944888, 0.944225, 0.943614, 1.07895, 0.978046, 0.946081, 0.948376, 0.947319, 0.947961, 0.948889, 0.949425, 0.950258, 0.949882, 0.949904, 0.947596, 0.947159, 0.948274, 0.943578, 0.942832, 0.941484, 0.940371, 0.937679, 0.936831, 0.936889, 0.936474, 0.936803, 0.933957, 0.935197, 0.932473, 0.932337, 0.931702, 0.932484, 0.93085, 0.931544, 0.927087, 0.926682, 0.925891, 0.926638, 0.926865, 0.926696, 0.924861, 0.924911, 0.924743, 0.924177, 0.925196, 0.926648, 0.925666, 0.924944, 0.924729, 0.924448, 0.921432, 0.925374, 0.923218, 0.922594, 0.923246, 0.924541, 0.923919, 0.928475, 0.928629, 0.927359, 0.927195, 0.927543, 0.928361, 0.929073, 0.930344, 0.929467, 0.928863, 0.927476, 0.926492, 0.925116, 0.923147, 0.92325, 0.942756, 0.918822, 1.0932, 0.912233, 0.910441, 0.907632, 0.907706, 0.910019, 0.911795, 0.911809, 0.913621, 0.92451, 0.912535, 0.90374, 0.902665, 0.903063, 0.902609, 0.901146, 0.902094, 0.904255, 0.905106, 0.905819, 0.905727, 0.904781, 0.904413, 0.902808, 0.901394, 0.908633, 0.906295, 0.891582, 0.902079, 0.908056, 0.884358, 0.883615, 0.883176, 0.881946, 0.880717, 0.883175, 0.885869, 0.886397, 0.888487, 0.892476, 0.893639, 0.89507, 0.897756, 0.891803, 0.88803, 0.887611, 0.889574, 0.88749, 0.885009, 0.88661, 0.939151, 0.984853, 0.947278, 0.872777, 0.871327, 0.872915, 0.8674, 0.867544, 0.866826, 0.868218, 0.867992, 0.863059, 0.859363, 0.858913, 0.858985, 0.857431, 0.856341, 0.858882
