0.981032267787046,0.980763191384977,0.980512890040984,0.980900563861719,0.969318789749193,0.968048393449822,0.967181471971522,0.966036826509738,0.964099450786631,0.961829773102063,0.959917106315518,0.959035934342697,0.957580788764829,0.956173361445626,0.955308629742736,0.954350683690947,0.953727347137245,0.952939153146418,0.951650830081556,0.950937744408334,0.950810494907101,0.952985994674276,0.95240398582553,0.952217579901073,0.952325683246126,0.961496607031292,0.96472445522159,0.964765758520736,1.02196036030903,1.04954525619499,1.04978565846161,1.03795612565917,1.03051708422386,1.07523504012967,1.0851181748421,1.08365306607117,1.08283116574237,1.08164161464736,1.07996525947821,1.10423989754861,1.13057226401371,1.13415312031642,1.15740523082353,1.20439085413183,1.20515839486161,1.20486631357606,1.20628243425725,1.20939043021338,1.20986976021021,1.22229081099342,1.23544238748212,1.23452737149336,1.23508943862082,1.23637532499344,1.23634766547621,1.23888219933021,1.25323758170673,1.29198829426827,1.29090665559259,1.28987405802257,1.28981805276774,1.29164571813307,1.29572817335367,1.29846837774453,1.29914323280218,1.2964491991395,1.27059158726829,1.24677356789923,1.24453699444267,1.24414103278191,1.24827348298233,1.29109908755143,1.2912663917423,1.30928368240447,1.31585175187912,1.32894892526365,1.32855165326806,1.3281181611559,1.31586941459606,1.31765818405845,1.31779940974022,1.31621334615981,1.31704275927437,1.35532106644926,1.32108564924894,1.32083546921826,1.31825849329894,1.31967743383129,1.34828523958476,1.34869631122734,1.34895241458519,1.34730257081061,1.34576360058818,1.33755873943747,1.33754706540306,1.3387445108971,1.3477225909021,1.34917041141403,1.37961808652338,1.39815697659649,1.43713035307017,1.44546165281803,1.45774501516575,1.45731017690706,1.43944994667222,1.43062795244602,1.4321263494951,1.43690184731438,1.43895914415629,1.34097339780185,1.34089557691482,1.34166448952851,1.34472277205956,1.32989172561319,1.32716311791833,1.32333489312786,1.32119288062851,1.32302714680406,1.32536067268256,1.30394280904885,1.30418717886651,1.30218730553446,1.30482174770965,1.30739866455851,1.30488333748133,1.25598323225089,1.25464772832569,1.25714755540803,1.25864563010187,1.25795142968584,1.25655341685745,1.25555331685328,1.25598750955595,1.24441343458694,1.24289046205317,1.21271324401184,1.1749346018329,1.16822227268591,1.15932929176936,1.15479168978346,1.15097662335361,1.15095939706958,1.145215967743,1.13294089325631,1.08815362637636,1.08256459701738,1.07642912064193,1.07105834933812,1.06623584274308,1.04994212777983,1.0142416521652,1.01099562013869,1.0107010409951,1.02679960322084,1.00299802811748,0.974330238638577,0.972125907139978,0.953772890325915,0.927704595036738,0.92731903009284,0.928433014933854,0.929564419368746,0.913160157357611,0.906911126685664,0.90375861635858,0.90208959158384,0.901872087478907,0.902160410315324,0.885652755616294
0.980559866398595,0.980937355777099,0.980250735958229,1.04381297982234,0.96904103443454,0.968062036041758,0.966912298871439,0.965585919378181,0.964620068542588,1.13982180938679,1.0113263315188,0.990523808262942,1.16202258947405,0.955680186570442,0.955624826319042,0.955372677467117,0.954853450284516,0.954106946105294,0.951858326752196,0.950825486882066,0.949148633943381,0.955858142300906,0.96415243815753,0.953146202914161,0.953086343942258,0.965417576602185,0.963255935212689,0.963654592332553,1.0224306633111,1.04889694322748,1.04882771190744,1.03633609377078,1.02483204366822,1.05329374043425,1.1359106438119,1.0799542588905,1.08041621950256,1.07911677970876,1.07781442626886,1.09788631474367,1.12457143544317,1.12505712018046,1.12323057801959,1.20239908751449,1.24248133289995,1.24244798286242,1.2091900131541,1.21296204035526,1.19261140260611,1.24523231952092,1.24058474788042,1.23647739588789,1.23643712850681,1.21982011311387,1.27086942321857,1.24243794759971,1.25490655145259,1.29327835810523,1.34583387374885,1.34728504341842,1.28078752754862,1.29177962473352,1.27941327362057,1.34128151068044,1.26810345552562,1.31257840757158,1.27189776550826,1.23671937497564,1.23823097125937,1.2380148744407,1.25256882840765,1.29175821865552,1.2879136145715,1.28161086100989,1.2889370782276,1.323923377608,1.31851423757881,1.3223845904102,1.32007927839561,1.31978769474815,1.32037152253487,1.31834989348075,1.32448209449912,1.39018107106108,1.33049111122025,1.32472720724502,1.32015562473574,1.3262115266866,1.42376138024881,1.32602961140847,1.32511305624117,1.35444669518407,1.36509930241908,1.34164607298661,1.36720395785469,1.32163034093913,1.31961592083831,1.32685251485924,1.39823044060455,1.39831492216341,1.42920732707872,1.4396681298713,1.49686023781539,1.50464741647258,1.44403525801607,1.40412067821368,1.41878977764887,1.43117329323682,1.43200624566412,1.33402666182871,1.34503671987484,1.34094046976036,1.31388174796528,1.30967173194765,1.36001801725459,1.36067055716823,1.32015960570714,1.32582894857641,1.32862671375982,1.30025657843739,1.30004782743014,1.29803647821695,1.31994585925611,1.26392276884726,1.31265582325485,1.26160182027371,1.25771310074759,1.26075069642465,1.26149007162423,1.26183102620956,1.25829164786821,1.27488272334726,1.29525958309099,1.24914459994826,1.22542209572241,1.1828873997355,1.17740268679197,1.16813301741365,1.1483132740065,1.14871425899443,1.15076372925929,1.15116982071759,1.14239758443671,1.18279738805358,1.08111840807083,1.07960889005585,1.07650908699831,1.08529314689386,1.08667479599843,1.0324477871282,1.00979011455998,1.01063457821325,1.01041942079103,1.03728937210733,1.03738638250916,0.973386586864536,0.972897513703183,0.953619277143053,0.927937691438224,0.924988830295116,0.932546623263025,0.929665017074279,0.903868588391504,0.90426631097488,0.956378761843669,0.901673940971129,0.901191989687572,0.902235580166101,0.876841342768993
0.981845245883751,0.981772194697538,0.981678913468759,0.967330248231482,0.968186900074494,0.968226750949322,0.966563630153568,0.964503716657519,0.962938968862632,1.13812506713998,0.946077623855926,0.983621844075526,0.946214240239507,1.4057462318866,0.95611564125771,0.955964577675921,0.956168532364905,0.956441092416135,0.95719955327148,0.957963676301873,0.958670467147934,0.95793816714578,0.957747101548802,0.954025852090265,0.955861776433292,0.957482077748365,0.959457431546027,0.991914642222222,0.991868818567343,1.05656658223924,1.03660518877669,1.03640838553342,1.03782142838855,1.06891620140716,1.06881710018259,1.07767826156966,1.07893283325729,1.07829529185501,1.08372955825024,1.12544649498127,1.09754394171715,1.11296011365904,1.10522770137448,1.20107233788817,1.1985122081814,1.24447046751291,1.20985246523744,1.19637262708005,1.18306943919385,1.23574969122552,1.20899205740457,1.21075029489184,1.21192570453777,1.2125582876102,1.21171189880153,1.23344197302766,1.23383614774591,1.23409780220322,1.23575080451799,1.25105109077051,1.34289358404321,1.31243726052924,1.3409991701521,1.27892156930934,1.27244713458787,1.31226874638465,1.27481608993401,1.27660104357211,1.26419307775747,1.2373865089616,1.23725586813434,1.29530259843456,1.30499116533596,1.28295038470737,1.27867432300674,1.30332988196018,1.31452369502894,1.31255234833233,1.33935126194627,1.32023458398238,1.34367896157591,1.34167515616124,1.306648357949,1.3059857424018,1.37404178876594,1.38710298907778,1.36423121033183,1.33736791636771,1.38106598795265,1.38358713844771,1.33505045050996,1.35729043378179,1.35676282513476,1.36832651128409,1.36761560024116,1.32081714988129,1.31930194492132,1.32836388810861,1.33044952113329,1.39362126591574,1.42529892748989,1.43602012824805,1.45055641376971,1.61140854763091,1.48786179366734,1.40358940314557,1.41345223625692,1.39546953044336,1.32687358699166,1.32599705767013,1.32531845567521,1.32372428966842,1.32574750694744,1.32471349161218,1.35170032688893,1.32575449195542,1.32143064026775,1.32573389056076,1.31810697612455,1.28367824360155,1.26810613196909,1.26405763937997,1.26054777661762,1.25982875682661,1.25938106651914,1.25866626525149,1.25839789365867,1.25987208461473,1.26076609468155,1.26179293882731,1.26348892869658,1.2765247258451,1.27963015919181,1.27384764249953,1.19730402504117,1.19372612116478,1.19354351721428,1.19207903875198,1.19125736315978,1.14887738854017,1.15228193507988,1.15517280326754,1.18981036341558,1.13146605000085,1.09428320586981,1.07115364105323,1.07294486438687,1.07122880622869,1.11276792370718,1.03434831047992,1.01794763850954,1.01578561622942,1.01423267870986,1.01521471668313,1.04961499609488,0.977541984394384,0.973533370090446,0.962626389219842,0.938328610276011,0.938713128320877,0.930160206269025,0.929441121625814,0.929098374571345,0.954018029895166,0.954084536783151,0.977053185935671,0.898416838968533,0.895806332387972,0.858854095581483
0.981790056240206,0.98220904354883,1.07516188777275,0.978369407160159,0.967229694889947,0.967096359491245,0.966460097718751,0.965232065579963,0.962077100706595,1.13632442976473,1.01202758245215,0.992375411944253,1.152413903998,0.959611366718993,0.958436405964015,0.95769980782903,0.957328075949191,0.958249763097931,0.95776501856186,0.958463200472389,0.960289445436231,0.959400988291903,0.959792550317436,0.959579721989817,0.960354733175204,0.957961608532527,0.957978128348816,0.95341287424788,0.992322708753788,1.02907706321306,1.07153708098661,1.05560296758243,1.0379800122877,1.13223082871242,1.14498139182844,1.13305879440451,1.12409797765464,1.18595778126254,1.09608575731424,1.10762998056919,1.10799177267723,1.1333918244536,1.16423163251022,1.15844097119468,1.19772658229772,1.19523312916809,1.18482017788749,1.1719222705037,1.29260053645718,1.18809476701945,1.19611131490939,1.20555964051554,1.21912906286428,1.21492460748308,1.22488990734979,1.23377267897929,1.23384440045924,1.23391278630095,1.22742084289482,1.22667884123795,1.22040152984216,1.28202102744061,1.2583140938153,1.27695067922842,1.26407130809695,1.27325895438342,1.27536596838341,1.25839215179614,1.27689888968428,1.23753502095123,1.23706948791654,1.29605185528851,1.30478624917049,1.26770763328028,1.27737219135413,1.30466488033205,1.31495977738042,1.33095774751152,1.37079090712584,1.34658228474582,1.39701189071853,1.33899157272709,1.34251569434579,1.36527864660201,1.46139767930758,1.4606447711945,1.3619469241367,1.33720968721752,1.33579360354578,1.38377645621134,1.41253167543321,1.36136655538945,1.35564567959211,1.33987841609665,1.31250907231363,1.31321652953582,1.31663293208827,1.35622913881577,1.35594371910455,1.3142549993807,1.34319309909977,1.34351092384494,1.34961970022215,1.3510698898367,1.35894005356815,1.48670510548171,1.42489692479689,1.45029228327075,1.32715790677041,1.32652462615814,1.32549297906266,1.3233703131007,1.32368326078784,1.32438033471889,1.37851402949062,1.32553925091126,1.32125639141199,1.32251551167333,1.31606451637043,1.29171014144104,1.26376221184181,1.26304947959895,1.26156943584149,1.2607623931194,1.26011264858873,1.25974950398776,1.25948610424452,1.26148921185658,1.26059617647766,1.26036804786535,1.29419021256357,1.28859762289358,1.29264537720494,1.26102358833326,1.23285400694566,1.24693456486234,1.22284877647342,1.22290482713815,1.22054186241737,1.22021546921361,1.15743419106023,1.15715191850766,1.15944476373848,1.156682237055,1.09069355119732,1.09411706572002,1.08503901583145,1.11571883703538,1.1137872584188,1.04939319175263,1.02947575997611,1.03090614547844,1.03224894046345,1.03267478248863,1.02981819335675,1.03830610159779,1.0233420255212,1.03997870839506,0.939096079768593,0.939776686011959,0.929469769246269,0.929148440400436,0.928209233674653,0.91137526325981,0.899923275247608,0.870813827448788,0.87124541791527,0.861324936914542,0.866277504392733
0.982416954407723,0.982192447854463,0.972482080197134,0.972643827761472,0.968100650846087,0.967428202473982,0.966895821233061,0.966672936128713,0.962660492534718,0.961916309227734,0.961964441236934,0.983822775194883,1.1291162566571,0.960451228889432,0.960215116175967,0.958358775474038,0.957458405905514,0.958541587392711,0.958962735634775,0.959877612500898,0.963793391473097,0.966722724388981,0.973545621922908,0.976078094980509,0.965620102064462,0.974880629945633,0.97113550190654,0.965944477315956,1.0238941208527,1.03462328668256,1.08047205758213,1.06777281710995,1.05532509550306,1.05759426241715,1.13233029001415,1.13099647865333,1.11492450746358,1.0948471159648,1.09485368344795,1.15531895353544,1.21216991290916,1.1394763080472,1.14173436925165,1.17294990809073,1.1487901522547,1.14528083438721,1.15613634173839,1.15842494127261,1.15918906264234,1.23931743450031,1.19811503780485,1.19800272542076,1.19812403386057,1.21005458045013,1.21261982275754,1.22819493241014,1.22841644151388,1.22815654497112,1.22622465964325,1.22134480322696,1.26416575771579,1.283531315246,1.33718384232471,1.33473980254661,1.335419273645,1.30988635635548,1.29283105232024,1.29996878844982,1.30570370797294,1.29503109990038,1.29412022460895,1.2952711709164,1.29614525148737,1.34623059511098,1.34133279087084,1.32423318005433,1.314684534214,1.3148603953405,1.33119078727738,1.33868329652238,1.33814382046705,1.33665982104443,1.35807550157283,1.35887860050757,1.35854577757036,1.36039861582345,1.36056723270869,1.36034433123143,1.38723064824162,1.35626579275546,1.42311456964607,1.36629627475138,1.3107956357287,1.3115256339322,1.33984348110468,1.31771439618298,1.31606473955388,1.31205223764476,1.33504296977597,1.31346902491922,1.32469653866963,1.31597175780974,1.31662892165202,1.31827778268961,1.32630049733954,1.32876137094713,1.3335995815362,1.33845419387674,1.32471177465965,1.35266981580144,1.35923840898156,1.34650808678441,1.34869968207128,1.30998520319315,1.31521461047685,1.31558546992059,1.34791945093873,1.40582820057174,1.33287505461546,1.28333222549388,1.26474750168895,1.26516190435981,1.26940972729864,1.26805847251247,1.26552321798896,1.34388632982135,1.30492316309256,1.31044941231308,1.31060446983304,1.25870370449567,1.29957744757928,1.28464159226969,1.25905520060137,1.2343395480381,1.23358883706769,1.23158250013606,1.22244376713425,1.18320724540494,1.22175526442815,1.16220107129424,1.16036535527972,1.15608102976137,1.15534314200215,1.15531840113608,1.0999995417051,1.09978300443148,1.08171871318689,1.05594446568373,1.13162134119409,1.03575559548759,1.06103667522312,1.04054712471788,1.08492540654345,1.03134035848816,1.02796314747024,1.03096880309622,1.01343041550551,0.99707164306393,0.987262904045633,0.944090313988048,0.931762119547129,0.930078363712518,0.953664720359316,0.913922680205934,0.888449074781497,0.901994518797626,0.871688992870738,0.871667904951787,0.839948481920206
1.25620592976509,0.98092580262869,0.972517213814378,0.972920719216379,0.970435927217704,0.968775292594622,0.967271387224082,0.966267994739419,0.964638547253159,0.962971614422717,0.962181606225612,0.962635152721799,0.962030290509291,0.962181022439016,0.961904623720643,0.956747868053119,0.956302224976639,0.955297919206784,0.967037220267763,0.964931065712706,0.965444171084107,0.970145716388224,0.972814867692493,0.971768910246822,0.981297165917438,0.980277662834982,0.97195685421257,0.9675048957819,1.07741150448853,1.00966749770246,1.09526356441057,1.07671764126649,1.09395124674133,1.05724100350329,1.09435006887838,1.13726689013964,1.10403136318795,1.09657004202445,1.09525736083847,1.17761540438309,1.13272711249365,1.13594241218603,1.13293767479834,1.13262970414252,1.16401204385043,1.14675702729017,1.1540173122256,1.16404728516841,1.24150329627879,1.23843207888473,1.23769989668911,1.19847515053227,1.19799340418855,1.25022213351286,1.20849640881112,1.20794739655378,1.22321898540186,1.21951597838072,1.22895329742651,1.23086303376457,1.26416624365939,1.28287219474867,1.33606112754117,1.2849417110635,1.28930734304051,1.33448729616948,1.28937982922958,1.28646411915057,1.2964108615017,1.28596003012196,1.28544341182446,1.28317809158598,1.27381633125724,1.28034872340045,1.29347488879124,1.33120627185873,1.31481839006124,1.31490098619837,1.32641861560192,1.31703566973079,1.27894120748612,1.30720016409061,1.3566737896975,1.35806773972413,1.35726542821002,1.37351270409589,1.37083179893395,1.35726370956385,1.36240885675081,1.35564813029309,1.36145431767353,1.36622314635922,1.31753188391753,1.31010735575572,1.30940204074399,1.32987369282382,1.31603559533163,1.31317860040544,1.30762372212543,1.31319076252589,1.31455124889824,1.3136666004018,1.31607446694902,1.31767237050666,1.31490372485214,1.3135088542317,1.33261953694247,1.36044490564872,1.32482522794952,1.31880905657639,1.31732118091077,1.31557344845571,1.31715511612418,1.31126008235902,1.35970044508925,1.36425139667895,1.3645574767659,1.36555194973757,1.39782400052,1.29317420722183,1.27626245363137,1.27128120631805,1.26933343850457,1.26763688033398,1.26545275161154,1.27270223427977,1.2725261064014,1.274147252041,1.31482569698379,1.25323998100913,1.27753700799617,1.27859486647027,1.27784694805599,1.26505560412543,1.23813111842828,1.2383655580061,1.22167903362343,1.18247862495689,1.23273643082371,1.16316123045306,1.16296629045187,1.14924106652794,1.13594674454591,1.10162903371875,1.06997041438587,1.08609800310898,1.07911375859813,1.07227768837245,1.04107167185449,1.02121243289324,1.01964793060267,1.0157073899337,1.01369800901391,1.04874036308246,1.02356695408982,1.01488636986829,1.00976766850519,0.978455702897361,0.930952577957891,0.931948366867961,0.915049628288066,0.915819434709962,0.915915591183229,0.911859025436518,0.9084893200836,0.892891312948472,0.871813819071828,0.871945657391744,0.841547829460812
0.979080627607081,0.979188069753782,0.972735145119587,0.972417770491199,0.9689655115545,0.968897413534911,0.967086113158851,0.965382317511043,0.964950396011181,0.96409078165626,0.963282586518267,0.96355522252762,0.962832483542686,0.963242700879495,0.962740029541706,0.970736604456051,0.966102110942608,0.960710200393065,0.96582561851217,0.965697598896488,0.966555998763074,0.973246666090095,0.977519128739075,0.980479599755149,0.979251376625295,0.977724930992119,0.974899069327619,0.97299361620784,1.00061403917746,1.03957811331759,1.04791139870227,1.06090845690058,1.13810561332022,1.0510843411344,1.09276671592259,1.09303391876842,1.09476226064097,1.09573866168192,1.09517007915256,1.09780112684752,1.17613340449344,1.13839841905924,1.13430466322528,1.13839697409845,1.14547613568718,1.14551212933186,1.15187507036124,1.17946105755464,1.17828302768959,1.17830258706648,1.19561836279361,1.20009355194322,1.20125942834067,1.20042712636155,1.22136350795751,1.20791672898304,1.22616545855867,1.22787416707159,1.24875576992625,1.3335505737081,1.33392095349722,1.28311624797643,1.28809883000279,1.28618969965281,1.34250195104052,1.28575740054585,1.28741030484635,1.28645023285884,1.33773830267137,1.34015808423855,1.34053047068245,1.28135606529492,1.2811582664045,1.28152547877717,1.34768426668028,1.32037349220201,1.31489788320135,1.29398770155986,1.27486670473129,1.27940154387511,1.27904997119188,1.27797541223537,1.2777753467948,1.2760035903575,1.31983274492408,1.39961671241652,1.38521221158929,1.35050501689586,1.36187635029096,1.36094617631199,1.39999012971009,1.39212703247964,1.39983536634584,1.31525427028138,1.34148099039303,1.32778420231207,1.31850792296237,1.30993809745845,1.30867994052236,1.33458452303758,1.31642978974884,1.3137915681961,1.3167696705216,1.31859285301028,1.31020173179789,1.31176708544425,1.32853775263125,1.34325811738724,1.32672264683036,1.34037323323912,1.32021161752476,1.31671061523373,1.31963268931173,1.32341188271144,1.36058551243,1.36174754251772,1.38319271065294,1.53626953258058,1.39702859134988,1.36167378673065,1.29175607463084,1.28564775837651,1.27058472869041,1.31377635657231,1.28192828631247,1.27930536226361,1.27407145115847,1.27373453520783,1.31854009754375,1.25407869875004,1.29679610416176,1.28135549762431,1.28535837118538,1.26515273798463,1.25522081891275,1.22189020390871,1.22084468983493,1.22129643088457,1.18265329615924,1.17444398869554,1.13728480761821,1.13763942957847,1.09593496006864,1.09591104135771,1.06407921524431,1.05103535346239,1.06691275076421,1.08661059542644,1.02724630604573,1.01520765296677,1.01377599454538,1.01368899498524,1.01312779137827,1.01972622265245,1.02383425101937,1.0025792706144,1.00194893576907,0.953045078864488,0.95286291971365,0.898786823958256,0.899563848599784,0.899555468388174,0.902843345102508,0.894219974959089,0.879495004727634,0.871973113917783,0.871798978673684,0.870336935332769,0.855509253605584
0.978201902000801,0.977331686302301,0.975866579241283,0.978412179460557,0.968526099592729,0.968110765671647,0.966623751253385,0.96533485645178,0.965376024942737,0.965032536815393,0.96506768970852,0.965289057282031,0.964443564903648,0.965516630734973,0.966743241775263,0.968519270405078,0.968766652119651,1.0594874365317,1.10086398486947,0.993848466687914,0.978021539997876,0.978018730033708,0.978253439972123,0.979969637169434,0.982377337242005,1.02665396157781,0.984763335357993,0.981385722833121,0.994553186290288,0.994166913819106,1.00736628958196,1.02681607584695,1.0290566567447,1.04927887572582,1.09319628167248,1.0920418397585,1.0891433503695,1.0869216824883,1.10339482785096,1.17880015578383,1.17618119397086,1.14232121651107,1.14414309944525,1.14501386184768,1.14694446878959,1.1466082633577,1.15000223216329,1.14899579471533,1.20045806428736,1.18136472334972,1.18107030751185,1.20070040924446,1.20107285371481,1.20047658399862,1.19924082301777,1.20835869371142,1.22622290107061,1.24752623997299,1.26478250805208,1.27562177002373,1.31790183479694,1.28043090238675,1.27392427414478,1.27423790836109,1.27653421015048,1.29672862277287,1.29142772843745,1.29749977005016,1.30432238361584,1.25294536246098,1.34424920645562,1.28020601174226,1.28186328418659,1.27430890578312,1.27378797951976,1.2682996962831,1.27641393008745,1.26759377014503,1.2750122376551,1.27786895145023,1.27769116415525,1.27840293615774,1.28074368817583,1.27731890103882,1.36204859659486,1.42662121716969,1.39783126083889,1.4123888246741,1.41349390302484,1.38591940608516,1.35046017741002,1.38387482423803,1.37929988729224,1.3145902497174,1.31439610984234,1.32750062957344,1.32243946506736,1.32378811906238,1.31574925623923,1.33328293154158,1.33251243037335,1.33171604580217,1.3348394323721,1.33108709466137,1.30853578826274,1.30890255476769,1.31657095775042,1.30780940801611,1.31244199870546,1.32846463673722,1.31549322475211,1.31550077211838,1.31976667996221,1.36760293302483,1.32092568257696,1.54132433879816,1.39699011346055,1.50194238948249,1.31369395024228,1.30281914365488,1.34008080691958,1.31097069685626,1.338394351668,1.30382128642197,1.28251883674298,1.33438538868266,1.30469372909609,1.27373835299526,1.32903304135585,1.29681743231372,1.22319218212839,1.21815459636212,1.20862167898183,1.21733915209142,1.26802925560436,1.21840535058076,1.21859834315066,1.216353896198,1.18255009892036,1.17461980644658,1.14094877793048,1.13867316086203,1.09877242058543,1.10047239612056,1.06688543286802,1.05127724200235,1.04199837188583,1.03518759893569,1.01520837017348,1.02665851252992,1.01264117893653,1.01261854333507,1.02188424059986,1.05649098232976,1.02270907928968,1.02221395676006,0.998249035374478,0.988756805636972,1.01602520312896,0.919493321620459,0.895019056349671,0.897083807234069,0.917525394995831,0.877518205609037,0.878037495063309,0.89626204497392,0.87971145884502,0.88689376440214,0.850082879293739
0.977404481696695,0.976903887967281,0.977800794860092,0.987472711208176,0.968019557046961,0.965707031124358,0.965816462354882,0.965288714492848,0.965842697894487,1.313930909048,0.967130499133262,0.967737168839247,0.968451310047334,0.970416695773019,0.971307453844347,0.988307400134807,0.969251404178385,0.968552731620406,0.968251097933428,0.97914955584986,0.978481429611477,0.978209023850654,0.991285742167212,0.99232940671881,0.99353845174968,0.99334574541981,0.992512907570167,1.01154856739219,1.01243360365297,0.995640507655603,1.01523018451725,1.0237537073749,1.02140106276578,1.03927255481334,1.05472505857465,1.07539322132878,1.07763350232424,1.07807409237279,1.11293267243574,1.12958672708196,1.12901655645911,1.13171812693718,1.13576722946787,1.13648889595345,1.14811491884444,1.1488459374215,1.1499397669467,1.15175529461805,1.16763300386006,1.18110647391923,1.24324540279044,1.2213367432955,1.20831972322659,1.2100587982625,1.19946198922344,1.19869068181241,1.22390831268811,1.26592966555535,1.26503394804278,1.26596556923609,1.2839025632334,1.2811967883853,1.2835243121691,1.28313504356268,1.28144815277216,1.31457221506603,1.2880650725118,1.2895567794903,1.29109416298202,1.33088045001414,1.26924702871998,1.2790580703796,1.28185920729776,1.33790822126437,1.30596162474433,1.26803722192579,1.28927529732678,1.3530487358104,1.27432263621648,1.27981333364947,1.28076739243496,1.27849561241553,1.27983423708132,1.27822388861456,1.36438624161929,1.3735341076567,1.36926680567654,1.37310399864304,1.3796112564592,1.38609203383477,1.38447679436304,1.38256138907919,1.38030335613276,1.36262099337981,1.32596607458052,1.30555587684747,1.30532750240533,1.29232996619876,1.30758268246833,1.31440751083648,1.36544552032691,1.34612024159338,1.33528367873124,1.35558116971674,1.31218490838548,1.33002541171213,1.32804132732187,1.30688897933408,1.31255065872748,1.31448713561071,1.31525085442613,1.31477702244146,1.32100774916622,1.31818230578915,1.46370813536332,1.44423550825275,1.39098995290868,1.27622417394568,1.33457867342867,1.27168913034096,1.34023259993586,1.30358053897806,1.27523333199933,1.27465693193722,1.33740865059114,1.33697715663352,1.32252875277573,1.33659101588481,1.25530287789918,1.25756399451504,1.2580936646698,1.21588853727209,1.20149297834104,1.20365831806986,1.19180426969442,1.18447987658391,1.18511527461365,1.18558608889702,1.16724134358613,1.14071668342071,1.16710580023576,1.1431247997142,1.1057439040612,1.10617315570836,1.06268093939428,1.02841910103925,1.03741909301218,1.07424201175131,1.01092373081987,1.00907070246929,0.998450923332244,0.997837414795639,0.995416932273513,1.0152969632557,0.984809111735463,0.977544878591744,0.977252652723366,0.977590326108462,0.926778418021075,0.909366229702218,0.89411919473873,0.893244364171383,0.887300308876832,0.878027649359881,0.87303261984934,0.872436919973121,0.871042431989492,0.847990655555865,0.847895301972121
0.975681479291727,0.975633480441948,0.986085645688279,0.986249579129214,0.986734414276117,0.965238514536088,0.965447314366438,0.965175188360775,1.44639416223366,0.971204412888887,0.970378049522148,0.969829449076161,0.969822347420575,0.971272483067126,0.971998001560973,0.973032303554392,0.970712583036995,0.969410944321197,0.968438387829651,0.968387283403712,0.976914126493945,0.978154618584835,0.976692727497839,0.993153812231167,0.993770778675167,0.993129621379028,0.990535201301868,0.98732748902015,1.00674438490768,1.00358729345244,1.05988844081348,1.02266636611107,1.02333328383227,1.04299087633182,1.06903429470027,1.06660377964394,1.0661976315976,1.06491657138939,1.09258527723859,1.1256600251065,1.11611617530565,1.12513726952962,1.12679563146797,1.14422731375003,1.14879350901745,1.14963287699172,1.15799454104638,1.1785873194883,1.1601118400765,1.22312651888419,1.22738604135027,1.22281969493836,1.25262657884435,1.19623216949005,1.20058652673907,1.20560340894736,1.22132375848207,1.27327401057719,1.26172413739003,1.29691818411072,1.27666252999307,1.27972942049005,1.28498297825607,1.28759124351347,1.25371871387058,1.28817322452764,1.28581165806161,1.28605080244298,1.25096391557345,1.28173676932146,1.27994985154507,1.27767824413718,1.36567208962787,1.33658285717984,1.34824606221587,1.34947557606931,1.2864142919323,1.27046861981582,1.2743556786785,1.28373189917103,1.28235716834404,1.27684174173314,1.2737927053474,1.29829543233771,1.33622670693099,1.29695845878912,1.31653969544188,1.31708120445596,1.36569941627181,1.31488777550834,1.31393623677743,1.3257630148471,1.33095818659915,1.30346474249673,1.30366018675767,1.30556234354894,1.30422248816365,1.28932983113166,1.28656507618822,1.32181982418471,1.3528163222195,1.34847783204034,1.35772257048425,1.35582803491762,1.35841265040725,1.3443498334695,1.33746184329983,1.30619895011285,1.31303991728025,1.31286701765747,1.31715294926427,1.3132334846878,1.32130758739008,1.32292797343683,1.32878166560086,1.48630436482667,1.38498844211374,1.37475241391896,1.27593687764709,1.33435050658866,1.27636547885704,1.27121739851894,1.26829504056456,1.24786064208688,1.2498433981364,1.28815306497044,1.3181287143721,1.33502448126243,1.26890011511002,1.26497127107915,1.20732052883846,1.20507570163459,1.19997240299387,1.17632153699986,1.16260096585267,1.18366953577373,1.18556018420787,1.18814424737777,1.12838744244538,1.14461749362537,1.14490172351529,1.1461596465925,1.15700414612776,1.10660120100855,1.0483299643847,1.02876934218544,1.0345279034674,1.02597688881166,1.01885411487352,1.00041364673387,0.999665114141612,0.998748255290584,0.992023441422343,0.972617564470744,0.945384657593312,0.970528011581404,0.96658409285776,0.962333097477632,0.910378399451001,0.911120819157545,0.914358127285432,0.89200903763361,0.881043191367351,0.880600095065381,0.871197380393797,0.871314920993815,0.870489212913293,0.86636615109351,0.847569646882008
0.975221010724423,0.974191585788353,0.971551115878448,0.969509993671891,0.968377306774306,0.967033802099046,0.987410153917613,1.05044449912374,1.07896058212016,0.971303275638149,0.971082939937117,0.971043027948803,0.971097927728509,0.971677132375737,0.972228978449135,0.972595634284797,0.971502595907376,0.969745765149713,0.96808850631158,0.967500341043967,0.978353784116557,0.9818723143445,0.985835288657384,0.993229510656091,0.993991331671718,0.99210469366825,0.98892540888301,0.987430448485977,0.996047526747494,1.0154019080253,1.0208383188079,1.02104527941593,1.03181625642765,1.04230398627344,1.05718672841224,1.06216644685815,1.06677728843569,1.06734617115418,1.07974762750568,1.11978372295759,1.12122006615944,1.12480428594815,1.1255601601411,1.14150277894306,1.14871315721201,1.15142686009224,1.16631740587774,1.17219810032065,1.16745421887194,1.21755838820563,1.22054101897491,1.21784394648002,1.21698368596113,1.21531171626462,1.20803198045137,1.21269586986285,1.22030205866912,1.26712448300975,1.27747930446709,1.27703298116651,1.27654305239144,1.27763191009721,1.28319408407749,1.28533740218515,1.28507156412575,1.28468903610429,1.28462352550571,1.2859184826452,1.28658721973754,1.28378796070716,1.28017837382559,1.27729500460965,1.30503331310567,1.31669817322633,1.34807405180611,1.34872604062124,1.28435939330971,1.26807208476953,1.26843910606604,1.28106017350508,1.27693837909199,1.27345272171435,1.27184958344293,1.31856090438737,1.31982896220646,1.31764243965812,1.31638667831884,1.31695157338342,1.31577787157384,1.31335384003184,1.31035049054111,1.30661548293838,1.30502254477006,1.3063133838643,1.30537970181952,1.30310043356874,1.30246205624187,1.2811859764042,1.28022313080982,1.31865937077588,1.3458454920847,1.34494893244026,1.34905698418291,1.35119724914609,1.35389517100521,1.35410591177056,1.33401866111202,1.33350490191132,1.30998425775595,1.30986005083632,1.31029985894673,1.30854438848255,1.31517662192508,1.3180153909572,1.3188127921575,1.35984168322326,1.36189946496865,1.31789722986661,1.30370513881757,1.31573675056834,1.26895639157211,1.26610573094505,1.26400523087071,1.26364640225004,1.28041100441038,1.28526909440031,1.30783359951817,1.31939580082022,1.29464938266658,1.26078034890269,1.20582522967804,1.20412221347977,1.18723437220944,1.17075428219936,1.15695591305807,1.15512364424445,1.14939740295855,1.1453099027653,1.14503252437639,1.14633571160695,1.14617188200561,1.15099755580857,1.15487037878156,1.12672063638386,1.06725639549061,1.06014005579054,1.04124852648767,1.01372849619143,1.01177195788531,1.00553353382552,0.998751159740643,0.998065368430639,0.995341157565699,0.987260178514689,0.963324562449715,0.961735814403207,0.949572550763192,0.932608443253295,0.905797780160597,0.902861821681104,0.897815089369295,0.890518258909794,0.888656623303822,0.873662383175341,0.870149459453617,0.870310612910001,0.869632858160628,0.868169154829257,0.858786199567374
0.974713670712403,0.973948561059209,0.970969020146722,0.970121545013144,0.969528372749996,0.966342010180429,0.990925722369644,1.26897349367418,1.29556966683065,0.971267300763543,0.97121557808112,0.971481764203915,0.971513640618193,0.972004907461182,0.972809798718776,0.973930892620933,0.97285448599975,0.97050944432847,0.967582914353364,0.96746628449686,0.979116128267036,0.984497832481708,0.990407762186546,0.991550405087873,0.996076725577188,1.10345058856375,0.986296553251348,0.985620404626333,0.986838438666615,1.03871317557884,1.008948146177,1.0203100451916,1.12727648723922,1.03999505906905,1.0507870940799,1.04815585470365,1.06608687835337,1.07003916918245,1.07030914001904,1.11165189727487,1.15040151829878,1.12479276259327,1.12592791308078,1.13952911967458,1.14739741492328,1.15190190695831,1.17174785881852,1.17919411697125,1.15185702595066,1.2079380402195,1.25427508530287,1.21753104274821,1.20487949833238,1.22247116474958,1.19709553640504,1.22035997028022,1.22065053077467,1.25053060365929,1.28905228765615,1.2793735735741,1.27880734304153,1.27564529193687,1.28911480255432,1.28910101166135,1.28929905847841,1.3248784364398,1.26353438749707,1.22953690403959,1.30304713652621,1.23656807319476,1.257509626353,1.26430018961817,1.27032216109127,1.28009557136147,1.34752547669244,1.35735880620638,1.28433788522196,1.27062937805352,1.26927140884379,1.28549891374774,1.30880428617081,1.27474044654472,1.27629187186422,1.3356259120984,1.30777649776844,1.35563534160456,1.33946692392876,1.30041827323052,1.28673141447342,1.28634982215043,1.30242249511472,1.30674201241676,1.30084996857832,1.29958977779487,1.33795718115378,1.33777502424239,1.30226144612607,1.28075117628489,1.28026415023478,1.28821331053028,1.34218145110263,1.33995848500619,1.34239802832294,1.34211401221906,1.37857156813613,1.36631266962512,1.33384407625476,1.33657038673859,1.31581341458375,1.31549758891047,1.31366650405526,1.30959983569214,1.32219806988278,1.32205887796309,1.31838204935415,1.50479311571457,1.36590548165461,1.28003562943114,1.2791708442494,1.35956078380461,1.25153403739648,1.24749894628593,1.24955627496111,1.24784181152294,1.36267563753051,1.2686491927305,1.29510987026572,1.33411632369325,1.34198019109476,1.24157011653225,1.20728658081018,1.20399923405787,1.15808830427372,1.14639154308851,1.14610867444791,1.1393649269386,1.14028658158563,1.13282070711329,1.14271225866272,1.14855153731339,1.13524488354621,1.15478266239644,1.21142647976896,1.21704350644966,1.07593593419467,1.10324165801837,1.04601527759101,1.00856595653498,1.00724300103093,1.06540747790654,0.998348776965901,0.99880166789214,1.000217039314,1.00092608628,0.964686308451911,0.959930279504156,0.940015915260924,0.902906217514839,0.903409580502321,0.887303451839696,0.889395919876928,0.889467697201659,0.904924176809113,0.868272881828185,0.86896951448653,0.870130989476561,0.869335355509116,0.868352756997307,0.879745697413329
0.974600503145457,0.974710810283504,0.971686056150837,0.9706339852498,0.970976333978629,0.971822614734514,0.996424177561367,1.26882169607119,1.00069685486007,0.970767443991016,0.970270352924463,0.971482845810109,0.972263554975764,0.973221727860276,0.97991464515539,0.980357833649042,0.977980499473938,0.975255669508254,0.967423779470112,0.967703146024632,0.986176217574939,0.987030433958839,0.989444789624579,0.99063043460142,0.996800448926888,1.01923922117425,0.984690710116244,0.985281412226141,0.986359961665818,0.992962326513969,0.993614560450472,1.02092855949853,1.04681096029403,1.10960563313707,1.06028296328771,1.06309022505572,1.06427404464281,1.0631194783485,1.0892205951101,1.10232534408606,1.1024506567564,1.11546102092479,1.12267901719116,1.13825659754866,1.13885044452065,1.21724293559681,1.18463096332326,1.21666914734675,1.15746925244302,1.20776909207982,1.20414046545134,1.21148233504384,1.20620062271347,1.21634357426215,1.21490888901037,1.22182837251268,1.2212718806186,1.22128377949775,1.27707236741088,1.27835563947454,1.26905922146942,1.27264713914162,1.29249012438169,1.29174717536743,1.24290860870797,1.28386619846099,1.24720660243243,1.21714853099699,1.22540014703695,1.22256606592685,1.253598624813,1.26258727156274,1.26599351509856,1.26632087533704,1.30528718461374,1.35845328885937,1.2864076266091,1.27705717170461,1.31026988104886,1.28574960670305,1.28533687226314,1.28154139511589,1.28875063088959,1.31474266681627,1.28288239877458,1.38141029930545,1.35791963025975,1.35694755310639,1.35846279603755,1.34281128851514,1.32121696973205,1.3168587084807,1.29952373515662,1.29905254918421,1.29596832965626,1.29549125413115,1.30336232978034,1.32839107479792,1.31727643038665,1.34485047097327,1.34355712532998,1.35758374169454,1.36435084831667,1.33788559311223,1.35172379571054,1.3505430411514,1.33619644188444,1.30862876031615,1.31496001823149,1.31632782615836,1.314706433769,1.30816901072003,1.360061711682,1.31755021119767,1.31565421409345,1.36824888140294,1.36765203378568,1.29905027136184,1.28459792137517,1.28403300523526,1.25085284933342,1.24568072332574,1.33357615163677,1.35096325614513,1.26529555994385,1.23637523139027,1.24813138353968,1.2462068608375,1.24583833852759,1.33156353130924,1.22370000229316,1.22246318949555,1.18993715754218,1.21818133430654,1.14768971240506,1.1378904289942,1.1408179420751,1.14305184969971,1.14099945929002,1.14920289759534,1.1670348743828,1.15754232848502,1.16481039098975,1.22352294983534,1.18898156013183,1.05489551918491,1.05686749644484,1.0572051872215,1.00923249343914,1.01531625217151,0.977698444010783,0.975491290144547,0.95897951618249,0.984803467354157,0.979148648396699,0.915012096449897,0.922111454109372,0.911674503949913,0.900322649933988,0.894950394777909,0.887647079506493,0.885944571449357,0.884651281561215,0.878083776533913,0.862788722653225,0.82802345505371,0.842953534280237,0.828953085778943,0.83735242854941
1.10699350698161,0.977746235879747,0.972426021845035,0.971672927982087,0.972594709447679,0.97358414336984,1.00102275325288,1.00915147650792,1.26400217183927,1.01508711201235,1.27100603884283,0.975984512481916,0.973935116558209,0.975022222892451,0.976864008241151,0.982530617086221,0.98024504119699,0.978866478464842,0.967857906295658,0.969196736336988,0.989698596099657,0.988370920473103,0.988455253848829,0.988514779441179,0.997025621544024,1.01381413629952,0.983561896871495,0.982411475596533,1.00371161460205,0.994906755284098,0.994778128457508,1.02252180110878,1.04514120211061,1.09919434286746,1.10063195785656,1.07322984501553,1.08197760974951,1.09074838624069,1.08906850484297,1.10175865117313,1.10183600899755,1.10342950727723,1.10294751795597,1.11887118749928,1.1148832621254,1.12938581509374,1.14415355958043,1.13605631528879,1.18252441485747,1.1887084063732,1.27446698742716,1.21685106606273,1.22355837681853,1.20688181950063,1.20447202514285,1.22233328114322,1.22126633443517,1.220922594846,1.22003805553709,1.28524195201508,1.27167558341448,1.27147036074247,1.29548979196338,1.26943040060175,1.2186608751758,1.21835733664473,1.23425016063238,1.28341080718984,1.21929703662812,1.22123305923179,1.22953795818065,1.25998531258002,1.26035939840062,1.28006227768936,1.3255255580213,1.28008610135087,1.28027498187424,1.27998695679226,1.27350581464458,1.28279559170846,1.28118671840474,1.280484975553,1.27871378122677,1.32548990426449,1.32525634093863,1.31147414700483,1.3600869973246,1.370271773741,1.34562071806599,1.38104598836856,1.33349834361642,1.33069549115244,1.33608498249567,1.29950385861272,1.29930026419673,1.31077869503117,1.30381027126388,1.30238313969361,1.36081548253054,1.33594306991896,1.3589611088855,1.35769070290651,1.3621806499128,1.36081819884296,1.35123236457509,1.31207326587349,1.30781225652508,1.30846532627583,1.31510899637222,1.32972666919829,1.31136957402032,1.30737020308276,1.31096030551521,1.31061265493414,1.30695829384824,1.36452522307096,1.36241517029247,1.36961048470355,1.36916980618136,1.31521566275251,1.24454384933667,1.24400099533829,1.24506725464123,1.24639508322087,1.25396334179695,1.25144337828422,1.24912824485511,1.24870272329263,1.24749622988403,1.25599000457345,1.25575312877908,1.22779087706848,1.21739409015455,1.14809696240061,1.14772250959857,1.16949081546694,1.16644308241434,1.16635435767506,1.17746951607656,1.17776089563724,1.14385214976809,1.15149898180089,1.16415887635237,1.19887258682822,1.06130898855588,1.07965138441908,1.05684171006684,1.04670026426238,1.07883231150483,0.988918176834097,0.990181338943565,0.9740614307353,0.959125578905215,0.959824933358452,0.979649432282523,0.947253243386272,0.92694076595774,0.926578408268689,0.955807741641759,0.956475639141722,0.886794088605893,0.88591259196496,0.883176280391461,0.878063571541939,0.930731039643082,0.856584091706698,0.856468907215399,0.855653653944094,0.836886223126539
0.981163696042054,0.979837331109633,0.972460922311033,0.97236262388009,0.973323099235313,1.26161593886797,1.10132949891016,1.22786258241128,1.00113402560144,0.978264602974885,0.978643199413613,0.978223646110745,0.978680575895075,0.977773650219011,0.977520786590667,0.981976814003639,0.981335271070169,0.981285017253045,0.965795006514858,0.965101947466788,1.01420367845408,1.00426783659642,1.00554000489611,1.00528128781121,1.02169069257255,0.986083848367891,0.984125140068382,1.01383288696474,1.01533821797395,1.01812332404158,1.00492337052236,1.02420582886364,1.07876855825265,1.02480530849207,1.06643665993914,1.12799919639187,1.10636148613432,1.0925073316914,1.11012948713202,1.10951897435119,1.1089822047459,1.10545170761457,1.12044073454433,1.11058793592649,1.11618421651516,1.13665359767169,1.15016221433593,1.15367968877989,1.14988429111487,1.16887634107633,1.19351209336538,1.20560848375765,1.21505926563735,1.20784902146653,1.20746464506362,1.21968032413474,1.22076882446492,1.22144967495631,1.21836267540725,1.23636590719396,1.22078306680374,1.22533365131669,1.23282806422465,1.22796178007543,1.21759596385218,1.2166748795617,1.22257920302358,1.21507796727455,1.22108474822642,1.27011423645017,1.27059110788214,1.25843426447909,1.25805384486251,1.27781555747357,1.36782013646015,1.28304138800982,1.28201323620668,1.28371049261148,1.28590760337059,1.2852234183175,1.28621927435796,1.31120130301397,1.32025544723422,1.31761851878918,1.31708194351158,1.35447717647721,1.35980009332368,1.37103687512439,1.33355347594088,1.30839795628574,1.37784916566165,1.34536376555813,1.35209427689881,1.30513835805542,1.30489649909138,1.29860270416427,1.29913594501776,1.33117190125458,1.35349743790761,1.31895421374918,1.35561350577856,1.35408187469082,1.32399037705934,1.32245477789675,1.30008625260467,1.29956597125637,1.30590380425561,1.33141377608547,1.31505545909876,1.31433028896175,1.33752973811326,1.303232137329,1.30359907119479,1.30379749648714,1.30529963353532,1.30696316768519,1.34461224520105,1.37136955959357,1.35692868355996,1.29807453031171,1.30550537471977,1.27027911514458,1.24722019521561,1.22295306921665,1.25470363863658,1.22004900156286,1.22922792297894,1.2375806430512,1.35196491243794,1.28075134318301,1.25001215288654,1.23205229324434,1.18173101609968,1.21104136778874,1.16427420415101,1.16456069846173,1.16537909198947,1.15169552185785,1.12344801834609,1.13550372455916,1.1219758608445,1.14200651360815,1.16403503160033,1.16405756427588,1.05687277855298,1.05651034318485,1.05606238988798,1.02487818285207,1.02513316917169,0.988989711029152,0.974923371755374,0.973053631343472,0.971771467014784,0.930466552764482,0.932030910314935,0.930953630074512,0.928309495034748,0.956169014537592,0.990241139757604,0.902214792703548,0.89577737163114,0.886032363175098,0.885729535824872,0.881060682356823,0.890395703729013,0.929505223317114,0.928003361382283,0.928341714157632,0.839433891270102
0.984107979375716,0.986511195793353,1.26078713275961,1.10127383679727,0.976232025922407,0.977280280424022,0.978123640448754,0.978362340405012,0.980818454218093,0.982295792701705,0.980662225998465,0.979619824819092,0.97939289224109,0.978132645443805,0.978200728003401,1.00684519339738,1.00600095296399,1.00791871412723,0.962185936017115,0.963191159188695,0.975541480729246,1.00236739002801,1.01249268095965,1.01146377186342,0.976545154759538,0.976253563497154,0.973093549853617,0.963824608360193,1.01940672038043,1.00986209426162,1.00976103811741,1.02542928943249,1.03288024418373,1.01118739959819,1.04863643518279,1.12608050879188,1.11581561260029,1.12549470221062,1.10883643356553,1.11643654875776,1.10718047892216,1.10511935256166,1.10383570845825,1.10400749057957,1.10415053159278,1.13590547992701,1.15560000406639,1.17728774233119,1.16361635306813,1.17625369863903,1.19798491288476,1.1980012172594,1.19843554058646,1.22404625092917,1.18813013434615,1.18833032210486,1.19417968999116,1.2039813360164,1.22776618443681,1.23254019754151,1.22345240384635,1.22230939029756,1.2216669281654,1.23715986959873,1.20755392151671,1.21472977428636,1.22702120913862,1.23390450116752,1.23351364393267,1.23436426643702,1.23369952607737,1.25849605337571,1.25803647134769,1.35843102198351,1.3661711976259,1.28264642960691,1.28277606694702,1.28407294971259,1.28702660991067,1.285070735771,1.33595347181033,1.32415314836888,1.35375762256535,1.32660135672133,1.31955254370245,1.31794498330387,1.31948621608308,1.32348568702381,1.33374418812753,1.30699535723398,1.34362264458956,1.34278086789159,1.33715556963612,1.33633683058368,1.36981612099182,1.29560945829211,1.29602321945996,1.2881108917138,1.3302246251975,1.32536064276871,1.3909734466311,1.3533000660795,1.35465652490186,1.38176550004725,1.31209161881001,1.30874725205118,1.3071732634016,1.32228567847982,1.30747308556511,1.31154299733144,1.30217859772408,1.30238233118742,1.3044543208025,1.40022692967053,1.31193069142446,1.31892267712743,1.32892558912926,1.33182616760801,1.35007956840074,1.2840115522431,1.31693695639137,1.28193722390915,1.25712254070597,1.27058652761156,1.2209451263236,1.21984355507754,1.2186126107046,1.21724433283432,1.22465300298437,1.23326947140561,1.23527171378983,1.23609848495082,1.23678754316999,1.18398450106873,1.17550145813312,1.17612086191552,1.16396986715778,1.15182651591994,1.13844251775594,1.11759830194935,1.11269237553715,1.1017712921957,1.09782188051584,1.08062050502512,1.08188999949327,1.07125958108672,1.06331382368115,1.12301405580966,1.01301133305634,1.01207982004752,0.970802770928186,0.97169069098863,0.971677017483006,0.928851462106431,0.928387810766508,0.8988772638454,0.897760261158513,0.899219864352328,0.907840094394572,0.930597761070102,0.928715547727305,0.88646216312812,0.8869646473139,0.8670473246103,0.867073670959192,0.935500180296255,0.926966037087265,0.927774524331101,0.928513109537507
0.985785955692852,0.985897020009488,0.983134030830543,0.977527740343483,0.977281389734231,0.977645583538813,0.978407079356406,0.978301304689539,0.982402010922565,0.982670913242236,0.981397721471501,0.980024850048984,0.978790778124603,0.979100932236929,0.978355617974174,1.0123408547483,1.01260904454063,1.02495183756605,0.96205152376254,0.956683609817667,0.956747287614983,0.999176437952322,0.995476712397769,1.0184855953631,0.977720351075567,0.976727473218347,0.969296425348941,0.966441297366354,0.967027434929769,1.01802442415744,1.00787787310485,1.0260038703173,1.02376962948596,1.02277045652071,1.0418198977699,1.079151406406,1.09939272158768,1.12561709507114,1.11451712466577,1.13457556103457,1.12896523419761,1.10468532959421,1.10656626271944,1.1096770973679,1.16124842404415,1.12256224209537,1.15959249453058,1.20685098280875,1.14768524513178,1.14775515029885,1.19900280536679,1.18817512270402,1.17937716640427,1.19869132050526,1.17716958888178,1.17840571011013,1.18497974194283,1.19489259539048,1.19148758208114,1.19304791486239,1.19496310854423,1.20070534329642,1.20005247755081,1.2018545282044,1.20759137611041,1.241328127911,1.2539319959667,1.33023987085202,1.33033702241337,1.23885719619517,1.235894891066,1.26023383455259,1.26382225467473,1.36702365132077,1.29770007124569,1.35532567617661,1.31939693331694,1.37081797446313,1.28714139173606,1.28636744010122,1.28618490907599,1.31134458538482,1.35611956705668,1.32689398581838,1.32796995963458,1.32692363913723,1.32067756406667,1.35073550783464,1.33445655330389,1.35346757792414,1.30749466704062,1.34247729534272,1.34360248451811,1.37444037642807,1.32376729660686,1.30648269685092,1.3036703646075,1.34161601411984,1.34088705663209,1.32725243858541,1.33875068264905,1.35347519102865,1.37482589829667,1.31435128549323,1.31345067046368,1.30302605791793,1.29977220456512,1.299317072609,1.30639123216278,1.29973841574486,1.285776446477,1.28495192385674,1.2856318641952,1.32722462295829,1.32155376936461,1.318892318173,1.31560584766196,1.30219909201548,1.31563422309638,1.34068084357386,1.3237942867002,1.29252967520203,1.27978015864194,1.26907805310727,1.24645152535988,1.21835115372416,1.21831239009785,1.21789958553368,1.27629343688002,1.23324981227187,1.23606271458463,1.23566264627191,1.23597391701786,1.18749401537948,1.15759651345491,1.15751100071406,1.16228976594693,1.17075981414395,1.14938143335624,1.116906512547,1.10358608656887,1.09831810005062,1.09077281531676,1.07555844559291,1.08446863766673,1.04553468412512,1.04684700022365,1.02233707751398,1.0114357834787,0.996890868114488,0.968696242188306,0.971326865261459,0.944624513670827,0.991452471628729,0.927230099341301,0.912398473481997,0.896792331311369,0.897381324511494,0.906100052244931,0.916212965114897,0.881718735249065,0.887219557772515,0.897412803794231,0.87491779018938,0.864038671077072,0.863950430264774,0.871319133989938,0.88423545578198,0.929982742713997
1.19901830978639,1.19671405514234,1.2261503239026,0.976263123964676,0.976986456040208,0.977563633408439,0.97895853432531,0.978788740381328,0.981284210858085,0.981681105792482,1.01189081810712,0.995589626629783,1.01312957449659,0.979830720903978,1.01635179886629,1.01801268966722,1.0143858337342,0.959065288636973,1.05360382119008,0.954240546566577,0.955235964714688,0.99954355848439,1.02965951967387,0.96942914632658,0.97105302338793,0.957606650997725,0.968866906256982,0.965706274713079,0.963596219624097,0.963313829918155,1.02969690274175,1.02821173676654,1.00137890444922,1.02044181967495,1.03954242220274,1.06716741605035,1.09067204422309,1.10704783175174,1.09318666913664,1.11230330361306,1.13553992356583,1.10276361590325,1.09376260695369,1.10225079807,1.10315927214691,1.1701271586598,1.16591597175988,1.16119589310437,1.14760872458837,1.18701659493714,1.18692554049176,1.18017848453121,1.17524623805209,1.18376221431694,1.19672958940023,1.17246515409394,1.17520652631673,1.1738169134098,1.19416184799849,1.19575716383913,1.19642272094557,1.20112501114881,1.20183179575159,1.20163856422319,1.22324518131062,1.23960558055414,1.26317985435658,1.26731156664466,1.2954694889891,1.31937127948293,1.31905554044431,1.25940145480015,1.25682798720059,1.25538795112538,1.30156392054471,1.29028201488619,1.30418215182279,1.28978253053891,1.2887732866014,1.28701493127101,1.28554769824806,1.28109470499679,1.28206029028499,1.41932590120039,1.32663263448085,1.32457631357205,1.31988599949595,1.37083011986067,1.37160731483483,1.30392078734891,1.35715890785459,1.35184793653178,1.43073792376926,1.37512196617265,1.37451317349068,1.30644772629151,1.303011030828,1.30585268842504,1.3427040301485,1.3314927619918,1.35850485393904,1.35062258128586,1.32324495403686,1.3228326878919,1.31450626364886,1.29473129021255,1.29162890742729,1.2589817819943,1.25817409391424,1.24355332130163,1.28566600109968,1.28493250834559,1.28567189396201,1.31970500127135,1.32094100055283,1.37445197058824,1.31302345731966,1.30191080864285,1.30048481946928,1.30501656048309,1.30444691851575,1.30060968248754,1.30664959084921,1.36301299703776,1.35947277221953,1.217357026408,1.21784670617384,1.21724013820882,1.26976834139423,1.25977616385076,1.2338686501369,1.23394654390242,1.2231470285035,1.16488634493739,1.16523035561014,1.15951216189755,1.16111347272994,1.20045733633752,1.15761056999791,1.11048667724154,1.10344201434164,1.09356096899913,1.08208463981118,1.07271621803568,1.06879859024388,1.08138373192687,1.048113031051,1.03421068048856,1.02254341644717,0.9932105133971,1.03702769876469,0.974241896685532,0.938058660126924,0.919971257334733,0.921688675483402,0.897373326048318,0.896713787944737,0.896852804222815,0.881378846511978,0.896084599166737,0.888557772608878,0.888745439880427,0.863889712216934,0.86433550552024,0.894266527739367,0.852664704467945,0.855701629867911,0.851805336212856,0.831573582636375
1.16670533585875,1.1842655960698,1.18588092755901,1.06631825883321,0.976456989053614,0.97792399534338,0.980418666134095,0.98079810680367,0.981167092130648,1.02135324724033,0.975256042072683,0.975013576783786,0.975512210200408,0.976173240316783,1.01619351940157,1.03225668603072,1.02834247903013,1.03329360500553,0.952772571808529,0.952864901505331,0.95343260262932,1.00006049771174,1.00098511208408,0.97105456104765,0.98107611574548,0.971737217204987,0.970938009334273,0.957854498621552,0.991425065848203,0.960517339514786,1.0603344555813,1.03403213390598,1.0502986659299,1.03144474056523,1.03738317398884,1.06968624485871,1.07021943099936,1.06980393891006,1.09631289759485,1.08510826103518,1.08565970770352,1.10127846029256,1.09998010517172,1.14296890518096,1.15258720958377,1.18828311375962,1.1850822058232,1.19455105190761,1.15484133252352,1.14791781823255,1.17492625267158,1.17429408199656,1.17506551108135,1.1660416108202,1.16092655166501,1.18571934893918,1.17949523650048,1.17420096676041,1.19282545516201,1.19540459046445,1.19835179115352,1.20067465947044,1.20639958483104,1.21230452112549,1.26626089843016,1.29281001550852,1.27452776931611,1.27653377480639,1.2794614000662,1.2794600208678,1.26758383264685,1.26044736698783,1.26498410484949,1.25352205230441,1.28420313424856,1.31929021297175,1.31419308821172,1.31904377724203,1.2796600034331,1.27983442744819,1.2795282655441,1.27714960315769,1.27887011353864,1.34907916673014,1.34923520758206,1.32268454190724,1.3188295881884,1.32230004873305,1.29503231541482,1.33009790682394,1.30567680724327,1.33514440862169,1.34109025108904,1.29936055846015,1.35635646541607,1.28894125442785,1.29965232905792,1.30287817490304,1.3100161691296,1.31690413113225,1.3147144195766,1.31208604611341,1.31458089806726,1.3164469227917,1.32627004119456,1.30493112909628,1.29166330723845,1.29119209045078,1.27722636601255,1.24336514876498,1.23477662109535,1.23679611661955,1.23750090686128,1.33385094411556,1.31154301674655,1.30614897226804,1.31156986177589,1.37198376767045,1.30177151868266,1.29455045282837,1.27813705639799,1.29812069613489,1.340798802107,1.36834633905293,1.22971509559616,1.268393348278,1.26410962550848,1.27200961647981,1.27084647692045,1.27781801769926,1.27429190612459,1.23209208297522,1.23085052064611,1.21128634772903,1.16052431445238,1.16072288062937,1.16209082577549,1.16338290802565,1.1634498704572,1.0982555933828,1.08669820083973,1.08802875902848,1.07542362437386,1.06026484920592,1.06725637969195,1.0544394719322,1.04976128773317,1.03485322565073,1.01654710735932,1.00713264854138,0.977827014499543,0.977923772445424,0.958090752213945,0.941122016389819,0.940379210854194,0.908671619718642,0.896166360160561,0.894499290127074,0.885451529072091,0.875089726705271,0.902075255119872,0.890794972929891,0.862869813979019,0.866106563230336,0.865964570511382,0.86804916337928,0.858828444196847,0.849808491945672,0.833153163993474
0.992581843943231,1.17528600289715,1.18466776415953,1.19372026930359,0.980709870124575,1.27076012933815,0.982909774699889,0.981745349731485,0.981284435299731,0.979750268399864,1.02362107946123,0.974047921792179,0.972150186168778,1.28712677303828,1.03177316491874,1.03739439777722,1.00256328272736,0.9530047186381,0.951962369979598,0.951726492662277,1.03487826512145,1.00705933726858,1.03791570934881,1.0376424729653,0.969248907719869,0.990817797834203,0.990981455502558,0.991243115364985,1.00477386936048,0.984620825318364,0.989057366365959,1.0148373305393,1.00872915615602,1.00740156644151,1.04491279788739,1.13224932432838,1.07044991942463,1.07014986944998,1.07298619838236,1.13653438533575,1.14184375770184,1.13505983801052,1.20771621854668,1.10541780533556,1.10578210251626,1.18046736489403,1.18234217989667,1.19194631841753,1.14206349760002,1.14160216198464,1.20150516398247,1.17344529321875,1.17333997921026,1.16372283986256,1.16159658312959,1.186400678385,1.18711152498786,1.19410049153701,1.20438318496612,1.1880184736573,1.19192394928051,1.20081991811372,1.21461313779942,1.22868420509189,1.2279039424255,1.23303551954792,1.2710526396689,1.27281898340936,1.27892581622122,1.279042592989,1.31151735429598,1.25611445977558,1.25193700684729,1.25152364799302,1.24901573908549,1.26210245982617,1.26550833338903,1.27122316229723,1.27396051253943,1.27712409806979,1.27721344509273,1.2759354775423,1.27888615708751,1.34036825627637,1.35034402141553,1.32266881715894,1.31816751991599,1.32063780687626,1.28041191787084,1.27125966459235,1.26835732504013,1.2981685776001,1.30142848011126,1.2995448375406,1.36563396957588,1.32806474626302,1.32067348144488,1.31557989185631,1.30966898898072,1.35206509820037,1.31873898799965,1.31396953885843,1.32295803879241,1.32436815935417,1.2802581556952,1.27374751201803,1.29286869467912,1.27798740337499,1.37066314255277,1.25800520214032,1.22467054158922,1.22242172500467,1.22418860513795,1.28480119295882,1.27392762686117,1.27392967575854,1.28721846544642,1.29272155034646,1.35184630817446,1.36912413750025,1.27312647915187,1.26861360237585,1.25529426982974,1.24234449351033,1.23760050925205,1.25815144060047,1.25200805098779,1.24607117102995,1.26124254515436,1.23712517856366,1.18787724192539,1.18795790949798,1.18820228476577,1.26555049094279,1.15975975636105,1.16241715886571,1.16331817388207,1.16551438271046,1.09435065021652,1.0931838128132,1.10689923616562,1.08897493410738,1.08901524613284,1.06268926620097,1.08926197706377,1.06291919734649,1.05202841302887,1.04067384872992,1.04089611285657,0.999819152619835,1.00019450831486,0.981178689994827,0.983409314890138,0.932660653093074,0.915720943688337,0.891277238013584,0.889440345851728,0.878357459008669,0.886020265723033,0.867769089873776,0.891996715810257,0.892226459691512,0.89347476827895,0.846069709419527,0.86503972865121,0.864341929602718,0.862109599183897,0.865066738153303,0.858367047076196
1.1541025914106,1.17529741949594,1.17529981421725,1.04625929907112,0.983265941523075,0.984385064482398,0.984232453703535,0.982780573007504,0.981091746147301,0.979477199859506,0.977310041475034,0.974156850752546,0.972755033212114,1.00511306136075,1.03303136107523,1.03460291426559,0.989065622356125,0.952846297286931,0.952504995469043,0.952352249210981,0.96477513794954,0.975286432858801,0.976241803019625,0.974552800231453,0.971558662849485,0.989759986525357,0.990463206316123,0.991314385541381,0.998559538078125,1.00322591111314,1.00826979619755,1.01828548603856,1.01976513431286,1.03319303801812,1.04322711688873,1.06980323721872,1.07010113891176,1.06985786741861,1.08659365854888,1.13851015713944,1.14032233709231,1.13013425538892,1.12523204060839,1.12143191188542,1.13691810769882,1.17360453013072,1.17375946686691,1.16191820722454,1.14208928035553,1.1417804876102,1.17410950975531,1.1734210344852,1.17362432411733,1.17377237793697,1.17766194082454,1.18707451040739,1.18833901393454,1.19147661570595,1.18959191655636,1.18934871149852,1.19258009806777,1.2017902384045,1.21070359437805,1.22766775899202,1.22867428458731,1.23036907984937,1.27020687154413,1.27349020731194,1.27512448034587,1.26883196250142,1.26358473516696,1.25374482050243,1.25095028455323,1.24977564021455,1.24770150088952,1.25357623607105,1.26451838184438,1.27202465082814,1.27201724161978,1.27255432281505,1.27342056274404,1.29560950977782,1.31655315375593,1.3253943454519,1.32332326168855,1.32136657782623,1.31734258229471,1.31402164037702,1.28034367688128,1.26613805149802,1.26564070230295,1.29374750442851,1.29587291085022,1.31867338089878,1.31719513572418,1.31912535477743,1.31758786592289,1.31705118082641,1.31598368243144,1.3129985538832,1.31336330466916,1.31124356505898,1.31615542733504,1.32053868536704,1.31239842766327,1.32023574364455,1.32898154115536,1.33302698356955,1.33513647513084,1.25988419704813,1.22196563570746,1.2217120799327,1.22289112861809,1.27422337295296,1.27073107018039,1.27184556343967,1.28316442788393,1.28728671498099,1.29334087542805,1.291413238526,1.27088685873716,1.26789394264963,1.267715036059,1.26417181464416,1.23935041320932,1.24070194034057,1.24200527219891,1.24409810023744,1.24562986945395,1.22544513266492,1.18755542771465,1.18859846228329,1.20198953925083,1.20628693213757,1.16578748140425,1.1640695804309,1.14699738365756,1.1295836813907,1.09505756956092,1.09023166620426,1.08528365135949,1.08024654112009,1.0756685737977,1.07132589317052,1.07989295669265,1.07245848305976,1.05431910054759,1.04898792826702,1.02333089770229,0.996616791463988,0.993568892647349,0.965620223438548,0.964986877714709,0.941804689175555,0.936096648136232,0.892978182448842,0.887515841323049,0.875903654544408,0.874414020790298,0.870227414183814,0.863843537051505,0.858273599879978,0.855494136471035,0.849388446154082,0.853231762892843,0.856285750082141,0.859434928643619,0.858829260178018,0.858761481497065
1.24506713997919,1.17530644800646,1.1957668381713,0.982570326949803,0.982809141746285,0.983021961412883,0.983917879576221,0.982283319980211,0.979788435739349,0.978972761243595,0.970527627791963,0.971888743884251,0.971387151113713,0.971387548835332,1.03963165307801,1.04579131567901,0.976696374485767,0.952549296724888,0.952378808355815,0.952344545625296,0.963156157369466,0.972383740565757,0.976887946309674,0.97596873414809,0.970881708841716,0.986978294337378,0.989247529858407,0.992154438107737,0.992636495895522,1.03365116118572,1.02748395668805,1.02154969517799,1.02469553085942,1.10109199124968,1.03968551280117,1.06955794925627,1.06998093877833,1.06886357535095,1.1013927520275,1.16455454461005,1.13959049950159,1.12486552730041,1.11562269111384,1.11638226852976,1.15340709070896,1.17349385734285,1.17376870554557,1.13474957518217,1.14206687450201,1.14143740471921,1.17613106250017,1.1732763845528,1.17408027716325,1.17354575285374,1.18496254880856,1.22490304730127,1.19588687693452,1.19463582117695,1.18927920557801,1.18932580423443,1.19614360261867,1.20390868044846,1.20603461682554,1.25987545031661,1.22940140894825,1.22889970888561,1.26132270659312,1.27359923726048,1.27864223521001,1.25870281539542,1.2582233137831,1.25530081579872,1.25408081575991,1.25215712863291,1.24697928461337,1.2484414037764,1.26607370533954,1.29893204864137,1.30886146156281,1.29300110035057,1.27449748553005,1.29381161811844,1.32032135653919,1.31930931720352,1.32696181335156,1.32931685032632,1.32119338901136,1.31901386448391,1.28413918042036,1.26782999635151,1.26866315047939,1.28056341421355,1.2841688032128,1.32190009432487,1.32212739453117,1.3197641283232,1.31495424506861,1.35235942949271,1.31503817511904,1.31406394791384,1.3178594460802,1.31314508525515,1.31798102995383,1.32899837874865,1.30816652804549,1.33791472217739,1.33507177649493,1.51371264948761,1.5125589999595,1.26428863732695,1.22279276183739,1.22342156850782,1.22533923173728,1.30606180563825,1.27215875956833,1.27622564374206,1.28057315510131,1.26872425629944,1.29951992102793,1.27409575223068,1.2755386593519,1.26889105229026,1.27007744719405,1.28692666041741,1.21504047901889,1.22326486837724,1.22060342876932,1.21788072756414,1.24843213857935,1.20084334342845,1.18740710630684,1.19130488069274,1.20870477226956,1.21422365847467,1.16757470952064,1.19288044847216,1.13182298190779,1.10964231192989,1.09479477680145,1.07280270865066,1.06686182199136,1.06653655667283,1.06522503270521,1.05878940267593,1.08807982368662,1.08843463676996,1.05591569308831,1.05668231658495,1.00649818000024,0.98999334104604,0.990049792910901,0.960125942928475,0.949741433806374,0.951846887939793,0.951745028912829,0.893075439553919,0.885912741516574,0.87472872518905,0.873951622970764,0.873427567489456,0.853968196316234,0.85833269789808,0.849839753856377,0.839539488021637,0.853665846630084,0.83974760105184,0.860139357881412,0.858083581168337,0.859320343390127
0.990174179841661,0.989488683680089,0.98636692230915,0.982708445913686,0.983095383673708,1.2439742088473,1.08596993719188,1.22442895984296,1.29651687337357,1.26443023890988,0.9708396828094,0.971240883595256,0.971184088527978,0.971356658596406,0.978807146676447,0.952334967573557,0.953195542764297,0.952608703250197,0.953015890429216,0.95353174545731,0.968557808448673,0.969525956600548,0.979026693406183,0.96191537177153,0.978031308472502,0.93683324630891,0.977020040656847,1.00137109403213,0.964256644728306,0.98402904140793,0.98424429854087,1.01102525382559,1.02897055470159,1.08235768167563,1.08293073446894,1.06687372756767,1.07158529858094,1.1047894335763,1.13441661595073,1.11929697762952,1.12018396849434,1.12018270157648,1.11780060064684,1.128467420905,1.12776621415523,1.23987571710269,1.19052423574341,1.23304489817726,1.19205087591338,1.15678075255646,1.15642852018656,1.17026682280178,1.20696943160551,1.1744255641834,1.17522085596585,1.20792392436536,1.1970177648713,1.19830340602107,1.18415114334053,1.19255294830995,1.19354905575545,1.20501135349042,1.25856352549016,1.259230147748,1.23215465864796,1.23270707324842,1.24463448320421,1.25894738042715,1.25894734263962,1.24367151273765,1.24309093242116,1.24190370369196,1.24551802782617,1.33302988057786,1.26457710020277,1.24836954797958,1.24847607765788,1.25260226148626,1.29297858849406,1.29263316097258,1.29748336118096,1.29305123293286,1.31163824612661,1.30129872320997,1.33990127031106,1.34563225968211,1.3399339734894,1.36957931957993,1.31757883996511,1.2659806065116,1.26797119429199,1.2799013647367,1.28001751493786,1.31356998502131,1.3149261767229,1.3159925644447,1.31397883677747,1.3467062781123,1.32330696985609,1.32173331621884,1.31917430090394,1.31464884757529,1.31852069532187,1.38504429469662,1.29964108051709,1.28837628241511,1.31755282735725,1.32010082349079,1.36340385614169,1.263007961371,1.22875618750594,1.22638208662202,1.22820639279222,1.24735478293896,1.25532520207545,1.3051692454938,1.30137583835108,1.30451786807533,1.29204172170396,1.22723041405465,1.22711495335211,1.22789238137494,1.22058467395016,1.22034786198565,1.2089083153758,1.21125945646503,1.20683437788205,1.19355382106506,1.20185716631418,1.2038253961236,1.19824944278086,1.19559566035161,1.19796054513868,1.19303419781384,1.1949704977263,1.10462568250212,1.10854545051318,1.10782078108932,1.08402217563879,1.06171686731677,1.06862072591493,1.06768217800153,1.07633823979049,1.04723340937078,1.04685102942622,1.04630767010682,1.03278281365353,1.0110122237452,1.04769315469565,1.03149902164248,0.984337221817564,0.954031839133721,0.949060634895343,0.952188465890879,0.952521232296149,0.915302495095921,0.884780486561844,0.874572563801614,0.890668258451634,0.890144192733219,0.881982432466528,0.861904324966983,0.864752438964857,0.83667215576373,0.834459128181588,0.834397516968333,0.861158267489436,0.873781244874262,0.86821438928949
0.990219098391219,0.989194449157076,0.98789481253008,0.98547043094498,0.985487527838153,0.986778876580048,1.02520390184561,0.986015148795175,1.25146989759792,0.970556053217597,0.970603417500353,0.970876188428392,0.970495278906983,0.970416257505823,1.44467279570092,0.953719076201279,0.954222131835661,0.953327654148579,0.953589806583685,0.955050379221707,0.957119926733428,0.955491846291888,0.954883093114559,0.95553309943583,0.978123161168624,0.977882529095662,0.966618803754588,0.959262513459181,0.949605853463635,0.964165251166992,0.986083783567605,1.00398082207794,1.01125292537925,1.04107155021865,1.0778331070259,1.07763467907386,1.07415900900338,1.0819058337236,1.10717009445247,1.09556901146587,1.10992643054802,1.12167689379125,1.12133542109379,1.17594835491063,1.13801179966486,1.13740172585562,1.16960193190339,1.18960999706442,1.1550524962801,1.15723195723633,1.21145496730543,1.16830296949393,1.16672934789955,1.21486631458608,1.21679839789676,1.20825936408977,1.19873633074127,1.20386817487591,1.19976109306131,1.20146071036089,1.20162785538469,1.20692016110592,1.2383267087797,1.25232789953326,1.23204946403865,1.23339439911752,1.23688765795268,1.22336544358355,1.22958650345635,1.22962931621705,1.2390890795439,1.23943320964896,1.27665192582995,1.26550245702101,1.26607697470727,1.24733133332764,1.24767060520481,1.25021368271331,1.2777911751643,1.28991354393152,1.28611322529181,1.28943936703695,1.3487771975281,1.29018499976508,1.32161789189509,1.30508949160129,1.33253695716932,1.33342807468093,1.32128158617387,1.26460058057251,1.2704039435798,1.27999659975515,1.28055232750815,1.28001388101497,1.31661111196798,1.31632152032351,1.31585317503224,1.32039889067659,1.32130811497519,1.33417822530259,1.39988994257153,1.33858523719084,1.36506187107205,1.29921326013291,1.28459368590622,1.28376360618035,1.30068617144912,1.30392190623963,1.3806039966706,1.3849675544007,1.22959974237684,1.24294965862085,1.25653518844352,1.25628513671633,1.24762844924247,1.2465422302694,1.24772919094436,1.25036675568946,1.25331560554506,1.28322913011186,1.22864117064494,1.22825578132395,1.23657951073414,1.26825549703793,1.21533459743944,1.17659346353921,1.17483597523271,1.17586438890017,1.1955396467134,1.17945473151457,1.16157583445743,1.18269965360647,1.20747954214751,1.19514528330373,1.14282354908131,1.14493656801242,1.11747255320503,1.11952912659318,1.08656643328812,1.06369123233205,1.05075217413403,1.04266998460607,1.03518424811412,1.03519662950679,1.02549659236657,1.03259505491307,1.02881486487764,1.0141347203721,0.992112485307418,0.972053064812721,0.958692122985165,0.947450613962065,0.932947299408905,0.925226494738808,0.902367405509864,0.902372413439387,0.884273977131801,0.865303863148939,0.864593766325757,0.844254913950149,0.867559083124839,0.853114333124803,0.831426975977954,0.853392065411794,0.834386666177365,0.858159393711917,0.859823483381179,0.859049691521048,0.853460930816609
0.989820011705189,0.989279626198443,0.98860146242781,0.986273215963183,0.986222076620694,0.986864109928984,1.03358374911981,1.29241838126854,0.977907626467763,0.970252104698088,0.970521535621054,0.970892091586667,0.970924858723272,0.970773270252605,0.962480032336771,0.958935461867773,0.956300011577077,0.95436814944042,0.954508465404427,0.956286751045088,0.954209194889901,0.954828391974444,0.954963324266193,0.955133462660849,0.954920709633891,0.953565540041676,0.957785506537711,0.957490610618868,0.974319874619661,0.965382705982674,0.966230424212338,0.998234550780595,1.01927734619098,1.01905714035068,1.04531576560591,1.05914257366232,1.06410365514785,1.06617058038607,1.05851378982323,1.08848638683332,1.12658791826467,1.12302078663485,1.12890149661034,1.12505650343544,1.13426598191328,1.13293036220507,1.15388747989817,1.15739498098674,1.18937376433269,1.16424455927215,1.20190090530927,1.16202435010263,1.15812362161153,1.21514348330809,1.21680327230928,1.21908732465187,1.19539469629835,1.19070850374677,1.19145944390756,1.27201700013983,1.21373489360941,1.21004018905932,1.25423243832542,1.25118227787564,1.26991324703445,1.27838353225016,1.23982570791762,1.24190248236002,1.24193066345622,1.22993476630836,1.2393021562577,1.23952425248054,1.24027163384771,1.25562828019959,1.26615062577653,1.25638960094513,1.2588460126732,1.26479779186763,1.2646478077844,1.27285464415961,1.28353959191767,1.28811413867889,1.28646740684657,1.28663192152627,1.61529756090857,1.33549069255366,1.33165450130465,1.27997584682057,1.32774493356171,1.3299845092712,1.27773012177569,1.2789680571016,1.27972306373844,1.27912204906944,1.27963703247993,1.31716956690231,1.3153474674052,1.34913240236663,1.37175607451108,1.30424982378114,1.30468453930454,1.30264360223503,1.28711636057978,1.28842100334961,1.34972440361756,1.29614698216719,1.29182496890912,1.27743367797535,1.29527857758666,1.24796516407863,1.29264607320604,1.24651358400851,1.24606115181235,1.23313951539074,1.25449409472485,1.27908455909658,1.24699024472511,1.24857016655527,1.25392964275008,1.26726270076628,1.21865911830903,1.22047064424761,1.21021423940551,1.20882674703139,1.31822825391963,1.2029897899646,1.17193727197828,1.17094150451097,1.17706450905232,1.15652743998077,1.13898587171036,1.13711861796544,1.1364782997287,1.13381036086371,1.13347330139469,1.11498164321215,1.11557250411401,1.1045194071798,1.12599721349348,1.0651548296068,1.0467527526839,1.03959443080412,1.03076005856416,0.999800640651853,0.999998163416577,1.02512497027891,1.02535566520213,1.02497978973495,0.994280179899059,0.95261694231854,0.938971143895448,0.940612730497116,0.921896681959436,0.977335444332782,0.896113940020287,0.942343433422452,0.88414855152388,0.884073818854243,0.856375701794137,0.857321808436914,0.871818720036724,0.843986782890574,0.820108174522625,0.821576667710302,0.851036315207896,0.826122126170602,0.8269791401184,0.817458603940459,0.81738998289376
1.19327165340663,1.18350864126823,1.38821379497912,1.21891876538632,1.15923561782543,0.98536904319316,1.04058449832796,1.05368607437157,0.978885244770144,0.970485206349376,0.970705246404404,0.970787183387386,0.970563069131601,0.970410930241641,0.961953042200833,0.960456095738518,0.957623816210749,0.955802665521748,0.955077707429746,0.955037300762987,0.954674146477563,0.954519121480365,0.954399932404164,0.953377303193922,0.954008047326756,0.961884040875991,0.959233663117006,0.958826895452308,0.955178397791396,1.00776446989444,0.965267513198681,0.986107995515955,0.984776886756372,1.05371344992287,1.02284808209568,1.05990759289986,1.06236713892912,1.06303960658318,1.07881588342007,1.07652668518699,1.09652914614822,1.1201809059333,1.14002551450538,1.14725852180974,1.13223622407403,1.13261807510704,1.14968161586919,1.16695231368476,1.15220068830805,1.18248748054914,1.13272312883861,1.15045540799715,1.16731314989756,1.21389844180765,1.21465856356204,1.21877681463806,1.19315030688405,1.18971559416763,1.19903702018321,1.20010292788499,1.19996555438348,1.21030423639705,1.25684790099025,1.25971080182899,1.22613456198508,1.21670052687963,1.21867853838679,1.21997267599573,1.30287105454604,1.30329608331956,1.2392895393643,1.23924249204729,1.23811058326541,1.25966404325019,1.22912001943201,1.24965608736157,1.26127455275993,1.26404306238661,1.26398080164575,1.32492435308669,1.30703337618484,1.30826335650345,1.30950584644872,1.31056429871808,1.5375172980931,1.33565820013532,1.32754797532793,1.32762650443607,1.27989952129809,1.27815818479658,1.27828897477858,1.27806117690631,1.27765575642897,1.27842246907059,1.27939400409158,1.31577655096804,1.31521553473285,1.3153836567055,1.32194308610859,1.30466457250431,1.31477503756505,1.29064198169899,1.27196441591217,1.26372329238015,1.25159414068877,1.25121244265992,1.27617870784685,1.27997688554658,1.25173330927844,1.24924063440947,1.24670642568361,1.24646171706149,1.24582492520319,1.23300497367448,1.23277778951511,1.29341465638682,1.24579924151023,1.2483069706607,1.2489161475126,1.21517461904382,1.23969860068078,1.223281373423,1.20975295763806,1.27509542640468,1.31763929019292,1.16839747912687,1.16974264725756,1.16909347522168,1.16798497476919,1.15424895024633,1.13681901327215,1.13597740476548,1.16031103885366,1.13409868669436,1.13307068742843,1.13594686410791,1.1299118483724,1.13616475675114,1.13336888970714,1.05053217357738,1.00256136801036,1.00762854633103,1.00053763504221,0.999523812089445,0.989169513820648,0.979028003683608,0.990753625559699,0.986694003941275,1.01278017769817,1.01342386204648,0.941006938596943,0.94118385449354,0.940826876304603,0.891187821964942,0.898905049140916,0.88007505000865,0.877453490396155,0.865976262139079,0.867607310988687,0.839160743656763,0.839751311707417,0.831907281773635,0.821694311512267,0.82116686986826,0.822698105958503,0.824317320233695,0.827885833877492,0.87229399469827,0.889466836781372
1.14293273572176,1.1799738827564,1.16683433401068,1.16702869655745,1.01278285385366,1.05506106863113,1.083290163925,1.22811731991435,1.24517527006603,1.25920105105878,1.26138087566101,0.970274657634029,0.970174499803034,0.967593831580351,0.963479873967236,0.963385967142111,0.957863310179706,0.957154962844255,0.956093915147829,0.955837803735105,0.955718999731961,0.954212705561786,0.95318719395906,0.953057810485462,0.955448827404586,0.957929385348476,0.95904445803019,0.959697131109505,0.96385896542519,0.962418020283215,0.962438282500848,0.988839995653322,0.997507371002747,1.01086549538044,1.02814484539398,1.03861457830315,1.05495504016785,1.06240008538721,1.06381782914135,1.09258963707995,1.0927673962021,1.11793096096738,1.11718822893042,1.14875033722393,1.151112105927,1.16833497922945,1.14484259599845,1.13661201104516,1.15052926334256,1.15142504895413,1.12297801667593,1.12314767254344,1.12208947254425,1.19861696137475,1.21407333370007,1.17404473861094,1.1883939152194,1.24507632276152,1.22133644157071,1.20787097839053,1.23412951811721,1.21158271070558,1.21363991960922,1.21188883006668,1.17939444192698,1.27011331159417,1.21934542865291,1.21897719759168,1.22143786393383,1.22182818579493,1.28423961027622,1.26916547656506,1.28650744444272,1.24949801425359,1.23051163427341,1.26471251439789,1.28617219982096,1.32061296994812,1.27084119208356,1.26294732414583,1.31068021452558,1.30938377111874,1.32981950827563,1.32721460922724,1.42290180267789,1.4166972121793,1.3247185859572,1.32082974021987,1.32004995981331,1.27804981316788,1.30230482377041,1.27817243365579,1.28345760299041,1.29321163063062,1.28469266226679,1.32077873167387,1.3152204094632,1.29685744264336,1.29364290616083,1.26171993722175,1.26032783676332,1.26465058432969,1.27344688163886,1.30492333764684,1.32945963967676,1.24507984614234,1.27141294333284,1.25835456804527,1.27861037950576,1.25949687946744,1.25786453155118,1.25025841000902,1.24759828763914,1.23429578718894,1.23381248790686,1.2834898236321,1.24345212250911,1.23971364019144,1.30864840857717,1.2398438413249,1.24836521156462,1.22650119004839,1.22938571609997,1.2545392144254,1.40356947738224,1.2007330462192,1.20138894860444,1.20197671343502,1.17889413115473,1.14587511156935,1.14512121067287,1.13467132806699,1.12256995514214,1.11743717383793,1.10612061066979,1.1075476324033,1.09928763397186,1.09171994182786,1.05700714444397,1.04641227577245,1.04453177953685,1.0124503026528,0.999253923987959,0.99920815530438,0.988191391891081,1.00988674341054,0.995315517552111,0.999916623438877,0.976497534988571,0.945916349306409,0.946147632724547,0.928263363748211,0.890822530046993,0.891243975862439,0.892311980165881,0.893780596289494,0.873332016051159,0.842227351915084,0.840764024725433,0.850445888999062,0.818150711783206,0.825334234596756,0.818777651103141,0.816436021729067,0.822329360471586,0.823919628707186,0.8291962198101,0.867528172824757,0.837415757131608
1.38740320438963,1.1854129934122,1.13944945431471,1.13910771113078,1.08549920019797,1.22540348736452,1.11003449030295,1.24212224341116,1.24318900224469,0.968459235119196,0.967085946500036,0.968828166303402,1.30171410288069,1.297294336071,0.963047324218796,0.959899727720105,0.958552379885029,0.957431565382414,0.957092347675855,0.956991794810239,0.954190843096675,0.953378727989683,0.95273783459345,0.952517974486016,1.42950837624588,1.09841400033407,1.04437053039867,1.09760340708189,1.00185567364712,1.00073233840935,0.984297921392098,0.991958262486776,0.993860799629371,1.01172165425978,1.02276732367086,1.03483398500074,1.04737175334764,1.06038275707315,1.06076813154308,1.09162396735438,1.14217695250282,1.13454421140282,1.14383559609159,1.11925215777321,1.15830112894283,1.11610612651062,1.13338593810648,1.12967823984255,1.13333084043266,1.12508685949641,1.12487296133578,1.12023090748433,1.10347734698298,1.17651303874456,1.14190348069401,1.15338438830437,1.18231128489555,1.2147340436525,1.21380878252782,1.25374683589325,1.16778743263287,1.16891238409491,1.16781817976185,1.17038739833382,1.17973655109891,1.25951221636796,1.22209766621063,1.22631031650122,1.24269993308238,1.22326185900256,1.22131582434918,1.23864269912759,1.23722189722425,1.23886336712625,1.23749688722256,1.31899526585515,1.30608479841636,1.31932574031728,1.26190004936542,1.31144932515199,1.31102952366524,1.31060951989315,1.28364401054534,1.27717529694569,1.31691002165194,1.31798234163553,1.30952032327021,1.30873117292237,1.33017167319964,1.2871542210567,1.27240618042895,1.27487463092141,1.30584528233352,1.29763415293123,1.29851240283329,1.32059116018501,1.29818145245823,1.27019361186566,1.27078804589822,1.26136169358312,1.26180512290145,1.26165900495754,1.2501426156403,1.246068426591,1.28201438382913,1.28121644456473,1.27629443943769,1.28098799045715,1.2497377307682,1.248660685882,1.31466863756095,1.28212162703094,1.30823686898807,1.32236501049038,1.23149242715025,1.27202585370024,1.2425020705171,1.22208757878816,1.2118612753965,1.21118061542653,1.18456377066227,1.18447237365254,1.18432081675808,1.17777131167095,1.17741518460764,1.1995070614577,1.20072108584957,1.18621033149455,1.18780635758151,1.14350382156504,1.13116249002929,1.13402118509807,1.13649579641556,1.14397190593591,1.09239614293528,1.08112536976549,1.08030523031594,1.07958053987511,1.05743217947216,1.04157066656623,1.0341055750342,1.01497090348376,1.00423113232693,1.05717354301583,1.07488917994282,0.976466600505457,0.989607307100092,0.98643339825287,0.943268467418196,0.933799038478213,0.915362425174431,0.915593250062662,0.914284152967881,0.892842317082138,0.892977597277504,0.899753707436824,0.869701236386608,0.859040663297779,0.858349538572093,0.841058563719188,0.853825104556574,0.84429589468867,0.859239735044872,0.834915506503118,0.848814844390156,0.831244172845837,0.831376917425119,0.831378907733726,0.838587956865613
1.19177772105729,1.18743473774566,1.20567608347861,1.13902288194882,0.972243455411976,0.971762262122398,1.06496667372201,1.23509112017664,0.967841838108868,0.967807386318239,0.96633696877213,0.967792022800078,0.968003821905175,0.961794255068748,0.961194893918508,0.958902729653509,0.958436811349436,0.957750120277032,0.95801934709158,1.40666611558928,1.10450709139579,0.952194077261227,0.951929951905791,0.952072560763579,0.952281016764088,1.00705411179223,1.00683351067963,1.0083030577144,0.981891973191434,0.981917364646109,0.977778361670605,0.992394866059549,1.04215530310676,1.05394088041916,1.02212857695743,1.02863246781511,1.03920204121712,1.05354155089647,1.06318316594479,1.07051198450555,1.1179204012132,1.1127118871315,1.1079002996867,1.10733183194587,1.13488709307848,1.13501743689805,1.13464423355966,1.13417312973245,1.11467990398381,1.17082372359968,1.10135983230153,1.11916356332261,1.19598542492523,1.15106750347004,1.15126874558095,1.14190753009952,1.17218920904921,1.21547647664476,1.2017548763633,1.20159118815498,1.22699768263557,1.17138230545134,1.1753013801392,1.16684500330709,1.16716564320822,1.19339343549133,1.19606330695653,1.19879354601698,1.19855543099007,1.19833341867191,1.23993514520101,1.23864880884031,1.23637779640379,1.26427780851263,1.25743731070031,1.30522344112088,1.3014927604603,1.27369305603534,1.31207430906943,1.30953276579877,1.28143558039544,1.3113677899995,1.37413333293829,1.30451233206906,1.27636409420221,1.27595490424029,1.27492013429177,1.25627885690932,1.26400323987642,1.25559921549692,1.26195114375935,1.27319592730578,1.28005110293737,1.3087695432488,1.35325821452738,1.27082787758393,1.26853679052609,1.2685928696121,1.26896486812462,1.26265724939722,1.26245705970871,1.26091939150066,1.25877820312877,1.24929649091187,1.22198765836327,1.2218807751016,1.24741265309892,1.25442730308225,1.25381418692155,1.23480246540911,1.23869456850741,1.26664955325508,1.30695574500488,1.23016689303043,1.2867685367883,1.23298656587059,1.23657422848802,1.24128075009737,1.21087701988662,1.21132588304241,1.18218876301801,1.18341862989776,1.17734400413603,1.1763934070824,1.23310713475868,1.23182597993268,1.20022969784083,1.18603744168418,1.17774378324121,1.17570217652382,1.12805395730361,1.13438478591353,1.13817079676575,1.09734751296776,1.09801870820447,1.05412930891131,1.05372913759491,1.05184168565004,1.03401245196769,1.02594355835352,1.02132101620551,1.01939693650417,1.02016896982398,1.0963374288352,1.00801005490711,1.00738234425682,0.992320992854674,0.993458629726352,0.943835055628755,0.926954250181481,0.916633395142098,0.916127955579514,0.915221086114064,0.884004461974079,0.893667986467162,0.878141752721868,0.865872022577662,0.853006898374163,0.846533088240385,0.832687977394913,0.83341865208785,0.838387351399572,0.873583060673844,0.849472804456019,0.833759014886372,0.837466942092128,0.834091636052528,0.815692342486228,0.821345159439112
1.00729087542889,1.1674731560018,1.29283733820243,1.13867179492284,0.972976630046726,0.971721277205463,1.01951361712778,0.984384857423072,0.966266487801107,0.966450652703781,0.966388059972753,0.967070803675634,0.966644384370774,0.96138341789562,0.960860594953148,0.958521489340771,0.958339513185923,0.957591154226166,0.956685863105083,0.949252885381148,0.94925725440211,0.950935131538318,0.951196705887413,0.951528587279135,0.952218565206053,0.952932044843144,1.00515817653626,1.01593676890679,0.994838061547533,0.971228488776623,0.971234753540749,0.991705219552863,1.01388381998408,1.01947531856705,1.06109040178866,1.02335700600516,1.0307559748669,1.03795139952154,1.06588184140322,1.07615830236789,1.07708080896523,1.09465937094932,1.1098875577451,1.11651825378192,1.08255570536097,1.08262247329803,1.11183820766421,1.11128253425489,1.0945407389621,1.17138233083737,1.1149048260072,1.11532511257636,1.11179409271901,1.11281888799742,1.1444810356671,1.13596641633807,1.15293210808397,1.1543200334526,1.18063123079045,1.17005836571158,1.17956900297782,1.16807817986595,1.16446947599405,1.16712918535817,1.16779595529884,1.17176112191448,1.17423598714922,1.18004800283571,1.18304513219652,1.19786767968292,1.19897000797007,1.22389775979916,1.28980445356408,1.29027806276612,1.2586699115163,1.28955854745135,1.28061802023591,1.24790540367254,1.26103503264605,1.28872730055286,1.28756417786137,1.31078473477674,1.36207439410393,1.30852921149018,1.27516192231806,1.2747576710318,1.27445292785092,1.25499217565967,1.30845714639723,1.25616995648814,1.25562702531189,1.26615755965319,1.26671780293036,1.30612282330964,1.27001983715672,1.25989451722766,1.26652656125781,1.26846958034812,1.31145359921817,1.25579662224303,1.26397481595257,1.25516134146556,1.2429975615135,1.24191630487653,1.22030179553202,1.23164056917216,1.22963411539092,1.23100518252233,1.22893763713212,1.23542760869531,1.25441737071783,1.25262094152078,1.21180208034962,1.22282905366399,1.28657423681814,1.25269089749361,1.20457442500581,1.17121549211914,1.25140614194518,1.21534002610889,1.2325715723878,1.1831394002448,1.18343476572477,1.19650195817933,1.19785441752531,1.1977900168564,1.19880185821823,1.23445660118095,1.17224794293044,1.14631233618935,1.13965635907891,1.13256604874097,1.13173632130797,1.09092115546758,1.08416476347249,1.08560376465268,1.04584778715994,1.04506540461492,1.01876137399824,1.01948223616496,1.04694417402167,1.02801046620438,1.0248339500724,1.02630123328762,1.0272095982395,0.975414189180953,0.979421707655328,1.02345713717884,0.93423949857131,0.934376465357527,0.919071746537694,0.906313258112801,0.896546329890616,0.878017456774615,0.867049662437739,0.869797835320712,0.861273361041485,0.84011767844957,0.840138148789427,0.830943136929878,0.84501085155688,0.836544562250918,0.822635013479803,0.838685608526098,0.859021033619175,0.85929029929652,0.846741398629536,0.875243833018979,0.794975627552319
1.13371257031001,1.13407109818664,1.13526627658976,1.13691849070609,1.08452201503623,1.06186963014195,1.04235772763375,1.01948881529856,0.966421520990629,0.966489242707362,0.96657925236834,0.966641556086632,0.965644979578117,0.962369347190662,0.961262376753383,0.960023399500255,0.958712769267104,0.95738251881002,0.956622893335883,0.949758109856355,0.950028532728418,0.950696043661556,0.95111623941611,0.951327041825922,0.951713638318755,0.952934599681491,1.00203872139464,1.00151456763372,0.999213451390961,0.996271205879804,0.991603680637737,0.991264590322217,1.00415727443042,1.02240505602777,1.02284781483024,1.0237909265669,1.02703027146519,1.02984010822162,1.05028426890583,1.06975909820005,1.07762303061709,1.08967844577771,1.0986137616869,1.11521099855554,1.1135703171636,1.11263893860229,1.11020961716696,1.10681217418413,1.10101892283937,1.10546345660936,1.11480352910215,1.11410699283042,1.1125638892031,1.11590608246971,1.14525737658619,1.14895541886388,1.152109908427,1.15254520002413,1.16977129873733,1.16814181069708,1.16676235423237,1.16649939611937,1.16554077611674,1.16594653595157,1.16704447940181,1.1703690374039,1.17322544777611,1.17578919143245,1.17787198720499,1.19910744641134,1.19944018743359,1.20866235669804,1.21748252087493,1.22599649577858,1.23076228352483,1.24746513150155,1.2472913182482,1.24912525543844,1.28309233493142,1.28432463981231,1.28390976142333,1.30995212901592,1.33927056688875,1.33113681442568,1.27184699251199,1.27215930709122,1.27324186176608,1.27411482774549,1.27514546790778,1.26742152145815,1.26686146949411,1.2650517495433,1.2628862043374,1.26072479044566,1.26537690985093,1.26546119386525,1.26466449387022,1.26445907377378,1.27402198913026,1.25217798682573,1.24949079892975,1.24846842213358,1.23765225825677,1.23597375352876,1.22161537492291,1.22470716082797,1.22733399656348,1.22908743762902,1.22973369221015,1.23232913422366,1.25289623946681,1.25212234133809,1.24735404851448,1.22092623268193,1.21605402944403,1.21135148107662,1.20040004515039,1.18085611817984,1.18177012526684,1.18505503153672,1.18266717187851,1.18210093766575,1.18934257688278,1.19735466013663,1.19720665470504,1.19647905042443,1.19554399306421,1.18654404391913,1.17213013638327,1.15106983166572,1.13474083744451,1.13170936279912,1.12728556474053,1.11096175061571,1.07108267121568,1.06197932071965,1.04455041156534,1.04327933037403,1.01906910247999,1.01927141147508,1.03858962911005,1.03108456331479,1.02681795648777,1.02703845436068,1.02734558418715,0.976959046705365,0.97733217019332,0.970441120634114,0.936377169736554,0.923584161742104,0.907802985427803,0.899674793618655,0.892092499297885,0.884112269910436,0.873716627848716,0.869492168815914,0.855712619158956,0.838212221493308,0.837563623157645,0.834673712278007,0.830449499545285,0.827573480390539,0.825564547771398,0.837701092355866,0.842748021159338,0.84226765819882,0.840726277437825,0.828965419505829,0.805185379115683
1.13667671841285,1.13479271162471,1.13597190058056,1.23708874320257,1.11638967698988,1.22785347465185,1.12517236133083,1.23408318210365,0.966204811090694,0.966156038988317,0.966326584218107,0.966245820131844,0.966237988955279,0.961127140266063,0.961897702631745,0.961460552367115,0.958979529977241,0.957087747828458,0.956140286675467,0.949432455912454,0.949575182309479,0.950212240395267,0.950820942738277,0.950701144384888,0.950125346389342,0.95356941578168,1.00222496701688,1.00322081092203,1.0262773536609,1.02648261136432,0.990577344297044,0.991144140917232,0.992518506604234,1.02662164161087,1.01926305490553,1.01528533024923,1.01871195264218,1.02393047056239,1.02331303755336,1.06262005139547,1.07945741303252,1.06635503966649,1.04766509760392,1.11550212932952,1.11241489969979,1.1478509172299,1.10855341417261,1.10557564818623,1.08073101551448,1.08770068881114,1.11391175926856,1.11175551073703,1.11084749896179,1.11924625343581,1.14669404810743,1.20309858524215,1.1515587782272,1.15161802799574,1.17085952621877,1.16326738035862,1.14364982334569,1.16176259937962,1.19820780319816,1.16417328032457,1.16413903022473,1.16463455179487,1.16433494181633,1.16273557311641,1.16181436811221,1.20594271743199,1.18683589904576,1.18685962205168,1.1864872271629,1.186599652814,1.19126851636994,1.25469622812312,1.24947537248491,1.24644609402035,1.28545334006428,1.28661139663709,1.28570325266115,1.30967293320512,1.35642164408908,1.35596018427783,1.24825078677127,1.28952109516866,1.28405698186231,1.28924109209664,1.25213891036154,1.26827616536762,1.26868385900485,1.25380650740296,1.22015393933918,1.21810168118727,1.26838228556221,1.26875812304639,1.26425676249145,1.24633166802852,1.28011855967167,1.23402647207958,1.23836283041246,1.24726155412146,1.223823748219,1.21734029725318,1.21754430002323,1.22394907513145,1.22665653572828,1.22896087355951,1.22915470634519,1.22843510337782,1.27408717113967,1.26979910436855,1.28205375153561,1.21969633359108,1.20561207073135,1.16448116610265,1.17138667670278,1.17161685778145,1.17245162652007,1.19002515510435,1.17954485512448,1.17981205322,1.1951629839191,1.25250817943551,1.19663927844634,1.19526891581106,1.19433207806281,1.16751148250739,1.17281952701965,1.15512050855334,1.12698486074092,1.12910378413401,1.11985250461005,1.14493745240719,1.03587875130046,1.03584922318143,1.0383539219223,1.04017736963973,1.00855568881344,1.00862900495393,1.07245385088649,1.05175343595374,1.07175587207576,1.0168984100353,1.05168208157881,0.977647103219127,0.977031839026251,0.960652783581656,0.939214527258291,0.917152535261938,0.903205963571167,0.89465761396891,0.887553493604024,0.88940108565229,0.8811123766282,0.869805594401133,0.849939723000228,0.837016047370604,0.837486407055333,0.839288682684303,0.829793089378278,0.827441128642162,0.822462402192234,0.836821055912199,0.843254442212993,0.843694072559128,0.839762483094926,0.818949064734481,0.795780011187283
