0.946776887008828,0.950399537162452,0.950863746101736,0.947140972451404,0.947323015172691,0.942835662092951,0.942526189466762,0.940742170798143,0.940496413124405,0.941697895084903,0.9421074912078,0.94233504460941,0.941907244214384,0.939458769613065,0.940432698171954,0.939595301654031,0.939285829027842,0.938612270959078,0.938921743585266,0.938821620088559,0.936364043351175,0.936172898493823,0.936728128793751,0.942262227520895,0.968066783263418,1.18237657689929,1.12197480197605,0.92399424043968,0.921809727784228,0.921400131661331,0.924230895977354,0.924959066862505,0.925878382605007,0.924795228413346,0.927434847872017,0.926925128252411,0.925477888618174,0.927298315831051,0.927443950008081,0.928071997396523,0.928454287111227,0.930083569466752,0.929728586160241,0.93305086582374,0.935217174207063,0.924813432685475,0.925851076196814,0.926024016782037,0.924485755787157,0.922346753812027,0.921427438069524,0.921409233797396,0.921636787199005,0.921846136328486,0.923484520820075,0.922446877308735,0.923885014806907,0.923520929364332,0.92104514835482,0.921700502151456,0.922956596928341,0.923466316547946,0.916630612363595,0.917331476840552,0.917841196460158,0.917495315289711,0.916858165765205,0.917422498201196,0.917841196460158,0.917531723833969,0.918105158406025,0.918123362678154,0.918405528896149,0.918086954133896,0.91633024187347,0.915447334675225,0.914036503585246,0.91317180065913,0.912753102400168,0.918350916079763,1.27018488351239,0.922501490125122,0.921518459430168,0.922100996138289,0.918605775889566,0.914964921463813,0.924185385297032,0.912288893460885,0.90596017825532,0.906509037060002,0.906722027043909,0.909381671201921,0.909388042697166,0.909313405181438,0.92133641670888,0.903055686637176,0.90221646969204,0.901951597532566,0.900831124583041,0.902840876226056,0.929382704989794,1.20210090575081,0.943627547930552,0.943600241522359,0.929692177615983,0.935280889159514,0.916876370037333,0.9171403319832,0.918268996855184,0.919698032217292,0.923712074221684,0.924167181024903,0.924212691705225,0.928217631573553,0.930201897235589,0.982429953973013,0.98475099866943,0.992478712188091,1.00399291430953,0.959519877498963,0.962004760644539,0.968649319971538,1.04177588111278,0.96796665976671,0.970142070286097,1.04678205594819,1.03967328768191,1.03993724962778,0.96782102558968,0.967547961507748,0.967857434133937,0.968749443468247,0.96788474054213,0.968030374719161,1.10657398775512,0.980536709671622,0.981437821141995,0.981501536094446,1.00552207316835,0.973336920044695,0.973892150344623,0.973819333256107,0.974037784521653,0.972872711105412,1.01856543414861,0.986844489964238,0.986207340439732,0.960366376152951,1.04076554400964,1.13992421429502,1.02840484323421,1.0214053006007,1.01521584807692,1.00872602506301,1.00707853843536,0.901884241725689,0.904721377536957,1.08616699869878,1.08583932180046,0.949944430359233,1.07883977916695,0.971607514192463,1.09041769624084,1.22613054496078,1.01019146896938,1.10712921805505,1.12655317641644,1.0118207513249,1.06509555370973
0.952310985735973,0.95014467735265,0.949179850929825,0.947168278859597,0.945930388354841,0.944464944448475,0.943108726174883,0.940177838362151,0.939340441844228,0.940696660117821,0.940123225545765,0.940105021273636,0.937902304346056,0.939121990578683,0.939176603395069,0.937856793665734,0.938075244931279,0.939376850388486,0.938175368427987,0.939276726891778,0.939040071354104,0.936746333065879,0.936136489949566,0.937683853080511,0.968503685794509,0.967766412773293,0.924358325882255,0.923839504126586,0.923484520820075,0.923247865282401,0.922965699064405,0.925286743760822,0.926233365911518,0.92627887659184,0.925832871924685,0.925523399298496,0.926997945340926,0.926615655626222,0.925923893285329,0.926761289803252,0.927170885926149,0.92885478109806,0.92775342263427,0.927635094865433,0.927107170973699,0.926916026116347,0.925696339883719,0.924886249773989,0.923830401990521,0.920708369320438,0.920398896694249,0.91876051220266,0.919898279210708,0.920653756504052,0.922847371295568,0.92060824582373,0.920353386013927,0.921891647008808,0.921918953417001,0.92185523846455,0.922155608954675,0.921928055553065,0.915975258566959,0.915665785940771,0.915046840688392,0.915866032934187,0.915838726525994,0.915620275260449,0.915420028267032,0.915793215845672,0.917531723833969,0.917722868691321,0.916484978186565,0.917258659752037,0.916812655084883,0.915438232539161,0.914100218537697,0.995855604667977,0.913353843380417,0.917249557615973,0.918223486174862,0.921518459430168,0.930675208310937,0.921081556899078,0.921172578259722,0.917395191793003,0.917877605004415,0.910604998288974,0.910714223921747,0.906879493997823,0.906916812755686,0.906340647542811,0.907822475294092,0.908531531693508,0.921764217103906,0.90497623734676,0.904582114855172,0.904414635551588,0.902082668291893,0.903308726019765,0.920635552231923,0.921181680395786,0.924349223746191,0.925350458713273,0.927107170973699,0.91537451758671,0.915920645750573,0.916858165765205,0.917813890051965,0.918487448120729,0.920617347959794,0.921764217103906,0.923611950724976,0.924449347242899,0.977423779137603,0.986871796372431,0.988100584741123,0.95492329878645,0.950918358918122,0.957772267374602,0.957617531061507,0.961158261990552,0.963142527652587,1.04045607138345,0.965254223219524,0.964708095055661,0.961740798698672,0.960229844111985,0.964198375436056,0.964626175831081,0.967247591017624,0.967502450827426,0.969140835319015,0.969040711822307,0.971024977484342,0.972727076928382,0.972426706438257,0.973828435392172,0.973828435392172,0.974401869964228,0.975339389978859,0.9751755515297,0.974310848603584,1.0280225535195,0.988000461244415,0.992751776270022,0.968540094338766,0.942972194133917,1.04431537707475,1.04935796045441,1.04042876497526,0.905423152227521,0.90351716493564,0.90354265091662,0.901015897945147,0.90221373905122,0.902557799794454,0.903150348852245,0.902411255403817,1.08856086048371,1.08996258943762,1.03563193926933,0.923375295187302,0.936364043351175,1.1584561633221,1.12993006889632,1.04426076425836,1.05394543703086,1.09240196190288
0.951118605911539,0.95161922339508,0.945630017864716,0.944428535904218,0.945611813592588,0.946076022531871,0.946039613987613,0.940123225545765,0.939850161463834,0.939158399122941,0.938712394455786,0.936182000629888,0.937292461229742,0.937001192875682,0.937529116767416,0.935107948574291,0.936273021990531,0.938612270959078,0.939085582034425,0.938794313680365,0.938439330373855,0.935699587418475,0.934570922546492,0.946130635348257,0.967001833343885,1.09433161474853,0.925587114250947,0.925250335216565,0.924021546847873,0.924203589569161,0.924667798508444,0.924731513460895,0.926934230388476,0.92731652010318,0.927261907286793,0.925659931339462,0.925122905311664,0.924112568208517,0.923766687038071,0.925541603570625,0.92503188395102,0.92627887659184,0.924640492100251,0.926779494075381,0.926688472714737,0.925550705706689,0.92509559890347,0.92422179384129,0.924212691705225,1.11335507912308,0.91803234131751,0.917577234514291,0.917813890051965,0.91884243142724,0.91957060231239,0.920071219795931,0.919961994163159,0.920599143687665,0.918960759196077,0.919115495509171,0.919861870666451,0.918314507535505,0.915592968852255,0.915756807301414,0.917431600337261,0.917285966160231,0.91603897351941,0.91508324923265,0.91633024187347,0.914864797967105,0.918141566950282,0.915055942824457,0.915993462839088,0.916093586335796,0.914537121068787,0.914864797967105,0.913581396782027,0.911760969569151,0.916730735860303,0.91250734472643,0.912516446862494,0.930429450637198,0.928317755070262,0.932887027374581,0.920216853972962,0.915793215845672,0.918005034909317,0.912288893460885,0.913180902795194,0.911069207228257,0.905089103833958,0.905992035731545,0.906302418571341,0.907709608806894,0.908129217279462,0.90846963716827,0.906753884520134,0.906883134852248,0.906566380517208,0.907783336109016,0.907313665888093,0.917759277235578,0.924340121610127,1.09552399457296,0.912552855406752,0.914227648442598,0.914009197177053,0.91589333934238,0.916384854689857,0.917549928106098,0.917995932773252,0.919188312597686,0.919106393373107,0.937501810359223,0.937966019298507,0.982493668925464,0.985051369159555,0.984095644872795,0.949698672685495,0.950881950373865,0.956315925604301,0.957835982327052,0.959146689920324,0.961804513651123,0.961513245297063,0.95992947362186,0.958564153212203,0.958673378844976,0.962086679869119,0.963752370768901,1.05790486621887,1.08078763628473,1.07844838731618,0.97062448349751,1.12945675782098,0.972180948764519,0.972936426057862,0.973919456752816,0.974383665692099,0.975184653665765,0.97563065833292,0.975321185706731,0.974338155011777,1.09384920153711,1.03514042392185,0.969004303278049,1.03066217297817,0.947104563907146,1.04028313079823,1.03725211948879,1.03047102812082,1.03219133183699,0.904395521065853,0.904135199974411,1.00945419594816,0.904725018391383,0.904529322465999,0.903285060465998,0.902514109541345,1.08785999600675,1.09102753935716,0.938903539313138,0.922019076913709,0.923966934031487,1.05620276677483,0.968303438801092,1.14243640384879,1.01250341152973,1.16413589622627
0.94852449713319,0.948742948398735,0.944210084638673,0.943445505209265,0.944847234163179,0.946039613987613,0.946039613987613,0.943390892392878,0.941251890417748,0.939376850388486,0.938994560673782,0.935553953241445,0.936273021990531,0.935845221595506,0.937055805692068,0.936536983936399,0.937556423175609,0.939358646116357,0.940296166130988,0.939404156796679,0.93541742120048,0.935581259649639,0.92893670032264,0.931385174923958,0.931685545414083,0.931357868515765,0.9272346008786,0.926460919313128,0.92480433054941,0.924585879283865,0.926333489408226,0.927425745735952,0.925705442019784,0.927434847872017,0.926952434660604,0.921946259825194,0.921736910695713,0.922037281185838,0.922683532846409,0.923921423351165,0.923857708398714,0.924321917337998,0.923839504126586,0.923293375962723,0.922974801200469,0.923775789174135,0.92451306219535,0.924576777147801,0.924358325882255,0.924540368603543,0.917468008881518,0.917231353343844,0.919233823278008,0.9178047879159,0.919370355318974,0.918496550256793,0.918168873358476,0.918150669086347,0.917522621697905,0.9178047879159,0.916366650417728,0.918432835304343,0.918105158406025,0.916748940132432,0.916139097016118,0.915693092348964,0.916594203819337,0.916585101683273,0.913253719883709,0.911205739269223,0.912498242590366,0.913626907462349,0.914200342034405,0.914473406116336,0.913936380088538,0.911597131119992,0.910377444887365,0.91051397692833,0.981565251046897,0.910878062370906,0.918159771222411,0.918851533563304,0.928099303804716,0.928117508076845,0.918159771222411,0.916730735860303,0.917841196460158,0.917285966160231,0.914901206511362,0.911424190534769,0.9055897213175,0.903677362530373,0.903700117870534,0.907122521030742,0.907389213617428,0.907861614479169,0.907860704265563,0.908090078094385,0.907648624495263,0.907888010673756,0.908329464272879,0.910070702901995,0.914300465531113,0.912862328032941,0.914974023599878,0.914336874075371,0.910386547023429,0.912270689188756,0.915256189817873,0.915237985545745,0.915975258566959,0.915347211178517,0.956315925604301,0.918578469481373,0.990876736240759,0.978688976050552,0.93909468417049,0.946103328940064,1.05268934225398,0.9528662160359,1.00422956984721,0.956051963658434,0.957253445618932,0.958518642531881,0.993534559971559,0.959383345457998,0.957663041741829,0.957189730666481,0.959119383512131,0.961358508983968,1.05937031012523,1.00579513725028,1.07929488597017,1.10072131426572,1.02823190264898,0.97297283460212,0.973619086262691,0.973163979459472,0.974365461419971,0.975485024155889,0.97592192668698,0.975585147652598,0.974511095597001,1.07008352427301,1.01298582474114,1.06147290355611,1.04557147185163,0.9508728482378,1.03523144528249,1.04587184234176,1.04454293047636,1.031344833183,1.04024672225397,1.04382386172727,1.00364703313909,1.02953350810619,0.914946717191684,0.902494084842003,1.04376924891088,0.920508122327022,0.915829624389929,0.916430365370178,1.05037739969362,0.92303851615292,0.924003342575745,1.17723387002292,1.00500325141268,1.0052034984061,1.00016091502643
1.09732621751371,0.946394597294124,0.944028041917385,0.944546863673055,0.944137267550158,0.944028041917385,0.94270823218805,0.940833192158787,0.940032204185121,0.939850161463834,0.935180765662806,0.935954447228278,0.934124917879337,0.935690485282411,0.935280889159514,0.935990855772535,0.938384717557468,0.940332574675246,0.941069847696461,0.939476973885194,0.935198969934934,0.934944110125132,0.930229203643782,0.929992548106108,0.930575084814228,0.931312357835443,1.10943205847934,1.10772085689923,0.927343826511373,0.926024016782037,0.928763759737416,0.928836576825931,0.927735218362141,0.924203589569161,0.92517751812805,0.922947494792276,0.921454744477717,0.921946259825194,0.923074924697177,0.923684767813491,0.923439010139753,0.924267304521612,0.922556102941508,0.922610715757894,0.923693869949556,0.923047618288984,0.920799390681082,0.924503960059286,0.924167181024903,0.923147741785693,0.923648359269234,0.919670725809099,0.919170108325558,0.918933452787884,0.91890614637969,0.917131229847136,0.915829624389929,0.917158536255329,0.917249557615973,0.917049310622557,0.91803234131751,0.921654991471134,0.922874677703761,0.916175505560376,0.917031106350428,0.914946717191684,0.915993462839088,0.915092351368714,0.915656683804706,0.914509814660594,0.914027401449182,0.913490375421383,0.914182137762276,0.912689387447718,0.912807715216555,0.912143259283854,0.911205739269223,0.910723326057811,0.908514237634986,0.910850755962712,0.91317180065913,0.913271924155838,0.916494080322629,0.917822992188029,0.917677358010999,0.920417100966378,0.921873442736679,0.914782878742525,0.914764674470397,1.16140525540696,1.15998532218091,0.90570713887273,0.901966160950269,0.9035681368976,0.906685618499651,0.906768447937837,0.907591281038057,0.907776964613771,0.907835218284583,0.908464175886631,0.908001787374561,0.909471782348959,0.912161463555983,0.914027401449182,0.91412752494589,0.915338109042453,0.914528018932723,0.913144494250937,0.913772541639379,0.913417558332868,0.912889634441134,0.913554090373834,0.914336874075371,0.931002885209254,0.921327314572816,0.971744046233428,0.978060928662109,0.981811008720635,0.987427026672359,0.987581762985453,1.03676970627737,1.03790747328542,0.954031289452141,1.0321367190206,1.03116279046171,0.986234646847925,0.989939216226128,0.955032524419223,1.0096999536219,1.01466061777699,1.08056918501918,1.0802324059848,1.06195531676752,1.03179083785016,1.02501884861826,0.972590544887416,0.971225224477758,0.972763485472639,0.974101499474103,0.975230164346087,0.975758088237821,0.975239266482151,0.97378292471185,0.972909119649669,1.00501235354874,0.984359606818662,1.05555651511426,1.04353259337321,1.04465215610913,1.27825847820149,1.03621447597745,1.05943402507769,1.05986182547271,1.05542908520936,1.05721310387798,1.01839249356339,1.02834112828176,1.02331674917422,1.03414829109083,1.03190006348293,0.915319904770324,0.916885472173398,0.917285966160231,0.924822534821539,0.991850664799648,0.951400772129534,0.949134340249503,0.946549333607219,1.01893862172725
0.942389657425796,0.942790151412629,0.947769019839846,0.944783519210729,0.944738008530407,0.941807120717676,0.94175250790129,0.942280431793024,0.940642047301435,0.939395054660614,0.936855558698652,0.93629122626266,0.934843986628423,0.933478666218766,0.934789373812037,0.935035131485775,0.937201439869098,0.94005040845725,0.940077714865443,0.936800945882265,0.937365278318257,0.937010295011746,0.928426980703034,0.931539911237053,0.930511369861778,0.930565982678164,0.931649136869825,0.930438552773263,0.92760778845724,0.927953669627686,0.928326857206326,0.928381470022712,0.924895351910054,0.924968168998569,0.924549470739607,0.921773319239971,0.920016606979545,0.920599143687665,0.921654991471134,0.922783656343117,0.922938392656212,0.923093128969306,0.922820064887375,0.923939627623294,0.923084026833242,0.923812197718392,0.924895351910054,0.930729821127323,0.930684310447001,0.922583409349701,0.923175048193886,0.921618582926876,0.920471713782764,0.919725338625485,0.913763439503315,0.914336874075371,0.914655448837624,0.914673653109753,0.915820522253865,0.917204046935651,0.918350916079763,0.921008739810563,0.921545765838361,0.918660388705952,0.916748940132432,0.916221016240698,0.915838726525994,0.915010432144135,0.914409691163886,0.914609938157302,0.914054707857375,0.913572294645963,0.912662081039524,0.912698489583782,0.911378679854447,0.908393179225329,0.907964468616697,0.907540309076097,0.907518463949542,0.908354040040252,0.91227979132482,0.912243382780563,0.917194944799587,0.916102688471861,0.920599143687665,0.923866810534779,0.915711296621093,0.914682755245817,0.912516446862494,0.915055942824457,1.16635681742598,1.16587440421457,0.900576264773238,0.900238575525249,1.01441486010325,0.905380372188019,0.907862524692776,0.907268155207771,0.905218354166073,0.905842760700089,0.90720990153696,0.910268219254592,0.910504874792266,0.914837491558912,0.915046840688392,0.915483743219483,0.912753102400168,0.912625672495267,0.937702057352639,0.911933910154374,0.911169330724966,0.952374700688423,0.913872665136087,0.925696339883719,0.961385815392162,0.927443950008081,0.97554873910834,0.949607651324851,1.0654869455605,0.943427300937136,0.965918679152224,0.96620084537022,0.965299733899846,0.960211639839856,1.02654800747707,1.03585039053487,0.94968957054943,0.948551803541383,0.948752050534799,1.06008937887432,1.0620372359921,1.07694653486556,1.03471262352682,1.05347212595551,1.10089425485095,1.10274198847201,0.973109366643086,0.974492891324872,0.973755618303657,0.974429176372421,0.975221062210022,0.975066325896928,0.974055988793781,1.03091703278798,0.999551071910115,0.992624346365121,0.977897090212951,0.958837217294135,1.04111142518008,1.04684577090064,1.04986768007402,1.03397535050561,1.05298061060804,1.04636335768923,1.06038974936445,1.07965897141274,1.03107176910107,0.995245761551663,0.937155929188777,0.990230484580188,0.993006636079825,0.916357548281663,0.989302066701621,0.988637610768922,0.984805611485816,0.997302844302213,0.88659720420556,0.887534724220191,0.99993336162482
0.939558893109773,0.939804650783512,0.93872149659185,0.939777344375319,0.939504280293387,0.939285829027842,0.94019604263428,0.939995795640864,0.940277961858859,0.940368983219504,0.937010295011746,0.937192337733034,0.933615198259732,0.933059967959804,0.932623065428714,0.934206837103917,1.16929680737478,0.940177838362151,0.938830722224623,0.93681004801833,0.936882865106845,0.938166266291923,0.931812975318984,0.930666106174872,0.930138182283138,0.929391807125859,0.930429450637198,0.931194030066606,0.93246832911562,0.929673973343854,0.927917261083429,0.926324387272162,0.926096833870552,0.923985138303616,0.923575542180718,0.922956596928341,0.917813890051965,0.918223486174862,0.921145271851529,0.921290906028559,0.948833969759379,0.922437775172671,0.92185523846455,0.921036046218756,0.920626450095859,0.92170960428752,0.922547000805443,0.930374837820812,0.93157631978131,0.92370297208562,0.923311580234851,0.92185523846455,0.920335181741799,0.918332711807635,0.917722868691321,0.913517681829576,0.914163933490147,0.914464303980272,0.915292598362131,0.91751351956184,0.915738603029286,0.918196179766669,0.922501490125122,0.923966934031487,1.06360280339517,0.917559030242162,0.916694327316046,0.915993462839088,0.915501947491612,0.914336874075371,0.913490375421383,0.911760969569151,0.91140598626264,0.9103683427513,0.9079508154126,0.907045152874194,0.9080072486562,0.907363727636448,0.905912847147785,0.90824481440748,0.91227979132482,0.911952114426503,0.911715458888829,0.914182137762276,0.91389997154428,0.926033118918102,0.920744777864696,0.914619040293367,0.909964207910042,0.908584324082681,0.907985403529645,0.901818706346026,0.896545838923929,0.898546488430881,0.898293449048291,0.898803168667896,0.903161271415522,0.905221995020498,0.905170112844932,0.904686789419913,0.904927996025619,0.908253916543544,0.910117123795923,0.914691857381882,0.914282261258984,0.912907838713263,0.912470936182172,0.909895031675952,0.906751153879315,0.908313080427963,0.908221148853712,0.909585559049763,0.913190004931259,0.915301700498195,0.917695562283128,0.920735675728631,0.974310848603584,0.975057223760863,0.934161326423595,0.953548876240729,1.00918113186623,0.958181863497499,0.965527287301455,0.948697437718413,0.948897684711829,0.971461880015433,0.949571242780594,0.951792163980303,0.9502083923051,1.04899387501184,1.08702259948883,1.02676645874262,1.07535366105429,1.01924809435344,1.04595376156634,1.08843343057881,1.05066866804769,0.969969129700874,0.972217357308776,0.973236796547987,0.974001375977395,0.974347257147842,0.974438278508485,0.971279837294145,0.971443675743304,0.966847097030791,1.03256451941563,1.03143585454365,1.04434268348294,1.04718254993503,1.02833202614569,1.05639391163218,1.04854787034468,1.01877478327809,1.02673005019836,1.00909921264165,0.962432561039565,0.99683863536293,0.930411246365069,1.0063776739584,1.11232653774781,0.993561866379752,0.974274440059327,0.99970580822321,0.890684063298467,0.889686469185811,0.891984758542068,0.994371956489482,0.989766275640905
0.939913876416284,0.939030969218039,0.939586199517967,0.938193572700116,0.937738465896897,0.937547321039545,0.93710131637239,0.938275491924696,0.940004897776928,0.939841059327769,0.937337971910064,0.935726893826669,0.934489003321913,0.931002885209254,0.930748025399452,0.930793536079773,1.033747797104,0.933760832436762,0.934698352451393,0.934152224287531,0.935790608779119,0.936263919854467,0.937092214236326,0.931448889876409,0.931303255699379,0.927835341858849,0.930420348501134,0.9312213364748,0.930629697630614,0.930693412583065,0.925259437352629,0.925223028808371,0.925432377937852,0.923812197718392,0.92347541868401,0.923885014806907,0.91795042209293,0.917722868691321,0.918596673753502,0.919215619005879,0.919015372012463,0.919024474148527,0.920453509510635,0.919561500176326,0.919324844638652,0.919324844638652,0.919870972802515,0.921700502151456,0.921809727784228,0.921099761171207,0.924057955392131,0.921491153021975,0.92133641670888,0.920626450095859,0.916312037601342,0.91684906362914,1.04376924891088,0.922628920030023,1.03426661885967,0.920162241156575,0.915356313314581,0.917040208486492,0.918387324624021,0.924740615596959,0.926105936006617,0.917058412758621,0.915802317981736,0.915265291953938,0.9143550783475,0.913472171149254,0.912307097733013,0.911223943541352,0.911296760629867,0.911742765297022,0.907929880499652,0.906614621838349,0.906605519702285,0.907691404534765,0.908352219613039,0.906965054076828,0.908350399185827,0.909870455908578,0.911005492275807,0.90971662980909,0.86096558904826,1.29911147192499,1.15870192099584,0.909036700245081,0.907683212612307,0.907682302398701,0.905148267718377,0.904546616524521,0.901138776782017,0.896283697405275,0.898278885630588,0.900788344543538,0.902974677626203,0.903143977357,0.904375496366511,0.904520220329935,0.905970190604991,0.909403516328476,0.909714809381878,0.91065961110536,0.915920645750573,0.909636531011724,0.907293641188752,0.908594336432352,0.908329464272879,0.90780518123557,0.907810642517209,0.907959917548665,0.918478345984664,0.917841196460158,0.916494080322629,0.919215619005879,0.968904179781341,0.971425471471175,0.97797900943753,0.971243428749887,0.941060745560396,0.954932400922515,0.954686643248776,0.947960164697198,1.00883525069579,0.949744183365817,0.951327955041019,0.950263005121487,0.951728449027852,1.06940086406818,1.06695238946686,1.02166926254656,1.02203334798914,0.993052146760147,1.04332324424373,0.9697324741632,1.08769615755759,1.05067777018375,0.972727076928382,0.97193519109078,0.974265337923262,0.973609984126627,0.972781689744768,0.971853271866201,0.971216122341694,1.01583479332929,1.01299492687721,0.994162607360001,0.977278144960573,0.959811145853023,1.04993139502647,1.05123300048368,1.01557993351949,1.00392009722102,0.983767967974477,0.996811328954736,1.01897503027151,1.08179797338787,1.43434190743352,1.083936975363,0.997002473812089,0.98969345855239,0.985752233636512,0.992806389086408,0.890666769239945,0.993680194148589,0.988783244945951,0.981237574148579,0.980855284433875
0.938211776972245,0.938020632114893,0.937110418508455,0.938157164155858,0.936891967242909,0.93805704065915,0.937601933855931,0.937365278318257,0.939495178157323,0.939194807667198,0.93967722087861,0.934188632831788,0.930056263058558,0.929947037425786,0.932222571441881,0.930657004038808,0.932258979986139,0.933697117484311,0.933287521361414,0.935572157513574,0.935908936547956,0.935899834411892,0.936245715582338,0.929837811793013,0.989556926511424,0.923821299854457,0.997867176738205,0.930356633548683,0.929009517411155,0.930174590827396,0.924067057528195,0.924686002780573,0.924786126277281,0.922392264492349,0.921782421376035,0.921436540205589,0.920144036884446,0.920016606979545,0.918214384038798,0.91876051220266,0.917613643058548,0.915620275260449,0.919452274543554,0.918960759196077,0.91795042209293,0.917968626365059,0.920480815918829,0.918724103658403,0.918751410066596,0.919807257850064,0.919261129686201,0.919643419400905,0.919525091632068,0.92200087264158,0.918833329291175,1.02557407891818,0.92156397011049,0.906473538729351,0.907962648189484,0.919151904053429,0.915574764580127,0.917267761888102,0.91774107296345,0.926115038142681,0.9265701449459,0.9259056890132,0.918168873358476,0.913554090373834,0.913526783965641,0.914864797967105,0.910923573051228,0.909258792365052,0.905812723651077,0.906250536395774,0.905147357504771,0.905178304767389,0.905473213975876,0.908215687572074,0.905799980660587,0.906802125841275,0.908529711266295,0.909071288362126,0.90872267655086,0.905657077124376,0.861690119078985,0.862030538967793,0.909898672530378,0.90366279911267,0.905657987337982,0.905347604498187,0.904842435946614,0.900922145943684,0.89943849776519,0.896107115965626,0.896192676044632,0.90256144064888,0.903443437633518,0.903075711336517,0.902939179295552,0.903126683298478,0.905268415914427,0.90812466621143,0.911333169174125,0.911041900820064,0.907838859139008,0.906290585794457,0.906586405216549,0.907032409883704,0.90613402905415,0.905976562100236,0.90659641756622,0.907784246322622,0.944073552597707,0.946421903702317,0.925486990754239,0.970943058259763,0.964271192524571,0.92752586923266,0.991668622078361,0.978179256430946,0.975758088237821,1.00373805449973,1.01206650899864,0.944009837645256,0.965518185165391,1.01828326793061,1.000525000469,0.950599784155869,0.948861276167572,1.03133573104694,1.05636660522399,1.02828651546537,1.04674564740394,1.06686136810622,1.03727032376091,1.08425555012525,1.07484394143468,1.07479843075436,1.02167836468263,0.972208255172712,0.972108131676004,0.972463114982514,1.04521648854512,0.971261633022016,0.971106896708921,0.967921149086388,0.9684035622978,0.982566486013979,0.977414677001538,0.968057681127354,0.977114306511414,0.984477934587499,1.00743352174187,0.974183418698683,1.04300466948148,1.04400590444856,1.09980199852322,1.03514952605791,0.990303301668703,0.98917463679672,0.936637107433107,0.959847554397281,0.969723372027135,0.981064633563355,0.982630200966429,0.972863608969347,0.981565251046897,0.980855284433875,0.936864660834716
0.939750037967125,0.939495178157323,0.938958152129524,0.938503045326305,0.938229981244374,0.935954447228278,0.935499340425059,0.934489003321913,0.934962314397261,0.938248185516502,0.933214704272899,0.933232908545028,0.932959844463096,0.931812975318984,0.931075702297769,0.931685545414083,0.93327841922535,0.930247407915911,0.933096376504062,0.93342405340238,0.934407084097333,0.936300328398725,0.9333421341778,0.999478254821601,0.920116730476253,0.920134934748382,0.922301243131705,0.924103466072453,0.92738023505563,0.927307417967115,0.923821299854457,0.924340121610127,0.92332978450698,0.922847371295568,0.922073689730096,0.9211270675794,0.92008942406806,0.917358783248746,0.91832360967157,0.918824227155111,0.916366650417728,0.916494080322629,0.914728265926139,0.920626450095859,0.921436540205589,0.913226413475516,1.23477757422194,0.917914013548673,0.917850298596222,0.918287201127312,0.91898806560427,0.918687695114145,0.917695562283128,0.918341813943699,0.917650051602806,0.914983125735942,0.916029871383346,0.920717471456503,0.920690165048309,0.91155162043967,0.911997625106824,1.01083772062995,0.920817594953211,0.925086496767406,0.925350458713273,0.92627887659184,1.06521388147857,1.0746345923052,0.918014137045381,0.912516446862494,0.905761751689116,0.905276607836885,0.905176484340177,0.905290261040981,0.905573337472584,0.904005949642297,0.905576068113403,0.905432254363586,0.903339673282384,0.906124926918085,0.906805766695701,0.906149502685459,0.906404362495262,0.907298192256784,0.863653449828072,0.863195612384034,0.862773273270646,0.901546552477701,0.901794130578652,0.908268479961247,0.907570346125109,0.900365095216544,0.898750376278723,0.898604742101693,0.899971882938563,0.901749530111937,0.903188577823716,0.904570282078289,0.904699532410403,0.901091445674482,1.17835343275884,0.909065827080487,0.911032798684,0.902927346518668,0.917122127711072,0.904289026073899,0.905439536072437,0.904347279744711,0.907896202596214,0.902930077159487,0.905927410565488,0.945502587959815,0.910459364111944,0.911906603746181,0.914846593694976,0.96383428999348,0.923293375962723,0.930019854514301,0.994927186789409,0.931676443278018,0.982411749700884,0.975266572890344,1.01167511714787,0.940450902444083,0.939986693504799,0.986880898508496,0.997521295567758,1.0248277037609,0.94439212735996,0.945730141361425,1.02400851151511,1.01852902560435,1.04088387177847,1.03098984987649,0.983249146218807,1.06521388147857,1.08036893802576,1.06471326399503,0.971279837294145,1.05353584090797,0.971389062926917,0.971070488164664,0.97120702020563,0.969104426774757,1.01567095488014,0.969322878040303,0.970242193782805,0.964662584375339,0.964462337381923,0.963852494265609,0.961149159854488,1.00366523741122,1.00621383550924,0.957480999020542,0.955624163263408,0.955059830827416,0.96420747757212,1.09151905470463,1.09237465549468,1.00265490030807,1.00190852515079,0.95986575866941,0.952411109232681,0.942517087330698,0.981283084828901,0.974775057542868,1.01930270716982,1.01044632877918,1.00445712324882
0.939649914470417,0.939777344375319,0.94034167681131,0.940723966526014,0.939003662809846,0.934033896518694,0.935180765662806,0.936163796357759,0.936009060044664,0.936391349759368,0.93489859944481,0.932550248340199,0.932877925238517,0.932513839795942,0.933041763687676,0.933296623497479,0.931558115509182,0.933596993987603,0.932932538054903,0.933178295728642,0.93232269493859,0.932868823102453,0.933660708940054,0.928199427301425,0.996720307594093,0.920553633007344,0.925013679678891,0.924758819869088,0.926005812509908,0.926879617572089,0.927225498742536,0.924695104916638,0.922410468764478,0.923712074221684,0.922419570900542,0.911506109759348,0.926752187667188,0.915347211178517,0.91809605626996,0.917932217820802,0.917559030242162,0.916985595670106,0.917713766555256,0.926105936006617,0.912716693855911,0.912816817352619,0.912716693855911,0.916084484199732,0.91493761505562,0.916457671778372,0.917477111017583,0.917085719166814,0.91759543878642,0.917495315289711,0.915720398757157,0.914400589027821,0.915237985545745,0.91479198087859,0.912470936182172,0.911378679854447,0.91088716450697,0.910950879459421,0.922628920030023,0.921154373987593,0.952256372919586,0.923338886643045,1.07129410836958,1.06930984270754,0.956443355509202,0.905253852496724,0.904196184286043,0.901694007081944,0.902312952334322,0.902024414621081,0.90166943131457,0.9014191225728,0.899822607907107,0.899424844561094,1.07538096746248,0.900054712376749,0.905110948960513,0.903985014729349,0.903550842839078,0.902930077159487,0.864024816979499,0.865196261890985,0.865039705150678,0.865847064619588,0.898704865598401,0.902320234043174,0.901530168632785,0.900974938332858,1.1985510726857,0.897410541850046,0.898830475076089,0.901208863229712,0.901981634581578,0.902018043125836,0.899927282471848,0.89920093201391,0.899790750430882,0.921436540205589,0.901917919629128,0.908889245640838,0.901944315823715,0.903975002379678,0.90347620532335,0.903837560125106,0.90453933481567,0.904668585147784,0.904041447972948,0.905202880534763,0.908009069083412,0.91250734472643,0.913344741244353,0.960411886833273,0.964981159137593,0.93975914010319,0.927689707681819,0.956079270066627,0.929209764404571,1.01069208645292,0.93408850933508,0.937847691529669,1.011975487638,0.940359881083439,1.02788602147854,0.942371453153667,0.943390892392878,0.943190645399462,1.02546485328541,1.01920258367312,0.984250381185889,1.02396300083479,0.984195768369503,1.06413072728691,1.05052303387066,1.08506564023498,0.987254086087135,0.976750221068838,0.997685134016917,1.02196053090062,1.00994571129564,0.967684493548714,0.96545447021294,0.9677391063651,0.963752370768901,0.963379183190261,0.963570328047613,0.964562460878631,0.964416826701601,0.996010340981071,0.968412664433865,0.956689113182941,0.95566967394373,0.955014320147094,0.955396609861798,0.955624163263408,0.962869463570656,0.993953258230521,0.974638525501902,0.974747751134674,0.97216274449239,0.968585605019088,0.982056766394373,0.977159817191736,0.968021272583096,1.00877153574333,1.01983063106156
0.93946787174913,0.9421074912078,0.940751272934207,0.940541923804727,0.935726893826669,0.933688015348247,0.93356968757941,0.937146827052712,0.937219644141227,0.9366644138413,0.931731056094405,0.932896129510646,0.93319650000077,0.933232908545028,0.93386095593347,1.03767991988381,0.942617210827406,0.942171206160251,0.933933773021985,0.933615198259732,0.931995018040272,0.932595759020521,0.933005355143418,0.928536206335807,0.927307417967115,0.925259437352629,0.92517751812805,0.925359560849337,0.9259056890132,0.926979741068798,0.927007047476991,0.924467551515028,0.923448112275817,0.922792758479182,0.921636787199005,0.914045605721311,0.914964921463813,0.917031106350428,0.917477111017583,0.917240455479908,0.918086954133896,0.917995932773252,0.917422498201196,1.05743155514352,0.912552855406752,0.913044370754228,0.912698489583782,0.914928512919556,0.914837491558912,0.908437779692045,0.967948455494581,0.915237985545745,0.915492845355547,0.914409691163886,0.914264056986856,0.915074147096586,0.914036503585246,0.914200342034405,0.912689387447718,0.911915705882245,0.910250014982463,0.910395649159493,0.950490558523096,0.96206847559699,0.99941453986915,0.943008602678174,0.922829167023439,1.06973764310257,0.914974023599878,0.921700502151456,0.907578538047567,0.90003650810462,0.899447599901255,0.900297739409668,0.89941301178421,0.901331742066582,0.901841461686187,0.896522173370162,0.895935085594009,1.04365092114205,1.04321401861096,0.904470158581581,1.2063971139732,0.902473149929055,0.901695827509157,0.898561051848584,0.865128906084108,0.900162117582308,0.899671512448438,0.899483098231906,0.900159386941489,0.900351442012448,0.898419968739586,0.899054387623273,0.897644466746901,0.900238575525249,0.908699010997092,0.909857712918088,0.896440254145583,0.897170245457946,0.898920586223127,0.898432711730076,0.898828654648877,0.900183052495257,0.902298388916619,0.902327515752025,0.902436741384798,0.903823906921009,0.90371650171545,0.905037221658392,0.904615792758611,0.905081822125107,0.90678301135554,0.908417754992703,0.910932675187292,0.913963686496731,0.915110555640843,0.958755298069555,0.936891967242909,0.949179850929825,0.98408654273673,0.98431409613834,0.980764263073231,1.00139880553118,1.00095280086403,1.01121090820859,0.949052421024924,0.943937020556741,0.945748345633553,0.946312678069545,1.01769162908643,1.00240004049827,1.0274855274917,1.01799199957655,1.05176092437541,0.98666244724295,0.963570328047613,0.96730220383401,1.07641861097382,1.10552724210772,1.10469894772586,0.997439376343179,0.966082517601383,0.965563695845713,0.963479306686969,0.96516320185888,0.966391990227572,0.965991496240739,0.965545491573584,0.965900474880095,0.966382888091507,0.967411429466783,0.963087914836201,0.955569550447021,0.955596856855215,0.955797103848631,0.956070167930562,0.955760695304373,0.958473131851559,0.966847097030791,0.965217814675266,0.9622960289986,0.964507848062245,0.962432561039565,0.964389520293408,0.963060608428008,1.00807977340244,1.12527887736742,0.979580985384861
0.940077714865443,0.94204377625535,0.942416963833989,0.937638342400189,0.931330562107572,0.932595759020521,0.934206837103917,0.935945345092214,0.936600698888849,0.935371910520158,0.932404614163169,0.932213469305817,0.933123682912255,0.933178295728642,0.934607331090749,0.935599463921767,0.941406626730843,0.94181622285374,0.936691720249493,0.930265612188039,0.930902761712546,0.932832414558195,0.933150989320448,0.927917261083429,0.92561442065914,0.926488225721321,0.926488225721321,0.926269774455776,0.926979741068798,0.927098068837634,0.927134477381892,0.924813432685475,0.924021546847873,0.921873442736679,0.930629697630614,0.915529253899805,0.916548693139016,0.917850298596222,0.91759543878642,0.917704664419192,0.917549928106098,0.917577234514291,0.918150669086347,0.914082014265568,0.914100218537697,0.911269454221674,0.912452731910044,0.913490375421383,0.911342271310189,0.911169330724966,0.911060105092193,0.914373282619628,0.914045605721311,0.91389997154428,0.913126289978808,0.911733663160957,0.911997625106824,0.911906603746181,0.910404751295558,0.910067062047569,0.908764546376756,0.90788710046015,0.907814283371635,1.13476330314651,0.952465722049067,0.917650051602806,0.929819607520884,0.924440245106835,1.08329072370243,0.911160228588901,0.89917271539211,0.896696934382598,0.896874426035854,0.897873840575723,0.896681460751289,0.897617160338707,0.898399944040244,0.895543693743241,0.89521419641771,0.893073374015368,1.13123167435353,1.08410081381216,0.899532249766653,0.900642710366508,1.12344934801848,0.896784314888816,0.894283958111931,0.895059460104616,0.895200543213614,0.900290457700816,0.896408396669357,0.897659030164603,0.898401764467457,0.901452800476238,0.892702006863941,0.899760713381869,0.907032409883704,0.909023047040984,0.898313473747633,0.896513981447704,0.895425365974404,0.897147490117785,0.898792246104619,0.899555915320421,0.900188513776895,0.900562611569141,0.901973442659121,0.903739257055611,0.903772024745442,0.902408524762998,0.902768969351147,0.904853358509891,0.906063032392847,0.907878908537692,0.908750893172659,0.912143259283854,0.96493564845727,0.914482508252401,0.943172441127333,0.933305725633543,0.923693869949556,0.959711022356315,0.91950688735994,0.982648405238558,1.00471198305862,1.00356511391451,0.971106896708921,0.945011072612338,0.945702834953231,0.945839366994197,1.02281613169068,1.00680547435343,1.00234542768188,1.0098273835268,1.04348708269289,1.0213779941925,0.963151629788652,0.96458066515076,0.964489643790116,0.960466499649659,0.95934693691374,0.959847554397281,0.988437363775505,0.966528522268537,0.960393682561144,0.962823952890334,0.96458066515076,0.964444133109794,0.963588532319742,0.96435311174915,0.965236018947395,0.967065548296336,0.967602574324135,0.956807440951777,0.956962177264872,0.955888125209275,0.956734623863262,0.956998585809129,0.957972514368018,0.958118148545048,0.960994423541393,0.96038458042508,0.96250537812808,0.997457580615308,0.956079270066627,0.959965882166118,0.9758400074624,0.963870698537738,0.993707500556782
0.988264423190282,0.943518322297779,1.09860961869879,0.937237848413356,0.9333421341778,0.933688015348247,0.933387644858122,0.933870058069534,0.9359999579086,0.933842751661341,0.932222571441881,0.930666106174872,0.931157621522349,0.931740158230469,0.934370675553076,0.934270552056367,0.934115815743273,1.00884435283185,0.93290523164671,0.930456757045391,0.930028956650365,0.928090201668652,0.929282581493086,0.930156386555267,0.925432377937852,0.927107170973699,0.927016149613055,0.928290448662068,1.13553698471198,0.928381470022712,0.928226733709618,0.93047496131752,0.931021089481383,0.920207751836897,0.920326079605734,0.920043913387738,0.918487448120729,0.917695562283128,0.91670342945211,0.917285966160231,0.916439467506243,0.914928512919556,0.915538356035869,1.01626259372432,0.917959524228995,0.911897501610116,0.911751867433086,0.919188312597686,0.962077577733055,0.909048533021965,0.910523079064395,0.90969114382811,0.909871366122185,0.910413853431622,0.910987288003678,0.91051397692833,0.909326148171928,0.909454488290436,0.908597067073171,0.90723538751794,0.907810642517209,0.906154053753491,0.905727163572072,0.90538765389687,1.02046778058607,0.999177884331476,0.941998265575028,0.917413396065132,0.904537514388457,0.899885412645951,0.900014662978066,0.898159647648144,0.895590114637169,0.892212311943677,0.895259707098032,1.19764085907926,0.895969673711054,0.894242088286035,0.893452933089252,0.891920133376011,1.04000096458023,0.896635950070967,0.896030658022686,0.891606109681789,0.895453582596204,0.901408200009522,0.892879498517197,0.89379608361888,0.894395004171916,0.895173236805421,0.895825859961237,0.902526852531835,0.887801416806878,0.88763211707608,0.889475299629118,0.899895424995622,0.896684191392108,0.890751419105344,0.891290265560355,0.892676520882961,0.895649278521588,0.897050097261896,0.89648940568033,0.905685293746176,0.906144951617427,0.902657923291162,0.904737761381873,0.904476530076826,0.903354236700087,0.90152379713754,0.902129089185822,0.904545706310915,0.905483226325546,0.908215687572074,0.909025777681804,0.909889570394314,0.911615335392121,0.914163933490147,0.937128622780584,0.920790288545018,0.921345518844945,0.91861487802563,0.917731970827385,0.989620641463875,1.00253657253923,0.995081923102504,0.978707180322681,0.943600241522359,0.945184013197562,0.945566302912266,0.946613048559669,0.954768562473356,0.984805611485816,0.996128668749908,1.03762530706743,1.0395731641852,0.962532684536274,0.964799116416305,0.964416826701601,0.964708095055661,0.961121853446295,0.962359743951051,1.00328294769651,0.964316703204892,1.14114390052764,0.959319630505547,0.963260855421424,0.96412555834754,0.964262090388506,0.964799116416305,0.965226916811331,0.966473909452151,0.967702697820843,0.96736591878646,1.02926954616032,1.10313338032278,0.956716419591134,0.958054433592598,0.95845492757943,0.957153322122224,0.955505835494571,0.956152087155142,0.968740341332182,0.958373008354851,0.956416049101009,0.950536069203418,0.957681246013958,0.99580099185159,1.01322248027882
0.93791140648212,1.09978379425109,1.0997291814347,0.933678913212183,0.932832414558195,0.93232269493859,0.932932538054903,0.934880395172681,0.93298715087129,0.932859720966388,0.933023559415547,0.929865118201207,0.929937935289722,0.93032932714049,0.93084814889616,0.93238640989104,0.929337194309472,0.930529574133906,0.931494400556731,0.930047160922494,0.930465859181456,0.929064130227541,0.928217631573553,0.92960115625534,0.927544073504789,0.927362030783501,0.927471256416274,0.927908158947364,1.14067969158836,0.936719026657686,1.07807519973754,0.929974343833979,0.930074467330687,0.921099761171207,0.92023505824509,0.920444407374571,0.920371590286056,0.917995932773252,0.915929747886638,0.916275629057084,0.915984360703024,0.916148199152183,0.914964921463813,0.920580939415537,0.921254497484301,0.91869679725021,0.924503960059286,0.90532393894442,0.906908620833228,0.915947952158766,0.917422498201196,0.916503182458694,0.908644398180706,0.90934617287127,0.906336096474779,0.906855828444055,0.909077659857371,0.907941713276536,0.906952311086338,0.905465932267024,0.904108803779824,0.904264450306526,0.902587836843466,0.90246677843381,0.90225469866351,0.902717087175581,0.904801476334324,0.905238378865414,0.89484373947989,0.897625352261165,0.897375953733001,0.895449941741778,0.895896856622539,0.892318806935631,0.892856743177036,0.892862204458674,0.894894711441851,0.893472047574988,0.889687379399418,0.890454689469645,0.892246900060722,1.13969666089341,0.889614562310903,0.892337921421366,0.896556761487207,0.898566513130222,0.891931966152894,0.891367633716903,0.89161612203146,0.890959858021218,0.890095155095102,0.885462167838332,0.886708250265545,0.887196124758596,0.887397281965619,0.88937244549159,0.889977737539871,0.889109393759329,0.902442202666436,0.894308533879305,0.89512226484346,0.896747906344559,0.896057054217272,0.896661436051947,0.904299948637177,0.902497725696429,0.903614557791529,0.904979878201186,0.908454163536961,0.901106919305791,0.90140637958231,0.902078117223861,0.904421917260439,0.905787237670097,0.907780605468196,0.908949319738863,0.913326536972224,0.913872665136087,0.914873900103169,0.958345701946658,0.924959066862505,0.914782878742525,0.914591733885173,0.977032387286834,0.977432881273667,0.96472629932779,0.942489780922505,0.94329076889617,0.94615794175645,0.946167043892515,0.993498151427301,1.01208471327077,0.984723692261237,1.01320427600669,1.00032475347559,1.03372049069581,0.963561225911549,0.964380418157343,0.963643145136128,0.962032067052732,0.95986575866941,0.959110281376066,0.961831820059316,0.962924076387042,1.12149238876464,0.9609671171332,0.963078812700137,0.961504143160999,0.960120618479212,1.09622485904992,0.964953852729399,0.964808218552369,0.965208712539202,0.96715656965698,0.967748208501165,0.966756075670147,0.966483011588215,0.97091575185157,0.959683715948122,0.959073872831808,0.957553816109057,0.955460324814249,0.953166586526024,0.954568315479939,0.954668438976648,0.957799573782795,0.951045788823024,1.07224073052027,0.942580802283148
0.939176603395069,0.987017430549461,0.93481668022023,0.934425288369462,0.93394287515805,0.934215939239981,0.934470799049784,0.934789373812037,0.936600698888849,0.936182000629888,0.932350001346783,0.928609023424322,0.927280111558922,0.928317755070262,0.929100538771799,0.931376072787894,0.931685545414083,0.931785668910791,0.931021089481383,0.930784433943709,0.930547778406035,0.931266847155121,0.927043456021248,0.929136947316056,0.928508899927614,0.928144814485038,1.00671445299278,0.940359881083439,1.13810378708214,1.13717536920357,0.941443035275101,0.930602391222421,0.930866353168289,0.923821299854457,0.921582174382619,0.921764217103906,0.918969861332141,0.918241690446991,0.918460141712536,0.915911543614509,0.912734898128039,1.02847766032272,0.920717471456503,0.921281803892494,0.920562735143408,0.917695562283128,0.917103923438943,0.916730735860303,0.915319904770324,1.03051653880114,0.906028444275803,0.906211397210697,0.905880079457953,0.907440185579388,0.907582178901993,0.90646352637968,0.907568525697896,0.906616442265562,0.905608835803235,0.904275372869803,0.902173689652537,0.901989826504036,0.90092578679811,0.902020773766655,0.900683669978798,0.901929752406011,0.90488430577251,0.896062515498911,0.896304632318224,0.898233374950266,0.89657132490491,0.891896467822243,0.892603703794446,0.890110628726411,0.890505661431606,0.892538168414782,0.892776644379669,0.891495063621804,0.890784186795176,0.890342733196053,0.888531408119241,0.887434600723483,0.886928521958304,0.889090279273594,0.890069669114122,1.17869021179322,1.17832612635064,0.889090279273594,0.890192547950991,0.887501046316753,0.886642714885882,0.886644535313095,0.88704958036796,0.887563851055597,0.889070254574252,0.886310486919532,0.88719521454499,0.887032286309437,0.890604874714707,0.892022077299932,0.897712732767383,0.89578672077616,0.898470940701546,0.900332327526713,0.902508648259706,0.903180385901258,0.904745043090725,0.902008030776165,0.900835675651073,0.898371727418445,0.898518271809081,0.914582631749109,0.928599921288257,0.90513461451428,0.907052434583046,0.908414114138277,0.940960622063688,0.912125055011726,0.912516446862494,0.914691857381882,0.916494080322629,0.915037738552328,0.961149159854488,0.978106439342431,0.975120938713314,0.968794954148569,0.987891235611642,0.989538722239295,0.946194350300708,0.948570007813512,0.996137770885972,0.981792804448506,1.01287659910837,1.01586209973749,1.02454553754291,0.962277824726471,1.00534913258313,0.961267487623325,0.962032067052732,1.01962128193208,0.958063535728662,0.959711022356315,0.960866993636492,0.961567858113449,0.962205007637956,0.958846319430199,0.959574490315349,0.961540551705256,0.961504143160999,0.962478071719887,0.963370081054197,0.964316703204892,0.96383428999348,0.966391990227572,0.966965424799628,0.966455705180022,0.966182641098091,0.965691125750614,0.981556148910832,0.958281986994207,0.958527744667946,0.952766092539192,0.95315748438996,0.953348629247312,0.954850481697935,0.955915431617468,0.989456803014716,0.975594249788662,0.983394780395837
0.936882865106845,0.935262684887385,0.934907701580874,0.93504423362184,0.935808813051248,0.933296623497479,0.933724423892505,1.23232909962062,1.21543553508513,0.949898919678911,0.946512925062961,0.928472491383356,0.928654534104644,0.928909393914446,0.926979741068798,0.929027721683283,0.9298924246094,0.93151260482886,0.931412481332151,0.931339664243636,0.925077394631342,0.92413987461671,0.95515085218806,0.930256510051975,0.927507664960531,0.927271009422858,1.0146333113688,1.14726053596291,0.947532364302172,0.948051186057842,0.947932858289005,0.92995613956185,0.93076622967158,1.16239738823798,1.16243379678223,0.921691400015391,0.921554867974426,0.919743542897614,0.915875135070251,0.913153596387001,0.913490375421383,1.0547282207324,0.919051780556721,0.920489918054893,0.920717471456503,0.899754341886624,0.914974023599878,0.915820522253865,0.91545643681129,0.903298713670095,0.903132144580116,0.903926761058537,0.904127008051953,0.904945290084141,0.905916488002211,0.904733210313841,0.905780866174852,0.906006599149248,0.90378294730872,0.902383038782018,0.899284671665702,0.899321990423566,0.899163613256046,0.90025131851574,0.900070186008058,0.898327126951729,0.897810125623272,0.896158087927587,0.897950298518664,0.897801023487208,0.895397149352605,0.89527062966131,0.891012650410392,0.889283244558159,0.889291436480617,0.889922214509879,1.05968888488749,0.889520810309439,0.889846666780544,0.888110889433067,0.887317183168252,0.886401508280176,0.886593563351134,0.886611767623263,0.886476145795904,0.886740107741771,0.886639074031456,0.886818386111924,0.887198855399416,0.886857525297001,0.888038072344552,0.885875404815654,0.886041063692026,0.887821441506219,0.888310226212877,0.886193979577908,0.88602467984711,0.893803365327731,0.900257690010985,0.889051140088517,0.899322900637172,0.900373287139002,0.901528348205572,0.901705839858828,0.901538360555243,0.900579905627664,0.901949777105353,0.902008030776165,0.89885596105707,0.897252164682526,0.898705775812007,0.906623723974413,0.899643295826639,0.911132922180708,0.905434985004405,0.906087608160221,0.936418656167562,0.911360475582318,0.911952114426503,0.914200342034405,0.9143550783475,0.915065044960521,0.917977728501123,0.920116730476253,0.97370100548727,0.982156889891082,0.980691445984716,0.975539636972276,0.989948318362192,0.99013036108348,0.977287247096637,0.978625261098101,0.981501536094446,1.00516708986184,0.961431326072483,0.960994423541393,0.961012627813522,1.03419380177115,0.956079270066627,0.95596094229779,0.956807440951777,0.957908799415568,0.959838452261216,1.0874139913396,0.959610898859607,0.961531449569192,0.959883962941539,0.960575725282432,0.9609671171332,0.962314233270729,0.961677083746222,0.964152864755734,0.964826422824498,1.09612473555321,1.09379458872073,0.999496459093729,0.963151629788652,0.993862236869877,0.961904637147831,0.958200067769628,0.959173996328517,0.952884420308029,0.952629560498226,0.957617531061507,0.955169056460189,0.955260077820832,0.956243108515786,0.955706082487987,1.0468821794449
0.934534514002235,0.93541742120048,0.933688015348247,0.934443492641591,0.935053335757904,0.93151260482886,0.933087274367998,0.942599006555277,0.945420668735236,0.945529894368008,0.952702377586741,1.07684641136885,0.930001650242172,0.930074467330687,0.927007047476991,0.926961536796669,0.929482828486502,0.928518002063678,0.929610258391404,0.927016149613055,0.926916026116347,0.926379000088548,0.926788596211445,0.92686141329996,0.923985138303616,0.927999180308008,1.01599863177845,1.03258272368776,1.04041056070313,0.947923756152941,0.959674613812058,0.932350001346783,0.933596993987603,0.94042359603589,1.01610785741123,0.924567675011736,0.920034811251674,0.916530488866887,0.915620275260449,0.916093586335796,1.04163934907182,0.92679769834751,1.03999186244416,0.921928055553065,0.922019076913709,0.896781584247997,0.896379269833951,0.91722225120778,0.916521386730823,0.90315672034749,0.904171608518669,0.905557863841274,0.905932871847127,0.905884630525985,0.904763247362854,0.904054190963438,0.904388239357001,0.904735940954661,0.902717087175581,0.902047169961242,0.899855375596939,0.89821699110535,0.897904787838342,0.897060109611567,0.896675089256044,0.897059199397961,0.897343186043169,0.897771896651802,0.898428160662044,0.895939636662042,0.89463165970959,0.892515413074621,0.891846406073889,0.892224144720561,0.887918834362108,0.888310226212877,0.888235588697149,0.888836329677398,0.887850568341625,0.884713972253839,0.885588687529626,0.884704870117775,0.885202756960497,0.885028906161667,0.885759807687637,0.886603575700805,0.886216734918069,0.886285000938552,0.887329926158743,0.887723138436724,0.886279539656913,0.883754607112653,0.885047110433796,0.886376022299196,0.884022209912946,0.884095937215068,0.88633142183248,0.885532254286027,0.886617228904902,0.888340263261889,0.889672815981715,0.897315879634976,0.900595379258973,0.898952443699352,0.898915124941488,1.05068687231981,0.914609938157302,0.915583866716191,0.916967391397977,0.896483034185085,0.895882293204836,0.896484854612298,0.898389931690573,0.903005624888822,0.926597451354093,0.906645569100968,0.906507216632789,0.932732291061487,0.911078309364322,0.91450071252453,0.914218546306534,0.915338109042453,0.919670725809099,0.969750678435329,0.958500438259752,0.969423001537011,0.978534239737457,0.972590544887416,0.978798201683324,0.997348354982535,0.999105067242961,0.984368708954726,0.993652887740396,1.01192087482161,0.959419754002255,0.960066005662826,0.958400314763044,0.985506475962774,0.958809910885942,0.955624163263408,0.955524039766699,0.95500521801103,0.955369303453605,0.956598091822296,0.958090842136855,1.0810242918224,1.11451105040326,0.959774737308766,0.959984086438247,0.96177720724293,1.08093327046176,1.1066559069797,1.10863107050567,1.1138101859263,0.959183098464581,0.997266435757956,0.991614009261974,0.983868091471185,0.959938575757925,0.959474366818641,0.959774737308766,0.96001139284644,0.957399079795962,0.958473131851559,0.955387507725734,0.956406946964945,0.955706082487987,0.956161189291206,1.06909139144199
0.933642504667925,0.93371532175644,0.933478666218766,0.933660708940054,0.933833649525277,0.934643739635007,1.08319970234179,0.943263462487977,0.944819927754986,0.945466179415557,0.946576640015412,0.949534834236336,0.931940405223886,0.928199427301425,0.926825004755703,0.926934230388476,0.927689707681819,0.928718249057094,0.929655769071726,0.929755892568434,0.928408776430905,0.928754657601352,0.927953669627686,0.927025251749119,0.925405071529659,0.924276406657676,0.926206059503325,1.03289219631395,1.0544460545144,0.955860818801082,1.23177386932069,0.930010752378236,0.939258522619649,0.939495178157323,1.03173622503377,0.923985138303616,0.91736788538481,0.917468008881518,0.9171403319832,0.915674888076835,0.914919410783491,0.922201119634997,1.08100608755027,1.06272899833299,0.934762067403844,0.899619630272871,0.898701224743975,1.1084945384647,0.913818052319701,0.917604540922484,0.904124277411134,0.904561179942224,0.904604870195333,0.905378551760806,0.904692250701551,0.904367304444053,0.903972271738859,0.903830278416254,0.901583871235565,0.900543497083406,0.899230058849316,0.897528869618883,0.895902317904178,0.895343446749825,0.895368932730805,0.89695725547404,0.896779763820784,0.895681135997813,0.892842179759332,0.893041516539142,0.891526921098029,0.89181545881127,0.88918585170227,0.886927611744697,0.886487068359181,0.885777101746159,0.886288641792977,0.88704684972714,0.886174865092173,0.885095351754937,0.884735817380394,0.883737313054131,0.884189689216531,0.885859020970739,0.885727039997805,0.885677888463057,0.885638749277981,0.885851739261887,0.887007710542064,0.886020128779078,0.885985540662033,0.884646616446963,0.884463663512069,0.885680619103877,0.885819881785662,0.885167258629846,0.883527053711044,0.883948482610825,0.883879306376735,0.89264102255231,0.895451762168991,0.894998475792985,0.904684058779093,0.904910701967097,0.906506306419183,0.895983326915151,0.892650124688374,0.912079544331404,0.913162698523065,0.893179869007321,0.893734189093642,0.893889835620343,0.915392721858839,0.902124538117789,0.934434390505526,0.905252032069511,0.905762661902723,0.933442257674509,0.909210551043911,0.910559487608652,0.914036503585246,0.914955819327749,0.9684035622978,0.955123545779867,0.962632808032982,0.972499523526772,0.974829670359254,0.977642230403148,0.987618171529711,0.988819653490209,0.977250838552379,0.971307143702338,1.00514888558971,1.00590436288305,1.00259118535562,0.95868248098104,0.960056903526762,0.956170291427271,0.971234326613823,0.953585284784986,0.952511232729389,0.952711479722805,0.95249302845726,0.955223669276575,0.961840922195381,0.955869920937146,0.956579887550168,0.957262547754997,1.12567026921819,1.11206257580194,0.95845492757943,0.950372230754259,0.951291546496762,0.951956002429462,1.05006792706744,1.18144815902073,1.18092933726506,0.961267487623325,0.959565388179285,0.95845492757943,0.959237711280967,0.960402784697208,0.959620000995672,0.959902167213667,0.956088372202691,0.957217037074675,0.958145454953241,0.95691666658455,0.956243108515786
0.933469564082702,0.933560585443346,0.930320225004425,0.929200662268507,0.934152224287531,1.12731775584585,0.945702834953231,0.971152407389244,0.961103649174166,0.969677861346814,0.938630475231206,0.936755435201944,0.93209514153698,0.929701279752048,0.928081099532588,0.927198192334343,0.92937360285373,0.929710381888112,0.92995613956185,0.929628462663533,0.936973886467489,0.930602391222421,0.928609023424322,0.986635140834757,0.923375295187302,0.923584644316783,0.922328549539898,0.925750952700106,0.927061660293377,1.17264639344647,1.04723716275141,1.04072913546538,1.0435598997814,0.988947083395111,1.02849586459485,0.938148062019794,0.917895809276544,0.917058412758621,0.915438232539161,0.914837491558912,0.915046840688392,0.911578926847863,0.914737368062203,1.07204048352685,1.0653322092474,1.10722934155176,0.906813048404553,0.977523902634311,0.916102688471861,0.917386089656939,0.901702199004402,0.90197617329994,0.904068754381141,0.903962259389188,0.903875789096576,0.904018692632787,0.902515929968558,0.902602400261169,0.898954264126565,0.899485828872725,0.8963437715033,0.895459954091449,0.895747581591083,0.894980271520856,1.12714481526062,0.893662282218733,0.893218097978791,0.893044247179962,0.893955371000006,0.894302162384059,0.981956642897665,0.887997112732262,0.885933658486466,0.885886327378932,0.885392081390636,0.885007971248719,0.885403003953913,0.881756688246522,0.883375958252375,0.882756102786391,0.884637514310899,0.8832521692019,0.88390115150329,0.882775217272126,0.883307692231892,0.885845367766642,0.885452155488661,0.883145674209946,0.884147819390635,0.884303465917336,0.883031897509142,0.883560731614482,0.882618660531819,0.884298004635697,0.884561056367958,0.885311982593269,0.883400534019749,0.883872024667884,0.884851414508412,0.883258540697145,0.894888339946606,0.893573081285302,0.899657859244342,0.902867272420643,0.915156066321165,0.892897702789325,0.893148921744702,0.903843931620351,0.928008282444073,0.889862140411854,0.890613066637165,0.936318532670854,0.914864797967105,0.902638808805427,0.942762845004436,0.908800044707407,0.90562795028897,0.907057895864684,0.907410148530376,0.908423216274342,0.910195402166077,0.910996390139743,0.937874997937863,0.95677103240752,0.956170291427271,0.95920130273671,0.961567858113449,0.972208255172712,0.95110040163941,0.951482691354114,0.961449530344612,0.961813615787187,0.953448752744021,0.955123545779867,0.956161189291206,0.9561884956994,0.984641773036658,1.00110753717712,1.00041577483623,0.949871613270718,0.950417741434581,0.952456619913003,0.951783061844239,0.951710244755723,0.952611356226097,0.954167821493107,0.956070167930562,1.14198129704557,0.954804971017614,0.955578652583086,0.952192657967136,0.952611356226097,0.951646529803273,0.950881950373865,0.950071860264135,0.949434710739628,0.949534834236336,1.11824292618966,0.954905094514321,0.957071402897644,0.958291089130272,0.957217037074675,0.959911269349732,0.961394917528226,0.960703155187333,0.957453692612348,0.957917901551632,0.956088372202691,0.954313455670137
0.929546543438953,0.928599921288257,0.929136947316056,0.929737688296305,0.929837811793013,0.930775331807645,0.955778899576502,1.14759731499729,0.951073095231217,0.99366198987646,0.954723051793034,0.9379933257067,0.929692177615983,0.929592054119275,0.928845678961996,0.927016149613055,0.927926363219493,0.930447654909327,0.933460461946637,0.931749260366534,0.93084814889616,0.930793536079773,0.930893659576482,0.930538676269971,0.926852311163896,0.923793993446264,0.92399424043968,0.923484520820075,0.924822534821539,0.925641727067333,0.919206516869815,0.921208986803979,0.917631847330677,0.919798155714,0.920626450095859,0.937428993270708,0.918724103658403,0.915702194485028,0.914254954850791,0.914182137762276,0.912716693855911,0.910950879459421,0.910905368779099,1.06025321732348,1.06233760648222,1.05269844439004,0.90655818859475,0.905734445280923,0.905061797425765,0.903934042767388,0.901949777105353,0.902274723362852,0.902230122896136,0.903360608195332,0.903683734025618,0.901438237058535,0.900607212035857,0.898958815194597,0.898671187694963,0.89553641203439,0.895390777857359,0.894932030199715,0.894362236482084,0.885788934523043,0.886719172828823,1.12878319975221,0.889640958505489,0.889867601693492,0.886812924830286,0.889444352366499,0.88874894917118,0.886254963889539,0.886214914490856,0.884485508638623,0.883602601440378,0.884315298694219,0.881522763349667,0.883168429550107,0.882523088103143,0.882187219282367,0.881862273024868,0.882939055721285,0.880613459956835,0.886488888786394,0.883149315064372,0.886751030305048,0.880656239996338,0.883726390490854,0.883563462255301,0.883066485626186,0.881090411886609,0.882794331757861,0.881194176237743,0.885849008621068,0.885885417165325,0.888612417130214,0.882346506663494,0.88379647693855,0.885048930861009,0.886327780978054,0.88495153800512,0.90533668193491,0.904337267395041,0.915829624389929,0.902248327168265,0.9099159665889,0.898696673675943,0.901583871235565,0.904167967664243,0.925960301829587,0.930292918596232,0.92775342263427,0.917731970827385,0.94291758131753,0.940496413124405,0.899777097226785,0.900408785469653,0.938348309013211,0.906863110152906,0.906996911553053,0.907935341781291,0.909700245964174,0.911861093065859,0.912443629773979,0.956516172597717,0.953166586526024,0.962478071719887,0.962687420849368,0.966237253914477,0.981128348515806,0.960775972275848,0.960512010329981,0.996947860995702,0.952829807491642,0.953230301478475,0.953648999737437,0.953667204009565,0.996765818274415,0.94601230757942,0.945739243497489,0.946176146028579,0.94829694373158,0.949889817542847,0.949161646657697,0.94939830219537,1.09358523959125,1.10306966537033,0.95139166999347,0.953175688662089,1.15636267202729,0.95234739428023,0.951846776796689,0.950672601244384,0.951173218727925,0.947359423716949,0.948897684711829,0.948761152670864,0.949898919678911,1.14095275567029,0.972135438084197,0.959183098464581,0.959692818084186,0.961886432875703,0.96221410977402,0.960147924887405,0.959620000995672,0.958227374177821,0.955305588501154,0.952420211368745
0.929455522078309,0.928654534104644,0.928527104199742,0.929783198976627,0.92974679043237,0.929983445970043,0.928499797791549,0.927125375245827,1.14958158065933,0.931758362502598,0.931503502692795,0.931148519386284,0.931121212978091,0.931985915904207,0.932695882517229,0.928882087506253,0.928235835845682,0.928763759737416,0.930966476664997,0.92974679043237,0.932595759020521,0.931503502692795,0.929701279752048,0.931266847155121,0.926642962034415,0.926379000088548,0.924549470739607,0.923866810534779,0.923220558874208,0.924194487433096,0.922346753812027,0.92060824582373,0.919333946774716,0.920225956109026,0.920307875333605,0.921827932056357,0.918605775889566,0.915683990212899,0.912188769964177,0.912689387447718,0.912234280644499,0.912343506277271,0.910523079064395,0.910941777323356,0.911333169174125,0.910905368779099,0.905314836808355,0.905114589814939,0.904639458312378,0.902947371218009,0.90200165928092,0.905379461974412,0.899397538152901,0.902521391250196,0.899744329536953,0.899202752441123,0.899742509109741,0.896055233790059,0.897180257807617,0.895857717437462,0.89554642438406,0.895818578252386,0.895882293204836,0.886434275970008,0.886434275970008,0.887091450193856,0.886230388122165,0.887209777962693,0.889115765254574,0.888010765936359,0.888582380081202,0.888806292628386,0.886538950534748,0.882927222944401,0.882877161196047,0.882571329424284,0.882410221615944,0.881358014686902,0.881084040391364,0.881454497329184,0.88250579404462,0.880006347481341,0.880153802085584,0.879482974657639,0.883538886487928,0.882778858126552,0.881745765683244,0.881211470296265,0.882729706591804,0.880392278050471,0.880638035724209,0.880533361159469,0.880412302749812,0.879922607829549,0.879453847822233,0.880253925582292,0.883993993291147,0.883497016662031,0.884664820719092,0.883762799035111,0.884756752293342,0.890187996882959,0.918933452787884,0.930593289086357,0.93143068560428,0.926351693680355,0.903661888899063,0.979772130242213,0.917413396065132,0.912416323365786,0.889642778932702,0.930584186950293,0.892457159403809,0.894164720129487,0.939558893109773,0.899295594228979,0.902429459675946,0.903914928281653,0.904921624530374,0.904757786081215,0.905110038746907,0.909014855118527,0.908925654185095,0.953466957016149,0.955724286760116,0.934106713607209,0.920225956109026,0.921054250490885,0.97511183657725,0.976995978742577,0.955970044433854,0.965591002253906,0.972062620995682,0.950645294836191,0.998968535201995,1.01247610512154,0.949589447052722,0.999305314236377,0.945238626013948,0.946066920395807,0.946540231471154,0.94829694373158,0.947140972451404,0.947241095948112,0.946185248164643,0.946622150695734,0.948988706072473,1.05958876139078,0.95110040163941,0.950153779488714,0.950454149978839,0.950135575216585,0.951109503775474,0.951983308837655,0.947914654016876,0.946294473797416,0.947869143336554,1.18184865300756,0.95058157988374,0.955159954324124,0.95839121262698,0.959620000995672,0.961030832085651,0.961495041024934,0.958946442926907,0.95986575866941,0.958837217294135,0.952565845545775,1.23339404954015
0.929391807125859,0.929965241697915,0.930857251032224,0.9312213364748,0.929710381888112,0.929846913929078,0.927025251749119,0.927034353885184,0.929027721683283,0.930074467330687,0.931312357835443,0.928572614880064,0.928973108866897,0.930447654909327,0.929801403248756,0.929255275084893,0.928035588852266,0.928636329832515,0.931403379196087,0.929947037425786,0.93010177373888,0.932040528720594,0.930311122868361,0.930292918596232,0.926706676986866,0.926670268442609,0.92443114297077,0.924840739093668,0.923857708398714,0.923593746452847,0.923074924697177,0.923511827228268,0.920125832612318,0.91994378989103,0.919770849305807,0.920772084272889,0.920762982136825,0.914318669803242,0.91213415714779,0.912907838713263,0.913108085706679,0.911797378113408,0.910061600765931,0.908903809058541,0.90958373862255,0.909853161850056,1.05379980285383,0.904542975670096,0.904363663589627,0.902660653931981,0.902978318480628,0.903335122214352,0.901879690657657,0.898623856587428,0.898318935029271,0.898529194372358,0.897386876296278,0.896009723109737,0.895899587263358,1.06484069389993,0.898397213399425,1.05894250973021,0.896241827579379,0.884705780331381,0.887132409806146,0.885719758288954,0.886056537323336,0.886634522963424,0.887372706198245,0.887948871411121,0.889095740555233,0.889131238885884,0.88492332138332,0.884896014975127,0.8831957359583,0.882857136496705,0.883023705586684,0.881553710612286,0.882042495318943,0.880921112155811,0.87987891757644,0.87789829276883,0.87744591660643,0.879187155235546,0.873638493090699,0.873672170994137,0.887554748919533,0.880606178247984,0.881508199931964,0.881200547732988,0.880642586792241,0.87866742326627,0.878565479342349,0.877874627215062,0.879238127197507,0.880506054751276,0.878516327807602,0.881231494995607,0.882925402517188,0.884260685877833,0.882737898514262,0.891468667427217,0.895487260499642,0.897689977427222,0.900465218713252,0.885967336389905,0.902900950324081,0.917404293929067,0.918023239181445,0.884170574730796,0.892803950787862,0.927125375245827,0.892860384031461,0.89429943174324,0.896838927705203,0.899137217061459,0.900179411640831,0.929637564799597,0.905405858168999,0.900031046822982,0.903636402918083,0.935444727608673,0.922583409349701,0.950244800849358,0.952292781463844,0.950408639298517,0.917349681112681,0.957899697279503,0.974401869964228,0.968958792597727,0.983340167579451,0.984732794397302,0.942662721507728,0.946021409715485,1.01014595828906,1.02109582797451,1.02162375186624,0.945302340966399,0.943336279576492,0.945602711456523,0.945830264858133,0.94623986098103,0.944510455128797,0.945711937089296,0.946931623321923,0.947969266833262,0.94873384626267,0.946431005838382,0.947059053226824,0.947705304887395,0.948096696738164,0.948924991120023,0.950344924346066,0.951837674660625,0.951337057177084,0.948806663351186,0.948806663351186,0.949134340249503,0.949953532495298,0.949716876957624,1.0147334348655,1.01199369191013,0.959665511675993,0.959674613812058,0.959246813417032,0.959956780030054,0.955314690637219,0.949352791515048,0.949134340249503
0.93379724098102,1.03464890857437,0.936700822385557,0.934580024682556,0.931958609496014,0.930210999371653,0.93010177373888,0.927070762429441,0.927016149613055,0.932896129510646,0.928408776430905,0.957517407564799,0.931594524053439,0.93010177373888,0.927990078171944,0.928681840512837,0.930192795099524,0.929846913929078,0.92908233449967,0.931812975318984,0.932604861156585,0.931503502692795,0.926870515436025,0.927425745735952,0.927061660293377,0.927744320498206,0.924167181024903,0.924403836562577,0.923903219079036,0.923903219079036,0.923138639649628,0.920990535538434,0.920644654367987,0.921017841946627,0.920571837279472,0.919252027550137,0.917650051602806,0.914974023599878,0.912498242590366,0.913845358727894,0.912953349393585,0.912835021624748,0.910859858098777,0.909301572404555,0.908128307065856,0.907753299060003,0.903793869871997,0.904103342498186,0.904046909254587,0.903299623883701,0.902246506741052,0.901307166299208,0.899859926664971,0.900228563175579,0.899366590890282,0.899063489759338,0.898825924008057,0.899220046499645,1.09664355730888,0.900758307494526,0.900052891949536,1.15632626348303,1.05820523670899,0.88553407471324,0.887015902464521,0.886270437520849,0.884886912839063,0.889245015586689,0.88645157002853,0.887471009267741,0.887356322353329,0.888734385753477,0.883398713592536,0.881398064085585,0.881085860818577,0.882041585105337,0.881597400865395,0.879860713304311,0.880002706626915,0.875037491403795,0.875344233389164,0.875366078515719,0.878409832815648,0.878145870869781,0.877065447318939,0.877412238702992,0.879991784063638,0.880611639529622,0.880036384530353,0.879405606501092,0.878970524397214,0.879418349491582,0.879721450622526,0.877000822152882,0.878290594833205,0.876674965681777,0.876697721021938,0.881092232313822,0.879579457299921,0.879659556097288,0.890921629049748,0.890000492880032,0.927443950008081,0.876861559471097,0.875394295137518,0.87606603277907,0.877071818814184,0.879299111509138,0.878574581478414,0.918068749861767,0.922537898669379,0.926906923980282,0.928017384580137,0.92879106614561,0.896442984786402,0.898187864269944,0.899246442694232,0.899834440683991,0.900738282795184,0.901677623237028,0.901606626575726,0.90421984983981,0.939458769613065,0.946458312246575,0.953275812158797,0.931457992012473,0.951082197367281,0.956552581141975,0.955451222678184,0.957644837469701,0.981929336489472,0.967775514909358,0.937820385121476,0.939567995245838,0.999369029188828,0.941251890417748,0.942881172773273,0.943709467155131,0.94453776153699,0.942953989861788,0.942262227520895,0.946285371661352,0.947605181390687,0.947140972451404,0.947650692071009,0.948679233446284,0.948315148003709,0.94586667340239,0.946858806233408,0.949116135977375,0.945411566599171,0.946594844287541,0.948324250139773,0.948260535187323,0.948797561215121,0.949152544521632,0.949534834236336,0.947541466438236,0.946622150695734,0.946440107974446,0.94962585559698,0.955624163263408,0.957972514368018,0.95801802504834,1.07430691540689,0.965445368076876,0.953994880907883,0.954231536445557,0.952602254090033
0.935717791690604,0.936136489949566,0.934425288369462,0.934589126818621,0.933515074763024,0.931530809100989,0.933997487974436,0.924667798508444,0.924412938698642,0.922911086248019,0.923721176357749,0.920917718449919,0.921381927389202,0.931112110842027,0.927343826511373,0.929264377220957,0.929273479357022,0.929755892568434,0.929264377220957,0.93047496131752,0.932231673577946,0.930675208310937,0.927990078171944,0.928326857206326,0.928554410607935,0.930028956650365,0.927225498742536,0.927125375245827,0.925623522795204,0.924403836562577,0.922128302546482,0.923766687038071,0.919579704448455,0.91965252153697,0.919069984828849,0.917340578976617,0.917158536255329,0.916211914104634,0.914173035626212,0.914254954850791,0.913490375421383,0.913162698523065,0.913253719883709,0.911251249949545,0.907612215951005,0.90808370659914,0.907681392185095,0.905897373516476,0.904653111516475,0.90347620532335,0.903155810133884,0.901863306812742,0.90148556816607,0.90238758985005,0.901666700673751,0.900095671989039,0.902355732373825,0.902635167951001,0.903642774413328,0.90172313391735,0.877697135561807,0.878942307775415,0.879207179934888,0.88204067489173,0.883486094098754,0.883558000973663,0.884135076400145,0.884678473923188,0.883417828078271,0.886366009949525,0.885235524650329,0.8860938560812,0.883263091765177,0.883373227611556,0.882876250982441,0.881308863152154,0.880788220969271,0.878134038092897,0.876437399930497,0.875614566830276,0.874687059165316,0.874081767117035,0.874547796483531,0.872051990774677,0.873602994760048,0.904131559119986,0.876718655934886,0.876817869217988,0.877706237697872,0.87524046903803,0.876986258735179,0.883735492626918,0.883270373474028,0.884120512982442,0.882096197921723,0.87334449409582,0.885392991604242,0.880345857156542,0.877201069146298,0.87939832479224,0.8783888979027,0.877264784098749,0.876623993719817,0.875564505081922,0.874992890937079,0.876475628901967,0.876446502066561,0.877080010736642,0.878098539762246,0.883317704581563,0.883526143497438,0.926488225721321,0.893807006182157,0.895700250483548,0.896110756820052,0.898120508463068,0.898599280820054,0.898875985756411,0.900731001086333,0.901218875579383,0.903579969674484,0.904874293422839,0.90600113786761,0.906722027043909,0.946130635348257,0.912024931515018,1.00225440632124,0.963297263965682,0.944874540571373,0.94615794175645,0.960848789364363,0.942171206160251,0.936982988603553,0.936646209569171,0.937838589393605,0.938330104741082,1.00668714658459,0.941124460512847,0.941697895084903,0.941206379737426,0.943345381712556,0.947441342941528,0.948278739459451,0.948251433051258,0.947732611295589,0.948324250139773,0.948888582575765,0.946613048559669,0.943509220161715,0.947104563907146,0.947095461771082,0.945766549905682,0.945593609320459,0.946258065253159,0.948952297528216,0.948952297528216,0.947896449744748,0.947377627989078,0.947960164697198,0.948205922370936,0.949016012480666,1.02537383192477,0.95706230076158,0.956161189291206,0.953412344199763,0.950790929013221,0.952456619913003,0.953630795465308,0.954204230037364
0.935444727608673,0.936045468588922,0.93504423362184,0.935253582751321,0.936482371120012,1.00525811122248,0.930283816460168,0.930311122868361,0.929018619547219,0.922838269159504,0.922838269159504,0.922692634982474,0.922993005472598,0.923511827228268,0.926697574850802,0.927707911953948,0.928108405940781,0.929874220337271,0.929828709656949,0.928891189642318,0.930265612188039,0.928599921288257,0.929282581493086,0.928508899927614,0.929764994704498,0.929464624214374,0.927744320498206,0.926825004755703,0.926306183000033,0.925059190359213,0.924331019474062,0.925113803175599,0.924895351910054,0.920362488149992,0.919406763863232,0.916575999547209,0.915128759912972,0.915793215845672,0.914528018932723,0.914173035626212,0.914427895436014,0.914236750578662,0.911515211895412,0.907900753664246,0.908029093782754,0.907692314748372,0.906815779045372,0.906053930256783,0.90471045497368,0.904761426935641,0.903397926953196,0.899070771468189,0.900405144615227,0.901740427975872,0.901745889257511,1.06870910172729,1.07873965567024,0.90254596701757,1.16956987145671,0.904903420258245,0.8808064252414,0.879933530392826,0.880419584458664,0.881310683579367,0.883068306053399,0.883006411528161,0.883207568735184,0.881180523033646,0.879685042078268,0.879939901888071,0.879603122853689,0.883574384818579,0.88368907173299,0.883162968268469,0.882997309392097,0.879516652561077,0.878839453637887,0.879074288748348,0.876425567153613,0.876155233712501,0.874010770455732,0.874497734735177,0.874757145613012,0.874618793144833,0.874777170312354,0.874766247749076,0.876345468356246,0.87502838926773,0.87471163493269,0.875289620572778,0.880017270044618,0.882120773689097,0.882844393506215,0.882006996988292,0.881127730644473,0.871397547191648,0.873410029475483,0.874677046815645,0.876604879234081,0.878568209983169,0.879696874855152,0.879594020717624,0.87643648971689,0.876907070151419,0.875275057155075,0.876262638918061,0.90240033284054,0.900188513776895,0.881262442258226,0.881768521023405,0.889718326662037,0.889609101029264,0.912334404141207,0.893023312267014,0.894942042549385,0.897163873962701,0.89755253517265,0.897597135639366,0.899157241760801,0.925869280468943,0.903442527419912,0.90532393894442,0.904296307782751,0.905642513706673,0.937428993270708,0.938603168823013,0.913690622414799,0.916339344009535,0.917795685779836,0.920244160381155,0.971170611661372,0.932122447945173,0.933305725633543,0.934862190900552,0.936109183541373,0.936245715582338,0.937419891134644,0.937292461229742,0.940778579342401,0.94129740109807,0.942289533929088,0.946321780205609,0.946076022531871,0.947550568574301,0.945757447769618,0.946267167389223,0.947787224111975,0.946440107974446,0.945293238830334,0.945739243497489,0.944829029891051,1.0483385212152,1.12547002222478,1.11079737888899,0.975248368618216,0.946021409715485,0.948315148003709,0.949116135977375,0.94630357593348,1.16501880342452,1.16478214788684,1.16579248498999,0.959392447594062,1.05746796368778,0.96568202361455,0.96782102558968,0.956880258040292,0.955851716665017,0.954950605194643
0.93622751131021,0.93489859944481,0.934935007989067,0.936154694221695,0.937847691529669,0.954941503058579,0.930720718991258,0.929728586160241,0.929774096840563,0.927025251749119,0.926597451354093,0.921582174382619,0.922437775172671,0.923466316547946,0.924722411324831,0.927862648267042,0.928135712348974,0.928372367886648,0.930019854514301,0.929928833153657,0.930775331807645,0.929792301112691,0.929637564799597,0.929073232363605,0.930893659576482,0.930829944624031,0.929673973343854,0.92627887659184,0.925050088223148,0.923939627623294,0.924148976752775,0.925059190359213,0.924494857923221,0.921591276518683,0.921764217103906,0.91898806560427,0.915720398757157,0.914955819327749,0.914555325340916,0.914655448837624,0.916011667111217,0.915347211178517,0.914919410783491,0.910796143146326,0.90844142054647,0.908356770681072,0.909360736288973,0.911096513636451,0.904490183280922,0.903689195307257,0.902285645926129,0.901571128245075,0.901619369566216,0.902119987049757,1.06952829397308,1.06957380465341,0.984641773036658,0.901973442659121,0.976113071544332,1.14419311610921,0.903443437633518,0.880807335455007,0.880797323105336,0.881691152866858,0.883025526013896,0.882695118474759,0.882838932224577,0.883494286021212,0.878468996700067,0.877809091835399,0.877859153583753,1.00221799777698,0.883177531686172,0.883293128814189,0.880654419569125,0.87942654141404,0.878425306446958,0.877388573149225,0.876545715349663,0.876452873561806,0.87651567830065,0.875071169307233,0.874660662970729,0.87319612927797,0.873548381943662,0.874279283469632,0.875048413967072,0.873825086880019,0.879978130859541,0.8779647383621,0.879517562774684,0.880367702283097,0.883282206250912,0.882496691908556,0.883197556385513,0.880395918904896,0.873308085551562,0.874440391277971,0.876473808474754,0.878061221004383,0.882418413538402,0.879578547086315,0.878539993361369,0.879244498692752,0.878797583811991,0.87999633513167,0.881165959615943,0.881794917217992,0.883457877476955,0.88587904567008,0.887553838705927,0.889834834003661,0.892152237845652,0.892884959798835,0.894959336607908,0.894718130002202,0.897026431708129,0.897830150322614,0.898866883620347,0.901654867896867,0.902699793117058,0.904657662584507,0.905029029735934,0.906263279386264,0.908291235301408,0.950472354250967,0.949735081229753,0.933069070095869,0.917486213153647,0.917786583643772,0.917131229847136,1.00728788756484,0.933478666218766,0.933287521361414,0.933214704272899,0.933633402531861,0.934352471280947,0.934962314397261,0.939358646116357,0.940551025940791,0.941479443819358,0.946076022531871,0.946576640015412,0.946194350300708,0.945666426408974,0.946367290885931,0.94690431691373,0.946622150695734,0.944583272217312,0.944628782897634,1.11096121733815,1.10060298649689,1.106273617265,1.11630417120794,1.16870516853059,0.943800488515775,0.945475281551622,0.945875775538454,0.946840601961279,0.946995338274374,1.16638412383417,0.986862694236367,1.03457609148586,0.962277824726471,0.962095782005183,0.96479001428024,0.95714421998616,0.953521569832535,0.953184790798153
0.936127387813501,0.933596993987603,0.93527178702345,0.935863425867634,0.939313135436035,0.939431463204872,0.933178295728642,0.930092671602816,0.930156386555267,0.929582951983211,0.929464624214374,0.927625992729369,0.92237406022022,0.936163796357759,0.92686141329996,0.926688472714737,0.926970638932733,0.927999180308008,0.928863883234124,0.930720718991258,0.932777801741809,0.932741393197551,0.929947037425786,0.929391807125859,0.931903996679628,0.931412481332151,0.922164711090739,0.924276406657676,0.923593746452847,0.92384860626265,0.924704207052702,0.926379000088548,1.06335704572143,0.921627685062941,0.921372825253138,0.917777481507707,0.916393956825921,0.916375752553792,0.917386089656939,0.923730278493813,0.923803095582328,0.915392721858839,0.914682755245817,0.914072912129504,0.909557342427964,0.90933342988078,0.910034294357737,1.17235512509241,0.90788436981933,0.907275436916623,0.901251643269215,0.901585691662778,0.902165497730079,0.903751089832494,0.904753235013183,1.06951008970096,1.070647856709,0.896578606613761,1.07761099079826,0.889621844019754,0.887579324686907,0.887804147447697,0.880192941270661,0.8810467216335,0.881074028041693,0.878195932618135,0.879026957640813,0.879999975986096,0.878915911580828,0.878257827143373,0.88054337350914,0.882847124147035,0.882423874820041,0.880865589125819,0.881276095462322,0.880038204957566,0.879498448288948,0.87692709485076,0.875873067494505,0.875675551141908,0.874038076863926,0.8749109717125,0.874490453026325,0.872143012135321,0.873587521128739,0.873797780471826,0.873227986754196,0.872133909999257,0.878260557784192,0.879290009373074,0.879593110504018,0.858000113118484,0.880150161231158,0.883133841433063,0.883341370135331,0.878366142562539,0.873478295495966,0.875115769773948,0.87613247837234,0.881277915889535,0.882687836765908,0.8832239525801,0.87957217559107,0.879635890543521,0.879807010701531,0.879852521381853,0.878286043765173,0.879658645883682,0.881768521023405,0.886291372433797,0.888871828008049,0.889857589343822,0.89216316040893,0.892963238168989,0.893268159727145,0.894039110651799,0.895620151686182,0.896528544865407,0.912225178508434,0.900676388269946,0.900762858562558,0.902236494391381,0.903705579152173,0.905071809775436,0.92141833593346,0.908129217279462,0.909773973266296,0.943154236855204,0.911833786657665,0.916667020907852,0.923511827228268,0.924148976752775,0.928071997396523,0.936182000629888,0.931348766379701,0.933433155538444,0.933114580776191,0.933788138844955,0.939249420483585,0.940123225545765,0.94123368614562,0.946030511851549,0.967684493548714,0.94534785164672,1.04335965278799,0.946321780205609,0.946431005838382,0.945757447769618,0.939740935831061,0.940969724199753,1.10736587359272,1.1002662074625,1.11121607714795,0.972517727798901,1.01031889887428,1.16977922058619,0.945466179415557,0.945247728150012,0.945538996504072,0.947450445077593,0.948551803541383,1.17823510499,0.959701920220251,0.962168599093698,0.963342774646004,0.963533919503356,0.956006452978112,0.955505835494571,0.95043594570671
0.936400451895433,0.936090979269244,0.935699587418475,0.936054570724986,0.937529116767416,0.939003662809846,0.932832414558195,0.931439787740345,0.930393042092941,0.930711616855194,0.929164253724249,0.929646666935661,0.929564747711082,0.929965241697915,0.928800168281674,0.927198192334343,0.926788596211445,0.928800168281674,0.929883322473335,0.931385174923958,0.931694647550147,0.931312357835443,0.930839046760095,1.00219069136879,0.934825782356295,0.933779036708891,0.926324387272162,0.924121670344581,0.924422040834706,0.923957831895423,0.924758819869088,0.92738023505563,0.927179988062214,0.926806800483574,1.01974871183698,0.91965252153697,0.920153139020511,0.922783656343117,0.920735675728631,0.921099761171207,0.921928055553065,0.916639714499659,0.916494080322629,0.915074147096586,0.91383625659183,0.910107111446252,0.913881767272152,0.918815125019047,0.994581305618963,0.963242651149296,0.904446493027813,0.902874554129494,0.904083317798844,0.904655842157294,0.904390059784214,0.904040537759342,1.10387975548006,0.897139298195327,0.944774417074664,0.888174604385517,0.887799596379665,0.88801804764521,0.886170314024141,0.886836590384053,0.881091322100215,0.880087356492314,0.880051858161663,0.880533361159469,0.881422639852959,0.883284936891731,0.882336494313823,0.88335684376664,0.88379374629773,0.879238127197507,0.879050623194581,0.88071449366715,0.880099189269198,0.875776584852223,0.876271741054125,0.874063562844906,0.873714040820034,0.874109983738834,0.871918189374531,0.872344169342344,0.872739202047538,0.87475259454498,0.906308790066586,0.88252126767593,0.862845180145555,0.876972605531082,0.861669184166037,0.860366668495224,0.861075724894639,0.882943606789317,0.882231819749082,0.886496170495245,1.01714550092257,0.878547275070221,0.876408273095091,0.877355805459393,0.882845303719822,0.882819817738841,0.881779443586683,0.880147430590339,0.880087356492314,0.879708707632036,0.878035735023402,0.878416204310893,0.880155622512797,0.888019868072423,0.889933137073156,0.889308730539139,0.891173758218731,0.892166801263355,0.894781844954652,0.895393508498179,0.894911095286767,0.896322836590352,0.899324721064385,0.89893514964083,0.900072006435271,0.901307166299208,0.902317503402354,0.904768708644492,0.905444087140469,0.907875267683266,0.943554730842037,0.909499998970758,0.911041900820064,0.913344741244353,0.915219781273616,0.923302478098787,0.925204824536243,0.927853546130978,0.929983445970043,0.929783198976627,0.930338429276554,1.02792243002279,0.958782604477748,0.937510912495287,0.93961350592616,0.946558435743283,1.02992489995696,0.976031152319752,0.978634363234165,1.02501884861826,0.987163064726492,1.01229406240025,0.937237848413356,0.938384717557468,1.12296693480707,1.0808968619175,1.14507602330746,1.16431793894756,1.15935727479247,1.15734570272224,0.944428535904218,0.945147604653304,0.943691262883003,0.944792621346793,1.23158272446334,1.17539523853791,0.961713492290479,0.961322100439711,0.961895535011767,0.962905872114913,0.963142527652587,0.952037921654041,0.948988706072473
0.937256052685485,0.936573392480656,0.936937477923231,0.937265154821549,0.939121990578683,0.938839824360687,0.937155929188777,0.933596993987603,0.93194950735995,0.932058732992723,0.930238305779846,0.927835341858849,0.927562277776918,0.930165488691331,0.930520471997842,0.931849383863242,0.932350001346783,0.932604861156585,0.930283816460168,0.931248642882993,0.931649136869825,0.930429450637198,0.930565982678164,0.933205602136835,0.934388879825204,0.93504423362184,0.928636329832515,0.928208529437489,0.925832871924685,0.925750952700106,0.926306183000033,0.928144814485038,0.927216396606471,0.92937360285373,0.950053655992006,0.921063352626949,0.921773319239971,0.921436540205589,0.926579247081965,0.920307875333605,0.920954126994176,0.921509357294104,0.917295068296295,0.915465538947354,0.915465538947354,0.914491610388465,0.918851533563304,0.919661623673034,0.919579704448455,0.914910308647427,0.908127396852249,0.904992621191676,0.906324263697895,0.90858978536432,0.908085527026353,0.909065827080487,0.989420394470458,0.898354433359922,0.934115815743273,0.890329990205563,0.889643689146309,0.886131174839064,0.885874494602048,0.886020128779078,0.885170899484271,0.935963549364342,0.881234225636426,0.882198141845644,0.882483948918066,0.881997894852228,0.881993343784195,0.881665666885878,0.883540706915141,0.878599157245787,0.878628284081194,0.878456253709577,0.877625228686899,0.877693494707382,0.876241704005113,0.872192163670069,0.873348134950245,1.00174468670163,1.00547656248803,0.881504559077538,1.01620798090793,0.880999390525965,0.861073904467426,0.862558462859527,0.863566979535461,0.864608263901226,0.86435158366421,0.861243204198224,0.860921898795151,0.879682311437449,0.880890164893192,0.868527643690549,1.03886319757218,1.03922728301476,0.87911979942867,0.879392863510602,0.88331588415435,0.883758247967079,0.879804280060712,0.87941379842355,0.879346442616673,0.880023641539863,0.879359185607163,0.879686862505481,0.879934440606432,0.893665012859553,0.887415486237748,0.889109393759329,0.889450723861744,0.890724112697151,0.893270890367965,0.893374654719099,0.894600712446971,0.921482050885911,0.896649603275063,0.898603831888086,0.897790100923931,0.899961870588892,0.901376342533297,1.1065011706666,0.910959981595485,0.907622228300676,0.951546406306564,0.908798224280194,0.909908684880049,0.942553495874955,0.919124597645236,0.920544530871279,0.949817000454332,0.927016149613055,0.927352928647437,0.998995841610188,0.930866353168289,1.02259768042513,0.936637107433107,1.0240358179233,0.968166906760126,1.01120180607252,0.994299139400967,1.04573531030079,1.03835347795258,1.02136889205644,0.939285829027842,0.938858028632816,0.938921743585266,0.935654076738153,0.936709924521622,0.927680605545755,0.928754657601352,1.15187531894755,1.14502141049107,1.1261799888378,0.947896449744748,0.946640354967863,0.944674293577956,0.945893979810583,1.15770978816482,1.15799195438281,1.22714088206392,0.961531449569192,0.960703155187333,0.971762250505557,0.95515085218806,0.955633265399472,0.949980838903491
0.943381790256814,0.939194807667198,0.939194807667198,0.939631710198288,0.941133562648912,0.940924213519431,0.940214246906409,0.935326399839836,0.931603626189504,0.931385174923958,0.930320225004425,0.931385174923958,0.930684310447001,0.931467094148538,0.930684310447001,0.93238640989104,0.933160091456513,0.932923435918839,0.932231673577946,0.928527104199742,0.930356633548683,0.930238305779846,0.930429450637198,0.930948272392868,0.934980518669389,0.937419891134644,0.930311122868361,0.929774096840563,0.927971873899815,0.929755892568434,0.928700044784966,0.928062895260459,0.928781964009545,0.930748025399452,0.930347531412619,0.95471394965697,0.927143579517956,0.926206059503325,0.925750952700106,0.926251570183647,0.924239998113418,0.915784113709607,0.917022004214363,0.916166403424311,0.91655779527508,0.917231353343844,0.919006269876399,0.919215619005879,0.919124597645236,1.09100023294896,0.908540633829572,0.907380111481363,0.907096124836155,0.907676841117062,0.908029093782754,0.908101000657663,0.9082193284265,0.897721834903448,1.13883195796729,1.14148978169809,1.21083895637262,0.888916428474764,0.888215563997807,0.887206137108267,0.88594822190417,0.892873127021951,0.885828983921726,0.884815005964154,0.884142358108996,0.881108616158738,0.880616190597654,0.88287898162326,0.883503388157276,0.883439673204826,0.878625553440374,0.878893156240667,0.879497538075342,0.874836334196772,0.875671000073876,0.873744077869046,0.873137875607158,0.876152503071681,0.882178117146303,0.860718921160915,0.861170387109709,0.861944978888788,0.863440459844166,0.862453788294787,0.864333379392082,0.866058234176282,0.865572180110444,0.875042952685433,1.03568655208571,0.878579132546446,0.880213876183609,0.873124222403062,0.873248011453537,0.879857072449885,0.879285458305042,0.939777344375319,0.882491230626917,0.88447367586174,0.884135076400145,0.879922607829549,0.87876208548134,0.877960187294068,0.877018116211404,0.895493631994887,0.890700447143383,0.887907001585225,0.886294103074616,0.88738180833431,0.888912787620339,0.890645834326997,0.890927090331387,0.892361586975133,0.89233428056694,0.916958289261913,0.896726971431611,0.896348322571332,0.898635689364312,0.899157241760801,0.915237985545745,0.936263919854467,0.904412815124375,0.903650966335786,0.923766687038071,0.907526655872,0.908553376820062,0.914582631749109,0.916839961493076,0.918423733168278,0.919798155714,0.922355855948091,0.923793993446264,0.922601613621829,0.923584644316783,0.978597954689908,0.930365735684747,1.00936317458752,0.930757127535516,0.932049630856658,1.01781905899133,1.04883003656268,1.04296826093722,0.962523582400209,1.01626259372432,0.934880395172681,0.933105478640127,0.93298715087129,0.93305086582374,0.928326857206326,0.928317755070262,1.13600119365127,1.11282715523135,0.948506292861061,0.94314513471914,0.942444270242182,0.943982531237063,0.945994103307292,1.16960628000097,1.15378676752107,1.18465211091539,0.963588532319742,0.964753605735983,0.965418061668683,0.964325805340957,0.963497510959098,0.952875318171964
