0.994509442884907,0.995348319788769,0.999246145445076,1.00062097011262,1.00186452495747,1.00263241879096,1.00282018187778,1.16522741424362,1.16174415866304,1.00945021285999,1.00998418747838,1.00989219928506,1.01032996590615,1.18500615763584,1.19951850343138,1.09735478924414,1.15399744460745,1.00475070186382,1.08550983507972,1.00218097901298,1.00189726918251,1.0014138343663,1.0007284083256,1.09059602021811,1.07709330420083,1.07844155242365,1.07996842850556,1.08741698017119,0.993881769647186,0.9931291671725,0.994689286035606,1.18770381183107,1.12174210610296,1.1969048481655,1.19553689873968,0.98937997970978,0.965493118275119,0.963443975678781,0.961065493873617,0.959883810282787,0.95913877657251,1.28727921971379,0.948970562961522,0.949905123400336,0.944984447838375,0.944290132810314,0.943373529861641,0.94231720625045,0.94051413805369,0.940217068759643,0.932331408111535,0.932733496738932,0.932421085927847,1.33023256852166,0.948723019238943,0.95549418088547,0.927332615873759,1.01596529401284,1.22244922709106,1.11020514350305,1.43474649122781,0.910057686357455,0.90023409083384,0.900208530797236,0.900255494423505,0.902330744280624,0.902019985478518,0.898462971217778,0.896499155481042,0.897664339858942,0.897834004547764,0.898332500776341,0.89730192393703,0.895978675282139,0.895876557127198,0.896934203381151,0.898014179012055,0.905627896863407,0.90700908544468,0.912810063642506,0.918909882490711,0.907453993873663,0.874916205825866,0.846518670270988,0.846554339299371,0.896552125127029,0.897840411209431,0.897820348902582,0.860032354432145,0.860209490254107,0.888310882118301,0.860558060306356,0.910527693670316,0.892217642471353,0.884227876459378,0.908673329749746,0.931085746861566,0.955669980537293,0.930972356698642,0.95277173007964,0.971224869193823,0.969529858950061,0.996286111575411,0.938602396717481,0.940039797422417,0.919762503580609,0.934922375266384,0.936992025532775,0.935493190807597,0.94434188113871,0.964681069944803,0.977408594051893,0.973615961301642,0.971725900204544,0.952064384566836,0.986439279249261,0.986294662440088,0.947821903422762,0.943120521985496,0.927803544689982,0.942832611373247,0.926390703096483,0.922856892689234,0.92399924379218,0.930057687730375,1.00398993494486,1.02442293351315,0.919717829021771,0.912452224871787,0.940544877712704,0.924794347721112,0.92454275052579,0.924887415945552,0.93570273004718,0.937528244805854,0.917228873154194,0.916709724990389,0.95935223108414,0.965547001723119,0.929211209116322,0.903604732542969,0.88296696592182,0.882215351750156,0.879343794974437,0.888992023460971,0.890760528666588,0.894616608801036,0.889064766233023,0.888369340047946,0.888928190766759,0.866632501269142,0.858274218831645,0.858787375943305,0.906094915370657,0.856893115605569,0.857538508759638,0.822963710144833,0.849921976777056,0.838033838239507,0.836934292011709,0.82973443438622,0.830092674538078,0.823530692252454,0.826444758360289,0.816187247316188,0.797602631317082,0.797328223170661,0.795408337097365,0.800283786879175
0.994336511195296,0.99546347512655,1.12802123846063,1.00050583594515,1.00179484057424,1.00268841276115,1.10845017426175,1.14521925447591,1.14493261494374,1.10763240426223,1.09718320163919,1.2071516514083,1.20665601368719,1.1726823738233,1.11207639642388,1.11296542392199,1.00484923324618,1.10958708928577,1.00195324909184,1.0017786619399,1.00092341898772,1.00094743327469,1.09102753773557,0.998502485626532,0.99840796497954,0.997656354540042,1.08176008773199,0.995349971014568,0.993824407672731,0.99310679795324,0.992680471809,0.991819606230639,1.16479103451584,1.1089958911759,1.19940813030767,1.20087666366104,0.967230618114333,0.977596848866218,0.961326503282547,0.960030785052771,1.2931037486569,1.29402459830182,1.29584771388522,0.949066928657867,0.945024629438471,0.944476449986409,0.944372952268308,0.943046574130144,0.941409547900453,0.937392007871547,0.932248769103012,0.931650905297052,0.931063425644853,1.41057072568383,1.37116746562503,0.993175436246195,0.975245238876626,0.999912133576745,0.92499476532279,0.960250801304827,0.910607456065914,0.909958558239726,0.934980346438148,0.901269009019214,0.902005294196168,0.902397274838353,0.903088966159088,0.897605746883159,0.896531620211215,0.89573470233133,0.897276758090963,0.897890332251796,0.898465694192616,0.896765404047146,0.8970821162758,0.898329868671918,0.899426492968525,0.905386569061994,0.910230213534808,0.911674223438926,0.927861159158559,1.01489935678499,0.894604579715864,0.897357229594667,0.86616399817896,0.864418514732036,0.852969096917119,0.85305971820239,0.879048676172124,0.852869881436149,0.846822434672007,0.864474297397162,0.861273739401042,0.929966137785019,0.884439839278571,0.879798185425995,0.916450539323364,0.916275467044768,0.917804885865153,0.966323988653758,0.956110560584006,0.922441426228398,0.968464633956574,0.924990138266798,0.9184985032441,0.918349794352082,0.914955916695098,0.899821911166942,0.928250260785133,0.951814031525341,0.964704957423807,0.917710757743851,0.91822803227847,0.930969329990749,1.00773352745754,0.972952231503819,0.948247990805409,0.926812581217216,0.925376323929408,0.923740343567135,0.962575237224965,0.9618049070669,0.922476834970812,0.919319547526009,0.912681650518905,0.901582985806407,0.915538234317395,0.92197877425046,0.912199759940291,0.910687070524,0.910517022407768,0.932316470707258,0.92119735022203,0.909807542232453,0.910074623395629,0.916621445152477,0.91469086628794,0.907712451972428,0.920933856429066,0.911232294335469,0.889003596149378,0.882637276668228,0.882456014233127,0.880473899835414,0.935474889215215,0.91618080189397,0.864310280872429,0.86465777708125,0.877017645514462,0.863119504559746,0.872499518872284,0.858112095769303,0.857019547065377,0.856470237765689,0.857020383701227,0.858135717305267,0.823305082944952,0.822729062918954,0.841000329330632,0.837819430667098,0.875434931399236,0.830545513835773,0.843879684396204,0.844519634149644,0.829948387695396,0.817316009756648,0.796064872387683,0.795983477674848,0.795593172458403
0.993724878638318,0.995258461388684,0.996128423908935,0.999362380859418,1.00161160289264,1.00210555231607,1.11064172879088,1.09402989627015,1.16594651442235,1.01747008659282,1.17674902296835,1.18881452765741,1.10980270632823,1.11252864189098,1.11276129137703,1.14202155207747,1.22513642084833,1.00066493550102,1.00119643210373,1.00104822340209,0.999629476475524,0.999252117035445,0.997391530083404,0.997753874923019,0.997415217900434,1.13992552243862,1.08159781556966,1.13876105600374,1.18745599274301,1.18782622832735,1.12277225314799,0.989173180050806,1.18975509083683,1.19075939785392,1.17268603844851,0.971803900321937,0.968282834654247,0.966243023077099,0.962760373795865,0.961904441611964,1.29307242061381,0.952730684175504,0.951208684689089,0.949644358354058,0.946790922443176,0.944800900765469,0.943842480549393,0.94193128105206,0.940053491364655,0.938881949943023,1.31922403160283,0.943427696064712,0.929620813319469,1.31354509511558,1.44725985682416,0.979047258483418,1.00283951321618,0.981071726872663,1.23616287239221,1.40601143265008,0.910004885449671,0.90997473692365,0.927898946762857,0.900559906360918,0.900584573663746,0.901217283870902,0.901019756240647,0.900746402326497,0.895860007377743,0.895986685067244,0.896970938729208,0.9248873951149,0.898381052344182,0.898096675782116,0.8981002335801,0.898905283147148,0.899308208529462,0.903418420890053,0.910631168799121,0.911401511658729,0.99020358405353,0.980647000869073,0.90285825561572,0.898240240390637,0.874825477566799,0.875661153691523,0.875137211157431,0.851973156441425,0.857237272378369,0.900992898524356,0.903339715368283,0.864343528071271,0.913601140293696,0.857245663382371,0.857221992732952,0.891005584807949,0.869647093892494,0.869984553239726,0.903723030135256,0.90799196235068,0.957197836987834,0.91717844038261,0.903912696589241,0.900402157897228,0.900716026091934,0.907735518722015,0.908506293729815,0.900423199636884,0.963920946104696,0.964774874311206,0.930793454593604,0.93102518823059,0.915545112080874,0.893218374975585,0.894160089344593,0.939644056137575,0.938267261635858,0.922172908170169,0.910848346994018,0.903831077576029,0.903826320249589,0.903595096163082,0.91618401156329,0.904094397084737,0.902107234076434,0.902423857980796,0.900432477969418,0.900616754531244,0.922284680705104,0.911190560003868,0.929532816914931,0.920962355771603,0.921218711007422,0.922318272172116,0.906370819900074,0.902999606562928,0.905270126497009,0.906624693020009,0.90803129877523,0.909839098542116,0.903818648098213,0.890519865939624,0.884516757654492,0.867921109131007,0.865317976401787,0.863655787852457,0.863413500821854,0.900099480785342,0.900087538921651,0.848291980278624,0.87460230780345,0.873085712287672,0.85709525476159,0.857391334024806,0.830677204913325,0.828808275315118,0.822832798625485,0.822978944062849,0.831847568354012,0.832194205710235,0.810310201160418,0.822040411098723,0.838686362168974,0.807937639067431,0.810008502393178,0.81124685262661,0.857788276662344,0.804241890840488,0.80774420037707
0.991475980860165,1.07963234318223,0.996088185932999,1.13594846004458,1.0015962864312,1.08593165466095,1.00109284545828,1.00110784470547,0.999872331307341,1.16926891478424,1.14793405341851,1.1660360748385,1.16614356068177,1.03628939898214,1.09057966623976,1.00128612785066,1.00076290690071,1.00002595614208,0.99961048583804,0.999377817068463,0.998900540310538,0.998385567002847,0.997408403787974,0.997097642088402,0.99613323935733,0.995620095073072,1.1472167625738,0.99438715668301,0.994199775023843,0.992785616703386,0.992258725622959,1.13038596896703,0.986867280398693,1.19158956297442,1.17846265742932,1.21958291162321,0.969740862941041,0.967550185716725,0.967623459693397,1.25531360576225,1.27929414697737,1.29079199714252,0.951500035213194,0.950240089718158,0.949196591275175,0.946700785929199,0.944786503009103,1.385830607533,0.939829777408629,0.939301504884059,1.01126266953386,0.943345916926581,0.927444466323283,0.926510021668888,0.977021483157817,0.97789349342993,0.986104694634052,1.06027708383989,0.914995828027212,0.912836455318164,0.911439537625737,0.91079516919674,0.900532770766353,0.900130614465891,0.900234458140871,0.900152378891423,0.90109208332754,0.900340560083221,0.897257577799043,0.895718027681723,0.896033591679921,0.899894938709232,0.899486380056635,0.899423875245234,0.899744253351094,0.899632533363153,0.90653859265873,0.907327484473974,0.911237344894604,0.911366006915533,0.905257519374022,0.905983211043524,0.899810947232149,0.899163975303749,0.879265903167849,0.879474701584256,0.910146594809858,0.916708105617378,0.876382451160364,0.892224769881497,0.878765155140529,0.867091644674849,0.85673035509737,0.857390857331428,0.855158891551829,0.853864494321729,0.936289964255637,0.863738283527719,0.861915529762944,0.873188146540588,0.940938812571974,0.917086544392836,0.921155643072151,0.900886250417674,0.903367891826057,0.887442547669284,0.909381096573663,0.909722817464188,0.910949003884921,0.91113277542281,0.959110426910955,0.896122106768271,0.909448202023164,0.881896065476999,0.930431280646964,0.93114748662045,0.933835572614516,0.90910891751276,0.909582127184058,0.906980064230571,0.906659889189984,0.904107609286653,0.911824062617767,0.90527301553286,0.907849916024003,0.919831804514041,0.91193639776777,0.901716321723608,0.90849944693695,0.909855490860118,0.949694022110035,0.950458378704249,0.925629431425527,0.926613857791218,0.916975937921817,0.90756798897523,0.909150248164586,0.962991726856682,0.900076484076357,0.900428766466396,0.88470481468395,0.898799882366851,0.876804718497326,0.85755660891885,0.87331894999041,0.872829740435063,0.8991799007641,0.846413809112294,0.853311020697371,0.85322950710899,0.82852719767507,0.831157909853226,0.832635545030134,0.832187128476466,0.831311930144377,0.834723464718666,0.816810528972159,0.816880404967873,0.840621883505437,0.807580542084223,0.810498491723371,0.799829376113706,0.809062660191493,0.844954838667449,0.844046938597034,0.816428390377548,0.848437362970496,0.837239114175263,0.821510661843256
1.14023901274368,1.08002049331892,0.994148915947369,0.994961747269533,0.995676248925338,1.09796862701673,1.00032294907757,1.00083720403356,1.13586527490424,1.09655333732423,1.0976578143223,1.13373601906396,1.06879518423236,1.13960304338102,1.18451500855095,1.00021928336457,0.999520515352228,0.999176512098915,0.998927510398217,0.99871371150436,0.998547727130151,0.99804063241226,0.997384218651445,0.996532735693906,0.99582137547639,0.995404223678099,0.994688431472664,0.994041314487548,0.993588794859505,0.993118484150114,0.991897543755153,0.990569342312362,0.988494183174829,1.21443247648938,1.17905034894888,0.972206575091108,0.970523228608814,0.970065596417768,0.970572789418129,0.963960339742618,0.964300231880989,0.959410055788748,0.950578888124938,0.950094260364474,0.949339282508729,0.949298234145062,0.94988110497398,1.30296372880756,1.31257153305778,1.28236468594862,0.942409088464456,0.943872841924482,0.926712375901195,0.926612960990965,0.98678770111199,0.987481217672179,0.922597058107383,0.915792292960847,0.914962170681301,0.913245461557377,0.911335475998674,0.910624328092081,0.908682295179678,0.907866417182369,0.9000382050443,0.900273083955143,0.900447090778683,0.900297048931258,0.898823730704829,0.896853123290196,0.897770657470049,0.899523611633785,0.899539091019328,0.900391044841853,0.901874204046623,0.902843503144677,0.906321174096828,0.907007128819445,0.908827149073197,0.909058451740876,0.906184929935786,0.90590613002769,0.897421570715364,0.898037294465553,0.887025409151296,0.89640809490609,0.909827573367499,0.877518688716234,0.878338697416528,0.880130263906821,0.867791295082346,0.86788414249021,0.900918196027968,0.8952219290817,0.860446053570148,0.868747985987901,0.881649300788082,0.865164651995721,0.860467633679926,0.886211237372822,0.876314377441846,0.887656723747403,0.870037096642797,0.887576787404958,0.911758621850716,0.95995519966839,0.919753215819482,0.878746601737412,0.872887792631861,0.965200588394009,0.96522849236439,0.875495894205128,0.876958586583447,0.905991903200514,0.906341311266472,0.899848998570821,0.900888954826362,0.906119567532206,0.905546699782749,0.905477545868012,0.90639346254245,0.887379348116863,0.887218816105515,0.912293757643908,0.912807568971639,0.927120584893544,0.902998361572172,0.902644091908316,0.907960997674098,0.930316218066029,0.930708308441933,0.9623809153562,0.92081727314534,0.931181554050034,0.943118369535221,0.94224677085021,0.937368776139696,0.910367502577765,0.872252016256827,0.879468057652191,0.876524189329012,0.875079879531772,0.869119001048481,0.836533623292156,0.846310100131701,0.84413909142125,0.844211778063537,0.893138009674964,0.893542283045948,0.861178560596774,0.835913200326393,0.831070551962768,0.834051222016324,0.832473561607882,0.864102446897059,0.864229043777306,0.832118442201965,0.808771625498406,0.823579663878418,0.80625752732667,0.805005004390655,0.813865653649984,0.854613067289028,0.855610989144477,0.840718871780175,0.852083980152903,0.884005314924851,0.858042413781965,0.856981893959897
1.00887346178951,1.02639862800633,0.993920999878861,0.994269386603008,0.994957805937625,0.99728606902753,0.999300049270394,1.0007959053803,1.13044603238971,1.12557448524524,1.11574873301874,1.10060742242651,1.09039823777327,1.13649271743043,1.1259311131824,0.999669878229441,0.999260010515167,0.999058415344904,0.998776216850731,0.99869777927829,0.998325585762553,0.997963308536672,0.997206914692549,0.996622355874829,0.995861597071775,0.995508877600466,0.994836220113934,0.994401151916301,0.993892511534274,0.99367762716655,0.99353572063938,0.994925743126978,0.996314990241702,1.18732676802101,1.18682318303679,0.972286344074189,0.971157608875061,0.970922195995803,0.971573137784537,0.962229753978061,0.96222231701261,0.960861037853094,0.950660282769594,0.95005920384931,0.949613332372461,0.949346195066944,0.949526025033573,1.1104733016396,1.11042780348375,1.11038229894984,0.979166600936344,0.939603272501071,0.926548942220556,0.925718828567114,0.924213169791318,0.923314220478559,0.92300845473618,0.917889771931812,0.915764174184557,0.914131621373378,0.912266322985543,0.911097947463624,0.91060808891539,0.90465271689785,0.901689410973809,0.901026149021113,0.900690470877527,0.900161165656391,0.899466268314453,0.898016633326765,0.898326995159157,0.899183817696228,0.899577551939326,0.900487822849749,0.901810498850641,0.902871913338127,0.904599215916896,0.906293023635001,0.908142538246728,0.908169321822661,0.906771718898674,0.906522427640747,0.902446251264904,0.901152627711848,0.889176630718101,0.895814629640368,0.893389081663195,0.888339143071983,0.882739671043825,0.873570780145888,0.868484569121485,0.868693506741853,0.868965175527203,0.868837279916274,0.86914755776048,0.868541171299704,0.866737925954887,0.86454428166465,0.862963199660077,0.882304701465915,0.87773985111223,0.877161733825128,0.877115940655109,0.881630043033868,0.883599600755364,0.885969849219608,0.886892270136673,0.882462078417741,0.880950681434676,0.880758076943194,0.879661507041783,0.876763500889012,0.877288890916723,0.895539841810057,0.897214420266309,0.89949706953183,0.90009654116355,0.906945622451532,0.906922497239104,0.904638808376305,0.901956117050895,0.889072620723277,0.890321285561011,0.913218030984384,0.911607341954782,0.90844571163818,0.906009705504052,0.915353808696541,0.921930540355976,0.92910212832437,0.928669302251193,0.926095504294202,0.925862261005889,0.930645739060987,0.931258209807236,0.916720851121809,0.903902520091725,0.893190332224686,0.875055864349737,0.877307681974309,0.877765205603022,0.86447999716603,0.854588634468181,0.841209441061233,0.845293342927203,0.843092225183602,0.841696471550066,0.839389410483104,0.837436719368056,0.836172465700364,0.835698622810934,0.833989621742405,0.833976142267093,0.833450563888749,0.831243413056317,0.82420286077378,0.82015887706797,0.807824964180237,0.806332118765538,0.804945918525489,0.813143130595198,0.816926749052568,0.834455016459128,0.84803171603364,0.848521408977813,0.849210675578983,0.857664105606733,0.857460383064068,0.856499520295558
0.98364908089111,1.11519434211916,0.993178904499376,0.993244641011438,0.992862402886897,0.992597269235988,0.998585114073152,0.995102459585817,1.15094293023979,1.13314543798841,1.15020795544269,1.04311481564246,1.0003257216115,1.17464405014925,1.10406435960712,0.999288040605831,0.998985094299548,0.998454940271322,0.998835810453641,0.998260712760114,0.99862845901544,0.997518485674796,0.997462164943848,0.996119521528882,0.996105004080599,0.995200113014717,0.995242380440469,0.994194726610691,0.994107642114282,0.993624464971937,0.993734944548607,1.12623064654265,0.996740455222266,1.21242684839039,1.2205315237804,0.973605319448138,0.97049626022303,0.970678488326937,1.31787147741167,0.961738139200485,0.961596889606783,1.28595016859819,0.951238428041066,0.949950138456435,0.949638622481981,0.949038602761414,0.948973988278786,1.3297398042322,0.942264483275388,1.32253055816529,1.32418381671379,0.933219496565994,0.9269655746334,0.925336503895959,0.923699255311322,0.92313760098868,0.922866695646988,0.921861165379693,0.915910956560839,0.915956118835553,0.912082520422797,0.910887034275763,0.962731972861136,0.903310145247366,0.90290248782432,0.90106748961778,0.900658302327193,0.900797759889131,0.90028005819672,0.897954178413901,0.897862801374552,0.898449270685566,0.899157580010333,0.900449326597321,0.901780689433006,0.902194402197238,0.903038630073918,0.906340031193466,0.908662906510158,0.908483844334562,0.906540461796734,0.906494696359495,0.904328312912612,0.902757362123204,0.885243914421099,0.898645838095704,0.891814485610374,0.89419493724121,0.896510586940346,0.870987273093291,0.869849709877505,0.869468855933145,0.868440268020993,0.867208552276305,0.869453906666252,0.869606068570132,0.860499232498735,0.863012902410069,0.855204050362187,0.899376953864255,0.857984228647449,0.872377742131865,0.876108623634143,0.880708271985467,0.881137557343968,0.881590617823229,0.894950699580007,0.92839866830775,0.890977301059557,0.865672214247734,0.873346762067638,0.872521796833762,0.869336616779347,0.894467207320197,0.875435648288398,0.894981470505267,0.886637699508373,0.94687757916591,0.927565564209869,0.894018925238977,0.897873337894556,0.890030273330408,0.892360768192397,0.915015664734434,0.915388469210282,0.900185872862237,0.899992345103995,0.921937616957805,0.928074015497706,0.928317215923496,0.92900989138891,0.923696415185101,0.924367041467985,0.931096695451246,0.932302092215532,0.885726475289647,0.885212492125343,0.881257621592463,0.865368334349494,0.864986240735551,0.878646765264876,0.838192182471403,0.833971004899985,0.835089254644085,0.846230611943982,0.852014935953362,0.839528208338691,0.837924586248797,0.836073396498717,0.83329138335444,0.87372233104201,0.834624309481314,0.833655948731792,0.835918072382267,0.828554092916592,0.810347018896813,0.799836078371774,0.807530439849317,0.807347875103036,0.79779025053142,0.826325584683014,0.826080640096618,0.814969071622761,0.849853168361305,0.847770738487615,0.845193524886264,0.85761147586347,0.880520011597538,0.854769589632724
0.984212127894319,1.1383848736845,0.991235861578518,0.992841412667081,0.993901353132852,0.995700011618942,0.997157777292431,0.994425103639001,0.994402655242598,1.03934383543632,1.0389855431005,1.13028743852926,1.04617026367124,1.12005818745315,0.998685289771956,0.998760330869429,0.998267909522253,0.998864463523041,0.998077756200164,0.998903847150914,0.997634848008699,0.99819289619857,0.9965228092623,0.996967051857358,0.995312320412282,0.996022838718233,0.994670352720598,0.99517932928228,0.994140121690024,0.994444019501777,0.994107697075011,1.11771945812402,1.15761497522082,1.19066866632473,0.978138392482424,0.978027854308481,0.970342240663077,0.969847319167287,0.969135244926821,1.27474201760751,0.960450891524355,1.28298914924601,0.951202368493358,0.950734425030077,0.949643894659665,0.947717479791908,0.946948734755063,1.3147210788838,1.3079292935457,0.949525885412426,1.3212765359716,1.36703816936499,1.36721731571832,0.924215478682138,0.92361836947378,0.923492060108173,0.923403008865251,0.923439824188746,1.04943873542541,1.45514229175876,0.91181556998116,0.909895985411452,0.905596852708367,0.904233201014327,0.903653161085586,0.902359276205555,0.901391196652475,0.900896756690684,0.900644812023092,0.898245955368306,0.898086356750095,0.904807896772074,0.904473730454777,0.902792786866122,0.902303074886989,0.902429220261368,0.901956843514977,0.901549298981146,0.903647846955892,0.902295584332646,0.904296006261526,0.905961105881119,0.905260842508519,0.90402804159418,0.894002862321352,0.896261716377138,0.898083980555303,0.890510228870722,0.889419429930042,0.870375306731424,0.870380470079165,0.869355140976541,0.900890739381831,0.880459478534959,0.889751599599117,0.872354775399855,0.912660632160962,0.863057623238652,0.854240299914139,0.87363223959785,0.873667065100483,0.864313772924656,0.883128116708861,0.923749679803929,0.950703560903282,0.879661413101427,0.944969640638682,0.88053193313195,0.881187785885681,0.866336646653017,0.873783008794249,0.911378884552579,0.896408803812276,0.896292716847163,0.89698490929699,0.90322932514787,0.911261700671304,0.923436232759581,0.882137619503293,0.977663790428923,0.916619751206136,0.890787787401033,0.893214326893819,0.894584413427331,0.92691901267092,0.912881060541767,0.921333767068647,0.922434062554711,0.925034389166072,0.925818904751592,0.935197871887238,0.922842967413509,0.904741303870419,0.922048216595983,0.92211311436634,0.929527851504809,0.882456935460157,0.881986711815418,0.864559373558719,0.865032747028057,0.850395343328152,0.860538636484693,0.834567678448518,0.835154371747372,0.838381939666329,0.895088230828328,0.884923361488482,0.885257452727373,0.848558977476831,0.835187155514496,0.835998414679634,0.836401967965978,0.8375148940928,0.837525280715787,0.838382135258733,0.807833681432332,0.820067649254942,0.821310991889845,0.805970074648706,0.806875885095588,0.793170389983354,0.827807565859181,0.856270770154711,0.831132000658838,0.830789884144997,0.858443360607909,0.859042554373704,0.858791202175422,0.862114770780718
0.98573704591397,0.987154045764514,0.989794680050811,0.991593565665843,0.992875209206437,0.994640367194865,0.994883124893775,0.994428149648712,0.994601592033115,1.12352469563332,1.08604728974657,1.04364167883643,1.04796775727319,1.04227559037657,0.998064291453739,0.997992692169284,0.998454457876749,0.997683161078783,0.998765954830223,0.997431841058882,0.998491976940466,0.996723334239116,0.997626392282864,0.995606686657485,0.996521743673646,0.994774791743008,0.995728480102962,0.994222564624547,0.995026575058472,0.994276312855277,0.994157012551751,0.992693576417419,1.15080989483664,0.977641940707926,0.977738767960689,0.977801950382193,0.977917305068631,1.08433642039118,1.12174216709649,0.963318548899395,0.961800563625449,0.954857531535373,0.950153195508187,0.949766280590385,0.949651789258295,0.947260213896509,0.946571351028083,1.30827531666081,1.3645390756629,0.951807014335263,1.39847833281721,0.953240917046225,0.954132286583383,0.923513598693755,0.92359767794989,0.923736824639016,0.923721041025693,0.923474065263419,1.05033446667783,1.45496314550827,1.41072297886439,0.90800362989216,0.90615786965451,0.902883899405375,0.902692786062622,0.902028997457322,0.900744585443137,0.900733033413267,0.899457331149008,0.898212367022504,0.891809366250072,0.892522064760202,0.905699832551936,0.903389358812114,0.902046323392322,0.902918848913889,0.902524270080645,0.901423223952621,0.900317372403326,1.08710423476323,1.08717589326343,1.03989919767382,0.892395396426445,0.953031195636373,0.893191684471164,0.896663409776173,0.897955737390901,0.891670881674986,0.925290468112045,0.872658865166719,0.872520191284843,0.875210479205899,0.882313037820783,0.882825346832481,0.87796378745773,0.877827437317453,0.874242481213824,0.869697799445402,0.871291455317593,0.873937028098147,0.874103000451378,0.874915127120594,0.874295689435527,0.952315877247043,0.952392695179029,0.878408886158221,0.917776916110539,0.919610505773873,0.921870943988867,0.921890556315666,0.893692162378829,0.913700194843343,0.936496028862474,0.856040755588102,0.855313889937502,0.855644413302464,0.856585232597234,0.862384068043523,0.862514404322467,0.871477600886583,0.87581905574862,0.921131996179596,0.906217685853554,0.895773849919324,0.871894632915231,0.872245553035936,0.900048741089758,0.909509307670099,0.920394994894416,0.88703637521642,0.943203285794591,0.937524038467054,0.905632871696379,0.908582103022207,0.863710412663049,0.8652182316896,0.947316429396677,0.900729436596659,0.892119448879558,0.885264932845433,0.849571329673155,0.876445705636735,0.834654384344152,0.841339863124431,0.874921509058368,0.874136973392891,0.840525557256024,0.864858869889977,0.87769677873971,0.859924520733852,0.854662814263259,0.837507647539602,0.837279698265569,0.853494323138832,0.807830188890871,0.807860729820321,0.810515681935395,0.802083520219238,0.807895022800785,0.807665254486591,0.79415248303456,0.819937987434352,0.834749390846216,0.829964818037226,0.830557542370416,0.848190100927278,0.859056106955249,0.859941566386432,0.860397766614205
0.986099311626664,0.987211056775353,0.989806967529996,0.990928772442376,0.992152019906449,0.99394590287354,0.99362560712827,0.9939251094731,0.994407273771955,1.08657572939877,1.03610129298218,0.995980809019273,0.996212290727724,0.996403682194243,0.996783957201998,0.99742718833875,0.997012245894472,0.9981895732146,0.99718099187193,0.998393708260667,0.99679601195311,0.998045880312806,0.995996765341723,0.997150672153069,0.994944602453387,0.996230641983964,0.993978644445966,0.995169886670957,0.994088647256133,0.994954332706048,1.12079780094121,1.12153480043856,1.12330585107978,0.97704940948837,0.977371171022024,0.977600759182391,0.977027027833918,0.977455064464512,0.965632496814014,0.964391504607185,0.960710330859029,0.961930963135441,0.949372739064498,0.949154515025093,0.949206328356345,0.948889346160208,0.947723960428645,1.29618498168099,1.296002345269,1.40504404289747,1.29108015513137,0.955266573634532,0.955236051908074,0.923269866937435,0.92350000219758,0.923840062251855,0.924302215325373,0.918248099634711,0.916573979536039,0.915176606839361,1.03325287178085,0.905944585201182,0.905224130029016,0.904100253713736,0.902187801470024,0.901602222129741,0.900513165900235,0.900298588675403,0.893664558200129,0.892077596134612,0.892206883513482,0.892201295038652,0.897434177309104,0.897574904492323,0.898133569278979,0.893077484154552,0.893329742500132,0.893363648906245,0.897500292041522,0.896657269414162,0.894867155552834,0.894385279045044,0.892351160852193,0.893387569963458,0.893580235814844,0.895691957508872,0.898097910837431,0.892025172252136,0.892210246502838,0.873874687538876,0.875209125893619,0.875800498197302,0.876742367373901,0.877658860184385,0.877833112142427,0.877016646296123,0.87900230881057,0.879931583880804,0.890389573853588,0.852767613462726,0.852778959309341,0.88821112768756,0.875167323327661,0.884667317587056,0.885628935315265,0.886262790845437,0.874410216840856,0.889513943763514,0.92465654591176,0.887500052105008,0.886990230784265,0.968760221774603,0.91749750918715,0.854856245715924,0.890735804996774,0.856574327253526,0.856743855109728,0.880299126123996,0.868577887440704,0.873953574686304,0.877059113563844,0.910602705442631,0.869268467175994,0.870182718478194,0.872978705249076,0.873535232625538,0.871703897177841,0.896859929143865,0.871584746589317,0.872712057326241,0.943704581153203,0.885741190469906,0.860826802420969,0.863133131199069,0.863153289778562,0.868895924930721,0.875548386370949,0.938171028698135,0.866170738176472,0.847983586082373,0.84765471401047,0.881616606828615,0.827225786396572,0.848299447570174,0.876798367863266,0.838912625164236,0.859621295756519,0.838636048338865,0.84122710383624,0.815895554876951,0.819209119020287,0.819599752922007,0.82075427988099,0.821408914892253,0.843099521666549,0.844870964223473,0.824193670619345,0.797250645189022,0.797194895670895,0.794763385544815,0.793693948651556,0.854914826015417,0.854461443652822,0.829172776711223,0.851465758603474,0.855021608756293,0.855700665695939,0.862462782069593,0.862543080215886
0.985964024484243,0.986537343232729,0.989424865022265,0.99079378680303,0.992025577173686,0.993261557887686,1.11973330605851,0.992938192422906,0.993151764318983,1.14427880475966,1.12383814788842,0.995417350512311,0.995664412266497,0.995785925138717,0.99623272396537,0.996257985704604,0.997222829928476,0.99667573800593,0.997935786803295,0.996737389088257,0.998113098092846,0.996342268845996,0.997657693195985,0.995506826258651,0.996739947186767,0.994599338477147,0.995413367758173,0.993607673028446,0.993769269941302,0.9923005633411,0.990693571479512,1.13451530949506,1.17098948736297,0.977175081998571,0.977484059701973,1.09803215595607,0.975994121736593,1.23514173893789,1.04973430363476,0.968023982980488,0.970997332314204,0.971853441986796,0.962039813372491,0.957296163312434,0.957634904847326,0.950268152920402,0.947363617188929,0.961398339051476,1.29440531809011,1.31805061187516,1.35924532381158,0.956626267489615,0.955992338385549,0.923061062184118,0.923244403289439,0.923655009695797,0.924393022025306,1.08177549716629,1.0639457630696,0.930915054236931,0.929661030493351,0.907776440820179,0.904163444025546,0.902936436880972,0.902314167698321,0.901335940004876,1.00810073838625,0.891081694677721,0.891352780820915,0.891895341200506,0.892516446745526,0.892867033767973,0.899185326291787,0.898451619895491,0.898239047215426,0.891809345592456,0.892915878346489,0.893073529308984,0.896391622204844,0.896088065324671,0.895825522993234,0.894197527224038,0.894289316846179,0.891984210857408,0.895031378600211,0.89541396955413,0.896492580217015,0.895559041810231,0.956354343760339,0.874429991841483,0.875645431011804,0.876681438415752,0.877198182777469,0.873919874954107,0.875244057142934,0.876595230434552,0.87880676614637,0.880168331195371,0.89063377223664,0.905048915590768,0.905881215040726,0.906288676596435,0.875834970475418,0.87595838564537,0.864002760437596,0.863970866613618,0.873120408477429,0.915973161969958,0.907234133391946,0.888031439954485,0.887393106546729,0.894402355493643,0.855992484607258,0.856162421084887,0.901320626832531,0.861510534557687,0.87937618208817,0.869520510592476,0.871083952488726,0.873967831680113,0.914595437338075,0.881678236969662,0.89377837593055,0.880443693400194,0.881182965939578,0.871965613926461,0.860540539069944,0.870910111146846,0.871172174368865,0.886997347257941,0.878964671744781,0.872890047016232,0.86971793201254,0.846214041378349,0.84633656097132,0.84085989097883,0.840896439891336,0.890429444326835,0.852084463289071,0.892175035368741,0.846452199754319,0.866161716854035,0.886953120446552,0.824878455066507,0.82548302903018,0.826185835949308,0.832528228601294,0.832269662390082,0.82450419917236,0.825524976724624,0.820107935979793,0.820412900612169,0.828234518823504,0.832934778104316,0.834498768040063,0.830538472726506,0.838481935846495,0.796830949971822,0.797124322860319,0.816888702306859,0.81853565335928,0.854642383682297,0.854717507471686,0.84670816579665,0.851883508249796,0.861492625000768,0.862229163503777,0.862507030887901,0.862737718822716
0.98458998130527,0.985037332253894,1.06348380038363,0.990032385802642,0.989653923479989,1.13581413936782,1.10553622497459,1.09683184988798,0.993165977497963,1.11267526922102,0.9941302164176,0.994591197267805,0.994933565263094,0.995538825531858,0.995462969909528,0.996207285766726,0.996096802012319,0.997107903597957,0.996379101686032,0.997668933334351,0.996465490484397,0.997780255899517,0.996014974676668,0.997244198112562,0.994997065183392,0.996127279433364,0.99358100991446,0.994247254326407,0.992151071354207,0.991058225274076,0.989936576643181,0.990008269566417,1.12550912802396,0.982963449019441,0.98275986106595,1.18831290906122,0.975028221799962,0.975819316577586,1.08766856855621,0.968394252224739,1.29554089711532,0.958505497538937,0.958303909729763,0.957972685792458,0.954921978786978,0.95066115333466,1.30520583750241,0.951614911514088,1.29392669304642,0.963956400860985,0.959581693263958,1.40201647126428,1.01107456579741,0.922245339929329,0.922617816064713,0.923354625734827,1.01737155667539,1.09380348985698,1.07066237875977,0.908771722582394,0.906986661382336,0.905909897797157,0.903207496979437,0.901651878367406,0.90097026914773,0.895697181682769,0.893593451749677,0.889615110901017,0.890020895281583,0.890047126043047,0.890955201481489,0.892293205452486,0.892968786853154,0.892035983809604,0.891739514433913,0.8920452861557,0.891555649074795,0.893723964033151,0.894025666848627,0.895734205346429,0.894500634481081,0.895390216258343,0.893390120442931,0.893782415997592,0.893089213505384,0.894505106902354,0.894027843783311,0.894128360808108,1.04038289272358,0.875692345406853,0.874269594017713,0.872908838807102,0.872490342994847,0.872735129322499,0.873380540493736,0.875254332394632,0.876395601889803,0.875470122222116,0.884607041557733,0.884004932802675,0.883147269595259,0.884257134329445,0.876738663078419,0.875640974704657,0.873268469243697,0.885372310317402,0.885636215577916,0.885541877939481,0.893343136091844,0.891470550652236,0.912159554003815,0.865810748968128,0.867464594263294,0.857029391302388,0.921330968698182,0.912257845413636,0.87049858645458,0.870917048684001,0.869484542153432,0.867479563072615,0.86649012749567,0.883843912880551,0.884019800355005,0.880246357241155,0.881177665507919,0.856068860252387,0.856176979448683,0.856197191857569,0.868503441645088,0.864491054847505,0.874346621392821,0.876486641943073,0.871058186320432,0.847663528038062,0.846729984871374,0.831180242294124,0.842018608901717,0.843751398279531,0.905136479703551,0.880912478383805,0.846730739363665,0.875740042739987,0.828980397581182,0.885239725463604,0.827276465551751,0.827193453340695,0.834282616941626,0.832276038395947,0.831203080672461,0.833668723592627,0.84589205306737,0.832639945381488,0.852800753785507,0.853188341446136,0.828256998465441,0.840502008156875,0.836464102506673,0.83732751327288,0.845255430630446,0.851377620397239,0.835301422659629,0.835786079492751,0.848339699558195,0.848667799978987,0.857973066897917,0.862217547855279,0.862571860094344,0.862857333119371,0.928751538421675
0.984815995394267,0.984888829499099,0.987149945448708,0.988720227332381,0.98827990558919,0.986965337520877,1.1144470232137,1.12561530983574,1.11427314166116,1.11415687359049,0.993377007554418,0.993658283731571,0.99471808025976,0.995141270402853,0.995534915693398,0.995464705774522,0.99626215595794,0.996031011604077,0.997045311334967,0.996352692293482,0.997513205436614,0.99642733695415,0.997573090700659,0.995851295093728,0.996643759929697,0.99381748024184,0.99370021451752,0.991975166131188,0.992944789927402,0.991278916083412,0.991258213474018,1.12077773996381,1.12023842895136,0.983337363960058,0.983408874252887,1.10120304458965,0.976077503815015,0.975644316475617,0.972936831599491,1.29676804893114,1.38583061347831,1.34930268094043,0.963177162702666,1.29659786016663,1.25315489425067,0.951933029024331,0.951925842250953,1.38262388964932,1.29089704719124,1.321723161354,0.928506026091035,0.961985607080302,1.4026882697036,1.04270283649391,0.919193428865944,0.918264871569822,0.915658603947909,0.914391703861334,0.913705791742084,0.908019851966867,0.906472992833191,0.906312682398399,0.900504792161421,0.900293938771758,0.900659479786247,0.892038687850498,0.8916929661695,0.890275549355529,0.889491909559266,0.890074625198739,0.890281349182775,0.891071622766477,0.891455711876787,0.891419219994595,0.892120737294325,0.892852404460064,0.89329110130579,0.892642677173888,0.893525353104095,0.893862583583323,0.895196434059197,0.894734294532411,0.895595436353449,0.892859383161073,0.893301275543953,0.892623187668014,0.893622931723973,0.893383142971417,0.883196095361001,0.880871833903222,0.880510031914865,0.872705983716037,0.872304267847932,0.872581999929809,0.874147596897095,0.876940768670186,0.877840639431451,0.870649200520308,0.93159632981449,0.878292141817849,0.878300815660206,0.878534525499309,0.878457631159505,0.878242739129066,0.878163348975036,0.889881736832173,0.886823908453044,0.871926050542912,0.87198007973818,0.92801332254349,0.910972890436123,0.910283158652905,0.911812914051055,0.869876596094769,0.872057058287359,0.872378218066715,0.905611269393548,0.870918103441924,0.918662030635609,0.871940868135615,0.872288974623364,0.940038601373011,0.940020688677761,0.928452317363362,0.880296124484983,0.862540035996691,0.862919704729131,0.862524015921206,0.863559133207154,0.863641987677669,0.852092488402044,0.853331666456417,0.871350312571705,0.84844272789109,0.829198925267874,0.829638755859778,0.851487542137567,0.836947683841094,0.836806952936771,0.838135885691281,0.852681242642251,0.875259446910547,0.880574779489999,0.877468055765189,0.848033413568876,0.84649056866017,0.834269266940599,0.832214353954607,0.83209991643786,0.831280829415915,0.831319480665135,0.832992901758947,0.834266258517324,0.850967012361211,0.834017250840753,0.832346893907801,0.837134708550627,0.837131273090111,0.839450558067528,0.8414052185755,0.83517385947709,0.852725390449593,0.853446743468986,0.858408941699049,0.859228783794295,0.86228720900783,0.862737023630068,0.89186713590046,0.927644010253118
0.984944488408157,0.985176638135783,0.986578807466141,0.987169208755274,0.986699617877082,0.986118097644526,1.0792665502182,1.12373427513402,0.991467008334986,1.12050650313672,1.05967694372732,0.993400362105996,0.994027945618169,1.09191431167547,0.99538541856926,0.995605269790993,0.995721152017769,0.996346842226293,0.996278445881972,0.99705009410678,0.99645407226387,0.997288004965076,0.996339178446182,0.997096175096307,0.995200261249713,0.994068798891498,0.992144398289058,0.993004573601837,0.992247305247008,0.993481070976668,0.99218458916172,0.991635640483209,1.02050666486213,0.984274998279137,0.984204355236975,0.976651155249143,0.976667098109334,0.976663523051091,0.975894829574062,1.07017491383227,1.02651697241574,0.961186719648319,0.961457562921278,0.974448142669173,0.952249123061607,0.950943200965292,0.9494504183723,1.28813319948434,1.20085314607481,0.93154255029621,1.36170856490525,0.96046083167997,1.3232876655082,0.920460556123509,0.918938430706131,0.918339760582468,0.915618705166468,0.914682655144591,0.913689805158942,0.920071413421847,0.912631417685403,0.899663108853401,0.899395479375239,0.900933429471902,0.894502068618614,0.893535792739158,0.892755424692912,0.891723509063047,0.890009222907814,0.889502304548502,0.88966742595916,0.890191851428686,0.890322711343308,0.890790897072686,0.891249958481476,0.89282416187284,0.89225870548399,0.892021385984725,0.89215017205289,0.894133034918945,0.893622912065248,0.893922034060075,0.893267201370388,0.893461202647405,0.892200534248095,0.892723521385715,0.89320961995303,0.893326419253605,0.88480819137338,0.880602046978427,0.880447760914373,0.879875709090321,0.872687724232472,0.87215488116605,0.877206294529752,0.875710853847162,0.868917806696566,0.869345787099622,0.971098081981432,0.879137199423062,0.878462981704007,0.879141579108418,0.880329243089185,0.879500977866925,0.885580975130036,0.886590833299514,0.887469197891188,0.877682933341304,0.877448386404073,0.898706067600044,0.902443113090997,0.921671242098327,0.88121140434843,0.869732674659961,0.861734682269802,0.884390128778638,0.880214175480016,0.880974442928621,0.882317366570577,0.885092099586992,0.885669821654047,0.89174919362561,0.891499593768462,0.890222286016674,0.880822941411895,0.906273848617771,0.90370765989371,0.882818654396048,0.882517693779429,0.91249043033577,0.854023771615663,0.854991955880075,0.849419286648394,0.849516125873598,0.839381672222306,0.821408436744868,0.821602919969289,0.863735018585146,0.847163785190189,0.845718486239896,0.845118877509039,0.845083380353358,0.837802421694315,0.861712459469155,0.861831291781516,0.844582465637421,0.82256920025488,0.832478056175995,0.832727416881,0.832134843431631,0.820150330024477,0.83297445148812,0.821139016676232,0.821747587810516,0.832047593412758,0.832767856545397,0.834989779173615,0.835883429322127,0.841338564805456,0.846469225863166,0.850831497681679,0.851344708383,0.85131550483848,0.864736032519684,0.863483612972496,0.862944445989559,0.863085684575065,0.863268344726072,0.926097893346658
0.983032121884261,0.983387507927208,0.98430485672174,0.985055130030309,0.985161815502254,0.9856685846102,1.09947443057417,1.09857992472798,1.09366353757147,1.13538416228061,0.992567755732552,0.99292177451103,1.09062445867198,0.994715139383905,0.995294245222432,0.995459645080927,0.995782299691897,0.995981123749711,0.996561480678088,0.996490094352283,0.996946359359934,0.996444591005057,0.996766252872369,0.995958929002245,0.996048729833303,0.992675720842699,0.992190266862805,0.992314191307283,0.99395828736753,0.9939379147769,0.99408777922412,0.992181771477134,0.98937734254164,0.987251219621071,0.985383680609787,0.982078188702671,1.10079100838698,0.976830469167568,0.976621415091544,1.19844362935268,1.42282430825806,0.962889750225466,0.962870694630184,1.29291640471917,0.956880670668901,0.956182894866167,0.961948498615305,1.33975421966682,1.31879405266976,0.955236930878839,0.955445386440183,0.962265094208422,1.32650035500625,0.971727648500817,0.98161110017415,0.919121821709204,0.917455271304714,0.91460395742424,1.08352130984026,0.922518847604204,0.922929088673428,0.898656256361322,0.898872171540335,0.893762501623721,0.892962343486028,0.891310751835737,0.891206034302656,0.891954712739371,0.889488560473052,0.888598618401305,0.888999483456937,0.889726541568585,0.889973437125201,0.890474003894474,0.890685843683732,0.890216121889936,0.890350829037441,0.889888996538745,0.889782552305622,0.88826735129277,0.88790166724068,0.892678109429676,0.893206110593035,0.944459066131839,0.898334235709374,0.898590262617978,0.893701821858418,0.97769961967902,0.884605741281334,0.881724899920378,0.882659855512905,0.884613259201135,0.873359718341867,0.873806400511342,0.874671474824856,0.875840190038306,0.869255622948081,0.869039511113724,0.869129064803725,0.879641123562251,0.879248540569516,0.87984054898503,0.880384500474296,0.881241320143394,0.886021786519846,0.887262301824142,0.888831963370449,0.880122517991246,0.882195712382807,0.88277225862416,0.90136593880121,0.901886226265756,0.905393737589519,0.887008342456975,0.886788032603924,0.885472058276014,0.883801731185363,0.88189003345711,0.881778175088703,0.885069782538818,0.88629533482918,0.892059969093974,0.892328552497835,0.892140101354172,0.88061366588902,0.88097968584249,0.90283803109394,0.894912571671959,0.89448256361463,0.845075911033738,0.87279471910457,0.855226728811917,0.850616682683496,0.850204895831911,0.838054642031094,0.83772964381564,0.862983075028198,0.848881030772271,0.842881293480927,0.84504644039932,0.866751580207117,0.838540408036456,0.831746956988084,0.850624807909673,0.844535853774617,0.897549618753675,0.823579735023405,0.825069468876201,0.825038557613953,0.824355118873964,0.82487488702573,0.824657151824378,0.833509910333743,0.888767862458217,0.838011175548018,0.838299746491537,0.835985707973553,0.835785194934582,0.836841539844883,0.838682390028857,0.842328584023672,0.863846195829331,0.900003949727017,0.861064873115933,0.862460859253126,0.862727594035482,0.862900158431067,0.907470403856542,0.838164339067347
0.982349349799891,0.983387078598917,0.984332383813095,0.985017236370575,0.985361101445607,0.985650977431996,1.0967481577884,1.09557568128045,1.04451278346786,1.03647026822984,1.02484654889004,1.01341970056785,1.00326002905218,0.994802848515986,0.995171713660295,0.99544155753887,0.995725355687881,0.996004535550536,0.996365399207472,0.996557917258848,0.996661259156351,0.996570548790675,0.996390664136735,0.996094230342887,0.995462527850527,0.994194849133455,0.993246139916469,0.9937074387158,0.9941544033653,0.994470186472147,0.993855011438544,0.992484660336084,0.990042666221054,0.987919754892898,0.98609802904309,0.984951738203374,0.985415714577779,0.987722070533907,1.00529812479465,1.01695818824277,1.03301654249755,0.985895790638919,1.00478380414105,1.08182206205842,1.08075623715571,1.07922350053626,1.07812197558388,1.17891320111334,1.17890730945565,0.954885231793783,0.954536131412222,0.963721559100644,0.996894909035899,0.991922163807378,0.987456586959329,0.953011680193383,0.917668101757473,0.916802053057693,0.968872360802844,0.947762464330583,0.911610446744091,0.897379137896388,0.896719852183697,0.894335664059187,0.893010679623603,0.891848085745096,0.891042602243404,0.890447909702091,0.889392992708844,0.888663593618421,0.88839822847633,0.888472708573364,0.888663777068405,0.889113737620996,0.889248201269894,0.88959887647817,0.889422324196878,0.889209151834765,0.888602265388025,0.888282831094901,0.888687972361796,0.901054620451544,0.913302091520904,0.927093885662676,0.897762231685873,0.897371051795664,0.89681533344513,0.886164931596671,0.883514117920623,0.883000091821969,0.883809256557127,0.88541568825797,0.877581542672147,0.874340131949456,0.874465198568358,0.873766297803397,0.869594643223053,0.868551407053237,0.868461566194665,0.880281251015091,0.88019695514721,0.880212057953006,0.88050973073131,0.881913315548971,0.885209260797319,0.887307390618529,0.888907307946242,0.880756549457777,0.881928577834544,0.882277458485651,0.902644861422571,0.902631709623789,0.903487109753861,0.887307826524143,0.886752468783865,0.886189559891412,0.884818790696506,0.882765389048673,0.881869811658242,0.88239470005057,0.889843684580611,0.892760248518205,0.893502739488826,0.894594325199419,0.895429632222499,0.896943749041475,0.899531106164627,0.89643032963239,0.895658645639433,0.848733996079046,0.852932853546385,0.853394386306198,0.852024375188656,0.850827483437383,0.85069515990861,0.851300921845091,0.854698557076298,0.846880250511536,0.846858725428231,0.846114177954095,0.846723534589223,0.847837308299889,0.849277601059088,0.851258724737506,0.854054617363899,0.855139934988575,0.845464104626626,0.840472201865208,0.829615779237332,0.822962029377541,0.8229727069879,0.823082488187845,0.833047787318726,0.839442400223565,0.838853462511182,0.838607579863611,0.837840412183567,0.837853411858987,0.838500092483673,0.839115342503413,0.840448420564217,0.87019307962004,0.879164452775007,0.861287303376116,0.862224059693074,0.876394336304707,0.888688044245268,0.909293585803536,0.91127308922259
0.982028236594415,0.983678648053797,0.984427719401687,0.985393335011656,0.985525522252132,0.985915758951043,1.09757626632048,1.1120931906068,0.990408501767328,0.990760822758538,1.11732618688013,1.14364281175602,0.993472314562115,0.994375015982342,0.994808813914735,0.995574951624798,0.995435899324299,0.996121877575276,0.996089432581276,0.996783790939351,0.9963972033825,0.996720495951566,0.996136246772383,0.996226573618689,0.995793722016428,0.99466609277053,1.12082851650368,0.994178173559629,0.995226986384359,0.995059315808752,0.994866044546393,0.993687372376547,0.990325148146401,0.988099140772472,0.986642735282135,0.984185899446343,0.983923790512701,0.989104791557753,1.25543002874356,0.977430853371942,1.09045426973402,0.963194364022044,1.29282425279207,1.29193067621159,1.29039032633712,1.21953810000035,1.37372928185262,1.31452146490063,1.29618580089716,0.955101119116915,0.955047895590781,0.963319147501954,1.00968633199082,0.995210190188529,0.995252535643169,1.05940878292144,0.910243655155745,0.899996081591031,1.37145412075816,1.44830786238949,0.906052613715169,0.896746607864585,0.897078494487167,0.893318857347984,0.892858961032708,0.892170009723517,0.890228237263445,0.889792076985548,0.888681850755577,0.888425628456799,0.887450332014819,0.886933637019362,0.887426427950827,0.887578569215588,0.888178528086207,0.888816411613393,0.889203962443537,0.888194076241019,0.887696859551528,0.88754668218748,0.88904529211341,1.0770660569833,1.07750795143405,0.946931279344275,0.897403011334423,0.895824131204803,0.98083468255683,0.88392830606436,0.883875508864929,0.883592798164638,0.883737215919671,0.88505535843244,1.02573768674646,0.87525749399441,0.874064659574673,0.866270146925542,0.867122593023742,0.868481680608418,0.868975896772375,0.879406318928603,0.880679606848796,0.880588506651836,0.87969471314622,0.880381329378391,0.886104848997362,0.888033858993538,0.889454585492735,0.881405926688662,0.881619954120662,0.88162968207858,0.904225853088457,0.90286042393749,0.902821659050239,0.871645873378768,0.886135644972788,0.873454346045756,0.874417052252433,0.875423590982425,0.881351244505967,0.881412819881183,0.895120734544999,0.894388944689319,0.925434538739173,0.924953448984408,0.923789322247705,0.906126747725994,0.90166081422544,0.896556207029134,0.896371458538999,0.841599954091735,0.8534459615357,0.853272249303024,0.854040433359385,0.849509653417972,0.849749710470865,0.851843278899678,0.869293485669742,0.84772748996597,0.847603632336064,0.845859366352342,0.845577365378166,0.847840042745071,0.94400220996287,0.858552443475119,0.856247480840405,0.855875757477931,0.850900587915889,0.84752317401413,0.836277895457718,0.82398980499749,0.822607669617308,0.822869564411356,0.83217798117567,0.838275598977307,0.838414154982058,0.83862954007169,0.838990201882173,0.838850450918174,0.839796296479843,0.838758335995057,0.840604133283708,1.12868407958743,0.906999557405268,0.860167478590525,0.862433766915504,0.885213526236561,0.918842395420832,0.928183099910439,0.927788976396913
0.982373546821326,0.984033513258927,0.985706220773306,0.985918991958594,0.985439917094429,0.986162192376167,1.09676195533536,1.09819152946519,1.12589842344084,1.10157028072754,0.9919099941676,0.9925347772316,0.993478353088745,0.994016047878696,0.994975031880374,0.995152793277596,0.995817754980586,0.995538335605193,0.996680294700609,0.996131253515833,0.997096071614276,0.996105080836383,0.996842825190077,0.995938276544228,0.996741907905554,0.996845234100055,0.998070046526294,0.996442503659849,0.995419134950232,0.996052930984499,0.994678859342097,0.995721963472628,0.989806612307436,0.98930246685809,0.988349897290556,0.988163469269842,0.989886800538943,1.21818556458295,1.27388213849345,1.22467961946412,0.972214080103403,0.965864955863855,1.29399436719011,1.30860069194894,1.37151383626171,1.37168103942883,1.31876723106658,0.95900570774718,1.35149721250611,0.954807172187208,1.33380655894247,1.37621045585036,1.01847319481303,0.960173148039024,0.939801200537398,1.04992618070953,0.904206146358242,0.898490203422914,0.897171932992156,0.896227298930118,0.896074006098817,0.895727543800964,1.06235518034551,0.893943785349521,0.893344416590584,0.891910035248032,0.89170222882028,0.88986004984593,0.888824483991999,0.888206891543345,0.887695324978689,0.886731559751532,0.886609109979869,0.887966531423279,0.888163910968278,0.889078129163906,0.888384333955175,0.886552911197275,0.885694352761232,0.885006643460001,0.884860814961698,0.885956010026993,1.1007372963944,0.891800973119233,0.906338105363514,0.931401761889366,0.937783401286637,0.884477601274381,0.88446520989825,0.884969721899436,0.888394554549022,0.88871111398833,0.887114751684209,0.876782396065354,0.876036531963755,0.866353978630509,0.866748194661544,0.868152632100596,0.875143678185932,0.878263816301122,0.876456307079154,0.87597871553953,0.941402025679972,0.93468021669689,0.886923503273794,0.887270250824084,0.887105873071763,0.881421187682184,0.881821220250059,0.9196712030944,0.919121822505812,0.965644569658568,0.964969785444231,0.875771277184718,0.873875200280308,0.872216551303379,0.87304697026599,0.873686082052928,0.881061678308609,0.881167849237241,0.894450098612961,0.899196907526548,0.897927011151568,0.896212123472136,0.933048578329773,0.912736716860929,0.896313358253477,0.896635506254702,0.909570558749456,0.848226272821884,0.854881362847576,0.854013539987839,0.854469613601508,0.853586481481924,0.853924251780822,0.869464991589533,0.856692390890081,0.856482340049153,0.851820618908805,0.847307817787433,0.846283261747536,0.84700261279318,0.85137876173625,0.856641526490068,0.855771962595443,0.856041083004866,0.856296167960845,0.844559962315565,0.836455232510965,0.835724834883366,0.823371183239883,0.823202856095157,0.936424323567372,0.838473650296542,0.839314452911127,0.8410605358699,0.840422592868276,0.840716917884121,0.840834238567347,0.843331030035888,0.869920117060351,0.847283091404582,0.959184859468286,0.859321614030679,0.880605420422653,0.979123832370372,0.906667676617026,0.908961584735801,0.970667863876101
0.982883047170862,0.984558761425602,0.986002705874635,0.986555432837652,0.986473906374919,0.985890449389832,1.08819141533207,1.09542509069236,1.09283320864084,0.991006500967579,0.992118997492456,0.992518437598933,0.993251917460637,0.993908452355128,0.994418636412907,0.995547352955908,0.995155373331879,0.996220296461353,0.995681071352851,0.997003250155483,0.996110749294795,0.997230555227642,0.996194803482795,0.997210124931874,0.996742649845842,0.997656019395524,0.997683609154099,0.997014357693641,0.996981798881502,0.996132663197046,0.995983706910401,0.994952485416519,0.994856764442106,0.989219354085893,0.989308813631862,1.21245736568635,1.2120811580906,1.1817292494996,1.21978893880671,1.20042316940792,1.18121869774414,0.966952316669336,0.967578057105598,1.17569205519425,1.24610546724939,1.29460035618942,1.29542442945595,1.34282655543862,1.38051894024263,0.950499774395559,1.31657828597745,0.941323960590436,0.956429464087504,0.968762754456661,1.02256679793944,1.05900083657052,0.90177477611364,0.896433840607921,0.896180741434025,0.894587241006546,0.894484859246945,0.891592153131034,0.889984768243791,0.889791224465736,0.890396013316661,0.891448440602245,0.891532814888528,0.891084208275236,0.888444926514384,0.888727557300764,0.887488303880565,0.885826697225621,0.886041288596818,0.886688569140209,0.888281852390995,0.889026948032289,0.888876518850842,0.886624997448831,0.886019415638006,0.884490086085548,0.884146954660082,0.884700182730296,0.884801871828883,0.884622273090846,0.885055833497267,0.88731477350647,0.88759443193796,0.88484308634182,0.884311378394075,0.885023672436612,0.888707692208343,0.889743609646105,0.885914815119821,0.881605012752318,1.01874202566504,0.867711786666339,0.866440039057458,0.875475202370258,0.874802175110378,0.875930283835685,0.875896156414429,0.876461917354929,0.882526586409216,0.881794872071523,0.900029003222771,0.900525152460381,0.884543639476195,0.882615886489797,0.882119201409217,0.883813031464298,0.886030595371307,0.88727568335638,0.875434646863098,0.870662401645405,0.869376839016184,0.870342515014405,0.872336460466064,0.873661024657016,0.879863862040078,0.880942735821119,1.04994034518693,0.909354635775167,0.903964940936417,0.903404132994217,0.903456195899355,0.90377905748703,0.881685744111469,0.881705429260102,0.907283460976769,0.890756390795791,0.860179412952398,0.857824338907241,0.855900500319069,0.855280744576924,0.853953654859656,0.868518896598881,0.946796891390406,0.854421139466292,0.853385350320926,0.846541719291016,0.846448733011388,0.846032844917699,0.852857005511455,0.855861927251231,0.855286371672464,0.856147827244356,0.856427390880365,0.836828392476125,0.83692472595346,0.836955967137508,0.825355108665673,0.827309414764139,0.831556967321358,0.878098507637991,0.840635907910274,0.840967181576304,0.841812415124762,0.841821178224534,0.842786965119307,0.843462560388715,0.845061329675007,0.846909259758357,0.852016571792061,0.853175776159158,0.887109513156674,0.897468986709144,0.844860051874881,0.927843044283774,1.02047974450514
0.983611531633707,0.985545878015096,0.986676415750479,0.986877931978644,0.986502585738543,0.986382724606224,0.987666261422143,1.02318485215672,1.10087758692211,0.990263903999152,1.10719689502272,1.10693763401467,0.993534585702274,0.993800531460538,0.994700652479384,0.994946033684471,0.995869590458693,0.995315023890141,0.996745552248298,0.995967734864207,0.997470669154515,0.996361443213186,0.997717633153234,0.996746041526795,0.997830495583898,0.997518442636596,0.997703485721063,0.99778675423701,0.996917791088218,0.997986086225246,0.997359080066423,0.996485480046854,0.995374806274216,0.989287447871072,0.989669743247308,1.02372945180705,0.986074673171863,1.18692449007318,0.975713470623082,0.974703692632232,1.37990982395448,0.968051003206877,1.3284590491511,1.30791091737549,1.26782699386318,0.952464319520297,1.35503537737624,0.949806547784797,1.33589360740141,1.31326049525904,1.31420022992358,1.35179581107845,1.35166443731747,0.912090948900968,0.923163874998286,0.903416612771377,0.895615487116409,0.89498975014315,0.893947837806559,0.89388490498614,0.892929494794363,0.891430159971897,0.890898059487842,0.890572409923297,0.889954702631791,0.889775052005375,0.892252903974382,0.893062124971769,0.886930034142422,0.887050622989757,0.886467730142443,0.886114782337653,0.885196038833064,0.886029898073541,0.886652036094502,0.889846037060476,0.889921093283497,0.889493432002859,0.884595349726147,0.884211753146275,0.883512887596773,0.883211784915854,0.884092309197958,0.88384792374991,0.884197411010927,0.967479325798233,0.923427293110353,0.879316896216339,0.97236877387848,0.963315420440288,0.883329435128863,0.884141351203186,0.884081023608114,0.883127118313055,0.878837215456609,0.876654653958166,0.875727280372507,0.87421941206285,0.875051153123964,0.875633336279336,0.876906413059228,0.876163177985397,0.875480700865497,0.881220782748583,0.880499416639351,0.958136851950326,1.07427736331526,0.881718414999723,0.881634033206694,0.887623289402592,0.979491082010423,1.07036301774217,0.873258678653838,0.871844324161904,0.870628816152662,0.871001396099583,0.873919189356878,0.876499709728868,0.8778159811174,1.05529681807642,0.899829559220406,0.909299891255921,0.90997288236203,0.914395262548875,0.915296159628881,0.99591878026906,0.881563309331559,0.880161209077784,0.871424763807601,0.869895684308217,0.865274378411638,0.858113874711505,0.857088432153136,0.858110560817726,0.859078997359564,0.868740717663978,0.868642381695725,0.860851440402908,0.991995500090363,0.958092052767366,0.848421210922016,0.850557069970651,0.852556243843146,0.85404225319928,0.853102819541678,0.85084473335289,0.843607139218518,0.838459308141916,0.837749388018367,0.837847061538236,0.828379798549855,0.828738206941186,0.82981042031927,0.876434836767372,0.931103705257499,0.903382277802483,0.902994127309092,0.843685306343314,0.843501945746013,0.843923815815335,0.843883817001076,0.848413071127728,0.850153766176112,0.852184015804388,0.852794863442286,0.853089967289467,0.841860621027275,0.836697650802221,0.838463697142237
0.983820305351735,1.06035769932673,0.986640373804614,0.986448054915105,0.984819551612687,0.984394199185336,1.08579781833063,1.11643052038385,1.09927343472537,1.09896344762469,1.10781674740572,1.08195855119103,1.05755405619943,0.993966277484677,0.994316618405333,0.995370705420243,0.99511138320339,0.996248577529675,0.995665916743968,0.997290408262162,0.996292429501751,0.997912570292865,0.996821016023188,0.998113246933479,0.99740905021834,0.998087644597624,0.998036309087202,0.997800359837393,0.998508990295829,0.997879104349393,0.998535663507825,0.997230121898856,0.996577681884777,1.10629079076602,1.00550725268872,1.01231738008422,1.18000515606289,0.977405923736433,0.976481948989015,0.974608735411761,1.22710096116047,1.23407838025308,1.20694406913464,1.25952378584675,0.955740717880708,0.954317227760703,1.29356133104747,1.08590395479826,0.943112063829373,0.946449648622852,0.947733985787551,0.959114127662144,0.959299555986394,0.956072584977921,1.35192717962879,1.08365566935468,0.896499288550186,0.89418594068062,0.894402855951961,0.894245933502955,0.892888398083368,0.890551250978056,0.890322405776494,0.890008164042254,0.889221231508339,0.889538545698102,0.888967468774674,0.887261307814865,0.886513624654274,0.885751754777675,0.886125926862936,0.886176441577397,0.886109756210634,0.885412826161773,0.886220942476018,0.884905274634255,0.885417356587928,0.88817867957099,0.887313142605352,0.88702946689305,0.88228847329617,0.88344699181065,0.88250114087608,0.883075706842272,0.883348146764295,0.883438541745748,0.879892187063251,0.879516693318122,0.880540077308651,0.881800910560533,0.881464904282223,0.88221191901176,0.880919075001727,0.88044382492371,0.878326418766564,0.876838499448816,0.875395211422894,0.874973805350108,0.871392759813552,0.87011075855783,0.87003238771782,0.872045075083286,0.872847074591624,0.873641221654554,0.967918243810287,0.912738610105094,0.910148699178093,0.90872573360922,0.991905922917135,0.88027866355185,0.880616548596949,0.880365318317461,0.879407150736899,0.874303700007409,0.875268368465801,0.87631388980988,0.880546169040887,0.877350593954191,1.03023427703625,0.989720313337026,0.898733691466052,0.906313720406246,0.907043796316574,1.00872661645982,1.00900060694364,1.00864619652037,1.02851447714168,0.949206409059767,0.868477287621937,0.868546808762291,0.866707570898062,0.858890776003539,0.858472976140443,0.857782254301834,0.858909087579766,0.868019939345407,0.866008098691042,0.863324023593359,0.862264166670951,0.860285126873516,0.860226928836942,0.857903183218624,0.857313444351467,0.856694954036901,0.850691743805566,0.850270529067041,0.842427322944724,0.839025155728063,0.836199567255283,0.830844632622835,0.829691341225866,0.829867471767817,0.830858482628797,0.836157728406038,0.837070224486354,0.83637407264069,0.843201336638592,0.843496097934614,0.844471201489255,0.843364567962658,0.844283161701635,0.84476522475418,0.851155045119898,0.851714053528912,0.852865646904587,0.901186228780848,0.931112637138079,0.836056522361894,0.952816849189655
0.984872149333972,0.985368511235337,0.985802180521893,0.985852619896126,0.985044268384079,0.984343736837649,1.09835646162587,1.09850552481022,1.01265102649029,1.03215114795798,1.10490512424944,1.08011334425599,1.09478895746983,1.14749136591043,0.994698301553639,0.995022290654513,0.995844293522193,0.995478799523511,0.996833109668153,0.996312197039973,0.997873324378632,0.996886094378024,0.998346216060416,0.997426104456739,0.998424184965935,0.998058674622717,0.998247832849119,0.998574731669598,0.998092892865142,0.998860060503754,0.997849523959441,0.998421487290232,1.10653263779753,1.13166259130195,1.12231078005393,0.989281378087364,1.17952531381052,1.1796183272495,1.1628401650606,1.22463504116437,1.22528436426841,1.23250947687822,1.23351547588249,1.27717816660819,0.955641213350003,0.955089820039056,0.981614012459545,0.952610153356506,1.30741829369589,0.948723434205367,1.31140429759573,1.40003690519642,0.967572924870726,0.936669392254628,0.95592432155382,0.904233892839943,0.89664808577186,0.89494970251942,0.893632260952794,0.893915878126361,0.892858904607007,0.889036410228158,0.888875372554925,0.888615172575695,0.88837182041729,0.887495953318615,0.888103299992637,0.885400424257454,0.884374675423539,0.884436715768231,0.885523853102405,0.885723772285031,0.885197470561423,0.886174602839068,0.885086151293299,0.884952340294399,0.884145500619415,0.887131795010276,0.887591544145089,0.887270595323835,0.883620897436254,0.882751756521573,0.882954556345816,0.881583069077457,0.881137160755492,0.881196332920406,0.881146747433526,0.977457772240866,0.881660740076825,0.881020766235126,0.881278089921319,0.879700473497429,0.880994083821029,0.87966440940068,0.879404330448923,0.877741139018644,0.87685026617006,0.876114334344906,0.869332989139347,0.868351062127644,0.869830134658247,0.870269910934195,0.87260113211949,0.873000272179581,0.874703163340775,0.875271448527816,0.945125785657587,0.947162661102462,0.994593116516873,0.879443898356587,0.880366790051594,0.879842413439702,0.877990419257436,0.875177198529853,0.87570990186069,0.876290788172048,0.882121519090722,0.886701972296194,0.88990774252315,0.906470427706219,0.907669697959259,0.998209203898571,0.986560058624177,1.0065849224747,0.932563685681091,0.983605582062694,1.09543453549749,0.902564951544725,0.867872737654565,0.86932508535671,0.881783383000707,0.859757224441487,0.859719175899775,0.861862865497046,0.860478841265429,0.866138766078007,0.865781113490785,0.863320889856459,0.862458046961877,0.86009358656357,0.860073583066629,0.859571376725441,0.858434956141563,0.858206041821544,0.850198995834949,0.848738148642936,0.842321137375866,0.961558542510359,0.834857197457107,0.833665147780971,0.834997978569128,0.836079282400707,0.836980948150189,0.837366719135354,0.83721337708999,0.837397024550385,0.837834402895539,0.843850620158432,0.84392568563394,0.844073572682216,0.844133199236642,0.845571729562627,0.845248294430248,0.897334968115523,0.904120014717825,0.91242545765004,0.938802512672649,0.951114322229266,0.965203545225463
0.985020673477478,0.986313093239239,0.986062630915575,0.985330564983969,0.985532387935642,0.983407989414173,1.04920135132348,1.08858732263147,1.08990083683952,1.11388130372162,1.11511741110972,1.04092951252925,1.03571587782851,1.14787322219248,1.14693959476867,0.995560303934943,0.9955132773134,0.996582962454138,0.996371922796817,0.997781476909179,0.997142701120283,0.99843771062602,0.997718065209645,0.99876792219618,0.998151522199509,0.998612009486453,0.998550949224955,0.998326543395635,0.998822996427071,0.998226107382593,0.998842219338572,0.998483366485112,0.999153110807662,1.10402540992085,1.13967473167309,1.02694427741881,1.00918725744428,1.15845702004328,1.21702507799844,1.22352143373222,0.966879185455977,1.20210715025247,0.961200066201555,0.955046758898976,1.27879724386443,1.28426565267782,1.19137220341827,1.19394370010648,0.943358282028174,0.943348692554566,0.955553337741638,0.956365468951383,1.0463843253296,0.935821916151925,0.937457548839584,0.899131272243862,0.895979900489881,0.894046843722746,0.893745993841278,0.893336934315359,0.890008346606702,0.888268674816588,0.887665106590949,0.887925065154754,0.887487970526327,0.888417254439914,0.887897642813537,0.884996099089583,0.883597003075701,0.883159835099377,0.884339047662411,0.885467010253283,0.885618363656952,0.884894889578625,0.885688558922909,0.883926396533042,0.88256236108587,0.882077861717208,0.88216112630521,0.882700754079172,0.882938537747437,0.883080550045759,0.882467344806599,0.882948926436812,0.879609503079571,0.881268161322292,0.881066966840152,0.881259424314901,0.88179068855202,0.881919483082848,0.879365175189969,0.880041803355889,0.880562977026824,0.880808640732308,0.879158505048813,0.879056934187717,0.889848958169326,0.868789625563387,0.868351688376407,0.869322075419735,0.868411432587927,0.870459711740549,0.87047847294177,0.872525439430287,0.874088867471354,0.971680342725352,0.936403952705542,0.997145967602861,0.954706175905894,0.878806487544738,0.878457434059245,0.87877351826634,0.877443124865288,0.876476261359755,0.875753274658212,0.880252595629538,0.884905494370275,0.886412822500141,0.88870579983287,0.889396576568633,1.00772130899553,0.996581454712394,0.922612114038497,0.943512526188955,0.967934580317874,0.984157287454108,0.902249626770493,0.902775717642713,0.885864796332345,0.857462171894107,0.856494178736249,1.22931052848462,0.905744470630816,0.858213772037895,0.973973377668941,0.908011576154926,0.859602070297926,0.86103216179202,0.861883700340524,0.859711363515871,0.860328571121897,0.860403537348913,0.86029953694355,0.869667349679681,0.851235527878615,0.851886984957305,0.938458475748939,0.837427052989347,0.835697475968044,0.8352774570079,0.83485838964384,0.836687802464722,0.837321991596623,0.837649813187855,0.836615427936505,0.836684904014802,0.839417998975598,0.84134763005624,0.843223951214494,0.843512535554796,0.844928990210442,0.845497051800956,0.845430155361713,0.907938757922654,0.908634957386382,0.921923983218894,0.942116718234465,0.82631369871632,0.822670024984363
0.999537573738107,0.986255366292234,0.985902778468162,0.984904268310559,0.984478253917839,0.982170959193701,1.0486818276142,1.12169740592506,1.00592411074909,1.08928982523551,1.03662972916625,1.07956221693492,0.994942445681109,0.995336567432175,1.125495276612,0.995652861800242,0.996127005281592,0.996359988302221,0.997476718135944,0.997311663725811,0.998452619478327,0.997927522760176,0.998837798682749,0.998222691119852,0.99874109174786,0.998465446451362,0.998544693334697,0.998757327130956,0.998428319156762,0.998991661455186,0.998630333357788,0.998908681304808,0.998863688000009,1.10074763358458,0.994314392131404,0.992337812147498,1.17180345095023,1.1521903379053,1.21574912451058,1.21576829323132,1.07120500459912,1.22193084649373,1.23079195166395,1.26852567504946,0.951097919545998,1.28411179062045,1.19087407501531,1.19365955642468,1.32183494213493,0.953278213588425,0.932599511283264,1.20933572138214,1.01758835458257,0.93669796914382,0.900380704144456,0.897298274387499,0.895179767964455,0.893796366173472,0.892493980073733,0.891910809245187,0.889926836345122,0.887954126104301,0.887436539306532,0.887561816656535,0.887822099121765,0.888208297006503,0.888700981020773,0.886951480655001,0.882583190642512,0.883823470961202,0.884382275043339,0.885946258513899,0.885384766421755,0.884971419847467,0.885280474831939,0.886643409988459,0.881140223181965,0.881381287928791,0.881061888900212,0.880905227041911,0.880831542606667,0.879826689482401,0.880458120903597,0.877765346220192,0.877720361803401,0.876570863486445,0.877150908447778,0.879373620140527,0.879873051000167,0.877066376300892,0.87725308175303,0.876508153834239,0.876527321778113,0.879331346802104,0.879626249725008,0.879318723232074,0.880042133311531,0.867470109502743,0.868564975267042,0.868703579910495,0.86922950335193,0.868993972833055,0.87143854645109,0.871842822036799,0.873859060133479,0.874118239083578,0.921603647603041,0.909210167351046,0.908332300226474,0.958495168739424,0.878110148464828,0.877485376110022,0.877713225999908,0.876516470488486,0.877618614871647,0.878896528646797,0.884674341346909,0.886543071232496,0.887840585679007,0.889562650551825,0.897782487997981,1.00278958093622,1.00909886010577,0.944563517342955,0.97363555929065,0.982272038885432,0.915723265676637,0.979992691511779,1.17915853566146,0.979311935759938,0.897837003432939,0.990804167728524,0.908435365346082,0.916333422550448,0.909539232954222,0.908783897044924,0.87834943984585,0.878440202896168,0.879595396957782,0.858730050844839,0.859918893403086,0.854022489917996,0.854368144034483,0.854247737033365,0.853074099003123,0.852726693808933,0.950468547193353,0.837923082253789,0.835163779677612,0.834846227745644,0.835427812563769,0.836844697867902,0.837504659639572,0.837293028794618,0.837176898931419,0.837950172900336,0.838956516056796,0.839695883123441,0.841437080483007,0.842842972280358,0.843859475991147,0.911806331354172,0.910440167079667,0.904766634427489,0.905872604295512,0.838106154917442,0.879266834768587,0.824837191280972,0.823159869457224
1.05521930640396,1.06461623254095,0.985255459705412,0.984880660851005,0.984467364351667,0.983685135356642,1.08436335135722,1.05270803145749,1.09324898354723,1.03000399274135,1.11390672449284,1.09908523657743,1.11819670845351,1.10796540958327,1.11017171103177,0.995875290181615,0.996421563427169,0.997170232304145,0.997411582482991,0.998243802544396,0.998173443632095,0.998773968340122,0.998381424887945,0.998772724704679,0.99849464585901,0.998780099904101,0.998904116137941,0.998914351519173,0.999199887858713,0.999096007203409,0.999482843251108,0.999227104276549,0.9991122418573,1.09107123443139,1.16617043250132,1.0059631705541,1.00344521276299,1.00212586129357,1.15371976774576,1.27587063898556,1.16367683690145,1.30263508880796,1.23114647913138,1.23179403760711,0.949024504942191,0.943927576471431,0.94369285014541,1.40429162864543,1.3104552394276,1.31020822530958,1.27302818493475,1.27229965692213,1.02225429786729,1.18545552636599,0.907705492511551,0.895164306817345,0.893801321702464,0.892948706592689,0.891399737980518,0.889923917203082,0.889739113328697,0.888108258546332,0.887962345054278,0.887860179937179,0.888628464112972,0.888548157462933,0.888529452913071,0.883352525866719,0.883015775847558,0.883477141701111,0.884318403916188,0.886234381612326,0.886625877968671,0.885165400399781,0.884977801707593,0.932381233078349,0.880360071871251,0.932527996704188,0.879836220706036,0.880093884106364,0.878801724121091,0.878895186060446,0.879083728957127,0.879027046445498,0.87755051067328,0.876204794263425,0.876422569208122,0.87699355892008,0.881528210171619,0.875295402251862,0.874615124672216,0.872494616973224,0.874014455431084,0.871427042380645,0.870107257807165,0.880823319310335,0.88087531550456,0.866683483362927,0.866670478686052,0.867946143661477,0.867661692806249,0.870314531264489,0.870931638847885,0.872004340570763,0.872367492197899,0.873834394555073,0.874492580022488,0.874638064812368,0.959713361194443,0.87554406638275,0.87608570774279,0.876735070501459,0.874455934342101,0.87547990214991,0.87557587145572,0.880380871978487,0.881436304075892,0.887045080331989,0.887191469367896,0.885281611443686,1.01745220161572,0.987848217183266,0.925636136927001,1.01493517822595,0.946878755164699,0.984095681964953,0.8909730571015,0.897385214843658,0.891147933032833,0.853366960626969,0.900178966329408,0.904766072279841,0.905591904249183,0.922455708892111,0.847232273020594,0.853848097898994,0.870433417533856,0.952780376236614,0.885047189977793,0.884977094845557,0.879623263090724,0.854254509434086,0.854267490291545,0.853840462465284,0.852678146843844,0.852039724738835,0.865336349611877,0.838024438952794,0.836067733989601,0.835177376134237,0.835176339081538,0.836128416513047,0.837287135128916,0.837253994259038,0.836433147712945,0.959552104504932,0.837903399263709,0.838332546459177,0.839361172090154,0.919253709420681,0.919256022320936,0.919977187311417,0.918824352156562,0.903639336649662,0.912993078524926,0.931320742951156,0.930879507052049,0.821380639849307,0.821130456921965
1.063821027716,1.06430744122335,0.985096823172491,0.985056222480361,0.984624133824146,0.984242865506739,1.04451533408404,1.04670265175659,1.04070435721676,1.03783019000279,1.06654633809795,1.10102313103381,1.1064764202173,1.10733165347542,1.10824607321232,1.0214531169338,0.9972101838801,0.99750246991977,0.998004520603956,0.998258826264712,0.998595988555328,0.998645420084066,0.998845142903279,0.998849758349672,0.999001999742199,0.999080289228253,0.999254575581874,0.999392326913948,0.999540361381186,0.999740802358265,0.999910745030814,0.999927784450464,0.999865299504907,1.08857981489811,1.11994343042668,1.00689477014631,1.00550488117673,1.00504788265299,1.08548526708246,1.21532564771185,1.2201067736299,1.21458748514295,1.23973888088492,1.2388939521364,0.991394765929272,0.972942298173727,0.960707408449433,0.988007550378387,1.26906728860737,1.27072678207101,1.27175507088234,1.27249935909039,1.02280526178727,1.02326129504544,0.940688291134576,0.893690592103318,0.892986749453736,0.892277445213711,0.891259580525089,0.890296350064907,0.889339622177152,0.88840589029793,0.888015055624295,0.888006591479024,0.888229086227429,0.888149224084057,0.88729605672521,0.884017603998185,0.883309405986351,0.883597259884926,0.884119139748738,0.885288021579584,0.885966015674408,0.901429912660872,0.914131352095197,0.933634507715251,0.93424868209671,0.9338514557423,0.906658403321984,0.878980576035761,0.878749109526043,0.878692592928164,0.878973160592543,0.878480266254022,0.877773112131241,0.876866853919023,0.876335763306608,0.875864616640815,0.874753275749894,0.874112828472022,0.873684899500869,0.872303658267583,0.872124964795076,0.870449340160153,0.869530816124353,0.880985795526887,0.881130614002414,0.866466965072486,0.866820378081965,0.8672434255915,0.868209432848822,0.869220787605485,0.870626205184023,0.871128583682752,0.872150121516252,0.872897086433163,0.873768867427296,0.873842132329908,0.874268439201886,0.87491889877106,0.87519138037319,0.874770065326704,0.874701135053775,0.875065334107682,0.876137316726002,0.880028907193421,0.881978532967197,0.884548397968084,0.885546217964009,0.886240209764328,0.920460999829867,0.941081655270367,0.93164838087532,0.973944308382905,0.964550490500781,0.977827654220356,0.885396246054694,0.880214359764774,0.874970542292079,0.868969814636947,0.879884035384812,0.892238707965419,0.910514651388119,0.91477140653461,0.875489549387403,0.859742770082789,0.870144957351392,0.881843197827202,0.884068889894613,0.883979617824363,0.881484794497276,0.873339207909921,0.861958147903949,0.85238309930148,0.85185909324179,0.851416636862061,0.852150364891083,0.837329415804864,0.836043616395019,0.835199718413487,0.835197021055462,0.835460913443797,0.83580662804899,0.835540371653508,0.835347023189813,0.836667411082903,0.837187976204777,0.838062645733214,0.838973978225188,0.919324003631684,0.919532312269881,0.920258408701064,0.922046779911393,0.924376010908484,0.927624735708867,0.929593111735353,0.872100351636682,0.823304714390027,0.822172953269916
1.0922234455617,1.08030067442116,0.984872599260414,0.985503814652056,0.984634279724128,0.98430951516963,1.0256271936431,1.11374331847983,1.02615225732181,1.03280344997376,1.00482226108131,1.10424647034767,1.10634705675645,1.10696902519523,1.10738588468722,1.09558456489186,0.997390804084267,0.997834602034966,0.998227507737734,0.998598735135369,0.998609365952679,0.998821212890802,0.998900463180411,0.999117244784208,0.999177296851541,0.999399931222706,0.999444428632693,0.999752730695612,0.999769810710011,1.0001925933003,1.0004637083945,1.00051563279787,1.00046196281458,1.09238962966614,1.20757113098831,0.992158696909646,1.01063296802101,0.992976541777118,1.05743018490892,1.22828043737089,1.3020976500565,1.07929306264791,1.2434822588403,1.23297716820485,1.25147967105233,0.986164321650564,0.940261011346441,0.939377222876719,1.25734684463657,1.27638121553666,1.32076795558105,1.35214627852967,1.02081563198962,1.02185705592862,1.0257558616274,0.892948253540355,0.892364768974077,0.891630055866217,0.8913746496402,0.890364046218145,0.889155969801364,0.888014602789681,0.887729733524924,0.888018807907912,0.88817210377351,0.888344840348936,0.887927335884716,0.882581885095279,0.882952763020086,0.883283033263567,0.883361052255251,0.884460351519892,0.885695596077254,0.940746728306437,0.943325477288391,0.985779148727283,0.941078972053346,1.01150449970507,0.921474588730303,0.878067754137817,0.878015519220031,0.878285011440904,0.879116199031016,0.878585545280613,0.87769996287736,0.877591192337683,0.875343257134228,0.875484773037693,0.873989492006184,0.873953354029845,0.871913132263305,0.872093784301143,0.870477248404118,0.87014961215846,0.869912193049079,0.879008840355097,0.913180178794287,0.8660196514511,0.865925614436561,0.867182338756735,0.867195343143152,0.869268714833299,0.869743166528025,0.871054895602234,0.871119945327644,0.872769383748157,0.873375496475477,0.87358781601312,0.870425657919511,0.876355260639052,0.874616718337466,0.873156923905791,0.87351689674234,0.874703953535397,0.875037957550778,0.880624244792622,0.881791396420355,0.883976040813679,0.884268921588998,0.879474353908071,0.879128945107571,0.954939675286479,0.92356495322271,0.985247160254462,0.949101597045028,0.986673961951371,0.860940155506722,0.852901620304296,0.842119619805734,0.842744941615362,0.841346171019517,0.841596392631749,0.934475526329829,0.936785671398439,0.888803411281359,0.850775549688144,0.869507602085585,0.879931023026898,0.885098759145123,0.885483992058426,0.887523926221888,0.881180131492906,0.881743844616056,0.851405251430052,0.851006408522897,0.849030360340003,0.854151044472466,0.83772202281281,0.835605064930394,0.834432184797948,0.834724521907245,0.83532206171904,0.834821269399711,0.833846910098205,0.832704022516014,0.832383686296732,0.962946925951615,0.832644101547123,0.83288246865056,0.93238270397607,0.933886324599607,0.832096713746033,0.925345808803537,0.930556079686456,0.928959027171296,0.937823100144346,0.825965535953156,0.825790034314903,0.822966266224735
1.09221839935898,1.08268954771498,1.05990087358707,0.98468400647121,0.984574785828262,0.984743667632073,1.0248270107223,1.08619874417486,1.12310227022553,1.11048654516987,1.03169429905474,1.10062246623524,1.05210930789267,1.05301115378788,1.03456957567306,1.10376786061778,0.999103642910583,0.998306630519235,0.998767420342879,0.998701544892149,0.999077948198292,0.999213278303756,0.999477572714581,0.999535928272874,0.999752568907726,0.999729334523565,1.00006685208389,0.9999840190222,1.00050677369388,1.00037533176471,1.00053091794098,1.00044983898939,1.00060595617882,1.10275539520189,1.10212170516528,1.09460935631619,1.01451643893029,0.992779483826483,1.224625853861,1.17618620940951,1.00135588002773,0.960546365264572,1.23399070158187,1.23464047466491,0.94628481886895,0.9464938231738,1.36507654719915,1.30613739765804,1.3890104534791,1.3202231872739,1.31860757085719,1.35571203484007,1.02508303900907,1.01977669071066,1.02005968913466,0.892266500113413,0.891491839655079,0.890700974827173,0.890455544157023,0.890337254243228,0.889147239002082,0.887528431719667,0.887120006935986,0.886804802867409,0.885193750590636,0.886059383890668,0.885999902014999,0.883401208373268,0.882136318374748,0.881725599941516,0.881871058040476,0.881789949663311,0.880153042862456,0.928362757115958,0.90387341485502,0.933962917829234,0.933838381675762,1.02410072285477,1.02473523757533,0.869574070460302,0.870339418175626,1.01124475508226,0.878710390643105,0.877205785592302,0.877499349377177,0.877955888273218,0.873038124238314,0.872179484465816,0.873915994733451,0.871823813357743,0.872460698802391,0.86957797317934,0.870692093187686,0.868992331820974,0.870361131289868,0.915535937393608,0.873828918997876,0.864692114370705,0.866105024758407,0.865575768988898,0.867347322935577,0.867330175042415,0.869370980434591,0.868858108593116,0.871848226127283,0.871070804602666,0.871281763449914,0.870339984944877,0.871051386747079,0.871278284928745,0.873112958277261,0.871766537813824,0.872088329392286,0.87304406643652,0.874660641569971,0.880437254012758,0.880203919903336,0.879212994059869,0.879715251417761,0.953595491676319,0.874914645240658,0.873840921549706,0.941384154193541,0.971499380834754,0.981862771315444,0.915228331457719,0.913496582263878,0.840676122093318,0.84089335061845,0.840851716086578,0.910251044380152,0.933599891180705,0.933564135917403,0.932025089111694,0.890170294430686,0.889389163876424,0.881342167379333,0.997495280357566,0.88541246864992,0.885270982482879,0.883645970757882,0.897692098411365,0.905601398342883,0.848866953101015,0.887262146301116,0.959408787417822,0.957653154163073,0.838632448099345,0.832077154858147,0.832087635958108,0.83222881811082,0.83095101129796,1.02735000300082,0.861811695672871,0.83165729920802,0.832252920912928,0.83021706959167,0.831901480379861,0.831165962488171,0.846941681431831,0.934185257472189,0.933922707685119,0.932355332334751,0.939711856547289,0.920444735112245,0.878869111464903,0.832725615771665,0.815015292069051,0.992873307721297
1.05446926683918,1.0354115510203,1.00299508342001,0.983955243306145,1.08913309310926,1.07251226903193,1.11653799895758,1.08184366731039,1.01031319388596,1.11031933988428,1.08880413904081,1.089455414024,1.05099758193539,1.00190185782254,1.00191311448232,1.14145721837475,0.999541719282417,0.999352608787812,0.999381654380582,0.999626124790677,0.999715770850207,0.999951597042397,0.9999868462294,1.00019527642512,1.0001665512656,1.0003684983994,1.00016036302665,1.00068632803614,1.000420755966,1.00107315491756,1.00088882165123,1.00128675892666,1.00058646334034,1.09196647265847,1.09107665942875,1.18670062087245,1.12031196697965,1.12100466557895,1.27816371099176,1.17855691137215,1.03503492894957,1.03249364144487,1.35834061686379,1.30502668943739,1.35749456549126,1.41350870323286,1.33113425498832,0.936648255686704,1.3119993292238,1.31988012583703,1.31714217959644,0.971035378640663,1.18694244007157,1.03000969537849,0.970641848999871,0.969583697049538,0.893883067895505,0.890470496837723,0.889866376329406,0.889271433258715,0.88907104764239,0.887826829198037,0.886878715149518,0.884954399787468,0.884359505808853,0.884586865827731,0.88449044709841,0.883690081965828,0.881698042604556,0.881135467763535,0.881109377488114,0.879563575191267,0.878734497434584,0.876597040642681,0.8744210804448,0.989971153217293,0.934478861466837,1.0240485102818,1.02655502633762,0.869865767586404,0.869803940190357,0.872664497476893,0.874842618968816,0.875994608894846,0.875902446256719,0.874824686215166,0.872229233341876,0.873774145982156,0.870162217570759,0.872222919873319,0.869500023213656,0.871590843677226,0.868205782847715,0.870770199526777,0.870752559701458,0.872957380006227,0.873529878469695,0.864466900773039,0.864512204768944,0.865772417299257,0.865532692339455,0.867213851953213,0.866055641531592,0.868954221678695,0.870830522229452,0.871748666512253,0.869065945704937,0.870540062570032,0.870816003843386,0.87120290133863,0.871745072486499,0.872303656577763,0.871500963724143,0.87247148597859,0.873063840780795,0.8789786748223,0.8776557726124,0.877556725121084,0.874370786971508,0.872672372329038,0.871632816979432,0.872107708531163,0.873223574893157,0.98749597550509,0.903200158095977,0.857479944759279,0.92780888836717,0.84103563480093,0.841755642016967,0.842315066169577,0.832086180927404,0.832282374701572,0.917282549571336,0.897588423384477,0.912657583365637,0.887057368733989,0.888411034834753,0.888152314040802,0.887481753529411,1.06139674773197,0.936173518643251,0.868964996176932,1.00805595182363,0.846935128637394,0.895950731708089,0.843908649021898,0.883948003545135,0.832290566653872,0.831887752433933,0.83160795358931,0.831505341807029,0.831302874038681,0.831467527181523,0.903506219929194,0.825026190893939,0.824816113409863,0.971212968462353,0.972259859816455,0.98616251545326,0.943300689324245,0.941904041876204,0.943532412872889,0.942939706082601,0.940604395498292,0.949365199472629,0.949151319544202,0.944319080846063,0.815279591565793,0.993374917202826
0.99894636327045,1.07722439828956,1.0478786305209,1.04819512338605,1.09062000346596,1.06337006712775,1.05733680701402,1.07501269795351,1.08897023475176,1.08897544404057,1.07922106760196,1.00677616146597,1.00298897771113,1.00260688299757,1.00296395338546,1.00230026045891,1.00037559231917,1.00017419698047,1.00041275303063,1.00013874411041,1.00050035822219,1.00043570812374,1.00052884235357,1.00050960733495,1.00070503301674,1.00053721170093,1.00083476730978,1.00035471228524,1.00091920428697,1.00034580698936,1.00071266559942,1.00064751180675,1.20442711429231,1.15345249621223,1.15363741953507,1.15453211960366,1.15477078582649,0.984193663495874,0.984731102042575,1.16440683159276,1.17616578524965,1.03853702832367,1.03507015196465,1.0587281331365,1.36949653166951,1.25261745570307,1.33345121285792,1.25906672016977,1.38008897003152,1.34897129915026,1.3271749538228,0.943007951447623,1.29681826900482,1.32084533494943,1.0388857595509,1.03884474447055,0.978185554449005,0.893543939120401,0.890021483703805,0.889900698948585,0.889431744437669,0.888070512590951,0.886182052515026,0.885229777155713,0.884854125355535,0.884576542540838,0.884123999916491,0.882822295162429,0.88155867249796,0.880638704213932,0.880412656369817,0.878611819396589,0.877655613086758,0.875596868551228,0.873698006000772,0.939657085874014,0.926304069784625,0.866460546172065,0.918746489120331,0.949923047599878,0.867811877320797,0.870309941237771,0.871247236195582,0.872407488267683,0.872563872293802,0.871810003569508,0.872549818075817,0.870040236532499,0.87233850079553,0.869169446142783,0.872170614821565,0.868513023107125,0.871353010436325,0.86908597982738,0.872941356889286,0.871378216655334,0.872410381778153,0.863317487336083,0.865155214033243,0.864487541690851,0.866907851367392,0.865650749749431,0.867561825919159,0.866205933433045,0.867048695401449,0.866416407741687,0.868317177459785,0.86953396546526,0.87057710111371,0.869229583509492,0.871696042191426,0.871459819021322,0.871981277014202,0.870974003017414,0.871881391990958,0.873109445371555,0.87637554431744,0.875516441535365,0.874499779431276,0.872167982564501,0.87191191309969,0.871896865729704,0.872604760361193,0.974663102128645,0.903086698804003,0.857014164508019,0.927564052910938,0.840998529617007,0.841444217121276,0.833309572718682,0.831984320794029,0.831912487631743,0.831562795879429,0.860320337276667,0.84083804450749,0.899338358946891,0.842881292409091,0.843350407430479,0.887517410970341,1.20003803115544,0.84388797499703,0.844120982852761,0.950048395743281,0.844322577058336,0.842892304378508,0.890052369444721,0.888347664542908,0.832476303677311,0.832410785380858,0.831255393927121,0.831668626119055,1.00561060550452,0.826658200458207,0.825709730494126,0.824976566271178,0.823132211892559,0.976476232815149,0.974886521297116,0.821113004721807,0.82120572659392,0.819333860894622,0.945698036325125,0.916082172288633,0.941201623533345,0.918529597460148,0.95665922865709,0.933302498334768,0.814947449438724,0.953284727103184
1.09913392263745,1.054626194389,1.06670721864158,1.08312724368622,1.04675749806023,1.04653057933058,0.999501623922193,1.08685261737112,1.03567135926301,1.01300035989947,1.077953955658,1.12301412266026,1.00336386544295,1.00336408853857,1.00274323226953,1.00244739210868,1.00169556175753,1.00164393025976,1.00101529046858,1.00098636742791,1.00108085974806,1.00126781487476,1.00121415162128,1.00124525251207,1.00104430554172,1.0011697837933,1.00062389041082,1.00093289781831,1.0000690912446,1.00028774465139,0.999491988881469,0.999545834075227,1.09207452944011,1.08301200382129,1.18597508027493,0.99112613055632,0.990371834554912,1.03549221546226,1.04836984177507,1.04817875231456,1.36415391122436,0.978326630861942,1.09523749583772,1.0755217702364,0.949123784679008,1.25122907150722,0.986020962320255,1.38729960004526,1.42340654682287,1.02750227696685,0.920902396601812,0.920247799082012,1.29345733731893,0.99025774803461,1.0317518789346,1.03047667603565,0.984074985782264,0.894378517618052,0.890640885970925,0.890209346572032,0.889543955185101,0.888647683220579,0.886281136923949,0.885617016594527,0.8851261553512,0.885095565054333,0.884587441397422,0.882880122048599,0.881801182392955,0.880728839537447,0.878701755554071,0.878096564550542,0.876268530474511,0.875031023464679,0.943240066564669,0.941974838821317,0.925338568820592,0.925339691103804,0.919100196021414,0.905715564970004,0.86718155006797,0.869050318267193,0.870005456648662,0.867593132588185,0.874198197753145,0.872140519315548,0.869929771509031,0.871970970655866,0.869559995697138,0.872035078290569,0.868303237634742,0.871288080464315,0.867650206010933,0.87176286132015,0.870937935544437,0.872845699045358,0.869819504601353,0.86912422623003,0.864676781889148,0.865738986437518,0.865545286387982,0.86737079671781,0.865432239106699,0.866842022663882,0.865002963374407,0.866534704036512,0.865912250486218,0.869055620537896,0.868471510284663,0.869205128262299,0.869537629551727,0.870644318170509,0.87000745461821,0.871737696240385,0.871516378101229,0.874021912769575,0.875139486887162,0.876458692178202,0.876182006962244,0.872472468302751,0.871892299424488,0.871996942251058,0.87217279724633,0.941162694072427,1.125692350369,1.08952568830305,1.08971677752392,0.918220167285479,0.915232188977438,0.832313544772603,0.831660829227089,0.831184233886443,0.830643968446877,0.927762620932723,0.840145602604422,0.840436273211063,0.882978828002806,0.842127907732728,0.84100826158923,0.902915017240788,0.842171154516693,0.908577899323537,0.85725421730589,0.932151685319872,0.979150704307945,0.83313558804631,0.833390188440028,0.832854110869872,0.891261553598906,0.828520133320448,0.826691375205019,0.825317573228246,0.82231979759191,0.822181811106927,0.822551339215231,0.821441077979545,0.979538597673812,0.817102845172631,0.81626934020408,0.814625118084229,0.811824610488418,0.810603841549647,0.941285769885616,0.94073310173928,0.928638388382169,0.90398087891832,0.932322690513682,0.957325732272878,0.964024043333035
