1.15345, 1.15109, 1.22587, 1.25423, 1.21939, 1.10637, 1.10705, 1.31278, 1.09123, 1.09078, 1.08607, 1.08053, 1.07091, 1.07149, 1.06821, 1.06412, 1.06461, 1.05979, 1.04811, 1.04504, 1.04375, 1.04198, 1.03768, 1.03514, 1.03326, 1.03113, 1.02974, 1.02846, 1.02757, 1.02127, 1.02286, 1.02427, 1.02335, 1.02385, 1.20273, 1.03446, 1.04025, 1.03975, 1.04002, 1.03555, 1.0364, 1.04163, 1.04407, 1.05715, 1.07864, 1.15668, 1.20564, 1.07685, 1.07535, 1.07498, 1.07268, 1.07176, 1.07777, 1.09031, 1.09136, 1.10494, 1.09723, 1.10317, 1.10447, 1.07551, 1.06331, 1.11908, 1.10412, 1.11337, 1.10138, 1.10198, 1.13381, 1.14043, 1.12259, 1.16779, 1.18699, 1.18453, 1.18089, 1.13281, 1.1988, 1.16476, 1.25026, 1.23296, 1.26278, 1.18054, 1.13297, 1.11643, 1.15045, 1.14389, 1.21827, 1.17692, 1.18417, 1.09842, 1.09524, 1.11368, 1.07136, 1.02517, 1.03325, 1.04346, 1.00837, 0.985239, 0.985011, 0.956216, 0.957458, 1.00771, 0.953317, 0.957996, 0.955637, 0.95574, 0.965181, 0.970226, 0.990169, 0.954397, 0.958998, 0.957754, 0.956299, 0.955076, 0.955792, 0.958228, 0.960163, 0.961942, 0.962363, 0.960746, 0.957343, 0.963027, 0.964338, 0.96768, 0.96709, 0.962598, 0.958835, 0.957319, 0.96734, 0.966187, 0.985506, 1.08911, 1.00771, 1.01014, 1.00627, 1.09459, 1.03435, 1.11344, 1.11181, 1.06323, 1.06541, 1.06661, 1.06148, 1.05651, 1.2673, 1.0337, 1.03575, 1.23651, 1.01209, 1.01694, 1.21779, 1.2192
1.15372, 1.15291, 1.29926, 1.25281, 1.17935, 1.10854, 1.1056, 1.21529, 1.09088, 1.08998, 1.08418, 1.07865, 1.07187, 1.07213, 1.07119, 1.06436, 1.06379, 1.05922, 1.04712, 1.04541, 1.04481, 1.0395, 1.03832, 1.0354, 1.03453, 1.03244, 1.02839, 1.02845, 1.02872, 1.02493, 1.024, 1.02308, 1.02419, 1.02178, 1.02883, 1.18356, 1.03978, 1.03956, 1.03979, 1.03867, 1.03808, 1.04245, 1.04476, 1.2294, 1.07869, 1.12334, 1.19578, 1.18863, 1.07608, 1.07463, 1.07476, 1.07337, 1.07699, 1.09242, 1.09456, 1.10923, 1.10629, 1.09896, 1.07832, 1.07781, 1.0526, 1.10119, 1.1083, 1.1684, 1.12661, 1.09858, 1.11968, 1.11826, 1.13554, 1.16354, 1.19233, 1.1915, 1.23218, 1.17807, 1.17918, 1.1781, 1.23682, 1.23741, 1.18248, 1.15851, 1.14383, 1.1423, 1.22884, 1.18475, 1.19467, 1.19331, 1.15023, 1.13633, 1.16357, 1.09229, 1.08166, 1.11585, 1.05002, 1.01272, 1.00969, 1.01098, 0.998617, 0.956132, 0.994124, 0.971599, 0.962188, 0.966889, 0.957345, 0.948171, 0.959848, 0.932262, 0.933081, 0.954015, 0.955908, 0.956001, 0.954787, 0.9547, 0.955017, 0.956564, 0.957984, 0.971278, 0.960037, 0.956193, 0.956146, 0.963669, 0.964959, 0.966695, 1.02268, 0.958682, 0.960185, 0.95873, 0.964307, 0.96757, 0.972832, 1.09295, 1.00685, 1.00859, 1.07696, 1.08902, 1.09662, 1.08943, 1.12465, 1.0852, 1.06459, 1.06642, 1.16122, 1.0584, 1.04946, 1.28143, 1.25215, 1.01234, 1.01135, 1.01545, 1.01037, 1.00757
1.15414, 1.15399, 1.30233, 1.31093, 1.18422, 1.39266, 1.10655, 1.29135, 1.08861, 1.09004, 1.08351, 1.07863, 1.07353, 1.07193, 1.07272, 1.07195, 1.06507, 1.05397, 1.04657, 1.04557, 1.04665, 1.03976, 1.03906, 1.0361, 1.03531, 1.0319, 1.02931, 1.02907, 1.02997, 1.02563, 1.024, 1.02437, 1.02849, 1.02704, 1.02908, 1.03468, 1.03628, 1.04017, 1.04125, 1.03796, 1.03869, 1.04329, 1.04853, 1.07148, 1.07883, 1.10296, 1.16436, 1.19118, 1.07828, 1.07687, 1.07864, 1.07351, 1.07587, 1.0884, 1.09563, 1.11223, 1.11271, 1.09945, 1.07471, 1.0865, 1.08644, 1.07038, 1.07616, 1.10123, 1.19559, 1.17079, 1.1778, 1.14238, 1.17716, 1.17852, 1.18576, 1.18241, 1.17288, 1.17175, 1.18077, 1.28752, 1.23299, 1.22852, 1.24677, 1.19374, 1.24331, 1.18557, 1.17499, 1.19142, 1.20091, 1.19997, 1.17484, 1.13435, 1.1628, 1.10349, 1.14767, 1.10102, 1.0741, 1.15066, 1.03023, 1.01771, 1.01119, 1.01197, 1.00579, 0.964227, 0.964038, 0.953013, 0.986509, 0.966841, 0.965036, 0.93343, 0.962985, 0.961181, 0.95446, 0.955044, 0.952635, 0.953887, 0.953442, 0.964766, 0.95731, 0.956805, 0.984808, 0.954095, 0.955913, 0.985342, 0.964437, 0.965348, 1.01243, 0.957539, 0.958391, 0.956059, 0.982432, 0.967494, 0.973183, 0.976658, 1.05657, 1.00733, 0.99765, 0.997748, 1.08468, 1.11658, 1.10076, 1.12623, 1.06403, 1.06498, 1.06209, 1.33948, 1.18067, 1.21291, 1.26112, 1.03016, 1.01132, 1.05029, 1.00814, 1.00609
1.15426, 1.15548, 1.15634, 1.2392, 1.2856, 1.11196, 1.24922, 1.10031, 1.08924, 1.08801, 1.08214, 1.08055, 1.07203, 1.07419, 1.07325, 1.07296, 1.50724, 1.05283, 1.04586, 1.04576, 1.04565, 1.04087, 1.03905, 1.03807, 1.03497, 1.03119, 1.02975, 1.03015, 1.02903, 1.02767, 1.02605, 1.02618, 1.03074, 1.02836, 1.02886, 1.03823, 1.03781, 1.03852, 1.0423, 1.04252, 1.04113, 1.12137, 1.06051, 1.28093, 1.18503, 1.15398, 1.24521, 1.08735, 1.07849, 1.0747, 1.08022, 1.07079, 1.0777, 1.11259, 1.1126, 1.11949, 1.08945, 1.08847, 1.09159, 1.0908, 1.07232, 1.0671, 1.15991, 1.16301, 1.16557, 1.23606, 1.22062, 1.16301, 1.18135, 1.19297, 1.18811, 1.19098, 1.19051, 1.19813, 1.20162, 1.2283, 1.33636, 1.22608, 1.21672, 1.24077, 1.19385, 1.19154, 1.1775, 1.29626, 1.21002, 1.24465, 1.19375, 1.1473, 1.12251, 1.13276, 1.12532, 1.12221, 1.1414, 1.14723, 1.01195, 1.01296, 1.01173, 1.02243, 1.02475, 0.978634, 0.963616, 0.962983, 0.949228, 0.964575, 0.946398, 0.946169, 0.964983, 0.960082, 0.945697, 0.953075, 0.967179, 0.953672, 0.952285, 0.952872, 0.952917, 0.956018, 0.956733, 0.953479, 0.954809, 0.992318, 0.974538, 0.98162, 0.997365, 0.95882, 0.959082, 0.955773, 1.01511, 0.991083, 0.970937, 1.04705, 1.00551, 1.00681, 0.997103, 0.997818, 1.06353, 1.12431, 1.09824, 1.09431, 1.14441, 1.06414, 1.19207, 1.19468, 1.23094, 1.27492, 1.03743, 1.02368, 1.01135, 1.21689, 1.0042, 1.00484
1.15467, 1.15554, 1.15761, 1.18436, 1.16056, 1.22408, 1.22927, 1.29569, 1.3032, 1.088, 1.08441, 1.08067, 1.07517, 1.07563, 1.07269, 1.42777, 1.42481, 1.05039, 1.0502, 1.04588, 1.04771, 1.0405, 1.03906, 1.03392, 1.03299, 1.03082, 1.03071, 1.02898, 1.02861, 1.02852, 1.02611, 1.02663, 1.03315, 1.0332, 1.03196, 1.03754, 1.03747, 1.03952, 1.03953, 1.04356, 1.04558, 1.14204, 1.12957, 1.14416, 1.1857, 1.11349, 1.11371, 1.0903, 1.09183, 1.07399, 1.08108, 1.06909, 1.08124, 1.09157, 1.10791, 1.10897, 1.12649, 1.08425, 1.10612, 1.09884, 1.1151, 1.08021, 1.11026, 1.1638, 1.16444, 1.1691, 1.17339, 1.18191, 1.24107, 1.20266, 1.19816, 1.19856, 1.21275, 1.23713, 1.23952, 1.25096, 1.24883, 1.23027, 1.2471, 1.23745, 1.21129, 1.26999, 1.24264, 1.20668, 1.22026, 1.30887, 1.2053, 1.18006, 1.13036, 1.15056, 1.15038, 1.17819, 1.09389, 1.10099, 1.20889, 1.03437, 1.02375, 1.01207, 1.0048, 0.964822, 0.968187, 1.01235, 0.992871, 0.940417, 0.949935, 0.937231, 0.938725, 0.941396, 0.942231, 0.94049, 0.941061, 0.959256, 0.950008, 0.95072, 0.952194, 0.953689, 0.97762, 0.951788, 0.954722, 0.987571, 0.98709, 0.99454, 0.980239, 0.958498, 0.959273, 0.956733, 0.956374, 0.992029, 0.97077, 1.01489, 1.0521, 1.05367, 0.997052, 1.07465, 1.0635, 1.07048, 1.11296, 1.1184, 1.1262, 1.10226, 1.16235, 1.16446, 1.05098, 1.28046, 1.03647, 1.0358, 1.06089, 1.06355, 1.00065, 1.00202
1.15534, 1.15785, 1.16003, 1.33737, 1.17851, 1.27764, 1.13656, 1.29623, 1.30267, 1.08858, 1.08534, 1.07785, 1.07664, 1.0765, 1.06735, 1.0686, 1.0689, 1.05211, 1.05159, 1.04732, 1.04846, 1.04146, 1.04134, 1.03258, 1.03198, 1.02865, 1.03186, 1.03076, 1.02925, 1.02731, 1.02578, 1.02999, 1.03369, 1.03578, 1.03492, 1.03818, 1.0366, 1.03954, 1.03992, 1.04384, 1.0744, 1.07386, 1.07209, 1.10105, 1.089, 1.11299, 1.11376, 1.10455, 1.09054, 1.08027, 1.08352, 1.06967, 1.10217, 1.09644, 1.10682, 1.12387, 1.18635, 1.08224, 1.1163, 1.11648, 1.07535, 1.07871, 1.11303, 1.1468, 1.14917, 1.17704, 1.17438, 1.26387, 1.20628, 1.19786, 1.19859, 1.25722, 1.22327, 1.28121, 1.30484, 1.24377, 1.26173, 1.24357, 1.24751, 1.21619, 1.22089, 1.2708, 1.24585, 1.22014, 1.25973, 1.30916, 1.23404, 1.1878, 1.23841, 1.16733, 1.16328, 1.13001, 1.09448, 1.13355, 1.13466, 1.04636, 1.04903, 1.02586, 1.0084, 1.00559, 0.974812, 0.974122, 0.94973, 0.950508, 0.951039, 0.938859, 0.94016, 0.938967, 0.938401, 0.939363, 0.966684, 0.957881, 0.949433, 0.949635, 0.952169, 0.964041, 0.963661, 0.951729, 0.97429, 0.957795, 0.9603, 0.99154, 0.992025, 0.957119, 0.958135, 0.955912, 0.956567, 1.01538, 0.970045, 1.02379, 1.02652, 0.998021, 0.992072, 1.07456, 0.997563, 1.09572, 1.10326, 1.10313, 1.12499, 1.12351, 1.1192, 1.18498, 1.15354, 1.21614, 1.06997, 1.03632, 1.11229, 1.10873, 1.03249, 1.22921
1.1565, 1.15879, 1.15967, 1.15983, 1.32369, 1.21342, 1.22153, 1.24192, 1.3021, 1.08932, 1.08435, 1.07985, 1.07664, 1.07675, 1.06992, 1.06982, 1.06871, 1.0531, 1.04967, 1.04848, 1.04919, 1.04347, 1.04086, 1.03303, 1.03269, 1.02819, 1.03001, 1.03051, 1.02924, 1.02657, 1.0261, 1.02793, 1.04723, 1.03703, 1.03795, 1.03761, 1.03623, 1.03819, 1.06367, 1.04072, 1.04278, 1.07158, 1.06769, 1.08011, 1.08033, 1.11558, 1.10894, 1.39868, 1.08634, 1.08125, 1.08403, 1.06998, 1.08718, 1.08723, 1.11788, 1.1279, 1.08719, 1.07907, 1.07784, 1.08466, 1.07764, 1.09115, 1.12771, 1.14379, 1.16324, 1.15862, 1.19395, 1.20212, 1.21862, 1.22302, 1.23014, 1.23568, 1.26286, 1.26842, 1.37812, 1.24975, 1.24672, 1.25095, 1.23661, 1.28998, 1.23566, 1.26398, 1.22895, 1.31584, 1.26109, 1.24737, 1.24574, 1.24367, 1.1808, 1.16749, 1.19413, 1.19097, 1.11888, 1.13004, 1.10045, 1.1004, 1.06165, 1.043, 1.0254, 1.04337, 0.994431, 0.978232, 0.943961, 0.971074, 0.957447, 0.936741, 0.940214, 0.936474, 0.938896, 0.930149, 0.946842, 0.955458, 0.956338, 0.950116, 0.950316, 0.962731, 0.969721, 0.94962, 0.971102, 0.957158, 0.959187, 0.956998, 0.95517, 1.02146, 0.954049, 0.954295, 1.01369, 1.0149, 1.02024, 1.01644, 1.04403, 0.995747, 0.995791, 1.04929, 0.993434, 1.05316, 1.11516, 1.08761, 1.0538, 1.11888, 1.11154, 1.17482, 1.24938, 1.21614, 1.07506, 1.27868, 1.21834, 0.988648, 1.00585, 1.20494
1.15519, 1.15923, 1.16013, 1.15655, 1.18838, 1.33398, 1.24216, 1.24122, 1.3016, 1.08933, 1.08564, 1.08292, 1.0758, 1.07726, 1.07044, 1.07194, 1.06223, 1.05464, 1.0514, 1.05019, 1.04405, 1.04449, 1.03694, 1.03563, 1.0319, 1.02868, 1.02919, 1.03126, 1.02901, 1.02793, 1.02545, 1.02645, 1.03626, 1.03679, 1.03695, 1.03774, 1.034, 1.0351, 1.03609, 1.03806, 1.04566, 1.04617, 1.15316, 1.08315, 1.08221, 1.10618, 1.10931, 1.2338, 1.08612, 1.08266, 1.08344, 1.07447, 1.09196, 1.08685, 1.11871, 1.12918, 1.08896, 1.11392, 1.11954, 1.14111, 1.10794, 1.10682, 1.14289, 1.16094, 1.16324, 1.15295, 1.18898, 1.23236, 1.20784, 1.23193, 1.22937, 1.24393, 1.28591, 1.28982, 1.35713, 1.46142, 1.24982, 1.24874, 1.23631, 1.27153, 1.2779, 1.27642, 1.24754, 1.3134, 1.25931, 1.25092, 1.22703, 1.22327, 1.21305, 1.19136, 1.19833, 1.19979, 1.14292, 1.13736, 1.17573, 1.10113, 1.0678, 1.08162, 1.0301, 1.0873, 1.00938, 1.01678, 0.932016, 0.942829, 0.983568, 0.937355, 0.941303, 0.943798, 0.935743, 0.940748, 0.948289, 0.952519, 0.950956, 0.950109, 0.950143, 0.951156, 0.94763, 0.947554, 0.948991, 0.957311, 0.957244, 0.953259, 0.953567, 0.994826, 0.954526, 0.956619, 0.958197, 0.967114, 0.970043, 1.02445, 1.0568, 1.05754, 1.07517, 0.980891, 0.990378, 1.06735, 1.0799, 1.05201, 1.07123, 1.1109, 1.11803, 1.1706, 1.13633, 1.22111, 1.05027, 1.23781, 1.10475, 1.21974, 0.989227, 0.987514
1.15583, 1.15971, 1.1595, 1.15777, 1.15734, 1.17675, 1.31231, 1.23618, 1.13865, 1.0905, 1.08552, 1.08282, 1.07898, 1.07778, 1.07047, 1.07155, 1.05966, 1.05829, 1.05061, 1.05109, 1.04577, 1.04751, 1.0389, 1.03543, 1.0306, 1.02988, 1.03144, 1.03054, 1.02862, 1.02522, 1.02589, 1.02646, 1.03613, 1.03653, 1.03818, 1.03819, 1.03213, 1.03376, 1.0353, 1.0387, 1.04653, 1.09013, 1.05682, 1.07951, 1.12285, 1.10718, 1.10609, 1.10512, 1.08711, 1.08592, 1.07283, 1.07841, 1.07732, 1.0996, 1.11337, 1.14188, 1.13841, 1.13713, 1.09318, 1.16994, 1.17658, 1.15366, 1.14456, 1.16217, 1.16038, 1.18486, 1.25838, 1.21649, 1.22954, 1.23394, 1.236, 1.26335, 1.26484, 1.30563, 1.3608, 1.31602, 1.24699, 1.30654, 1.2906, 1.23491, 1.26394, 1.30917, 1.24317, 1.24986, 1.26326, 1.27918, 1.25731, 1.21811, 1.21227, 1.21324, 1.18821, 1.20006, 1.27376, 1.20602, 1.19142, 1.20609, 1.13058, 1.06641, 1.05121, 1.03104, 1.01366, 1.00697, 0.981872, 0.942829, 0.961644, 0.933108, 0.942249, 0.940142, 0.937754, 0.93974, 0.947344, 0.949263, 0.953667, 0.949028, 0.950398, 0.962738, 0.964413, 0.947074, 0.97618, 0.95571, 0.957421, 0.952986, 0.952888, 0.949028, 0.953741, 0.957229, 0.987354, 0.966183, 1.00139, 0.977756, 0.977132, 1.05087, 0.991331, 0.982249, 0.987493, 1.07072, 1.06525, 1.05793, 1.05923, 1.12033, 1.12615, 1.16365, 1.13314, 1.02704, 1.06774, 1.23672, 0.990388, 0.982384, 1.03679, 1.06403
1.15819, 1.15984, 1.1594, 1.15684, 1.15704, 1.32401, 1.33314, 1.21221, 1.34253, 1.09276, 1.36803, 1.08407, 1.07925, 1.08017, 1.38143, 1.06787, 1.06586, 1.05802, 1.05355, 1.05185, 1.04926, 1.04123, 1.03882, 1.03693, 1.0323, 1.03054, 1.02984, 1.02987, 1.02861, 1.02759, 1.02687, 1.03128, 1.03546, 1.04189, 1.03888, 1.03702, 1.02817, 1.04463, 1.03591, 1.04696, 1.0475, 1.08927, 1.09045, 1.07761, 1.16295, 1.28065, 1.17223, 1.29784, 1.08615, 1.08764, 1.07744, 1.07413, 1.07764, 1.11475, 1.13909, 1.13912, 1.09071, 1.12779, 1.21754, 1.22155, 1.14724, 1.15779, 1.14871, 1.15287, 1.15369, 1.26759, 1.26409, 1.26454, 1.23062, 1.24875, 1.24103, 1.26078, 1.27053, 1.29931, 1.3078, 1.30728, 1.29537, 1.28196, 1.25597, 1.24706, 1.35505, 1.25048, 1.2482, 1.25086, 1.29567, 1.33284, 1.31329, 1.21618, 1.20476, 1.20512, 1.21602, 1.18964, 1.36455, 1.20784, 1.15946, 1.15985, 1.13392, 1.09111, 1.07318, 1.10155, 1.102, 1.02697, 0.960706, 0.960802, 0.971158, 0.939937, 0.950125, 0.964307, 0.941528, 0.937624, 0.946924, 0.949231, 0.952515, 0.948708, 0.946726, 0.973389, 0.943862, 0.946533, 0.950017, 0.955231, 0.955941, 0.953692, 0.951146, 0.950535, 0.955855, 0.956315, 0.991898, 0.965075, 1.00495, 0.975212, 0.978066, 0.975763, 0.991988, 0.992668, 1.05775, 1.0751, 1.08612, 1.09517, 1.10558, 1.12349, 1.13195, 1.13087, 1.1232, 1.08264, 1.00855, 1.06349, 0.985371, 1.04967, 1.00177, 1.16983
1.30137, 1.15965, 1.15975, 1.15886, 1.15904, 1.17709, 1.32107, 1.12169, 1.25609, 1.09561, 1.09303, 1.08713, 1.08007, 1.08031, 1.07411, 1.06766, 1.06417, 1.06005, 1.05525, 1.05658, 1.04492, 1.04107, 1.03914, 1.03891, 1.03647, 1.03627, 1.03338, 1.0328, 1.02876, 1.02809, 1.02874, 1.02984, 1.03975, 1.04134, 1.03809, 1.09911, 1.02593, 1.02729, 1.03695, 1.06093, 1.0512, 1.08743, 1.06111, 1.07345, 1.28449, 1.28469, 1.14303, 1.2399, 1.08725, 1.08729, 1.07699, 1.08626, 1.10558, 1.12696, 1.15378, 1.09112, 1.08941, 1.12544, 1.32716, 1.17162, 1.17588, 1.14749, 1.16962, 1.17886, 1.17838, 1.21753, 1.20928, 1.26347, 1.22606, 1.29005, 1.27867, 1.26385, 1.281, 1.26633, 1.29599, 1.3048, 1.25015, 1.28018, 1.26021, 1.25353, 1.31827, 1.36501, 1.2589, 1.28953, 1.28872, 1.28496, 1.29294, 1.26062, 1.20171, 1.21181, 1.21279, 1.26086, 1.24933, 1.18991, 1.15288, 1.13805, 1.12596, 1.09232, 1.10543, 1.06769, 1.04458, 1.05049, 1.00822, 0.981504, 0.941312, 0.962022, 0.949543, 0.915047, 0.917891, 0.918549, 0.945246, 0.94844, 0.950211, 0.946978, 0.945899, 0.961827, 0.976866, 0.946768, 0.949241, 0.953361, 0.955915, 0.955873, 0.949644, 0.949427, 0.953504, 0.95565, 1.00644, 0.991727, 0.974078, 0.97705, 0.977958, 1.04332, 0.991532, 0.98962, 1.06676, 1.05075, 1.05043, 1.05614, 1.05533, 1.11818, 1.0571, 1.05716, 1.02076, 1.06836, 1.11305, 1.04658, 1.00216, 1.05282, 0.958001, 0.961534
1.27975, 1.15979, 1.15749, 1.15911, 1.15893, 1.26506, 1.45444, 1.19536, 1.25392, 1.09688, 1.09589, 1.08713, 1.08302, 1.08389, 1.07432, 1.06753, 1.06658, 1.06062, 1.06004, 1.05919, 1.04361, 1.04115, 1.0403, 1.03973, 1.03716, 1.03708, 1.0375, 1.03143, 1.02965, 1.02843, 1.02877, 1.03219, 1.03957, 1.03989, 1.03875, 1.0361, 1.04241, 1.04224, 1.03768, 1.06379, 1.06365, 1.05775, 1.22311, 1.34976, 1.28387, 1.15567, 1.20001, 1.14666, 1.13237, 1.09528, 1.10673, 1.10131, 1.11121, 1.09696, 1.11958, 1.09171, 1.09099, 1.12669, 1.26981, 1.1889, 1.18272, 1.17094, 1.17727, 1.17879, 1.1883, 1.18085, 1.22306, 1.3603, 1.30435, 1.31711, 1.28907, 1.25645, 1.26576, 1.28099, 1.31108, 1.52913, 1.52789, 1.27993, 1.24897, 1.27563, 1.27435, 1.34836, 1.29461, 1.28108, 1.28181, 1.29974, 1.28645, 1.22181, 1.20806, 1.2138, 1.20711, 1.21562, 1.21955, 1.23589, 1.16398, 1.16828, 1.12602, 1.12365, 1.08049, 1.05741, 1.04606, 1.03369, 1.01135, 1.01275, 0.960148, 0.950112, 0.940445, 0.958676, 0.908484, 0.910392, 0.947588, 0.948848, 0.948763, 0.947003, 0.944803, 0.932356, 0.973519, 0.945903, 0.951706, 0.954067, 0.954258, 0.955879, 0.969368, 0.947013, 0.951497, 0.953936, 1.0018, 0.959132, 0.970948, 1.02526, 1.02673, 0.987823, 0.988856, 0.990825, 1.06759, 1.07377, 1.05401, 1.05637, 1.10875, 1.12643, 1.05008, 1.0035, 1.01574, 1.0082, 1.0049, 1.00299, 1.005, 0.953754, 0.956017, 1.11685
1.1569, 1.15939, 1.16023, 1.16009, 1.15922, 1.34714, 1.31396, 1.25003, 1.34614, 1.09821, 1.09016, 1.08823, 1.08267, 1.08356, 1.07516, 1.07017, 1.06845, 1.06112, 1.06093, 1.0612, 1.04651, 1.04006, 1.04036, 1.0401, 1.03745, 1.03662, 1.04589, 1.0405, 1.03114, 1.03049, 1.03005, 1.03255, 1.04211, 1.04239, 1.03793, 1.03734, 1.03599, 1.0354, 1.03574, 1.05837, 1.1188, 1.17413, 1.06363, 1.06511, 1.11826, 1.13665, 1.13351, 1.13215, 1.3688, 1.10137, 1.11785, 1.10448, 1.1254, 1.09827, 1.09297, 1.09052, 1.09335, 1.15653, 1.27204, 1.20541, 1.20773, 1.25653, 1.19874, 1.18912, 1.19858, 1.22252, 1.28661, 1.35706, 1.29926, 1.25541, 1.28853, 1.31786, 1.2761, 1.27418, 1.31592, 1.31232, 1.40676, 1.27882, 1.24765, 1.30566, 1.29894, 1.29899, 1.29862, 1.29886, 1.3448, 1.45078, 1.37637, 1.31821, 1.20914, 1.21595, 1.22473, 1.21533, 1.21516, 1.20873, 1.22886, 1.14381, 1.22984, 1.10465, 1.08079, 1.06014, 1.05739, 1.01581, 1.0064, 0.943862, 0.966505, 0.96175, 0.962602, 0.905943, 0.910679, 0.913021, 0.952143, 0.947998, 0.948866, 0.94897, 0.943568, 0.931903, 0.945952, 0.945893, 0.946272, 0.953729, 0.954909, 0.997657, 0.945317, 0.947544, 0.949704, 0.953287, 0.956128, 0.984527, 0.968779, 0.975489, 0.996555, 1.04301, 0.989564, 0.991116, 1.05239, 1.05646, 1.00765, 1.06954, 1.0703, 1.08699, 1.14452, 1.00533, 1.00144, 1.22249, 1.06768, 1.01587, 1.11961, 0.950183, 0.960114, 0.951522
1.15629, 1.16027, 1.16137, 1.15855, 1.15969, 1.16058, 1.17928, 1.19804, 1.22907, 1.29167, 1.09257, 1.0912, 1.08708, 1.08399, 1.08288, 1.0777, 1.0672, 1.0634, 1.06107, 1.06129, 1.04614, 1.04328, 1.04134, 1.03981, 1.03885, 1.03647, 1.04271, 1.04259, 1.03096, 1.03079, 1.03138, 1.0322, 1.03354, 1.04282, 1.03608, 1.03647, 1.03641, 1.03554, 1.03591, 1.04342, 1.12471, 1.04709, 1.06067, 1.30253, 1.30563, 1.13431, 1.13003, 1.13215, 1.09922, 1.10132, 1.12648, 1.11825, 1.16439, 1.09426, 1.15277, 1.09518, 1.09153, 1.09314, 1.23609, 1.27415, 1.28198, 1.25784, 1.23319, 1.25241, 1.2548, 1.2285, 1.25801, 1.35647, 1.26738, 1.28944, 1.28726, 1.2841, 1.36226, 1.3474, 1.28041, 1.31974, 1.33712, 1.33623, 1.25293, 1.31014, 1.29559, 1.31592, 1.29596, 1.30599, 1.34067, 1.48217, 1.41316, 1.28515, 1.25661, 1.28316, 1.23, 1.22239, 1.20938, 1.19588, 1.18393, 1.15618, 1.11877, 1.1792, 1.13637, 1.08661, 1.14969, 1.02461, 0.997675, 0.951233, 0.966094, 0.93692, 0.940695, 0.922931, 0.90673, 0.913935, 0.964114, 0.956505, 0.947066, 0.947922, 0.946667, 0.932826, 0.945183, 0.945324, 0.953278, 0.953068, 0.953228, 0.971636, 0.945862, 0.99353, 0.985763, 0.952757, 0.953606, 0.990888, 1.01132, 0.98592, 0.978711, 1.02084, 0.989461, 0.990299, 1.05881, 1.0742, 0.996958, 1.10333, 1.11232, 1.06778, 1.13622, 0.994556, 1.2321, 1.23339, 1.05212, 1.34467, 0.947905, 0.947807, 0.960861, 0.94821
1.15673, 1.15999, 1.16069, 1.1605, 1.1601, 1.16052, 1.22279, 1.22093, 1.28753, 1.29119, 1.31593, 1.09469, 1.08734, 1.0866, 1.08067, 1.08073, 1.06738, 1.05742, 1.05841, 1.05399, 1.04675, 1.04457, 1.04248, 1.03944, 1.03877, 1.0393, 1.04568, 1.03618, 1.03273, 1.03248, 1.03159, 1.03215, 1.03401, 1.04213, 1.03576, 1.03841, 1.03881, 1.03547, 1.03593, 1.0357, 1.04333, 1.04732, 1.0772, 1.12765, 1.12601, 1.15009, 1.12965, 1.15739, 1.10467, 1.10139, 1.10101, 1.1021, 1.17074, 1.08855, 1.15356, 1.11881, 1.14368, 1.1607, 1.20122, 1.25762, 1.27146, 1.24971, 1.23085, 1.2276, 1.2543, 1.25167, 1.27543, 1.29468, 1.2636, 1.2893, 1.29786, 1.37201, 1.36907, 1.34653, 1.28945, 1.32117, 1.30704, 1.31979, 1.2853, 1.32366, 1.29542, 1.30946, 1.31308, 1.30974, 1.29827, 1.39678, 1.31299, 1.28643, 1.26814, 1.25011, 1.22808, 1.29459, 1.19804, 1.216, 1.19997, 1.16509, 1.17704, 1.12029, 1.13949, 1.08523, 1.07453, 1.06727, 1.01457, 0.983436, 0.950725, 0.938959, 0.919549, 0.909539, 0.926053, 0.925646, 0.964118, 0.954107, 0.945641, 0.946901, 0.947111, 0.9345, 0.934733, 0.943384, 0.945503, 0.952309, 0.953514, 0.974219, 0.993786, 0.992494, 0.987429, 0.973994, 0.974839, 0.960369, 0.964818, 0.977365, 0.978043, 0.98155, 0.989373, 0.988201, 1.03729, 1.07398, 1.08834, 1.08797, 1.11148, 1.10902, 1.11887, 1.18428, 1.18822, 1.01502, 1.06961, 0.954539, 0.946153, 0.944284, 0.946188, 0.941566
1.15681, 1.15809, 1.1565, 1.16048, 1.15978, 1.15991, 1.16671, 1.19178, 1.18906, 1.3214, 1.37786, 1.09772, 1.36128, 1.08268, 1.08115, 1.07255, 1.07025, 1.13144, 1.05808, 1.05593, 1.04743, 1.04599, 1.04425, 1.0408, 1.03843, 1.03897, 1.04808, 1.03528, 1.03291, 1.03352, 1.03267, 1.03041, 1.03385, 1.04072, 1.0364, 1.03845, 1.03928, 1.04233, 1.03562, 1.03143, 1.19796, 1.04546, 1.09785, 1.31197, 1.13312, 1.14599, 1.15252, 1.13894, 1.10258, 1.10875, 1.11061, 1.10143, 1.17336, 1.136, 1.11689, 1.11825, 1.14991, 1.17747, 1.169, 1.21856, 1.26006, 1.25575, 1.26211, 1.28162, 1.26737, 1.26564, 1.27986, 1.27307, 1.28631, 1.30591, 1.29561, 1.29274, 1.35098, 1.31533, 1.32579, 1.31725, 1.32589, 1.31225, 1.32703, 1.29802, 1.30212, 1.33321, 1.34073, 1.31038, 1.30979, 1.30329, 1.31607, 1.28186, 1.28838, 1.27202, 1.25404, 1.29536, 1.1987, 1.20396, 1.20478, 1.16867, 1.15746, 1.12404, 1.1241, 1.11007, 1.05829, 1.04037, 1.01366, 1.02211, 0.951204, 0.968445, 0.917633, 0.907992, 0.932844, 0.989864, 0.972297, 1.19871, 0.945606, 0.946344, 0.943743, 0.934924, 0.935175, 0.943299, 0.950042, 0.952236, 0.952968, 0.963997, 0.986772, 0.984491, 1.00109, 0.953168, 0.994341, 0.991929, 1.00393, 0.975188, 1.0022, 1.02816, 1.03864, 1.04347, 1.06471, 0.990714, 1.06337, 0.984933, 1.11441, 1.11214, 1.0771, 1.0779, 1.19518, 1.23891, 1.25009, 0.958311, 1.14275, 0.940581, 0.943651, 0.941233
1.15648, 1.15812, 1.15999, 1.16215, 1.15931, 1.15978, 1.16335, 1.17044, 1.1918, 1.10841, 1.10281, 1.0972, 1.09729, 1.40161, 1.08159, 1.07309, 1.06737, 1.06311, 1.05948, 1.05642, 1.05484, 1.04737, 1.04572, 1.04273, 1.0413, 1.04941, 1.04924, 1.03523, 1.03337, 1.03326, 1.03258, 1.02742, 1.05867, 1.03667, 1.03646, 1.03743, 1.03912, 1.04056, 1.03418, 1.03289, 1.03914, 1.04101, 1.04614, 1.13553, 1.13968, 1.10897, 1.10689, 1.12062, 1.2538, 1.10747, 1.11657, 1.11695, 1.08326, 1.2021, 1.20119, 1.12958, 1.1449, 1.15977, 1.18541, 1.22716, 1.26808, 1.2497, 1.3359, 1.3392, 1.30526, 1.27846, 1.28223, 1.28415, 1.29874, 1.2912, 1.29507, 1.33306, 1.32471, 1.31574, 1.319, 1.3119, 1.31383, 1.33291, 1.29535, 1.33729, 1.31883, 1.32006, 1.31949, 1.29699, 1.3094, 1.34416, 1.29922, 1.30838, 1.2749, 1.28082, 1.24077, 1.26551, 1.20174, 1.20297, 1.19026, 1.16102, 1.16471, 1.22567, 1.12285, 1.16301, 1.16151, 1.08807, 1.0707, 0.978442, 0.966744, 0.969873, 0.956516, 0.938988, 0.968963, 0.974877, 0.960558, 0.958028, 0.943, 0.946523, 0.944476, 0.935021, 0.941603, 0.942408, 0.944537, 0.95171, 0.952376, 0.977675, 0.987821, 0.935926, 0.991118, 0.98035, 0.95732, 0.987341, 0.970405, 1.01812, 0.978179, 0.979829, 1.04005, 1.04668, 0.980744, 1.07852, 1.07927, 1.08793, 1.09804, 1.01786, 1.15297, 0.951491, 1.08958, 1.2348, 0.944775, 1.25673, 0.938663, 0.938574, 0.938165, 0.939294
1.1582, 1.15835, 1.15898, 1.16027, 1.15954, 1.16019, 1.39792, 1.16777, 1.23465, 1.23607, 1.10469, 1.09592, 1.09636, 1.08342, 1.08388, 1.34889, 1.06549, 1.06218, 1.05948, 1.05732, 1.05183, 1.05177, 1.04732, 1.04511, 1.04334, 1.04391, 1.04909, 1.03, 1.03537, 1.03374, 1.03272, 1.02889, 1.03773, 1.03708, 1.03694, 1.03811, 1.03858, 1.03905, 1.03313, 1.03459, 1.03878, 1.04065, 1.13923, 1.05814, 1.10492, 1.11334, 1.10927, 1.12668, 1.11368, 1.11031, 1.10959, 1.12177, 1.16545, 1.14522, 1.19662, 1.19515, 1.24414, 1.15525, 1.18153, 1.22251, 1.2627, 1.26297, 1.33766, 1.32011, 1.34019, 1.29407, 1.30314, 1.32285, 1.31313, 1.31676, 1.2955, 1.32494, 1.32926, 1.31547, 1.31514, 1.31161, 1.31305, 1.30675, 1.30659, 1.32018, 1.3439, 1.33571, 1.31053, 1.29974, 1.38427, 1.39513, 1.31806, 1.29848, 1.26766, 1.27205, 1.28474, 1.2554, 1.20307, 1.20412, 1.19389, 1.18992, 1.14042, 1.14243, 1.12055, 1.11491, 1.1421, 1.06806, 1.04301, 1.03678, 0.988701, 0.964821, 1.04013, 0.935274, 0.968391, 0.967089, 0.99452, 0.956438, 0.948828, 0.941246, 0.941932, 0.935733, 0.941282, 0.942306, 0.966836, 0.952341, 0.952381, 0.99166, 0.932101, 0.93315, 0.991306, 0.954116, 0.956776, 0.960633, 0.980105, 0.974634, 0.977236, 0.978049, 0.975245, 1.03056, 0.977668, 1.00748, 1.07011, 1.05405, 1.11396, 1.04575, 0.994276, 0.937371, 0.938576, 1.20931, 0.938996, 0.936508, 0.937488, 0.936347, 0.936046, 0.938583
1.26976, 1.15714, 1.15612, 1.16, 1.16015, 1.16088, 1.16447, 1.41592, 1.17461, 1.23947, 1.105, 1.09632, 1.09464, 1.32694, 1.08183, 1.08193, 1.44711, 1.06322, 1.06072, 1.05713, 1.0527, 1.0501, 1.04833, 1.04801, 1.04571, 1.04661, 1.04921, 1.03626, 1.03558, 1.03566, 1.06689, 1.0341, 1.0362, 1.03647, 1.03745, 1.04003, 1.03995, 1.03698, 1.03273, 1.03558, 1.03656, 1.14684, 1.14657, 1.05792, 1.08955, 1.11481, 1.11501, 1.12861, 1.11555, 1.11337, 1.11609, 1.11783, 1.11856, 1.25275, 1.1965, 1.19537, 1.22452, 1.17126, 1.18888, 1.22253, 1.26034, 1.31591, 1.31544, 1.3142, 1.32472, 1.33317, 1.31067, 1.32311, 1.33591, 1.33281, 1.32461, 1.32405, 1.31222, 1.33514, 1.32592, 1.31033, 1.31652, 1.35024, 1.38774, 1.33586, 1.33044, 1.35154, 1.36161, 1.38845, 1.33006, 1.35103, 1.32474, 1.30546, 1.27791, 1.27091, 1.26367, 1.33235, 1.27206, 1.20635, 1.19243, 1.18761, 1.13891, 1.13983, 1.17301, 1.13681, 1.14369, 1.15456, 1.04086, 0.987526, 1.04024, 1.04034, 1.01454, 0.96741, 0.980755, 0.967549, 0.969239, 0.964552, 0.950058, 0.940078, 0.941901, 0.935714, 0.941732, 0.942393, 0.948848, 0.952104, 0.952634, 0.977518, 0.931787, 0.932678, 0.95391, 0.953227, 0.956515, 0.957874, 0.978374, 1.0048, 1.00202, 0.976518, 0.976578, 0.977462, 1.01624, 1.06096, 0.991133, 1.10948, 1.0398, 0.971159, 1.15365, 1.00491, 0.935006, 1.2032, 1.23937, 1.28764, 0.934173, 0.933483, 0.935203, 0.942792
1.28808, 1.15748, 1.2026, 1.15963, 1.16026, 1.1607, 1.16548, 1.35056, 1.32937, 1.20548, 1.10536, 1.09605, 1.09685, 1.09489, 1.08419, 1.0823, 1.06756, 1.06649, 1.0618, 1.05887, 1.05158, 1.04968, 1.04726, 1.04766, 1.04579, 1.04602, 1.05004, 1.03699, 1.03746, 1.03818, 1.03664, 1.03526, 1.03572, 1.03696, 1.04084, 1.04143, 1.04263, 1.0392, 1.03436, 1.03544, 1.03561, 1.21345, 1.05536, 1.05769, 1.14957, 1.11648, 1.14013, 1.12504, 1.11965, 1.1064, 1.1093, 1.14426, 1.1482, 1.1393, 1.20391, 1.24797, 1.23939, 1.19522, 1.2081, 1.21884, 1.22873, 1.30975, 1.3224, 1.33204, 1.33127, 1.33691, 1.31637, 1.31532, 1.31455, 1.31521, 1.32228, 1.32549, 1.33063, 1.34974, 1.35915, 1.34922, 1.32432, 1.33744, 1.34463, 1.33344, 1.35344, 1.32912, 1.3267, 1.36605, 1.40196, 1.33678, 1.33968, 1.29083, 1.29841, 1.27576, 1.26048, 1.25608, 1.27712, 1.22452, 1.24335, 1.18902, 1.15336, 1.15744, 1.17637, 1.23659, 1.14294, 1.15042, 1.05642, 1.0091, 1.04594, 1.04626, 1.01853, 0.978893, 0.966182, 0.96618, 0.970406, 0.947343, 0.94682, 0.940285, 0.941144, 0.934829, 0.940865, 0.941182, 0.949608, 0.950829, 0.953589, 0.957838, 0.932687, 0.981105, 0.947699, 0.952913, 0.955443, 0.962697, 0.96289, 0.97317, 0.973982, 0.973553, 0.975103, 0.976796, 1.03859, 1.06703, 0.965317, 1.05006, 1.09136, 0.965177, 0.971144, 0.985422, 0.930242, 0.930023, 1.24915, 1.26498, 0.930423, 0.933254, 0.93387, 0.943075
1.15644, 1.15956, 1.1602, 1.15955, 1.15977, 1.15984, 1.15817, 1.26163, 1.1769, 1.25011, 1.10786, 1.09708, 1.09653, 1.09709, 1.0875, 1.0817, 1.07475, 1.06271, 1.06175, 1.06092, 1.05592, 1.05224, 1.04896, 1.04769, 1.04826, 1.05156, 1.05186, 1.03694, 1.03823, 1.03989, 1.03946, 1.03663, 1.03425, 1.04233, 1.04344, 1.04326, 1.04301, 1.04398, 1.03679, 1.0377, 1.03778, 1.21598, 1.05353, 1.08548, 1.15677, 1.22878, 1.16644, 1.25605, 1.16071, 1.11608, 1.1084, 1.19687, 1.17404, 1.1358, 1.16714, 1.25866, 1.21666, 1.19976, 1.2187, 1.34289, 1.21679, 1.25164, 1.32215, 1.32942, 1.32945, 1.33703, 1.31592, 1.31687, 1.31646, 1.31324, 1.36168, 1.3155, 1.3444, 1.36845, 1.40917, 1.3203, 1.41719, 1.35886, 1.34199, 1.34376, 1.33679, 1.35763, 1.35709, 1.33113, 1.40317, 1.34757, 1.3285, 1.29718, 1.28101, 1.27591, 1.26904, 1.25671, 1.23567, 1.2157, 1.21612, 1.19181, 1.18791, 1.17373, 1.23301, 1.2268, 1.21386, 1.13675, 1.04726, 1.02994, 1.02198, 1.03789, 0.991146, 0.990683, 0.972107, 0.986869, 0.997306, 0.98835, 0.941852, 0.940244, 0.941728, 0.958516, 0.964142, 0.94009, 0.949357, 0.951247, 0.948814, 0.948611, 0.987469, 0.982401, 0.949264, 0.952222, 0.953037, 0.961704, 0.962985, 1.00752, 0.971725, 0.973629, 0.973296, 0.971481, 0.961046, 0.96251, 0.958735, 0.936014, 0.936028, 1.14713, 0.959148, 0.957487, 0.926976, 0.927612, 0.972002, 0.991821, 0.929836, 0.927953, 1.30086, 1.30184
1.27967, 1.1581, 1.15961, 1.16, 1.15973, 1.15971, 1.15905, 1.26241, 1.18374, 1.18591, 1.10928, 1.09675, 1.09616, 1.30657, 1.08805, 1.08448, 1.1055, 1.06165, 1.06537, 1.06314, 1.05647, 1.05287, 1.05041, 1.04772, 1.04736, 1.05229, 1.05348, 1.03701, 1.03754, 1.04053, 1.0404, 1.03636, 1.03426, 1.04163, 1.04202, 1.04082, 1.04159, 1.04342, 1.03765, 1.03787, 1.04204, 1.15614, 1.0538, 1.16131, 1.16399, 1.14864, 1.1785, 1.1726, 1.12918, 1.16124, 1.17423, 1.13691, 1.11161, 1.14332, 1.26687, 1.22237, 1.28793, 1.22229, 1.22972, 1.2243, 1.22871, 1.25725, 1.277, 1.28874, 1.48154, 1.34334, 1.31361, 1.36237, 1.38885, 1.34324, 1.31002, 1.30859, 1.39143, 1.35717, 1.4053, 1.40352, 1.40272, 1.43268, 1.35739, 1.35998, 1.37726, 1.37891, 1.37574, 1.36367, 1.36872, 1.32361, 1.3229, 1.29031, 1.32223, 1.27754, 1.27053, 1.26408, 1.23922, 1.21883, 1.2148, 1.21356, 1.21286, 1.17435, 1.17706, 1.17252, 1.27163, 1.15703, 1.14572, 1.0442, 1.03173, 1.01751, 1.01537, 0.976265, 0.94449, 1.01199, 0.979744, 0.95808, 0.94109, 0.940593, 0.942078, 0.925754, 0.929453, 0.940285, 0.949799, 0.950491, 0.947608, 0.948217, 0.940969, 0.942514, 0.947489, 0.950659, 0.980419, 0.994774, 0.95968, 1.00508, 0.969666, 0.971698, 0.970611, 0.971798, 0.962563, 0.962671, 1.04927, 0.936091, 1.05298, 1.09573, 1.14373, 1.18653, 1.19582, 1.18583, 0.9564, 1.2091, 0.925628, 0.928526, 0.994954, 0.94777
1.20455, 1.15915, 1.15953, 1.15938, 1.15947, 1.15877, 1.15678, 1.15726, 1.22559, 1.18427, 1.11242, 1.09815, 1.10103, 1.10125, 1.09303, 1.08804, 1.38833, 1.07045, 1.43293, 1.40249, 1.06014, 1.05453, 1.051, 1.04825, 1.04789, 1.05277, 1.0533, 1.03943, 1.042, 1.04142, 1.03958, 1.03651, 1.03539, 1.04294, 1.04039, 1.03913, 1.03914, 1.04314, 1.0379, 1.03964, 1.04258, 1.04987, 1.05312, 1.07072, 1.18178, 1.16092, 1.15347, 1.15362, 1.12012, 1.17251, 1.17472, 1.18507, 1.11499, 1.13919, 1.21946, 1.2538, 1.28161, 1.2823, 1.23054, 1.24291, 1.26129, 1.24677, 1.28261, 1.29674, 1.3062, 1.30512, 1.31599, 1.33639, 1.37171, 1.40189, 1.34969, 1.34808, 1.34114, 1.45377, 1.38998, 1.51034, 1.39266, 1.40391, 1.36421, 1.3614, 1.37836, 1.36416, 1.36233, 1.37374, 1.54899, 1.34082, 1.32, 1.2893, 1.32342, 1.27854, 1.25141, 1.24689, 1.24402, 1.26773, 1.22868, 1.20831, 1.19986, 1.24194, 1.17499, 1.17347, 1.16877, 1.12714, 1.09766, 1.0313, 1.08022, 1.07375, 1.00795, 0.995564, 0.955527, 0.983033, 0.977423, 0.972684, 0.946133, 0.941957, 0.942212, 0.926151, 0.939971, 0.939669, 0.948943, 0.949993, 0.948738, 0.940787, 0.942959, 0.94443, 0.947038, 0.949227, 0.985538, 1.04989, 0.960539, 0.99597, 0.970115, 0.973437, 0.968604, 1.03597, 1.0428, 0.959715, 1.08412, 1.04921, 1.01812, 0.956277, 1.1144, 1.18478, 0.920948, 1.18177, 1.13364, 1.28839, 0.925064, 0.927016, 1.07684, 0.976905
1.25094, 1.15715, 1.15869, 1.15948, 1.15753, 1.15767, 1.15513, 1.1581, 1.22451, 1.17865, 1.22818, 1.10211, 1.10231, 1.25865, 1.08923, 1.08438, 1.08441, 1.0711, 1.07683, 1.51612, 1.06071, 1.05318, 1.05139, 1.05049, 1.04791, 1.05274, 1.05323, 1.04123, 1.04262, 1.04295, 1.03863, 1.03835, 1.03782, 1.04368, 1.04225, 1.03875, 1.03926, 1.05015, 1.04271, 1.0403, 1.04371, 1.04389, 1.05345, 1.06528, 1.1747, 1.13455, 1.14655, 1.14773, 1.17412, 1.21498, 1.17563, 1.14442, 1.11197, 1.14679, 1.22884, 1.21571, 1.26489, 1.30223, 1.27556, 1.24582, 1.27127, 1.24123, 1.28206, 1.29629, 1.29083, 1.34154, 1.31442, 1.36009, 1.37318, 1.38114, 1.35376, 1.36019, 1.37665, 1.5219, 1.37538, 1.51113, 1.5442, 1.39599, 1.38387, 1.36802, 1.3707, 1.36532, 1.40216, 1.36441, 1.39705, 1.34808, 1.28567, 1.28566, 1.27129, 1.27958, 1.27909, 1.25401, 1.24878, 1.23906, 1.23964, 1.2326, 1.24712, 1.30508, 1.37083, 1.17585, 1.09635, 1.0853, 1.05413, 1.06372, 1.03822, 1.05188, 1.00233, 0.938719, 0.938962, 0.978423, 0.956129, 0.980854, 0.946426, 0.940749, 0.942625, 0.921927, 0.926125, 0.939881, 0.948489, 0.947936, 0.949032, 0.942332, 0.942096, 0.94339, 0.945826, 0.947057, 0.977718, 0.996468, 1.03417, 0.963669, 0.965756, 1.00813, 0.965968, 0.966547, 0.962111, 0.959744, 0.99425, 1.01703, 1.1527, 1.08281, 1.11213, 1.05417, 1.04595, 0.914222, 0.919582, 1.29886, 1.01527, 0.945663, 1.42035, 1.29642
1.26712, 1.15641, 1.15725, 1.15645, 1.1572, 1.15627, 1.15347, 1.14804, 1.22298, 1.2847, 1.11507, 1.10301, 1.32773, 1.32738, 1.08424, 1.08363, 1.08217, 1.07377, 1.07688, 1.07597, 1.0653, 1.43424, 1.05224, 1.05284, 1.05103, 1.05443, 1.05503, 1.04198, 1.04258, 1.04024, 1.03899, 1.03791, 1.03689, 1.04594, 1.0415, 1.03906, 1.04022, 1.0499, 1.0463, 1.04168, 1.04474, 1.04286, 1.40925, 1.06826, 1.09076, 1.17386, 1.14602, 1.12651, 1.19652, 1.1673, 1.16622, 1.17127, 1.17186, 1.1643, 1.21676, 1.22432, 1.22655, 1.27043, 1.28598, 1.30639, 1.30859, 1.26287, 1.3441, 1.28284, 1.32881, 1.2984, 1.33475, 1.33689, 1.41568, 1.42779, 1.37605, 1.35776, 1.37566, 1.54871, 1.37664, 1.59962, 1.60566, 1.51814, 1.40863, 1.39206, 1.37152, 1.39865, 1.44959, 1.43109, 1.36216, 1.32359, 1.28844, 1.30473, 1.29832, 1.30346, 1.29195, 1.30552, 1.3045, 1.23753, 1.27237, 1.26399, 1.30794, 1.22225, 1.34394, 1.20233, 1.0914, 1.0921, 1.08154, 1.05315, 1.03902, 1.08752, 1.00808, 0.937266, 0.942141, 0.942293, 0.97704, 0.956983, 0.970283, 0.938419, 0.940274, 0.921805, 0.922837, 0.941535, 0.946994, 0.948559, 0.94717, 0.942124, 0.942294, 0.943325, 0.945571, 0.946479, 0.945857, 0.962144, 1.03665, 0.961528, 0.96631, 0.970489, 1.01213, 1.03226, 1.04374, 1.02161, 1.02324, 1.02708, 1.06911, 1.07096, 0.916218, 0.908483, 0.910622, 0.914446, 0.915505, 1.02436, 0.920407, 0.924183, 0.928257, 0.929045
1.1538, 1.15477, 1.15602, 1.15474, 1.15553, 1.15552, 1.15321, 1.14967, 1.16786, 1.31657, 1.3163, 1.29857, 1.23658, 1.08791, 1.08714, 1.0831, 1.0827, 1.0765, 1.07756, 1.4197, 1.07014, 1.43475, 1.05603, 1.0532, 1.05034, 1.05373, 1.05332, 1.04203, 1.04215, 1.0398, 1.03958, 1.03593, 1.03716, 1.04665, 1.04666, 1.03937, 1.04142, 1.05197, 1.05173, 1.04236, 1.04607, 1.04404, 1.0502, 1.07091, 1.08727, 1.16419, 1.19006, 1.12713, 1.19829, 1.22295, 1.18361, 1.16493, 1.15436, 1.18536, 1.17468, 1.25994, 1.25102, 1.27018, 1.28432, 1.28619, 1.28642, 1.28434, 1.36807, 1.29082, 1.2917, 1.29908, 1.32968, 1.32932, 1.422, 1.42907, 1.38288, 1.36379, 1.36901, 1.38557, 1.5284, 1.61832, 1.60528, 1.43228, 1.42504, 1.39779, 1.3819, 1.46077, 1.44807, 1.40198, 1.37239, 1.33403, 1.31718, 1.30625, 1.3267, 1.37917, 1.31985, 1.27833, 1.25207, 1.27171, 1.32258, 1.28686, 1.27613, 1.25536, 1.22563, 1.13544, 1.11897, 1.07976, 1.05089, 1.05054, 1.03473, 1.03405, 1.00608, 0.974413, 1.00502, 0.980626, 0.943866, 0.978895, 0.921407, 0.93719, 0.939112, 0.925859, 0.926785, 0.93783, 0.942679, 0.945963, 0.944467, 0.939061, 0.938743, 0.942555, 0.942416, 0.942698, 0.947666, 0.970556, 0.99234, 0.959367, 0.962178, 0.959934, 0.960979, 0.961379, 0.972987, 1.0075, 1.01837, 0.928412, 0.919329, 1.1678, 0.911875, 1.16126, 0.91013, 1.25249, 0.914009, 0.915865, 0.918873, 0.922046, 0.925245, 0.929355
1.21958, 1.1515, 1.15149, 1.15629, 1.15429, 1.15314, 1.1521, 1.14701, 1.15094, 1.25599, 1.31513, 1.10129, 1.09683, 1.09477, 1.09195, 1.31483, 1.07909, 1.07714, 1.07676, 1.08228, 1.07003, 1.06857, 1.05691, 1.05781, 1.05467, 1.05555, 1.05199, 1.06659, 1.039, 1.04003, 1.04129, 1.03647, 1.03717, 1.04304, 1.04429, 1.03923, 1.04197, 1.05002, 1.04443, 1.04205, 1.04863, 1.04831, 1.04924, 1.18217, 1.26237, 1.157, 1.18415, 1.12924, 1.13055, 1.15394, 1.15337, 1.14438, 1.1688, 1.16145, 1.22293, 1.23227, 1.25027, 1.26093, 1.25746, 1.24674, 1.25682, 1.2526, 1.33668, 1.2932, 1.29887, 1.27644, 1.27567, 1.33597, 1.42253, 1.4302, 1.39904, 1.41617, 1.36937, 1.38614, 1.43348, 1.6078, 1.61962, 1.51322, 1.41927, 1.52614, 1.40582, 1.41539, 1.447, 1.40648, 1.39203, 1.36776, 1.31657, 1.34478, 1.32294, 1.32539, 1.37331, 1.32913, 1.24824, 1.25742, 1.34418, 1.27469, 1.3123, 1.25497, 1.20707, 1.13995, 1.11656, 1.10101, 1.09145, 1.09132, 1.05366, 1.03198, 1.00441, 0.999437, 0.945561, 0.939861, 0.944439, 0.942641, 0.920699, 0.936597, 0.938796, 0.931472, 0.922833, 0.939545, 0.944226, 0.945648, 0.940837, 0.936552, 0.93603, 0.941101, 0.938785, 0.939495, 0.977192, 0.950003, 0.952753, 0.957603, 0.988816, 0.957241, 0.959169, 1.04242, 1.04419, 1.00652, 1.05755, 1.11158, 0.911428, 0.911432, 0.997488, 0.903716, 0.907527, 0.908345, 0.9142, 0.915099, 0.918873, 0.921838, 0.923371, 0.926872
1.27412, 1.14984, 1.14986, 1.14965, 1.27194, 1.15081, 1.14762, 1.14738, 1.14483, 1.15497, 1.31511, 1.25711, 1.22501, 1.09473, 1.09286, 1.09393, 1.0809, 1.07873, 1.07841, 1.08232, 1.07148, 1.06725, 1.06065, 1.05998, 1.0532, 1.05471, 1.05319, 1.10932, 1.03999, 1.04079, 1.04111, 1.03923, 1.04086, 1.04244, 1.04401, 1.04274, 1.04471, 1.04752, 1.04493, 1.04219, 1.04838, 1.04799, 1.0496, 1.18461, 1.13762, 1.11158, 1.13849, 1.13896, 1.11728, 1.15677, 1.14139, 1.19443, 1.15732, 1.17427, 1.22976, 1.22296, 1.22232, 1.26163, 1.25463, 1.24626, 1.27397, 1.27174, 1.32345, 1.29837, 1.35013, 1.29188, 1.29279, 1.39595, 1.42092, 1.41885, 1.41844, 1.37282, 1.36794, 1.38151, 1.40513, 1.48222, 1.54512, 1.44627, 1.52439, 1.52441, 1.42715, 1.42882, 1.51358, 1.41971, 1.40667, 1.34407, 1.36538, 1.34391, 1.43134, 1.48409, 1.44646, 1.28877, 1.25392, 1.29184, 1.35393, 1.31017, 1.25283, 1.2531, 1.20477, 1.11008, 1.08796, 1.10203, 1.0947, 1.10917, 1.0338, 1.03694, 1.03343, 0.995314, 1.00626, 0.953224, 0.936493, 0.929601, 0.920566, 0.936719, 0.936354, 0.9215, 0.918391, 0.941771, 0.943889, 0.943979, 0.939889, 0.935921, 0.934916, 0.937998, 0.936946, 0.93926, 0.96326, 0.950635, 0.952398, 0.965014, 0.990874, 0.957695, 0.958647, 1.02226, 1.04656, 0.946594, 1.09824, 0.915833, 0.911371, 0.911204, 0.905317, 0.903459, 0.905395, 0.908858, 0.912118, 0.914459, 0.920209, 0.921336, 0.924651, 0.928082
1.28146, 1.14749, 1.14711, 1.14467, 1.14428, 1.15162, 1.14635, 1.14812, 1.16242, 1.24153, 1.20841, 1.25633, 1.2184, 1.09689, 1.09328, 1.09413, 1.08702, 1.08255, 1.0796, 1.08042, 1.40209, 1.06817, 1.06544, 1.06, 1.05588, 1.05565, 1.05585, 1.05041, 1.04608, 1.12566, 1.04141, 1.04031, 1.04142, 1.04578, 1.04533, 1.04594, 1.04625, 1.04829, 1.1883, 1.04108, 1.04962, 1.19105, 1.18217, 1.13415, 1.26907, 1.27361, 1.1569, 1.18714, 1.1183, 1.13301, 1.13972, 1.42311, 1.30158, 1.17103, 1.2049, 1.2229, 1.24514, 1.28902, 1.25434, 1.28171, 1.27709, 1.32251, 1.34571, 1.35894, 1.45798, 1.35413, 1.28818, 1.31175, 1.42319, 1.42236, 1.42233, 1.37252, 1.44108, 1.43223, 1.48937, 1.49085, 1.45498, 1.44713, 1.43876, 1.43932, 1.41535, 1.5688, 1.51077, 1.42292, 1.38846, 1.36719, 1.37376, 1.62353, 1.48448, 1.48245, 1.46024, 1.32195, 1.2621, 1.31696, 1.35713, 1.27444, 1.24311, 1.23759, 1.14697, 1.1256, 1.10191, 1.09529, 1.09459, 1.12617, 1.10518, 1.06733, 1.04588, 1.03352, 1.02616, 1.00547, 0.969873, 0.987512, 0.942638, 0.940972, 0.9717, 0.938701, 0.919822, 0.942447, 0.943649, 0.942449, 0.945895, 0.934807, 0.932837, 0.93656, 0.936547, 0.939309, 0.967779, 0.948199, 0.949939, 0.95142, 1.05316, 0.957817, 0.957809, 1.03901, 1.05715, 1.05998, 1.08811, 0.916158, 0.908548, 0.909224, 0.907793, 0.902584, 0.904162, 0.910608, 0.911618, 0.915387, 0.918534, 0.925543, 0.927815, 0.929324
1.2224, 1.14507, 1.14305, 1.14513, 1.14592, 1.14715, 1.14615, 1.14724, 1.14614, 1.2094, 1.11504, 1.11243, 1.09948, 1.0978, 1.09238, 1.091, 1.08737, 1.08209, 1.08032, 1.08169, 1.07673, 1.07077, 1.06821, 1.06137, 1.05792, 1.05634, 1.05533, 1.05128, 1.04902, 1.0501, 1.04166, 1.04258, 1.04359, 1.0506, 1.04942, 1.04597, 1.04877, 1.05173, 1.06122, 1.04153, 1.04917, 1.05016, 1.086, 1.10709, 1.13373, 1.27618, 1.30583, 1.18664, 1.18001, 1.12799, 1.13829, 1.33124, 1.3008, 1.18247, 1.1754, 1.21235, 1.26092, 1.25631, 1.28537, 1.28164, 1.31825, 1.32684, 1.3328, 1.44863, 1.33449, 1.34971, 1.28495, 1.32199, 1.37434, 1.49432, 1.40774, 1.37415, 1.44076, 1.43002, 1.43164, 1.49115, 1.45653, 1.45329, 1.4281, 1.43823, 1.42557, 1.48849, 1.4789, 1.43761, 1.38851, 1.37189, 1.48542, 1.4848, 1.48641, 1.48447, 1.36387, 1.26359, 1.26213, 1.28599, 1.35446, 1.31958, 1.21804, 1.20797, 1.16111, 1.12324, 1.11683, 1.15654, 1.09785, 1.12514, 1.08571, 1.08349, 1.06864, 1.03217, 1.00137, 0.994371, 0.974635, 0.96491, 0.943242, 0.971634, 1.07847, 0.929921, 0.919131, 0.942442, 0.941774, 0.940617, 0.933889, 0.93506, 0.931835, 0.933523, 0.935927, 0.969523, 0.954221, 0.94793, 0.948904, 0.94994, 1.05344, 1.021, 1.02186, 1.02622, 1.02244, 1.01984, 1.1086, 1.1018, 0.90845, 0.909889, 0.910494, 0.905726, 0.906195, 0.907845, 0.911623, 0.917701, 0.918149, 0.926395, 0.927194, 0.929979
1.14199, 1.13927, 1.14138, 1.14317, 1.14478, 1.14491, 1.14346, 1.23988, 1.1432, 1.15828, 1.23315, 1.1077, 1.10779, 1.37491, 1.0948, 1.09245, 1.08738, 1.08203, 1.0811, 1.08202, 1.07751, 1.07308, 1.07292, 1.06275, 1.05929, 1.05952, 1.05136, 1.05122, 1.04974, 1.05104, 1.04308, 1.04364, 1.0447, 1.04955, 1.05006, 1.04843, 1.05314, 1.05226, 1.04495, 1.04245, 1.04673, 1.04841, 1.08709, 1.092, 1.08995, 1.27746, 1.30476, 1.33078, 1.16646, 1.14165, 1.2963, 1.2956, 1.30337, 1.19783, 1.18271, 1.2088, 1.24084, 1.24473, 1.32112, 1.28899, 1.3057, 1.30208, 1.3201, 1.33134, 1.35158, 1.32956, 1.29188, 1.30572, 1.36572, 1.48418, 1.4178, 1.38613, 1.3849, 1.56583, 1.42991, 1.4865, 1.46312, 1.51528, 1.47194, 1.52018, 1.41582, 1.44298, 1.43936, 1.4241, 1.38996, 1.39191, 1.47467, 1.48289, 1.48744, 1.48839, 1.46508, 1.29037, 1.27466, 1.27443, 1.29206, 1.22642, 1.22045, 1.16125, 1.16947, 1.12276, 1.11622, 1.12736, 1.13358, 1.16473, 1.11932, 1.05652, 1.06974, 1.00833, 1.00553, 0.977466, 0.945646, 0.953722, 0.956869, 0.959598, 0.949166, 0.947487, 0.921178, 0.94279, 0.940406, 0.940324, 0.933146, 0.932814, 0.928933, 0.933891, 0.935672, 0.968626, 0.96657, 0.947112, 0.94883, 0.949859, 0.987466, 1.00079, 1.01035, 0.947078, 1.03718, 1.07809, 1.06854, 1.09428, 0.907267, 0.909154, 0.9077, 0.905331, 0.907633, 0.90738, 0.914543, 0.914969, 0.926457, 0.926802, 0.928976, 0.929563
1.13968, 1.13891, 1.13906, 1.13984, 1.14101, 1.14174, 1.14247, 1.26084, 1.13918, 1.14905, 1.22757, 1.10747, 1.10788, 1.37488, 1.09746, 1.46031, 1.08571, 1.08484, 1.08146, 1.08303, 1.07584, 1.07323, 1.07202, 1.06202, 1.05909, 1.05977, 1.05156, 1.05032, 1.04966, 1.05074, 1.04439, 1.04355, 1.04355, 1.04304, 1.05033, 1.04846, 1.04799, 1.05607, 1.04385, 1.04239, 1.04576, 1.04554, 1.09177, 1.08902, 1.13572, 1.19863, 1.31232, 1.17339, 1.2707, 1.16771, 1.17642, 1.41613, 1.41533, 1.20665, 1.19919, 1.22965, 1.2636, 1.24778, 1.27082, 1.33721, 1.29286, 1.30268, 1.33189, 1.37118, 1.3222, 1.32524, 1.30487, 1.321, 1.39558, 1.43961, 1.40873, 1.41246, 1.50203, 1.4201, 1.43287, 1.43586, 1.45976, 1.45952, 1.45376, 1.45441, 1.42281, 1.42058, 1.44192, 1.43676, 1.41378, 1.46024, 1.5125, 1.48494, 1.48915, 1.50899, 1.43749, 1.30062, 1.29901, 1.28352, 1.28685, 1.22763, 1.21569, 1.2387, 1.18555, 1.14273, 1.13943, 1.12562, 1.1323, 1.17016, 1.14773, 1.04473, 1.01213, 0.994181, 0.987061, 1.04192, 0.940934, 0.963243, 0.950005, 0.95009, 0.946116, 0.942797, 0.919944, 0.939215, 0.940237, 0.929768, 0.93141, 0.929502, 0.927945, 0.933093, 0.934186, 0.935414, 0.964379, 0.947207, 0.94825, 0.949399, 1.02676, 1.00189, 1.00607, 1.0166, 1.04328, 1.07819, 1.07936, 1.1156, 0.90126, 0.900735, 0.905324, 0.904863, 0.906185, 1.25636, 0.913112, 0.91565, 0.916222, 0.929355, 0.928504, 0.930399
1.13703, 1.13564, 1.13654, 1.13438, 1.14008, 1.14054, 1.21451, 1.21576, 1.13788, 1.1359, 1.18517, 1.11289, 1.1121, 1.24238, 1.1014, 1.28156, 1.34378, 1.08331, 1.08386, 1.08453, 1.08506, 1.07496, 1.06995, 1.06457, 1.0627, 1.06046, 1.05746, 1.04946, 1.04998, 1.05076, 1.0494, 1.04669, 1.04776, 1.04435, 1.05069, 1.04704, 1.22379, 1.05584, 1.04431, 1.04014, 1.04643, 1.0492, 1.04916, 1.12485, 1.11301, 1.14598, 1.18978, 1.18246, 1.19316, 1.1585, 1.207, 1.40545, 1.39619, 1.21399, 1.21651, 1.26741, 1.27064, 1.32329, 1.30086, 1.30291, 1.37191, 1.31624, 1.39171, 1.34395, 1.35356, 1.32261, 1.34355, 1.3377, 1.39278, 1.42684, 1.43604, 1.41294, 1.41272, 1.56066, 1.44682, 1.48166, 1.53649, 1.46081, 1.45731, 1.45633, 1.47469, 1.41468, 1.49198, 1.4366, 1.47761, 1.56065, 1.49071, 1.48469, 1.47475, 1.47801, 1.42436, 1.45778, 1.34429, 1.39789, 1.38812, 1.35164, 1.21476, 1.20436, 1.16707, 1.14869, 1.15719, 1.14269, 1.14739, 1.13298, 1.14748, 1.05309, 1.00352, 0.98821, 0.98771, 1.02506, 0.946781, 0.969946, 0.949801, 0.936414, 0.935584, 0.942721, 0.921699, 0.939307, 0.96085, 0.930812, 0.93165, 0.927448, 0.928194, 0.929241, 0.933137, 0.936823, 0.939591, 0.946394, 0.948826, 0.949685, 0.982463, 0.998749, 0.946175, 1.05331, 1.0435, 0.907132, 0.907888, 0.90425, 0.90517, 0.900861, 0.902879, 0.905056, 0.901185, 0.904686, 0.913791, 0.915103, 1.06386, 0.928176, 0.929531, 1.12008
1.13563, 1.13213, 1.13565, 1.13588, 1.13916, 1.13908, 1.13914, 1.13277, 1.1347, 1.13518, 1.13919, 1.11073, 1.11218, 1.10202, 1.10157, 1.10102, 1.28567, 1.08222, 1.08506, 1.08249, 1.08358, 1.07726, 1.07565, 1.06283, 1.0629, 1.06333, 1.0518, 1.04786, 1.04813, 1.0509, 1.05025, 1.0485, 1.05215, 1.049, 1.04974, 1.05289, 1.0527, 1.04834, 1.04359, 1.04021, 1.04791, 1.04838, 1.05585, 1.09412, 1.1571, 1.14939, 1.17835, 1.17742, 1.17118, 1.17025, 1.17444, 1.26079, 1.20486, 1.21338, 1.21456, 1.28386, 1.2748, 1.31633, 1.36275, 1.38993, 1.28991, 1.36067, 1.33989, 1.34286, 1.34392, 1.3471, 1.33816, 1.34614, 1.3724, 1.41895, 1.4305, 1.42141, 1.42103, 1.42453, 1.42437, 1.4481, 1.46385, 1.45413, 1.45317, 1.48074, 1.44323, 1.40566, 1.44158, 1.43723, 1.45053, 1.47797, 1.49071, 1.45528, 1.4756, 1.48589, 1.47128, 1.35925, 1.34508, 1.39486, 1.38486, 1.3513, 1.24672, 1.19058, 1.18443, 1.17228, 1.15132, 1.1505, 1.13737, 1.13591, 1.07871, 1.05598, 1.05302, 0.980444, 1.02312, 1.02551, 0.980645, 0.981746, 0.958902, 0.944162, 0.966637, 0.942076, 0.925831, 0.96001, 0.924942, 0.931512, 0.92739, 0.928109, 0.928191, 0.927659, 0.933205, 0.936497, 0.937167, 0.945582, 0.946346, 0.968424, 0.987956, 1.07784, 1.01477, 1.0297, 0.909819, 0.908605, 0.906631, 0.903235, 0.906267, 0.90135, 0.903348, 0.904524, 0.90379, 0.904103, 0.922195, 0.923704, 0.940211, 0.927769, 0.929394, 1.11853
1.13257, 1.13146, 1.13218, 1.13238, 1.13668, 1.13681, 1.13575, 1.13417, 1.13402, 1.21427, 1.2555, 1.10907, 1.11032, 1.10404, 1.10346, 1.09992, 1.30321, 1.08249, 1.08513, 1.08413, 1.0828, 1.0773, 1.07667, 1.06462, 1.06515, 1.06464, 1.05447, 1.04965, 1.04883, 1.05148, 1.05154, 1.04962, 1.0507, 1.04655, 1.04953, 1.04761, 1.04817, 1.0496, 1.04234, 1.0291, 1.05412, 1.05682, 1.04765, 1.10836, 1.1365, 1.15404, 1.27952, 1.17492, 1.17089, 1.17071, 1.20174, 1.21776, 1.21001, 1.26266, 1.28161, 1.27931, 1.2723, 1.41283, 1.34842, 1.30468, 1.35306, 1.34381, 1.3829, 1.35802, 1.35425, 1.35608, 1.35153, 1.37224, 1.43995, 1.48249, 1.54091, 1.43078, 1.42415, 1.41916, 1.49583, 1.4975, 1.45714, 1.456, 1.45382, 1.50395, 1.43423, 1.40542, 1.46173, 1.44649, 1.45924, 1.48175, 1.49489, 1.47544, 1.47446, 1.4655, 1.47794, 1.34359, 1.34085, 1.32791, 1.36472, 1.34984, 1.22509, 1.21891, 1.20743, 1.22227, 1.17146, 1.15032, 1.15498, 1.15348, 1.15344, 1.0608, 0.998528, 1.01592, 1.01691, 0.984958, 0.943079, 0.956898, 0.929326, 0.95547, 0.958995, 0.959732, 0.927093, 0.928697, 0.925247, 0.927343, 0.969288, 0.96685, 0.927836, 0.92575, 0.933746, 0.935307, 0.939252, 0.944252, 0.946034, 0.956297, 0.94985, 0.946021, 1.01106, 1.05212, 0.906655, 0.907705, 0.907766, 0.907688, 0.904462, 0.904861, 0.903722, 0.904416, 0.901828, 0.903187, 0.930025, 1.21985, 0.924769, 1.20193, 1.35839, 1.36032
1.13193, 1.1304, 1.12781, 1.13324, 1.13464, 1.13407, 1.13485, 1.13332, 1.13204, 1.1331, 1.11349, 1.11052, 1.11178, 1.10519, 1.10502, 1.10063, 1.23376, 1.08347, 1.08426, 1.08365, 1.08297, 1.0741, 1.07483, 1.06691, 1.06672, 1.06445, 1.05958, 1.05512, 1.04857, 1.05241, 1.05246, 1.05836, 1.04853, 1.04992, 1.04594, 1.04608, 1.04728, 1.04973, 1.04331, 1.04099, 1.27114, 1.05858, 1.05774, 1.05883, 1.12805, 1.25043, 1.28481, 1.25246, 1.25559, 1.19245, 1.17568, 1.20393, 1.21873, 1.26328, 1.28929, 1.27752, 1.27094, 1.35522, 1.35788, 1.29065, 1.29023, 1.46935, 1.4869, 1.42613, 1.39984, 1.468, 1.43338, 1.45699, 1.41951, 1.49729, 1.45425, 1.49648, 1.5177, 1.43457, 1.44706, 1.45093, 1.45229, 1.46195, 1.46601, 1.46773, 1.46817, 1.4316, 1.44524, 1.44545, 1.51607, 1.42131, 1.48088, 1.46098, 1.45003, 1.45892, 1.33868, 1.34514, 1.35924, 1.3267, 1.399, 1.39261, 1.24841, 1.23038, 1.20601, 1.21223, 1.17467, 1.15343, 1.12243, 1.0978, 1.09808, 1.04933, 1.02193, 0.994065, 0.996275, 0.99502, 0.941745, 0.959381, 0.94345, 0.948895, 0.950207, 0.961784, 0.927301, 0.926887, 0.924983, 1.03294, 0.918797, 0.968255, 0.923169, 0.923945, 0.933134, 0.934635, 0.953763, 0.954402, 0.944385, 0.956543, 0.972933, 1.08089, 1.01122, 1.05361, 0.907056, 0.90765, 0.908097, 0.909223, 0.907515, 0.914406, 0.911732, 0.907053, 0.901687, 0.901683, 1.22356, 1.23911, 1.20887, 1.03587, 1.04483, 1.40643
1.12848, 1.12732, 1.12864, 1.13189, 1.13228, 1.13187, 1.13145, 1.13133, 1.13057, 1.33745, 1.273, 1.11255, 1.1125, 1.10909, 1.10378, 1.10085, 1.15267, 1.08468, 1.08088, 1.0829, 1.08274, 1.07192, 1.07198, 1.0698, 1.06668, 1.06369, 1.0591, 1.05503, 1.11604, 1.05263, 1.05262, 1.06065, 1.04723, 1.04928, 1.04844, 1.04623, 1.04714, 1.05119, 1.04499, 1.04731, 1.04938, 1.07562, 1.09922, 1.06091, 1.10243, 1.15151, 1.28769, 1.27195, 1.25913, 1.20729, 1.18836, 1.20291, 1.23716, 1.30299, 1.30142, 1.28158, 1.26725, 1.34992, 1.34839, 1.29121, 1.29103, 1.47189, 1.35658, 1.37215, 1.42021, 1.4793, 1.38498, 1.38506, 1.421, 1.41659, 1.5086, 1.49552, 1.51618, 1.43099, 1.54526, 1.45539, 1.49664, 1.47912, 1.47057, 1.49415, 1.44401, 1.4463, 1.44397, 1.50452, 1.47787, 1.44742, 1.41317, 1.43361, 1.44738, 1.4595, 1.42965, 1.34219, 1.33076, 1.32283, 1.38723, 1.39772, 1.26005, 1.19927, 1.19889, 1.18915, 1.19836, 1.15793, 1.12414, 1.07629, 1.09417, 1.10043, 1.02616, 1.04559, 1.01501, 0.998224, 0.937081, 0.939802, 0.94081, 0.941491, 0.942623, 0.958014, 0.930301, 0.932355, 0.925466, 0.935634, 0.912935, 0.912418, 0.975301, 0.933027, 0.93229, 0.932533, 0.933474, 0.939458, 0.941146, 0.943302, 0.996629, 1.00433, 1.00265, 0.91826, 0.911943, 0.909058, 0.907851, 0.909024, 1.08569, 0.925824, 0.909171, 0.908225, 0.909105, 1.23327, 1.2486, 1.2502, 0.936907, 0.94245, 0.944046, 0.9457
1.12599, 1.12665, 1.12616, 1.12924, 1.13015, 1.1315, 1.12856, 1.1288, 1.12813, 1.12751, 1.35706, 1.11311, 1.11386, 1.10873, 1.10311, 1.10172, 1.17733, 1.14715, 1.08029, 1.08353, 1.08074, 1.07421, 1.0716, 1.06833, 1.06639, 1.06554, 1.05822, 1.0565, 1.05119, 1.05244, 1.05266, 1.06096, 1.044, 1.05329, 1.0463, 1.04657, 1.04093, 1.0508, 1.04553, 1.04586, 1.05027, 1.08332, 1.10191, 1.10909, 1.11453, 1.13601, 1.29892, 1.46044, 1.25801, 1.29197, 1.19926, 1.21188, 1.22833, 1.29586, 1.31176, 1.31429, 1.29076, 1.28149, 1.30617, 1.30183, 1.46917, 1.47035, 1.39376, 1.39842, 1.38521, 1.47234, 1.38843, 1.38761, 1.43955, 1.43, 1.50949, 1.46041, 1.46001, 1.45453, 1.54915, 1.46192, 1.48278, 1.51277, 1.49949, 1.46907, 1.5097, 1.456, 1.49244, 1.50078, 1.44489, 1.44494, 1.44089, 1.44345, 1.56934, 1.48085, 1.3711, 1.35141, 1.32508, 1.32346, 1.3886, 1.27937, 1.24879, 1.20317, 1.20823, 1.18897, 1.19208, 1.14812, 1.12217, 1.08191, 1.06909, 1.06006, 1.05338, 1.03707, 0.995929, 0.967732, 0.997303, 0.932971, 0.93921, 0.943154, 0.942231, 0.947643, 0.93021, 0.934962, 0.924982, 0.935694, 0.911906, 0.91286, 0.973051, 0.933909, 0.932967, 0.932269, 0.932647, 0.939483, 0.940902, 0.942774, 0.943936, 1.02392, 1.02677, 0.91208, 0.914626, 0.909015, 0.912131, 0.912216, 1.09207, 0.921574, 0.910848, 0.909885, 0.911194, 1.23639, 1.22249, 0.950413, 1.01506, 1.01383, 0.952856, 1.1249
1.12224, 1.12331, 1.12451, 1.12236, 1.12772, 1.12762, 1.25413, 1.12884, 1.12599, 1.1263, 1.12409, 1.11279, 1.11485, 1.11059, 1.10317, 1.10286, 1.2842, 1.23894, 1.08001, 1.08032, 1.08024, 1.07281, 1.07177, 1.07062, 1.07129, 1.06546, 1.58536, 1.05163, 1.05151, 1.05337, 1.05423, 1.06042, 1.04403, 1.04416, 1.04453, 1.03916, 1.04087, 1.05023, 1.04421, 1.0457, 1.07426, 1.07571, 1.09826, 1.07174, 1.13036, 1.13915, 1.18726, 1.22879, 1.22885, 1.20747, 1.21672, 1.228, 1.26016, 1.2574, 1.3187, 1.27008, 1.28202, 1.29494, 1.31932, 1.30572, 1.30182, 1.46741, 1.36233, 1.37563, 1.37599, 1.43319, 1.3924, 1.38769, 1.38336, 1.43394, 1.46468, 1.46299, 1.4639, 1.45109, 1.45756, 1.44796, 1.48348, 1.48161, 1.48842, 1.52094, 1.49585, 1.51965, 1.49049, 1.51676, 1.46916, 1.44516, 1.45134, 1.42114, 1.56967, 1.47157, 1.41567, 1.46063, 1.32668, 1.32666, 1.40492, 1.2792, 1.2475, 1.25611, 1.19736, 1.16692, 1.16682, 1.1496, 1.09775, 1.07749, 1.08428, 1.10453, 1.04949, 1.04625, 0.995839, 0.969998, 0.977806, 0.975675, 0.942468, 0.936383, 0.93374, 0.938603, 0.934512, 0.93513, 0.924896, 0.935242, 1.07422, 0.91516, 0.917416, 0.936245, 0.933009, 0.931674, 0.933634, 0.940813, 0.939414, 0.940942, 0.943196, 1.01364, 0.935545, 0.913407, 0.912411, 0.913413, 0.913254, 0.915458, 1.07267, 0.923783, 0.909717, 0.907932, 1.2034, 1.22692, 1.22961, 1.23971, 0.975271, 1.05274, 1.12311, 1.15107
1.11972, 1.12032, 1.12223, 1.12451, 1.12444, 1.12032, 1.12486, 1.12571, 1.12517, 1.12373, 1.12319, 1.12009, 1.39722, 1.10972, 1.10274, 1.10139, 1.10109, 1.23577, 1.08341, 1.08037, 1.08077, 1.07243, 1.07241, 1.07054, 1.06527, 1.46146, 1.05456, 1.054, 1.05152, 1.0541, 1.05468, 1.06016, 1.04554, 1.04455, 1.04309, 1.03882, 1.23449, 1.05002, 1.04475, 1.04387, 1.04707, 1.04661, 1.06019, 1.19114, 1.15705, 1.15718, 1.16721, 1.22997, 1.22883, 1.22083, 1.22941, 1.24158, 1.23689, 1.24047, 1.26339, 1.24326, 1.24034, 1.30131, 1.29317, 1.30303, 1.41462, 1.34907, 1.38943, 1.36894, 1.37111, 1.37079, 1.39294, 1.38366, 1.38695, 1.42111, 1.46549, 1.48706, 1.45131, 1.45088, 1.45379, 1.44736, 1.53923, 1.49506, 1.55431, 1.52103, 1.57216, 1.51431, 1.49558, 1.49598, 1.46734, 1.45814, 1.43857, 1.43651, 1.44753, 1.5053, 1.37124, 1.46143, 1.33827, 1.40029, 1.32922, 1.30392, 1.26229, 1.23661, 1.20875, 1.17775, 1.16903, 1.15878, 1.11963, 1.08341, 1.07765, 1.08884, 1.09474, 1.02701, 1.00889, 1.00056, 0.971946, 1.0189, 0.966588, 0.963354, 0.968657, 0.936168, 0.937874, 0.935836, 0.925693, 0.935786, 0.959203, 0.917522, 0.917331, 0.935656, 0.930271, 0.931628, 0.932784, 0.937789, 0.93906, 0.941297, 0.943173, 0.99276, 0.988492, 0.912875, 0.914857, 0.914588, 0.915296, 0.916402, 1.12379, 1.13904, 1.16352, 0.91091, 0.918192, 0.925823, 1.22681, 0.976488, 1.09446, 1.09366, 1.09826, 1.15109
1.1178, 1.11822, 1.12006, 1.12072, 1.12168, 1.12168, 1.12253, 1.12285, 1.12293, 1.12189, 1.12148, 1.11821, 1.1181, 1.11159, 1.10203, 1.1019, 1.10158, 1.09109, 1.08557, 1.08039, 1.07989, 1.07468, 1.0724, 1.43353, 1.06345, 1.46169, 1.05485, 1.05288, 1.05218, 1.05193, 1.05667, 1.06516, 1.04363, 1.04399, 1.04413, 1.03893, 1.07135, 1.0492, 1.04361, 1.04379, 1.07201, 1.04226, 1.06845, 1.18959, 1.1485, 1.16553, 1.1821, 1.22469, 1.22759, 1.23786, 1.25029, 1.2504, 1.23412, 1.2385, 1.26309, 1.24508, 1.24959, 1.24917, 1.33238, 1.33174, 1.35082, 1.34532, 1.34488, 1.38505, 1.39163, 1.39631, 1.39512, 1.38577, 1.51743, 1.42228, 1.42357, 1.47506, 1.45557, 1.45181, 1.44613, 1.44487, 1.52692, 1.56493, 1.57311, 1.5215, 1.52519, 1.4899, 1.49507, 1.49844, 1.49491, 1.5029, 1.42262, 1.43275, 1.43517, 1.3946, 1.3913, 1.36039, 1.35795, 1.40621, 1.36663, 1.30303, 1.2751, 1.29363, 1.21684, 1.19492, 1.1747, 1.1647, 1.143, 1.08393, 1.08185, 1.09931, 1.10102, 1.07739, 1.06026, 1.00289, 0.992105, 1.00789, 0.950822, 0.936789, 0.939413, 0.973848, 0.930962, 0.931377, 0.925579, 0.936011, 0.960151, 0.917992, 0.916977, 0.935, 0.929658, 0.931302, 0.932009, 0.93896, 0.93976, 0.942151, 0.944424, 0.943961, 0.988621, 0.921138, 0.915905, 0.915639, 0.91638, 0.915838, 1.11888, 1.13356, 1.19573, 1.19187, 1.12865, 1.2061, 1.076, 1.09487, 1.24753, 1.09408, 1.10587, 1.10888
1.11718, 1.11549, 1.11642, 1.11924, 1.11988, 1.12104, 1.12205, 1.12248, 1.12138, 1.12065, 1.11975, 1.11892, 1.11758, 1.1108, 1.10141, 1.10166, 1.10142, 1.09046, 1.08685, 1.0809, 1.07977, 1.07707, 1.07724, 1.4397, 1.51591, 1.05941, 1.05191, 1.0533, 1.05226, 1.05118, 1.05625, 1.10381, 1.04574, 1.04503, 1.04493, 1.03912, 1.26429, 1.04561, 1.04285, 1.04532, 1.07531, 1.08515, 1.1085, 1.13826, 1.16106, 1.16185, 1.18643, 1.22767, 1.23188, 1.28863, 1.24572, 1.24404, 1.26947, 1.27845, 1.24295, 1.24014, 1.24666, 1.24936, 1.32168, 1.45076, 1.39284, 1.46805, 1.34436, 1.36844, 1.38856, 1.3963, 1.38875, 1.38605, 1.44313, 1.44077, 1.44811, 1.48417, 1.46462, 1.46153, 1.44707, 1.46949, 1.51982, 1.55414, 1.52674, 1.51508, 1.52051, 1.48604, 1.4933, 1.48877, 1.49912, 1.60276, 1.41993, 1.42755, 1.42804, 1.39496, 1.42271, 1.44319, 1.34307, 1.38934, 1.34768, 1.31291, 1.26985, 1.23251, 1.21894, 1.25335, 1.18929, 1.15983, 1.17421, 1.08786, 1.09993, 1.08101, 1.1013, 1.07299, 1.02242, 1.01655, 0.978324, 0.994307, 0.953168, 0.96826, 0.933541, 0.937372, 0.929371, 0.926679, 0.928116, 0.935642, 0.932782, 0.915411, 0.91675, 0.935119, 0.928168, 0.930878, 0.932635, 0.939029, 0.939479, 0.94201, 0.944356, 0.985731, 0.924824, 0.921336, 0.914918, 0.917475, 0.920707, 1.11215, 1.043, 1.13383, 1.12024, 1.19796, 1.1257, 1.05635, 1.03624, 1.0874, 1.08734, 1.11969, 1.24937, 1.20555
1.11329, 1.1121, 1.11476, 1.11556, 1.11742, 1.11586, 1.11849, 1.12065, 1.12026, 1.11913, 1.11865, 1.11559, 1.11632, 1.11187, 1.10226, 1.10247, 1.09823, 1.08782, 1.08613, 1.08473, 1.07985, 1.0772, 1.07779, 1.36766, 1.51736, 1.51837, 1.05014, 1.05541, 1.05596, 1.05656, 1.05993, 1.0564, 1.05365, 1.04646, 1.04412, 1.03945, 1.04355, 1.04418, 1.0416, 1.04371, 1.04955, 1.04292, 1.09752, 1.14373, 1.14956, 1.20162, 1.21542, 1.23239, 1.23141, 1.24634, 1.24647, 1.26406, 1.32463, 1.24157, 1.24445, 1.25248, 1.26836, 1.37265, 1.36454, 1.39646, 1.39312, 1.37587, 1.368, 1.41571, 1.38908, 1.39176, 1.39154, 1.41005, 1.39787, 1.43554, 1.45521, 1.42396, 1.45771, 1.46787, 1.45595, 1.49898, 1.516, 1.51104, 1.52705, 1.64209, 1.49886, 1.49823, 1.49205, 1.49402, 1.53686, 1.47595, 1.40613, 1.40427, 1.47542, 1.4231, 1.42022, 1.37081, 1.36556, 1.3709, 1.38214, 1.344, 1.26375, 1.26093, 1.22959, 1.22351, 1.19606, 1.17161, 1.14089, 1.08899, 1.15733, 1.11165, 1.12314, 1.09911, 1.03347, 1.03293, 1.03289, 0.98621, 0.940392, 0.947586, 0.974504, 0.930554, 0.928498, 0.927525, 0.928568, 0.934004, 0.963438, 0.918004, 0.932366, 0.933517, 0.928581, 0.928711, 0.933895, 0.940441, 0.9397, 0.942323, 0.944319, 1.0355, 1.03511, 0.926594, 1.05108, 0.953237, 1.10114, 1.07308, 1.08797, 1.08423, 1.14733, 1.12982, 1.12772, 1.17551, 1.03953, 1.07475, 1.10936, 1.25493, 1.10779, 1.11823
1.11205, 1.1114, 1.11425, 1.1137, 1.11478, 1.11479, 1.11543, 1.11564, 1.11824, 1.11761, 1.11716, 1.11533, 1.11268, 1.1111, 1.1066, 1.10381, 1.09802, 1.09635, 1.08938, 1.08403, 1.07905, 1.07925, 1.07934, 1.07475, 1.06425, 1.4524, 1.05083, 1.05694, 1.05726, 1.05943, 1.06067, 1.0549, 1.05318, 1.04794, 1.0431, 1.04146, 1.04565, 1.04238, 1.04231, 1.04706, 1.04267, 1.10898, 1.17538, 1.12878, 1.18158, 1.26007, 1.23412, 1.22627, 1.23193, 1.24846, 1.2671, 1.43424, 1.30968, 1.27963, 1.26471, 1.37079, 1.28235, 1.28893, 1.38144, 1.38796, 1.39333, 1.38505, 1.36175, 1.42252, 1.3994, 1.40942, 1.4051, 1.40884, 1.40783, 1.39421, 1.41316, 1.48321, 1.52614, 1.46826, 1.50493, 1.50519, 1.53419, 1.51635, 1.52848, 1.64665, 1.52049, 1.52369, 1.51776, 1.51013, 1.47385, 1.4761, 1.42143, 1.39507, 1.39557, 1.41576, 1.3956, 1.41658, 1.45437, 1.36896, 1.41034, 1.40219, 1.28123, 1.30153, 1.33707, 1.23692, 1.21114, 1.28144, 1.12006, 1.08258, 1.10668, 1.06992, 1.09598, 1.05243, 1.02339, 1.0165, 0.997846, 0.959854, 0.940354, 0.969761, 0.973946, 0.940888, 0.94211, 0.927198, 0.928269, 0.932641, 0.931811, 0.918035, 0.933694, 0.934498, 0.930196, 0.930464, 0.935401, 0.938933, 0.938596, 0.942261, 0.944281, 0.945842, 1.03019, 1.05236, 1.06881, 1.0874, 1.10335, 1.03981, 1.11495, 1.08357, 1.14015, 0.987908, 1.12198, 1.16364, 1.05604, 1.06451, 1.29949, 1.22987, 1.11548, 1.07851
1.11005, 1.11133, 1.11249, 1.11307, 1.11229, 1.11354, 1.1144, 1.11478, 1.11606, 1.11618, 1.11503, 1.11435, 1.15272, 1.11009, 1.10681, 1.10616, 1.09816, 1.09338, 1.08883, 1.08552, 1.08365, 1.07867, 1.07913, 1.07537, 1.06359, 1.39892, 1.52229, 1.06089, 1.05973, 1.05967, 1.05966, 1.05613, 1.05604, 1.05048, 1.04285, 1.07903, 1.05031, 1.03973, 1.04226, 1.04439, 1.04026, 1.09515, 1.18438, 1.16127, 1.13952, 1.21629, 1.28047, 1.2255, 1.25932, 1.26127, 1.29925, 1.31334, 1.34674, 1.28789, 1.28172, 1.28289, 1.2914, 1.3045, 1.3869, 1.39952, 1.41356, 1.38535, 1.38486, 1.43297, 1.40694, 1.40312, 1.43966, 1.40753, 1.40671, 1.40227, 1.47914, 1.47228, 1.44683, 1.51792, 1.49825, 1.49212, 1.52729, 1.50007, 1.53783, 1.5403, 1.5281, 1.53691, 1.48321, 1.47935, 1.4733, 1.47763, 1.40936, 1.39517, 1.40561, 1.41562, 1.39849, 1.41442, 1.36639, 1.38939, 1.35582, 1.34691, 1.29306, 1.31246, 1.31232, 1.22632, 1.18818, 1.17477, 1.13716, 1.08754, 1.11023, 1.07171, 1.0597, 1.11247, 1.0863, 1.01339, 0.996999, 0.927978, 0.966967, 0.970524, 0.960103, 0.959762, 0.934643, 0.926733, 0.929256, 0.932305, 0.931947, 0.919925, 0.920584, 0.935571, 0.930604, 0.930637, 0.93404, 0.938042, 0.938579, 0.94178, 0.944125, 1.01855, 1.01254, 0.984757, 1.06132, 0.981816, 1.00177, 1.01071, 1.10548, 1.09713, 1.09627, 1.08941, 1.0854, 1.1644, 1.10423, 1.07096, 1.19895, 1.20938, 1.23583, 1.09187
1.10617, 1.10721, 1.11116, 1.11016, 1.11071, 1.11164, 1.11157, 1.11266, 1.1144, 1.11455, 1.11388, 1.11397, 1.35411, 1.15179, 1.10771, 1.10496, 1.09769, 1.09766, 1.08888, 1.08765, 1.08607, 1.07948, 1.07726, 1.0771, 1.40049, 1.39947, 1.06474, 1.06672, 1.44755, 1.06192, 1.05999, 1.05621, 1.05525, 1.2752, 1.0432, 1.04509, 1.05069, 1.04078, 1.0451, 1.04442, 1.06365, 1.08525, 1.16707, 1.16884, 1.16671, 1.28545, 1.27114, 1.24606, 1.24616, 1.43738, 1.62126, 1.33499, 1.33633, 1.34161, 1.32919, 1.37635, 1.33372, 1.37738, 1.41028, 1.4166, 1.40551, 1.41654, 1.38433, 1.43788, 1.41308, 1.39229, 1.42309, 1.40704, 1.40553, 1.41315, 1.46564, 1.47415, 1.44591, 1.51817, 1.49667, 1.49894, 1.49627, 1.4985, 1.50625, 1.50833, 1.48534, 1.48564, 1.46694, 1.48366, 1.47556, 1.47806, 1.41638, 1.38677, 1.38241, 1.38169, 1.38499, 1.39271, 1.36399, 1.39028, 1.39113, 1.49907, 1.29694, 1.35932, 1.30009, 1.25891, 1.2112, 1.17079, 1.13793, 1.0825, 1.09896, 1.18446, 1.06803, 1.0479, 1.02302, 0.984394, 0.980902, 0.948585, 0.962278, 0.919918, 0.956131, 0.939612, 0.940461, 0.926726, 0.92754, 0.928428, 0.925159, 0.921266, 0.919577, 0.937999, 0.930382, 0.931828, 0.934837, 0.935216, 0.937311, 0.940119, 0.974945, 1.00217, 1.03612, 1.03383, 1.07554, 1.03229, 1.06294, 1.09386, 1.09114, 1.10502, 1.07447, 1.0672, 1.07301, 1.09493, 1.09437, 1.17206, 1.16533, 1.28442, 1.18427, 1.25088
1.10437, 1.10485, 1.10663, 1.10801, 1.1082, 1.10836, 1.10998, 1.11112, 1.11196, 1.1116, 1.11089, 1.11064, 1.20822, 1.11654, 1.11517, 1.10256, 1.09792, 1.09512, 1.09147, 1.08941, 1.08715, 1.08138, 1.0771, 1.07691, 1.40054, 1.39988, 1.06746, 1.06686, 1.06628, 1.06583, 1.06146, 1.05863, 1.05476, 1.04894, 1.04748, 1.048, 1.05612, 1.04045, 1.04074, 1.0562, 1.06634, 1.07835, 1.15466, 1.17137, 1.14975, 1.26979, 1.23218, 1.31573, 1.29622, 1.30828, 1.40983, 1.33648, 1.33642, 1.41915, 1.36188, 1.33101, 1.37328, 1.38717, 1.49229, 1.41755, 1.42194, 1.4106, 1.4234, 1.4295, 1.40977, 1.40884, 1.45508, 1.45945, 1.42179, 1.41269, 1.45538, 1.48167, 1.43524, 1.48942, 1.48963, 1.49521, 1.49594, 1.49901, 1.5085, 1.50721, 1.48187, 1.4607, 1.47098, 1.47232, 1.47102, 1.58932, 1.41617, 1.38285, 1.40768, 1.39038, 1.38162, 1.38055, 1.42061, 1.3588, 1.46838, 1.39863, 1.28251, 1.28098, 1.29749, 1.23176, 1.21666, 1.28463, 1.22913, 1.09703, 1.18537, 1.07629, 1.06407, 1.04995, 1.01816, 0.972659, 0.967393, 0.957949, 0.918961, 0.920064, 0.969946, 0.959588, 0.949484, 0.928433, 0.928285, 0.92764, 0.923882, 0.919692, 0.935258, 0.936123, 0.929321, 0.931277, 0.933235, 0.932846, 0.937015, 0.956842, 0.94616, 0.981418, 1.00837, 0.99143, 1.09081, 1.08966, 0.98108, 0.970442, 1.09753, 1.10522, 1.09583, 1.09499, 1.11491, 1.14366, 1.06842, 1.1707, 1.19526, 1.22062, 1.20114, 1.24299
1.10023, 1.10123, 1.10452, 1.29483, 1.31724, 1.31949, 1.1079, 1.10798, 1.10808, 1.20822, 1.36354, 1.11806, 1.20819, 1.11931, 1.3305, 1.34141, 1.09805, 1.09661, 1.0911, 1.27496, 1.08567, 1.08214, 1.07756, 1.07815, 1.36917, 1.07449, 1.41358, 1.06691, 1.06617, 1.06312, 1.06216, 1.05936, 1.04942, 1.04924, 1.04922, 1.04968, 1.05965, 1.04565, 1.04427, 1.05645, 1.05719, 1.0779, 1.07957, 1.22653, 1.16512, 1.19241, 1.23619, 1.26939, 1.26764, 1.31157, 1.31518, 1.4174, 1.33223, 1.39849, 1.3451, 1.36497, 1.32469, 1.32396, 1.35439, 1.40966, 1.42868, 1.43183, 1.38511, 1.42429, 1.42325, 1.46878, 1.46725, 1.46308, 1.42108, 1.40695, 1.44823, 1.4885, 1.44032, 1.49094, 1.49708, 1.49135, 1.48962, 1.50549, 1.51096, 1.50112, 1.46921, 1.46306, 1.46858, 1.47469, 1.46613, 1.49571, 1.42394, 1.39337, 1.37251, 1.37596, 1.37891, 1.37599, 1.36156, 1.54662, 1.40262, 1.39979, 1.34039, 1.28046, 1.28282, 1.21634, 1.21615, 1.25895, 1.27559, 1.14222, 1.07698, 1.14554, 1.0666, 1.05582, 1.02093, 1.00799, 0.98556, 0.947696, 0.92247, 0.925331, 1.02061, 0.943789, 0.947689, 0.929092, 0.926387, 0.927398, 0.92392, 0.918249, 0.929598, 0.93509, 0.935275, 0.931862, 0.933731, 0.933938, 0.953172, 0.94304, 0.947063, 0.952221, 0.955869, 0.991979, 1.04031, 1.05404, 1.03651, 1.00951, 1.09476, 1.09756, 1.06759, 1.09924, 1.06153, 1.10811, 1.15182, 1.16081, 1.18579, 1.18542, 1.20691, 1.23947
1.09924, 1.09901, 1.21278, 1.27775, 1.35481, 1.31592, 1.10538, 1.10613, 1.10691, 1.37587, 1.11848, 1.15863, 1.10144, 1.09999, 1.37832, 1.12162, 1.09809, 1.09581, 1.09381, 1.33784, 1.08688, 1.08379, 1.08034, 1.0822, 1.08373, 1.07583, 1.39945, 1.06642, 1.06643, 1.0601, 1.06202, 1.05791, 1.04946, 1.04917, 1.05027, 1.05099, 1.04762, 1.04634, 1.05202, 1.08251, 1.06773, 1.16469, 1.10477, 1.14328, 1.17427, 1.17402, 1.20245, 1.22653, 1.22677, 1.2566, 1.29765, 1.35766, 1.3369, 1.3425, 1.34338, 1.34364, 1.37596, 1.317, 1.33586, 1.33666, 1.39185, 1.38476, 1.37772, 1.43606, 1.45241, 1.46228, 1.45962, 1.46064, 1.48317, 1.41577, 1.5062, 1.45091, 1.54268, 1.48775, 1.49811, 1.4855, 1.50662, 1.47267, 1.47305, 1.63464, 1.53075, 1.46304, 1.4611, 1.47493, 1.47388, 1.46982, 1.40596, 1.36445, 1.36451, 1.36707, 1.38403, 1.38196, 1.35831, 1.35628, 1.35901, 1.38845, 1.32917, 1.28355, 1.27728, 1.21991, 1.20155, 1.29568, 1.15058, 1.16707, 1.08523, 1.07904, 1.0835, 1.07937, 1.05356, 1.05593, 0.972713, 0.948825, 0.938885, 0.929993, 1.02273, 0.942405, 0.942569, 0.931121, 0.927049, 0.921969, 0.953529, 0.917751, 0.930866, 0.933534, 0.93514, 0.932952, 0.934687, 0.935421, 0.938702, 0.9425, 0.944786, 1.20565, 0.958066, 1.0548, 1.04136, 1.08508, 1.00064, 1.03905, 1.08147, 1.09941, 1.08556, 1.10489, 1.05946, 1.12875, 1.1265, 1.10961, 1.14389, 1.18526, 1.22681, 1.21265
1.09901, 1.09921, 1.29112, 1.12233, 1.1216, 1.29989, 1.10258, 1.10265, 1.10453, 1.10716, 1.12859, 1.1013, 1.10105, 1.09982, 1.09839, 1.0976, 1.09703, 1.09337, 1.09097, 1.08106, 1.08708, 1.08631, 1.08254, 1.08127, 1.07733, 1.08466, 1.08498, 1.06694, 1.06718, 1.05899, 1.06169, 1.06089, 1.05638, 1.04906, 1.04941, 1.0514, 1.04664, 1.04624, 1.05992, 1.04318, 1.05197, 1.13436, 1.08497, 1.14156, 1.17405, 1.17452, 1.21998, 1.238, 1.24057, 1.23577, 1.28169, 1.28731, 1.36124, 1.39226, 1.35149, 1.35016, 1.32086, 1.32286, 1.31946, 1.36331, 1.38041, 1.37801, 1.37791, 1.39342, 1.45341, 1.52289, 1.49462, 1.55105, 1.55002, 1.4848, 1.43701, 1.50184, 1.45041, 1.49893, 1.49554, 1.48699, 1.54546, 1.64949, 1.64782, 1.51716, 1.53419, 1.53429, 1.4809, 1.47965, 1.4892, 1.44805, 1.46776, 1.37283, 1.36546, 1.36745, 1.36932, 1.3637, 1.36381, 1.54442, 1.36875, 1.38585, 1.32338, 1.29547, 1.25139, 1.20183, 1.1857, 1.19265, 1.12394, 1.11302, 1.08186, 1.07522, 1.09153, 1.09076, 1.07405, 0.995329, 0.986192, 0.96506, 0.973803, 0.929848, 0.941204, 0.945077, 0.940163, 0.946075, 0.925972, 0.922706, 0.922189, 0.954302, 0.93072, 0.933266, 0.935149, 0.934554, 0.936712, 0.938924, 0.938601, 0.941122, 0.942288, 0.984438, 1.06147, 1.01954, 1.03675, 1.01862, 1.00205, 1.03858, 1.07901, 1.05795, 1.06322, 1.06974, 1.10499, 1.12309, 1.12964, 1.12911, 1.14532, 1.16722, 1.21064, 1.23024
1.10023, 1.30395, 1.2679, 1.11847, 1.29139, 1.31738, 1.31579, 1.1014, 1.10213, 1.10164, 1.10117, 1.10145, 1.10117, 1.10015, 1.09832, 1.09753, 1.09753, 1.098, 1.09124, 1.21661, 1.08732, 1.08692, 1.08434, 1.08251, 1.07733, 1.07855, 1.08537, 1.06955, 1.06923, 1.45865, 1.06332, 1.0641, 1.05614, 1.05072, 1.3048, 1.05305, 1.04573, 1.04379, 1.04919, 1.04929, 1.0644, 1.09124, 1.09211, 1.17403, 1.20531, 1.1791, 1.19861, 1.22079, 1.23782, 1.23767, 1.26924, 1.28564, 1.33933, 1.27692, 1.38169, 1.35044, 1.30932, 1.31712, 1.34035, 1.35394, 1.39504, 1.38787, 1.38293, 1.37873, 1.45285, 1.47668, 1.44338, 1.52854, 1.55052, 1.54836, 1.50011, 1.49903, 1.5476, 1.54485, 1.50104, 1.4984, 1.65122, 1.6503, 1.64928, 1.67813, 1.50529, 1.53515, 1.47713, 1.47864, 1.46198, 1.45527, 1.42016, 1.37435, 1.36678, 1.43159, 1.38928, 1.36373, 1.36746, 1.54384, 1.35937, 1.44293, 1.31348, 1.27078, 1.2463, 1.19421, 1.17706, 1.19106, 1.12527, 1.19033, 1.0761, 1.07712, 1.09919, 1.09868, 1.04615, 1.02152, 0.984505, 0.93927, 0.937256, 1.01456, 0.929387, 0.938824, 0.95594, 0.929651, 0.924976, 0.922467, 0.921935, 0.917868, 0.928585, 0.929581, 0.935062, 0.93602, 1.02351, 0.944325, 0.9399, 0.94069, 0.942479, 0.985209, 0.974988, 1.02041, 1.01623, 0.972944, 1.06125, 1.05812, 1.05214, 1.05349, 1.06298, 1.08586, 1.08691, 1.09446, 1.09712, 1.09393, 1.14245, 1.16532, 1.22148, 1.21743
1.09654, 1.2226, 1.27102, 1.31173, 1.27966, 1.30929, 1.10108, 1.10163, 1.10227, 1.10044, 1.10152, 1.10214, 1.10132, 1.10038, 1.09831, 1.0973, 1.09771, 1.09806, 1.09099, 1.08964, 1.0874, 1.08845, 1.08861, 1.44978, 1.07801, 1.08748, 1.0879, 1.48903, 1.06796, 1.06697, 1.06463, 1.05844, 1.05748, 1.08089, 1.0527, 1.05379, 1.04286, 1.04287, 1.05951, 1.04619, 1.06528, 1.06735, 1.12414, 1.26464, 1.24254, 1.2444, 1.25058, 1.3438, 1.26383, 1.27245, 1.28536, 1.26538, 1.29189, 1.24507, 1.2965, 1.30619, 1.31986, 1.32205, 1.3375, 1.34283, 1.37825, 1.45106, 1.39994, 1.38986, 1.43959, 1.44134, 1.44431, 1.42607, 1.45714, 1.52996, 1.53765, 1.49594, 1.57631, 1.48497, 1.53788, 1.49887, 1.4995, 1.69901, 1.59122, 1.50743, 1.50662, 1.55416, 1.62132, 1.49671, 1.44511, 1.43955, 1.3759, 1.37173, 1.36789, 1.44494, 1.39857, 1.35729, 1.37516, 1.38791, 1.35963, 1.4027, 1.36454, 1.29627, 1.24101, 1.18146, 1.15152, 1.15192, 1.14235, 1.11642, 1.09729, 1.06159, 1.06998, 1.07108, 1.04632, 1.01371, 0.980212, 0.95595, 0.935449, 0.936046, 0.927496, 0.965328, 0.986353, 0.92926, 0.925027, 0.923144, 0.91726, 0.936062, 0.936121, 0.92863, 0.935122, 0.936704, 0.945505, 0.945723, 0.942266, 0.939835, 0.942239, 0.95327, 0.957028, 1.02225, 1.017, 0.972936, 0.974247, 1.05366, 0.99087, 1.05353, 1.05015, 1.06688, 1.0712, 1.09247, 1.0991, 1.11609, 1.11911, 1.17244, 1.18545, 1.22227
1.09507, 1.0955, 1.30659, 1.24119, 1.29807, 1.22293, 1.0981, 1.10056, 1.10116, 1.10112, 1.10255, 1.10272, 1.10173, 1.10055, 1.09837, 1.09688, 1.09625, 1.09269, 1.09104, 1.08981, 1.08858, 1.08875, 1.08894, 1.07399, 1.07501, 1.07702, 1.60203, 1.08022, 1.06687, 1.06721, 1.06638, 1.0594, 1.05804, 1.05634, 1.05491, 1.05711, 1.04756, 1.04608, 1.04619, 1.06087, 1.06629, 1.07474, 1.12996, 1.23683, 1.2309, 1.23302, 1.34286, 1.28305, 1.26249, 1.26706, 1.27457, 1.26288, 1.25926, 1.25012, 1.27819, 1.29101, 1.28754, 1.33357, 1.36044, 1.34384, 1.36863, 1.44969, 1.40204, 1.43094, 1.4672, 1.41333, 1.40411, 1.46053, 1.42033, 1.5414, 1.58576, 1.48237, 1.50049, 1.48319, 1.54078, 1.49731, 1.50115, 1.4947, 1.48978, 1.49019, 1.56452, 1.55536, 1.51451, 1.49582, 1.50305, 1.42508, 1.37527, 1.40153, 1.39526, 1.40502, 1.36192, 1.36078, 1.35976, 1.37987, 1.36787, 1.35545, 1.35361, 1.2879, 1.24443, 1.24196, 1.16264, 1.20558, 1.10247, 1.18347, 1.10503, 1.0789, 1.06342, 1.08249, 1.09575, 0.996178, 0.968752, 0.956203, 0.93324, 0.92172, 0.992854, 0.950442, 0.949187, 0.948153, 0.924987, 0.922619, 0.922174, 0.938215, 0.938703, 0.9291, 0.93595, 0.93768, 0.945623, 0.946605, 0.940463, 0.940189, 0.94089, 0.980807, 0.955875, 0.958109, 1.02559, 0.970779, 1.05625, 1.05249, 0.990629, 1.06854, 1.07089, 1.08876, 1.09267, 1.10999, 1.11878, 1.10962, 1.1327, 1.19018, 1.17875, 1.20599
1.09413, 1.0935, 1.31013, 1.07464, 1.07597, 1.31672, 1.3155, 1.09792, 1.09958, 1.101, 1.10297, 1.103, 1.10198, 1.10042, 1.09827, 1.09676, 1.09542, 1.0921, 1.09104, 1.09022, 1.08977, 1.08993, 1.08962, 1.07447, 1.07522, 1.07781, 1.07785, 1.08041, 1.07124, 1.0678, 1.06867, 1.05779, 1.0543, 1.05482, 1.05784, 1.05707, 1.04363, 1.03251, 1.04198, 1.06736, 1.12277, 1.14562, 1.19583, 1.23914, 1.23723, 1.24284, 1.26151, 1.273, 1.27072, 1.28215, 1.28107, 1.25095, 1.24444, 1.25194, 1.2666, 1.28981, 1.28754, 1.35081, 1.36079, 1.36928, 1.39946, 1.45525, 1.44809, 1.4379, 1.46792, 1.42985, 1.40987, 1.41624, 1.4329, 1.52358, 1.54793, 1.54367, 1.49153, 1.61907, 1.49187, 1.57769, 1.49895, 1.49534, 1.58521, 1.55808, 1.56086, 1.65256, 1.51547, 1.46734, 1.4569, 1.4975, 1.45402, 1.41245, 1.44368, 1.43093, 1.40568, 1.36283, 1.40349, 1.38265, 1.34663, 1.4138, 1.35669, 1.26856, 1.27458, 1.20735, 1.15797, 1.15974, 1.14341, 1.09482, 1.09495, 1.07333, 1.09242, 1.08388, 1.00458, 0.998525, 0.988433, 0.956714, 0.915952, 0.920954, 0.899486, 0.954384, 0.949151, 0.950301, 0.922002, 0.923346, 0.915065, 0.93635, 0.936253, 0.931189, 0.935549, 0.936841, 0.947181, 0.947774, 0.942613, 0.940263, 0.969425, 0.958601, 0.95452, 1.00592, 1.02861, 1.0373, 1.05106, 0.985493, 1.06204, 1.06324, 1.07421, 1.06065, 1.07647, 1.1124, 1.11541, 1.12672, 1.14089, 1.17219, 1.1801, 1.23327
1.0921, 1.09263, 1.28141, 1.07509, 1.07553, 1.28419, 1.09741, 1.09807, 1.09681, 1.10011, 1.10255, 1.1033, 1.1018, 1.10008, 1.09819, 1.09659, 1.13909, 1.09237, 1.09193, 1.09076, 1.09203, 1.09318, 1.0925, 1.09626, 1.07682, 1.07987, 1.07955, 1.07945, 1.08069, 1.07069, 1.07018, 1.05743, 1.05316, 1.0533, 1.05333, 1.0528, 1.0434, 1.04009, 1.06078, 1.04476, 1.09126, 1.17177, 1.16077, 1.24122, 1.23983, 1.24759, 1.33, 1.25047, 1.27424, 1.27842, 1.29875, 1.26203, 1.32167, 1.2562, 1.26013, 1.29478, 1.29934, 1.40238, 1.40062, 1.41217, 1.3999, 1.41333, 1.46409, 1.43744, 1.4371, 1.43298, 1.40287, 1.42837, 1.42927, 1.47259, 1.4961, 1.55041, 1.48367, 1.48207, 1.48163, 1.50178, 1.51713, 1.51242, 1.56072, 1.56549, 1.65222, 1.65234, 1.51977, 1.46746, 1.45756, 1.48656, 1.46074, 1.47861, 1.49886, 1.44854, 1.44866, 1.43026, 1.39301, 1.37814, 1.41046, 1.38333, 1.38152, 1.29342, 1.2893, 1.28145, 1.17762, 1.13435, 1.09183, 1.09326, 1.08936, 1.06038, 1.06215, 1.10272, 1.02259, 0.975828, 0.963542, 0.960909, 0.903409, 0.931998, 0.919716, 0.966161, 0.97103, 0.952293, 0.922782, 0.924675, 0.915515, 0.936912, 0.935627, 0.930795, 0.932438, 0.936357, 0.948024, 0.947748, 0.955172, 0.93913, 0.968989, 0.980408, 0.950457, 1.00243, 1.02926, 0.966347, 1.05054, 1.05569, 1.04194, 1.04671, 1.07346, 1.06361, 1.07778, 1.08972, 1.11173, 1.13123, 1.15759, 1.21191, 1.19982, 1.21645
1.09125, 1.09134, 1.08955, 1.07533, 1.07587, 1.2954, 1.09437, 1.09568, 1.09515, 1.10101, 1.10378, 1.10482, 1.10248, 1.10105, 1.09837, 1.09652, 1.09469, 1.09395, 1.09226, 1.09303, 1.09437, 1.09444, 1.09468, 1.1945, 1.07617, 1.07672, 1.08026, 1.0794, 1.08033, 1.07188, 1.06979, 1.05696, 1.05365, 1.05336, 1.05199, 1.05259, 1.04366, 1.03951, 1.0402, 1.05405, 1.08849, 1.10549, 1.16582, 1.20216, 1.23142, 1.24547, 1.24907, 1.29538, 1.30888, 1.27564, 1.26707, 1.27294, 1.31832, 1.25547, 1.28576, 1.29955, 1.38864, 1.40994, 1.41943, 1.40436, 1.38937, 1.43401, 1.43676, 1.43711, 1.45355, 1.46126, 1.40786, 1.40708, 1.43057, 1.54493, 1.46203, 1.51971, 1.47855, 1.45409, 1.45253, 1.55998, 1.57409, 1.57924, 1.54206, 1.54106, 1.65511, 1.65252, 1.5311, 1.53431, 1.46962, 1.45383, 1.46276, 1.47798, 1.43124, 1.43029, 1.4253, 1.37135, 1.37089, 1.40737, 1.4034, 1.36289, 1.34964, 1.37162, 1.26993, 1.24975, 1.20112, 1.1363, 1.09829, 1.09709, 1.08464, 1.06327, 1.06265, 1.02963, 1.01374, 0.982804, 0.947829, 0.966317, 0.904254, 0.935928, 0.936635, 0.966192, 0.936579, 0.95463, 0.924517, 0.941544, 0.914739, 0.935441, 0.935175, 0.932805, 0.931721, 0.937186, 0.94602, 0.947686, 0.942981, 0.938789, 0.963432, 1.06784, 0.950098, 1.01504, 1.02845, 1.0322, 1.05674, 1.04989, 0.996482, 1.05604, 1.05925, 1.06455, 1.09279, 1.11573, 1.11844, 1.14906, 1.16775, 1.20841, 1.20667, 1.08893
1.08865, 1.08789, 1.08525, 1.07608, 1.07633, 1.3582, 1.09229, 1.0952, 1.09518, 1.09763, 1.10226, 1.10424, 1.10399, 1.10133, 1.10019, 1.0959, 1.0944, 1.09411, 1.09432, 1.09474, 1.09824, 1.09449, 1.09447, 1.08034, 1.07933, 1.08243, 1.08168, 1.07548, 1.08048, 1.07004, 1.06978, 1.05842, 1.05032, 1.0523, 1.05004, 1.05112, 1.04432, 1.0415, 1.04507, 1.04943, 1.09644, 1.16654, 1.11987, 1.21289, 1.18766, 1.25508, 1.255, 1.26939, 1.26406, 1.26803, 1.26935, 1.26382, 1.3129, 1.2845, 1.28174, 1.30901, 1.42123, 1.42365, 1.4171, 1.38872, 1.38278, 1.40025, 1.40666, 1.45397, 1.52964, 1.46322, 1.4917, 1.43232, 1.42965, 1.45815, 1.49272, 1.48843, 1.47341, 1.45429, 1.45385, 1.55849, 1.55414, 1.57804, 1.53323, 1.56498, 1.66119, 1.66147, 1.67989, 1.46193, 1.46953, 1.45759, 1.46378, 1.42909, 1.43373, 1.43023, 1.4235, 1.38002, 1.38152, 1.35756, 1.33338, 1.37649, 1.34897, 1.275, 1.25854, 1.25003, 1.18057, 1.18079, 1.0854, 1.07212, 1.0639, 1.06643, 1.06285, 1.0257, 1.00544, 0.982448, 0.957547, 0.953959, 0.935858, 0.931, 0.939022, 0.922335, 0.935518, 0.933996, 0.920466, 0.961054, 0.914428, 0.935519, 0.9337, 0.931887, 0.93201, 0.937032, 0.946613, 0.947454, 0.939591, 0.939286, 0.970266, 0.9461, 0.947971, 1.01603, 1.02461, 1.02577, 1.04984, 0.98911, 1.04775, 1.07489, 1.04368, 1.08464, 1.09859, 1.13981, 1.15007, 1.15868, 1.19248, 1.20166, 1.25123, 1.23933
1.08463, 1.08604, 1.08386, 1.07634, 1.07708, 1.33292, 1.09132, 1.09389, 1.09328, 1.09777, 1.09964, 1.10236, 1.10428, 1.10283, 1.10138, 1.27791, 1.09469, 1.09425, 1.09538, 1.09889, 1.09817, 1.09607, 1.09485, 1.2618, 1.08005, 1.07993, 1.08241, 1.07709, 1.07842, 1.07165, 1.06176, 1.05714, 1.05267, 1.05264, 1.04998, 1.04567, 1.04375, 1.05213, 1.06533, 1.06815, 1.07459, 1.08244, 1.11148, 1.17175, 1.20114, 1.19505, 1.21665, 1.22124, 1.24545, 1.28693, 1.28733, 1.30665, 1.28544, 1.2843, 1.35841, 1.33515, 1.46507, 1.42543, 1.40933, 1.40651, 1.39589, 1.37842, 1.46993, 1.46122, 1.46809, 1.47787, 1.43626, 1.39284, 1.39122, 1.44095, 1.44744, 1.44672, 1.47504, 1.57298, 1.45634, 1.55456, 1.48438, 1.52787, 1.52936, 1.56248, 1.66105, 1.66179, 1.49998, 1.49184, 1.49227, 1.45828, 1.45373, 1.45211, 1.4363, 1.43317, 1.42596, 1.38278, 1.38132, 1.36039, 1.39777, 1.31065, 1.29892, 1.26777, 1.26803, 1.26338, 1.15436, 1.1166, 1.08357, 1.06464, 1.06558, 1.09053, 1.03605, 1.03644, 0.987023, 1.00154, 0.960986, 0.9506, 0.922211, 0.936513, 0.911384, 0.915806, 0.937377, 0.936429, 0.917499, 0.912652, 0.912869, 0.934581, 0.932198, 0.931239, 0.933398, 0.93425, 0.946084, 0.948056, 0.939254, 0.940564, 0.945735, 0.984811, 0.94503, 0.943362, 1.02645, 1.02721, 1.0411, 1.03971, 1.05987, 1.04716, 1.05305, 1.0758, 1.11176, 1.13907, 1.15434, 1.1602, 1.19738, 1.03208, 1.03241, 1.2517
1.08332, 1.08397, 1.25289, 1.07668, 1.29516, 1.08843, 1.09004, 1.26686, 1.09339, 1.09548, 1.34852, 1.10074, 1.10382, 1.10447, 1.10124, 1.09812, 1.09521, 1.09455, 1.09827, 1.09991, 1.09936, 1.09918, 1.26177, 1.08417, 1.08097, 1.08364, 1.08355, 1.07705, 1.07791, 1.07869, 1.06221, 1.05509, 1.05347, 1.0517, 1.04943, 1.04553, 1.04424, 1.05115, 1.04643, 1.037, 1.14113, 1.08784, 1.10753, 1.16703, 1.18752, 1.18767, 1.21323, 1.23628, 1.29238, 1.26777, 1.28307, 1.28273, 1.34353, 1.3558, 1.36094, 1.38954, 1.46521, 1.42733, 1.40598, 1.39663, 1.37659, 1.38147, 1.43839, 1.42742, 1.45199, 1.47378, 1.42087, 1.42987, 1.40553, 1.41716, 1.45067, 1.4523, 1.48227, 1.47196, 1.46284, 1.53404, 1.47992, 1.54382, 1.54708, 1.54015, 1.55747, 1.65911, 1.51662, 1.49202, 1.46959, 1.48618, 1.45422, 1.45338, 1.43318, 1.47244, 1.38184, 1.38461, 1.38666, 1.32284, 1.3273, 1.29299, 1.28286, 1.28574, 1.26798, 1.26739, 1.16393, 1.12194, 1.10263, 1.08198, 1.07397, 1.05143, 1.02983, 1.0026, 0.985442, 0.96462, 0.958528, 0.976722, 0.93148, 0.936129, 0.929468, 0.961323, 0.943147, 0.923482, 0.91605, 0.94699, 0.932921, 0.933338, 0.932316, 0.929048, 0.935752, 0.935274, 0.944732, 0.946602, 0.94199, 0.941437, 0.942663, 0.941077, 0.942482, 0.944223, 1.01981, 1.02435, 1.02276, 1.04232, 1.07211, 1.08459, 1.06004, 1.11289, 1.11516, 1.15597, 1.13524, 1.17857, 1.19564, 1.24324, 1.24456, 1.24924
1.08133, 1.08194, 1.07533, 1.07649, 1.24933, 1.08746, 1.08733, 1.08889, 1.09149, 1.09562, 1.09567, 1.18733, 1.10266, 1.10465, 1.10454, 1.09764, 1.09612, 1.09567, 1.09943, 1.09996, 1.10034, 1.26041, 1.26861, 1.08272, 1.08708, 1.08546, 1.08181, 1.07697, 1.07714, 1.06805, 1.06572, 1.05517, 1.05281, 1.05097, 1.04828, 1.04502, 1.04465, 1.03759, 1.08629, 1.04613, 1.10881, 1.11549, 1.10842, 1.18678, 1.19828, 1.19116, 1.18997, 1.23221, 1.29148, 1.30365, 1.41623, 1.31639, 1.38324, 1.34806, 1.33605, 1.43013, 1.42512, 1.42321, 1.40878, 1.50164, 1.37197, 1.38545, 1.42401, 1.45216, 1.45538, 1.46879, 1.45081, 1.42983, 1.43934, 1.4193, 1.45239, 1.45277, 1.48923, 1.47365, 1.46759, 1.46454, 1.47789, 1.55444, 1.55427, 1.55369, 1.5519, 1.56568, 1.46856, 1.43341, 1.45103, 1.47483, 1.47559, 1.48188, 1.41956, 1.41223, 1.38342, 1.383, 1.38748, 1.35547, 1.28712, 1.28503, 1.27263, 1.2728, 1.34114, 1.22661, 1.16422, 1.14377, 1.15357, 1.0984, 1.13296, 1.05118, 1.03684, 1.00696, 1.00259, 1.00044, 0.983998, 1.03271, 0.95887, 0.948964, 0.933063, 0.934028, 0.942799, 0.968671, 0.913329, 0.908479, 0.909836, 0.932909, 0.933231, 0.930295, 0.93862, 0.939481, 0.938507, 0.945862, 0.94137, 0.939901, 0.941163, 0.942363, 0.942392, 1.01803, 1.01887, 1.0366, 1.00379, 1.04845, 1.07311, 1.05718, 1.09442, 1.11246, 1.12349, 1.14047, 1.17022, 1.17835, 1.20828, 1.19548, 1.23367, 1.28581
1.08088, 1.07392, 1.07509, 1.25189, 1.08388, 1.08523, 1.08497, 1.0877, 1.09114, 1.09268, 1.09191, 1.10116, 1.10118, 1.10395, 1.10369, 1.09777, 1.09748, 1.09752, 1.10216, 1.10217, 1.10091, 1.26167, 1.07978, 1.0808, 1.08728, 1.08692, 1.08253, 1.07893, 1.07678, 1.07017, 1.06456, 1.05317, 1.053, 1.05102, 1.04944, 1.0479, 1.04604, 1.04422, 1.04615, 1.04641, 1.05118, 1.11748, 1.15883, 1.19342, 1.19203, 1.19251, 1.19295, 1.21925, 1.29275, 1.32441, 1.34392, 1.29515, 1.39033, 1.34635, 1.33743, 1.36148, 1.42463, 1.42455, 1.43631, 1.40301, 1.35629, 1.42051, 1.38597, 1.42059, 1.4473, 1.48187, 1.44729, 1.45987, 1.4472, 1.45887, 1.45308, 1.45351, 1.56051, 1.47242, 1.47312, 1.53716, 1.5155, 1.56336, 1.64141, 1.55389, 1.56725, 1.56868, 1.48637, 1.43446, 1.4337, 1.43935, 1.48491, 1.43096, 1.44438, 1.41552, 1.38454, 1.3872, 1.38059, 1.35359, 1.37639, 1.28458, 1.26965, 1.26516, 1.23629, 1.21823, 1.21061, 1.19053, 1.12193, 1.10011, 1.06989, 1.07085, 1.02017, 1.02001, 1.08426, 0.996493, 0.983435, 0.968717, 0.929027, 0.921956, 0.927694, 0.946926, 0.967063, 0.923706, 0.911474, 0.91, 0.91016, 0.932715, 0.932344, 0.929121, 0.940094, 0.940011, 0.938897, 0.963032, 0.940277, 0.940279, 0.939439, 0.940432, 0.941382, 1.01894, 1.02145, 1.03689, 1.03506, 1.03829, 0.976478, 1.07433, 1.10898, 1.11802, 1.12075, 1.17372, 1.17426, 1.17831, 1.20897, 1.23355, 0.970438, 1.29778
1.07888, 1.0736, 1.07523, 1.07963, 1.08192, 1.0842, 1.08458, 1.08634, 1.08973, 1.09137, 1.09266, 1.09764, 1.10114, 1.10237, 1.10208, 1.09846, 1.09801, 1.09777, 1.10288, 1.10287, 1.10382, 1.26358, 1.08015, 1.08088, 1.08935, 1.09021, 1.08219, 1.08253, 1.07808, 1.06693, 1.06348, 1.06102, 1.27465, 1.05125, 1.0514, 1.04951, 1.04598, 1.04533, 1.05996, 1.04723, 1.0599, 1.12534, 1.15288, 1.12573, 1.24736, 1.18441, 1.18265, 1.21197, 1.21807, 1.36363, 1.36376, 1.30926, 1.36371, 1.35768, 1.35417, 1.3649, 1.47794, 1.40525, 1.40315, 1.43832, 1.35669, 1.36021, 1.35845, 1.41268, 1.42527, 1.45479, 1.44895, 1.44866, 1.51129, 1.46156, 1.45746, 1.45722, 1.4554, 1.49761, 1.50071, 1.45135, 1.53448, 1.56425, 1.64401, 1.53708, 1.53681, 1.50971, 1.47649, 1.44317, 1.45436, 1.45761, 1.45467, 1.42583, 1.38792, 1.38882, 1.38765, 1.38699, 1.38245, 1.35901, 1.34489, 1.3015, 1.26107, 1.2645, 1.25456, 1.29181, 1.17731, 1.17833, 1.1085, 1.10964, 1.13895, 1.05673, 1.02102, 1.01522, 0.994016, 1.05315, 0.990817, 0.947207, 0.94381, 0.932232, 0.940506, 0.959042, 0.960711, 0.920573, 0.967383, 0.908321, 0.92157, 0.932144, 0.93211, 0.930187, 0.940619, 0.94223, 0.939198, 0.940506, 0.939778, 0.973289, 0.935984, 0.939209, 0.937988, 1.01833, 1.01853, 1.02224, 1.00091, 0.971389, 0.975403, 1.08481, 1.09163, 0.963233, 0.961323, 0.963976, 1.18414, 1.18431, 1.20165, 1.22949, 1.26018, 1.29217
1.07881, 1.07375, 1.07474, 1.0792, 1.081, 1.08392, 1.08125, 1.29663, 1.08986, 1.09109, 1.09322, 1.09675, 1.0997, 1.10199, 1.09995, 1.09933, 1.09909, 1.09911, 1.10066, 1.10217, 1.10289, 1.51605, 1.29559, 1.25345, 1.09253, 1.31384, 1.08204, 1.08152, 1.08113, 1.0664, 1.0608, 1.05954, 1.04114, 1.04183, 1.05158, 1.05178, 1.05308, 1.05299, 1.04691, 1.05231, 1.06342, 1.08993, 1.1393, 1.16655, 1.18059, 1.18284, 1.28868, 1.20476, 1.21325, 1.31651, 1.31339, 1.35653, 1.32699, 1.33123, 1.33071, 1.35364, 1.36587, 1.39507, 1.40385, 1.39693, 1.37889, 1.37993, 1.35864, 1.4078, 1.40388, 1.44023, 1.44831, 1.4751, 1.43382, 1.50842, 1.45884, 1.51609, 1.51985, 1.46855, 1.50088, 1.45875, 1.4609, 1.56028, 1.59841, 1.63351, 1.5654, 1.45593, 1.4551, 1.45372, 1.45427, 1.4575, 1.44707, 1.39409, 1.38419, 1.38262, 1.38155, 1.38578, 1.38656, 1.40276, 1.31534, 1.33505, 1.26152, 1.26232, 1.30856, 1.21437, 1.17694, 1.2204, 1.15349, 1.11406, 1.15282, 1.07468, 1.03555, 1.02249, 1.02077, 1.07367, 1.07354, 0.944041, 0.948371, 0.930149, 0.916342, 0.9325, 0.919736, 0.919916, 0.968049, 0.909478, 0.922043, 0.931859, 0.931807, 0.930336, 0.942439, 0.942651, 0.940028, 0.939846, 0.938314, 0.937926, 0.934574, 0.937086, 0.937292, 0.940593, 0.971959, 1.04232, 1.02136, 1.02969, 0.97385, 1.06439, 1.09975, 0.963878, 1.12936, 0.959592, 0.959063, 1.20325, 1.20157, 0.962346, 0.966348, 1.29059
1.07614, 1.07428, 1.07424, 1.07697, 1.08041, 1.26288, 1.08033, 1.35442, 1.08865, 1.09147, 1.09125, 1.09517, 1.09844, 1.1022, 1.09988, 1.09995, 1.09979, 1.09995, 1.10061, 1.10186, 1.10259, 1.27031, 1.26382, 1.26436, 1.09354, 1.08853, 1.08135, 1.08033, 1.07744, 1.06424, 1.06343, 1.05889, 1.11289, 1.23342, 1.05409, 1.0537, 1.05303, 1.05623, 1.05568, 1.05585, 1.09024, 1.12941, 1.14003, 1.24357, 1.18863, 1.24431, 1.23302, 1.21535, 1.28185, 1.31412, 1.31131, 1.41924, 1.31283, 1.33922, 1.34681, 1.35413, 1.34811, 1.47922, 1.40251, 1.38723, 1.3797, 1.35982, 1.35686, 1.3931, 1.47115, 1.42347, 1.50513, 1.47779, 1.46776, 1.6037, 1.46809, 1.52064, 1.51825, 1.43764, 1.44048, 1.44227, 1.48883, 1.47453, 1.47497, 1.50896, 1.59252, 1.45769, 1.45606, 1.45225, 1.45134, 1.46009, 1.41761, 1.38775, 1.38541, 1.38416, 1.38444, 1.38375, 1.38453, 1.42045, 1.39207, 1.3265, 1.33951, 1.27009, 1.27067, 1.20867, 1.20177, 1.22355, 1.1306, 1.13549, 1.13209, 1.15296, 1.03284, 1.02164, 1.01952, 0.995653, 0.956794, 0.951748, 0.911131, 0.935416, 0.925309, 0.953274, 0.947442, 0.910134, 0.963581, 0.936386, 0.92237, 0.930976, 0.931851, 0.932672, 0.940739, 0.942463, 0.94241, 0.966893, 0.93617, 0.932787, 0.933819, 0.936738, 0.936629, 1.01246, 1.03167, 1.03929, 1.04825, 1.01112, 0.969624, 1.08441, 1.08391, 0.95639, 0.953846, 0.954679, 0.955403, 0.954734, 1.21985, 1.22459, 1.2683, 1.29827
1.07353, 1.07171, 1.07414, 1.08018, 1.081, 1.16522, 1.31747, 1.31586, 1.08543, 1.0874, 1.09125, 1.09464, 1.09812, 1.10098, 1.09994, 1.10055, 1.10022, 1.10039, 1.10079, 1.10097, 1.10086, 1.20174, 1.28243, 1.095, 1.0942, 1.08427, 1.08063, 1.08091, 1.07057, 1.06434, 1.06419, 1.05865, 1.05791, 1.24063, 1.05595, 1.05494, 1.0552, 1.05888, 1.07509, 1.0575, 1.06022, 1.12483, 1.18602, 1.1563, 1.2431, 1.20172, 1.20196, 1.33069, 1.28755, 1.25778, 1.25806, 1.27311, 1.31634, 1.31668, 1.3299, 1.35781, 1.34286, 1.33839, 1.46422, 1.46506, 1.41726, 1.43385, 1.42024, 1.3928, 1.45244, 1.44834, 1.46082, 1.46859, 1.49219, 1.49062, 1.49335, 1.48925, 1.56307, 1.44106, 1.44118, 1.43952, 1.44196, 1.4413, 1.44501, 1.45556, 1.45772, 1.45287, 1.49619, 1.43852, 1.4437, 1.44351, 1.5129, 1.38811, 1.39493, 1.38994, 1.40622, 1.38173, 1.4128, 1.38211, 1.35579, 1.29944, 1.34448, 1.27475, 1.27018, 1.20748, 1.16005, 1.1814, 1.14111, 1.19154, 1.12745, 1.09574, 1.0847, 1.02414, 1.00482, 1.0147, 0.99157, 0.954171, 0.954807, 0.938993, 0.920846, 0.910824, 0.915892, 0.910926, 0.898014, 0.955831, 0.92227, 0.921997, 0.932042, 0.935362, 0.939179, 0.942445, 0.941634, 0.938282, 0.970037, 0.933689, 0.935121, 0.935854, 0.937169, 1.00434, 0.942966, 1.04079, 1.02265, 1.03726, 1.09253, 1.07478, 1.1117, 0.955104, 0.953001, 0.95529, 0.955511, 0.955225, 0.949905, 0.950559, 1.13541, 1.28153
1.07322, 1.07371, 1.07492, 1.08019, 1.07764, 1.0749, 1.07236, 1.07948, 1.08261, 1.08422, 1.08468, 1.09772, 1.09794, 1.09868, 1.10051, 1.1008, 1.10049, 1.10056, 1.10057, 1.10005, 1.10082, 1.09957, 1.09756, 1.09769, 1.09614, 1.08826, 1.08027, 1.07727, 1.07116, 1.06839, 1.06388, 1.06054, 1.05727, 1.05893, 1.05778, 1.04997, 1.05859, 1.06065, 1.06758, 1.0773, 1.07831, 1.10242, 1.20177, 1.20007, 1.20141, 1.20473, 1.20239, 1.29206, 1.24311, 1.27601, 1.29189, 1.27693, 1.35747, 1.37415, 1.32615, 1.33771, 1.37397, 1.38733, 1.4099, 1.41045, 1.41209, 1.42198, 1.41103, 1.39675, 1.41883, 1.45903, 1.4531, 1.40302, 1.49104, 1.48871, 1.49007, 1.48688, 1.49216, 1.43843, 1.4367, 1.44361, 1.43952, 1.44365, 1.44483, 1.4421, 1.49348, 1.45364, 1.44793, 1.44653, 1.49234, 1.4995, 1.50055, 1.4181, 1.39297, 1.38899, 1.39945, 1.44346, 1.42909, 1.38908, 1.35761, 1.29819, 1.35421, 1.28062, 1.22293, 1.16448, 1.18869, 1.14384, 1.12195, 1.11427, 1.15263, 1.10222, 1.02396, 1.00549, 1.00747, 0.996134, 0.958046, 0.926033, 0.925515, 0.905451, 0.918943, 0.911319, 0.917141, 0.909168, 0.901229, 0.92164, 0.921948, 0.921683, 0.930743, 0.93604, 0.938513, 0.941095, 0.942301, 0.971208, 0.970565, 0.933909, 0.931966, 0.935799, 0.938948, 0.945798, 0.940584, 0.945805, 1.05847, 1.06211, 1.04955, 0.960365, 0.951745, 0.955153, 0.955157, 0.954784, 0.953146, 0.953228, 0.950089, 0.948468, 0.949712, 1.29127
1.07137, 1.07175, 1.07409, 1.07447, 1.07525, 1.0769, 1.07369, 1.0732, 1.08248, 1.08335, 1.08434, 1.09499, 1.09651, 1.09821, 1.10081, 1.10098, 1.10087, 1.10092, 1.10083, 1.10021, 1.09996, 1.09985, 1.09839, 1.0989, 1.09733, 1.08214, 1.08105, 1.07771, 1.07, 1.06671, 1.06134, 1.06141, 1.06041, 1.05966, 1.0609, 1.0498, 1.06416, 1.06346, 1.08087, 1.07549, 1.07146, 1.09941, 1.14959, 1.15457, 1.19886, 1.23248, 1.20208, 1.29726, 1.25269, 1.25708, 1.25755, 1.29326, 1.29897, 1.33378, 1.31796, 1.33997, 1.4327, 1.46345, 1.45841, 1.473, 1.4109, 1.43871, 1.47075, 1.40655, 1.48129, 1.48902, 1.39892, 1.40412, 1.40091, 1.4481, 1.51296, 1.51451, 1.56634, 1.53648, 1.46092, 1.47104, 1.43683, 1.44705, 1.44698, 1.43986, 1.44102, 1.46485, 1.44759, 1.44827, 1.49394, 1.69206, 1.49156, 1.41854, 1.39405, 1.40678, 1.39975, 1.44785, 1.42669, 1.34068, 1.33502, 1.33976, 1.36774, 1.25044, 1.20966, 1.16725, 1.19312, 1.14437, 1.11419, 1.11395, 1.12584, 1.08552, 0.988697, 0.989062, 1.00834, 0.966979, 0.956721, 0.926424, 0.95049, 0.900717, 0.897326, 0.917025, 0.939706, 0.908324, 0.900547, 0.92228, 0.922007, 0.921846, 0.931419, 0.935656, 0.944133, 0.939868, 0.93904, 0.973465, 0.979953, 0.931356, 0.932783, 0.935574, 0.939098, 0.945815, 0.940953, 0.945889, 0.948968, 0.954891, 1.09843, 1.0747, 1.09526, 0.954492, 0.956345, 0.952816, 0.952713, 0.95403, 0.962979, 1.26751, 0.957015, 0.932246
1.07034, 1.07007, 1.07439, 1.07596, 1.07373, 1.07537, 1.0747, 1.07173, 1.08113, 1.08355, 1.08726, 1.09035, 1.09561, 1.10059, 1.10094, 1.1015, 1.10104, 1.10095, 1.10096, 1.10151, 1.10131, 1.09915, 1.10077, 1.09945, 1.09434, 1.0892, 1.08055, 1.07716, 1.07368, 1.06643, 1.0619, 1.06267, 1.06134, 1.06049, 1.06335, 1.06441, 1.20941, 1.07469, 1.07589, 1.08046, 1.08024, 1.09181, 1.10836, 1.13251, 1.23682, 1.19895, 1.2951, 1.29514, 1.25645, 1.25888, 1.25912, 1.31936, 1.29751, 1.31658, 1.31649, 1.32637, 1.38846, 1.43699, 1.39822, 1.40078, 1.42565, 1.37512, 1.4765, 1.40716, 1.3984, 1.39178, 1.39936, 1.40152, 1.40123, 1.43427, 1.54758, 1.5211, 1.52003, 1.48418, 1.44207, 1.45711, 1.44453, 1.4614, 1.46457, 1.43612, 1.43586, 1.44097, 1.44789, 1.45064, 1.45143, 1.64897, 1.49245, 1.4718, 1.39444, 1.46519, 1.40003, 1.45841, 1.42138, 1.32986, 1.39267, 1.33622, 1.36789, 1.25317, 1.21506, 1.20895, 1.1475, 1.12508, 1.11229, 1.12491, 1.12293, 1.0851, 1.05373, 1.05484, 0.965791, 0.965152, 0.960161, 0.939719, 0.987112, 0.900703, 0.900705, 0.896919, 0.926775, 0.93472, 0.896052, 0.922772, 0.923902, 0.922207, 0.928778, 0.93302, 0.942935, 0.939074, 0.969182, 0.964486, 0.980771, 0.929519, 0.931497, 0.93419, 0.937639, 0.945318, 0.940197, 0.945256, 0.950018, 0.950461, 0.953371, 0.950064, 0.950704, 0.9532, 0.955899, 0.9536, 0.953613, 0.955252, 0.963165, 0.956483, 0.956403, 0.931246
