1.02784591465105,1.02890609319981,1.0295057352548,1.02995884060045,1.02995048564364,1.03013796611113,1.02993418393308,1.02972758691163,1.02909956520266,1.02867206416303,1.02737158209516,1.02641323356895,1.0252317159328,1.02453051511267,1.02407900786918,1.02548614977372,1.02720586379473,1.02890395960623,1.03038435343064,1.03116593039374,1.03162824833399,1.03170629130403,1.03164927122464,1.02996595707067,1.02798076685675,1.02761460904257,1.02756834104317,1.0290736909732,1.03035172640733,1.03051376460606,1.02979247030503,1.02879464514478,1.02789832105174,1.02711011194216,1.02676798534248,1.02670851687868,1.02658879548178,1.02610849826768,1.0257032034598,1.02449835338649,1.02219394874965,1.0217772550092,1.02192209649258,1.02299683524016,1.02308975921026,1.02385975450675,1.02238258700773,1.02324327696545,1.02160217150975,1.02209947984246,1.02049157843482,1.02128971816475,1.0210129015892,1.02118817273118,1.02117268879752,1.0217672915929,1.02430207234842,1.02771416703735,1.03219397520633,1.02480106543655,1.02236015584298,1.02115276680593,1.01216870767425,1.01226424972027,1.01167639183813,1.0110477135238,1.00945801931685,1.00935632217846,1.00878064416224,1.01044890040071,1.01188099293257,1.01314771693556,1.0132731660298,1.01234978953602,1.01186484072815,1.00869472997608,1.00702449803411,1.00343496684125,1.00116544077316,0.998849832269717,0.999206632312659,0.998280514538871,0.99894137407145,0.998122428862427,0.998576867490991,0.997752339153298,0.997765397221685,0.996209354589667,0.995266717803318,0.9941422170124,0.99363635254913,0.9928983255407,0.992480396536118,0.992095920791559,0.991873529614519,0.990458808451812,0.987440983839186,0.986855178273497,0.986751872215464,0.985876445225134,0.984802315467466,0.983553318735415,0.982427897214106,0.982376307080626,0.982392801367469,0.982314493878226,0.982058323148905,0.981628414110506,0.98099610862307,0.981374257592727,0.981280678881397,0.981847993716865,0.983797317323798,0.984995952647639,0.985818376378276,0.984194691446517,0.982630729158125,0.981081658888274,0.97968419793819,0.977885768526009,0.976802187878926,0.976611449706216,0.976736421161878,0.977122457538939,0.976888787708665,0.978177526634527,0.978867297778617,0.98112757623739,0.982727113950728,0.985937270774745,0.988352133852463,0.990650055374065,0.99212390123465,0.993700496904244,0.994216131587448,0.993462412287379,0.992910361138694,0.991572445462551,0.990937023608561,0.991359617786503,0.993162282479283,0.995393267741558,0.996878775506645,0.998852290593037,1.00046280702741,1.00265674731729,1.00417939485511,1.00614524519948,1.00671362884996,1.0075682978993,1.00729129719583,1.03327092829596,1.07161442032588,1.07213827928565,1.06009501538388,1.04966507960723,1.03822717970424,1.03875923367162,1.03948203817217,1.0815556045987,1.08061292792107,1.08183024217751,1.08299176568079,1.06760388732527,1.05778307948139,1.05746621687021,1.05698694840585,1.05622843188697,1.0553069311269,1.05521101793187,1.05524300226041,1.05580227521865,1.05651270908847
1.02789311632352,1.02879564197078,1.03008867695931,1.02999026000124,1.03067767836212,1.03030510557424,1.0310409689187,1.03057212400582,1.0308610620667,1.02988345706506,1.0286818217369,1.02598811499533,1.02501514634454,1.02417344623266,1.02220247939942,1.0247797855616,1.0245537778949,1.02848293833168,1.03004057102391,1.03071385887579,1.03077723802312,1.03160082907102,1.03104888549098,1.03007292453729,1.02685746752611,1.02790344338917,1.02659086641111,1.02906086408026,1.03017388247543,1.03003638820515,1.02808955722575,1.02869596578443,1.02731963424696,1.02752559380289,1.02650226940467,1.02737982255757,1.02725149827771,1.02675555519251,1.02651972983416,1.02627016008525,1.01963782230828,1.02053672186397,1.02116202663793,1.02145014882688,1.02397152725761,1.02221355836497,1.02495399242068,1.0218885443988,1.0243479085766,1.02047669254455,1.02096222102507,1.01996026806388,1.02139971768005,1.02084554254405,1.0212871536698,1.02173509996808,1.03351476294918,1.06121435782433,1.24083856555198,1.02815900765485,1.02291924449199,1.02209297189158,1.01308305346677,1.01230191375332,1.01308329705072,1.01086628016219,1.01022712913419,1.00838617027979,1.00820947382384,1.00970477060839,1.01221505361055,1.01387689584493,1.01465516730306,1.01083320893844,1.01036196286152,1.00950822135882,1.00761473913234,1.0026429995896,0.995292960482948,0.997097580353783,0.996153472906777,0.997676952696223,0.996556997661861,0.997697126232819,0.996897801305523,0.997368204219205,0.996491268914541,0.995675062233288,0.993363655424764,0.993154663030084,0.991401199131448,0.991704131380195,0.990928441467566,0.99116675158608,0.991565258658762,0.989373539513421,0.987294122187174,0.986829023483753,0.987165467999708,0.985188861234942,0.983207812003281,0.982332379033212,0.981174677401678,0.981041079538651,0.982062226638104,0.980834510059469,0.981136892240534,0.979903153406575,0.97912464754416,0.979241995805609,0.977711079396346,0.979122094649243,0.979489805656256,0.982421888781514,1.28695373301945,0.982727744667537,0.981101821436062,0.979323217655089,0.97770371794168,0.977053039032026,0.976609404588931,0.976473788227732,0.977218943837406,0.976437561557664,0.976367422452975,0.976815630190296,0.978315334558581,0.979102842183513,0.981761468878409,0.984696740499469,0.988588530694549,0.990393185174107,0.991125647776585,0.992673236884938,0.993084445982794,0.992537201712729,0.99132056880869,0.990436173973812,0.988724445190742,0.989422632089366,1.0054493177828,0.995456888328784,0.996711643014142,0.997299392285813,1.00030749211411,1.00115074081539,1.00464811055485,1.0048010485362,1.00790120065315,1.00698439906027,1.00759456699792,1.02362592540641,1.07122294187754,1.0718112085626,1.08183070186965,1.06071890562148,1.03889664795535,1.03902640988724,1.03971397662867,1.07975325730033,1.07769126287306,1.07967588297497,1.12534546068942,1.05990886450119,1.05720075459279,1.05641279749031,1.05633773012861,1.05453444015549,1.05359150719394,1.053520865457,1.0544726413159,1.05467035408021,1.05571690403977
1.02872954913853,1.0288118445788,1.03089861119876,1.02971665598228,1.0304777773852,1.03026909773709,1.03033257025833,1.03113173454398,1.03217703212723,1.03268085277101,1.03232530879972,1.02520941454777,1.0244156509835,1.02449490369655,1.02453196087861,1.0255050037277,1.02782868757837,1.02823811073496,1.02981179336926,1.03015191935895,1.03173238999161,1.03049555138116,1.03217782144236,1.02896410933062,1.02974553795584,1.02755650609527,1.02846730243977,1.02812525303465,1.02953385255019,1.02871184321925,1.02925692225956,1.0283259832077,1.02886834018558,1.02733574121014,1.02644001551303,1.02842616291476,1.2376900606872,1.04214118555753,1.04191040248635,1.02696115097655,1.02070340378779,1.02041904884055,1.01972826897267,1.02122650828056,1.01985011484514,1.02288847637416,1.02061325661794,1.02352113165731,1.0203046941144,1.02153283012196,1.01699558917851,1.01984168155463,1.01947056109799,1.02052854012396,1.02093810785034,1.02181597698281,1.10796574598351,1.07643653955573,1.04273965745109,1.03169368700069,1.02314831188727,1.02748131647898,1.26879768603893,1.01161897817012,1.0128099901124,1.0108709772302,1.00814410299391,1.00802282643015,1.00544285419097,1.00869599894978,1.15439869855449,1.01537807379856,1.0134828854885,1.00784105078502,0.991282172093562,1.00952416662843,1.00833222331103,1.00262796160055,0.99562531554699,0.995260260524632,0.996429998343617,0.996126002344208,0.997198104803731,0.996139096893289,0.996564576488899,0.995848305756986,0.996879722995763,0.994436239926704,0.994371732238548,0.9915933821646,0.990930467150616,0.990003818813087,0.99065136725556,0.989554886520545,0.989016151528683,0.988361775628952,0.98699720620178,0.986757642903455,0.986272369963134,0.985148291735225,0.984532056134925,0.982224745870791,0.979671465392605,0.980089505215201,0.978587937049389,0.979557828596405,0.978732390511577,0.978374644938207,0.977068073750817,0.977208812218046,0.976771175744168,0.977143073650132,0.977188077403562,0.977146195995939,0.97690466022505,0.977134540599674,0.976593410111215,0.977661711116534,0.976656184749722,0.976420297913863,0.975328250079037,0.975893708576675,0.97645676555386,0.975825522005135,0.975183739934861,0.975621010369503,0.974981244835559,0.977376913013412,0.978195487756049,0.983489212940597,0.990989238267735,0.991045821109042,0.991219348397281,0.992395384425992,0.992831609355253,0.990595164733178,0.9913995119845,0.988951820242445,0.988473335133501,0.988302340846886,0.988890853735089,0.990152392414472,0.991977076507039,0.995863969216074,0.996534199558034,1.00066527633739,1.00118485436543,1.00472438746029,1.00437261122338,1.00712338647935,1.00760934793082,1.01005616104647,1.01105739980881,1.06628004296724,1.07140015744658,1.07281112213453,1.07482533628619,1.07439669537467,1.08548337930192,1.07915029865502,1.07766191407281,1.07770848212734,1.05372438451888,1.0539773348698,1.05505338227495,1.05479065676769,1.05362871401148,1.05316626881949,1.05089864411187,1.05208269953147,1.05184430436043,1.05297135340125,1.05424420556785
1.02846090390037,1.0267649403141,1.02414092967379,1.02659137847318,1.02722655441992,1.02835628821236,1.02964022395032,1.03095978224663,1.03241039254027,1.03372173040394,1.03621591510916,1.02478807670416,1.02498355123204,1.02521681021384,1.02508971801289,1.02656911824039,1.02731097702877,1.02842191293603,1.02858791580758,1.02976691843388,1.0293657681639,1.0302746700748,1.02805229465361,1.02932564030351,1.02684072745471,1.02832399067031,1.02745382176796,1.02807662411887,1.02700311774692,1.02816515279662,1.02749052853682,1.02830592189802,1.02763186431084,1.0274302955037,1.02567088460227,1.03024536042331,1.03877806125181,1.04056259090285,1.04053974311038,1.02775283355421,1.02167450470427,1.02025291070152,1.02013594550459,1.01956191914926,1.02111551786465,1.02028495972128,1.02389307324891,1.020549555858,1.0226428274762,1.01956536063589,1.02084445121131,1.01858475028702,1.01824445040881,1.0197168171127,1.02164182019147,1.02198124585837,1.13175233742284,1.08947579790239,1.04180590115885,1.03657020694367,1.02499542599864,1.02917936419663,1.03497303529004,1.01000636223892,1.01165300549819,1.00975410218873,1.00862963639563,1.00739319595647,1.00765480843225,1.00724245335108,1.01817342136039,1.01644644496344,1.01492424567593,1.00597029013431,0.987919925503584,1.00943582905148,1.00806956590302,1.00360403117099,0.994105538454518,0.995912700144418,0.995804884668916,0.99678990207967,0.996042291533891,0.9962994700189,0.994675159924988,0.995371421969416,0.994268883980041,0.993571942558713,0.990734007006938,0.990665727766317,0.988227201301522,0.988822311495863,0.987441100156824,0.988159578895024,0.987829080549709,0.987398024931429,0.987492164223856,0.985865809144529,0.985672380961442,0.983680202656118,0.982650653121948,0.981046728595142,0.981276131006831,0.978773591569525,0.978778985239953,0.977615963032039,0.978182504077675,0.976405970604626,0.97521272774573,0.975338495981483,0.974608324619429,0.97546784104196,0.974832043987842,0.975894213090065,0.976096533898481,0.976136998391602,0.976823223574753,0.976327889231209,0.977216781078888,0.975280117475886,0.974331611677133,0.974660608627415,0.974807244465194,0.974682284355785,0.974110177113997,0.974541062154554,0.975014394433037,0.975986175066394,0.978135312693626,0.982747196779907,0.990952452077056,0.989696162026017,0.990969321314435,0.991791752230963,0.996202848495777,0.98742278470384,0.986636879725786,0.987198158607435,0.986282386986875,0.986712775895491,0.987830758345668,0.989525582268611,0.992741238350826,0.994258250843015,0.997881266144991,0.998503372924652,1.00273477318312,1.0020765874312,1.0057183665992,1.0050051900987,1.00737427460624,1.00978916129103,1.01045098818306,1.06050401937581,1.07262197389556,1.07316799474226,1.07575476739554,1.07443350476043,1.08405416931887,1.08095101510689,1.07518847988323,1.07593910846059,1.05356891721073,1.05348742696333,1.05382051891619,1.05364351890351,1.05351338808939,1.05156377982846,1.05108083134633,1.0500447275624,1.05033787139553,1.05081717596181,1.05104071082511
1.02367807138516,1.0249173831427,1.02547912010451,1.02605230954288,1.02594606245257,1.02780705783898,1.02847498505663,1.03064139014136,1.03418438277256,1.03412161441376,1.03575658401472,1.02515370269961,1.02533366468545,1.02539056381297,1.02596345138857,1.02639998804328,1.02818909679757,1.02802539462425,1.02906259216836,1.02927031076879,1.03066749935275,1.02909152050169,1.02924115185118,1.02777583448483,1.02840697797379,1.02704170114186,1.02764416984608,1.02678817416454,1.02721244878103,1.02665406114055,1.02701648837393,1.0270632169216,1.02769922809751,1.02753961916552,1.02782856633524,1.03217669327976,1.03836744849544,1.0397718138573,1.03908942277595,1.03000803030345,1.03235930856714,1.01972860892525,1.01890662848747,1.01971370162221,1.0186658244343,1.02114254475871,1.01991599922259,1.02219638982204,1.02003058651926,1.02162309833469,1.0198348557484,1.01960904162247,1.01743344201532,1.01904511391882,1.01900406966251,1.02104267400698,1.13079883379126,1.10148687458876,1.15289833109926,1.06963607460718,1.03154068142866,1.03147452303243,1.03291701850317,1.00826353976195,1.00874838897322,1.00930266584177,1.00833006549921,1.00803375777535,1.00651769091135,1.00700126400512,1.01634829716042,1.01604927461182,1.16376475561282,1.00538306624598,0.989921345591826,1.00772098173763,1.00589872156798,1.00453848721208,0.995577632797453,0.994782841809723,0.996155569554254,0.995847115140048,0.997234760681654,0.995462957433675,0.995319929515656,0.994078100555135,0.99413057117066,0.992160587264685,0.99156034869521,0.989340398700255,0.988252180945005,0.987242953711802,0.986920262122152,0.986735337751992,0.987330463088544,0.986283240913757,0.985721389617449,0.984509555735222,0.982808164612503,0.982169236296406,0.980921509242494,0.97960892254192,0.977283093807755,0.977515626818137,0.975903291770943,0.976555256062079,0.9758515468216,0.975307085681667,0.974000459791807,0.974092671738431,0.973745510385343,0.974230855415761,0.974697960797733,0.975011360510339,0.974992046601407,0.975491509564038,0.974952740438548,0.975357573631263,0.974537646638733,0.974507297636994,0.973751344253497,0.974106276096995,0.974311966296903,0.974170463628194,0.974035060111184,0.97398738714774,0.973378423867745,0.974601078270249,0.982325666972554,0.982730526638298,0.984126095563776,0.986628508258439,0.988753738355656,0.989794243538602,0.983115056013666,0.985118265940078,0.984818816967543,0.985854896563054,0.984568067526311,0.984887191903776,0.985455896579022,0.989157854142795,0.989992783290208,0.993855365765962,0.995491260446729,0.998144506288192,0.998193889344926,1.00150722482571,1.00150153233602,1.00402687410045,1.00436743141026,1.00910283283118,1.05522056205656,1.05488844929117,1.02970956676547,1.06679082682552,1.07610202133937,1.07452863858034,1.08322891776844,1.08187954788926,1.09200269713754,1.08294254239926,1.09765423976726,1.05257406701043,1.0534123984746,1.05256826712691,1.05088007378494,1.05005461614343,1.04756147005344,1.04843902272849,1.04785966108168,1.04919682197338,1.05027942623314
1.02358074299976,1.02458645873104,1.02530495366007,1.02618769632586,1.02693020567122,1.027611983945,1.02846479856424,1.02957047831427,1.03102210026506,1.03278215705037,1.03487658029586,1.0259429104184,1.02533992700088,1.02583244585977,1.02562665508874,1.02646691860903,1.02683381957889,1.02783015984632,1.02830595617124,1.02909610150534,1.02918091416895,1.02939757507391,1.02851586082242,1.02845146160256,1.02723102461618,1.02710870648235,1.02631109959389,1.02627058951955,1.02597939720765,1.02584361190784,1.02559330998676,1.02629036448008,1.02662258421083,1.02686408009899,1.03005956065346,1.03504474003473,1.0379613109517,1.03911510369496,1.03416645517274,1.03146471233291,1.03162093409399,1.01950198077564,1.01928581788417,1.01992995768926,1.01996836128512,1.02087525289804,1.02175139739155,1.02174446828209,1.02223160569126,1.02134664685859,1.02125967116034,1.01949881372931,1.01854613264025,1.01865628645147,1.01917320872508,1.02014327646526,1.06157730750202,1.08170154957789,1.10539598987692,1.09044897571972,1.07748641529677,1.06530854783493,1.05103080888527,1.00810317536148,1.00892058847806,1.00892259621241,1.00859562527757,1.00764293844219,1.00743308245635,1.00749988725403,1.01017470397828,1.01263941927129,1.07019459760337,1.0047051178068,1.00420483459976,1.00540433032385,1.00553721196747,1.00357017097633,0.997432449290946,0.995342003143833,0.994901133611094,0.995406158069355,0.995311859482249,0.995129055788822,0.994212025586594,0.993650197388158,0.992345837826425,0.991634418105655,0.99012892108366,0.989146672840806,0.987350981538875,0.986935399824806,0.985832626981377,0.986083669172879,0.98533499673048,0.98492106078862,0.984385136155397,0.983386944094866,0.982394376712124,0.980863198915813,0.979211394431783,0.978176806306993,0.977118118680701,0.976354635028169,0.97574818155778,0.975070835064214,0.974637145118703,0.973935036756146,0.973533675020758,0.973212394379213,0.973220269359294,0.973316981805691,0.973650345635014,0.973993218605194,0.974408951402501,0.974362855426895,0.974463816136934,0.97393668096198,0.973752624929202,0.973402015072224,0.973429534939899,0.973411711199602,0.973590557103408,0.973619785920133,0.973734056744779,0.973729983085302,0.974032909126923,0.975326858910332,0.979861611989811,0.981425031404826,0.983011417145558,0.984081103741511,0.989192456671745,0.988142148921265,0.986260984129347,0.985775629327929,0.986512737225156,0.987089432926953,0.985235642749688,0.984684603822215,0.984996219550636,0.987704867852772,0.990101073242465,0.992526059339761,0.995311896101522,0.996590253442513,0.998644503433459,0.999499476136968,1.00124547913547,1.00197668763599,1.00297848092807,1.0089315975453,1.05406843430151,1.05449360592169,1.05461591995547,1.0541246988419,1.05370517002331,1.05221777441479,1.05015940144264,1.05009519896854,1.049819808837,1.04902598095901,1.04964796629855,1.05113430931625,1.05174546744066,1.05168398421487,1.05080479681308,1.04864283389827,1.04718499312834,1.04705796403756,1.04716038076312,1.04777309154597,1.04842615769697
1.0233266030058,1.02425904228201,1.0253090475517,1.0265730464356,1.02708838094669,1.02784048071446,1.02659728954892,1.02825057414715,1.02698123371134,1.02982950546612,1.12463191912309,1.02619277973644,1.02504055317919,1.0249419387598,1.02585433940375,1.02550409141525,1.02684048281611,1.0270407418845,1.02875207890357,1.02853523475526,1.02963550564251,1.02902708431972,1.03037593550346,1.02810077638944,1.02818744291152,1.02629696810084,1.02595298241988,1.02525077991328,1.02544035315622,1.02449798100775,1.02366664363171,1.02477758271647,1.02588176589371,1.02571192685372,1.23103549204554,1.03610276315777,1.05468869492194,1.04267461527894,1.03040627522288,1.03094241475755,1.03065059672227,1.02005446171693,1.02156376516229,1.01969313561876,1.0210074132841,1.02078720411099,1.02298914424964,1.02234672452594,1.02264074890424,1.02237167874056,1.02130491981524,1.02034327662307,1.01684990834521,1.01843498520605,1.01655232179764,1.01871905904549,1.01798468059956,1.0565416324187,1.14681931644754,1.1035962479394,1.14232034286007,1.08373605942404,1.12587267300274,1.00922125014752,1.00955672299739,1.008571599805,1.00746637608899,1.00727521987463,1.00600600649245,1.00613770965049,1.00436174090568,1.0083807372456,1.15583707012517,1.00303546570233,1.00041233496471,1.00270369819691,1.00642062278752,1.00608767450057,1.00761018176727,0.994444996106512,0.994472089428523,0.994566771757511,0.995306739908276,0.994154222374092,0.995130169441179,0.992417188919229,0.992496521769176,0.990310844787938,0.990556250240901,0.988107408275094,0.987302231753265,0.985710228856245,0.985585645252535,0.984870732205068,0.985177575600614,0.98311872701968,0.983579018309913,0.982263246495119,0.982621206933072,0.979588203766755,0.977275490692908,0.976700578341984,0.976321734586177,0.975354406075347,0.974878794317981,0.973975097389387,0.972702095324179,0.972897675860536,0.972296532348776,0.972412020620006,0.972256515028629,0.972340568668313,0.972254311266692,0.973115679758509,0.973375116571516,0.973690603837209,0.973069803187125,0.973019656849784,0.971907150714749,0.972448274720676,0.972786677537783,0.97257851035485,0.9731795780159,0.972880080987694,0.973536010274363,0.97329054010413,0.973197882628778,0.973500620927789,0.971688834218068,0.979781679023752,0.982058728325317,0.984250389607995,0.993047837137264,0.99672902245256,1.0038435463113,0.997261416042373,0.995604578794833,0.991633991580244,0.980322181949199,0.997358056926788,1.02837671018486,1.00204370952195,0.989905256537147,0.992233839649097,0.99497199797481,0.996189481929297,0.997000756289251,0.998704707725784,0.99869575728023,1.00067652144077,1.00154393660023,1.01004835024032,1.05180726953248,1.05323560411015,1.05395839649498,1.05488626661679,1.05548229693529,1.05400509991893,1.04403845157931,1.0524897325228,1.05307050957162,1.04963950116868,1.04904865636499,1.04949146677774,1.04945136042794,1.05113987222731,1.09715488109835,1.04602896776712,1.04497912743984,1.04506006242623,1.04631364373653,1.04600194903546,1.04682136755029
1.02208126948764,1.02458219681723,1.02571473123322,1.02720650783567,1.02917404068594,1.02823838716006,1.02733804769853,1.02748683976225,1.02704041238002,1.02835555237367,1.02876814025253,1.02715626867316,1.02292182545769,1.02491555705245,1.02340444785058,1.02567228326345,1.0247139007195,1.02727712282057,1.02703839482647,1.0289997878645,1.0284040229092,1.02962528024272,1.02837949551359,1.0286536852278,1.0264772575229,1.02618047983458,1.02390214485722,1.02407189547888,1.0228788857137,1.02298843744469,1.02217571029409,1.02313626151601,1.02246730690146,1.02374151550784,1.02317189233019,1.03077466018028,1.25401858433926,1.04534012025295,1.04727234307862,1.0311263703823,1.03027565175847,1.021257629063,1.01957819968962,1.02146257951476,1.0180529578333,1.02211212473061,1.02200107894967,1.02319357668201,1.02323154833706,1.02272385848902,1.02362615568595,1.02144280065494,1.02265618727359,1.01898354008749,1.01837250120759,1.01748106011225,1.01737460368603,1.0166984991818,1.01682273702561,1.01522773321411,1.01197569319367,1.01209039691041,1.0119875541999,1.01111675480072,1.04125745556859,1.00707848849797,1.00638856246807,1.00565438032908,1.00586722785209,1.0047028005332,1.00421543991176,1.00624187272622,1.16297203327654,1.00196646011388,1.00000107357143,0.999902233777066,0.997656852018888,0.996083106129621,0.995190745537349,0.994415543618584,0.994227749879408,0.994358609486576,0.993724466954307,0.993705990299554,0.991355705792091,0.991756135315545,0.988833651275361,0.989752085249934,0.986555564719196,0.988276754170908,0.984858921433424,0.98516896951842,0.975072875364563,0.977862717047419,0.977947857580425,0.980031599495608,0.978947950597845,0.979705714347459,0.978468392587174,0.978416986482205,0.976205651008021,0.976118322201079,0.974082132835702,0.97435433436252,0.973562101922255,0.972959644882976,0.972342774423215,0.971742449187681,0.971939989498689,0.970723689072237,0.970798030659478,0.970445340822664,0.971474205502936,0.971748317923789,0.973175055610877,0.972491408560012,0.97327881400049,0.971647409370962,0.971540888417878,0.970954796423355,0.970795341557732,0.971041972067289,0.971208874387514,0.971436132746391,0.971766973620686,0.972396749676396,0.973398758046275,0.972615778121339,0.973469534593497,0.976512299892596,0.982882237401793,0.98532481693873,1.00826280476094,1.00257167809102,0.999325651955768,0.998512734080613,0.997098357520269,0.996463071498365,1.01967671902905,1.00566437685069,1.02544994720008,1.01510065827443,1.03337308593452,0.99112796784719,0.991804451541406,0.994251435055213,0.997837083046592,0.996802662205434,0.998377197009463,0.998699588661765,1.00063506819875,1.01273175545409,1.0510625709183,1.05228648216285,1.05643858998704,1.05583157836395,1.05663063163064,1.05366999604356,1.05330331783174,1.05452467707174,1.09394815695819,1.04723501227384,1.04716050377352,1.04833702086102,1.0488255565184,1.05028918503693,1.09825408073341,1.0443445761663,1.04158381770708,1.04320510199313,1.04258408946566,1.04428399332954,1.04439277259806
1.02457048441004,1.02502647705556,1.0267253326241,1.02800364969212,1.02987173671998,1.03058753798115,1.03249227499345,1.02865483048297,1.02652282094429,1.02781601757452,1.02887963666971,1.02655903539859,1.02536777235098,1.02472894591235,1.0262092222738,1.02499452946326,1.02588961534208,1.02686311161084,1.02937952859917,1.02891583364163,1.02964364051817,1.02898906235028,1.03000081136683,1.02765391417874,1.02680232311365,1.02543189351785,1.02495103558657,1.02369476411042,1.0223303058758,1.02275981441034,1.02180884345769,1.02286842151179,1.02238646708488,1.02290107006738,1.02215954333038,1.02116019781688,1.01995709519839,1.02130700844307,1.02301547199144,1.0216948388247,1.0231220124936,1.02135763997941,1.02443179791263,1.02087101744032,1.02294074752827,1.02099957413794,1.02340712558649,1.02226110515262,1.02293608969884,1.02280335788906,1.02217022571341,1.02210452149283,1.02024988350054,1.02001009585204,1.01728481332379,1.01821092611127,1.01627156845119,1.01693366861016,1.0159866199679,1.01489073160902,1.01259726221698,1.01244228983134,1.01168080265055,1.0122536238223,1.01387237933406,1.00679456330709,1.00510788099523,1.00543773626281,1.00363543177204,1.00440188739454,1.00314469986234,1.00343403928281,1.00212425636697,1.00199282630012,1.00135202923235,0.999653667100796,0.996488554498146,0.996211433333229,0.994473360255962,0.994734248938823,0.994534631593972,0.993745292319699,0.994181924921492,0.99202783691728,0.991946080986997,0.989757977838203,0.989387950969739,0.988643139399029,0.988922273206059,0.988683993387776,0.987280300141057,0.982392184713736,0.97844475163283,0.976844212742164,0.978764081707145,0.977765690978026,0.978468396077875,0.978046895371366,0.978652637949951,0.977916766833105,0.978302507215354,0.975791772219725,0.974302622409333,0.973459732769809,0.972854140982855,0.972139451797359,0.970925068434668,0.97108824791439,0.970196972128221,0.969647055193786,0.967460227313991,0.968963285324312,0.968788193636753,0.970637135123654,0.973696815893327,0.971556345278697,0.970492560593834,0.970730283331998,0.969370039839096,0.970037012285435,0.969724162266277,0.969460500878852,0.968701591265406,0.969564845522938,0.969627015057786,0.971086707262934,0.972643665277474,0.972973149516535,0.972265672353037,0.973848590988174,0.973758844850709,0.987462627871879,1.02349866887895,1.01535836366358,1.0222190806268,1.00307974570772,1.00800755280412,0.996115881355591,0.997435214198621,1.00171889628978,0.981723744429368,0.988576433397942,0.985046490617241,0.989865724549319,0.991006722364535,0.993424394797823,0.994559625497293,0.995632624409277,0.994554902640974,0.99716833543851,1.00003770887215,1.01650694388829,1.04688233709995,1.04136250224043,1.01869739305671,1.0304426054957,1.01222148758463,1.05114854145652,1.07374133097143,1.05670095960249,1.05978237080238,1.04558901448572,1.04444542842795,1.04430128158523,1.04269454939674,1.04020782198044,1.03934631223896,1.03921604540192,1.04039159840692,1.04112198126072,1.04283513892344,1.042482052548,1.04253936727851
1.02443195706102,1.02552698166365,1.02649022345329,1.02770718808122,1.02914253053496,1.0299751267142,1.0322677588454,1.02878687435945,1.02683944527113,1.02710179071291,1.02668841686905,1.0265604447065,1.02472354765851,1.02602920006684,1.02553136093927,1.02620339105853,1.02512694470318,1.02815094083086,1.03063299541662,1.03064552046655,1.02948285286344,1.03003731862605,1.0287134486836,1.02874928183938,1.02729789168725,1.02613579031152,1.02369732141329,1.02382720027853,1.0228844434627,1.02331494363174,1.02322168597844,1.02356978221422,1.02356403034412,1.02294733726157,1.02141456422038,1.02126791046929,1.02024222932566,1.02118859375477,1.02203220210371,1.02110061949283,1.02042265160108,1.02101738904276,1.02074356614716,1.02176692972872,1.0201064937266,1.0224428745647,1.02199982063333,1.02293375236057,1.02245801186527,1.02274024128211,1.02350007559358,1.02149006096811,1.02077722676645,1.01947698149119,1.01951393639144,1.01806964804862,1.01814567377072,1.01673102701121,1.01597195462901,1.01509884231822,1.01440224277087,1.01303733021997,1.01190694791904,1.0120431127633,1.01211581213669,1.00784169941275,1.0056513044681,1.00466207390725,1.00490311138731,1.00368275226543,1.00311440537453,1.00260764273654,1.00130215034889,1.00144212475507,1.00133378775088,0.999094501064066,0.997761537707497,0.995833375165013,0.995339610441392,0.99414772874776,0.994042826729864,0.992941366008485,0.99064995637294,0.991564648041844,0.989445961251224,0.990219215514869,0.987657023014703,0.990275322259037,0.9894746585772,0.992053880093535,1.16130157199621,0.980042296744899,0.976423040059948,0.977769774575183,0.976038594191097,0.977533794403343,0.976688632750025,0.978015337845468,0.978391341598794,0.978240168935918,0.978792068623057,0.975903087466515,0.974075162624922,0.973281942538663,0.972434281853258,0.97161897193444,0.971247098724237,0.970083531544181,0.970236174725875,0.968123066691404,0.967346987163565,0.967202165905508,0.967819300966636,0.967176444123433,0.964783208919163,0.968649326264055,0.970005536489628,0.969417134038302,0.969976789486971,0.969006359529352,0.968428294718694,0.968362402587964,0.967503901060725,0.968544138668096,0.968773203358775,0.969672081126445,0.975600197629803,0.972836286650546,0.9724559178584,0.972153723247508,0.985847734797469,0.987376509645729,0.986971648093842,0.989366471986994,0.991389517521275,0.99906953907842,1.00853633634416,0.994437270115602,0.97368016625534,1.00541138790796,1.01934279615455,0.995241299820479,0.985432401528299,0.988219437303783,0.990304494415523,0.991984589702167,0.99480171119978,0.993703059707663,0.994481675726048,0.99426213235186,1.02497228522854,1.02002927401547,1.0202060819764,1.03791783352806,1.04442020475539,1.04651551057063,1.06916589044993,1.05008311495909,1.0501407845911,1.04251342971911,1.03493328902623,1.03515334060993,1.03642339633155,1.03524906354304,1.03654798244602,1.037558016497,1.03765041544103,1.03843177611986,1.03823819155605,1.04036379071632,1.04073310981509,1.04184584910047,1.04178262760406
1.02455919388599,1.0251424578713,1.02621164181782,1.02736068675519,1.02867474213865,1.02943775981483,1.02970300574758,1.02850442304346,1.02707508720054,1.02669037106543,1.02662422039189,1.02628275572155,1.02641450871965,1.02609658847743,1.02661512736141,1.02610573135896,1.02664741440348,1.02798421494343,1.03128628199675,1.03139375233784,1.03152967948349,1.03055640961255,1.02975925732974,1.02871455648189,1.02797522120589,1.02649244158448,1.02516974073004,1.0249189611325,1.0245986584478,1.02503544797636,1.02512240437042,1.0249836577483,1.02441415375715,1.0235394990255,1.02247968157884,1.02153623811456,1.02090003320118,1.02083704838576,1.02116071382916,1.02050230051409,1.01989773312015,1.01943061516945,1.02055933408779,1.02054369426777,1.02156533820881,1.02160651414053,1.02249335890916,1.02237581420441,1.02265536676197,1.02234088811018,1.02209163551154,1.02138370202647,1.02059881089506,1.02026845405822,1.01953734668877,1.01896571740274,1.01771446214251,1.01731062968456,1.01622581483685,1.01545403819768,1.01429304994008,1.01323654441084,1.01227819260289,1.01141973197543,1.01042199841108,1.00816718500021,1.00578051892928,1.00548235376078,1.00443444616255,1.00424027534645,1.00328662033925,1.00266006231957,1.00171059400483,1.00080045174258,1.00011745975345,0.998441383676739,0.997070568275041,0.995883433773242,0.99474389307938,0.994005104127008,0.993219317838158,0.992637264557751,0.991930556466668,0.991539069994349,0.991090272766715,0.990455670410279,0.990248652549184,0.991482726366026,0.992844468483709,0.994375647714647,1.04412551206399,0.979013879119547,0.977900720080215,0.9774684267345,0.977262775403078,0.976896480759308,0.977069585282908,0.977070038512532,0.977488411647572,0.976844516547381,0.976188514956511,0.974867656493165,0.973433194548719,0.972682637339591,0.971840763996706,0.971035902360289,0.969914453903618,0.969109560611071,0.967722245518209,0.967194236770964,0.966050914793733,0.966507768614129,0.966439487057607,0.966556521050885,0.966306524600147,0.967623626625222,0.968407376169175,0.968748682442781,0.968427822258778,0.96869443165999,0.968293133306032,0.968329889428156,0.9677740750765,0.968240602334777,0.968088634671947,0.968332021977713,0.968481753298509,0.970308629598733,0.970910089430384,0.972098174516043,0.974829857212835,0.9776684183803,0.980323290422231,0.982925028536093,0.985906287798433,0.988870342835416,0.991268903987809,0.992810158945036,0.997465651703864,1.00834835829269,1.00958903609653,1.0016553931262,0.996045303974934,0.987665125461169,0.988949480058383,0.990595226902322,0.991817785858059,0.992401504154437,0.992491831632437,0.993046063605934,1.00602744273124,1.0112813987952,1.02351338565657,1.03478444981634,1.04517032595486,1.04634494948435,1.04895342498792,1.04866620177948,1.04339438261867,1.03989189977348,1.03443319802052,1.03401363543617,1.03476875783633,1.03396725266908,1.03523581212176,1.03599559554171,1.03708116178688,1.03751415838889,1.03829508380228,1.0395200302557,1.04083172824268,1.04149712300245,1.04179792096723
1.02351204723552,1.02478172831928,1.02518282162085,1.02717929160148,1.02860536115312,1.02922204413366,1.0291851140261,1.0281238200616,1.02600267607851,1.02634941768661,1.02538448717503,1.02662107796523,1.02615357593306,1.02682065677727,1.02626802623871,1.02630855872088,1.02536966660695,1.02694712304489,1.03347228169995,1.03266715855252,1.03367403035686,1.03134778511554,1.02957791093612,1.02886351734395,1.02810027319672,1.02691661225435,1.0254055078131,1.02583246566375,1.02629198520562,1.02655674093615,1.02815238164888,1.02641301393463,1.02554417723977,1.02438593239179,1.02214347459839,1.02192104927966,1.01965350775336,1.02051088925489,1.02173719558435,1.02102678516861,1.03961362289092,1.01891657420866,1.01978760239184,1.02069208952865,1.02088342688216,1.02173254203419,1.02168641350707,1.02245038351697,1.02240044122762,1.02233218582316,1.02076462213755,1.02142136578557,1.02031124985186,1.02087107142858,1.02084442739901,1.0192885097867,1.0180969497872,1.01726334177538,1.01697653745283,1.01546401840996,1.0137670871512,1.01332059326383,1.01208858048929,1.01112576344372,1.0098371750085,1.00787808317234,1.00621004433359,1.00536317965653,1.00549941954775,1.00434264989685,1.00443624335404,1.00293693091469,1.0009275380213,1.00092136416706,0.997604981257057,0.998536361071664,0.995385038421835,0.996013509327447,0.994251510940603,0.993786515042346,0.992216591148252,0.992608752779228,0.991687623828441,0.992016133174737,0.990808722677255,0.990882481929954,0.988649352961799,0.992225186425645,0.992820664200145,0.995321627739775,1.15989120073186,0.977370979245916,0.975727883506964,0.976470817797802,0.976648903011676,0.976279915524526,0.976965818228823,0.97607092483277,0.977273610570476,0.975374823012225,0.974815158632726,0.973570579343952,0.972481033040956,0.971824110185347,0.971974327944763,0.970028952613558,0.969830348032101,0.96747641756108,0.966673055820428,0.96536791948343,0.965661046427275,0.965091281616306,0.966706141222993,0.96573239589411,0.966489211912131,0.967040953639126,0.969122267049864,0.967673051684438,0.968376191674198,0.968004719652153,0.969068687751427,0.968180599075221,0.96787398991912,0.968346770634499,0.966532826602226,0.967022926590513,0.967772398497008,0.968666977733976,0.970215775901444,0.968136937417642,0.965846306768913,0.96549256941744,0.964826171169992,0.965274298352659,0.965506297098144,0.966299451879585,0.967156324970971,0.981506597607716,1.01182981589488,1.00975934239371,1.01378086550579,1.00639683778195,1.02127182310115,0.987035256164932,0.987813824604009,0.989336578326562,0.990772153136696,0.991205835909618,0.992297625990678,0.992930177356013,0.994775128638377,1.00474953909668,1.02665052432894,1.03186416616414,1.04346029273546,1.04506386657363,1.04945262010068,1.04878462168091,1.02903031125976,1.02996041449864,1.0308781161005,1.03156067023328,1.03064803227684,1.03248770125431,1.03329995139475,1.0350359817327,1.03593798429701,1.03665460656693,1.03665337162654,1.03903054068982,1.04108683477224,1.04133678996896,1.04251899321957
1.02426841291173,1.02457086793379,1.02591974659555,1.02648614735335,1.02798232522085,1.02859073051758,1.02994448809453,1.02784686987593,1.02648090538984,1.02579033398621,1.02611531559649,1.0263469227504,1.02872387337792,1.02632148132111,1.02600543468384,1.02554214719341,1.02629085947897,1.02768503957871,1.03072958285156,1.03137402782831,1.0301456562467,1.03112245753254,1.02917747398343,1.02856456615567,1.02782623700373,1.02775591170254,1.02669308273117,1.02763197149849,1.02754750083247,1.02804812250656,1.02799545414438,1.02770017802531,1.02734713274423,1.02515974579165,1.02428222103416,1.02181559420873,1.02141965895463,1.01933865681725,1.01551885497024,1.0146658653268,1.01429422728808,1.01781587633731,1.02009044268611,1.02013795272214,1.0217012174482,1.02149015474505,1.02182140726141,1.02232576051863,1.02368423767434,1.0221570125944,1.02253467248736,1.02134523797087,1.02215341260609,1.02144620783676,1.02190747209551,1.02033231528442,1.01830456820997,1.01821081250051,1.0166047366855,1.01611770998468,1.01414256223902,1.01345399425976,1.01222913030931,1.01070994942893,1.00913646753845,1.00834318326543,1.00659627948846,1.00680741001278,1.00462560524524,1.00564104088709,1.00418961830058,1.00332622735142,1.00305843247036,1.00030906639562,1.00157876157562,0.998070903628783,0.998881933504756,0.995996686862468,0.995456445918076,0.993884545360636,0.993348180898595,0.993298250142171,0.993843753734869,0.992891151585692,0.990899929985074,0.99220885701396,0.994612875756685,0.994002635849182,0.967692791183168,0.970529107335565,0.971130487225442,0.973764970486151,0.974780200287245,0.974904684691073,0.97465290827827,0.974773252272229,0.974242744339714,0.973925046058451,0.972008147898686,0.973857107619243,0.973742755858069,0.973865360783217,0.972499439322295,0.971862227238314,0.969803870709234,0.969483362194376,0.966966125836528,0.967321547202386,0.964659221144997,0.965454953329242,0.962801207208724,0.964513758947382,0.962705435896208,0.964584070670824,0.994666527582762,0.9662332218078,0.965831158465812,0.967103015528446,0.965747365635234,0.968584910278392,0.968015906285584,0.969634813324163,0.968684545750791,0.971067623210571,0.974890316031879,0.966150551411811,0.965789355751655,0.967910106285475,0.967563037626499,0.967625099436088,0.966393164654782,0.965436336864661,0.964954786158435,0.964873088757869,0.965512951981218,0.965919901012964,0.966060529762731,0.970997284166543,0.97198582963275,0.981981896947587,0.982371986237094,0.983278397295029,0.985190651240837,0.986055079112761,0.987212700520708,0.988279274387059,0.989255058262229,0.990782918035357,0.990953270218179,0.993190471304085,0.995104984922444,0.99595646563028,0.997354945095027,0.999347372078434,1.00223771418481,1.04409492880434,1.05081156716087,1.04921065863098,1.05962890531759,1.0305571114722,1.03187856725672,1.03063282695192,1.03060373711762,1.03030605796241,1.03284267858868,1.03268124861928,1.0350556821066,1.03505890231751,1.03647310486721,1.0386705752948,1.04109261598863,1.04169910362541,1.04140883709136
1.02406242411,1.02453083685946,1.02484928430097,1.02713111971549,1.02749995427369,1.02910000132932,1.02974635688531,1.02842964307929,1.02603767406241,1.02622726418876,1.0249142321072,1.02680272391889,1.02729147498021,1.0266892889681,1.02469827450089,1.02561364260092,1.02484088482746,1.02803592158297,1.03121344459996,1.03130865042456,1.03352170124292,1.03392903139781,1.11798728267344,1.02839429088915,1.02770449363487,1.02889611524536,1.02937482409518,1.02906254481608,1.02904959425844,1.02840888604458,1.02876635823497,1.02816458150429,1.02800614180287,1.02675128500757,1.02292406459724,1.02324952821828,1.0217955459072,1.02068878729137,1.01590819025498,1.01555289099141,1.01479364626216,1.01729732952059,1.0183881859005,1.02002264960487,1.02078591186407,1.02153352896596,1.0220752615418,1.02225363624943,1.02173796414791,1.02254558857057,1.02120792899749,1.0224392194103,1.02123913652598,1.02227984255676,1.0218383046739,1.02057799438833,1.01999833824688,1.01828824663629,1.01853420541394,1.01704961813289,1.01691871946857,1.01472998643276,1.01239274437716,1.01099179262827,1.00878632831466,1.00831661251647,1.00871782296011,1.00703073115265,1.00790164037099,1.00602064459312,1.00632979694899,1.00385164144545,1.00031560684368,1.00156194922274,0.997940219030563,1.00032691369269,0.997000791849792,0.997828733091518,0.995009494728099,0.994464874091556,0.992337538073186,0.993790685719801,0.993787186158537,0.994563133625301,1.17146340538268,1.1384704324868,1.27540259372057,1.030920530859,0.994906599184671,0.97132034323172,0.970840068213166,0.972625090888316,0.972499487483231,0.973538062775675,0.973494417118061,0.972330251088639,0.971370573986595,0.970778610763923,0.971137685516265,0.971966100441866,0.974715307336772,0.972872342861709,0.973497145047512,0.970726037591958,0.969471455354933,0.967991264429135,0.967816027060557,0.966029057748268,0.966326298381747,0.964214149078521,0.96478206015954,0.963398378815521,0.964646838589383,0.963830321988664,0.964246492502583,0.964530623316186,0.965203012172875,0.965783724099384,0.967652846345151,0.968718294279856,0.971800046391746,0.970503979623475,0.971758327632176,0.971421187237341,0.960756507505636,0.964737161280502,0.966721324394284,0.966907878109367,0.968225447122352,0.96774253443743,0.968047967369578,0.966573777319447,0.964814545380386,0.965948686020914,0.964978029607387,0.966699689062614,0.994759733962451,0.971563246274128,0.972735351752223,0.980838029091548,0.980378859183014,0.982319301172225,0.983304310558471,0.985087202357547,0.986109871436353,0.987056816507665,1.02530647484322,0.990616487929791,0.99230077266686,0.992614087869985,0.994604409391861,0.994985553220866,0.995806989766965,0.997248673922279,1.04303228564983,1.04296761052248,1.00762500942298,1.00815361729772,1.01001921697576,1.0220238437224,1.02886894007358,1.0294089879756,1.02711312708617,1.02909311385079,1.02860595555716,1.03091632942399,1.03060218048025,1.03372525719499,1.03531870383947,1.03796446723142,1.0407956159575,1.04059311167071,1.0422059763542
1.02277654753499,1.02245837104855,1.02106338465306,1.02669787714156,1.02797490413818,1.02872436279309,1.03073682531432,1.02850864602524,1.02745829768618,1.02625547422876,1.02592755202845,1.02595844709237,1.02683127603875,1.02572071065429,1.02548390419305,1.02542410975219,1.02609997741626,1.02791503046094,1.02994354920644,1.03054402899712,1.03803411591339,1.03641550458173,1.03890075793655,1.02909934984213,1.02921703968744,1.03101817789576,1.03484862907869,1.03137711590457,1.02974226231126,1.02927680851764,1.02862896525298,1.02883399966318,1.0293479613527,1.02893700254413,1.03062876195219,1.02344232788118,1.02278532307791,1.02066574608488,1.01880293169687,1.01697281420635,1.01581699439452,1.01695236599933,1.0176959055983,1.01950829342892,1.02120183109532,1.0213466720485,1.02144703592115,1.02219338229522,1.02282134617472,1.02256449300585,1.02320112304063,1.0225091796442,1.02359179888688,1.02285187463553,1.0235470746889,1.02126386782563,1.01857806514244,1.01878377805153,1.01756360044143,1.01790729559678,1.01752291098046,1.01576343652109,1.01419524445037,1.01179816066291,1.00880631430192,1.00910917356143,1.00747927690336,1.00863107400166,1.00722628203292,1.00772490554216,1.00667245841812,1.00477327775608,1.0024877630741,1.00153086362441,1.00258805131058,1.00079065413853,1.00206761669659,0.998956623588902,0.99572553332878,0.994804962258158,0.994286350702274,0.994597193836156,0.994726630647848,0.995427118183547,1.17158924517593,1.12493036988191,1.11118461824108,1.05832642149817,1.25201228155476,0.972501794945229,0.971542993493548,0.972369939685551,0.972206732182524,0.972629571231401,0.972831177561489,0.971393045587838,0.968903974756535,0.970075243811312,0.968550614854807,0.971225479123079,0.971069159566549,0.972342171357517,0.971596183605543,0.970737720725077,0.968359361421094,0.968290629365637,0.966554693441484,0.966629040558414,0.965171315392298,0.964867894958945,0.962333758136499,0.963658766047165,0.96234802612776,0.963741600526233,0.963458867981968,0.964215321364996,0.964006958196637,0.966612896670504,0.968255931538471,0.970132992538106,0.970023597076084,0.971757835663707,0.972640064566265,0.97069310702519,0.968601557461351,0.966408473323809,0.964791318521056,0.96716070333423,0.967456500198976,0.968059594775511,0.967286848956227,0.967225055363685,0.967552942581673,0.967225487007748,0.969048575355306,0.968570749504828,0.970488202820457,0.972569390449632,0.975315844370102,0.978589651526212,0.980000822244648,0.981516207235495,0.983412637849336,0.984262536527609,0.985294003491477,0.986492996715755,0.987751604558535,0.989691737453103,0.990932074692397,0.992508785837027,0.993687528376539,0.994862603739992,0.996244371255056,0.99633276531827,1.04159596654389,1.04206619687956,1.04698333714099,1.00700895664458,1.00790923152715,1.01787688450662,1.07279376870491,1.02876301991746,1.026621588874,1.02644751669408,1.027836997621,1.02848443714202,1.03037730088268,1.03214178011422,1.0345827943036,1.03704942080414,1.03988025242465,1.04003667509844,1.03971498001864
1.02373524775792,1.0236307367793,1.02345758862745,1.02592350067781,1.02691620140597,1.02840416858832,1.02918916383839,1.02838763780938,1.02731587543688,1.02654152420158,1.02598294717833,1.02597554670604,1.0258185581333,1.02564423910551,1.02523554228313,1.02548739986303,1.02595947117885,1.0272864372999,1.02885428892928,1.03039445437303,1.03280034282262,1.03295725800872,1.03111393462634,1.03021242488397,1.03042681539944,1.03194119745086,1.03326600454259,1.03197623544727,1.03025518233041,1.02971817411954,1.02895007241111,1.02920742857358,1.02924612855157,1.02993487360054,1.02984926534415,1.02580512858764,1.02302566407808,1.02177775315899,1.02028114675111,1.01869222616708,1.01743672691018,1.01806641875606,1.0188193007919,1.0198430142402,1.02064442841866,1.02125699544089,1.02185393988284,1.02261035441535,1.02324420479139,1.02354066827763,1.02330080150825,1.02358734188613,1.02297185220786,1.02351689028287,1.02292103838471,1.02150020075754,1.01962716777562,1.01859443909066,1.01860136420225,1.01805840995721,1.01807713223813,1.01620869651695,1.01466911837674,1.01252992972196,1.01105976500311,1.00991004100787,1.00965136393981,1.00933305737485,1.00846452162078,1.00776821867915,1.00757051459686,1.00592614927392,1.00428362158739,1.00374825261926,1.00239639514781,1.00307342741587,1.00193117339601,1.00169773176384,0.996128868660161,0.995481597226397,0.995069910718675,0.995659860891001,0.99593856652753,0.995841837216241,0.994418657886727,0.991037933605846,0.986361348967214,0.982848364197471,0.978496090021996,0.974926938349885,0.975000860254089,0.973792562523224,0.972408672673836,0.972226456210365,0.971400544566952,0.970827358921759,0.970166120146294,0.970069142645563,0.970170001871652,0.970957627886285,0.97185148344809,0.971657770016781,0.971444935455902,0.970406120144286,0.969484756545902,0.968197596611613,0.967107217960366,0.966065641709942,0.965362576880311,0.964486842811984,0.964053437959281,0.963628576765464,0.963369334373073,0.963559654684799,0.963533285519745,0.963525130284428,0.964290766592126,0.966161730110841,0.969153995218689,0.970486333629014,0.971398658731713,0.971741884306746,0.972016236030949,0.969290894356833,0.967318025823728,0.965877822973544,0.966102427475941,0.967212483062196,0.968784796813797,0.968806456072318,0.968998564944932,0.968308826388413,0.968094945454165,0.9679489564618,0.968507725355195,0.968909769861531,0.970353021268709,0.9731201528055,0.975503221161533,0.97783642579327,0.979352225757086,0.981034268663205,0.982427574882158,0.983659625121266,0.984748799984978,0.98573978735474,0.986960227558955,0.988562797131686,0.990428968887649,0.991516276650188,0.993015945878519,0.993986874494663,0.99546873284014,0.996199661989177,0.997670096739142,0.998867566229261,1.00076369073552,1.0025618777438,1.00462889996718,1.01893483694666,1.01918556523074,1.02035157560232,1.02298287532656,1.02462507327064,1.02561290847929,1.02727437839981,1.02849215783892,1.03102480349722,1.03417120924516,1.03642139464771,1.03810757210153,1.03837527053825,1.03981583505212
1.02410076786216,1.02456972595412,1.0241946844574,1.02593952669863,1.0266497256329,1.02853590771143,1.02937675241185,1.02852582252885,1.02670679741385,1.02664918187059,1.02562985607556,1.02587695011797,1.02551851106224,1.02540724368609,1.02484494355906,1.02519784942479,1.02475182435846,1.02654476026549,1.0265515341402,1.03012619414582,1.03206795685168,1.03170031263,1.03074816852719,1.03019556110873,1.031001892192,1.03206510158881,1.03511711635265,1.03199494361674,1.03113379003041,1.02951767141118,1.02942138454348,1.02908321724283,1.03001507634441,1.0305811998056,1.03282286641893,1.02716328884863,1.02324747473447,1.02258740337346,1.02174095982371,1.0202108740292,1.01706782835793,1.01933581330094,1.01942603168835,1.02054608081026,1.01966020883307,1.02149099627421,1.02161063272765,1.02320513496289,1.02450855738704,1.02420713840744,1.02502829077936,1.02409809111516,1.02340922969428,1.02434168134652,1.02396604325867,1.02254636848055,1.01814751313363,1.01893400875391,1.01741325927273,1.01929711948838,1.01818103341814,1.01799684360011,1.01416958588664,1.01417653375406,1.01018561867582,1.01160206077608,1.00914639665175,1.0130811152601,1.01523185386599,1.00935323028293,1.00724638495879,1.00733143189051,1.00633475641065,1.00465836328754,1.00368406801802,1.0042782934683,1.05271071395708,1.00488221112306,0.995385830352858,0.995053155040591,0.994903939445096,0.996196461505147,0.996684601834179,0.9968093193358,0.996223445145083,0.993847894213893,0.987560391025427,0.987330437599521,0.978288868223187,0.977217071450151,0.977113568763177,0.975126200036726,0.971784337614527,0.971887691335976,0.970050350297095,0.97048226555977,0.970154909443956,0.970562225312063,0.969381462493498,0.971602314045701,0.972123886296941,0.971884064338549,0.970994401679498,0.97056233131027,0.970245056808896,0.968309176023055,0.966927647075476,0.965549825789024,0.96455394864261,0.964313643040099,0.964006790636282,0.963986511268708,0.962793577452338,0.963646835347165,0.962843187772782,0.963070525964727,0.96228067856502,0.965339904722418,0.969202330676876,0.960750632764055,0.945620667723628,0.971686973132871,0.973869228267083,0.967646404842322,0.962427801356014,0.964055973361051,0.964959930702637,0.967678970622544,0.969398592548322,0.970422061188093,0.970163922451594,0.969742944415854,0.968109950731369,0.968625907834833,0.968066026028353,0.968764378694877,0.969836970806792,0.974497661666603,0.976099552448178,0.977988459484738,0.979305590009591,0.980617864946099,0.982219763039466,0.983146496858776,0.984165299781153,0.985003469921258,0.985154039169046,0.987687789819299,0.989848059892016,0.990859602260399,0.992223913092903,0.993632775898979,0.995401252444576,0.996721135223188,0.998092734848966,0.999463825993233,1.00069166355826,1.00225056523845,1.00360470571834,1.01817427698152,1.01700882662332,1.01909861723412,1.02117487311406,1.02267727065393,1.02447612910222,1.02534133130503,1.02662818159777,1.0288081789989,1.03401200220511,1.03615643294971,1.03706192274125,1.03617314620815,1.13945074959078
1.02497736638434,1.02453922076261,1.02592863354266,1.02631542820379,1.03133767015834,1.02994681024631,1.03074200682982,1.02867379302148,1.02785821493088,1.02649656510028,1.02630949941691,1.025666585702,1.02594112561023,1.02531185472036,1.02509831270534,1.02517863291802,1.02569763751695,1.02650256375964,1.02815165250922,1.02847566835138,1.02913927943046,1.0293998451211,1.02860854427104,1.02968788954899,1.02964929739719,1.03173175173093,1.0317305078518,1.03306455677003,1.0306367073191,1.03141522040244,1.02849668130485,1.0305786818359,1.02893679626781,1.03174803127332,1.03151775546669,1.02930331787607,1.02387319704426,1.02341546458483,1.02371499696333,1.02198432723231,1.02253787606867,1.0214723987978,1.0228204188245,1.02146859047987,1.02144010888155,1.02189428423442,1.02280648513091,1.02362850314602,1.02462824972081,1.0248072105777,1.02437612405205,1.02652233779673,1.0282125852027,1.02857071363731,1.02951200741844,1.02393400144792,1.01886368419898,1.01853854291851,1.01988896022145,1.01926054896868,1.0222590433181,1.01968853262713,1.02127563038444,1.01622598474673,1.01426741780377,1.01247538616039,1.01587762471514,1.01371439008079,1.01658570703792,1.0106147156464,1.01054053843487,1.00829859108341,1.00747259244537,1.00670791707193,1.00409350644072,1.00688914436537,1.01183328256648,1.0069542453556,0.995558282827615,0.995074819259229,0.995550180790546,0.997046934190099,0.997374901138805,0.997443256889949,0.996205111165144,0.994959959136739,1.10435038305405,0.989950788764665,0.979100468506159,0.978325252486451,0.978209334910327,0.977152650608681,0.977022509709966,0.974020545658337,0.970499330703572,0.971275509289039,0.971235887455264,0.971785238756471,0.973194865055432,0.972579339597913,0.973687041393693,0.971896236902188,0.970336585723546,0.970453292040574,0.970129226644811,0.968461898603867,0.965850324143193,0.965397357749064,0.96332114974694,0.964159997512664,0.963755966344588,0.964853247501207,0.962604061320127,0.964532725409057,0.965075634672962,0.963233399491941,0.97369038807017,0.958128654191294,0.952459160174013,0.952101378833425,0.947725429111304,0.97072057417279,0.972412791925776,0.966856254410361,0.958854133379598,0.964070536306333,0.965199542126759,0.96708632945043,0.970297088452887,0.969969773396336,0.972173005022915,0.969580472460141,0.970014975648957,0.968175886529767,0.969386955820797,0.967900376449711,0.968292206283418,0.975501181239607,1.01167949435154,0.9793041651218,0.979253535663303,0.980613476476062,0.982142092248687,0.982573738821183,0.983990751886593,0.984140777463388,0.98592558825084,0.986566318617379,0.98891798025093,0.989474940950774,0.991027947106427,0.992726161149681,0.995325104908396,0.996324904834651,0.999325825043869,0.998630690784641,1.00127322640378,1.00173407971635,1.00337518902484,1.01605594072945,1.01581281973944,1.01711912289321,1.01950927163015,1.02070453624804,1.02239897136383,1.0241298287958,1.02577642990483,1.02760009247998,1.03289555978027,1.03550315711956,1.0352991593823,1.03356175210265,1.07056797460649
1.02461330952695,1.02515220136038,1.02438105495739,1.02733049684145,1.02961573112357,1.02986210146537,1.02944590519031,1.02916701317204,1.02755466852128,1.02712500973995,1.02505670686804,1.02585758935115,1.02544105799153,1.02556563978474,1.02514202706247,1.02570255670517,1.02555160028279,1.02676711059351,1.02689138653295,1.02826610681097,1.02819057922368,1.02901551426007,1.02864211992855,1.02912353151409,1.02955278929593,1.03063334231127,1.03329968975055,1.03351261074307,1.03838249589084,1.0325731773275,1.0324383541949,1.03145668700305,1.0330225479149,1.03222574998815,1.03355476912537,1.03079126293802,1.02541733646174,1.02497295812377,1.02387743458465,1.02386318977888,1.02172359611694,1.02354514319925,1.02322189099452,1.02454027067295,1.02430134907633,1.02477539046368,1.02406313136023,1.02456248586804,1.0246410176032,1.02477937782078,1.02534796283009,1.02675962620536,1.02970268110187,1.02973422511575,1.03040298103612,1.02477817744689,1.01937543900621,1.02079688218673,1.01884777081222,1.02130428496764,1.0204138306165,1.02167867326846,1.02056008586417,1.01866474312179,1.01386406290092,1.01453333084521,1.01370010150617,1.01612688944293,1.01290728508475,1.01289655856196,1.00965386230236,1.0097714751211,1.00874077147107,1.00826754209225,1.00910376751194,1.0095241663715,1.01318320324148,1.01165585060391,1.01022036999763,0.998217838718838,0.998399328154361,0.998970397961185,1.00043837692492,0.999734704806648,1.18014294022489,0.996301163122843,0.990627492703936,0.990659561021194,0.98075472500458,0.97916573192372,0.977742780071401,0.978194690606907,0.977473185844357,0.977841778023787,0.984407520833895,0.973024116716541,0.973412860509939,0.972907573432531,0.972584508207917,0.973130512278237,0.973181083842319,0.972389311782386,0.970875083740667,0.970520609028612,0.969926215693072,0.968106551886235,0.967362593179369,0.964848613331482,0.963496641372776,0.964121122324441,1.1025526563016,0.969200755769994,0.972929390202097,0.967797536153886,0.970055439463438,0.959677227749497,0.952509869191236,0.952381521119159,0.953533732563574,0.952478261584199,0.95226581109956,0.968739245825185,0.970111509840463,0.966211690697636,0.958126274726661,0.964630062150498,1.13801058175042,0.967643755781678,0.968592667632393,0.971109595840487,0.970665260902153,0.970782802573138,0.967724104041718,0.9687212123194,0.967457525982235,0.968148175850417,0.968826892004464,0.97702740403562,0.98299828746902,0.980096373073568,0.979281040483919,0.97975096724458,0.981161344799708,0.981520324377332,0.982027574157114,0.983202615356224,0.985075548970706,0.985409419870684,0.986836016732679,0.987925066569249,0.989886957716484,0.991416076161959,1.02751179332955,0.996166662757167,0.996720068320062,0.998412110536488,0.998748222867664,1.00262863870636,1.01108442231248,1.01293172002762,1.01231898452987,1.01531252608263,1.01841818809061,1.01909067977744,1.01961331189188,1.02211370609342,1.02582178849129,1.02621346131029,1.02661887738374,1.02718439143286,1.02819669470133,1.03019448977397,1.13547718792589
1.02433835815861,1.02443302841824,1.02554455169795,1.02525260762008,1.02550234583774,1.02811105355215,1.03044405734839,1.02937342196013,1.02922076830036,1.02741882565676,1.02657021758031,1.02589231098645,1.02566894682732,1.02553806479734,1.02555591627197,1.02589710288659,1.02668292286126,1.02686743103936,1.02761326388742,1.02819312358666,1.02881796634548,1.02910735153109,1.02899885090144,1.029344288729,1.02882624670093,1.03050772575644,1.03021451378125,1.03405876245191,1.03479194189338,1.03487852567427,1.03264384497249,1.03394445649554,1.03340137986737,1.03409810207821,1.0339691872592,1.03099282538349,1.02762523978297,1.02639429706806,1.02538448651235,1.02465793040569,1.02522590488586,1.02456094062559,1.02563989773119,1.02539803010769,1.02703193374141,1.02574435330413,1.02588204553872,1.02495690084355,1.02398841824179,1.02508519790495,1.02478047737824,1.02779886692132,1.02928292442819,1.03089322314135,1.03250151533077,1.02544728808529,1.02404341539812,1.02234697878132,1.02288091592427,1.02119432783057,1.02247103176916,1.02101110605353,1.02349036889116,1.01897027856678,1.01979909467978,1.01790542304084,1.01953292476388,1.01775704466073,1.02048462977456,1.01276167627257,1.01119153909259,1.00959573036988,1.00944013343769,1.01005106057382,1.01031855017628,1.01152985980208,1.01206576908484,1.01255784608842,1.01229114645652,0.999385506280908,0.999417749209769,1.00013843938856,1.00101762823002,1.00094637443599,1.00089693805545,0.999627189680407,1.19964976531774,1.12896281216688,1.24709584651354,0.99316630911914,0.980041881640099,0.97939425902979,0.978354420651338,0.978451287027268,0.978058764247793,0.97563981442095,0.974839141307021,0.974018307023954,0.972832116092094,0.97356365814584,0.973770809512295,0.973352967023212,0.972908044887311,0.971535845465268,0.969615930469988,0.96853002842086,0.965442137433161,0.965407977390722,0.96275595150828,0.965428370444095,0.96722283273585,0.968473859342172,0.949004820834353,0.94896877651269,0.950215272467247,0.950565471475551,0.952127305317067,0.953166704965059,0.953378562308925,0.953930095830072,0.964745937173647,0.965793195163953,0.966840466124517,0.964893662711004,0.962155790266292,0.964388377534416,0.96610586786523,0.966533836106755,0.980810371860413,0.971168375464123,0.973520166336928,0.970175164735796,0.969372874848851,0.967386970441974,0.967929794087449,0.966609198186988,0.980387351582217,0.978365716063986,0.981815325793964,0.978784314087636,0.977225545489535,0.978649465462008,0.979340550916851,0.980052223697016,0.981252597773045,0.980844284606212,1.00513728237151,0.983238601080502,0.985167396968731,0.985535632041437,1.01932059395056,0.991022080462352,0.994256804576728,0.99422609098042,0.995386741810763,0.997008730655405,0.998468478609834,1.00380879616102,1.00794610847027,1.01017922597438,1.01132629245992,1.01247636361488,1.01336634594999,1.01488810353489,1.01580858652241,1.0185593834993,1.01986659002011,1.02160968815215,1.02313928515338,1.02209323972127,1.02253422225882,1.02846489506025,1.13969908979319
1.02411046793381,1.02443467895062,1.02473176806745,1.0255134942795,1.02591406460098,1.02821227957821,1.0298349461049,1.0297307357444,1.02898839354512,1.02794885713428,1.02679780951969,1.02627303562185,1.02571723868406,1.02589347709212,1.02598955010537,1.02645614102957,1.02672102187661,1.02742513243857,1.0278359344137,1.02891725865809,1.0295529035621,1.02996055915923,1.02993706110378,1.02986406071362,1.02970761707354,1.03036852685293,1.03126857243824,1.03399696062194,1.03578869780172,1.03563596565084,1.0354487872147,1.03510679086456,1.03515650444179,1.03464824068532,1.03425999070353,1.03197842921329,1.02985669580716,1.02829864747045,1.02648912424099,1.02658707599277,1.02592098227568,1.02637168294819,1.0260259975669,1.02642364899791,1.02686651304779,1.02656731657609,1.0259297123353,1.02559225363975,1.02527613664834,1.02576908847778,1.02664140175004,1.02845304562341,1.03024683880921,1.03092633392408,1.03084859337458,1.02808065904042,1.02596290062453,1.02448314303175,1.02247750365901,1.02175068097978,1.02104509857845,1.02053491491573,1.01972399045056,1.01811605614211,1.01736038594953,1.01732404881079,1.01768517946747,1.01828469587282,1.01776726661099,1.01496928047911,1.01098703424586,1.01083490019229,1.0104753302154,1.01119221236017,1.01174282304313,1.01198216645988,1.01255376069034,1.01288086155061,1.01326878485296,1.00122170983961,0.999972170419988,1.00074816930227,1.00159621925353,1.00200996649946,1.00208996664381,1.00214401465041,1.05965529966906,1.1278323564922,1.12896283114117,0.996765269631352,0.980951984850031,0.980656062276345,0.980005963580246,0.979405246184593,0.978467350870238,0.976760259929806,0.976050795389172,0.974847824247454,0.974298073554764,0.974244239950721,0.974600733593556,0.973907500188772,0.973679495131826,0.97202112130503,0.970967522871056,0.968983189537705,0.967775234732655,0.965990082745964,0.965307006477762,0.965541376047224,0.966690641108249,0.967507855022624,0.94874560557804,0.948778743132237,0.949322762775408,0.950812104892457,0.952414141058865,0.953677451489801,0.95522973995419,0.956324304021872,0.95991041102368,0.961646679352089,0.961170594100799,0.962461758648727,0.963048823715134,0.964320130381806,0.965315660177109,0.967100553781218,0.96881308475027,0.970954788051849,0.971087903838572,0.970816237434769,0.968537858705482,0.967646020830345,0.966283479705167,0.966589297175424,0.96884429554529,0.971949223892392,0.973112890309795,0.975392783630502,0.976569007160874,0.977639081080341,0.97836788663085,0.978942364108157,0.979332812299593,0.97954713516668,0.979677628124784,0.981222513822588,0.983319941978441,0.984372287181524,0.985972914454859,0.988739667860975,0.99137470293552,0.99297345434296,0.994678037115374,0.997703611686056,0.999259893747238,1.00456710815262,1.00699130113369,1.00878865990797,1.00979476440512,1.0117268596842,1.01271605900495,1.01434626600688,1.0148193541629,1.01746620016639,1.01894242305332,1.02050614898712,1.02081862650006,1.02139515728764,1.02278715350552,1.02855301587088,1.10799344991627
1.02364724557684,1.02413474405976,1.02435176210281,1.02521979059794,1.02564510397899,1.02843037585232,1.0310956626112,1.03068141874145,1.02915541492419,1.02833689697316,1.02648210849977,1.02656804067847,1.02485337667439,1.02628322095407,1.02626088716017,1.02691772389969,1.02711704307716,1.02771850358609,1.02845386662745,1.02943453864429,1.03154952279285,1.03070789529106,1.03154160078316,1.03020189705598,1.02945578723026,1.02990156218362,1.03012224813739,1.03534644603379,1.03665214078332,1.03703388185282,1.03632122941365,1.03658824770371,1.03603961717544,1.03596273340695,1.03526107306703,1.03349684920875,1.0311364579943,1.02961234399067,1.02798302303274,1.02767844224367,1.02776574091912,1.02747736203425,1.02685547608609,1.0269358596202,1.02757789707882,1.02708713903447,1.02541624365991,1.02556236272901,1.02516936263249,1.02587673977263,1.02603155245473,1.02944033988831,1.03099221068445,1.03145813083015,1.03140150916319,1.02981421338123,1.02744623871325,1.02606146436482,1.02258817333942,1.02155218702873,1.02168096244772,1.03682455256597,1.05231295971825,1.05728021586876,1.12269521399292,1.06254526238576,1.06330211245895,1.01824925129002,1.01934786850699,1.01728195183449,1.01046818645399,1.01094547169369,1.01128067306184,1.01235646267025,1.01272513071083,1.01268684548423,1.01244466488701,1.01285606142312,1.01347140979121,1.00432992625273,0.999368720231512,1.00178694058409,1.00175206881619,1.00278238730132,1.00201410187229,1.00372901270916,0.993043341326219,1.12543889905607,1.32367304685257,1.00132184447535,0.981657838601372,0.981294021162701,0.980730749053976,0.980262609657373,0.97826364026674,0.977892156933666,0.975163370581277,0.976263025037524,0.974183206309376,0.97572987597132,0.974252921151675,0.97543983644036,0.97358546100179,0.973505202400727,0.97058111112855,0.97048654682847,0.967339684776267,0.967547203528515,0.963601608134534,0.965568924451736,0.964002053127743,0.9654529427308,0.950743337100556,0.950391107438092,0.96815506870459,0.952842933856311,0.952601519016079,0.95535177451562,0.954808649198134,0.957436133556337,0.95713896147985,0.959676528537709,0.957970374557819,0.961234795771734,0.962462388081021,0.963626324237441,0.965382565183623,0.966801255736969,0.971357830450733,0.970433290736625,0.973107199845126,0.970357617414243,0.970598901579846,0.966864865765455,0.962553398670393,0.962212064632173,0.962180922725518,0.973593304104766,0.971796857091308,0.97391079360456,0.975889618906046,0.977301557910584,0.9775973665112,0.978141570885231,0.979559032684774,0.979109683165829,0.980792789887421,0.98100807454537,0.984532180785338,0.984940227409616,0.987096700182501,0.988668807420072,0.991421754464342,0.992211596273456,0.993587907786938,0.999197107983276,1.00037334384626,1.00480061569704,1.00710557834508,1.00774005818192,1.00947336405491,1.01061168936343,1.01412353969338,1.01281853941186,1.01486409823521,1.015713067189,1.01972570133211,1.0186655804471,1.01981527399564,1.01901065582049,1.01813373293264,1.03013104026214,1.13771460145856
1.02336991237052,1.02339912002688,1.02391310660098,1.02484751422782,1.02603824617534,1.02853089341725,1.03371207057114,1.03188184833653,1.02950604943028,1.02871194688188,1.02807228965338,1.02770673099038,1.02750423738577,1.02749823611349,1.02772341650001,1.02809616633586,1.02806937243728,1.02895030451291,1.02883766902432,1.03029412776605,1.03012484371909,1.03124849035956,1.0305244395108,1.03095010695699,1.02965576898395,1.0306797810712,1.03023154242695,1.03553030764891,1.14435725244,1.03918667567362,1.03925119285135,1.03823296154662,1.03698811342937,1.03730788153308,1.03762703956297,1.03498216191826,1.03284249381681,1.03241328373836,1.03164510226825,1.03117524488654,1.02933929569361,1.03159385059967,1.03293372929581,1.03560410972415,1.0364945239594,1.030722113701,1.02571625475505,1.02554081974623,1.0253476215001,1.02544344802649,1.0256897065762,1.03094285575601,1.03148185741346,1.03157797152434,1.03197437168858,1.0306862418265,1.02995914571806,1.02867846919289,1.02884239609082,1.03104927798865,1.13652075295005,1.0751472204357,1.11281112286261,1.05878278573493,1.06047986973431,1.06093881763527,1.01630277556042,1.01887834727727,1.01745153214389,1.01862458371191,1.01803920207018,1.0179121320039,1.01658046487739,1.01529884801813,1.01433359226888,1.0134862786076,1.01294556081557,1.0126778795923,1.01197376293026,1.00678037600395,1.00540232381159,1.00403455119779,1.00436269443449,1.00379210388741,1.00337640592713,1.00493911969068,1.10504970223308,1.11847974463767,1.00216932985942,1.0048541716398,1.17269379622304,0.986074284852122,0.983328188289006,0.981047394507069,0.978865572520949,0.977609397566636,0.980027248044882,0.977114544877531,0.979443591592035,0.976759346647992,0.978559826551028,0.975448621482269,0.976539062801927,0.973394532546544,0.974123826600827,0.970392075763043,0.970740269269822,0.968442718336012,0.97096925180668,0.97012101507053,0.97298947654056,0.963077189981538,0.954672272912419,0.953346140158045,0.956121704912053,0.955452797658831,0.958995939091559,0.957194191716645,0.959660970479869,0.957784012244622,0.959386966867246,0.958496997697526,0.959064973637924,0.960087837768295,0.961516444270027,0.963288011621598,0.965428968554433,0.967201721360818,0.968239849190553,0.971511263977071,0.969900891410775,0.971860809013432,0.968684883475478,0.965852430651315,0.961768355034281,0.961511694478524,0.961721877239224,0.974158673445004,0.972692421956505,0.97202457422351,0.98291246609235,0.977901766159234,0.976774053850191,0.977597457207438,0.977679694182036,0.979008657905849,0.979467957856496,0.979664053821598,1.00537701391726,1.00610091133744,1.0096661236847,1.00174071277018,0.990015836968704,0.991601323056404,0.99304378040251,0.999038506187664,1.03509004340503,1.00467262589789,1.00613539150565,1.00744310589398,1.00796653238195,1.010152739481,1.00999544860327,1.01217198703869,1.01053641002317,1.01518180990776,1.01613334823319,1.01814046979802,1.01750647049991,1.01758567781446,1.0154750979207,1.03211646884449,1.13601927478677
1.02241543518558,1.02350271933284,1.02328029036376,1.02469750245021,1.02566603869516,1.03053498861977,1.03491758449153,1.0339510812979,1.03152973380566,1.03006406612008,1.02865851760622,1.02955070730104,1.0283552222596,1.02892787192478,1.02841105201743,1.02913325410388,1.02968651181683,1.02985021502645,1.03063560123924,1.03082319658428,1.03202224423472,1.03162447649112,1.03181849014222,1.03180811465028,1.03216856639663,1.03198035687069,1.03130461727732,1.03597949745153,1.04141906622631,1.04060055355026,1.0405678024538,1.04002754989124,1.0401203703274,1.03902673442472,1.03837182991342,1.03678887969839,1.03494044521595,1.03424849958636,1.03411844342389,1.03351660137699,1.03467312429184,1.03369338981899,1.03507642507511,1.03537459071705,1.03609051609651,1.03767815893113,1.10695564029865,1.05725879284169,1.02500171525501,1.02531409990898,1.02504063618988,1.07465200296112,1.30796031910467,1.08061071603567,1.03225609895854,1.03216135837372,1.03092290519427,1.03206649163342,1.03082979545165,1.03223107833423,1.03119113425385,1.05224653297765,1.05186560284304,1.05596526331348,1.05118472921573,1.05931336206982,1.11779861186072,1.02177643088265,1.01696364228934,1.01918235444998,1.02151048237688,1.0185906653106,1.01912238171408,1.01620398813852,1.01589816474895,1.01417885756908,1.01287884397468,1.01270396916752,1.01129623701136,1.00904502146552,1.00569666462354,1.00614141712296,1.00507940914617,1.00555139752356,1.00469736584895,1.00651030472991,1.17461070927952,1.11896554803357,1.1757330469758,1.01018526304807,1.02064036135904,0.988085367883979,0.984423315584472,0.982289117292781,0.978774564183004,0.978537944133357,0.977403478247909,0.978785514711058,0.97754217716856,0.979395724520553,0.975700484883638,0.978084123102184,0.975417995135131,0.975819224096747,0.97159936296823,0.972583473918704,0.969331412438196,0.970779410423957,0.967894354287958,0.970694250733486,0.970025932681482,0.96064211541604,0.954568921896463,0.955008308444389,0.955050525621756,0.956993367941575,0.956960625406269,0.959211372914229,0.958489221831155,0.959549308708326,0.957406575947848,0.959412342164947,0.958858674692808,0.959932491997191,0.95998905988956,0.960748484682343,0.961209390757523,0.963622478027733,0.968705278534118,0.970111683038129,0.971695612446797,0.972266644723969,0.973784841540618,0.962127691529553,0.962482402054379,0.961036790011204,0.960401544803265,0.974707616053976,0.970830029199921,0.972152651493584,0.971005753651798,0.976054458738258,1.00676353488619,0.976871615636139,0.978225663488817,0.978188303864847,0.980213624012223,0.979027226976206,1.00394166208077,1.00574704323157,1.01013034994639,1.00678799729552,1.01523519172866,1.01652472887941,1.03349643189717,0.998632154285981,1.00142089882508,1.00313380447623,1.00603218376715,1.00638727547367,1.00848068235628,1.00829661309525,1.01039631200785,1.00947467403378,1.01243625809208,1.01225899977972,1.0166321198712,1.01474190064063,1.01582538536006,1.01532999379392,1.00444442617515,1.03374090835121,1.12875409664835
1.02261866315697,1.02318664991395,1.02405826649896,1.02465820426539,1.02414149920383,1.03313224974444,1.03589616503222,1.0354520783085,1.03607018749166,1.03700123611739,1.1660988207334,1.03181569223759,1.03043195026939,1.03153011332648,1.0320220831529,1.03169324204056,1.03121588278036,1.03128312664761,1.03103716714306,1.03212960523056,1.0323428223731,1.03323641767756,1.03341159955535,1.03373223612556,1.03347281703304,1.03441482954144,1.03542260278878,1.03740201082932,1.03955559886004,1.04117349653845,1.0425645092954,1.04106654497585,1.04047690403539,1.03980274615799,1.0397348489332,1.03787930006068,1.03644248333205,1.03598519104426,1.03548812779619,1.03572660887901,1.03485206132986,1.0359871320542,1.03496993485868,1.03656903265626,1.03607187677994,1.03822283673332,1.10963068826098,1.06897252330159,1.08696191859766,1.07382702329582,1.12603380695599,1.11854283143196,1.13030099004979,1.12910374194271,1.13373535248843,1.03663231415385,1.03289334632596,1.03275620215441,1.03313045020424,1.03270491289864,1.03353737955108,1.05297715861798,1.06110064551626,1.06058988616713,1.0580708502115,1.06058880792607,1.02325009353377,1.02365482218027,1.02389653756795,1.02187240474366,1.01936271207283,1.01935924142663,1.01833346472277,1.01666309701909,1.01536173560832,1.01417266830564,1.01428707338745,1.01264654586687,1.01254899642191,1.00984433696039,1.00918327945143,1.00743318122423,1.00768558820562,1.00681596034622,1.00669787554591,1.00780251774507,1.0088246515284,1.00791776664162,0.997316434746356,0.997165711584064,0.996867860285542,0.99739681574781,1.1178382997934,0.993363525481435,0.985372145668276,0.986502386523916,0.986821798628333,0.986025146683676,0.986440581319645,0.980691653292678,0.980616931817135,0.978577299136822,0.980634223005805,0.976303052123516,0.975932839824661,0.972688050734804,0.97262979923604,0.97046649287529,0.971765024043876,0.969692820828884,0.970483556950329,0.959347056967166,0.954668081162247,0.954864104126346,0.956174830992814,0.956673426058503,0.958761360658468,0.959118909359946,0.961326083534215,0.959788393357563,0.960392960559212,0.959350695039471,0.959615399112164,0.959377245161066,0.959175162981993,0.959948524181213,0.958791432254741,0.960839501090021,0.959210629037733,0.959039979530206,0.959529138905679,0.959215507329821,0.959924755811319,0.960389402111889,0.975985405284549,0.96966305846628,0.978219854952946,0.974687638622033,0.974348984446935,0.972427702881364,0.972635174214338,0.973820385869788,0.974328970771532,0.97572950887338,0.976215661305838,0.977784850938078,0.9783614336957,0.978897627462687,0.979849880780458,0.97980704176273,0.980863018998435,1.00302902190792,1.01336023195675,1.01854352163671,1.02724528236441,0.996957125156195,0.999634057209802,1.00155354582983,1.00285645888,1.00543244390474,1.00766677935848,1.00805030313899,1.00693829963796,1.00890341467763,1.00776611236166,1.01085784557267,1.01041040186958,1.01276391334611,1.01202364092201,1.0132134087798,1.01124217217361,1.02844722449167,1.11225725340381
1.02264224995535,1.02379741247438,1.02435925143924,1.02503620318476,1.02562410574554,1.03579150388766,1.03653431325147,1.03671352685614,1.03672544022226,1.03728702517953,1.03660632249162,1.03468519641261,1.03326280971896,1.03361510671113,1.0339745073964,1.03305184874709,1.03227322882063,1.03224287372662,1.03236762592451,1.03301425308312,1.03367864307536,1.03436017364417,1.03452559982299,1.03541319610941,1.03561346380171,1.03646454796917,1.03709448999201,1.03878281261778,1.0401174027277,1.04157381181648,1.04188031354267,1.0416832589489,1.04064467297962,1.04076844202055,1.04013321134098,1.0393625673936,1.03815978113587,1.03768896714549,1.03757144583781,1.03743364122925,1.03743350607679,1.03780051185927,1.03825834283628,1.0379996592303,1.03822338469868,1.03913461301169,1.04610826464375,1.05574655960392,1.06097916126732,1.0667324949964,1.10494604325368,1.11050897404992,1.12692645684365,1.1266899001801,1.12844405669497,1.04374161653139,1.04224184937414,1.04087061611246,1.04062759086087,1.04036490705664,1.04085197003694,1.05356041182048,1.06424844535331,1.06375614373927,1.06227924228947,1.06246997386666,1.02715963875677,1.02579365608776,1.02465185703925,1.0234255173174,1.02188392133548,1.01863220140148,1.01743692870847,1.0156389390654,1.01395829950964,1.01356642787582,1.01295653846595,1.012782697036,1.0117807432947,1.01065143943685,1.00887449753075,1.00849956425451,1.00793176846773,1.00811464830004,1.00796658870554,1.00880723373603,1.00889974067675,1.00573827056846,0.996655161353077,0.996618177134327,0.996499723604876,0.996681536203762,1.00173904800177,0.995656796303794,0.990217833746051,0.9892336086261,0.987023058784641,0.986740255521516,0.985094213068411,0.983439160990437,0.980870812424083,0.980581193745425,0.979006655014338,0.977778632209406,0.975408638183201,0.974055578175461,0.972122125882059,0.971448032920893,0.970441829618561,0.970057465038028,0.968200292561783,0.959836162037165,0.955362284598148,0.955872691559366,0.956314037213877,0.957928122957893,0.959385286951831,0.960551418630878,0.960894845740628,0.960898194240851,0.96049074172703,0.960197178698704,0.959703857293226,0.95972076717432,0.959566454891567,0.9596378268512,0.959688514539565,0.959653946605584,0.959422440521449,0.959070926515146,0.959409636350509,0.959357009176885,0.959988988528107,0.960904532645021,0.965360173525834,0.969461172413209,0.972378144039414,0.974140237401656,0.973352145405725,0.973283172325677,0.972669543727885,0.973303943105833,0.973519066614383,0.974991318190625,0.97638403339732,0.977400971333734,0.978376373740789,0.97843969853201,0.978831083918112,0.979219415392011,0.980000840189626,0.999512776917503,1.01112107567049,1.02256556642086,1.02401565328074,0.994866260929712,0.997976486840614,0.99999913234762,1.00189403282295,1.00358745093812,1.00679151912946,1.00669969115803,1.00721963372847,1.00725077345629,1.00840223889181,1.008713751304,1.00996941884732,1.01046181362598,1.01134476727976,1.01144764264429,1.01154517248329,1.01245774623623,1.01433417547003
1.02307887368223,1.02367502812184,1.02532497259542,1.02548979959641,1.0262497126287,1.03736723758703,1.03690056605739,1.03724750166805,1.03705604681493,1.03723727387431,1.03639535229605,1.03536769985567,1.0338200429812,1.03493721081761,1.03639193630133,1.03425416687867,1.03273190734105,1.0329877631354,1.0327173889565,1.03387440610223,1.0345688652732,1.03517789606312,1.03661464062207,1.03654845464551,1.03797850829212,1.03788899052136,1.03858081078141,1.03973931893902,1.04161366086549,1.04191646685776,1.04332003386216,1.04182543021102,1.04172911596719,1.0412527099502,1.04224633364371,1.04048968088262,1.03974767875609,1.03910937023389,1.03867590770983,1.03992220223219,1.04092980279353,1.04074659748213,1.04009258088772,1.03964404231216,1.03826604045459,1.04009511957084,1.04088716123443,1.04269290090144,1.04314381829183,1.06102139593672,1.0935068719743,1.10510485222702,1.12605081299819,1.12485129730701,1.14012845549271,1.04400954311197,1.0414804973411,1.04039153406687,1.04007034699669,1.04053097890886,1.04079904914454,1.05322109271612,1.22156018087519,1.06461709356152,1.06164160227541,1.06314396208689,1.02882882108723,1.02669052279226,1.02510951221168,1.02466981569427,1.02464642645789,1.0167378497588,1.01696238696144,1.01419368136574,1.01273864685767,1.01198939023991,1.01351995447217,1.01207515704371,1.01422552295059,1.01025972614454,1.01005730442224,1.00825470728076,1.00904139823431,1.00829927710808,1.00855312405818,1.0088199600433,1.00972192261631,1.0017235156639,0.995897481601759,0.995923781041053,0.996203191876858,0.995572223257501,1.02121742485726,1.01048567770459,1.26849478255998,0.989515342309617,0.986043305825135,0.98614278833939,0.98767548065001,0.983819759518446,0.98398051059144,0.980697674397073,0.981591750441829,0.977884278510239,0.977097303195427,0.974317087615129,0.972680793860584,0.971700526248683,0.971258922771539,0.97066623807178,0.9648437910831,0.961019792856578,0.957051104937855,0.956818426976017,0.956557004373999,0.958070447219123,0.962463186040143,0.961682802013759,0.961929419519367,0.961843500053164,0.961215995190723,0.960880601970877,0.959811454968014,0.959958944471871,0.959951153415866,0.959602687987771,0.959660598126086,0.959407541976597,0.959072822362751,0.959665671352009,0.959244898034325,0.960262618157402,0.959501519451788,0.95902675272043,0.955902825978365,0.955286086176438,0.956039525620306,0.974456182402474,0.973299680115896,0.972819772660732,0.973389870948927,0.972389461164715,0.97239446445131,0.974229975095171,0.976653594280166,0.9778158234191,0.97950117906852,0.978787210179318,0.978449901532769,0.979121223067336,0.980450120457606,0.99672512791886,1.01056406784667,1.02545878630811,1.02667398361362,0.993794743621948,0.997861556229645,0.999016512705847,1.0006664259983,1.00150605315719,1.00720580866841,1.00641086208446,1.00573023041833,1.00646904621995,1.00685483921917,1.00767510600958,1.00834861233282,1.00925575116698,1.01014017512917,1.01025772589592,1.01045517640291,1.01135163942842,1.01216580225722
1.02302943648863,1.02427423863576,1.02404052311427,1.02516806585497,1.21037653268041,1.037739566183,1.03774663360651,1.03784560481085,1.03806177821885,1.03752897477048,1.03602330590866,1.03578666418689,1.03562624221919,1.03575140028956,1.03626018318427,1.03541577170676,1.03363988661374,1.03461487671449,1.03473276450978,1.03546469932074,1.03601314498617,1.03805033020993,1.03864190605639,1.04013889242384,1.03853814252488,1.04098547166004,1.04099963875689,1.0428273852118,1.04159192793372,1.04449188132768,1.04325212359391,1.04412138250093,1.04119711779081,1.0433569857406,1.04243732476286,1.04241262841432,1.04135508449464,1.04009832600047,1.03982569883156,1.04025704146803,1.04274035660584,1.04149290085168,1.04247339882342,1.04067152311648,1.03987160359537,1.04094824769225,1.04174755398984,1.0436464455588,1.04532756937377,1.04652553640144,1.03937193125333,1.07872764528767,1.12824830122748,1.0851674671359,1.04826633104416,1.04594613401751,1.03984117581148,1.04039269984702,1.04080382730513,1.04405257391383,1.04795021271093,1.05161525391033,1.05083463194227,1.06549924423668,1.06317959965807,1.06388288104238,1.03320724335878,1.03572578497521,1.13466343304559,1.04052268008474,1.03769474650397,1.01622464097542,1.01538467960944,1.01373502864527,1.01063347115876,1.01176058134137,1.01019412711007,1.01218319137996,1.01075810253818,1.01070737081433,1.0073397635771,1.00893104202055,1.00762385426506,1.00879206556205,1.00755621876359,1.00823592043859,1.0091768075137,0.998951299440141,0.995339686682122,0.996055998581243,0.994615769410401,0.995537011363595,1.00648967816863,1.00961608742091,1.26716386883165,0.996659627947931,0.995265352121874,0.987420425685876,0.98633789122593,0.98564926749207,0.980531981876899,0.982055681278446,0.978398105531787,0.978847240737491,0.976148836052941,0.975024523881551,0.972795626931784,0.972101729534785,0.971360489165631,0.970992146875826,0.985855558583304,0.959420780834798,0.959165692212906,0.957612720213063,0.957284607400446,0.957531598585135,0.959335793169579,0.961689875845242,0.962598849730797,0.962320543444294,0.963376306816641,0.961468431031847,0.96080764394811,0.960305286661731,0.959794149050698,0.959844470881796,0.958949182762111,0.95973327599253,0.958856157970432,0.960709850874746,0.962615849351846,0.961411967678228,0.962623219702581,0.958583182249829,0.956079789232114,0.954944746265684,1.20722802781563,0.975546259581188,0.972843132007903,0.973233995120398,0.972038000304451,0.972498674119301,0.971399948263611,0.973739019224414,0.974711563446648,0.978271402866286,0.979725216839727,0.979404071396568,0.980222385508333,0.978854913905942,0.978930792637173,0.994253930091277,1.02669944807668,1.02670503972023,1.02641755150763,0.993602094410557,0.996719996403884,0.997934752828485,0.999704337798419,1.00001922478761,1.03586462874485,1.00435428077742,1.00512268861372,1.00424945491978,1.00522727732905,1.00526654100313,1.00568907599891,1.0074962350037,1.00893496846033,1.00944487882988,1.00976577213297,1.01049648804427,1.11188891678393
1.02445947723641,1.02354641683834,1.02379571579996,1.02439858763379,1.02445642860232,1.03721599035868,1.03667701601757,1.03783965752538,1.03862234187549,1.03806613301438,1.03729948490709,1.03974155741679,1.22775786868473,1.05161705322027,1.05265993697398,1.03660362105734,1.03564781236574,1.03590059745167,1.03634280156044,1.03640085778827,1.03763287312273,1.0387629934017,1.04258273678024,1.0425192312554,1.04435856890838,1.04351230428739,1.04542384986126,1.0443060438036,1.04510841749118,1.0457299873803,1.04895219658361,1.04663013967546,1.04886435958579,1.04646335573657,1.04667646371061,1.04344374445455,1.04314417278278,1.04107331399697,1.03965873023237,1.04175265562936,1.04158469714877,1.04295198455821,1.04189334563995,1.0424023654332,1.0414977812812,1.04296338377036,1.04365732162923,1.04539563440365,1.0465894499547,1.04787839629832,1.04933944580836,1.05022229891426,1.04996510074256,1.050172085354,1.04848805056312,1.04658627773623,1.0467001302288,1.04409753385251,1.04236382376859,1.04679683740377,1.05318595138345,1.0532500054337,1.05155904747935,1.06589839053433,1.06372569590492,1.10162161138671,1.14925871168655,1.03698552266031,1.03877055798662,1.04084292386377,1.07836563016762,1.01647951603855,1.01436995349738,1.01135849095111,1.01050640489341,1.00903291975315,1.01047519836425,1.00973616153805,1.01308132523988,1.00870995621892,1.00918524228663,1.00771126395636,1.0104605442894,1.00878312258964,1.06141238701446,1.00617060811655,1.00248571774545,0.997436286741215,0.997562791801628,0.995667166879367,0.996793998759255,0.996641340946002,0.997416429744642,1.00527095215936,1.00623298214152,1.00031793335001,0.99204559889346,0.988473510703853,0.990064657331146,0.984928831786247,0.985817683647064,0.981421248084192,0.981812943599717,0.978058815265356,0.977665426794712,0.975228590675784,0.973837386025775,0.973180485481544,0.971948736164996,0.971477131000845,0.967598439176917,0.958390377727081,0.958228096097813,0.95807664736535,0.957869042859789,0.955882902280236,0.971190645736557,0.963754815319106,0.961721296370938,0.963531535917039,0.962561954397413,0.962581429166255,0.961712080838409,0.961075117280074,0.960290723761177,0.959898368787257,0.960048566180262,0.960288842978422,0.962067650059211,0.961841855914587,0.962608322724544,0.962375825918838,0.961961971581272,0.958265322480992,0.954817848489681,0.955245645459942,0.976846947503003,0.976287736719151,0.975156718835051,0.971835105877343,0.972002974409033,0.971368811537677,0.97276954011467,0.973228317640899,1.01611969385503,0.978929287798164,0.980851441313099,0.979465953420272,0.979623058840765,0.978016999092221,0.978209349281694,0.990831689253117,1.00771119020477,1.01718421018436,1.02535163813581,0.993862034883049,0.994620140391035,0.995638694163189,0.996207740479108,0.998538170495066,1.00117557062516,1.00155774317343,1.00098642982863,1.00233287514623,1.00236423962902,1.00389047863287,1.00402420852597,1.00619406787364,1.0076985410086,1.00819056409581,1.00865204614272,1.00999321713873,1.01138930039201
1.0228793837971,1.02377058883964,1.02296135026403,1.02492507067113,1.02550803156204,1.03640792345652,1.15579791508027,1.11766897662527,1.13882328986002,1.06309551630942,1.04420305115862,1.04638705669288,1.04601852228165,1.05074698181068,1.23139305095763,1.03880221365476,1.03688969168789,1.03963844949334,1.13152442394249,1.08399709372419,1.13043181525962,1.04798917803199,1.04566211297844,1.04577527439523,1.04545397015954,1.0463770166449,1.04591217130958,1.04800935546229,1.04922134664999,1.04881119978523,1.04726009199049,1.04828322943214,1.04709753311234,1.04884244459302,1.04875717552865,1.05261574804849,1.1113119324267,1.04873879303827,1.04535666089248,1.0426294632441,1.04426554760723,1.04351655286384,1.04385723982448,1.04370085235534,1.04405017548717,1.04474364023761,1.04626424162746,1.04706037709208,1.04838019510231,1.04944602668256,1.04974287613308,1.0512155827536,1.05086310439808,1.05263432410938,1.05353676799231,1.05518417296354,1.05399426057919,1.05439300442296,1.05377528393262,1.05466155775048,1.05398723950547,1.05421409219131,1.05387437657471,1.09554399261349,1.18411506026841,1.1398086709235,1.14931842343511,1.03574121379193,1.03950889628273,1.04050257764279,1.01454014433679,1.01763998597131,1.01153677538626,1.01007037474965,1.00717143878442,1.00876693676318,1.00777162268108,1.00956427454419,1.0074993539219,1.00825648035659,1.00542793153873,1.00770431502601,1.00933926948939,1.00813619076293,0.996102511028609,0.997505441278133,0.993808276458627,0.995086081500042,0.993990913850723,0.995891406563377,1.00307193959197,0.998566252695184,0.997529315688042,1.00217114819921,1.00463423216675,1.0016681247868,1.02454313011853,0.987341499772183,0.986280654425172,0.985706841362317,0.982785430061406,0.982858319524108,0.979001244811155,0.978630308577316,0.976414558542283,0.975978221252669,0.973668668182687,0.974289656259364,0.973978415066286,0.972959913086192,0.957759524958356,0.957980055035675,0.959171886945822,0.957623981178657,0.955192862152548,0.95408232079737,0.952996772564909,0.965832339496568,0.96879879285658,0.964490198751576,0.963779582586856,0.962391251031293,0.962290155068527,0.961280111857013,0.960997321055477,0.960360756242027,0.959502583231633,0.960750273258086,0.961626923343898,0.961920532683287,0.963049393451275,0.961729752596961,0.962319523884322,0.957718039008282,0.954587991280552,0.9556126767441,0.965173199590716,0.965105531301835,0.966947257265399,0.969249040459885,0.96944787884112,0.970899351799228,0.970907654160939,0.973924318315847,0.977115739907909,0.978146311793358,0.980164249267787,0.97834938408822,1.00341672561922,0.975862934367383,0.977030472918089,0.987690160587905,1.00784436098012,1.01310604246797,1.02648130079204,0.994399534792942,0.994051687964412,0.994112072746491,0.994560616345759,0.995659941459651,1.03311329498648,1.00029499862773,0.999355775115705,1.00008934331497,1.00199608327486,1.00277937578149,1.0045762247918,1.00555138912646,1.00677630802223,1.00777964594567,1.00829246259445,1.00991049279994,1.01122987680908
1.02329075830702,1.02410862879021,1.02445689688471,1.02552741039966,1.02605283302088,1.03492903657558,1.11783131423401,1.10271967087266,1.09168421334728,1.05944119333479,1.05807584037697,1.05823956143176,1.05868248549985,1.05030689645311,1.04864686446199,1.04171064606364,1.04249326386219,1.04269313686461,1.04644686811999,1.04810185521905,1.04878409138314,1.04842503123977,1.04749534891782,1.04697539392611,1.04728764876792,1.04748693475314,1.04820770857458,1.04925513345473,1.04995833094401,1.04938577192635,1.04899387629539,1.04855100817534,1.04966439910072,1.05022725024349,1.05188216881411,1.05434262732701,1.05567058034098,1.05357915468745,1.05118481268518,1.04895577590921,1.04746426764037,1.04631087097102,1.04584387222399,1.04570924341122,1.04555145238483,1.04635731398557,1.04728013610706,1.04859398138923,1.04987165033738,1.05107279654633,1.05156376291221,1.05241481225471,1.05294027957718,1.05412723297345,1.05542629264576,1.05575094118858,1.05494670866361,1.05483306779819,1.05529370538213,1.05624804742181,1.05608526480716,1.05719184741016,1.0577469580698,1.11770488843747,1.14218992756634,1.13065910979611,1.10077658618532,1.03302658668905,1.0366027756632,1.03879730537648,1.02268853425741,1.02107172218062,1.01019130315348,1.00836405035124,1.00732908369715,1.00796463642885,1.00912847143776,1.00926995205395,1.00930742232728,1.00779265975313,1.00614811645099,1.00442359379244,1.00415766773563,1.00441049252589,1.00263994189582,1.0000768934274,0.994546160442518,0.994316167940825,0.996022307055436,0.997466339536507,1.00022938271775,0.997459126556761,0.996377665270018,0.996897220993889,1.00178322904588,1.00016967207489,0.999467012726329,0.986450997603738,0.985943613984726,0.985258600716465,0.985080108995483,0.983701750898386,0.980395472303065,0.97809222510713,0.978085028094624,0.976894201542518,0.976372055341747,0.976138859929625,0.975821320560472,0.973140529884961,0.957574008060991,0.958169849370614,0.958575137536466,0.959094050985609,0.96002932431651,0.961619408192461,0.963238367331158,0.965185966176272,0.965466309995944,0.964799997656008,0.963188693996976,0.962950294762138,0.96189629463889,0.961793618242698,0.961039539814139,0.9608092266404,0.960305231750239,0.960880223662867,0.961191339161288,0.961708758043959,0.961315568653613,0.960969432780785,0.959690470687424,0.957522874732744,0.955399433988089,0.956415593100979,0.960027656649932,0.964009981969589,0.965637551347212,0.96730901310103,0.968754975639176,0.969884700964417,0.97186130755503,0.973524892769954,0.975657805621953,0.976669564131444,0.977345340953287,0.97590381747877,0.973982131917442,0.973960443576462,0.974584952524693,0.983955165374549,0.983354526566167,0.982478750375071,0.983410130137852,0.986204916682429,0.990247262055922,0.991894156026493,0.993303749037803,0.993889203107701,0.993751242111673,0.994706179859758,0.996408389816268,0.998142455036668,0.999461392457045,1.00164274898414,1.00321251173947,1.00469577901909,1.00612153240743,1.00726823869741,1.00854137706906,1.01029933550241,1.01247063205961
