2.32447766966867,2.32554335817978,2.3258318609821,2.32693081488441,2.32680704249394,2.32461201545624,2.32338398226323,2.32363216967364,2.32458636248591,2.32335697826302,2.32362470556767,2.32357495959957,2.32360622551828,2.32455997052795,2.3194597042288,2.32140285805987,2.32056812934557,2.32161278143388,2.32310771876838,2.32331430997861,2.32211970345218,2.32184976292015,2.32185785947543,2.32239792774443,2.32243018920668,2.32258966742401,2.32297076158749,2.32304121161526,2.32330923010057,2.32404159874538,2.32434411599596,2.32391609144856,2.32538602692716,2.32631461854428,2.32694082646605,2.32738018308039,2.32765665721546,2.32798626563039,2.32897330609866,2.32956586119753,2.32994338938431,2.32997932653843,2.33159547237657,2.33263420267535,2.33351625700748,2.33459262399883,2.33609669777993,2.33538844411544,2.33606676858215,2.33824046769618,2.33812047153082,2.33881126478087,2.33885200368787,2.33985317792938,2.34160386916055,2.34199626847044,2.34266393958779,2.34380081195147,2.34466132094627,2.34771059555597,2.34730317275007,2.34708601486504,2.34806876088573,2.34856048136621,2.35003061239359,2.35059131362309,2.35043527255211,2.35175750613337,2.35216729624541,2.35388737988574,2.35488687231626,2.3546790778692,2.35738624400196,2.35978396843817,2.35948377218264,2.35949096833,2.35966581147938,2.35992449778811,2.36286782789514,2.36174349959095,2.36410694646754,2.36719739791303,2.36690106804009,2.3658812185203,2.36572001249089,2.36460897570171,2.36549947002779,2.36447697780784,2.36279510733885,2.36219419514455,2.36216427884222,2.36267649919788,2.36374366858173,2.28549328805527,2.28579663880647,2.28693104526243,2.28727285785811,2.2871672313056,2.28748919945623,2.28766440591745,2.2882010111714,2.28863156944204,2.28936894120262,2.28892958022788,2.28891120211642,2.28965528622317,2.29020339182036,2.29259419742445,2.2921677250436,2.29292412924061,2.29255783082303,2.2927805907846,2.29285819835837,2.29369855493715,2.29484972055153,2.29644204444355,2.29742468620159,2.29743659274455,2.29787620004127,2.36969916259583,2.36979639937592,2.37022725636631,2.37046955427295,2.37026601619721,2.37113477118009,2.37106793912495,2.37169738417092,2.38245761255836,2.38209879112725,2.38214440081398,2.38219387163894,2.38224966431609,2.38217650397418,2.38164684933382,2.38164935087217,2.38225680507467,2.38285428475164,2.38476045411051,2.3823652063591,2.38264210423614,2.38231035863496,2.38231922590004,2.38246441532792,2.38231947676319,2.38271827902355,2.38289436561726,2.3828706827933,2.38353974039942,2.38395934388864,2.38366453212595,2.38341143846295,2.38446799857069,2.3831404777629,2.38298159166662,2.38303174663311,2.38209170983061,2.38210790504662,2.38259340174443,2.38241160865061,2.38285957786279,2.38110296868984,2.379714763733,2.37880824101879,2.37872144689159,2.30431670257324,2.30505493948476,2.30429510161967,2.30395864910618,2.30263543602468,2.30269938861603,2.30300305306727,2.30207929607273,2.30252293560332,2.30224822801807,2.30195156384699,2.30215953389254
2.32437099769965,2.32483981205921,2.32485213967534,2.32553226551809,2.32527959825354,2.3245863423676,2.32375028819126,2.32291854791611,2.32319558044015,2.32384665045725,2.32421270647376,2.32474136280506,2.32727341427494,2.32704587215418,2.32678531585352,2.32449178024154,2.32440627583664,2.32223272804167,2.32378765211506,2.32319919098951,2.3231533780967,2.323662985672,2.32217780850437,2.32247229516531,2.32228003037958,2.32278594783114,2.32293970623245,2.32365130190255,2.32425139012059,2.32495659491566,2.32501718452645,2.32493490206554,2.32591205463814,2.32698334406724,2.32696560866811,2.32810310333991,2.32927149876078,2.32994420830423,2.32936075776512,2.33043242349911,2.33080104262017,2.33176404404269,2.33230208477613,2.33312328378888,2.33417598745668,2.33496099397863,2.33577142682273,2.33608080370288,2.33668081041662,2.33840454408285,2.3384742239746,2.33871278459255,2.33962089150009,2.34095397542241,2.34226799501768,2.34276258571477,2.34329392558778,2.34407966945759,2.34519820777464,2.34658593170859,2.34813048032247,2.34815123133803,2.34953733042806,2.35092540076809,2.35137875762132,2.35168250844327,2.35152416394539,2.35200873344568,2.35364831196755,2.35622934653809,2.35712030714641,2.36005303608292,2.35930962891223,2.36046433140068,2.36093573360591,2.36050002792545,2.35994521578145,2.36054723837016,2.36486062978415,2.36750047248412,2.36587451312449,2.36640079144697,2.36646310064329,2.36617103205476,2.36558664602592,2.36464239828586,2.36421206244453,2.3626637363623,2.36228857857679,2.36200128774235,2.36220604397398,2.36297287454065,2.36415852680929,2.28620864627381,2.28609239389819,2.28723016870816,2.28788893615653,2.28754436325316,2.28802462475953,2.28844670392142,2.28869843814165,2.28900462533973,2.28918144846609,2.28954030519539,2.28967573084651,2.29026222677055,2.29122726596502,2.29165800928082,2.29194623660483,2.29195145593744,2.29215054837175,2.29235971154983,2.29217210113053,2.29272377885545,2.29436043397107,2.2955647017385,2.29577745725254,2.29729337514629,2.29678841963773,2.29839559122298,2.33327435318781,2.37021906810079,2.36935608768911,2.37025647978868,2.37093151085055,2.37090295033328,2.37206938842197,2.37453214499638,2.3813028782172,2.38196386353856,2.38130148553762,2.3818027470265,2.38113737328139,2.38159943786276,2.38168358351883,2.38165138543769,2.38183230294982,2.38254833021206,2.38291323719565,2.3815137134358,2.38154186964986,2.38196334987186,2.38207392408971,2.38210670270321,2.38294204513298,2.38278777267885,2.38348613303558,2.38347303786168,2.38361655937885,2.38339824856629,2.38319069961812,2.38354619006856,2.38359956172172,2.38305297685456,2.38251426513658,2.38169298783509,2.38138470505234,2.38139925520309,2.38172315808755,2.38256083383531,2.34375009155636,2.30540883824575,2.30515053839651,2.30455041776816,2.3040385514181,2.30517584235996,2.30554393100633,2.30387078687064,2.30253872280565,2.30262896143695,2.3027017512218,2.30234947735152,2.30251198285592,2.30262667698626,2.3026423117237,2.30252559129704
2.32429406634288,2.32430867511934,2.32441202449232,2.32458649852375,2.3249083231816,2.32451863628333,2.32416030066639,2.32348936301451,2.32463914434598,2.32431135221966,2.32463940226305,2.32491234302624,2.32603792446438,2.32657295087022,2.32653206722118,2.32578874686358,2.32628145348678,2.32351492747723,2.32353979138098,2.32385810396229,2.32363424948078,2.32383156889955,2.32429594258631,2.32440271767014,2.32321380702632,2.32326355617409,2.32324405776205,2.32385884456068,2.32485343440296,2.32738155562778,2.32603700636528,2.32539717068234,2.32678235278761,2.32733804829181,2.32808431047755,2.32851326367034,2.32914392586696,2.33061654785825,2.33021568698308,2.33016183715968,2.33117989907467,2.33139824829313,2.33253451598967,2.33374823344999,2.33461247750896,2.33541638756103,2.33601593332033,2.33639619955897,2.33673051477609,2.33840401425852,2.33881185707054,2.33897657671885,2.3405508487404,2.34190875020746,2.34286231360065,2.34333953143039,2.34365393332819,2.34513981701767,2.34866026917154,2.35108166902193,2.35021547578832,2.35149798525957,2.35085440369076,2.35234481945183,2.35311604943548,2.35312659623128,2.35312152966122,2.35711479383548,2.35758146347212,2.35783852571706,2.3575230846624,2.35765456044488,2.35843744547526,2.3608130325618,2.36153302899805,2.3617002313025,2.36280157522629,2.36236520942116,2.36214510366767,2.36601333608635,2.36609838938621,2.36577370660048,2.36576581361812,2.36509172038172,2.36506640473018,2.36438310705714,2.36444880117228,2.36454290055789,2.36265398347875,2.36341694038114,2.36291281117628,2.36487067295793,2.3634664745163,2.28700378044927,2.28765925188499,2.28801218165664,2.28919601860619,2.28773638428696,2.28836869033213,2.28865679497092,2.28910475533647,2.28969440288035,2.28941923916684,2.28946156805038,2.29012529268956,2.29043512278454,2.29059716767222,2.29085963359236,2.29128962835659,2.29111753628519,2.29174703245237,2.29208560650279,2.29234495544135,2.29208402929195,2.29351463338139,2.29474656203191,2.29447627910773,2.29521860314695,2.29587872382294,2.29736777739677,2.29830779810994,2.29909486087246,2.30069019685743,2.30108239574877,2.37145798503254,2.37058318078023,2.37111925944727,2.37975788690072,2.38108958161253,2.38043269736058,2.38021549027445,2.38064851332851,2.38049024055616,2.38041561541512,2.38084403077038,2.38096135174654,2.38185650635161,2.3824612632885,2.38325761479331,2.38150714680848,2.38100184336582,2.38128047126903,2.38131510108194,2.38162550075442,2.38221345697802,2.38222811755654,2.38285001093514,2.38334206552794,2.383751584375,2.38346791559071,2.38313818710265,2.38343070171919,2.38340342865088,2.38274246458955,2.38197169598127,2.38149556361045,2.38121493798862,2.38168512561673,2.30522490214028,2.30524423466773,2.30511793714951,2.30495777896052,2.30443315243462,2.30384898439393,2.30393144614806,2.30482722364456,2.30440003419118,2.30306051063865,2.30256854420214,2.30233849238846,2.3024355353189,2.30209918738524,2.30211435825474,2.30271514514526,2.30222467475148,2.30253805413824
2.32410759314347,2.32374279207797,2.32400133353337,2.32453821293715,2.32462910592326,2.32462680675329,2.32438133932283,2.32512327686819,2.32634718542842,2.32542973455144,2.32512959643018,2.32463107358158,2.32637525894139,2.32794758377202,2.32592869377266,2.32551598264274,2.324967425024,2.32353640436428,2.32291462204438,2.32310840881356,2.32370671372786,2.32425829129948,2.32428267950122,2.32432278276503,2.32394997640381,2.32385861938084,2.32370358990155,2.32403969566719,2.32491553122375,2.32595459183966,2.32619006516404,2.32631933417721,2.32705732927167,2.32875757446258,2.32857381922375,2.32905092972419,2.32924562702621,2.33055999541316,2.33078559023299,2.33156476390616,2.33231027655993,2.33296577324005,2.33371087296403,2.3344467340064,2.33576669786489,2.33607872167128,2.33642882042321,2.33673231275901,2.33769960098568,2.33894070340866,2.33926059288968,2.33975206201186,2.34040170529308,2.34231275991246,2.34328744994948,2.34421293669932,2.34470133073286,2.34673202094581,2.34896423272079,2.34954558564399,2.35023644652991,2.35125728957574,2.35278738266128,2.35324353228735,2.35515865068187,2.35441229334107,2.35545265796866,2.35656428346172,2.35705650977263,2.35729573399087,2.35759905843832,2.35854261435168,2.359655160015,2.35988677084428,2.36149281673329,2.36168058019354,2.36262260825489,2.36398862364366,2.36570774013015,2.36773226026101,2.36688174407255,2.36782051669971,2.36554782382747,2.36388728387282,2.36383832363568,2.36346740143128,2.36363028538527,2.36408984782424,2.36405293097803,2.36384370632586,2.36289605602324,2.3635366120148,2.36441937525562,2.28781318017852,2.28779550512561,2.28780100292854,2.287298857414,2.28783874258817,2.2883455687505,2.28918805324422,2.28941239834524,2.28928970295831,2.28899451799227,2.28976444311755,2.29106043677439,2.29078258446245,2.29081990325113,2.29075096782025,2.2909459357442,2.29124424431827,2.29173158365883,2.29177749333651,2.29221153220597,2.29318101312052,2.29492400137976,2.29457153527971,2.29435842497224,2.29449104761775,2.29597663252702,2.29651751420908,2.29788435236352,2.29817345225219,2.29879170671867,2.30019516069363,2.30358020039715,2.30319269474114,2.30358941677637,2.38231374764759,2.38181309856706,2.37988416602743,2.37923625052008,2.3795985304471,2.37937677596351,2.37990276204529,2.38015665737958,2.38027478331334,2.38108213102816,2.38177476467601,2.38261998274154,2.38089845512342,2.38046048446014,2.38033172148113,2.38052181370554,2.38102246817835,2.38153277947217,2.38195383799325,2.38247251174274,2.38282123383998,2.38311588178143,2.38309406853288,2.383074403302,2.3833973140982,2.38340720721427,2.38352473504278,2.38217904605367,2.34321473611537,2.30517147234395,2.30475690247258,2.30474236051311,2.30446414018944,2.30454029646896,2.30374083151845,2.30347053151587,2.30288835927346,2.30424339953162,2.30437356345017,2.30363513998889,2.30269776143511,2.30255663429307,2.30243020982023,2.3026552899588,2.30285905235298,2.30224566692449,2.30252482219401,2.30325021962685,2.3031797412065
2.3251548942005,2.32418986701056,2.32389152033507,2.32367025319689,2.32440478684901,2.3248263829705,2.32483369370287,2.3254410384008,2.3274625532221,2.32560676124677,2.32584959640044,2.32592713397095,2.3263244168241,2.32655376111968,2.32592719730338,2.32537516633661,2.3248155995061,2.32330411962492,2.3228767060927,2.32289682584585,2.32379173704362,2.32428589384338,2.32373133497684,2.32362294501571,2.32456898457924,2.32446674460889,2.3247210115658,2.3245878284831,2.32513697161012,2.32586007741321,2.32661689235241,2.32720646852273,2.32824894616343,2.33003684663044,2.32942610909945,2.32949068633897,2.32967728579139,2.3306968338212,2.33275926639612,2.33316989356682,2.33361293892879,2.33469840436909,2.33427142646255,2.33484118930675,2.33624711723767,2.33674341666547,2.33700272510891,2.33707113866981,2.3402817262257,2.33926572485641,2.33965716993325,2.3400342535072,2.34132703274015,2.34294638397333,2.34519005899812,2.3454192643702,2.3475749134305,2.34801364628808,2.34917093388375,2.34963677181879,2.35005705805532,2.35097818125853,2.35226658504254,2.35282160412308,2.35359610681757,2.35407791228384,2.35555450785537,2.35588641777367,2.35636717294214,2.35704116698697,2.3571253303772,2.3578745992232,2.35869509715059,2.35964497630977,2.36053423011297,2.36112142700641,2.36245772340218,2.36271158163159,2.36386861167924,2.36647619091165,2.36646023782265,2.36705108485857,2.36672124428039,2.36413777171599,2.36321649438666,2.36273054563412,2.36285757560221,2.36319990767855,2.36316538401147,2.36344044641841,2.36272645991394,2.3631554015585,2.28899977962832,2.28867502121034,2.28849605645166,2.28802921899384,2.28720175644535,2.28796854013404,2.28864648960755,2.2896616190996,2.29003748143479,2.2910064631365,2.289982632025,2.29012748800458,2.29053211875994,2.29085248208668,2.29084530305554,2.29156880881508,2.2913480919875,2.29189603310429,2.29210389639666,2.29233370316025,2.29259536301331,2.29307398500106,2.29382791435245,2.29403153939773,2.29375442510097,2.2941416880319,2.29548141391281,2.29724141908857,2.29776442025869,2.29751328367604,2.29811466939571,2.29865197448491,2.29962178080125,2.30142820450112,2.30101944673734,2.30123984562316,2.30152434331808,2.37901588621278,2.37855603805868,2.37871228958572,2.37891858608291,2.37930623453912,2.37982417840107,2.37979699402008,2.38049693361287,2.38087146541544,2.38122683434592,2.38106989578822,2.38051736354077,2.38085430874193,2.38020217884741,2.38056362416496,2.38193627427191,2.38212729367634,2.38294549145965,2.38291867373643,2.38316441031412,2.38322166358575,2.34410051721223,2.30526446835219,2.30474431817057,2.30483819481469,2.30473743980307,2.3044901835288,2.30412446462887,2.30437222183754,2.30361207871176,2.30322030951757,2.30387992587629,2.30318431363901,2.30315434220038,2.30352097649698,2.30360644814224,2.30397139491215,2.30315780509911,2.30259898236076,2.30219412953097,2.3026577748641,2.30293598272363,2.30322920229887,2.30266248967796,2.30304337404285,2.30375019914206,2.3038024657117
2.32798904235548,2.3285681797139,2.32896268466498,2.32402705232411,2.32439076223395,2.32570210375611,2.32527327638727,2.32629804231963,2.32746467877575,2.3273580790695,2.32671465605625,2.32682682356377,2.32575375264363,2.32558619745472,2.32513011317024,2.32508172603662,2.32519819051445,2.32350436441128,2.32344573843518,2.32380254591368,2.32422734464873,2.324431366116,2.32432667809901,2.32416127848464,2.32437277772768,2.3246901295467,2.3245627416765,2.32576997793417,2.32622946535568,2.32631834508601,2.32696370118913,2.32763766077965,2.32799304253018,2.32962127116532,2.33015960192314,2.33012156767624,2.33018467033633,2.33137373005864,2.33300503338571,2.33449699826843,2.33415523002938,2.33444780118842,2.33630722070087,2.33644261273615,2.33846960036309,2.337701042916,2.33874520168172,2.33792872986072,2.33922665669367,2.34016904490451,2.34013028987285,2.34101408562,2.34270124634605,2.34344863449791,2.34484952810832,2.34520863741143,2.34639163502995,2.34741499774819,2.34867549492264,2.34944281338313,2.34959342520623,2.35052494901825,2.35178904839473,2.35255000838276,2.35303155938427,2.35340003260319,2.35434096013425,2.35554243552279,2.35616214201171,2.35651727774825,2.35683096673049,2.35817527466307,2.35840991736689,2.35874249991522,2.36015035559259,2.36043388302575,2.36164137839014,2.36376664554356,2.36652660159261,2.36625486567842,2.36626663546799,2.36677534298958,2.36661062348626,2.36504675478676,2.36252022356149,2.36226453095932,2.3625255272166,2.36260164275157,2.36274606672025,2.362922207888,2.36274630855023,2.36357746033476,2.28843406602354,2.28804357187108,2.28961069695295,2.28852705299461,2.28799226246692,2.28847740708017,2.28900741690824,2.28989453270403,2.29011932637451,2.29041637254221,2.29080761171534,2.29150607127146,2.29128303338689,2.2911906631529,2.29116660241361,2.29168074732285,2.29186859852022,2.29237356713891,2.29255218850842,2.29272841325945,2.29356751456877,2.29376338239947,2.29390134916411,2.29396574120388,2.29389005951284,2.29464976878269,2.29609143786141,2.29695785398288,2.29741991208922,2.2968807448348,2.29704351199663,2.29819859743209,2.29911459834427,2.30021737722836,2.30000725950025,2.30010803163686,2.30070460983738,2.30084979128989,2.30139467281089,2.30171022608158,2.30224740517384,2.3790936527776,2.37957127462375,2.3795665916729,2.38028806548744,2.38075261475644,2.38134325144342,2.30473083338986,2.30490775131332,2.30407505430599,2.30486834281065,2.38099720124149,2.38291218857052,2.34337361714146,2.30537810710958,2.30694189087782,2.30513835892106,2.30431175118433,2.30468104468728,2.30504432560224,2.30417513381899,2.30358818419466,2.30378246641349,2.30398678314734,2.30343521189474,2.30322287496156,2.30309679861682,2.30301862640814,2.3036641978569,2.30344615926665,2.30345967734673,2.30331026078066,2.30379565916122,2.30412049718733,2.30452973637095,2.30257216587698,2.30260215830249,2.30304270591134,2.30333307605304,2.30344704009085,2.30367771706252,2.30396044965622,2.30491228451091,2.30440645750573
2.3286499775659,2.32944356331827,2.32979203670861,2.3306683398081,2.33134276436899,2.32790166934503,2.32634722590236,2.32614418885561,2.32629746925077,2.32750428049891,2.32686088396568,2.3266216939419,2.32650439858025,2.32547175794138,2.3242424465933,2.3247283431174,2.32450835898202,2.3242014458888,2.32452968520231,2.3251740012081,2.32477574596334,2.32481435822387,2.32491386779499,2.32479852785725,2.32545228767134,2.32524122273297,2.32546115092019,2.32661536664208,2.32691838376895,2.32707836090885,2.32740197440442,2.32769849827932,2.32858509660472,2.32984625350116,2.33084325524844,2.33058941352489,2.33188547839248,2.33207991145388,2.33322510693029,2.33501788648185,2.33438806806202,2.33530589284066,2.33726781619888,2.33711959022873,2.33772630942546,2.33721873529001,2.33778105702053,2.33800182206292,2.33942527400192,2.34001809848522,2.34039757019817,2.34181354540786,2.34264427218543,2.34346632515281,2.34480131856118,2.34481800235458,2.34584044025714,2.34684042609735,2.34840001287439,2.34900129253892,2.34925228068687,2.35048809779446,2.35128944378762,2.35234124423607,2.35256234006627,2.35303231667608,2.35398925508528,2.35562403697579,2.35594041236116,2.3559926615343,2.35641103745491,2.35818896994918,2.35748315513588,2.35841927841085,2.3593841210585,2.35983466075565,2.36074934043952,2.36360978444247,2.36642541210533,2.36651941752849,2.36631225995078,2.36665873529363,2.36639521847376,2.362648684204,2.36280311038919,2.36224156504568,2.36251813354806,2.36271997894628,2.36282924052104,2.36333189117976,2.32509014764894,2.28921734155963,2.28862320022205,2.28745834244465,2.28813318709266,2.28837912143133,2.28843114440369,2.28923684109387,2.28941093413853,2.28936956977367,2.29008441279745,2.29067931852129,2.29102425074817,2.29109947044327,2.29118099059081,2.29157881760817,2.2914784664791,2.29275535089576,2.29212575727045,2.29316813845147,2.29291818023307,2.29296057057025,2.29309509014109,2.29364219530243,2.2941830047739,2.29418613750552,2.29415844851985,2.29532136550288,2.29726348526975,2.29684549934161,2.29738478467468,2.29736909629726,2.2972071523321,2.29759130188804,2.29797885548856,2.29895295278779,2.29827858084252,2.29855634704356,2.29954162627102,2.29961693894955,2.30055347690022,2.30016789712647,2.30073831385259,2.30131502602441,2.30230761683264,2.30266303802117,2.30281056022964,2.30286336003221,2.30295342874046,2.30367357811808,2.30440665756932,2.3035834520723,2.30359123073241,2.30415838027589,2.30399523609509,2.30436737531008,2.30481880378108,2.30536196207472,2.30364957536325,2.30306033096669,2.3040758863101,2.30388830853095,2.30342903549933,2.30304906583502,2.30286896995898,2.30336162641051,2.30238700634164,2.30258542135691,2.30272551678312,2.30273587818414,2.30336305411232,2.30359006496355,2.30393737448306,2.30346319253783,2.30526055006401,2.30431730960177,2.30359292516936,2.30378680222695,2.30317296277526,2.30409563374932,2.30387992381466,2.30417598884534,2.30418132220733,2.304345763318,2.30448010199307,2.30458214218094
2.32999559452934,2.32942784858569,2.32897882260961,2.329234568814,2.33059604016938,2.32856139118642,2.32698745624237,2.32709813702546,2.3257833419779,2.32614410203267,2.32649428297732,2.32638268710324,2.32616293008533,2.32516364297699,2.32498260452994,2.32486258524863,2.32481421411541,2.32580861416386,2.32584446002792,2.32559387916611,2.32498851235495,2.3250398914842,2.32507558766681,2.32516826689882,2.32545690325352,2.32552247676727,2.32603406916278,2.32681951246427,2.32873191166469,2.32973068542746,2.32795316448469,2.32821752878771,2.32848136107542,2.33020446019589,2.33086918056197,2.33059016765131,2.33117655478428,2.33210591303656,2.332789578154,2.33338892008091,2.3336612905207,2.3346648066168,2.33561401160263,2.33612111890498,2.33635172601895,2.33654488813226,2.3373532162636,2.33832503261564,2.33940160275786,2.34008006341849,2.34039495607791,2.34121791025726,2.34217977366357,2.3431805425766,2.34444167780544,2.34461692689326,2.34541402913005,2.34669681298361,2.34759582167723,2.34856215829221,2.34891680464475,2.35004455819947,2.35080515502334,2.35224988071421,2.35246260712092,2.35291947426563,2.35376142121188,2.3558574376094,2.35468083454213,2.35424589463382,2.35563953299154,2.35718172434783,2.35758828120349,2.35879732994302,2.3590668537755,2.35952071142876,2.36023094308819,2.36153951638794,2.29339615464133,2.36738251078748,2.32661724696251,2.29044427251253,2.29171452242296,2.29116110569702,2.29336041169707,2.29237474712165,2.29078398639041,2.36261145192513,2.29208858516053,2.29076121939049,2.29027125883178,2.28948669501703,2.2893218553615,2.2886362637285,2.28806019490708,2.28839137685602,2.28846368232576,2.28930693825576,2.2888289829147,2.29008935083927,2.29024302691648,2.29030294453159,2.29032880890386,2.29085935887382,2.29205974747584,2.29233152028587,2.29255152963907,2.29272794541606,2.29221775547389,2.29256497269015,2.29308876841325,2.29341843629539,2.29422474394791,2.29415867993207,2.2947046816492,2.2944963079812,2.29438762304529,2.295367056316,2.29740794822248,2.29808716560963,2.29759174636716,2.29794059566704,2.29723054097086,2.29787308772504,2.29750843402595,2.29842479123063,2.29815515621414,2.29863522160297,2.29871221076616,2.29911966990783,2.29989691493965,2.29926037138454,2.29958930634297,2.30022698312469,2.30084811787155,2.30178671384522,2.30131958662889,2.30185493878821,2.302666830159,2.30377067087137,2.30400817776182,2.30303264009833,2.30246934425004,2.30247738600595,2.30289330755237,2.30364223287604,2.30366380103399,2.3039887958615,2.3029565945979,2.30281142510684,2.30375484228506,2.30368859548336,2.30232658595416,2.30226808053822,2.30264141368655,2.30328566271657,2.30320415834267,2.30242055836803,2.30237672906872,2.302900164532,2.30330749806238,2.30346351669756,2.3045152797344,2.30327435747031,2.30438070856466,2.30420845919865,2.30392069603176,2.30344318727785,2.30348339015226,2.30343692210721,2.3039926746357,2.30449202430693,2.30421965125346,2.30392948070019,2.30390832790852,2.30461915431105
2.33046191189932,2.33079630587026,2.32936555164446,2.3290493148937,2.32957730742253,2.3285591191898,2.3285641697876,2.32703127664142,2.3267119027171,2.32696936320892,2.32667869088979,2.32692520165747,2.32611093534715,2.32566971987013,2.32660667761276,2.32528137854426,2.32551379772085,2.32529133338144,2.32521206905253,2.32543723167663,2.3249694460144,2.32524572025674,2.32574268288714,2.32561668939028,2.32650654543481,2.32585318991495,2.32627083966086,2.32736074290154,2.32805582076164,2.32827012225085,2.32747702390132,2.32794717310871,2.32897333537672,2.32996605077274,2.33085825368496,2.33056602587866,2.33148638879772,2.33163107482659,2.33215844213433,2.33270908305581,2.3332068582161,2.33392421591749,2.33484446285906,2.33531032840234,2.33612083826874,2.33638134589065,2.33773487492958,2.33820907792482,2.33901053736323,2.34030840321194,2.34055615462214,2.34135031479893,2.34208395513676,2.34263285439482,2.3446890937842,2.34473498549974,2.34585049011253,2.34726307647423,2.34784163044344,2.34854931704939,2.3488616158506,2.3500539272539,2.35144550358524,2.35057275525855,2.35130265832032,2.31899004200415,2.28579788441487,2.2868782293377,2.28762092760044,2.28765571581267,2.28856819085819,2.28914186400332,2.28840323094553,2.28816468095988,2.35944907070403,2.3206583395529,2.28846097658274,2.28914870161189,2.29043975329528,2.29311907548892,2.29081587783094,2.28954638784653,2.29048273684169,2.29066822608322,2.29141455354287,2.29157634939599,2.29058212980453,2.29122195057715,2.29212773323665,2.29017277498513,2.29001928551015,2.28916995380171,2.29168042911361,2.28874543343155,2.28792909747826,2.28855500306369,2.28880923210817,2.28885082313053,2.28933803307682,2.2897012536936,2.29042085011438,2.29111897400768,2.29187858412465,2.29159638129475,2.29194161678365,2.29331009742509,2.29539841074215,2.29306112532076,2.29292038367135,2.29309283239373,2.29337694961623,2.29338790663818,2.29366479538659,2.29387864116563,2.29414871133689,2.29471360502268,2.29509576344911,2.29525134067242,2.29645513312285,2.29652983131401,2.2971380013548,2.29769008120856,2.29916067066248,2.29721929640821,2.29773023915403,2.29855705271081,2.29984461054874,2.29934528946331,2.29876657219474,2.29926633273908,2.29957840481423,2.29902560822877,2.29920628300533,2.29990655536303,2.30073606813476,2.30111875414044,2.30051282807835,2.30091984086862,2.3024215683969,2.30293444132522,2.30347341628395,2.30377352704599,2.30117799505803,2.30208867052279,2.30233141797946,2.30281990412191,2.30206183624708,2.30242146697869,2.30206782547199,2.30296856721021,2.30350312751619,2.30310455611476,2.30267520587969,2.30246310221,2.30239670161828,2.30306988618559,2.3031030093629,2.30262555801327,2.30312901626899,2.30324434083294,2.30342853045683,2.30364858677457,2.3036474279918,2.30331970759644,2.30404131255028,2.30446410381543,2.30403517914424,2.30361401736881,2.30403622531051,2.30401949664401,2.30410318146787,2.30419189570282,2.3046767003764,2.30501366740055,2.30463680222024,2.30503227282296
2.32967846436179,2.32990712650981,2.32980001391971,2.32895250882852,2.32865575425691,2.32806599101192,2.32860291405686,2.32810322144553,2.32746275225934,2.32778793345774,2.32658942875823,2.32776829509824,2.3253595658728,2.32488512653229,2.32539709219107,2.32482936636236,2.3254955875864,2.32514346905642,2.32533448837096,2.32516270982866,2.32489445275946,2.32490901062054,2.3252102861747,2.32540119870278,2.32604361142835,2.32593390818961,2.32638390206535,2.32717071351337,2.32734966281961,2.32703555424972,2.32670905857743,2.32710601947981,2.32835894333314,2.32914897406829,2.33034752795794,2.33040634794779,2.33101064414046,2.33123117672409,2.3320908994964,2.33290664221387,2.33312406995021,2.33370769784011,2.33455417811458,2.33518148938631,2.33576752384733,2.33612446999197,2.33707654312062,2.33817326788255,2.33861982911743,2.2835744717527,2.31289451392753,2.34215007908103,2.34275844278579,2.28524974348741,2.28800399893128,2.28665176344943,2.28577322599575,2.28460185625457,2.28468730927448,2.28469268592625,2.28510072461465,2.28506799796922,2.28579359761436,2.28733027514457,2.28603561631213,2.28592460321569,2.28503119255954,2.28669315176891,2.28639020996717,2.28735648005858,2.28791875056866,2.28742956872389,2.287439308892,2.28923268593469,2.28664420481615,2.28708468328111,2.2873041604758,2.28902127421299,2.28896077021957,2.2883735926864,2.28960264082733,2.28923068603285,2.28903941193782,2.28933317259653,2.28999431628691,2.29067683123475,2.29009349296771,2.28903166232913,2.28916684252696,2.28950366401132,2.28962755987058,2.28888898937704,2.28901330741059,2.28932803314296,2.28845079991385,2.28909995965481,2.28964335309023,2.28958339456458,2.29031946114946,2.2903738157666,2.29072578987714,2.29083692425275,2.29124483418284,2.29206042804504,2.29318456763233,2.29340455011063,2.29392716334158,2.29513494886815,2.29349643511983,2.2938509216657,2.29402590440586,2.29436443264543,2.29418407484439,2.29461740935783,2.29489497907519,2.2951577554092,2.29531709470409,2.2954136638924,2.29570769051137,2.29632268956738,2.29668032077665,2.29674595548182,2.29731409554155,2.29760631668483,2.29799274529573,2.29829262884225,2.29847922203325,2.29901788778541,2.29899776375353,2.29831611597321,2.29915822039052,2.29942945027052,2.29959179623634,2.29944601125631,2.29973394341738,2.30047896411362,2.29974892973058,2.30022159861034,2.30048686415862,2.30124689138317,2.30203914496781,2.30173438983203,2.30092860233131,2.30156104539677,2.30174954487319,2.30224444241949,2.30163395955245,2.30252408830948,2.30236357606691,2.30282789818207,2.30333253502207,2.30373675627391,2.30297704487166,2.30248374381121,2.30267492981589,2.30338944253478,2.30371487301286,2.30384825842826,2.30352686839054,2.30322741767023,2.30371870206964,2.30427308635568,2.30391250493878,2.30449472457287,2.30653038375943,2.30546319587252,2.30605039119744,2.30520388941272,2.30444120673727,2.3040739296775,2.30429400190015,2.30400771574901,2.30476037467164,2.30498103584774,2.30586093889833,2.30569646719404
2.32891796661421,2.3292955453131,2.3291156276412,2.3286257452056,2.32795181950073,2.32725021828299,2.32723005763595,2.32695992675244,2.32638403044269,2.3260503566996,2.32507426525167,2.324492795905,2.32417960725136,2.32431337066862,2.32444278127251,2.32428214756649,2.32458035456468,2.32521447948336,2.32555979593129,2.32538281207906,2.3249606121861,2.32486837044979,2.32506269936222,2.32533038573206,2.32550813170324,2.32592916590814,2.32671394419847,2.32714704931843,2.32721249822238,2.32618259046101,2.32621118671241,2.32647899770846,2.32837571034598,2.3287691224369,2.28269634957733,2.28245514815458,2.28241978797098,2.28232175781377,2.28219843628818,2.28172957920467,2.30544661369705,2.33354627119865,2.28244256770807,2.28231522880256,2.28253604911725,2.28252341125854,2.28226701917859,2.28211878624236,2.28248996092502,2.28263731497236,2.28277866243016,2.28260163744209,2.28250805792713,2.28401421651469,2.28635516503849,2.2852886524359,2.28310461274878,2.28514769472673,2.28348451383565,2.2838399220924,2.28456789046513,2.28460625626035,2.28561012476011,2.28574412174032,2.28686179382331,2.28616568433572,2.28533921416713,2.28629055313934,2.28540022250504,2.28670739988151,2.2873058839149,2.28652120027255,2.28719451620176,2.28733075015746,2.2865355959222,2.28675060762862,2.28635390995405,2.28674432163693,2.28744863822858,2.2884116209487,2.28888258874376,2.28839082682433,2.28857525162197,2.2886143929879,2.28893344053766,2.28963127183005,2.28878817609323,2.28827994068467,2.28837562608569,2.28861602291305,2.28920305065116,2.28871674502712,2.2896995124305,2.29041705335716,2.28947219782304,2.28973425276919,2.29009794905592,2.29055204376837,2.29152809083444,2.2912409538856,2.29117328220034,2.29129911070213,2.29143104516214,2.29246016752651,2.29271403775061,2.29337664716175,2.29376243146963,2.29512639797678,2.29391639632455,2.29541044311594,2.29445252061952,2.294155596158,2.29441250241001,2.29458488922261,2.29530068528199,2.2956564756719,2.29641678030441,2.29528527965209,2.29602502674826,2.29647769414007,2.29677907187484,2.29647044256175,2.29654192599342,2.29714834394714,2.29758496025599,2.29811810979702,2.29842573062346,2.29843365400684,2.29845552553457,2.29849401224193,2.29898759553556,2.29922893993123,2.29953005979784,2.2998796551399,2.30005097623445,2.300309974126,2.2998312417963,2.30026128833271,2.30083193755431,2.3001227315026,2.3012687768446,2.30133765958739,2.30044833642142,2.30094653059749,2.30139400625829,2.30204797451195,2.30225533954785,2.30241425073738,2.30236691860113,2.30279796669619,2.30312944362824,2.30320904618233,2.30251427253075,2.30420170901283,2.3038389053404,2.30398748824054,2.30429023072366,2.30520100628717,2.30425070012239,2.30361147280619,2.30394423486809,2.30373933442329,2.30402560579948,2.30390071150909,2.30435770473422,2.30496150149169,2.30451371849524,2.30514646868118,2.3056120544319,2.30459358571599,2.30490092276599,2.3051112158922,2.30521164816265,2.30664171219747,2.30618387478886,2.30607214442296
2.32830432213827,2.32881329653021,2.32859658859306,2.32919637161954,2.32795016209436,2.32715064306691,2.32704956531273,2.32685570711756,2.32612756683095,2.32430558954659,2.32421879498573,2.32364417973328,2.32331395393198,2.32354086997605,2.32411409651581,2.32411079706166,2.32460990904446,2.32520299383183,2.32617653512454,2.27768496710684,2.30089306438775,2.32527621185698,2.27783185893669,2.27835485111206,2.32592195924028,2.30025833663499,2.27880659816495,2.27978100606991,2.27964716947835,2.28015249717498,2.28056513717712,2.28185080430795,2.28059237211579,2.28062015138338,2.28059710471919,2.28104838266317,2.28078796301024,2.2808100287879,2.2805954863286,2.27967907472287,2.27980639404983,2.28038528539957,2.28220834181685,2.28174091570904,2.28236624709219,2.28197827630898,2.28121796312758,2.28198877381504,2.28178831832095,2.28192420627393,2.28260663340613,2.28300881896838,2.28216553192418,2.28213564536837,2.28311732725512,2.28405575956963,2.28421228676234,2.28397298489188,2.2835937591137,2.28292479266924,2.28383003437238,2.28338654076715,2.28398799818847,2.28452646873824,2.28555875605514,2.2857363559463,2.28548872705689,2.28579381480217,2.28496289129865,2.2855537275732,2.28693632301049,2.28796443006537,2.28750370583404,2.28637942454381,2.28592744911449,2.28629030374031,2.28552201631609,2.2859668835402,2.28647773792168,2.28733538505229,2.2880059435334,2.28755410484685,2.28749048874433,2.2880993761287,2.28857108580672,2.28930108824769,2.28931455965677,2.28903351565978,2.28877383216455,2.28825547135781,2.28902538265859,2.28928090715821,2.28950446558006,2.2900618747878,2.289774649549,2.29026991205883,2.29028308470982,2.29088160179686,2.29114482377741,2.29118552343557,2.29155312914962,2.29171273949966,2.29243405798537,2.292534792268,2.29310092936429,2.2934860976059,2.2938652362812,2.29360764847687,2.29424299274127,2.29418648104453,2.29427192525763,2.29403813917891,2.29441238104301,2.29513185872291,2.29513867339723,2.29584511411182,2.29614587378026,2.29625826310991,2.29674364486146,2.29666487545304,2.29727060099721,2.29757735766076,2.29877091549149,2.29899682853366,2.29868524220467,2.29838642040454,2.29797141587534,2.29897749289645,2.2989478246724,2.2989481130578,2.29889690543404,2.29854572180839,2.29919030992605,2.29968817921903,2.30028321396713,2.30065523153712,2.3006300804571,2.30058321128648,2.30106746675032,2.3012326382026,2.30139421401908,2.30128955568323,2.30129225120693,2.30203168545588,2.30210671262885,2.30206052006599,2.30203314014669,2.30244734991264,2.30250881987832,2.30267217153882,2.30311424373552,2.30312348972334,2.30335327166643,2.30402572229664,2.30473693707728,2.30469291843899,2.30548109632108,2.3070411677627,2.30511315966434,2.30554858484033,2.3047842593527,2.30460951374458,2.30616960011497,2.30500360379622,2.30613576047408,2.30540908059528,2.30512046805023,2.30540362691205,2.305285280602,2.30520232728376,2.30572281589025,2.30582346126647,2.30584273972453,2.30676067467021,2.30692526508793,2.30656660373339
2.32762317283133,2.32841400464564,2.32958249701087,2.32942288914044,2.32893585002347,2.32754530414116,2.32788377277929,2.27133765949619,2.32617842282065,2.32725955455175,2.32485439039892,2.32395640412778,2.32315840151777,2.32315348624181,2.27333629556282,2.27392704921166,2.2736075011313,2.32545619648751,2.27479383866449,2.2755900349415,2.27627780479162,2.27897177136855,2.2763577659411,2.27686064066823,2.27705497720672,2.27667081203338,2.2772765636439,2.27817946693094,2.27794798466188,2.27805842080085,2.27896541250698,2.27904966738799,2.27880911269518,2.27869234126615,2.27871498877613,2.2792096753146,2.27824843092575,2.27854403942394,2.2784789870438,2.27815855594442,2.27903966684147,2.2794129487799,2.28020734377308,2.27996966467248,2.28010509562459,2.28085958097519,2.28054096530178,2.28129192333848,2.28203114815059,2.28099071853969,2.28198953532472,2.28217926483827,2.28134428839602,2.28144161425572,2.28139331862601,2.28255891406698,2.28242429180677,2.28245383856135,2.28206365105395,2.28239172541846,2.28321654561499,2.28360564118541,2.28318416658157,2.28388921887519,2.28414160956421,2.28485279057356,2.28487366757677,2.28435150475828,2.2844233091192,2.2850771185469,2.28611135354872,2.28641326021804,2.28592857087445,2.28651185704226,2.28566114624273,2.28603232920533,2.28547895752125,2.28627211978592,2.28660386242468,2.28714262771522,2.2875885959497,2.28777870642847,2.28780531572659,2.28781579443431,2.28866812750169,2.28914630385124,2.28980359390944,2.28924651078297,2.28884098263739,2.28884575276895,2.28917689256597,2.2893433966825,2.28988143161184,2.29085253887092,2.29233581509608,2.29136342625633,2.29148725254776,2.2915338251524,2.29111725726256,2.29198420026646,2.29202486535601,2.29238081878147,2.29296239304868,2.29305015378024,2.29262461312999,2.29372480985481,2.29426454308441,2.29436889120791,2.29480820470942,2.29422671020559,2.29441382879548,2.29420609290991,2.29495102354838,2.29539742427978,2.29586221142111,2.29632972484183,2.29710969222522,2.29695945415764,2.29712517712968,2.29815304826124,2.29834436577805,2.29932456200854,2.29899016365978,2.29788006623238,2.2988417227437,2.29864928965881,2.29840874333199,2.29848162725376,2.29879201212871,2.29945350535169,2.29930657446229,2.29923976161083,2.29941585569345,2.30083553734492,2.30115979176927,2.30113814611882,2.30116304045375,2.30094729697194,2.30032269906756,2.30170558781006,2.30196587312285,2.3026374800747,2.30264146157908,2.30226281098223,2.30168728556244,2.30206728239737,2.30200091688942,2.30284554615094,2.30367011439116,2.30344681764011,2.30374598404416,2.304393668389,2.30383761695167,2.30378167255971,2.30414161211091,2.30448237547517,2.30411687922177,2.30492073438814,2.30459504438292,2.30466772838739,2.30502001032972,2.30506227529803,2.30574212693812,2.30575902803548,2.30515859731595,2.30551437497688,2.30555976057701,2.30581067800389,2.30648844939187,2.30703116112621,2.30685633722628,2.30716773895705,2.30604495016163,2.30647042907211,2.30647996007523,2.30680846927227
2.32740707330268,2.32833552535542,2.26624696579045,2.26584464579924,2.26617053911337,2.26653740573215,2.26706237788518,2.26791109730068,2.26819137095884,2.26927893423691,2.26935990663005,2.26936286146719,2.27001145095655,2.32338387065075,2.27220901550921,2.27296479935535,2.27265400826284,2.27195527531501,2.27278060455003,2.27349426139203,2.27395722459281,2.27337382165174,2.27416754142368,2.27474947966739,2.27492541019624,2.27556676550893,2.27573268076513,2.27629817154116,2.27579830612323,2.27652655635238,2.27719468241103,2.27674392251943,2.27728142690945,2.27682534749177,2.27710194897888,2.27762533098548,2.27725880564647,2.27706950355166,2.2773284730126,2.27722936998116,2.27830329497217,2.27847455823107,2.27843682404155,2.27891744597602,2.27901848427551,2.27979517301844,2.27947241734519,2.27990715051188,2.27951508788885,2.28049552647037,2.28117460238924,2.28050543769765,2.2805629557252,2.28060531030721,2.28090340511867,2.28148684014603,2.28115535544309,2.28146006219178,2.28171979050143,2.28179466735283,2.28246852621048,2.28215236979393,2.28228884503024,2.28330938902157,2.28292756670851,2.28384422474066,2.28378214271967,2.28378333860749,2.2843276501618,2.2856291834342,2.28565819019729,2.28573930690593,2.2857559069616,2.285338963471,2.28599203845284,2.28601862169497,2.28602998143308,2.28692958616485,2.28679941918217,2.28694801013711,2.28718309448146,2.28721445501367,2.28774153078783,2.28813801656831,2.2884607539105,2.28889651540484,2.28884120131696,2.28918101003321,2.28888830649295,2.28883066272293,2.28947354916293,2.29027039163101,2.29018378732135,2.29064442875092,2.29138970391767,2.29126945193445,2.29085277198077,2.29146559351001,2.29160029822926,2.29213173624347,2.29231601340524,2.29245354469798,2.29288714342832,2.29328028749122,2.29415206250592,2.29445885055791,2.29522170779701,2.29537820978958,2.29624183975078,2.29500420709243,2.29493311611588,2.29471238189492,2.29560821565322,2.29581476177708,2.2963092744464,2.29665190727905,2.29662337586252,2.29700664961278,2.29835131537829,2.29817228922105,2.29834797571048,2.29834295340119,2.29804776698171,2.29825954356358,2.29922055814879,2.29915137788406,2.29898881075324,2.29874068446913,2.29854558196155,2.29976089441846,2.29956102769961,2.29958685961928,2.30041144590491,2.30072194432685,2.30177248480412,2.30180340434427,2.30274592742058,2.30135001988,2.30208426188182,2.3018064713872,2.30213185831235,2.3023228687627,2.30218524933241,2.30209775717452,2.30262164915597,2.30266478557253,2.30300790658879,2.30295135339964,2.30348962210886,2.30373238863862,2.3039835628427,2.30407120482172,2.30466135388787,2.30558005947241,2.30474537118051,2.30514129444297,2.30536809165882,2.30483713798473,2.30471309485956,2.30522372703147,2.30558956868842,2.30616068366481,2.3068819276972,2.30648110324218,2.30571036538807,2.30588550651792,2.30598158718273,2.30620582589604,2.30585452384092,2.3063687794863,2.30763342119714,2.30968594147471,2.30808183124961,2.30767044070754,2.30709772722069,2.30708517768852
2.2623544742716,2.26263553026657,2.26416951223332,2.26410029952469,2.26448240112733,2.26556866671808,2.26556315064832,2.2664835860421,2.26736863118023,2.26804397913947,2.26854567321375,2.2684118668321,2.2689448120238,2.26925551592056,2.270340312387,2.27132685287807,2.2708807022359,2.27173168894811,2.27132152173179,2.27190988255479,2.27251268089172,2.27177429034729,2.27247911472208,2.27305638100772,2.27367136087328,2.27429821547436,2.27409129564487,2.27432842717259,2.27423552048802,2.2747749370327,2.27569530919729,2.27501229507301,2.27515509010362,2.27539070944147,2.27537152251711,2.27606507950786,2.2757016985198,2.27610924757604,2.276606370468,2.27668197701332,2.27774070545104,2.27810685407955,2.27818673033168,2.27949403297653,2.27867412252644,2.27898598562647,2.27850142598463,2.27880424452868,2.2797215888946,2.28132668521373,2.28102227823651,2.28022833492132,2.28044017318952,2.2808014788454,2.28083123615372,2.28105641821426,2.28075051454981,2.28099990315151,2.2818181353829,2.28203250731102,2.28211997822296,2.28220391565877,2.28190959609753,2.28284929894538,2.2828340454139,2.28376876232261,2.28465953047916,2.28380461922508,2.28405546077705,2.28437372515108,2.2851101581843,2.28524872923492,2.28542327137296,2.28510051087787,2.2857204288603,2.28584678811078,2.28557092223798,2.28634866982655,2.28669959895257,2.28671237266181,2.28704843437131,2.28682728683326,2.2879959099173,2.28808067260439,2.28955685027795,2.28905553498716,2.28896037593915,2.28968291109881,2.28925398671481,2.28899771041643,2.28979525076842,2.28996878046408,2.28996418381664,2.2910377766077,2.29224021329116,2.29161705888149,2.29101987988692,2.29184276845798,2.29162829908957,2.29209530338122,2.29253450780755,2.29261819657503,2.29251333029658,2.29352469629686,2.29448999786695,2.29476106385065,2.29501775689562,2.29499763216944,2.2959035786931,2.29550498519702,2.29568519183296,2.295795977648,2.29669599879086,2.29731417770628,2.29699137122463,2.29718339582657,2.29728795042615,2.29716375763325,2.29895170225856,2.29957124410453,2.29883064148979,2.29822374129743,2.29833461359393,2.29839343543649,2.29974742870819,2.29958075397817,2.2996224554975,2.29919962912651,2.29928093554108,2.29896666300634,2.29978202778472,2.29973218431752,2.30026664439378,2.30098057557322,2.30122870269357,2.30149437393294,2.30123540813131,2.30212134699871,2.3023044217002,2.30220470889694,2.30253607931588,2.3030283144066,2.30274539596545,2.30290107872639,2.30274850230652,2.30297392988685,2.30273378964966,2.30226705357087,2.30334452725438,2.30478494984426,2.30451677995328,2.30445368221985,2.30447833170554,2.30410753496094,2.30607064146226,2.30587307133704,2.30630388377552,2.30509407220791,2.30536941273292,2.30532657770363,2.30595062695245,2.30630514035595,2.30587015687867,2.30635336448671,2.30651406638612,2.30637723537643,2.305994874257,2.30677937801898,2.3075461364867,2.30695687948845,2.30752258049324,2.30785939301948,2.30752463798624,2.30715214045481,2.3073386318207,2.3075725150333
2.26172872038741,2.2615209484163,2.26240388565294,2.26320965096151,2.26350438034108,2.26458184931455,2.2642609003017,2.26460695394684,2.26582227370657,2.26656583197441,2.26749465082962,2.26708481386479,2.26765107389021,2.26811282306714,2.26856564490739,2.26961243444438,2.26892052684625,2.26922750025846,2.27003162159768,2.27042454358658,2.27136923132771,2.27140299908066,2.27115173266349,2.27196919815373,2.27291809948605,2.27349223960597,2.27329301800998,2.27383337055924,2.27371621166602,2.27410588589321,2.27482836251769,2.27498880982425,2.27454091024648,2.27464576162122,2.27456528565072,2.27527086778517,2.27494772444472,2.27580630603205,2.27676207422121,2.27653602159492,2.27743625987078,2.27783727217874,2.27763379769664,2.27834604376837,2.27871552569025,2.27873585535032,2.27850468188716,2.27834731008915,2.27903423965641,2.28006368406651,2.28112872066241,2.28186379916523,2.28073010052962,2.28043390568956,2.2805224532836,2.28110130777276,2.28090505670813,2.280958945962,2.28114036805185,2.28140568601722,2.28202815291254,2.28208768400954,2.28206692407704,2.28213325754283,2.28301348488234,2.2835957917303,2.28390046372742,2.28453042431378,2.28450762424604,2.28487919168698,2.28525569731907,2.28583793546127,2.28487405005527,2.28551893973447,2.28578762027697,2.28608522430967,2.28644267431348,2.2865580943098,2.28688370457634,2.28728619107279,2.28758384585341,2.28794920631401,2.28784106750471,2.28827287139211,2.28862738804755,2.28902470015495,2.28868770371244,2.28988493853251,2.28955812136362,2.28970874010785,2.29070414416306,2.29232765135276,2.2905244964297,2.2909219821998,2.29140487571038,2.29179917238128,2.29207314679125,2.29213048608084,2.29326270018748,2.29298605742265,2.29324552686051,2.29317997113847,2.29349624504144,2.29412692256734,2.29500357007583,2.29511857610744,2.29538415475506,2.29579206243781,2.29586683322349,2.295671092149,2.29638017327466,2.29716152267724,2.2972250067004,2.29793998596859,2.29759807586411,2.29800129362868,2.29819254962593,2.29891190029457,2.2987074497201,2.29910979765102,2.29891425548889,2.29881210247334,2.2989852684431,2.29894364987217,2.29943222915925,2.29998933629747,2.3005575897616,2.30057842133619,2.29971702352472,2.29985206632175,2.30072985160866,2.30152614399271,2.30070431143559,2.30103101978249,2.30168241739669,2.30185992596965,2.301558212634,2.30236779313064,2.30287343996595,2.30203618190157,2.3027719314934,2.30354268140154,2.30404875452107,2.30349977873592,2.3045842925913,2.30382773509391,2.30356367256334,2.3034524832876,2.30364625284657,2.30439481504454,2.30475390874276,2.30517468218378,2.30444924567121,2.30559120250511,2.30698784670377,2.30606398733119,2.30525591050441,2.30584637673058,2.3060097707072,2.30647929752401,2.30660137068466,2.30710608930287,2.30686011084104,2.3065057285394,2.30715056766329,2.30711839277812,2.30748779554557,2.3070907437415,2.3080596643178,2.30755760737657,2.30774399711925,2.3076552584364,2.30733822882406,2.30741138391176,2.30798791602981,2.30830435325321
2.26117820586613,2.26121113675654,2.26206437284914,2.26255502538209,2.26346717129496,2.26409326862757,2.26371589688911,2.26422577156668,2.26480428807177,2.26583975174034,2.26660976314356,2.26642570338605,2.26727186072215,2.2677616467335,2.26743020838349,2.26858836941078,2.26875987006143,2.26798761393541,2.2694300332097,2.26993409994439,2.27075903426566,2.27102167758696,2.27164524375752,2.27082383316105,2.27257395971466,2.27273746247608,2.27312878244537,2.27352217634137,2.27359159552474,2.27429390327268,2.27452891796742,2.27440786640345,2.27354574988731,2.27475861200297,2.27560844931035,2.2756426681858,2.27579747636976,2.27611651483307,2.27692396817928,2.27735989163131,2.27751123321055,2.27772810169802,2.27942369737751,2.27833171451555,2.27846222917797,2.27870403778307,2.27875506166111,2.27886031073585,2.28034121037136,2.28331467708426,2.28168025719703,2.28111670512329,2.28186162433095,2.28160895363972,2.28245759331313,2.28205357900278,2.2817128869657,2.28123429679034,2.28181216856969,2.28208857589058,2.28225730164564,2.28258686786489,2.28243594505149,2.28269816544757,2.28299473796863,2.28401728980633,2.28443097547904,2.28540642295969,2.28505960190937,2.28488738523393,2.28518333155547,2.28540713923004,2.28576075917626,2.28604618042082,2.28641721779329,2.28642957164464,2.2862954681362,2.28693803580813,2.28922194722693,2.28780220805282,2.28805741494879,2.28835257574867,2.28875009314056,2.28882569495553,2.28940167160473,2.2896112474103,2.29046843269162,2.29103675039944,2.29065760796149,2.29048528221628,2.29113886038949,2.29145974713498,2.29156423815001,2.29205157013059,2.29204266365587,2.29226032185218,2.29210353222523,2.29268519314309,2.2922607805361,2.2932240472455,2.29416896192771,2.29564557441918,2.29417277211703,2.29604323718349,2.29466917561301,2.29525232413825,2.29562987191026,2.29681929813767,2.29655214212036,2.29600013954447,2.29718603184618,2.29921855349539,2.29773838864527,2.29737618250233,2.29913113006498,2.29883741181665,2.29914657704637,2.29912310663191,2.29912263190782,2.29901817440264,2.29915669269831,2.29876251199435,2.29967019508063,2.29948322161068,2.29984715729113,2.30024041292913,2.30060356636578,2.30070318638506,2.30082282459475,2.30169905865443,2.30193142692952,2.30232403836907,2.30296299030271,2.30178655714245,2.303664984643,2.30265746473704,2.30206039828151,2.3030976597238,2.30294599111327,2.30227795863438,2.30296282148054,2.30361248303131,2.30370321855838,2.30403794203359,2.30389964127581,2.30414753581163,2.30409095619765,2.30418870731016,2.30419619286118,2.3046225496767,2.30503936202776,2.30514313401648,2.30529548511765,2.30660856245561,2.30577849765915,2.30608100895984,2.30604771708413,2.30679135130796,2.30592969061864,2.30688590077171,2.30687307430927,2.30668234893231,2.30768108245724,2.30794585980509,2.30712457342473,2.3074498414978,2.30768740727928,2.30766906220833,2.30760547055746,2.30787070148187,2.30817925476002,2.30878486978414,2.30801885056743,2.30847323432601,2.30839172294206,2.30851501231389
2.26092020477178,2.26096128175175,2.26211903555267,2.26197721891985,2.26339413115324,2.26352471034697,2.26355406194162,2.26381555759392,2.26486804880771,2.26550749738936,2.26600207485399,2.26595350944522,2.26688696844573,2.26657030602262,2.26695118223278,2.26818249319065,2.26936487175995,2.26836411805506,2.2690489108402,2.2704924852357,2.27041981645138,2.27060451641244,2.27056491944956,2.27053306059393,2.2714604059098,2.27204693800042,2.27199814275208,2.27276859817824,2.27356809697228,2.27414706468728,2.27445673675487,2.27496751790712,2.27420981310051,2.27473590250547,2.27563738626143,2.27594454028464,2.27639687102649,2.27666436375952,2.27697935856792,2.27766005663365,2.2776183694108,2.27792605060301,2.27796050971812,2.27802800084432,2.27878045560297,2.27902710072576,2.27979489437693,2.27963014076462,2.28108912350306,2.28260096786567,2.28120162671537,2.28022326397475,2.28120683749116,2.28133429717945,2.28187281940511,2.28293643200217,2.28493819375928,2.28266117484838,2.28347123220181,2.28223915869812,2.2826815471048,2.28296517052234,2.28354501156503,2.28360943385136,2.28546423899761,2.28485401654004,2.2849224129714,2.2858283328927,2.28559108320397,2.28512624392645,2.28530846566481,2.28533805287154,2.28558638001328,2.28609823788727,2.28693882659034,2.28690021060136,2.28683537714211,2.28748251010475,2.28802147702371,2.28854788129275,2.28856915242868,2.28835261070149,2.28903715542919,2.28966736322537,2.28954171418389,2.2897709075075,2.28944758400355,2.29114956348257,2.29125462953752,2.29248638425245,2.29172027071173,2.29163480897589,2.29220315445645,2.29326984522654,2.29278659771102,2.2929685809467,2.29307048584555,2.29275102190038,2.29324359669975,2.29435821358538,2.29468248599523,2.29517934892077,2.29506413842113,2.29520873826539,2.29544399494427,2.29571782693748,2.29577776753474,2.29755785283877,2.29691894602108,2.29641577720278,2.29693968516647,2.29736779926997,2.29745275105023,2.2977946864664,2.29929859281605,2.29928671540973,2.2992655482641,2.29936919144992,2.29988993719792,2.29975681851294,2.29975044597325,2.299575625206,2.29961230915267,2.3001970269112,2.30061834807229,2.3006524423633,2.30051456139821,2.30092270422818,2.30182574156081,2.30168395332764,2.30282970815865,2.30514337855151,2.30328284975491,2.30283677023888,2.30341675037468,2.30308676300367,2.30269277472849,2.30431148293085,2.3033326143562,2.30282658673897,2.30326905298163,2.30345046224696,2.30393788244317,2.30619363665891,2.30490721376397,2.30481417194935,2.3051454289081,2.30554316954923,2.30510908899848,2.30591951603133,2.30554928633628,2.30540654679169,2.30572289228868,2.30724849605571,2.3059979088036,2.306504301722,2.30678341228793,2.30743063512869,2.30691594489981,2.30693146967376,2.3073369193153,2.30775100895755,2.30877190793106,2.30948479686558,2.30795792280349,2.30790586116529,2.30755181135824,2.30709392636126,2.30824453925007,2.30841854927129,2.30837728859904,2.3084417934627,2.30836620346016,2.30915260954188,2.30896349935583,2.3089494942354
2.26003683719467,2.26009571932603,2.26075861026252,2.26227195205243,2.26188569797593,2.26307272099504,2.26337792289543,2.26428838168837,2.2649786938305,2.26475600424528,2.26547171476582,2.26596748504303,2.26658562650448,2.26632623119656,2.2673653032111,2.26788782691504,2.26850267845466,2.26826618544294,2.26858535369204,2.27021058265738,2.2701313257295,2.26994364890982,2.27066228879592,2.2701741380293,2.27147853836195,2.2717645133285,2.27181029134492,2.27297019658819,2.27366771020183,2.27384854566275,2.27444577682355,2.27540701538745,2.27526445305675,2.27608803611372,2.27630687700558,2.27625348040712,2.27678912407229,2.27635592922819,2.27647099449106,2.27684044502922,2.27747168789938,2.2782005222619,2.27828905040993,2.27807154316227,2.2787427722233,2.27875601963608,2.27854491745933,2.28034412276743,2.28118545156589,2.27993331850852,2.28043035250406,2.28021983572646,2.28119528178653,2.28157377867176,2.28275107799012,2.28296416871036,2.28315208501892,2.28317028459722,2.2831771031206,2.28256435299542,2.28301788442213,2.28345729274404,2.28373555555406,2.28461149108917,2.28500407701848,2.28529700252129,2.28603661933929,2.28520679687861,2.28478503431925,2.28489995192634,2.28548172084493,2.28569760707164,2.2863042045627,2.28727178284847,2.28709828113812,2.28747155095582,2.28758040842008,2.28793405093127,2.28785365662674,2.28909131424201,2.28929517855352,2.28949440831341,2.28939632018953,2.29253510952955,2.2900653463276,2.29025357619152,2.29043048373298,2.29041298527234,2.29091042737903,2.29098077933478,2.29187739651312,2.29241736754009,2.29362838748766,2.29366229704338,2.29343230066643,2.29386865074815,2.29438439271037,2.2959190741551,2.29326414363873,2.29453459768334,2.29493254605746,2.29490333150616,2.29484035659881,2.29538742333227,2.29625223879416,2.29626044206659,2.29622353065318,2.29684741063103,2.2968083798842,2.2966599701466,2.29705784327396,2.29703657126152,2.29781325714481,2.2979064711447,2.29890935968951,2.29955112119198,2.30037337253317,2.29986078941342,2.30035341419185,2.30065385563332,2.30066464091996,2.30097126061008,2.3004294187849,2.30059571417473,2.30114822490274,2.30114489019779,2.3015030259247,2.30072572800227,2.30158206506151,2.30176476947245,2.30270704446521,2.30318609953139,2.303135136321,2.30307044982541,2.30327335107169,2.30358524852851,2.30401704108674,2.3052404144044,2.30366038353449,2.30332648822782,2.30373809662757,2.30428126657088,2.30454257977969,2.30510597602345,2.30460262978651,2.3050710411626,2.30536233387091,2.30598906863628,2.30564593141495,2.30594061106433,2.30596758101767,2.3057971671148,2.30624211849134,2.306222824066,2.3068299488072,2.30711951206013,2.30696356381676,2.30757735322306,2.30717673412602,2.30752186380603,2.30780858893141,2.30787566220326,2.30863722205416,2.3090421741158,2.30795038929399,2.30864311352745,2.30990229166716,2.30810785004396,2.30805369795667,2.30841731668028,2.308452610275,2.30845808907931,2.30880959449058,2.30961281736477,2.31027553701561,2.3096172867232
2.2598465664368,2.25983582810197,2.26098544554788,2.26404761164553,2.26308356414856,2.26314143586244,2.26378013066609,2.26473178556285,2.26583567067274,2.26486615216824,2.2653351811232,2.26567543199555,2.2659396701024,2.2666992133696,2.26754297287982,2.26761179494071,2.26775835683853,2.2686330995215,2.26901519249579,2.26920116720511,2.26984632038262,2.27058091086871,2.27140289980912,2.27188611566081,2.27256241473595,2.2721169400861,2.27192034297359,2.27314771137306,2.27311829874962,2.27344179738846,2.27400651647997,2.27417730140187,2.27483467216751,2.27570425402772,2.27558309987011,2.27587850683958,2.2760088624649,2.27621453715079,2.27646192667174,2.27673370159307,2.27721742918585,2.277517178623,2.27782210854844,2.27879671336392,2.2785351607656,2.27887644410031,2.27889508165996,2.27988547910396,2.2808650494476,2.27995109328323,2.28029619378659,2.28018511525033,2.2804968923735,2.28140377694917,2.2827022245674,2.28297883648471,2.28392573672021,2.28599873970964,2.28426686655936,2.28327134226645,2.28363928540664,2.28359695100751,2.28379128142345,2.28411358443549,2.28478449714502,2.28504314140043,2.28497888082141,2.28519146570543,2.28542541095059,2.28606887055375,2.28617250602271,2.286153463988,2.28714764726272,2.28781357571192,2.28828589295522,2.28825598947966,2.28865722783606,2.28805188684582,2.28844461327763,2.28879385351188,2.29005577924017,2.29189137135206,2.29073195886669,2.29281364663472,2.29113227031555,2.29100583570711,2.29099441617801,2.29088508258123,2.29114062972738,2.29176791768862,2.29210938663952,2.29249683935308,2.29372528281399,2.29461733706578,2.29560513964277,2.29464649958326,2.29445572221267,2.29350540416016,2.29429508560814,2.29581525300042,2.2956951997332,2.29553390086182,2.29516816154248,2.29607001232505,2.29706148853525,2.29702574975176,2.29672937857757,2.29751870473916,2.29751199603089,2.29704794302238,2.29731554466355,2.29727587147616,2.2979684119387,2.29863158705956,2.29856111824991,2.29983367357599,2.30027763309148,2.30090923078712,2.30075434478378,2.3014320503583,2.30120268070843,2.30093214019469,2.30113891498308,2.30077108343475,2.30116123895344,2.30135746023983,2.30152648911317,2.30083526080461,2.30160571410983,2.30188576744695,2.30293566661916,2.30389638254536,2.30307952664253,2.30309767537723,2.3032935726157,2.30394616105802,2.30447419911222,2.30467041528562,2.30433200785383,2.3035499154425,2.30429180898328,2.30467299623128,2.30447917942143,2.304892282874,2.30593184282804,2.30554636322183,2.30559752197555,2.30516515190234,2.3056056537494,2.30663667704732,2.30659960272246,2.30678303326033,2.30725513062938,2.30805973415216,2.30899176574989,2.30826007260291,2.30802380792818,2.30896068938316,2.30874442192563,2.30786616766568,2.30847952193527,2.30892000424861,2.30880707968757,2.30840046191354,2.30839825037874,2.30885990361015,2.30912177125499,2.30903884595167,2.30850757436942,2.3084175106578,2.30856828132541,2.30826533012579,2.30977447634027,2.3094983193244,2.31040396081344,2.30987054440428
2.25984900674678,2.26006041912289,2.26088118210893,2.26229483726093,2.26295629045616,2.26306556435276,2.26322291342682,2.26441046806965,2.26477240413058,2.26539362623891,2.26526200853372,2.26524385737512,2.2664909672204,2.26687592823736,2.26700965177604,2.26732606396882,2.26751482721306,2.26794688924238,2.26905784172907,2.269099469178,2.26970199955274,2.26987349366523,2.27058419748441,2.27090816971999,2.27161254671622,2.27195544976591,2.27213657844983,2.27318949344503,2.27380108496807,2.27369756699956,2.27403903461349,2.27420282269246,2.27507915768824,2.27614206770125,2.27601727101864,2.27579981042569,2.27547763789305,2.27622036547487,2.27645267405025,2.27712712382303,2.27725553549372,2.27710983044794,2.27819918864954,2.27849651853775,2.27911838581481,2.27915386465212,2.27915007178006,2.28037793664024,2.28048810609589,2.28019545314599,2.28070831632708,2.28013026341294,2.27985063941188,2.2804570559571,2.2813110159977,2.28238708245532,2.28278566759044,2.28428753677347,2.28402659740494,2.28460604770219,2.28444985945223,2.28500805343076,2.28508142944598,2.28492747067608,2.28566358905878,2.28537050213018,2.28475783353931,2.28601024575628,2.28648513272372,2.28674566376823,2.28683378145281,2.28692343177301,2.28780512589925,2.28918668806731,2.28808951223724,2.28867379295355,2.28929429360555,2.2887983824945,2.28957544820647,2.28991241039103,2.29022474812453,2.2903326746166,2.29083566531948,2.29155502182643,2.29179306471095,2.29137722743468,2.29105894337658,2.29104656828865,2.29173358244135,2.29185505858087,2.29263309362145,2.29301478938042,2.2950909435943,2.29479307664275,2.29429271744566,2.29467851368401,2.29516566320523,2.29415740567349,2.29470323767054,2.29703032848062,2.29646051866517,2.29634462807579,2.29673509078507,2.29828541485314,2.29844025139288,2.2978737141912,2.29809722706699,2.29840523009814,2.29830366456913,2.29801483421572,2.29819755472733,2.29837671295472,2.29863436971888,2.29932197365652,2.30018402056445,2.30080158613826,2.30231878472221,2.30075368205175,2.30136747514897,2.30157644699034,2.30181638114909,2.30199249714848,2.30267193732445,2.30193726057536,2.30142597968329,2.3015669394727,2.30152275181312,2.30210801322958,2.30271546600169,2.30284203845996,2.30336829825138,2.30382933004451,2.3032635044133,2.30379301964727,2.30385171362506,2.3045035007652,2.30473962977107,2.30644468487273,2.30421592182055,2.30467019252952,2.30512676502195,2.30595241536132,2.3049259323789,2.3052770546785,2.30575278625915,2.30569694397699,2.30542255516482,2.3060875718682,2.30659322065146,2.30740989930226,2.30724443502353,2.30728811959349,2.30886726780111,2.30829165028647,2.3088877945185,2.30887511699492,2.30948313594613,2.30859937909392,2.31049691874773,2.31004528735626,2.30939234998946,2.30908298465638,2.3105671519175,2.30856636963123,2.30888544916651,2.30925026193923,2.30983890807143,2.30929396902673,2.3088631812908,2.30919292458692,2.30915161091303,2.30908685607252,2.30982128587745,2.31019703857137,2.31021306231051,2.31002967136094
2.26014595351334,2.26029606332137,2.26081897318606,2.26137498427192,2.26219121567622,2.26263533279143,2.26297052275401,2.26343688574292,2.26479800596117,2.26449593146709,2.2652400534683,2.26580739232439,2.26710975679519,2.26709747264635,2.2667847751,2.26722664696883,2.26712825990195,2.26866437617194,2.26902005596957,2.2691244950068,2.26980370303111,2.27007844313342,2.27029671604464,2.27147376863364,2.27235651903066,2.27222492099865,2.27228000033074,2.27344123176515,2.27349561993099,2.27410085837257,2.27424387263843,2.27413126208615,2.27522559933568,2.27511574296949,2.27550075899103,2.27569162369792,2.27550977851414,2.27613201689519,2.27657399163428,2.27701561757978,2.27741531725442,2.27766707578254,2.27795286726259,2.27865772956229,2.27912443565168,2.27970763001784,2.27983083982559,2.28196010598516,2.28201817574585,2.2828019159576,2.28212950833025,2.28171138043698,2.28036945056872,2.28051619741821,2.28167526744472,2.28243095392047,2.28271341343545,2.28318721746099,2.28460146456602,2.28467477293264,2.28473985632564,2.28477191550022,2.28497501642088,2.28504791934662,2.28546955023412,2.2857924275267,2.28618286107412,2.28796385722151,2.28685419364491,2.28778285942013,2.287659516061,2.28761071442362,2.28839109419531,2.28891363797852,2.28890705942234,2.28901977201233,2.28933523937139,2.28961798173854,2.28976438382024,2.29042750329224,2.29062931452427,2.29056127875342,2.29134796519208,2.29215800578676,2.2921097958494,2.29193641013481,2.29136102852994,2.29162773594753,2.29234704738163,2.29281368516264,2.29321443917285,2.29417565587792,2.29368846135396,2.29392603580871,2.29388091775637,2.29465577823416,2.29474941760338,2.29504930206312,2.29557224538137,2.29683488302604,2.29679783787625,2.2966934687373,2.29779388534653,2.29795655025431,2.29817430793534,2.29813883171935,2.29820725737946,2.29865936449549,2.29816565103433,2.2984720049519,2.29885437810484,2.29948226780941,2.29968184320194,2.30011955522155,2.30038037049865,2.30106634610193,2.30159769191425,2.30202070993435,2.30174971155384,2.30155349843639,2.30251948889632,2.30398758626751,2.3037944723446,2.30182119922849,2.30151434583518,2.30200035559774,2.30202386779349,2.30251210741382,2.30290875879921,2.30380493401556,2.30379218922446,2.30380954130032,2.30413028511864,2.30492787640851,2.30480533627314,2.30541620848535,2.30659780547059,2.30580655830438,2.30640829946276,2.30546804590435,2.30582292304886,2.30625362572462,2.30599163270996,2.30542096193165,2.30570574205559,2.30606049059949,2.30630636060471,2.30623052091833,2.30677956150878,2.30705505534586,2.30752463360439,2.30750875489285,2.30807078488585,2.30907913578239,2.3088777830397,2.3090206985433,2.3089647350706,2.30882398227981,2.31024244055725,2.30937097127678,2.30988186834426,2.30954505295866,2.30942091606106,2.30902968821889,2.30898834625687,2.30944863620025,2.3097062794284,2.30991235564185,2.31053036537712,2.30937201291974,2.30975807232463,2.31005779217426,2.31059486964869,2.31057457181359,2.31130547738813,2.3108978409863
2.26042147088295,2.26060639241929,2.26115628461245,2.26231805932769,2.26195523330696,2.26266210020005,2.26265385966869,2.26354289255819,2.26443669717421,2.26470199350791,2.26533256529537,2.26576468223713,2.26647255652518,2.26863675440221,2.26730536343766,2.26760955164544,2.26815757370606,2.26961821412402,2.26972007416749,2.27028805906044,2.27053271161749,2.27074230325933,2.2711699637726,2.27105097618871,2.27158528306283,2.27207442725532,2.27285804796523,2.27352292501074,2.27407642053851,2.27541675498193,2.27466387801254,2.27453569120552,2.27509997048344,2.27554979328693,2.2750869471117,2.27611081582608,2.27696594210604,2.27682838910042,2.27670770010673,2.27749139612015,2.27794299650165,2.27831892065901,2.27924774668566,2.27932529635927,2.28075411898096,2.28048250888278,2.28115877500578,2.28220283146127,2.2838942826936,2.28295364026785,2.28338145967347,2.28516041705253,2.285628386917,2.28086128304815,2.28207573965651,2.28299914901628,2.28262143027719,2.28317141831929,2.28390145259923,2.28510727948157,2.2849083932036,2.28460087131693,2.28470674667859,2.28536258853081,2.28645819977214,2.28636937079121,2.28628975256357,2.28764616114344,2.28759853074113,2.288547646801,2.28825331238582,2.28821214957481,2.28838337494693,2.2892017401156,2.28904800066427,2.28921950074341,2.28920079059603,2.29049916684958,2.2908052422641,2.29150750582441,2.29127881100885,2.29132278941711,2.29183773225586,2.2923323011177,2.29359574111984,2.29266297338932,2.29207119932947,2.29196919050791,2.29261959212904,2.29271501893785,2.29358769391831,2.29393104052541,2.29504532973808,2.29519420386907,2.29575099535934,2.29524168920713,2.29483554626063,2.2958729549447,2.29617183680814,2.29700105024575,2.29722934608444,2.29771093486921,2.29748233641542,2.29748062943966,2.29751905997324,2.29812593331711,2.29856354230626,2.29920818503931,2.29983194039891,2.29923063845598,2.29969126814209,2.30025576089806,2.30060372825089,2.30107734594146,2.30069408481452,2.30147849323417,2.30251887941719,2.30156622530386,2.3023903696452,2.30236429199825,2.30270610760211,2.30279073160631,2.30348296013129,2.30235991673645,2.30295975859808,2.30286345357775,2.30284272071863,2.30347177092531,2.30350892194185,2.30430309997752,2.30429043685311,2.30405890116881,2.30493994910326,2.30588022208515,2.30658220411338,2.30587328393142,2.30569563579231,2.30579421931162,2.30588600390375,2.30592314080612,2.30607176790812,2.30640345441153,2.30631559702309,2.30602083000319,2.30607569688968,2.3064474473852,2.30642703536891,2.30704511064074,2.30697257159128,2.30736513533365,2.30787960007081,2.30775778583845,2.30871460268894,2.30895756544796,2.3088996949435,2.30926159260715,2.30955169112198,2.30948739067293,2.30955993732777,2.3127185877082,2.31135278308563,2.31098553688958,2.3104668631921,2.30962374775085,2.30967075605806,2.3098398849924,2.3096762097739,2.31077620164354,2.31102959179648,2.30966372930573,2.31045392588213,2.31148829587881,2.31075702409488,2.31097723564783,2.31146967963323,2.31148916455142
2.26112836874519,2.2610796974334,2.26217664992486,2.26234615888534,2.26242712701694,2.26312301515579,2.26390042285297,2.26397511404518,2.2647576436751,2.26483243175316,2.26566026691091,2.26637420370833,2.26787615218763,2.2673517079996,2.26727658233397,2.26786662304599,2.26832142814548,2.26851758051302,2.26947606041667,2.27170167355254,2.2710613539995,2.27116069589201,2.27088455203742,2.27153641130351,2.27078162682874,2.27187057944659,2.27233016404765,2.27341280894019,2.27337702367916,2.2740042176218,2.27455501944434,2.27450773356205,2.27563330057982,2.27547869241697,2.27615161373789,2.27656502129425,2.27704011057536,2.27688044585292,2.27699353631013,2.2777481590143,2.27828047231718,2.27906045440763,2.27878958526872,2.2792856059197,2.28010956791637,2.28056709373594,2.28075490461661,2.28185042801505,2.28224102157281,2.28254626950768,2.28323747719034,2.28385329107002,2.28455725897065,2.28470269916795,2.28627922224608,2.28470596267442,2.283811690794,2.28426951360142,2.28429479167477,2.28558889610704,2.28534058959543,2.28524623492195,2.28509203918705,2.28564116524723,2.28668531777755,2.28675723870152,2.28662571171523,2.28676145099564,2.28800954857976,2.28875071763549,2.2887801386458,2.28895845135868,2.28894572742421,2.28908107265594,2.28924419550218,2.28957923960126,2.28977694589924,2.29150870878114,2.2931596728822,2.29170164448555,2.29171564272845,2.29170189319306,2.29203160944112,2.29278245254846,2.29321167061616,2.29325328913655,2.29341414735402,2.2934465842566,2.29305586734816,2.29389313165732,2.29419231111085,2.29462858512515,2.29652343778888,2.29590355845616,2.29585839011543,2.29588548771462,2.29565877936683,2.2958346519351,2.2969805253909,2.29754974910907,2.29735754252916,2.29711719226783,2.29793074578559,2.29790896870156,2.29815293288322,2.2985115856371,2.29883872323834,2.29901573029029,2.29870683626727,2.29982500981748,2.3001640494259,2.30030524195267,2.30134233415684,2.30112431985526,2.30070855386449,2.30173781866239,2.30184110433593,2.30218192789516,2.30243881018859,2.3028008527974,2.3032745143942,2.30394741797715,2.30383601921245,2.30333464751141,2.3037376464432,2.30370433677124,2.30387882233049,2.30416361570061,2.30448834042651,2.30474781867328,2.30491113538006,2.30493931013954,2.30519678275386,2.30545988584309,2.30581279023549,2.30576478757772,2.30535795301665,2.30542062024143,2.30567121323063,2.3055492138789,2.30615953836615,2.30647185375219,2.30665958691881,2.30654795179679,2.30665483428528,2.30700913538727,2.30712780424133,2.30738485090247,2.30735374051043,2.30773314804605,2.30811055743712,2.30793140426263,2.30853172821857,2.30899847425162,2.30924030006478,2.30971035366433,2.31030217782659,2.31043938813633,2.31124869548794,2.31175312681064,2.31168930233044,2.31180489203198,2.31299633211639,2.31091151241128,2.31056001930278,2.31058835537777,2.31072514322342,2.31170133920421,2.31124680088354,2.31052774346283,2.31092708687431,2.31099393879115,2.31124764864186,2.3118784320796,2.31161088196688,2.31212239650243
2.26127017106724,2.26159512303326,2.26350868486418,2.26457461003224,2.26324312590118,2.26375707357952,2.26427552441803,2.26460421155023,2.26507563508367,2.2655962898044,2.26612531986463,2.26677961292087,2.26774591475676,2.2675410727713,2.26732134395885,2.2681016884304,2.26870374934641,2.26891049298336,2.2692720232045,2.27083567717835,2.27112108363166,2.27083745612425,2.27139578381849,2.27121510025944,2.27104528967495,2.27207893925815,2.27302594754068,2.27354540626531,2.27445272327589,2.2742814199537,2.27493661873526,2.27557816319686,2.27585552355822,2.27601334801869,2.27733663195341,2.2771030706377,2.27726907836751,2.27706352443237,2.27732149292002,2.27807742139092,2.27869787592132,2.27896026473194,2.2793749348241,2.28000511027113,2.28058411395206,2.2806726899051,2.28093534867335,2.28136376840639,2.28153933415359,2.28264708680617,2.28320410262507,2.28347956988901,2.28432330002711,2.28477962966904,2.28590863838122,2.28590182161714,2.2866202257023,2.28674495557309,2.28499474761435,2.28512353667807,2.28552385851002,2.28556870822851,2.28540333713249,2.2856961732867,2.28684923243149,2.28753190049647,2.28861543896691,2.28769296477215,2.28783490516817,2.28849860346014,2.28903123076359,2.28947003476383,2.28992505172596,2.29071940199156,2.28967109758906,2.29018102328264,2.29090978137244,2.2929695384102,2.29242232460289,2.29212630242725,2.29210935447624,2.29221688412034,2.29176300588809,2.29249027192296,2.29319462910615,2.293589998229,2.29389107573405,2.29475160547313,2.29431321799637,2.29540490932779,2.29496594838979,2.29463880575318,2.29543501389493,2.29588613678312,2.29674401440215,2.29668662747107,2.29676255307349,2.29638161750995,2.2972134526444,2.2975801158825,2.29763430134245,2.29748812265927,2.29815109409805,2.2984566731088,2.29873371867613,2.29878313645951,2.29905443805594,2.29983318193933,2.29992068417776,2.30066839132541,2.30082088362883,2.30063813469139,2.30128175878631,2.30166760544484,2.30282044604057,2.30269726266222,2.30311858481975,2.30276371144262,2.3030673747664,2.30362853563773,2.30368735002618,2.30354275746851,2.30365706051445,2.30312166183618,2.30420712931336,2.30428814435145,2.30435748088438,2.30380784877253,2.30532946551006,2.30600284474487,2.30580145256522,2.30560882084149,2.30517422179604,2.30565438046753,2.30619852769687,2.30614123567943,2.3056972244811,2.30579143596944,2.30587632948497,2.30636995676881,2.30627402241652,2.30643420161596,2.3070694561113,2.30683613322904,2.30685967577686,2.30735626090492,2.30782104310759,2.34606166867475,2.34587349264554,2.30759325142971,2.30827336979838,2.30814306585938,2.30899085977957,2.3093571415352,2.30962219117832,2.31003752990081,2.31098821609281,2.31348296702537,2.31193852858068,2.31158233136087,2.31202321763131,2.31221224285104,2.31169235666144,2.31142237372074,2.31140877245689,2.31122173506059,2.31120739680016,2.31126693832063,2.31131150469911,2.31084007577728,2.31171532650454,2.31223562677711,2.31189812674405,2.31252515505781,2.3119582290474,2.31222944847298
2.26134670710887,2.26151716788027,2.26304350829706,2.26288254271992,2.26342475066657,2.26418381051431,2.26551315020061,2.26430587431861,2.26557904304153,2.26600753637183,2.2664234816579,2.26723218134679,2.26779328411378,2.26779200379394,2.26791419254947,2.26872972500066,2.2692983067254,2.27000249162776,2.2706057480054,2.27308081676639,2.27146595082826,2.27052611472174,2.27143615604467,2.27173631838106,2.27167265757147,2.27261082081765,2.27327311504888,2.27406421629277,2.27396610834398,2.27463441962776,2.27547011613051,2.27638743439312,2.27694515372497,2.27666158943817,2.27654362195818,2.27711424016378,2.27731353363064,2.27790526372891,2.27760425103145,2.27850340961342,2.27912962880257,2.27991654415404,2.27932615651736,2.2805071464953,2.28009414814157,2.28087631305688,2.28146106093965,2.28197063530753,2.28213815119882,2.28301051599245,2.28346200978395,2.28387028538829,2.28430902538035,2.28510110597648,2.28651699570771,2.28643708928373,2.28757573273138,2.28659927930908,2.28689829473822,2.28579758329739,2.28617907635606,2.28632138967797,2.28610023891801,2.2862947461543,2.28660838316574,2.28776247678951,2.28811887318122,2.28850404101053,2.28887320683046,2.28884719011858,2.28956412893622,2.28932268489903,2.28971811154766,2.28966251740843,2.29070949522023,2.29060618389336,2.29100180863022,2.29261285691194,2.29187950165301,2.29248138181089,2.29248330860279,2.29212173176153,2.29234568838207,2.29254468250373,2.29416401969565,2.29410874969568,2.29387991644626,2.29609022403791,2.294993567635,2.29578237487145,2.29541751107499,2.29499949459928,2.29505013479432,2.2958637625761,2.29653634258641,2.29753047727789,2.29916249867103,2.29763348398731,2.29752902162757,2.2976692362429,2.29799944228743,2.29807137290841,2.29906726129084,2.29888908042221,2.29902202295624,2.29921318174918,2.29960286529682,2.3001345836475,2.30046759706926,2.30091069593486,2.30114215747393,2.30122025861953,2.3015224378559,2.30200258020982,2.30333667800375,2.30292289997378,2.30247083215629,2.30250209357123,2.30336782592513,2.30460376819344,2.30444969878136,2.30400523195162,2.30485107663448,2.30517412688591,2.30478530971491,2.30499365659238,2.30510714183048,2.3055749213183,2.30582825854509,2.30608538321019,2.30654248507791,2.30770762969699,2.30603139490541,2.30597447962095,2.3061500702351,2.30689240490485,2.30705876404272,2.30662777694146,2.30639066242877,2.30661134330772,2.32455700345763,2.34651464346885,2.3468201775988,2.34646586175646,2.34552665977716,2.31428834465374,2.31436936376534,2.3451712157737,2.34444355822059,2.34385744530618,2.34307233115649,2.34323707625357,2.34584824085394,2.30963125847523,2.3097561015772,2.3100959795438,2.31043629959432,2.31292945070522,2.31355730794242,2.31224986131262,2.31244321564493,2.31248189057837,2.31381916922593,2.31385021077632,2.31221957578898,2.31170959628166,2.31122385178372,2.3117429597084,2.31197663858743,2.31243556348628,2.31289651282475,2.31348996385986,2.31379224309073,2.31345920519428,2.31247099853175,2.31274329692428
2.26165713890945,2.262569126949,2.26259597530672,2.26288947878939,2.26334278281007,2.26422620246527,2.26454696590808,2.26445439831315,2.26509242320292,2.26590372510939,2.26640441160159,2.26651185538138,2.26787580116429,2.26924580673125,2.26893339077277,2.26936710723628,2.27027849115392,2.27084454346901,2.27126798087546,2.27147285372848,2.27146020035918,2.27097824233345,2.27143728522396,2.27160867568047,2.27267328489851,2.27319147515158,2.27387824292931,2.27447799683189,2.27451260852075,2.27605619988411,2.27580371418566,2.2759721083141,2.2766200354161,2.27736211413342,2.27706828109278,2.27760476976362,2.27820227872756,2.27820447293106,2.27937568059018,2.27916668948014,2.27978346530989,2.28010029781081,2.28003290029286,2.28006878855475,2.28110086155861,2.28116293171199,2.28140196787404,2.28246609223028,2.28299405904393,2.28345225202128,2.28375763299954,2.28401652987499,2.28434360019747,2.28495316401209,2.28585643308562,2.28606349012625,2.28643545563807,2.28669975045694,2.28784766348961,2.28729688806643,2.28703526859065,2.28647732600301,2.28674925598,2.28669595825101,2.28805637627402,2.28892325311238,2.29036946409065,2.29046203557637,2.29280504113634,2.29279252855511,2.29087894579372,2.28945465997379,2.2895806483218,2.28971497840026,2.29038798464159,2.2906811962212,2.29113896488084,2.29150757596589,2.29195296017261,2.29338415668485,2.29314886980585,2.29326692500708,2.29251364853278,2.29320509829335,2.29458054602041,2.29480231874761,2.29496574665303,2.2951585568577,2.29558795891434,2.29592598155255,2.29604036381771,2.29568884766294,2.2961629171547,2.29611672606236,2.29709385411064,2.29750995813285,2.29733452788773,2.29734640088874,2.29820583645914,2.29833532534663,2.29875889991422,2.29918811195755,2.299338593333,2.29921101818046,2.2997218015245,2.29972671906786,2.30007293772974,2.30070548688317,2.30091040844624,2.30155578040806,2.30165708198087,2.30205740833693,2.3017343751519,2.3023951972043,2.30283145689491,2.30302201913523,2.30333892919645,2.30324311923208,2.3033421104189,2.3044720751215,2.30527359519224,2.30584045866331,2.3061255672313,2.30602309677286,2.30599862898935,2.30569022559746,2.30550017993278,2.30591455827459,2.30616672837709,2.30603970894969,2.30678371549425,2.30701681340177,2.30643842024825,2.30683451930362,2.30745387325458,2.30793225489622,2.30768829819119,2.30758064347325,2.35425251665311,2.3475079691875,2.35029114281807,2.34693816718263,2.31584796693326,2.3459295441626,2.31377133384176,2.31366368854435,2.31330876666571,2.34481146886796,2.3139938409285,2.34281909098299,2.34260837495454,2.34293044643061,2.3446529593545,2.35182893933117,2.35221476588978,2.31548019722361,2.31170162438504,2.31290464531799,2.3123595544774,2.31424162460103,2.31322493533843,2.31291653737799,2.31264787710089,2.31267973324033,2.31211040276641,2.31214933260772,2.31189189667769,2.31244626631621,2.31310864130892,2.31604441135954,2.31391797190186,2.3129031783138,2.31270967114821,2.31321242994058,2.31307516891327,2.31333992268853
2.26212427507691,2.26265694201096,2.26374937148146,2.26380445475863,2.26390130316378,2.26466722090768,2.26546937130933,2.26472321404504,2.26521316889846,2.26619436864928,2.26670308878858,2.26687574358037,2.2679176027749,2.26887753214065,2.26984226838533,2.26980423503152,2.26988758395166,2.27051482663063,2.27163112797504,2.27169554660131,2.27159886721458,2.27168965451992,2.27230971239471,2.27298207175401,2.27304329686239,2.27383874749529,2.2747298275275,2.27468523314108,2.27435151796039,2.27469608409282,2.27582607259635,2.27606922239244,2.27651058322765,2.27749475440147,2.27756355285917,2.27796299234013,2.27864129957553,2.28014231295203,2.28027703010648,2.28063046920507,2.28036444672425,2.28044260847382,2.28060944624193,2.28110539939244,2.28115117860433,2.28162592424423,2.28187823204318,2.28214396593523,2.28355337412261,2.2840176861711,2.28416648009162,2.28485382086349,2.28497837598206,2.28500362415049,2.28558004491378,2.28602687526852,2.28660162177809,2.28733990904337,2.28832740056078,2.28801983948989,2.28822863027212,2.28893095105406,2.28797270889115,2.28854157811556,2.28871817783807,2.28941741810313,2.28974464634268,2.29032487486827,2.29270772701564,2.29340205751876,2.29177858535278,2.2900758944387,2.29062144100617,2.29068609720105,2.29056562115683,2.29097429368317,2.29196413223042,2.29240207096471,2.29308487485981,2.29290370819121,2.2935488218028,2.29408795409484,2.29404959456585,2.29407372500114,2.29533207623894,2.29551115635674,2.29544791252528,2.29587820690126,2.29725343554798,2.29801312334633,2.29696268856888,2.29629452581407,2.29666984968774,2.2973209176628,2.29758422160899,2.29829233428202,2.29864966996889,2.29880379184512,2.2995132296165,2.29898539541451,2.29939720714885,2.2993076391587,2.30080424462136,2.30017891543767,2.30012549666466,2.30024219012412,2.30093431133617,2.30132890321931,2.30100296941154,2.34646573867701,2.32261145546781,2.3021533681022,2.34005197877874,2.34073751904567,2.34135027612008,2.32188545878646,2.30374696165182,2.30377853420454,2.30397633222141,2.30516372621256,2.30571473692214,2.30543621898712,2.30550143111705,2.30610856773982,2.30684786960553,2.30640091569794,2.30603814831606,2.30889795570803,2.30669218899802,2.3070397673051,2.30733462958987,2.30785148755558,2.30813969036919,2.30750078766325,2.30840891552136,2.30884078577797,2.30834297565972,2.30783092472067,2.35405817671397,2.35176994753699,2.35329745860004,2.31634814147764,2.31302475356904,2.31254977388632,2.31373446366144,2.31315739435401,2.31258638143323,2.31334940359246,2.3126596312891,2.34131989959709,2.34191192337443,2.34212338789159,2.34915309524851,2.35025819230764,2.35088278006552,2.32672267806911,2.31155951695499,2.31120780894121,2.31201935612792,2.31252112104248,2.31311977825081,2.31370442892957,2.31255746842678,2.31227864117178,2.31328870377595,2.31294121188778,2.31295452391196,2.31285298244131,2.31305682370057,2.31374587278336,2.31386727417917,2.31360398759014,2.31310830416866,2.31307523080098,2.31334556567789,2.31410564761776
2.26250608763408,2.26308473800089,2.26353408597858,2.26484256146614,2.26485996830931,2.26524537634066,2.26511509742021,2.26496274403601,2.26536994305031,2.26679608074763,2.26742637591254,2.26809483959523,2.26792349474339,2.26905864948906,2.26973795520508,2.26982584375813,2.27020444159178,2.27082182602997,2.27176245154554,2.27098958833304,2.27188622503809,2.27204194917271,2.27284906042712,2.27472528757201,2.27404644030413,2.27416362972356,2.27464979828988,2.27526061727364,2.27627324545881,2.27655426032796,2.27668030343711,2.27738927744248,2.27697650628353,2.27738285113812,2.27786429806355,2.27810161917628,2.27835395846147,2.28158790924996,2.28026581974574,2.28060959316201,2.28097724636205,2.28128778633129,2.28197216609025,2.28163994975217,2.2819858115504,2.28213142212792,2.28196560880843,2.28233962786704,2.28397620091689,2.28486927975289,2.2843215866634,2.28426954071335,2.2853598770093,2.28551903633586,2.28634644856183,2.28630836353328,2.28658487538118,2.28715815601712,2.28772309648492,2.28845369016756,2.28894813100263,2.28904960305266,2.28957865777702,2.29187150759879,2.29024412909764,2.29035173810944,2.29054852217354,2.29128998693529,2.29256447327301,2.29310302145835,2.29257390432413,2.29234973727311,2.29203772973745,2.29115690096049,2.29088376257049,2.2911393664668,2.29163143557994,2.29212432172103,2.292110086107,2.29324528454279,2.2939474121391,2.29454581653552,2.29419727782838,2.29478862682193,2.2958167732863,2.29656209451512,2.29779172200118,2.29961097556734,2.29968149574382,2.2970258055429,2.29745574921981,2.29679157996965,2.2970599548886,2.33172729946849,2.29790103896705,2.29980506107111,2.30272385118781,2.30093220902771,2.30008049484053,2.30060554815062,2.30067805456443,2.3010539312364,2.3011652169839,2.30111272609513,2.30192089486654,2.30663342197429,2.32996818698064,2.30139669050565,2.34336703372075,2.34334770442739,2.34138457156006,2.33862919128642,2.33993816270545,2.33995052080895,2.3403449594371,2.34146346869508,2.34195053916832,2.34822777865894,2.34740578674006,2.30553880536552,2.30589008480333,2.305276995353,2.3058811635067,2.30624682771356,2.30687758015438,2.30687636839154,2.30671748447865,2.30729614167598,2.30794097836296,2.30761346794917,2.3078635870898,2.30752186167417,2.3081919023796,2.3074523686725,2.3083764112352,2.3093128121916,2.30950847269867,2.35855356084423,2.35519109948551,2.3539054194369,2.3543236591318,2.35370241148946,2.31191095794967,2.3122351788159,2.31206177976388,2.31257121580329,2.31243957516788,2.31333389222606,2.31398979257275,2.31460887815212,2.31447592616869,2.31460202758964,2.34826119649405,2.34926475935453,2.34999109946637,2.33954640089516,2.31226901859763,2.31209845420168,2.31238243531156,2.31289258638503,2.31317938598351,2.31235264679026,2.31380494463964,2.31310964046703,2.31315619873553,2.31331038689647,2.3134403602457,2.31409657160164,2.31350409261536,2.31348573291027,2.31419782769685,2.31428506063476,2.3132734271061,2.3130781932102,2.31375403661547,2.31446759571226
2.26294531147575,2.26318635924089,2.26351228908864,2.2645678955135,2.2666038072445,2.26617567043234,2.26647323541575,2.26672958536508,2.26783532330301,2.26840875423477,2.26803639567728,2.26807736743665,2.26869737124645,2.26928868327395,2.26912725020563,2.26987590442442,2.26993375097102,2.2709446780764,2.2717020819776,2.27215372327313,2.27259491479467,2.2737256893857,2.27319683932031,2.27377545316582,2.27407350180813,2.2743528279788,2.27446329109048,2.27526106104698,2.27636549831266,2.27685516328,2.27697594042947,2.27731066535502,2.27727015292726,2.27792882730885,2.27810294658316,2.27822177186977,2.27820934350856,2.27975077736993,2.27972811403832,2.28097251327532,2.28131817927464,2.28151961108211,2.2816643494443,2.28257332614906,2.28243622598826,2.28276476571554,2.28243739278688,2.28316235255897,2.28432620685582,2.28485647114418,2.28446853376621,2.28446944923352,2.28559244168145,2.28530960539991,2.28541459745938,2.29858201208715,2.31768497709043,2.28713042768922,2.28761335598363,2.28970437438132,2.29001869405328,2.29205618722205,2.28897474706297,2.29038406261419,2.2913351516386,2.29118973355958,2.29138291625878,2.29183734298299,2.29273037540668,2.29205242805142,2.2930589716255,2.29312327843263,2.32055634602282,2.32101168800543,2.32152726118193,2.30401073581016,2.29103144971484,2.30050346992864,2.29341427601525,2.29391431391134,2.29461846059548,2.2950185258999,2.29559203248805,2.29534403331934,2.29622345405982,2.29700886655623,2.29787669321432,2.29911809603626,2.29835793039543,2.29919503673311,2.29887529319122,2.2977895298061,2.32863130412345,2.32953457160269,2.32978929605466,2.30099593627009,2.30310735511805,2.30202183530261,2.30090408990745,2.30033037496928,2.3015466873219,2.30313247118249,2.30233416345668,2.3024468087364,2.30478306330306,2.30780219733901,2.34361282976525,2.3421174270619,2.3407271718872,2.34181699589604,2.34186695332238,2.33991553930377,2.30767818572861,2.33940899460727,2.34020534395078,2.34198245299996,2.3417109140706,2.34778415030034,2.34675364059399,2.30565899697825,2.30592612989517,2.30506547105035,2.30611346070432,2.3065764477908,2.3070332272618,2.30763718978452,2.30814538774038,2.30926634944082,2.30851172889996,2.3085922145606,2.30873751908075,2.30925050672913,2.30939530377613,2.30902757934489,2.30826826268746,2.30917114321747,2.30850368115779,2.35756057470339,2.35654030070224,2.31430738997528,2.31417917280718,2.31288639336384,2.31349971213851,2.31220892454369,2.3126805591267,2.31252818088474,2.31228899797151,2.31289815969691,2.31438496425637,2.31355369043534,2.31423852876285,2.31440873486331,2.34934123692938,2.34901812909984,2.34983457379659,2.34800786973355,2.31279004105116,2.31390754194005,2.31383616279174,2.31596926847819,2.31414070981138,2.31310349166358,2.31341681248943,2.3148872985616,2.31347549088655,2.31379809445783,2.3137376371972,2.31609144608382,2.3142368629291,2.31531387570804,2.31514695118411,2.31563491419336,2.3148265379167,2.31502855982372,2.31504491334808,2.31505471661002
2.26389369216712,2.2642238264929,2.26424815540508,2.26510448826748,2.26651657511472,2.26655928831643,2.26670340979098,2.26748295498446,2.26779210425322,2.26809209466182,2.26831973114424,2.26857027560095,2.26909856003504,2.26975907337557,2.27051350969242,2.27030725705912,2.27037475225319,2.27091418872932,2.27179354669764,2.27208303343007,2.27293474139928,2.2730361361671,2.27347918810556,2.27380423908117,2.27411191795758,2.27451644498637,2.27449500678213,2.27520131511986,2.27563431154349,2.27685998756509,2.27709600666181,2.27713597970782,2.27772061303992,2.27825348016949,2.27815199718843,2.27845778867331,2.2785954294013,2.2795606870378,2.28035253753024,2.28120587184256,2.28209516059544,2.28244903394741,2.28261213538366,2.28272182861309,2.2833416515782,2.28335149490958,2.2832142180165,2.28425786580647,2.28442441265131,2.2848360012744,2.28466033179887,2.28479632575935,2.28619059610973,2.28595079636761,2.31499800418663,2.314752775377,2.31547107644003,2.28708348632217,2.31658648431364,2.28844636550083,2.28961976197876,2.29025586462132,2.29018205490096,2.29145202288556,2.29288028305095,2.29166777714361,2.29105444041779,2.29218128007044,2.29306091825714,2.29343325542377,2.29421576563147,2.29511430032064,2.32007346347923,2.32015490895145,2.3198454290646,2.32020553662376,2.31995996886708,2.29786238190663,2.29580831059594,2.29486743165186,2.29536968339184,2.29585960773031,2.29662057807273,2.29626843468635,2.29752226757704,2.29754819695503,2.29751599466478,2.29891625241354,2.29937788859476,2.30102175305478,2.3006466526772,2.30137723125643,2.32874562647572,2.3284395096814,2.33005903749594,2.3001605096664,2.30174915256433,2.30171385172414,2.3013740123646,2.30231257225277,2.30220094180673,2.30207511534841,2.30278177425488,2.30510106104561,2.30727887290498,2.31303020317557,2.34528531982892,2.34423919150664,2.34160059396556,2.34138920417897,2.34300793065423,2.31158302507217,2.309160802724,2.30949466668185,2.3094341121629,2.34431623573353,2.34590744320463,2.34644699619087,2.34602855266484,2.34595521793617,2.34568500808634,2.3461391921523,2.30711497940067,2.30747009741572,2.30795088377255,2.30836932487622,2.30911250786813,2.31019361790891,2.30926121397711,2.30946358924931,2.30939198658355,2.30875415248385,2.30858098084682,2.30879917722531,2.35781834443597,2.35761885930965,2.35822274405507,2.35719220227743,2.35693597304817,2.31426911376541,2.31422493707388,2.31331434267302,2.31295949977059,2.31199845095056,2.31339744072346,2.31268354535184,2.3118460398737,2.31222283687746,2.3134518642813,2.31381844843721,2.31417771637548,2.31435595593316,2.31530769878723,2.34862821642496,2.36102569965131,2.36131623945178,2.36031603909927,2.31473975828411,2.31366457545644,2.31445345266227,2.31442573578348,2.31424014713685,2.31438570704074,2.31407244700228,2.31490995763754,2.31456577948367,2.31462076444108,2.31501058250405,2.31445683384786,2.31602127457377,2.31547948447038,2.31523002078692,2.3151125102005,2.31523909015608,2.31597809904008,2.31570022298896
2.26412091721374,2.26451214968914,2.26506474988606,2.26527428882875,2.26673586266432,2.26667425928396,2.26711547102945,2.26684872084928,2.26722539709174,2.26819609988605,2.26850694317838,2.2685188523146,2.2686938905641,2.26980879223152,2.27087490289672,2.27079323125169,2.2707748510662,2.27199279332053,2.27283737797139,2.27320760359362,2.27373664001974,2.27516851646771,2.2739225580882,2.27429233115324,2.27466620456412,2.27528207412441,2.27516370405894,2.27628647728145,2.27646643867841,2.27707476838865,2.2773375834532,2.27777258475549,2.27904104852352,2.27879877880422,2.27839805947765,2.27892665222229,2.27916677933193,2.28044048904437,2.28173405655009,2.28362456297624,2.28317091219902,2.28364522208419,2.28543723303985,2.28377985674272,2.28385184900067,2.28375320990939,2.28353290737749,2.31642640221311,2.28515702961906,2.28478256540757,2.29589069283755,2.31267902084535,2.28750448056661,2.31339195246538,2.31404933460155,2.31407596099669,2.31455679064781,2.31533656275861,2.31728330741958,2.2892769234268,2.29005113167526,2.29039246575564,2.29060657640509,2.29107815459148,2.29121315722384,2.2916355487022,2.29169199142055,2.29214622591719,2.29299987866449,2.29425961110964,2.2951130723616,2.29590338983262,2.31934964363402,2.31922471359764,2.31968206842757,2.32076193282038,2.31971200299317,2.30000099896789,2.29586844341555,2.29577945234664,2.29620194430668,2.29626148949606,2.29700021506077,2.29854233754516,2.29888622274486,2.29797711721043,2.29732744914433,2.2977289470521,2.29866550863651,2.30070752649554,2.30091751863093,2.30072145420109,2.32972071575217,2.33026072916838,2.33042877490614,2.29903622262823,2.30107834254423,2.30134291255858,2.30160506841271,2.30245730349173,2.30276190315752,2.30323134106835,2.30342059729332,2.30705054148419,2.30722794220539,2.32174549645823,2.34518332463702,2.34367848701599,2.34200036885959,2.34149456476095,2.34317838010641,2.30992059737118,2.3085347579888,2.30907824868115,2.34097967792447,2.34479860080599,2.34599627918434,2.34577467289171,2.34488281599497,2.34546665373828,2.34450396488695,2.34550963216078,2.30703152019846,2.30753875552561,2.30829166265004,2.3088860254006,2.30924123586679,2.30891174938065,2.3089985124625,2.31053573291844,2.3104211410634,2.31004954139995,2.30990844845513,2.3101218051394,2.36258990538776,2.35893821841065,2.35733202082704,2.35673604492616,2.35640279263425,2.31389821535479,2.31406798892547,2.31231253489727,2.31189062283552,2.31156709024692,2.31276533891261,2.3129290218176,2.31324009708085,2.31344608283607,2.31573283630631,2.31364070532386,2.3142711573234,2.31448201629065,2.31627858886805,2.36520703244903,2.36794322920355,2.36566387910131,2.36480704659617,2.31522009638205,2.31520480614887,2.31434329553554,2.31468399633368,2.31481425068795,2.31480348790692,2.31484947911723,2.31435755284372,2.3150728349156,2.31554354747149,2.31608145193429,2.31542170851832,2.31547142389777,2.31546337717057,2.31530145760428,2.31544034886952,2.31645636579751,2.31690831260529,2.31636486224641
