2.30243116811762,2.30343299389587,2.30333608086329,2.30407148455691,2.30561793131992,2.30663763019137,2.30709521196965,2.30803154268389,2.30746158226199,2.3078571017648,2.30777202056622,2.3065268686531,2.26890284915904,2.26784138781157,2.26771981805232,2.26740132307817,2.26724683483677,2.26794687199117,2.26710102175485,2.26699138277373,2.26729684604969,2.26722418844145,2.26728422167394,2.26743319156545,2.26755612902173,2.26836484687943,2.2687383678881,2.26953594607052,2.2692784773322,2.26917503769159,2.26888987415,2.269571667523,2.26942363920918,2.2702560072654,2.27044647509331,2.27083664359642,2.27160580432118,2.27235960219269,2.27218629214944,2.27215619500071,2.27317234382437,2.27371241638282,2.27546305079295,2.27652715310958,2.27760932110122,2.33123309746941,2.33273297409122,2.33338712301153,2.3326656393224,2.33233231991239,2.33246796195604,2.33059721041141,2.32928184515575,2.32826554753096,2.32702218647084,2.32705763738198,2.32747070449817,2.32684835649264,2.32473693990622,2.32363358415564,2.32304554931638,2.32323391619572,2.32271160573764,2.32235347689349,2.32275065660889,2.32229262075965,2.32313300403818,2.32407449102294,2.32352668652933,2.323199308617,2.32431958854977,2.3245407101705,2.32504772415161,2.32559346176185,2.32663805424633,2.3281226973697,2.32903795542144,2.32992415873529,2.32919774017315,2.32951304027487,2.32993250125879,2.3301259032004,2.32825783221808,2.32745996997108,2.32759663725887,2.28561112997571,2.28496203188169,2.28511933259547,2.28411520827268,2.28210543212523,2.28203309655471,2.2814691409888,2.28102216743983,2.28067416821199,2.28074752934728,2.28070907062874,2.28082818621492,2.28134165043841,2.28058526767436,2.28006211600837,2.28012000002264,2.27999552773897,2.27996497113068,2.27940249372447,2.28001471941566,2.27962371885154,2.27976469683988,2.28052543622802,2.27986969393599,2.2798119802573,2.27935732960643,2.27969437256168,2.28004606292382,2.27961302317722,2.27996659220933,2.28027719901202,2.28069494829015,2.28136801211705,2.28066639952547,2.28039742468673,2.2805550239739,2.28078031964873,2.28085716560409,2.28191426614096,2.28122162507382,2.28143185485983,2.28279466696032,2.28295258941095,2.28192217175191,2.28209453970043,2.28222005307672,2.28268306876254,2.28289091213025,2.28363983682765,2.28427835642188,2.28505773925856,2.28468335232603,2.28605317599718,2.28603143515048,2.28654390971002,2.28767980355575,2.34571135323894,2.34552259450342,2.34592297879064,2.34794826679202,2.34785550393517,2.34793016837703,2.35038602691522,2.35037026496298,2.34612464783555,2.3537141737448,2.35373003459596,2.35382647865355,2.35336625111413,2.35371405769988,2.35360627533818,2.35397842262536,2.35491702771155,2.35367030706965,2.35343567218729,2.35286944148441,2.35361499458711,2.35368407968646,2.35391532788301,2.3543836888987,2.3548891218865,2.3555348037898,2.35701437786173,2.35610755151175,2.35635632316999,2.35673443029957,2.35692074350343,2.35709179074404,2.35765360181636,2.35625103102097,2.35577623312163
2.30233224454924,2.30276457051826,2.30467339637307,2.3051446122071,2.30625540064831,2.30693801361009,2.30713596465073,2.30782872966417,2.30682653786654,2.30625308002186,2.30614841635689,2.26883325234386,2.26842498135521,2.26837933726646,2.26787318120726,2.26886143015687,2.26767801166028,2.26809463630937,2.26745445468709,2.2669859013813,2.26750933218067,2.26733471939935,2.26706325423288,2.26690116417495,2.26740020718553,2.26826751412317,2.26847374370973,2.26945920845213,2.26874228905809,2.26905395814147,2.26916341987707,2.26932530126292,2.26959609539642,2.26995890023333,2.27020463583415,2.27123106283246,2.27114311125605,2.27211941397493,2.27152471763227,2.27236697789735,2.27304617395473,2.27396498791947,2.27510599069258,2.2764118341633,2.27800021464055,2.27915046758938,2.33207879194221,2.33308764461008,2.33240461721717,2.33240846187489,2.33243869632956,2.33048685126086,2.32998635227415,2.32914961405838,2.32851619506135,2.32808701123666,2.32731370922217,2.32743893253699,2.32585320039191,2.3240872550442,2.32382731895094,2.32378109745357,2.32325656681703,2.32338711433691,2.32391720825246,2.3233433864127,2.32350381723199,2.32449739029007,2.32386572424989,2.32380938654563,2.32479517471563,2.32559348873142,2.3255572695162,2.32579642576162,2.32673371674476,2.32779427099043,2.32870618070265,2.33006127457896,2.32925933909649,2.32965464455538,2.33058416886773,2.33067311899382,2.32738540629062,2.32649151528086,2.32665517839378,2.32744865512407,2.28540081318825,2.28550793985897,2.28455149753522,2.28289907404283,2.28182192292559,2.28106323823717,2.28145982906004,2.28147790200935,2.28096982090991,2.2806964325866,2.28028980810774,2.28118147479178,2.28041812702662,2.28031045902101,2.28000685340645,2.28010917818605,2.27994254176446,2.27994591232695,2.27985353850711,2.27972224851167,2.2798391630982,2.28059762375851,2.27992646491892,2.27983171936898,2.2798371004239,2.27986359348564,2.2797918043174,2.28005858360798,2.27999297791901,2.28056345671012,2.28221067050795,2.28175511180657,2.28043399476039,2.28060213758057,2.2803773184448,2.28084798793771,2.28065930916437,2.2812127879951,2.28139192089905,2.28199699493136,2.28220160925169,2.28305083688706,2.28226810313083,2.2819741714934,2.28254842930734,2.28260676483164,2.28273031366891,2.28381168486486,2.28439524978019,2.2844136886536,2.28499608600809,2.28641658165564,2.28647477676415,2.28729007196438,2.28841438308364,2.34453186845997,2.34396778107619,2.34435533744531,2.34491253936244,2.34524692728063,2.34660178620219,2.35008877078488,2.34688019493302,2.35259619079658,2.35400102114692,2.35353529201021,2.3543155780996,2.35450160875882,2.35392207629519,2.35386620766564,2.35412787695679,2.35516225690799,2.35386615668577,2.35348755524519,2.35348124903976,2.35359672170649,2.35424581040595,2.35472482696864,2.35428725914988,2.35497280294832,2.3555234069698,2.35779665170783,2.35835465518489,2.35832285179613,2.35750248750548,2.35783528699238,2.35714433566255,2.35711530958986,2.35630483044613,2.3561768598936
2.30275926117159,2.30360952836334,2.30517452610607,2.30652061194114,2.30663613316786,2.30692917492295,2.30795704410285,2.30786479366149,2.30661100621244,2.30553224811323,2.3054805181387,2.30616494382206,2.2682166374644,2.26850936085033,2.26847892027218,2.26764969104144,2.26721119587481,2.26794697286552,2.26708604560864,2.26712562025128,2.26712742817248,2.2670586777603,2.26731183956603,2.26719730857,2.26814528591134,2.26930226930169,2.26896857541916,2.26972221303575,2.26921555675576,2.26911620138301,2.26931052182039,2.26939027867804,2.26949252329911,2.27014279259671,2.27035560706357,2.27054293910749,2.27111672383226,2.27208632329204,2.2714591576569,2.27260373023577,2.27347547151904,2.27413517869303,2.27482197622069,2.27632440388046,2.27807736878363,2.27943507090047,2.33133107256408,2.33287926036666,2.33246409956257,2.33243921030606,2.33232363834464,2.33253624551947,2.33105937546798,2.32961199501011,2.32879387058743,2.32798988326738,2.32721745527755,2.32803012282715,2.32672134594484,2.32525760785198,2.3243945374268,2.32478623860495,2.32365137344139,2.32374083177805,2.32355664934104,2.32422438835887,2.32368278426042,2.32488190782343,2.32410616706626,2.3242086004709,2.32443143541145,2.32557440891749,2.32633380948615,2.32639602950501,2.3271363062528,2.32813270047555,2.3293280785297,2.33060365266249,2.33014432048765,2.33073976509333,2.33090796629381,2.33019997373964,2.32715059430059,2.32643196248971,2.32639470006473,2.28557311382839,2.28525964359818,2.28546522195174,2.28427547149242,2.28269561959336,2.28177211366389,2.28116445300999,2.28133942947694,2.2812560245834,2.28095222573263,2.28107262582733,2.28054371920199,2.28128524421474,2.28075143496606,2.28064891491844,2.28009441146042,2.2799970651867,2.279904529095,2.28007487352985,2.28008510876402,2.27986492074331,2.28022924167604,2.28070717677481,2.2798556840566,2.2799195875872,2.27973496431802,2.27987103557039,2.28012283919553,2.2803216962314,2.28039855646983,2.28036132335747,2.28068419354446,2.28162223175254,2.28080851911082,2.28045640272712,2.2802990298641,2.28035924117912,2.28098415485175,2.28105390619825,2.28171182220289,2.28254363634588,2.28253572280009,2.2834056544201,2.28280605113752,2.2821860613062,2.2824651728342,2.28286738465354,2.28305018532933,2.28411769667778,2.28419501005313,2.28438956236808,2.28560557831602,2.28675403238769,2.28661200420607,2.28798953243299,2.2895371072194,2.3426501575845,2.34273368392255,2.34320230262927,2.34378634762784,2.34429533815163,2.35474388968523,2.35399523641405,2.35427279374515,2.35562609910187,2.35755064501719,2.35509691597656,2.35491741892096,2.3555973811672,2.35504360906575,2.3538409113608,2.35425549141832,2.35559825227061,2.35444040735016,2.35351879836673,2.35386322820606,2.35419681657984,2.3545565385024,2.35513260257935,2.3552659279153,2.35573484458691,2.35639341597572,2.35809623779767,2.35696156197634,2.35752258771315,2.35769968056653,2.35807393224033,2.35735341296018,2.35730635807549,2.3565077150346,2.35511488267122
2.30373444174827,2.30451993003437,2.30576601216017,2.30666654559006,2.30688667156688,2.30701625973877,2.30748091377606,2.30758283737396,2.30515042874588,2.30487094767097,2.30498160440888,2.30568489706556,2.26847893448813,2.26787544008955,2.26779826317055,2.2676819345868,2.26741424503741,2.26805113402077,2.26712187555545,2.26704063257586,2.26706043372208,2.26772200387795,2.26772452932243,2.26765107322953,2.26788523424128,2.26890716834882,2.26914414525343,2.26990302252945,2.26945834966758,2.26925371898664,2.26878799643529,2.26940275034819,2.26962375665502,2.27019154838141,2.27057986505935,2.27063273628556,2.27189538654624,2.27229983759342,2.27150481211586,2.27244936334678,2.2733576815625,2.27426365598982,2.27489307829666,2.27578992729199,2.27718657649223,2.33290896397164,2.33218252959355,2.33300652189052,2.33228803636717,2.33205181888406,2.33226009847185,2.33276942389074,2.33179400076967,2.33019747267626,2.32928737172061,2.32880737771851,2.32822280715052,2.32899502297236,2.32853641032714,2.32672141502682,2.32570080646644,2.32584841439916,2.32500201048735,2.32442351542911,2.32409762879575,2.32423861227663,2.32453441037426,2.3255533329548,2.32484337389857,2.32521340078606,2.3254118809176,2.32633135824985,2.32663705338828,2.32720767476356,2.32763039904612,2.32858156470762,2.32968421105554,2.33113217051708,2.33056939507687,2.33116616926329,2.33157906072053,2.33101547597089,2.33030823341696,2.32722623902746,2.28707903831434,2.28571982684709,2.28531313341944,2.28534906411542,2.28355297079833,2.28282833066799,2.28230126885107,2.28199448884273,2.28132359933769,2.2807039856586,2.28106944704887,2.28112514672607,2.28048812215614,2.28130685820964,2.28062131227889,2.2803421485823,2.28020911712639,2.28016963325341,2.28007540863652,2.28016731704638,2.28015520595014,2.28005914082377,2.28025838678131,2.28079157761681,2.27978202416588,2.27995473373508,2.27992726751251,2.28012277897978,2.2802844087512,2.2803928495884,2.28052279456781,2.28053867250124,2.28090256825327,2.28187421707373,2.28120356066194,2.28147932660548,2.28101559925844,2.28123508097628,2.28088575171845,2.28161891596438,2.28198684993483,2.28229969911153,2.28381008720673,2.28384551009353,2.28322893505884,2.2831157029335,2.28310612080054,2.28289949184648,2.283431556377,2.28398251451042,2.28470212063832,2.28515599343397,2.28577204911989,2.28697930731798,2.28652204086861,2.28826415838037,2.3426455033227,2.34245457263633,2.34242971024793,2.34248175373291,2.34329004684418,2.34403208213459,2.35402265253075,2.35486355403189,2.35417621862471,2.3553927514501,2.35674695719313,2.35620738627172,2.35567580672747,2.35585168596982,2.35575830563366,2.35480526080422,2.35603782585495,2.35639343305185,2.35499281016833,2.35503561674689,2.35513365324035,2.35498387630911,2.35530454553683,2.35571047320392,2.35601221237829,2.35654932042215,2.35888590866076,2.35902994302285,2.35782260027942,2.35825572992178,2.35811997942454,2.35774680414605,2.35759022046345,2.35762434980528,2.35672789820203,2.35604512104817
2.30313573071052,2.30512511717384,2.30632662517694,2.3073813035164,2.30715331169962,2.30704523317629,2.30818534229249,2.30837789952053,2.30720708326172,2.30582948883625,2.30499383185279,2.30573793116906,2.26872807734291,2.26862469708597,2.26895164056071,2.2676520491882,2.26754679854853,2.26837203287461,2.26768948737917,2.26727095748649,2.26750928908647,2.26790296428554,2.26821653581999,2.26784614258443,2.26798654766376,2.26923483122286,2.26925455173634,2.26992876710185,2.26920226872477,2.26965694051241,2.26949063656809,2.26989275404684,2.26970129909731,2.27010867215272,2.27083637660612,2.27064611596428,2.27152859508912,2.27235007204325,2.27180735658773,2.27239718635672,2.27321699377557,2.27376151395523,2.27472924195409,2.2758855163324,2.27755284314113,2.33253810394259,2.33225554273611,2.33306997484384,2.33232964701028,2.33249292829031,2.33232242941248,2.3323295966532,2.33308835507478,2.33081998324677,2.32988767924845,2.32979629043398,2.32905988686631,2.32944954947725,2.32824034511299,2.32618273778182,2.32591344288967,2.32637491991241,2.32575547099606,2.32719902715064,2.32449900025461,2.32480963022426,2.32527233267608,2.3262709673673,2.32608077456334,2.32559094165284,2.32605229636461,2.32725590810345,2.32740117160453,2.32802991277843,2.32851892469404,2.32905154886539,2.33036368884985,2.33191186375467,2.33158518828386,2.3315626266981,2.33168770904868,2.33177723727937,2.33132387254856,2.32804026784308,2.32706305156064,2.28584470062457,2.284878112643,2.28560618010535,2.28554378552155,2.28325098113152,2.28262199845327,2.28190340442969,2.28094234540557,2.28069387261785,2.28102106246799,2.28076187288107,2.28054782555755,2.28144015357765,2.28093958152458,2.2807026077867,2.28057486694598,2.28033659822399,2.28015532359192,2.28001445142487,2.28012005767844,2.28059553753719,2.28067499509224,2.28102562507823,2.28003378358751,2.2798517261332,2.28029614240981,2.28038609649427,2.28060137943161,2.28062612191173,2.28070355422664,2.2810573943236,2.28274186330602,2.28238359360372,2.28150920372831,2.28111338057707,2.28158649832068,2.28211518180851,2.28161465795654,2.28156948954378,2.28166402971684,2.2818630247979,2.28270718256744,2.28356340909027,2.28284234388246,2.28316802563637,2.28324907667999,2.28384940228701,2.28484180609784,2.28448018584525,2.28478061984771,2.28560662346553,2.2865167853681,2.28749828667776,2.28742576628029,2.28891556867889,2.28959661233753,2.34223245104015,2.3426339390933,2.34226112200598,2.3537407109936,2.35396178330359,2.35400971459441,2.35520829813927,2.35398680600279,2.35492950463943,2.3561548999106,2.35590655560706,2.35584858372629,2.35581496784235,2.3557431199858,2.35562087189933,2.35566488720122,2.35678038736513,2.35554354440342,2.35518875456396,2.35548145629889,2.3555904560142,2.35617689035989,2.35707469646111,2.35667233234422,2.35715571827705,2.35791041533103,2.35910250862583,2.3576519953418,2.35802369630046,2.35781732911723,2.35737038629606,2.35710179908219,2.35792989160481,2.35632498746294,2.29952348898499
2.30356477074804,2.30534320250585,2.30632625714346,2.30737015854284,2.30777841167273,2.30712053731704,2.30813374004462,2.30904877269613,2.30906145070565,2.30988269915816,2.30597551769518,2.30605676725241,2.26885808588962,2.26755190345452,2.26779422761685,2.26917620617938,2.26846755665512,2.26885161260715,2.26849000467657,2.26758517943501,2.26796100224822,2.26810852078646,2.26768881307669,2.26784738813622,2.26788756607607,2.26837906152891,2.26927854481534,2.27000739068263,2.26949900331424,2.26920021294283,2.26915169039064,2.26993088101771,2.2703128959813,2.2701222241811,2.27061653625688,2.27078597047426,2.2716874579808,2.27241338207948,2.27177450426775,2.27223043612245,2.27330158306648,2.27373296302672,2.27476703246622,2.27628188855794,2.27743762921843,2.33218442487272,2.33227302725111,2.33308464915671,2.33220746750551,2.33240261908078,2.33267788349813,2.33241320552193,2.33274794305741,2.33136365138355,2.33067687335498,2.32997422675813,2.32957362410563,2.32973710353454,2.32827392026078,2.32721642263595,2.32779334451363,2.32577261273152,2.32538013531838,2.32563056640378,2.32469393507742,2.32497723766863,2.32514435112402,2.3264720415624,2.32592427152336,2.32587011270023,2.32614084424757,2.32715658686449,2.32769431807358,2.32885214661575,2.32999649143715,2.33075376939211,2.3317339225571,2.33278505039723,2.33210676652568,2.33209792446692,2.33238446871268,2.33239985494103,2.33160754687528,2.32825782640842,2.28640682447875,2.28558794269598,2.28469470354889,2.28522701053089,2.28407039647803,2.28307809484861,2.28217048397919,2.28258373782279,2.28128586143528,2.28099095994638,2.28082639512308,2.28073927095697,2.28091241887862,2.28160951057071,2.28075463461848,2.28075389189094,2.28053963453922,2.28046360718068,2.28022796058375,2.27978022169902,2.28017629204541,2.28054185694075,2.28067858666158,2.28124737698285,2.28050084349891,2.28014717770553,2.28076529497672,2.28055257327817,2.28040505645399,2.28035518295793,2.28039458880423,2.28061733169772,2.28105686417825,2.28204001391836,2.28131732200151,2.28158212395591,2.28133976961296,2.28174610346301,2.28121882146791,2.28142305885014,2.2817505976632,2.28168161286273,2.28242806108675,2.28347221589843,2.28289612276086,2.2830241989533,2.2835047419511,2.28397791843051,2.28490589774794,2.28441546093625,2.28474733745667,2.28527750074469,2.28635241084689,2.28774287338017,2.2879004477714,2.28836205454348,2.34330658031383,2.35358650082029,2.35334683501777,2.35294342372355,2.35345763304005,2.35397049620962,2.35436081379757,2.35577374885393,2.35451657051595,2.3548344546439,2.3557340015683,2.35597247320711,2.3561450016796,2.35652016228663,2.35633130307421,2.35645080930094,2.35637500954503,2.35734757112599,2.3563656563479,2.35637726281228,2.3565493764006,2.35639039320546,2.35702087119135,2.3569312019174,2.35847405005891,2.35758309804363,2.35825291989614,2.35960011768313,2.35874760105327,2.35883202369935,2.35779319156009,2.356622381018,2.35595533109175,2.35605290086662,2.35626213957027,2.29875018722361
2.30382343833056,2.30469504232485,2.30581823564968,2.30682459871995,2.30686001772749,2.30761446240123,2.30833585417658,2.30915571460798,2.30861676213112,2.30863947191871,2.30905680157597,2.26870395989801,2.26915290176843,2.2681433288688,2.26794438329638,2.26878863294511,2.26795211157371,2.2687281185068,2.26793912793623,2.26743286325644,2.26735655051671,2.26783317921694,2.26797403745376,2.26886608262279,2.26823378843077,2.26886858403928,2.26945809358068,2.26996852625518,2.26911620852683,2.26862604462098,2.26908271273014,2.26968316954546,2.27032389734233,2.27001085543917,2.27037926956686,2.27211844972307,2.2715303288849,2.27247893114523,2.27213253649221,2.27222199742267,2.27291535527559,2.27476274013475,2.27538095181046,2.27617635310579,2.27747458061802,2.33185551414318,2.33203655762219,2.3331684251178,2.33225702635611,2.3326830177997,2.33326662235537,2.33303547446739,2.33419627322676,2.33138494247896,2.33054338877536,2.33108172076248,2.32896870745233,2.32990933608419,2.32865394112695,2.32769994882508,2.3268406682454,2.32664551579261,2.32567600029808,2.32562973248223,2.32571172637597,2.32536977204293,2.32550937834966,2.3268587546699,2.32646037477813,2.32682811163075,2.32764475125107,2.32857702203642,2.32822868156043,2.3295285032681,2.33057760058896,2.33125255841908,2.33230566305487,2.33358461526339,2.33318450289065,2.33281609122314,2.33256197017174,2.33402016347481,2.33260201819223,2.33196488524799,2.33192473959723,2.28492847501494,2.28452463956655,2.28510884052138,2.28390974795766,2.28294312692515,2.28221354026913,2.28220345524998,2.28217074092723,2.28126604461731,2.28119271931796,2.28154576800151,2.28127368266633,2.2819363117948,2.28150456691717,2.28076288194543,2.280560570363,2.28050536036568,2.2804241503365,2.28027176133255,2.28016169058488,2.28041023925061,2.28065865225606,2.28138999794711,2.28073027655588,2.2803785749449,2.28007470722476,2.28063202232284,2.28065893077625,2.28074364140757,2.2806501186456,2.28064463711238,2.28099530855529,2.28201780695216,2.28136285113692,2.28153145114101,2.28166355853113,2.28133568012186,2.28151824085941,2.28164345697894,2.28201583100085,2.28254076729738,2.28279726873779,2.28362822267851,2.28300178656969,2.2832628382565,2.28375101979067,2.28403400883938,2.28427908193902,2.28466255511594,2.28572287057104,2.28622106343954,2.28653610346018,2.28803665321051,2.28860436977928,2.28850408104324,2.35181132376948,2.35191105566467,2.35217027697057,2.35236951817812,2.35268338644894,2.3534571636505,2.3557253695393,2.35684852346317,2.35589861709285,2.355366957206,2.35572266490208,2.35627327650024,2.35591079825973,2.35588213784864,2.35610673587748,2.35648589891615,2.35653823225126,2.35768482642079,2.35657628477277,2.3563199191752,2.3561710074662,2.35693709673713,2.35711509381053,2.35717606577365,2.35805746801857,2.35779225581285,2.35829668650916,2.36007675255232,2.35957123916289,2.35891892622828,2.35788386431132,2.35724596831651,2.35664712830749,2.35742802694374,2.35707708937192,2.29784903556348
2.30372918124055,2.30485443124088,2.30651135883837,2.30716804963998,2.3088734949333,2.30816423395133,2.30849345452577,2.30913659838925,2.30801490195876,2.30895348544809,2.2705661978625,2.26969083840195,2.26899639605857,2.26751657764018,2.2673516524335,2.26831568816011,2.2674096387855,2.26881737586561,2.26892687082214,2.26758822001934,2.26719921300244,2.26733974765919,2.26788795464266,2.26796468786867,2.26811177776584,2.26878226158867,2.26923416208177,2.26994014819247,2.26901683290004,2.26913836161826,2.26962646433166,2.27007242702665,2.26999761168918,2.27056943007983,2.27084045404942,2.27111871069735,2.27167408373048,2.27248754083985,2.27187069476079,2.27247488314263,2.27277211833289,2.27380586308758,2.27500732186561,2.27631891798172,2.27693765302025,2.27920279482831,2.33213932349715,2.33362219022626,2.33260538694559,2.33325037453545,2.33345699469725,2.33348372795938,2.33380953738589,2.33258604400962,2.33157259591329,2.33197855420039,2.33030045737601,2.33051957191202,2.32886699169778,2.32859155261192,2.32736779432116,2.32642267300958,2.32652675072117,2.32615103183458,2.32633780393949,2.32600214829297,2.32595640013518,2.32728688312868,2.32666009429963,2.32710193311329,2.32842815735897,2.32903416027746,2.32938275438849,2.33050493003611,2.33211959412346,2.3320408979345,2.33308595856519,2.33424081267738,2.33392470749603,2.33337387874251,2.33387927619832,2.33411722322102,2.33434506717832,2.33357962934035,2.33161270457951,2.28524386035375,2.28483017726978,2.28536850503675,2.28449279052581,2.28321797901986,2.28297875518658,2.28207289160399,2.28172479680009,2.28178138632531,2.28139399113968,2.28148059134064,2.28133875067702,2.28200100732387,2.28119167563127,2.28087384735394,2.28082109203754,2.28178596863005,2.2806408745266,2.28056073607906,2.28037463484199,2.28114591285714,2.28090493468596,2.28156842659006,2.28063051525632,2.28062537636272,2.28180771556278,2.28094164943257,2.28061665259788,2.28101333135144,2.28074687279458,2.28107283702721,2.28131317543238,2.2823020833535,2.28170213227014,2.28185006584266,2.28152929830591,2.28134518133186,2.28203442714838,2.28249708828891,2.28238830367212,2.28252127911304,2.28283682881041,2.28385412881414,2.28350692232431,2.28385224555169,2.28376805909171,2.28408074174855,2.28446430760766,2.28502577922739,2.28621798694671,2.2870951030395,2.28732232078548,2.28825729103784,2.28847231340113,2.28943902183694,2.35248870026826,2.35125953498139,2.35240594139489,2.35218008845786,2.35270515198575,2.35368744650971,2.35618808188405,2.35782623381444,2.35792024290882,2.35633650812181,2.35634788573203,2.35626825528128,2.3558264861854,2.35611483711428,2.35638509502971,2.35685223544972,2.35666796908314,2.35809582933818,2.35714894521998,2.35697412295175,2.35689763939293,2.35742383417164,2.35769442184849,2.35794531236532,2.35853839037512,2.35898869534473,2.35944734460653,2.36060688472772,2.35974236262143,2.35882755186753,2.35817845964072,2.35800298913838,2.35810954231571,2.35848233454483,2.29917466222695,2.2979637368501
2.30419937320927,2.30520803651206,2.30635026999281,2.30794931065972,2.30941214329845,2.30994762015037,2.30918130949467,2.30943368303151,2.30804403908566,2.30878096973258,2.31099692712588,2.26939652712563,2.26840708033548,2.26748265077526,2.26770434314622,2.26805378367982,2.26895558102435,2.26885545618993,2.26765948537991,2.26774887295465,2.26811278862312,2.26775663163838,2.26817025086222,2.26873717421908,2.26844624704337,2.26878235409948,2.26955235384245,2.27018991871769,2.26973008293328,2.26934996061909,2.26943193776773,2.26961927892162,2.2699505023771,2.27009611048728,2.27110552617236,2.27088049622571,2.27148434041186,2.27256349150404,2.27206710041121,2.27265613282267,2.2730730375123,2.27365316515987,2.27508712596347,2.27566434131846,2.27699407350988,2.2791310863927,2.3350117316817,2.33476975518631,2.33440537025093,2.33306371997451,2.33308229632763,2.33354981968423,2.33298124435909,2.33281967499286,2.33258745605736,2.33168215617795,2.33121030122663,2.33126023957606,2.32967823785326,2.32886426008843,2.32999666015577,2.32740314591,2.32707589088015,2.32683704670824,2.32674532081462,2.32659103751597,2.3268633689381,2.32798239865178,2.32724257775749,2.32804286302396,2.32838032544698,2.32870730973366,2.32930387265016,2.3307187976563,2.33150465098152,2.33213666251885,2.33308909035189,2.33454896170897,2.33417700261697,2.33422552750759,2.33423128800232,2.33461883549792,2.33419885919251,2.33277554673728,2.33305335184234,2.28548940758677,2.2850480594596,2.28562863029477,2.28502020459183,2.28356933595364,2.28272874690186,2.28182208451016,2.28151578279833,2.28188699470257,2.28136914890498,2.28090178781907,2.28135431988772,2.28214067276903,2.28153097085967,2.2809036538019,2.28122432844527,2.28124487489592,2.28179382781041,2.28137912154932,2.28143867573535,2.28201129215231,2.28172008255225,2.28195243800497,2.28107169037133,2.28134460577424,2.28138929753345,2.28084310177612,2.28121223353937,2.28117341201955,2.28117518858903,2.28173638665943,2.28180146839761,2.28279103451092,2.28261620693175,2.2824919482637,2.28186719588353,2.28210578370221,2.28294348943269,2.28245846531817,2.28284513839952,2.28267543151331,2.28319452784819,2.28407226482634,2.28360649112119,2.28377063915545,2.28382770372125,2.284168570088,2.28494697974668,2.285498652023,2.2860662689563,2.28699552108667,2.28728587949397,2.28835765772544,2.28817581955185,2.35084517109448,2.35216266460709,2.35177726186105,2.35187055133239,2.35198563992642,2.35339941925032,2.35635544331438,2.35698051337441,2.35813072348344,2.35729223398111,2.35692991428979,2.35710577570982,2.35702363643057,2.35663720246324,2.35707091078978,2.35832762785726,2.35733159694528,2.35701656939455,2.35869765289136,2.35847017704393,2.35799335069178,2.35799484057193,2.35840621391327,2.35892045440237,2.35930201197417,2.35955491399102,2.35976008921316,2.35990198241893,2.36092415899367,2.3597298618719,2.35925252086543,2.35935167287096,2.35811065103313,2.35782032499536,2.30100950329851,2.29943693785206,2.29781724721106
2.30428102323224,2.30559546336698,2.30618291451266,2.30786654573389,2.30960942392689,2.31126486619295,2.31133334747824,2.30991587617571,2.30765886040575,2.3077029331738,2.27084297055823,2.26955033684708,2.26755699135545,2.26736993756176,2.26814291139004,2.26744628061483,2.26796308822511,2.26863705654198,2.26764737460997,2.26751651905135,2.26755569131715,2.26769044277156,2.26827869980093,2.26906856267733,2.26933481368789,2.26900898413646,2.26910605765777,2.27018196968086,2.27004499152516,2.26942166406999,2.26939451231336,2.26973577075819,2.26988578847784,2.27022581025145,2.27057925518466,2.27111815566429,2.27196236587971,2.27286280054508,2.27251915337678,2.27295348938483,2.27258509068628,2.27387193157243,2.27473307206665,2.27577178667075,2.27570223634683,2.27731274399822,2.33382135951733,2.33408670791496,2.33314323697026,2.33282829787451,2.33301834949597,2.33373988366237,2.333244877214,2.3328780061492,2.33246428423267,2.33252780601427,2.33130643491139,2.33186235507263,2.3303494718892,2.32865543599763,2.32875547766702,2.32758144083008,2.32728764126929,2.3270546352269,2.32736148961008,2.32758674721986,2.32811513381043,2.32882285307307,2.32800871795685,2.32839708542467,2.32854414767119,2.32888918482403,2.32948600374625,2.33082391018954,2.33152750658835,2.33204626839012,2.33349310298496,2.33488371240595,2.33420159917139,2.33429045877186,2.33454228764955,2.33389741886283,2.33212945774852,2.33188637975681,2.28696257910056,2.28583790822079,2.28556570318209,2.28568268338256,2.28442345442378,2.28327977015388,2.28260416546166,2.28156129427713,2.28149940062545,2.2812629890781,2.28169123084046,2.28132301205691,2.28203228559899,2.28231934811168,2.28121976176333,2.28106796972476,2.28074368102677,2.28091100086565,2.28148326938441,2.28159947782901,2.28130386176477,2.28143396676177,2.28170124637372,2.28209345909215,2.28114272065239,2.28135579506699,2.28188082497818,2.2814965681199,2.28127181171542,2.28204256898865,2.28175215677714,2.28140060497976,2.2819689758202,2.2830730445853,2.28311083672095,2.2831345673077,2.28260367715326,2.28223798168126,2.28266835364737,2.28288521845436,2.28269674166854,2.28280216967807,2.28367487286932,2.2842456057429,2.28339038875298,2.28385219850424,2.2842326204347,2.28439054437098,2.28508697229872,2.28574875768151,2.28636891256556,2.28673918056401,2.2882782284543,2.28890429761254,2.28928540657395,2.35249686917412,2.35179263661474,2.35200728073214,2.35194311121891,2.35307159356268,2.3580940697419,2.35708040970601,2.35694910279451,2.3582066270401,2.35737234729311,2.35729328707,2.35798264601663,2.35759018691681,2.35750497815011,2.35761512480345,2.35822083721991,2.35732421213885,2.35666777637798,2.35902544509714,2.35865445749868,2.35838997751183,2.35873670510357,2.35889377547383,2.35940527027498,2.36014754981166,2.36013187726343,2.36020981686385,2.360254488456,2.36120232150752,2.35971466915608,2.35950489303412,2.35916938781045,2.35805745481359,2.3581920114201,2.35913908295423,2.29726945858339,2.2977997600042
2.3044743283192,2.30552078131641,2.3072694794667,2.30844217844625,2.30967756614389,2.31040605009525,2.31149777710242,2.30979044706704,2.30597445266868,2.30593936549164,2.27195554714288,2.26944128439528,2.26754509980335,2.26733679076478,2.26720246586442,2.26721985409808,2.26836914286099,2.26873274246454,2.26796899675966,2.26754504842926,2.26757173895491,2.26814128883318,2.26872144443834,2.26922790782422,2.26898067512556,2.26867561337551,2.26895791961338,2.27003838568933,2.26970519800721,2.26959333924468,2.26965382844571,2.27010983134423,2.2700058930902,2.27048996454119,2.27080940199527,2.2713024812962,2.27221802818238,2.27304300446504,2.27300302559342,2.27282246652153,2.27332605559776,2.2739355065119,2.27492761214654,2.27548181395467,2.27706111482619,2.27885393332721,2.33258525625086,2.33284274750485,2.33252436003212,2.33273954126278,2.33310859325822,2.33361098096723,2.33420468180319,2.33474361869128,2.33400810858027,2.33277353331257,2.33236780821019,2.33275793782858,2.33165003050925,2.33010787522936,2.32960213724939,2.32962910695222,2.3284934136886,2.32777419237684,2.32776617405584,2.32774310437733,2.32853198726475,2.32946965032321,2.32838691255302,2.32851108559318,2.32755752239593,2.32856698017719,2.32924323977507,2.3305129375001,2.33132708142625,2.3323490427451,2.33397581699091,2.33553277077622,2.33453378816297,2.33456553081682,2.33421058596643,2.33396842490138,2.33099342924281,2.33060581308056,2.33470033695269,2.28560829811934,2.28507135189676,2.28570307242843,2.28506037736708,2.28343514422268,2.28262923093211,2.28177034446142,2.28172815090395,2.28162376781781,2.2816228391601,2.28156166581035,2.28207639094439,2.28248704364246,2.28145332758607,2.28101375597893,2.28105378475632,2.28096795025517,2.28136504018504,2.2815123707572,2.28123427610159,2.28115407466054,2.28150501008935,2.28218064438145,2.2814598276478,2.28108401695314,2.28129526958923,2.28118411045684,2.28141108688012,2.2812057420056,2.2815563318523,2.28180080760113,2.28211309821179,2.28303710199385,2.28243585871287,2.28234650575062,2.28245013141226,2.2822681515291,2.28314706195711,2.28297526836587,2.28336939649422,2.28332677139447,2.28324090174107,2.2844726839661,2.28415164202869,2.28478896628393,2.28496353512488,2.2847845653239,2.28499838752271,2.28572429763776,2.28658442077912,2.28739646407704,2.28860358013428,2.31229228902488,2.35329921854647,2.35238441788039,2.35158888047305,2.3516872297308,2.35777751628835,2.3584936047156,2.35762033950578,2.35744464501034,2.35693031972305,2.35813970109755,2.35711663168105,2.3572254573261,2.35750630118111,2.35719143722413,2.35765964466295,2.35798677641209,2.3578490759895,2.35806575040287,2.359042018927,2.35988396882561,2.35861490927361,2.35851041681672,2.35910812793248,2.35947244368443,2.36023627186099,2.36186615536257,2.36084512202948,2.36032721468641,2.36073966377305,2.36165612685505,2.36054239100154,2.35966610844786,2.35933217908357,2.35944943415051,2.30058550249792,2.29882261968756,2.29797245537772,2.29702087237345
2.30522302509808,2.30577842729216,2.30697881740312,2.30838619618086,2.30947390341434,2.31077070747388,2.31159386406316,2.31031260498911,2.30622671244316,2.30558853080686,2.26999575048573,2.26896452510737,2.26869442838037,2.26764487784032,2.26744975021999,2.26745557236241,2.26793749462196,2.26860621396923,2.26769887071064,2.26778622494509,2.26763690998631,2.26761351660531,2.2677529601407,2.26789049058113,2.26813550228832,2.26902335118624,2.26900805176023,2.26995194274012,2.26933162764438,2.26932029440395,2.26960632415962,2.26979148773681,2.27009374676014,2.27107079592287,2.27074253044181,2.27097427263913,2.27162059354379,2.27273601923996,2.27228253464753,2.2728275020848,2.2733744747417,2.27387288432996,2.27524593320939,2.27565025522632,2.27712965440403,2.27848618193431,2.33249403646676,2.33191914733513,2.33296209839856,2.3336478553178,2.33331865753343,2.33439930656782,2.33462320989668,2.3340521728375,2.33297159649954,2.33255030549508,2.33284768774266,2.33334475553104,2.3320236354268,2.33059833984305,2.33036904598038,2.3295540418631,2.3293645337758,2.32864761782383,2.32823852777383,2.32831820987315,2.32942364937285,2.33038634928501,2.32946077409519,2.329529662139,2.3272249450692,2.32605203160626,2.32603982172247,2.32632658567873,2.32649556028841,2.32975606842183,2.33590674465404,2.33698374779214,2.33622414171334,2.3357142259093,2.33530264938473,2.33018998092025,2.33003951618104,2.33054703485289,2.3314869910688,2.28537516832758,2.28494172588781,2.28560606418797,2.28463065841409,2.28312763914443,2.28248080593441,2.28223419346227,2.28165413728126,2.28161279001471,2.28154373222467,2.28136024956292,2.28271518509763,2.28274123285116,2.28171453059901,2.28175494277384,2.28107139078918,2.28103411145297,2.28083948314556,2.28156812603964,2.28115068368562,2.2813218482383,2.28145363788671,2.28230663149712,2.28165092866525,2.28128348496135,2.28120761822279,2.28125901081973,2.28142642684494,2.28149841086807,2.2815773363804,2.28173876695738,2.28253503599912,2.2831550534613,2.28239352939329,2.28235685013838,2.28350529671804,2.28269225391809,2.28274799740911,2.28310737899008,2.28322296471289,2.28352830148594,2.28387277734633,2.28486325625019,2.28429430386374,2.28433391185935,2.2847147140132,2.28507129900262,2.28570803504379,2.28619383591725,2.28736186857831,2.28797864476326,2.28860422656758,2.32864396927268,2.35236922027065,2.35255747648529,2.351268129176,2.35898718285021,2.35451102792433,2.35696291887658,2.35682028425109,2.35665819252318,2.35680393838572,2.35811963460459,2.35709513808458,2.35676380199323,2.35685390651871,2.35734498776866,2.35809458684828,2.358748144062,2.35796770389299,2.35854445637725,2.35921363417337,2.36064273851711,2.35978355504681,2.35965930205778,2.35982107302389,2.35986557384548,2.36050918407283,2.36050274746866,2.36077236842332,2.36116390967962,2.36113130852506,2.3618674750558,2.36026599864288,2.35982802540174,2.36018271189804,2.35995764137994,2.29980960073158,2.29813119706366,2.29734101915189,2.29618715928388
2.30503706502012,2.30619177835123,2.30776593699363,2.3088735279641,2.30939572529519,2.31040811345871,2.31128067732278,2.31239156818969,2.3141868524327,2.27204429498714,2.2711682641113,2.26899282717645,2.26777604580266,2.26718555074904,2.26740145137519,2.26747680405535,2.26782282093116,2.26870553442296,2.26811522879928,2.26777534685033,2.26789529038031,2.2676620438374,2.2676560772314,2.26805709243209,2.26875460545398,2.2691963083783,2.2691436472345,2.27008206709949,2.26965634107024,2.26968682599151,2.26980502559664,2.26985693714478,2.26998264498065,2.27051218364313,2.27082274097652,2.27155103097486,2.2714106785074,2.27263431644722,2.27222628094505,2.27272261407075,2.27334004429039,2.27457929728922,2.2753740982537,2.27597475990791,2.27737329326718,2.27918926847129,2.27996050410973,2.32380396898486,2.33442717789937,2.33491242766467,2.33523475327832,2.33581583039659,2.33539825936243,2.33449325765434,2.33382274948201,2.3333544720872,2.3337342953164,2.33393629484141,2.33223055448047,2.33144024232577,2.33171740152492,2.33295633403279,2.33030597250744,2.32985053124353,2.32951069859644,2.32983351221084,2.32981252387603,2.33142723068811,2.33157953735723,2.33092724919559,2.32672345065476,2.32578512742505,2.33555079744451,2.33705510543831,2.33871281323031,2.33935841956586,2.33679799981561,2.33888350334964,2.33900824639886,2.3370600568577,2.33183878120811,2.3398337715956,2.32980034335123,2.33100272254285,2.3319691531395,2.28565512864959,2.2849855059152,2.28574161959312,2.28459571670592,2.28326106687715,2.28246311337675,2.28222014909482,2.28225646977322,2.28195950023552,2.28243880492503,2.28165874591341,2.28229016071043,2.28265138660416,2.28158056245756,2.28155939350058,2.2819824695185,2.28120810073354,2.28143945733219,2.28150511280452,2.28109870291193,2.2814072786071,2.28210494876045,2.2825443639532,2.28152779480096,2.28164381963353,2.28154748096475,2.2816464690871,2.28152513885606,2.28181780676449,2.28226521011334,2.2824478221243,2.28248244069157,2.28326860489053,2.28272054964838,2.28274833498364,2.28278068093156,2.28240507845135,2.28314304929365,2.28339114047238,2.28375202510653,2.28405032431286,2.28475008145105,2.28543928285307,2.285270897444,2.28479973310465,2.28484906210858,2.285633950335,2.28576437297313,2.28677122411994,2.28729301810741,2.28767275378654,2.28919106559607,2.34423813344777,2.35596362909163,2.35332326948339,2.35164373113455,2.35844310931151,2.35772718383396,2.35732522154109,2.35700606803758,2.3570233372069,2.3571441527896,2.35825804675262,2.35718095291312,2.35669631214669,2.35726842535296,2.35799619219071,2.36086471245926,2.35953518116116,2.35909407627756,2.35941246284428,2.35981527602574,2.36145117991155,2.36102180110385,2.36029709918499,2.36005168061349,2.3612254573811,2.36081301475596,2.36070547450848,2.3614251186588,2.36127789978269,2.36146644612419,2.36213571461669,2.36059341001122,2.36039206580045,2.36064218344363,2.30390102035587,2.30123686905678,2.29800048248478,2.29741972925782,2.29575300069918
2.30538886368096,2.30605630359887,2.30751258436833,2.30825327641322,2.30893941487334,2.30989294575634,2.31125137677677,2.31235397305549,2.31301594428736,2.27204194850408,2.27092607136179,2.26840526617063,2.26792201647535,2.26742224777236,2.26737759952776,2.26742934673704,2.26774279799479,2.26893063403362,2.26904897147502,2.26837592817184,2.26787319578557,2.26831539269168,2.26806207480589,2.26881927071993,2.26865017616569,2.26902925353907,2.26946709869468,2.27021995082872,2.26971824534738,2.26946538923039,2.26977076017975,2.2703719197093,2.27037521361486,2.27080679850297,2.27129778745245,2.27134352808692,2.27176979749164,2.27281158884833,2.27251698388764,2.27296093686186,2.27318340774032,2.27398148415333,2.27480761343412,2.27630130971457,2.27682160649823,2.27841030112862,2.27953230502691,2.32133426951313,2.3351709377243,2.33559128988065,2.33603641676259,2.33681870124169,2.3367194764006,2.33725668760356,2.33479085771507,2.33512309696829,2.3350417117061,2.33460913674471,2.33278275375655,2.33261079879493,2.33205019418514,2.33107601583351,2.33048293079722,2.33100673191902,2.33001812875852,2.3300948736081,2.33045768015296,2.33213515438782,2.33227841146129,2.33194935566876,2.33274058225151,2.33398080992156,2.33564812585558,2.33630999751029,2.33872833219578,2.34055662090152,2.34087410031477,2.34073054825324,2.3395536386066,2.33952093809705,2.33829076135598,2.33873533417186,2.33878507438202,2.33149466368581,2.33341087494971,2.2858539958735,2.2864760427359,2.28639310131657,2.2857895516343,2.28415724467651,2.28351029293962,2.28276603798274,2.28246323974532,2.28244727016026,2.28279816162814,2.28242726448687,2.28196532619877,2.28263411730601,2.28181598812952,2.28204758056225,2.28146339147711,2.28136629279698,2.28135206106591,2.2814989681865,2.28127045413022,2.28166341231423,2.28222166040389,2.28287898151072,2.28227616914458,2.28208837487662,2.28199059515166,2.2823658117264,2.28197634287436,2.28257628021994,2.28272357605491,2.28235391479386,2.28232452886445,2.2833448965945,2.28275844356004,2.2827830960911,2.28299205053569,2.28316809107852,2.28315917451387,2.28352083417375,2.28354003434641,2.28410621980929,2.28428208909744,2.28548208176153,2.28514022614109,2.28541066317645,2.2856826970149,2.28595381118785,2.28699730865669,2.28735659674468,2.2875255790347,2.28877577231928,2.29013559019648,2.34760158136164,2.35500807899779,2.35731662225285,2.35317901032211,2.35619776003641,2.35713354519968,2.35722798387064,2.35738072551107,2.35735223950359,2.35725212794931,2.35845458210597,2.35707351258834,2.35702520810654,2.3582799347513,2.35886546130886,2.36128433662071,2.36032459624315,2.35986144685927,2.36037005003832,2.36068910754878,2.36207599625785,2.3612546869735,2.36084282890735,2.36081650811575,2.3614379150721,2.36157635576151,2.36152863011313,2.36181691840335,2.36148614961548,2.36158534047171,2.36227378528656,2.3608523620751,2.36031619830571,2.36030439015187,2.29908954928671,2.29845427465331,2.2970845288033,2.29632978313006,2.29542512559404
2.30628102250531,2.30713904736601,2.30767070374675,2.30863120828728,2.30879000491438,2.30916062575396,2.3104284233871,2.31150503973017,2.31073749244318,2.27278443362321,2.27066050654547,2.26946174830529,2.2684261170614,2.26814242531044,2.26772450284351,2.26770443989849,2.26815670637215,2.26887251311177,2.26844432294607,2.26867505311365,2.26849738565191,2.26877368066784,2.26849537495265,2.26896364174926,2.26909857462317,2.26878094952702,2.26940726082884,2.27026400878591,2.26983270891113,2.26980271928698,2.26964683381117,2.27043588429106,2.2704264330063,2.27061225687762,2.2712370894435,2.27167639116797,2.27192965576687,2.27296148988596,2.27255455054733,2.27264978863483,2.27311142657023,2.27375587199717,2.27461674357366,2.27609278782736,2.27844010496637,2.27877832230804,2.28004367199787,2.31067889581874,2.334444355355,2.33649880327754,2.33664267481301,2.33737333332174,2.33706126423749,2.33710642925828,2.33545115610583,2.33497228590014,2.33399674745261,2.33484831587216,2.33342020218132,2.33257203908795,2.33240599991599,2.33142903910596,2.33311803376369,2.33158441646588,2.33107557623131,2.33069908461437,2.33125206551809,2.33258606519312,2.33202594874585,2.33215971792915,2.33270521104024,2.33316495904228,2.33446309770413,2.33669793633069,2.33850667468231,2.34065194676041,2.34195233929062,2.34166304169885,2.34007429172838,2.33930328713792,2.33827111787748,2.33881714051445,2.3399757254182,2.34074650701352,2.34224962576385,2.2865481754702,2.28582666492235,2.28616987237685,2.28493773631979,2.2843370638911,2.28375744699044,2.28303038461944,2.282285712552,2.28224795694296,2.28237374946823,2.28249341497606,2.28197745759135,2.28270922727287,2.28194864507773,2.28140405949779,2.28158502598422,2.28147295281206,2.28230000152119,2.28207090680877,2.28197526047588,2.281860020418,2.28265546346563,2.28307771463712,2.28237398833943,2.28211959762128,2.28290349937411,2.282350400782,2.28208222492809,2.28245467186333,2.28262049619918,2.28254665437032,2.28246151591885,2.28363968298028,2.28326444510744,2.28295017658924,2.28314977407918,2.28354118488361,2.28359463578021,2.28387678835687,2.28411846834143,2.28482823522084,2.2849203557896,2.28568969157841,2.28475795497715,2.2853188165827,2.28656797001791,2.28654521621867,2.28669618533372,2.28860785888404,2.28857713754682,2.29087574931744,2.35437739747262,2.35470826331727,2.35305353138567,2.35657588584124,2.35646062881417,2.35619146317357,2.35689200654738,2.35662617653422,2.35683643301945,2.35746841576059,2.3574643306057,2.35907617332452,2.35786741729987,2.35819617508897,2.36170227021662,2.35951979082827,2.36036198924786,2.36013514936108,2.3600960681413,2.3612038327335,2.36135420355805,2.36263948044842,2.36162181576895,2.36159005655278,2.3618149560517,2.36179419469177,2.36236059491355,2.3622808853884,2.36195855651698,2.36174663875075,2.36116948701066,2.36204801061056,2.35954882129853,2.36176776213678,2.30014926169516,2.29951069962049,2.297925578032,2.29701370194337,2.2956509247532,2.29513448543573
2.3063734371116,2.3074465187809,2.30951369564989,2.3092095027429,2.30940349267413,2.30948424064868,2.30984483100268,2.31114039157969,2.3099557061171,2.30999896950819,2.26926976066558,2.26886713667488,2.26842812903645,2.27106553068802,2.26812398113129,2.26798897966515,2.26805386408075,2.26861236420839,2.26750507917384,2.2678351263402,2.26819999857762,2.26865111734026,2.26864907692726,2.26894218116808,2.2689911924978,2.26892961854867,2.26911187509688,2.27024085678562,2.26988221913774,2.27007570095277,2.26987255766602,2.27003653186192,2.27052281048615,2.27062208129459,2.27107251856066,2.27152719933849,2.27236514799523,2.27319757295722,2.27294117580502,2.27289898643483,2.27312532530839,2.27452966644331,2.27528169084813,2.27609178582125,2.27706133161342,2.27919442308139,2.28041264607985,2.29829127095704,2.3363823305655,2.33643405149218,2.3367740725598,2.33741065284021,2.33697092190957,2.33675081625767,2.33649598161709,2.33526798445806,2.33512511300803,2.33553879624145,2.33421564961002,2.33388766128325,2.33249190903242,2.33178456435763,2.33218686832762,2.33203367603774,2.33218169648855,2.3314235594133,2.33155674293694,2.33313398808445,2.33243953781823,2.33240741396059,2.33274299156531,2.33337997179727,2.33461281831937,2.33652008776685,2.33852338035151,2.34084572612572,2.34143920832393,2.34185591023413,2.34092762919076,2.34001081502205,2.33857886441039,2.33933369691243,2.34026782556155,2.34051367026583,2.34147007684457,2.28703463901352,2.28620287160386,2.28614631357814,2.28470904662543,2.28399333837919,2.28357242843398,2.28351720538471,2.28267013790976,2.28263373339447,2.28225972563557,2.28230604469121,2.28227784925714,2.28291401430152,2.28221626150889,2.28175649668574,2.28172110637287,2.28189853836183,2.28277850243989,2.28308769811483,2.28210588544863,2.28229879443833,2.28213044723419,2.28304128802415,2.28250164182347,2.28217514273992,2.28252777798726,2.28239562392788,2.28245576725654,2.28262150006786,2.28239557748155,2.28248258397739,2.28348837528849,2.28411668971051,2.28341690316894,2.28322017214565,2.28340223022714,2.28390097418399,2.28397867682021,2.28438118645689,2.2844103744629,2.28438867551179,2.28552146856992,2.28620650497215,2.2854407217239,2.28605223513824,2.28669151484581,2.28673106271647,2.28692644798009,2.28738954827708,2.28840497542012,2.2897332860012,2.35700862981689,2.35649278923184,2.35620042189677,2.35674726809457,2.3564108242686,2.35650837849014,2.3571680925149,2.3569842620963,2.35736852360728,2.35776430702834,2.3591680397844,2.36036499121588,2.35934913336956,2.36032341686877,2.36233950183773,2.36152160431594,2.36133907874462,2.36084273748858,2.36048829866914,2.3609913707411,2.36180035490082,2.36323473398868,2.36229118396885,2.36198240018265,2.3626366192155,2.36199668887281,2.36299045247373,2.36277942305331,2.36270182928096,2.36259247100647,2.3617303816752,2.36256768366265,2.36135309445514,2.36104887900583,2.29934616540448,2.29822511447054,2.29772594484923,2.29742483921747,2.29686779847318,2.29517271893434
2.30765040290509,2.30795759334171,2.30840960147919,2.30884427703092,2.30951013163582,2.31032015491126,2.31140994220875,2.31178065814869,2.31100018825413,2.31083263483434,2.26951571064441,2.26937880310092,2.26867802038709,2.26834315851671,2.26729788928437,2.26750204092977,2.2678378851914,2.26866393397318,2.26775779746202,2.26793197970092,2.26828843713245,2.26822839340834,2.26847179060607,2.26850191202088,2.26863529673515,2.26928424879472,2.26921776708984,2.27035457822786,2.26994426636917,2.27046305742379,2.26999866396294,2.27010125350011,2.27090083321201,2.27105290206874,2.27182623435282,2.27200350125545,2.27237666865059,2.27315891995129,2.27265846061887,2.27322512968293,2.27413494005625,2.27488918407481,2.27550498177066,2.27657971818803,2.2773067163942,2.27816895379672,2.27971259894789,2.28067576604995,2.28121925409165,2.33572025747727,2.33615809540443,2.3369781225425,2.33708957939582,2.33750396061208,2.33689482845476,2.33595350931057,2.3354025349426,2.33612809164431,2.33479617073261,2.33385196640445,2.33317645235965,2.33281283490041,2.33194574566514,2.33208794529983,2.33216649356315,2.33290688519061,2.33365657814202,2.33414773070323,2.33317546563807,2.33374051865359,2.33441489801072,2.33445298506796,2.33568541066888,2.33660250009669,2.33832504052885,2.33896503448445,2.34000972396375,2.34139577167828,2.34082437209415,2.33958819771288,2.3392213021794,2.33938219522492,2.34018676269134,2.33979973550954,2.33963518568898,2.28677224072836,2.28573407125162,2.28611052297171,2.28453774841701,2.28425065024897,2.28412132962605,2.28298260313202,2.28304352636971,2.28311480398487,2.28264471799303,2.28219989855917,2.28247070263155,2.28306134465837,2.28214584949461,2.28170926269447,2.2818158018345,2.28190388326857,2.28255253082958,2.28189569249526,2.28161675654833,2.28221857497855,2.28223985714995,2.28306052501324,2.28228626565554,2.2822077921454,2.28254634581153,2.28269256382912,2.28262366797888,2.28265429166495,2.28259091244089,2.28347075264475,2.28375590239254,2.28453181947064,2.28430689612448,2.28397804562566,2.28513278341576,2.28448386195657,2.28479544401751,2.28451363889086,2.28618156699773,2.28547592013399,2.2865972439454,2.28679474181654,2.28587486215215,2.28566186150795,2.28624826904426,2.28651064556629,2.28775459686164,2.28811238266938,2.28906228903463,2.29087019353209,2.35575326990507,2.35707692676685,2.356774135265,2.35618547530995,2.35597173933492,2.35605157717714,2.3567611646317,2.35750857787771,2.36066305768424,2.35999712494097,2.36056346755463,2.36164127203949,2.36062122825836,2.36111294024702,2.36199248500374,2.36102010266784,2.361067325039,2.36137629448812,2.36120027546286,2.36225390535538,2.36248590400144,2.36391456744593,2.36294448768894,2.36235773995327,2.36342967877206,2.36260815541266,2.36338684206082,2.36329419000801,2.36331921675279,2.36262043833589,2.36234225814588,2.36266870229626,2.36106642568561,2.30027563447244,2.29971718438027,2.29801365785982,2.29786515619219,2.29656229029834,2.29599205285523,2.29594587510951
2.30769440093772,2.30816756479398,2.30893468501225,2.30908248494103,2.30963457225295,2.31029817309344,2.3115656594451,2.31210744625812,2.31157516249475,2.2702929175868,2.26902706680113,2.26934617821132,2.26906391236039,2.26828233624951,2.26783915673747,2.26774977988698,2.26839745870615,2.26910160162089,2.2686157094413,2.2683577728324,2.26832214780924,2.26858133758396,2.26863314657408,2.26909140183603,2.26940319637615,2.26924619814972,2.27002577631622,2.27066175169741,2.27009049503301,2.27018928055201,2.27024669570616,2.27036024729664,2.27053234622043,2.2709741311028,2.27119701216989,2.27177921200414,2.27210201197688,2.27305062321188,2.27250113549983,2.27283558263424,2.27345255232881,2.27477817988821,2.27520006367936,2.27591232965968,2.27679884533306,2.27833826882681,2.27958527427214,2.2807059067475,2.28131901121673,2.33552824098865,2.33575084878889,2.33687259933588,2.33738313175564,2.33860440309612,2.33746086125363,2.33729004352147,2.33691991525527,2.33693224155382,2.3351887950745,2.33450108977689,2.33380506481989,2.33340578364276,2.33318525052224,2.33267704030412,2.33309124578661,2.33427041836997,2.33345995469673,2.33482123360056,2.334323835708,2.33522654717647,2.33529160394903,2.3355838405402,2.33655356276808,2.33731164773374,2.33816322942197,2.33879238561038,2.33935809114446,2.34093779010008,2.33991662834782,2.33961796270404,2.33946626967054,2.33926896737294,2.33919532731714,2.33843553692181,2.33845779179745,2.28671712970156,2.2863205440981,2.28663184498506,2.28592908193134,2.2852075153614,2.28525043804732,2.28412118761298,2.28385156380167,2.28347082370273,2.28285028027575,2.28285424044069,2.2828285168805,2.28334725531642,2.28243316252058,2.28211930285927,2.28197013607489,2.28173689699768,2.28232037903756,2.28243782093702,2.2820831250924,2.28252770679796,2.28231995088479,2.28331046754271,2.28273851711148,2.28308426679545,2.28300315325651,2.28265529429953,2.28300166537443,2.28343377645482,2.28358673386156,2.28382158810848,2.28351762833539,2.28457674877039,2.28407043863853,2.28490861124903,2.28407884588093,2.2840142790379,2.28472338079707,2.28511174624254,2.28559467148731,2.28550775139845,2.28608915549247,2.28710875844504,2.28727604100374,2.28629066190773,2.28615347245912,2.28707097196382,2.28923309665959,2.29019893981152,2.28936414131362,2.35521454101397,2.35622061151334,2.35705101436379,2.35599743977585,2.35571351409435,2.35572921745718,2.35631165985113,2.35690584655067,2.35992695025486,2.36051011736791,2.36092520705469,2.3617635709413,2.36276703235957,2.36195624265497,2.36193681343746,2.36234631559496,2.36215219273561,2.36236884202879,2.36291833708875,2.36207308878543,2.36281000235387,2.36430450889003,2.36469120082169,2.36300030620978,2.36321374804524,2.364004611078,2.36388171104259,2.36348056222107,2.36366660518037,2.36339326619824,2.36341655431347,2.36296862773691,2.36326559684773,2.36321849064963,2.29990692099465,2.29823930570752,2.29726536425845,2.29578879480654,2.29609281617133,2.2964825728727,2.29578856256175
2.3078792161355,2.30827295559841,2.30913146328805,2.31009539720299,2.31021654516817,2.31085657859784,2.31169908067726,2.31237817860339,2.31232494485041,2.27017992162404,2.26878414258942,2.26903724433415,2.27105659857049,2.26891561731285,2.26785995603874,2.26853264557149,2.26921441917611,2.26937598356804,2.26857797986047,2.26866916616449,2.26838665751606,2.26926171870634,2.26969029076558,2.26959587270336,2.26942106963181,2.26954364059919,2.27023960618969,2.27082238976307,2.27005676746551,2.26995249702598,2.27014993981393,2.27022311614085,2.27061072545057,2.2711559193899,2.27125042574961,2.27142245565314,2.2720015342041,2.27307621675226,2.27262990523918,2.27294521226855,2.27357431926609,2.27423901542205,2.27531282574786,2.27600702359656,2.27690402514253,2.2777586597667,2.27901079307588,2.28071713921945,2.28156052043755,2.33546501306055,2.3360927375567,2.33715379225637,2.3383604597652,2.33847321719217,2.33921137714258,2.33853428912139,2.33675499644806,2.33762601659795,2.33669108116438,2.33656828591869,2.33707225065449,2.33491389711371,2.33392659914849,2.33375410049548,2.33369212673065,2.33396150913238,2.33413289767537,2.33552572757663,2.33481416322546,2.33549594017916,2.33646326487076,2.33677632149281,2.33692394694899,2.3373979283951,2.3382571596275,2.33903886367535,2.3399904187842,2.34115363543378,2.3400169789448,2.3397456731072,2.34007520722093,2.33968983219183,2.3387799854864,2.3381147417793,2.33778003298872,2.33817199397355,2.28626253716008,2.2867364097194,2.28584219956157,2.2848980868613,2.28409642944857,2.28386391845178,2.28365364060033,2.28356143053326,2.28322167778892,2.28283953284557,2.28295751183715,2.28367815473275,2.2830297806387,2.2823528947883,2.28258093077647,2.2822665693667,2.28263423132696,2.2823815998779,2.28273689608283,2.2827532645571,2.28289991331789,2.28372959312559,2.28329106787647,2.2828511307167,2.28283174691198,2.2830381063531,2.28335341122655,2.2838142324992,2.28470114998624,2.28405202768926,2.28405209692531,2.28479521717766,2.28398976390101,2.28459576814023,2.28428547044844,2.28426537557333,2.28451679248503,2.28500180692585,2.28551733960599,2.28568635343202,2.28580441509444,2.28689436491611,2.28637559342057,2.28655788490405,2.28716596704805,2.28736075028561,2.28805440044519,2.28924522221116,2.28967376084261,2.35457966858856,2.35509481938246,2.35649904396674,2.35533393973613,2.35540873433332,2.35581347623421,2.35698471700147,2.35804535282082,2.35924000101439,2.36019545561927,2.36080762927033,2.36187445490098,2.36338825007093,2.3626693246964,2.36251361424828,2.36312038162732,2.36279495746248,2.36311528628546,2.36325828609502,2.36271446848703,2.36281880419098,2.36433229375067,2.36522081970221,2.36392250747513,2.36445063322356,2.36446084217828,2.36455552802095,2.36427617800223,2.36360587916775,2.36346173138079,2.36409291863704,2.36426371109383,2.35717432442897,2.29929422015514,2.29811939273806,2.297639790462,2.29687642969352,2.29584275445304,2.29679442738414,2.2964571855911,2.29623744906994
2.30832340521636,2.30895850890898,2.30967231908995,2.3103123452192,2.31094948677561,2.31089150094579,2.31172590453571,2.31266362665456,2.27098671726812,2.27024475759926,2.26901176129374,2.26882512921098,2.26861313289609,2.26837831691714,2.26812017074375,2.26845722430176,2.26807498653273,2.26926230502844,2.26886797134985,2.26858483663918,2.26841150826527,2.26921909098607,2.26976404964003,2.26966841457081,2.26985082652978,2.2699188815944,2.27049165759379,2.27097951231107,2.27025514406258,2.27025441447647,2.27044950035445,2.27030058264858,2.2709403552297,2.27162129246285,2.27214742604295,2.27183632705578,2.27229268119467,2.27327058194229,2.27296129972395,2.27315282935393,2.27389541618984,2.27441255254706,2.27502438274559,2.27603371481509,2.27733088813497,2.27800732650906,2.27924367509325,2.28081717016505,2.28091043591213,2.33599393182223,2.3364144058524,2.33784511889655,2.33949657478141,2.33983376890821,2.33983223669649,2.33847651805065,2.33695258457203,2.33825650962186,2.33760401514135,2.33647734501579,2.33563543065284,2.33602231559352,2.33529916913001,2.33450401250396,2.33442003830081,2.3345636385478,2.33487069913255,2.33650310242072,2.33621985358395,2.33530535943749,2.33606006508572,2.33648220615593,2.3370799749445,2.33828989436117,2.33926764448445,2.34037703551822,2.3409512811789,2.3417623863608,2.34074363673632,2.3406733893209,2.34159143351257,2.34063756214203,2.33989940012792,2.34006444418331,2.33950279914087,2.33848667436677,2.2865037168392,2.28675679342028,2.28541052570865,2.28596225723774,2.2848547719799,2.28389619217456,2.28385278455225,2.2833208250915,2.28353586674885,2.28327033881329,2.28325131469574,2.28400417002647,2.28321751902623,2.2826335729191,2.28264503368398,2.28295194015593,2.28266870118662,2.28285757512555,2.2827820716892,2.28309289746724,2.28350974652719,2.28404944511764,2.2834417831036,2.28292306566141,2.28305819177885,2.2832749842391,2.28354757705309,2.28372357361354,2.28392368819702,2.28477210630234,2.28461044200113,2.28519007857307,2.28470724147349,2.28469597411829,2.28484551382296,2.2844320938109,2.28439643487004,2.28439794306981,2.28542306112499,2.28601086325486,2.2859711499913,2.28689702588259,2.28629108358945,2.28682405716204,2.28736751867965,2.2879806500192,2.2888407111211,2.28957648876099,2.35369041499824,2.35407661273338,2.35459220735816,2.35630253798353,2.3553764738962,2.35514715814094,2.35594520761489,2.35755286574407,2.35953757134107,2.35985643809583,2.36081119234324,2.36189001246251,2.36289172961929,2.36392675846063,2.36272699562159,2.36290542626747,2.36254429984726,2.36306012020523,2.36300378094395,2.36285260017901,2.36295631337416,2.36348729699724,2.36441189675158,2.36560857628161,2.36447645888333,2.36570478433749,2.36496581551614,2.36520726299009,2.3645719824744,2.36405083497582,2.36343477752928,2.36270086323047,2.36352668821168,2.33548512214978,2.2993792078599,2.29839419525691,2.29726737638282,2.29633283123629,2.29611758827769,2.29646979523311,2.2960210965498,2.29652651179173
2.30867982186311,2.30883249181748,2.30939532695956,2.30971673327147,2.30962270511056,2.31018567318065,2.3114284911355,2.31300184677416,2.31394330526376,2.27028473564603,2.26924539423568,2.26896803896757,2.26823152242949,2.26782723865133,2.26836110217182,2.26815330956304,2.26856866076667,2.26937886127034,2.26894670710689,2.26845169386861,2.26885472569652,2.26959777390596,2.27119725770694,2.26934436555818,2.26941218024307,2.26968058641092,2.27040059041307,2.27099209459456,2.27025159766983,2.27027787512528,2.27112284573315,2.27097820829143,2.27153364550441,2.27161093146996,2.27172821600989,2.27241824720629,2.27239808874153,2.27338686069434,2.27308476169817,2.27291501800425,2.27352372141195,2.27478602617142,2.27512496664247,2.27613043490326,2.27735884358474,2.27820877986716,2.27961142735863,2.2813137348837,2.28239716471377,2.33827910453341,2.33775114700002,2.3387154349117,2.33966076919533,2.33986793315452,2.33991851334268,2.33929333351508,2.33805415739568,2.33895489859379,2.33829216074541,2.33734116830139,2.33804054453607,2.34046323021825,2.33639726497286,2.33605531563452,2.33674644318953,2.33544905549879,2.33558599425366,2.3375282402239,2.33779887977803,2.33676856379771,2.33695345354415,2.33730842516055,2.33798355112959,2.33872596195426,2.33985287858884,2.34076601979537,2.3420916077115,2.34228527965605,2.34101916315486,2.34072447727413,2.34163506991931,2.34215516453995,2.34147822446389,2.34124293292596,2.34189281689467,2.28722049281253,2.28671905006253,2.28692008866136,2.28552074662505,2.28555267765231,2.28431454223583,2.28411551978011,2.28423963748692,2.2840069340318,2.2837703170516,2.2834415883768,2.28416866370207,2.28448566077792,2.28383951276289,2.2838353451603,2.28301329674523,2.28326404083229,2.28337949930183,2.28393042035426,2.28307438284755,2.2832431993072,2.2833362484676,2.28412535920421,2.28350442945319,2.28306961210309,2.2832910449923,2.28345168561336,2.28341587492076,2.283284331086,2.28409269837252,2.28449324812468,2.28423433047022,2.28525395059973,2.28472967961213,2.28434762088133,2.2852713071666,2.28443971911912,2.28470439104098,2.28485277364258,2.2853740340769,2.28584357539717,2.28583903939971,2.28704911100646,2.2865757150145,2.28713811312074,2.28746602647656,2.28892380912379,2.28893188163618,2.29095773573491,2.35355093902649,2.3542777782985,2.35484268130309,2.35662878992502,2.35499005768189,2.35498338257701,2.35661099275836,2.35893007983782,2.35997557130152,2.36074681352258,2.36238267611505,2.36300996673824,2.36346970459139,2.36436033341488,2.36316483381733,2.36308520640392,2.36334788878571,2.36305366411928,2.36299718535485,2.36303417338168,2.36291946214779,2.36418849139411,2.36448785187056,2.36599202587539,2.36499819836673,2.36620245429538,2.3651485551925,2.36533485390128,2.36534335822191,2.36499939654223,2.36423408865353,2.3632147448136,2.30162210099487,2.30058074049261,2.29886352406349,2.29899763479251,2.29791970102944,2.29641277029787,2.29695664181539,2.29630813967431,2.29657974325654,2.29556721623886
2.30853305081126,2.30884047995849,2.30941528414755,2.30919564698116,2.30871489802559,2.30893384283603,2.31001829274103,2.30234000393609,2.26991795188046,2.26970312023624,2.26936340366132,2.2683907824699,2.26827264799354,2.26781364936665,2.26819617749852,2.26942724007693,2.26872698347039,2.26938701629205,2.26863179948302,2.26876944735845,2.26852079248129,2.26873299513923,2.26951521794205,2.26952985777973,2.26924730905488,2.27003085803032,2.27024719212138,2.27098650509906,2.27014498499948,2.27036762952785,2.2709786380239,2.27154304734086,2.27160730838323,2.27164739597753,2.27202699882791,2.27230704850258,2.27248134030482,2.27344310453349,2.27295028144649,2.27274105517545,2.27373856630942,2.27439344260993,2.27499590945915,2.27570091875735,2.27667541613109,2.2776515789398,2.27918965450972,2.281121237384,2.28151987461396,2.33776908351925,2.33802453470633,2.33894054169241,2.33956790510177,2.33961002993218,2.33933363956255,2.33903694559094,2.33836198029863,2.33933569298771,2.33810779921995,2.33776410454658,2.33719179368183,2.33902367788552,2.33776695611475,2.33675960249731,2.3364069908062,2.33608504002597,2.3378701225739,2.33835722351376,2.33708360844721,2.33865796454259,2.33748923122801,2.33804895736835,2.33866393674102,2.33957333153982,2.3399754567902,2.34049270501507,2.3411765632397,2.34234699677016,2.3411487689162,2.34161934436649,2.3412721649428,2.34216779709746,2.3418904158985,2.34176591865961,2.34160324443488,2.28751928631249,2.28724901224111,2.28727529047456,2.28628797709751,2.28538558319171,2.28455650415173,2.2845449526988,2.2842004160721,2.28419663748342,2.28378313775209,2.28377624238723,2.28405933435422,2.28454978692128,2.28340723727611,2.28349122433008,2.2841439742138,2.28430678311895,2.28406517258475,2.28352973109981,2.28333896150379,2.28325242905659,2.28354391286921,2.28424024317652,2.28327248893868,2.28352333295461,2.28368739202985,2.28369272779931,2.28357097901858,2.28357754904031,2.28466682026733,2.28574721267453,2.28451170535355,2.28548855162645,2.28491359045406,2.2844251958926,2.28486349959431,2.28494709137195,2.28496897598067,2.28558423172084,2.28624081529101,2.2870698794585,2.28641477817984,2.28749263528902,2.28718061618454,2.28856345898052,2.28779778737554,2.28951199714304,2.28953460157597,2.29065567844148,2.35498565140418,2.35668366114253,2.35762812436437,2.35829381109334,2.35624453963288,2.35624492345522,2.35842539806789,2.36080154929241,2.36130681044632,2.36312159479949,2.36308410372942,2.36375152774654,2.36333537850391,2.36457488662585,2.36339526860471,2.36332987465686,2.36312729115623,2.36363821875047,2.36389994527936,2.36391560017872,2.36499150872418,2.36484578444991,2.36549539671834,2.36654125076644,2.36533396904453,2.36556742617209,2.36590084006724,2.36532761409,2.36517952676283,2.36583751620322,2.36507858547366,2.30065590501982,2.30025212021362,2.29987670108303,2.2982878167252,2.29808066391499,2.29744001163346,2.29691439248291,2.29658507863985,2.29623612279058,2.296262928261,2.29575947524564
2.30864157860504,2.30919990947902,2.31055569418248,2.30925393760464,2.30818237864328,2.30817216063862,2.30900324452888,2.28918837607145,2.27027623944597,2.26968310034043,2.26996919748094,2.26925863322262,2.2688596089214,2.268046339066,2.26763517367826,2.26792713047084,2.26849387282274,2.26946165236841,2.26916769965946,2.26872175067042,2.26871973832708,2.26906763890316,2.26975715519965,2.269421857009,2.26920660518322,2.27013022199982,2.27083915134989,2.27120252213696,2.27010382045682,2.27045988460841,2.27101786125816,2.27155662855904,2.27171594458201,2.27158718593824,2.27180989429395,2.27238827327017,2.27291818934491,2.27358701149867,2.272819422303,2.2728552297291,2.27330257128786,2.27431938423775,2.27538886207342,2.27615120077345,2.27688541487822,2.27836262386578,2.27966607465877,2.28104478840212,2.28112085908602,2.33858192287782,2.3383211692324,2.3388561988849,2.3394495766887,2.33970868056975,2.33986798513694,2.33927771803079,2.33916444881271,2.34002003485623,2.33835419831029,2.33825588525463,2.33887690425521,2.33845570575037,2.33782475247717,2.33744345394621,2.33787627720215,2.33747094674453,2.33815057421528,2.33905171876603,2.33822411117543,2.33888130812804,2.33866180793685,2.33868372389852,2.33935715407409,2.33983457484445,2.34043999507691,2.34110846604288,2.34140470975343,2.34284090256745,2.34228364849423,2.34191529902259,2.34179046265435,2.34242962803081,2.34338356164245,2.34098757569887,2.34106790724078,2.28836879297761,2.28740183636339,2.28725605750111,2.28574060902241,2.28507195222748,2.2847674980402,2.28440424098362,2.28404287784834,2.28413683183349,2.2844308644885,2.28417606379532,2.28460616225971,2.28486694000256,2.2840043808754,2.28360341465469,2.28406532310143,2.28422629849894,2.28399678330404,2.28397024723228,2.2840120642359,2.28406236053536,2.28412453451339,2.28462926728318,2.28385835665762,2.28379965423819,2.28385905858402,2.28384641980576,2.28391389947251,2.28390763702019,2.28483541268045,2.28505996475011,2.28538206406718,2.28588090427651,2.28513131056176,2.28508254016217,2.2851363400189,2.28540834731731,2.28515398431895,2.28636639422742,2.28697540982782,2.28671743117007,2.28713769810917,2.28794295150958,2.28736935978019,2.28757777386442,2.28834348531556,2.28882046021527,2.29048356109161,2.29059514534311,2.36126110606933,2.35754272163794,2.36024400453885,2.36048573030092,2.35899198462933,2.35732413217184,2.36500278772335,2.36370554589122,2.36318914176343,2.36296352686339,2.36351842453377,2.36360941036603,2.36359674959455,2.36489802716813,2.36366344820541,2.36328771241901,2.36335797173867,2.36498081383034,2.36493347801541,2.36511818075351,2.36501163600383,2.36588378448023,2.36570652289111,2.36700837875278,2.36575226465582,2.36579231842444,2.36680702616385,2.36553414196145,2.36579429934916,2.3659971915795,2.36614543344932,2.30051441676452,2.29887049875685,2.29916830063756,2.29800571874144,2.29912257346943,2.29657819974214,2.29668938909108,2.29595796859375,2.29601513864894,2.29595673043093,2.29588895614069
2.308935639085,2.30998759598935,2.31116988818015,2.31114878614492,2.30838578675901,2.30777950029767,2.27198791586541,2.27107996321603,2.27102376428098,2.27109164766664,2.26962935554939,2.26884988334002,2.26925412800032,2.26840122688705,2.26797561164054,2.26858116760667,2.26851244016762,2.26944328852324,2.26885093140198,2.26885901760909,2.26959136205313,2.26946127868952,2.26971083932693,2.26929855375683,2.26951539860835,2.27013118270748,2.27186274932665,2.27153222790207,2.27034552091628,2.27050470760089,2.27133945996314,2.27220475691497,2.27173573210274,2.27243142069112,2.27239240050926,2.27264809536021,2.27296119306035,2.27381763823807,2.27337061399296,2.2731601516808,2.27361208277065,2.2744242876622,2.27511084689096,2.2760871074846,2.27676156488023,2.27829173514368,2.27944871146395,2.28084155079295,2.28096072742083,2.28213193915444,2.33805687383769,2.33888885892999,2.33922752147437,2.33933489348657,2.33952757731326,2.33964108340971,2.34131353956367,2.34133055884636,2.33986983580285,2.33930131017745,2.33845453299649,2.33826445615782,2.33890324765541,2.33857856649652,2.3383366873024,2.33762470524559,2.33851491678404,2.33959098533896,2.33842032140157,2.33929279680771,2.33990507712218,2.34000231291264,2.34029036471898,2.34147646079012,2.34184439079967,2.34165272670586,2.34225854379572,2.34339278250007,2.34236560417422,2.34247825800568,2.34244251397772,2.3432631920496,2.34532455287003,2.34880901351445,2.34183261545537,2.2880375924057,2.28698240914731,2.2872274013124,2.28581421344363,2.285536961495,2.28470474719013,2.2850447781912,2.28448225644589,2.28410741803458,2.28435032131441,2.28427782771591,2.28445136986671,2.28492099819073,2.28396394182588,2.28348547687206,2.2837408031099,2.28407601296331,2.28428938984551,2.2843776779122,2.28387003099021,2.28354820094988,2.28431683544748,2.28491961309276,2.28432056871125,2.28413373550134,2.28411916235596,2.28413621621065,2.28399322589346,2.28424443751269,2.2846798956987,2.28498618976029,2.28561426091534,2.28614799285375,2.28536443503149,2.28523677865815,2.28589873238195,2.28555502238718,2.28563870233634,2.28630945406667,2.28679588818348,2.28698495038948,2.28777278280441,2.2883787503895,2.2877517568391,2.28771825270077,2.2888959312671,2.29055699033492,2.29145963571387,2.35337588471258,2.35818220094798,2.35772070457144,2.36071264957167,2.36208901984628,2.3624819806925,2.36284534831041,2.36297267988621,2.36379142717737,2.36363881442303,2.36298652330435,2.36305400019711,2.36386557651132,2.36405379831142,2.36546583232457,2.36439850879244,2.36451077513237,2.364638645578,2.36508132475718,2.36538719778343,2.36548290950318,2.36561406722459,2.3664107212777,2.36623332389267,2.3676755904918,2.36678850990758,2.3661091680243,2.36639957130842,2.36556702730896,2.36603169379715,2.36663698801569,2.30099273445204,2.30092459123578,2.29931170179147,2.29893407836475,2.29710278413273,2.29698696634987,2.29585585999175,2.29616409952117,2.29637393403133,2.29789035776142,2.29668484578649,2.29640083392542
2.30924116296667,2.31077345144474,2.31159727776621,2.31260550489909,2.31411538527982,2.31462700523792,2.31500216517225,2.2712333115969,2.27041703464243,2.27015985327907,2.2696843283631,2.27114476898736,2.2687404102188,2.26860887506425,2.2685793304247,2.26818814704855,2.2686644785692,2.26960177236201,2.26915343682477,2.26939868294221,2.27149077687214,2.27001169355121,2.27002882978508,2.27050245416878,2.2698523660026,2.2701948163177,2.27059138399373,2.27135681651721,2.27050406897243,2.27079761627354,2.27115701583764,2.27116958510664,2.27158009420035,2.27225746992358,2.27294923761032,2.27280918483944,2.27329641679755,2.27398141948031,2.27330212519361,2.27321817501508,2.2739397695989,2.27476246341113,2.2747123525329,2.27562512212855,2.27634555766293,2.27787635774971,2.27873126933445,2.28050852689376,2.28067791193298,2.28261621201999,2.33917043480221,2.34060623570876,2.3396553255961,2.34009173023141,2.34073720415068,2.34054448030123,2.34150613393675,2.34220363029794,2.34130691204993,2.34003945351862,2.33980902365104,2.33888746592524,2.34014353466798,2.33853931786653,2.33863894594845,2.33825783846427,2.3390000854624,2.3404732877743,2.33979230761278,2.3405382921455,2.34138997083012,2.34200600260002,2.34193608652819,2.34245101154565,2.34263193897253,2.34291472983913,2.34310790065727,2.34416016184725,2.34314145593146,2.34309361632493,2.34306966049871,2.34426365950675,2.3457418552821,2.34646975073818,2.34456106544623,2.34735029784534,2.28717866559529,2.2874563815187,2.28604360714633,2.2854300758415,2.28518603086645,2.28619374485999,2.28525826782333,2.28522380833063,2.28475974380212,2.28404006310839,2.28434517107571,2.28502525980294,2.28432278381739,2.28393721122951,2.28394578672981,2.28390318131964,2.28404408543615,2.28396560832997,2.28383837835601,2.28412577766294,2.28426391181275,2.28502287035568,2.28429612997693,2.28435509414492,2.28426018750201,2.28434328677002,2.28457398838127,2.28498495212095,2.28481651029702,2.28514416543091,2.28561801688236,2.28633779209644,2.28570525153922,2.28568824045576,2.28538432898281,2.28581125399257,2.28620677169376,2.28656537805845,2.28681376330171,2.28704548028877,2.28744015865022,2.28865988409004,2.28839426227268,2.28819634003933,2.28907409059215,2.29006508670168,2.29087760304685,2.35025317644718,2.36073499559651,2.36025291961759,2.3600937412067,2.36234516817295,2.36227432539099,2.36280701643734,2.36390753843815,2.36379410743043,2.36331379912141,2.36311462743319,2.36291687395008,2.36399468117559,2.36509501506411,2.36619804408462,2.36503238118146,2.36573371016959,2.36607809934182,2.36581361972372,2.36593945848606,2.36596049464094,2.36569133539624,2.36623379149096,2.36687022770192,2.36830241261289,2.36724718864269,2.36694970406989,2.36671690709972,2.36630472267026,2.36613064500894,2.30221207322655,2.30045505183356,2.29933149537034,2.29896277516908,2.29919337825562,2.29856053362185,2.2971274509605,2.29684978149457,2.29629014117753,2.29685973853453,2.29666118299808,2.29620810076164,2.29618231833281
2.30980274334374,2.31074713783119,2.31158830938675,2.31303345647908,2.3135014274815,2.31397835655966,2.27403894228813,2.27263945468436,2.27211681753586,2.27005403494462,2.26996151782338,2.26912631597415,2.26817212967123,2.26850277289024,2.26813461922765,2.26854174858103,2.2687073173544,2.26978763405703,2.2693791863881,2.26911143709228,2.2694806304571,2.26961102360723,2.2697837805384,2.27095416151689,2.27043419248679,2.27031084103143,2.27047793360732,2.27145214350503,2.27093185906067,2.27086761531956,2.27112536442347,2.27113755854196,2.27193149868734,2.27203770452696,2.2722518197383,2.27273426882903,2.27316685041824,2.27416043075662,2.27353624022723,2.27353329093576,2.27423255870136,2.27463391204964,2.27552377963919,2.27630680140438,2.27691367436323,2.27771638944823,2.27868492894193,2.28040648315775,2.28058776781127,2.28166724488152,2.34188332292031,2.34039406151861,2.3399607642144,2.34067927902601,2.34132910798719,2.34120710958233,2.34215154060112,2.34274849611338,2.3408872816731,2.34230816071418,2.34169510646823,2.34040178896393,2.3402078841051,2.33959115842673,2.34020577618951,2.33999414538501,2.34054673380532,2.34160150696367,2.34084852451871,2.34102048286629,2.34086575714778,2.3416673794173,2.34212418449629,2.342510453567,2.34284939012788,2.34325564030193,2.34385927825638,2.34504518223201,2.34439417430062,2.34380027378363,2.34410827547773,2.34603326837167,2.34473488733705,2.34592426632592,2.34618240815386,2.34737752716053,2.28767041057485,2.28793544899707,2.28675536386059,2.28579584141319,2.28589633916216,2.28551357153261,2.28504793271441,2.28486042006677,2.28432770981456,2.28399978188732,2.28427373664927,2.28512105132792,2.28427659116791,2.28418928102575,2.2839978220096,2.28460089665058,2.28455856269938,2.28423230156565,2.28430583909784,2.2844963631506,2.28448998814679,2.28523558521391,2.28458734792369,2.28489762814788,2.28500015180465,2.28493838325532,2.2849951665527,2.28529899951471,2.28518240274613,2.2854508570474,2.28529675042097,2.28650488966487,2.28617061046661,2.28621008265364,2.28612535907524,2.28586385415613,2.28633411907178,2.28683538246735,2.28658217708309,2.2867958688252,2.28763021993726,2.28902600391223,2.28893321694166,2.28900659327886,2.28937862197762,2.29028986889748,2.29075286403935,2.35853803933696,2.36180307378506,2.36105962499167,2.36093839782595,2.36259776528232,2.36186368720859,2.36350699792246,2.36336497475169,2.36365896018766,2.36376109753547,2.36520100902657,2.36388300744834,2.36437437949927,2.36629079313781,2.36687073378313,2.36518158072324,2.36561617225282,2.36655972484232,2.36593904068179,2.36624132139203,2.36597899858951,2.36647493335587,2.36661388650886,2.36777910028262,2.36901441264328,2.36825481426758,2.36703062946873,2.36712565960545,2.36737389391132,2.36633150935536,2.30127093585534,2.29971558427961,2.29854873879295,2.29885370325079,2.29920082135488,2.2985213480536,2.2974296031295,2.29651414813804,2.29631667081737,2.29726928264636,2.29668070492991,2.29651564931187,2.29566808971935
2.31008193649661,2.31122818682849,2.31209040702062,2.31292219788962,2.31311509955707,2.31347978687361,2.27173662276466,2.27241629907846,2.27156101356557,2.26984786905075,2.26930896920243,2.26872851313899,2.26892834548303,2.26885660611619,2.26865740287113,2.26915501553494,2.26989452456503,2.27011804674587,2.26908466009536,2.2690076809743,2.26918763821232,2.27090027336397,2.26993421854765,2.27026133406654,2.27061559140562,2.27039459291596,2.27071473525296,2.27167807615222,2.27116640957843,2.27106510731692,2.27154023379669,2.27143934479192,2.27212587629492,2.27227543866444,2.27224500433544,2.27276167875237,2.27366257107216,2.27458322351978,2.2740325992468,2.2741275176356,2.27454314462187,2.27499005871465,2.27504447257694,2.27605467803897,2.27711236664054,2.27803565647172,2.27892614722661,2.28047307591272,2.28061143407257,2.28165083725439,2.34253506629287,2.3406749666622,2.34050948193112,2.34114791294574,2.34171242488061,2.34218464077707,2.3428320114582,2.34379872352554,2.34236765546916,2.34139076366227,2.34211760274795,2.3412215096632,2.34081577148781,2.34167987417679,2.34196025903103,2.34049288716207,2.34118639005776,2.34259566540802,2.34156425056176,2.34134598735912,2.34165959167496,2.34192805054538,2.34245121034203,2.34297249647826,2.3437915589572,2.34387585254024,2.34455759694449,2.34579386511965,2.34479610528784,2.34532661437485,2.34598754064745,2.34558727592954,2.34509453738041,2.34536742217914,2.34663292301578,2.34707108539258,2.28798727458907,2.28839751992576,2.28733646317393,2.28605843727291,2.28653180403025,2.28542098898391,2.28548921935734,2.28608821254116,2.28487335012793,2.28468001620971,2.28484963757469,2.285534436339,2.2850347283654,2.28516604233642,2.28495627016682,2.28572312827538,2.28527316924713,2.28483281033912,2.28452640730911,2.28446657562422,2.28459846184845,2.28545331357832,2.28491444913325,2.28460907826547,2.28519837949684,2.28581943922732,2.2855330948609,2.28572437792173,2.28558805435629,2.28543493953912,2.28577312233145,2.28681801208813,2.28633811526187,2.2869332388646,2.28665722266081,2.28688415712254,2.28716317583921,2.28770485396381,2.28779470653171,2.28767926968527,2.2879699577104,2.28948999314616,2.2894581362257,2.28911376810169,2.28947417706001,2.35430681627416,2.36213180650157,2.36084427226063,2.36184937163814,2.36207083329347,2.3610714899772,2.3629159297573,2.3622590646816,2.36252740625821,2.36342734291077,2.36364087576879,2.36467284455738,2.36564773225777,2.3651869350995,2.36541298796921,2.36631791840381,2.36745047776617,2.3661558128981,2.36613368909499,2.36648082200134,2.36666613412915,2.36730621679114,2.3670448861121,2.36702093142018,2.36759301021326,2.36808381384686,2.36928738553938,2.36770158717627,2.36726150673402,2.36737129424862,2.36779670599171,2.30039091404982,2.29996958183199,2.29830098774925,2.29842414249169,2.29923228608929,2.29893460563244,2.29738512112542,2.29750737054641,2.29635912143362,2.29609658679285,2.29693516616154,2.29644597791747,2.29712482130908,2.29671554790048
2.31100280880999,2.31146435126097,2.31229446274676,2.31312200815143,2.31326825492513,2.27350794296278,2.27267504821554,2.27250677480743,2.27124077928901,2.27044899573875,2.2698760535437,2.26870419230052,2.26900426675243,2.26913186611963,2.26872775495777,2.26908390434588,2.26934043962872,2.27034478936785,2.26997121951997,2.26950060115001,2.26981619331743,2.26983565621293,2.27001673740451,2.27005798115328,2.27043070521164,2.27048805060203,2.27144747488979,2.27203181022066,2.27094113417276,2.27116784601817,2.27146332037371,2.27220909407727,2.27296928494459,2.27338463630696,2.27308016371473,2.27301353494553,2.27429301934318,2.27512937911712,2.27510259009445,2.27408545160077,2.27441458959881,2.27484783581103,2.27541733937954,2.27620697299201,2.27730581553873,2.27841672956449,2.27932447074669,2.28058642911044,2.28091962832437,2.28162611182696,2.3429491899031,2.34252267200337,2.34134707537538,2.34220263662165,2.34283779529129,2.34355415845624,2.34416518403888,2.34526199721008,2.34413104968961,2.34296848567662,2.34476621028933,2.34343043419253,2.34334822775573,2.34232109004124,2.34244295859289,2.34143550333387,2.34271143967707,2.34406369838948,2.34479492099872,2.34345601786986,2.34278555877096,2.34304217597618,2.34402800204721,2.34363492107306,2.34410897918052,2.34444332255568,2.34563372263904,2.34678084313365,2.34558551494471,2.3457486376483,2.34782809048492,2.34600770179198,2.34587415680363,2.34559993720583,2.34611933976393,2.3465720314934,2.28913234422663,2.28886755264177,2.28764772956055,2.28727449210193,2.28601548080188,2.28572657464141,2.2858974375848,2.28623183369044,2.28568534222802,2.2850969157052,2.28495130901489,2.28573875310098,2.28489398973911,2.28516309695957,2.28503440116226,2.284935824369,2.28474205477373,2.28480090052426,2.2849023277362,2.28472777900266,2.28486819028505,2.28568752723979,2.28498928940916,2.28525233126276,2.28494063796322,2.28503898736738,2.2854125861679,2.28592387991325,2.28590508570077,2.28583226191189,2.28640012123077,2.2872793048449,2.28654909174034,2.28710271931976,2.28742662444569,2.28759429477913,2.28745314986093,2.28761732619641,2.28852739180573,2.28886597688177,2.28891844923886,2.29012649298117,2.29028861590019,2.29008696784952,2.29060494946541,2.29161952982081,2.35975491331911,2.36006731126673,2.36031160859398,2.36184390071684,2.36204526947242,2.36345421654913,2.36271276984424,2.36350865574804,2.36488424893565,2.36555173316945,2.36555116319747,2.36573211909489,2.36621548561116,2.36588660784007,2.36692927706009,2.36807920576719,2.36686552906806,2.36660253044238,2.36722932627617,2.36747079071315,2.36790893893806,2.36784312671861,2.36844172217812,2.3684897227442,2.36873804268476,2.36976697149435,2.36792822151002,2.36788220804297,2.36791485380299,2.30285900214283,2.30072390906754,2.29898656922238,2.2986346019935,2.29889442426244,2.2981015587585,2.2985331652556,2.29749513939503,2.29771513136218,2.29698369492966,2.29664739001797,2.29656918787158,2.29715118233798,2.29925011644036,2.29692590491068
2.31157788760016,2.31207769720357,2.31268596468375,2.31309373381527,2.31271382634584,2.31381932024248,2.27254189298194,2.27251003806859,2.27138019563777,2.27012516432405,2.27027369825987,2.26931477274174,2.26906402757977,2.26952814985492,2.26957870834319,2.26924077816659,2.27042607251328,2.27060637464956,2.27003167778081,2.26938677120799,2.26957715018905,2.26979697936321,2.26961950556178,2.26987807692193,2.27023135600798,2.27095997054594,2.27340504732096,2.27269468201722,2.27157657562874,2.27121163035138,2.27161764090803,2.2715759952741,2.27292398055414,2.2733789325831,2.2734088024136,2.27420010212899,2.27415932710817,2.27516193155313,2.27498383711098,2.27443717121733,2.27484689052866,2.27466254390506,2.27556314296059,2.27639604673852,2.27714347729252,2.27808545084824,2.2786668956293,2.28025816493229,2.28028449952827,2.28088117738184,2.28228635480588,2.34404922901666,2.3429459368186,2.34268179549945,2.34307001506741,2.34402497019288,2.3473101064761,2.34693024977127,2.34609942887948,2.34492924992509,2.34374329386863,2.343213675782,2.34307464540155,2.34202835092113,2.34256082650565,2.34277329417876,2.34293291225507,2.34416754385694,2.34294597740485,2.34223801305811,2.34338495490366,2.34425219757857,2.34375598178406,2.34415203245473,2.3446348732929,2.34508247806473,2.34789836976385,2.34809171505804,2.34701827299587,2.34806653092376,2.34859473621689,2.34718127738502,2.34692111219917,2.34553681111539,2.34498288291752,2.28949153454462,2.28867271169623,2.28885839883483,2.28753995786808,2.28708139966013,2.28663041496404,2.28606539655664,2.28606685592129,2.28558335896577,2.28579942595556,2.28516524979116,2.2860108192013,2.2862014879967,2.28531525628201,2.2854068032976,2.28546287298977,2.28544298861696,2.28508685661831,2.28573969959689,2.28581548430873,2.28552069817862,2.28544928881494,2.28604864496112,2.28531105315725,2.28548900649337,2.28501043296791,2.28502264860552,2.28667676433281,2.2858844020167,2.28660534435634,2.28656416621937,2.28770572406783,2.28795195359164,2.28726367395581,2.28692347566107,2.28706296276849,2.28726463295388,2.28729407953336,2.28764743435276,2.28858779280439,2.28905000074719,2.28972730184103,2.29050589019758,2.29017727821224,2.29058708601855,2.2918080969786,2.29184836521163,2.35945566916749,2.35930566021516,2.36017333134837,2.36108375948129,2.36230291162143,2.36385600677885,2.36299423117298,2.36372672574675,2.36482880931835,2.36593463229708,2.3659493484723,2.36579828243079,2.36628316806517,2.36634057395584,2.36787114831977,2.3686825876176,2.36747721342581,2.3675316864475,2.36738237325815,2.36840900199275,2.37071713978021,2.36975664540117,2.36964624261765,2.36925145594332,2.36907780655398,2.3703582075681,2.36925630664041,2.36880956286968,2.36883192944524,2.30217157516248,2.30095420220188,2.29800583135922,2.29814315984663,2.29745769436184,2.29743073008864,2.29818485965276,2.29752240038313,2.29693941839125,2.29630495510697,2.29623003550134,2.29622557683498,2.29673182467388,2.29683117117194,2.29720241333881
2.31210432866877,2.31289935357025,2.31247688170279,2.31174796074214,2.3123823248057,2.27251026809636,2.27218217797772,2.27235489419135,2.27085431606643,2.2699945865402,2.2703656913043,2.27038773963213,2.27157066610686,2.26900971295016,2.26897902497073,2.26983693902993,2.26936061947255,2.27026095176718,2.26946274938545,2.26937622405957,2.27004210272691,2.26981530371098,2.27009939180819,2.27023240566758,2.27056095967132,2.27117773371694,2.27166268939508,2.27241855389443,2.27113289897,2.27123541780696,2.27165798404313,2.27147851509834,2.27208483131878,2.27272327685136,2.2729924054699,2.27396666924231,2.27428279332979,2.27502850855556,2.27434377996345,2.27433125425337,2.27454717013807,2.27468419874701,2.27536753126226,2.27551764440723,2.27679258331371,2.27767840153668,2.27868149522149,2.28013173606025,2.28035151908376,2.28056744139452,2.28198066339158,2.34237450604103,2.34249355036851,2.34297339838181,2.34374752528993,2.3463400445218,2.34601868344084,2.3469963856078,2.34595521417776,2.34600249499656,2.34532770866867,2.34511953460746,2.34388471694369,2.34303616775737,2.34352780005498,2.34301886536949,2.34341399132444,2.34473370942216,2.34397527145567,2.34395884460838,2.34528302803616,2.3439678450843,2.34428780078416,2.34463576642068,2.34522785002056,2.34567972229493,2.34748622224305,2.34862271797697,2.34735083145578,2.34831506832661,2.34806970399562,2.34760080550742,2.34821027037675,2.34525640463792,2.34467951608247,2.34583985460654,2.28853989213215,2.28896690774207,2.28775775964711,2.28733134762845,2.28678287573272,2.28691099026829,2.28690612412722,2.28581184097045,2.28557963424547,2.28586858046611,2.28559117371511,2.28634656127695,2.28565002661694,2.28533327479449,2.28564915907256,2.28579828026435,2.28562398427031,2.28528670397133,2.28522871689613,2.28509017519202,2.28549369808565,2.28636908702561,2.28576317218352,2.28590743520031,2.28608120317476,2.28611275464399,2.28627650719476,2.28649876569602,2.28691979335333,2.28706980360867,2.28756039588859,2.28818161113576,2.28738479700012,2.28767099383272,2.28856462327438,2.28788877705921,2.2876220533828,2.28780230219836,2.28902520340747,2.28919670416091,2.28989645151748,2.29081911473212,2.29076824384663,2.29176287976002,2.29243291204547,2.35776304706053,2.35919818821097,2.36012624180149,2.36145655402966,2.36134452268505,2.36231333747137,2.36441570094779,2.36433581307967,2.36458039340431,2.36514130975697,2.36588229173797,2.36634578182627,2.36646239203246,2.36647069713985,2.36666844716989,2.3671813200737,2.36891319508801,2.36773908597959,2.36806512887141,2.3678882412374,2.36833659772341,2.36909633880263,2.3698969294398,2.36978768610276,2.36922381087829,2.36921009729193,2.37055744930319,2.3698474179419,2.36928013702998,2.30306634486247,2.301007876479,2.29964397229001,2.29897425639033,2.29758495685717,2.29717201216149,2.29699986641792,2.29784247248067,2.29698484503821,2.29630620706868,2.29584623844727,2.29662077081301,2.29764844335709,2.29748562412405,2.29743306099911,2.29691655730865
2.31386852042442,2.31358391382405,2.31408487788364,2.31021615214942,2.30928526640657,2.27260810830584,2.27249409230116,2.27252507300075,2.27154391399153,2.27033574310003,2.27075158329869,2.27276984271341,2.27096928060696,2.26922311754791,2.26938750559101,2.26937022300634,2.26918245162284,2.27027041607422,2.26977621392049,2.2698052548825,2.26955215397915,2.26997999607099,2.2704919442875,2.27019670086049,2.27036359102543,2.27093167506933,2.27272035358516,2.27281641279407,2.27208727964848,2.27173713721105,2.27200549881396,2.27230856055185,2.27234788070201,2.27302299376124,2.27328678865795,2.27374069910836,2.27412639187708,2.27494589035407,2.27412967788077,2.27467124691312,2.27466258540447,2.27505190659691,2.27568175875217,2.27598802581262,2.27652777364205,2.27730012518752,2.27853373351174,2.27985944956155,2.27961626666149,2.28035168945865,2.28139503369681,2.34270804159825,2.34271848187194,2.34357882665209,2.34403850230669,2.34634621974595,2.34614710622231,2.34702095565346,2.34558808295978,2.34538256874122,2.34544778887051,2.34541101163462,2.34458304668194,2.34385820574319,2.34479971790989,2.34393465411431,2.34454064467202,2.3453998780078,2.34416137137785,2.34417953946686,2.34591567463525,2.34503324817281,2.34558193325288,2.34586252514943,2.34702342491989,2.34971783503604,2.34838414338838,2.34949741788273,2.34851157762594,2.34889088378486,2.34858347148392,2.34837677642729,2.34789276517586,2.34529528152697,2.34367379535467,2.34722905587067,2.28927851495322,2.28938939696277,2.28820438835101,2.28764083421824,2.28735699267843,2.28750009377758,2.28700411955209,2.28829331127582,2.28610612607071,2.28565331318308,2.2856757196363,2.28656777129184,2.2860420003577,2.28646226593504,2.28650243162886,2.28536379979287,2.28549258690981,2.28577797389947,2.28610494955003,2.28568405554022,2.28585211127078,2.28677710441065,2.28622029158791,2.28665526535413,2.2864936320775,2.28697483716121,2.2867701842292,2.28760342425568,2.2870689196216,2.28733296952126,2.28772974912226,2.28843030139208,2.28780190102124,2.28759228206248,2.28779438010085,2.28789528553885,2.28799128975448,2.28820063891937,2.28863161879355,2.28910762941728,2.2903367204027,2.29111510909133,2.29096214118236,2.2920491837767,2.3594768473825,2.35931818444642,2.36004906269119,2.36245527731883,2.36288670943754,2.36232519668517,2.36231404950451,2.36486375792099,2.36451090608441,2.36527154667822,2.36623384415052,2.36679202946208,2.36649470137823,2.3667725183925,2.36714971655133,2.36785031119456,2.368389965636,2.36965211835902,2.36844996907193,2.36888218393304,2.36894212339513,2.36895576835002,2.36929652648654,2.37009269654178,2.36970076672614,2.37031772879996,2.36981109577177,2.37053335226001,2.3697505881376,2.3020809271874,2.30150262869299,2.29908352542073,2.29873899574178,2.2981984947584,2.29751547027786,2.29683980346626,2.29706962348226,2.29778811568882,2.29723810102256,2.2965045157168,2.29706968985687,2.2975821659022,2.29763612159601,2.29762977269293,2.29718097108569,2.29674720997584
2.313853790551,2.31510580331864,2.31646332103397,2.31788503152224,2.30731743501085,2.27186356502589,2.2718491876845,2.27228103471397,2.27108994152313,2.27020432501769,2.27027526177955,2.27081524659341,2.27060877369101,2.26932096049998,2.26993146266425,2.26951615324322,2.26957371860132,2.27049935878985,2.26995578672373,2.26978384874877,2.26992374721637,2.27074166736176,2.27093839662576,2.2706149166891,2.27071080698029,2.27121951395832,2.27237574134666,2.27269225536175,2.27162633840645,2.27160023321483,2.27175324004326,2.2721517988194,2.27257344094551,2.27326884133041,2.27331897808353,2.27440043299152,2.27446466585019,2.27515294276672,2.27450719825839,2.27485450096946,2.27513160432143,2.27601458345152,2.27656363779663,2.27641284118738,2.27678733496295,2.2770848395871,2.27783848081305,2.27979210382933,2.28001035628282,2.28062890820689,2.28160489116714,2.34369621089946,2.34376056311606,2.34393507610883,2.34457082012905,2.34548365144113,2.34617353315758,2.34729147002645,2.34620976794084,2.34597908452351,2.34628396527312,2.34623311430241,2.34611652995758,2.34607761340765,2.34570230867381,2.3453821473917,2.3448187540346,2.3461845073001,2.34548880724436,2.34590006031367,2.34786928684933,2.34664060308148,2.34853246322417,2.34798918438409,2.34849888131849,2.34820835363613,2.34929741631903,2.35038638658522,2.34974897517678,2.35117600463016,2.34887025419461,2.34795449983216,2.34744170669871,2.34757860919779,2.34213117540051,2.34345385920948,2.28959757212469,2.28988820737566,2.28936011901041,2.2886914659097,2.28824121556286,2.28712201875461,2.28801464159062,2.28667930267623,2.28597761551399,2.28575928498374,2.28584293839187,2.28681306819389,2.28604490421231,2.28623099653694,2.2858899452715,2.28567450300392,2.28580856945514,2.28615227380462,2.28631662605685,2.28611656068306,2.28647094078344,2.28729004513498,2.28685493798199,2.2872449718149,2.28726230977629,2.28751138071281,2.28711589609769,2.2873104252009,2.28788282535366,2.28762561075139,2.28757902223339,2.28862929737906,2.2882319184201,2.28858918152132,2.2881492401944,2.28821691247369,2.2889748170087,2.28835155070063,2.28894898814474,2.29012950243626,2.29064249676539,2.29144390498759,2.29128040620018,2.29210744380207,2.36716151553984,2.3548726707456,2.36398203769771,2.36559768701976,2.3637657835012,2.36368288676581,2.36433929744126,2.36592924231134,2.36534352218153,2.36616023585573,2.36690094952084,2.36674750882834,2.36676844110587,2.36748272771505,2.3680328900521,2.36911469548287,2.36931276252531,2.37043916782345,2.36904713002051,2.36897081778406,2.36922659392224,2.36943796292509,2.36957920143842,2.36963715721007,2.36979842506797,2.37045047497263,2.3707184183853,2.37053861988748,2.3694683263582,2.30164999240339,2.3012266788633,2.29885502396447,2.29844715173498,2.29808156978733,2.29797203015817,2.29750623423593,2.29690109602483,2.29759987309518,2.29645133904776,2.29643132171968,2.29719467784415,2.29803063887395,2.29861877746052,2.29747036776034,2.29693514319442,2.29680222325234
