2.30729375253875,2.30772157201741,2.30807583621799,2.30867948599166,2.30907603946498,2.31000445658088,2.3109480072337,2.3117635054757,2.31245986382004,2.31317676694577,2.31408639246217,2.31493144240507,2.31534004373538,2.31562872653186,2.31555243835132,2.31687413583037,2.3170241208438,2.31758588307247,2.31762776673082,2.31791259294681,2.31720575328059,2.31796340548807,2.27351236280822,2.27332802097365,2.27231748869728,2.271991778837,2.27152785857005,2.27154048196513,2.27124389186766,2.27104939157509,2.27069603093706,2.27101768054216,2.27120170832379,2.27134577178225,2.27151149894713,2.27215229302594,2.27157421705438,2.27168949900356,2.27216881437588,2.27251512177627,2.27271506742442,2.27279630053958,2.27320358848602,2.27346329954365,2.27346410552405,2.27420107950906,2.27469024230534,2.2753914697203,2.27573798886538,2.27641947204136,2.27653879453897,2.2778852822664,2.27937829872043,2.28065996083729,2.28132492227334,2.33118439991745,2.33176494295117,2.33229980144087,2.33257542266618,2.33323279617349,2.33401216294839,2.33465343615704,2.33516649068306,2.33485788877648,2.33459264100068,2.33326408944983,2.33268924961205,2.33273919099401,2.33245901408762,2.33240620365026,2.33233362315131,2.33185003955202,2.3316941177249,2.33197460770408,2.33214947558171,2.33265446528966,2.33343918984523,2.33366790285565,2.33408954856491,2.33426457386633,2.33485664331205,2.33500279261156,2.33557310922891,2.33586107223817,2.3360614027426,2.33636899703135,2.33594990540597,2.33630107202218,2.33650860121145,2.33701382246891,2.33560178922922,2.33711132084076,2.2839877121904,2.28378411898149,2.28344013696276,2.28300829924832,2.28223883784473,2.28134371221323,2.28116185035867,2.28095578412985,2.28050036936475,2.28080565434467,2.28042525138299,2.28038532434915,2.28015435973233,2.28007320217182,2.28033047160754,2.28013574422842,2.28012918952962,2.28023487782264,2.27991924702514,2.28020660384625,2.27988341895861,2.27995323046962,2.2800518023585,2.28034074166798,2.27998647693225,2.27991180121609,2.27999642624883,2.28032274784125,2.28159466407919,2.28056020912078,2.2803240539729,2.28022715318933,2.28022778574408,2.28030148757159,2.28080175237368,2.28124710410058,2.2809540288807,2.28076093607717,2.28085567591519,2.28136334637673,2.28205852815148,2.28230862800077,2.28250402419301,2.28274751658147,2.28300397065035,2.28340820513338,2.28366370628733,2.28373047190295,2.28430136325182,2.28424969436648,2.28554823064954,2.28544955370819,2.28551208534164,2.28669396794415,2.28736898403684,2.2878989467746,2.28854181016259,2.28935169745027,2.29048590905434,2.29063626036036,2.29303773774817,2.35097037900663,2.35082333272234,2.35176640532102,2.35178383056758,2.35294655929877,2.35267458732023,2.35290306854146,2.352551491228,2.35372732077861,2.35335887958408,2.35320357313899,2.35285613204922,2.35276987461043,2.3524918845168,2.35259512882416,2.35296080261308,2.35318917514538,2.35300218838962,2.35334396427212,2.35402913936825,2.35401321883943,2.35395618746531,2.35585697633228
2.30719774620018,2.30745544478694,2.30783265166904,2.30844779101069,2.30891574694258,2.30973329470568,2.3107369485897,2.31184132374885,2.31244807445033,2.3131012753383,2.31437352547234,2.31478404587571,2.31498842335786,2.31537024407367,2.31563171243286,2.31605448562774,2.31659810200355,2.31723388518753,2.31721475361981,2.31762413030702,2.31596173850991,2.27418709418474,2.27351532211881,2.27324525849259,2.27204781553616,2.2709498224071,2.27099382092469,2.27099139031156,2.27098786048394,2.27073898087863,2.27061912234227,2.27048658101698,2.27060632599712,2.27122344491961,2.27164719699211,2.27148782468618,2.27187799530344,2.27199537763861,2.27232400634116,2.27240236168049,2.27274956279595,2.27295737584279,2.27336303389178,2.27362135592156,2.2738309719899,2.27413146540171,2.27586360447878,2.27569464881458,2.27606638124853,2.27629077630822,2.27698255444961,2.2782717128185,2.28024208887572,2.28132447925519,2.28139093800578,2.33102051896193,2.33155775486467,2.33232403173541,2.33246815640451,2.3325682465584,2.33355016464013,2.33391520439433,2.33427014260821,2.33417386952865,2.33426213250498,2.3319194374807,2.33182037814864,2.33166754622391,2.33178698732879,2.33170947616088,2.33122637349356,2.33138525270323,2.33137483100046,2.33153633746272,2.3315142730293,2.33225712103832,2.33267126686214,2.33325086849729,2.33355767014479,2.33383889409717,2.33425868399302,2.33484437279919,2.33524686428495,2.33542440083569,2.33544288875706,2.33604609879091,2.33576238293444,2.33598814272234,2.33619416387532,2.33586050299658,2.33506989908647,2.33590832368045,2.28414074978733,2.2838945864682,2.28337122355882,2.28259086077839,2.28207148812919,2.28129078763842,2.28105549655427,2.28062544845952,2.28040316802063,2.28047186760132,2.28076666887065,2.28054118300185,2.28031567114968,2.27994650276692,2.27999429257415,2.28026412761935,2.28023289402763,2.28005665929949,2.28004086590025,2.27966639019262,2.27979661088903,2.27985576796093,2.2798109319311,2.27976191773311,2.27963773705507,2.27959256146344,2.27987929804858,2.27982282654242,2.28010603060715,2.27987177580974,2.27999263310428,2.28009130816703,2.2800003801419,2.27993465544265,2.28048915269909,2.28048841716702,2.28070645934979,2.28057401432709,2.28097164378347,2.28131460948923,2.28190530118078,2.28243553820783,2.28303259556992,2.28285556790591,2.28311056361156,2.28364392216364,2.28375959513155,2.28406405996132,2.28383794608351,2.28462370922981,2.28489858069249,2.28529766920713,2.28527038104868,2.28705327751102,2.28733185744457,2.28859317284568,2.28867735665079,2.28908576079752,2.29243251877498,2.29144283044456,2.35261860112163,2.3515715547712,2.35088774579828,2.35017716803078,2.35117365132687,2.3516013143076,2.35212318250466,2.3521500452756,2.35256203945468,2.35259888893197,2.35263225098326,2.35259927430989,2.35264469284553,2.35224096064145,2.35247139476338,2.35217525852879,2.35244274235864,2.35258592149642,2.35214873924871,2.3525479017771,2.35394450363041,2.35393064596695,2.35423813720155,2.35485547991942
2.30705571783426,2.3074222363254,2.30785106012635,2.30833575213221,2.30886651114627,2.30966751024605,2.31053276569648,2.31143758908167,2.31218661428428,2.31292650637823,2.31378386825997,2.31445433013378,2.31487934535294,2.31526179463373,2.31560649870665,2.31608982403026,2.31653116614154,2.31674675204596,2.31637993392088,2.31590454079944,2.31519394861717,2.27459540355154,2.27402489476291,2.27323072059507,2.27212874931645,2.27122231653574,2.27090806606524,2.27078011875727,2.27081076783573,2.27069986202878,2.27058337723943,2.27066967664744,2.27081940704306,2.27117295490076,2.27134456233486,2.27157186749687,2.27188392045038,2.2721723516049,2.2724605793464,2.2726497144645,2.27284310877829,2.27305427234023,2.27336631454311,2.27372289565853,2.27396640200035,2.27449742605965,2.27532994017482,2.27578010091826,2.27629389526269,2.27685126354774,2.27771825948952,2.27901301378476,2.28045921208144,2.28171770202317,2.28213304800437,2.33089193360513,2.33121223965945,2.33176147083311,2.33209802562989,2.33251393640418,2.3329245156423,2.33337275229302,2.33354373619808,2.33345225456831,2.33318999399677,2.33198955163962,2.33164028297365,2.33133335741898,2.3311770918458,2.33109120083316,2.33108091630636,2.33118037069638,2.3312609399355,2.33121533169298,2.33130355159758,2.33175312944888,2.33226809758821,2.33277896209307,2.33315353270121,2.33350452587727,2.33399395056668,2.33445461233629,2.33485867721379,2.33509760179933,2.33531935856459,2.33579243051036,2.3363199518917,2.33626267951958,2.33616666809958,2.33598950324749,2.33546952733209,2.30632628734282,2.28420964133336,2.28391585448433,2.28324765643221,2.28256640709386,2.28189867530354,2.28132487179672,2.28099338689508,2.28061429692988,2.28041642877225,2.28039817867271,2.28051922453681,2.28050183674091,2.28036304463809,2.28016488187065,2.28017117102518,2.28018561596465,2.28024768651973,2.28017842543683,2.28000305695866,2.27988374047607,2.27981352398588,2.2798517629006,2.27971892570407,2.27962779960494,2.27964342660072,2.27968300322997,2.27986538857718,2.27990118737826,2.28001415178775,2.27992562969257,2.2799173777571,2.28003466797107,2.27999486250702,2.28010073982599,2.28027847660595,2.28041460621543,2.280637888624,2.28072826734021,2.28111190029316,2.28165587648608,2.28195423273077,2.28231315471922,2.28255793544488,2.28276945220565,2.28310655353854,2.28344115770256,2.2836961258588,2.28375597115752,2.28399366910437,2.2844010002793,2.28492609639355,2.28529595821728,2.28559697933577,2.28623959262202,2.28688669375693,2.28771740855801,2.28847954468815,2.28941269917805,2.29098341346588,2.29113940463092,2.31912851110084,2.35153184947223,2.3512220328734,2.35084220645682,2.35124225240235,2.35149749096669,2.35186087046157,2.35208382580105,2.35218223493591,2.35232574956203,2.35223096328437,2.35224557301411,2.3522244516679,2.35217559497714,2.35205524303621,2.35201140617176,2.35202149579105,2.35203453878202,2.35208589008144,2.35237143978756,2.35316282207498,2.35356061244062,2.35403056151282,2.35470692709917
2.30655040862729,2.3070725510788,2.30753801637935,2.30798903734008,2.30825975963436,2.3093018913739,2.31003458632602,2.31092057619849,2.31172711081367,2.31238310806026,2.31321911907146,2.31408780281209,2.31457843127975,2.31492444944466,2.31521206976928,2.31575987138544,2.31640714782752,2.31648047966262,2.31572446519549,2.31492463166114,2.31434210872399,2.27426092033376,2.27332102951975,2.27284754698576,2.27166046075847,2.27087028928915,2.27050319986813,2.27032447964939,2.27050933967013,2.27032476823753,2.27036087951178,2.2703918642844,2.27074196991585,2.27087226868783,2.27088492653889,2.27123327239421,2.27182679301139,2.27201016800012,2.27240136725604,2.27260583832227,2.27271312988762,2.27284858236146,2.27313855265398,2.27356345745671,2.27363761903105,2.27424659932931,2.27512514207475,2.27559292335306,2.27625272965917,2.27688998081245,2.27809457470576,2.27865219858481,2.27995522236791,2.28120712743123,2.28156089078222,2.33196378220669,2.33164695961791,2.33172638759639,2.33186737241768,2.33206958891095,2.33216320712665,2.33274115742249,2.3330337288472,2.33273938114865,2.33294024142344,2.3311154699491,2.33123888655889,2.33072217786221,2.33043219970633,2.33026187732384,2.33064734604581,2.330896573842,2.33116728766283,2.33068264402481,2.33053840411345,2.33110258140199,2.33173462183306,2.3323642134542,2.3326684219659,2.3329350052219,2.33367065968782,2.33398838526813,2.33452525820161,2.33466442597068,2.3349084669119,2.33515431553901,2.33738903971107,2.33620938191847,2.33590993623992,2.33620096782883,2.33510985292758,2.28535698925871,2.28402449208373,2.2836180970779,2.28282969925152,2.28215060676796,2.28149014552134,2.28093358299715,2.28069918990688,2.28018795448151,2.28001747920758,2.28000255508753,2.28013488298151,2.28028405971621,2.28006806884709,2.28010110141677,2.27994348610611,2.27990910994339,2.28002145198994,2.28008920159106,2.27976274540246,2.27970633447957,2.27955636408618,2.27960584357512,2.27941610966143,2.27906555319765,2.27942884380402,2.27939077105897,2.27962813491128,2.27962915371676,2.27990519843683,2.27962120354273,2.27955866897659,2.27976750454793,2.27962338634677,2.27989468667678,2.27992080731853,2.28001107068794,2.28034046604894,2.28028114516057,2.28088963046405,2.28196733278636,2.28177005479806,2.28193400589379,2.28185252999328,2.28232634550436,2.2828015116882,2.28317989418972,2.28335983701841,2.28328920949985,2.28335812026464,2.28416507512552,2.28464713993281,2.28506499172938,2.28530274408812,2.28535280344514,2.28593628459462,2.28698763757936,2.2879076822916,2.28867941327597,2.28948275661947,2.29071190792485,2.29494450218614,2.35096407670204,2.35089325642002,2.35018197808424,2.35101871082327,2.35101762580251,2.35154688128813,2.35185097297932,2.35199170161759,2.35196514347312,2.35189686958722,2.35185061736946,2.3519855965128,2.35189151787931,2.35177488893046,2.35165860348195,2.35162621649521,2.351500713773,2.35158380584867,2.35184537908666,2.35269168757939,2.35312379208466,2.35371947772048,2.35406211114872
2.30596821184659,2.30662718320568,2.30727164666819,2.30762941308058,2.30816538932834,2.3091868243779,2.30990186939904,2.31071868740909,2.31141560076669,2.31207500858858,2.31298634860496,2.3138304998514,2.31425432187471,2.31452763704029,2.31484332128837,2.31555379536746,2.31617558116672,2.31552745073226,2.31517558690715,2.31471127666269,2.31443376289759,2.27344286174789,2.2733224016338,2.27266768911972,2.27228418520999,2.27094099750247,2.27034214511958,2.2701399393279,2.27031070301532,2.27033960624512,2.27023818580318,2.27055022178119,2.27040865845422,2.27071898099665,2.27058937438939,2.27151429938822,2.27184286604843,2.27224074353291,2.27225265625681,2.27222244696139,2.27281185581812,2.27313044443761,2.27336683018852,2.27356752228613,2.27360158238799,2.27383548654678,2.27469386011193,2.27523479653694,2.27618261317495,2.27708711967942,2.27811153146378,2.2793805793234,2.28026607826589,2.28098111360717,2.28189811898604,2.33023027466959,2.33081929102933,2.33148155672337,2.33134468395979,2.33151581685495,2.33156212552619,2.33179421124591,2.33206586462921,2.3314671407501,2.33124245241905,2.32981177396577,2.33014802690468,2.32967209239976,2.3296442586813,2.32977965233751,2.33014376753761,2.33012239295401,2.32981538958816,2.32979685686401,2.32977091261284,2.33060254187835,2.33105250653768,2.33171983691223,2.33215147469852,2.33275612898886,2.33331540552359,2.33368398998908,2.33405335282954,2.33422978479265,2.33446125256618,2.33466355934054,2.33505998282559,2.33499327063891,2.33485293263714,2.33528385746415,2.33388747768957,2.28489447172195,2.28388194819934,2.28335270348563,2.282858692345,2.28174939507531,2.28109185529895,2.28083166150162,2.28052451826623,2.28023408659585,2.28009334649223,2.27986992634745,2.28020094226657,2.28008447536648,2.28027382676145,2.27985586011014,2.27990090420953,2.27979796958278,2.27975970077883,2.2794904753038,2.27967227926932,2.27985131897337,2.27952719213835,2.27939029635656,2.27939333393148,2.27948933033559,2.27945670522193,2.27931354079874,2.27946152043228,2.2795183984034,2.27986626440721,2.27961978474029,2.27973123378497,2.27967131406516,2.27963599657793,2.27994365635243,2.27989412423636,2.28009223818816,2.28018699654277,2.28016986296281,2.2806302674188,2.28105406128926,2.28129054731121,2.28168247887726,2.28201461658038,2.28202159482561,2.28269178693894,2.28361341703347,2.28325958954107,2.2830206484704,2.28345490926755,2.28347782834347,2.28435241822293,2.28469429786959,2.2848844129286,2.28529967338631,2.28606956659399,2.28695292734585,2.28758176055321,2.2880817907321,2.28930512265006,2.29000445166983,2.35013305085305,2.35001412373168,2.35039992451064,2.3505524445172,2.35072126710487,2.35132871044816,2.35133752585942,2.35144392203469,2.35178846258399,2.35186296019768,2.35124968742704,2.35139932338138,2.35142143122296,2.35205807611545,2.35116567139613,2.35151261032212,2.3513744975443,2.35148472029485,2.35137405348069,2.35170874597753,2.35239874338201,2.35262517424409,2.35290094487091,2.35354567840675
2.30594231561729,2.30640436698461,2.30695988529856,2.30731755420473,2.30781900784211,2.30869922082471,2.30947155860261,2.31066963161751,2.31118347375611,2.31196120035505,2.3129622969204,2.31368112413585,2.31383678115395,2.31417154083068,2.31454492451146,2.31524529763455,2.31491249503768,2.3149642519959,2.31475465485845,2.31468460360338,2.31346337520742,2.27436309797403,2.2724846231905,2.27211962675606,2.27155773600827,2.27062086006874,2.27046208364699,2.27068155369255,2.27038748269717,2.27008442445781,2.2702543684893,2.27010307064232,2.2708452070341,2.270616861843,2.27066941868051,2.27111493158487,2.27207087594415,2.27181555402672,2.27221556049975,2.27249571407088,2.27331225240218,2.27339381741995,2.27355829949965,2.273651323444,2.27389807482719,2.27405466021749,2.27470580824771,2.27554278205895,2.2761214054461,2.2767132721929,2.27828315925442,2.27957166116449,2.27979047614508,2.29231920761282,2.32889103573422,2.33000813568766,2.3304246566617,2.33055488686904,2.33075715744874,2.33093972999519,2.33087802897039,2.33038738712821,2.32989306457547,2.33002860346473,2.3296877324548,2.32945183117428,2.32885924683574,2.32873801140893,2.32864772743002,2.32864051666907,2.32871396247257,2.32879909467165,2.32877836698338,2.32893268408182,2.32919775530458,2.32972303576634,2.3306490417486,2.33168161898387,2.33170703089951,2.33185634108653,2.33280804803207,2.33317452001979,2.33361254395262,2.33359125524559,2.33381445898524,2.33339463290812,2.33402510280259,2.33326074573485,2.33349252234362,2.33341698416096,2.33281746768726,2.28419638327005,2.28378049144032,2.28299372879673,2.28248080899624,2.28145799213478,2.28088218284281,2.28066128951766,2.28031846261791,2.28011191101948,2.27980392310838,2.28005744044057,2.27949052517385,2.2797436259939,2.2796245881232,2.28008108169114,2.27951663819332,2.27933193448726,2.27944285598324,2.27984541172841,2.27969331862801,2.27969223891992,2.27899869506686,2.27905029582853,2.27888316807205,2.27942805701952,2.27947798134098,2.279215209422,2.27931748805882,2.27954080411888,2.27929165656072,2.27953049486276,2.27965261441927,2.27952259634385,2.27946644684327,2.27946827431682,2.27964415986369,2.28018172523393,2.28016425711238,2.2803064217976,2.28077044529796,2.28102670049179,2.28126831388274,2.28138065120401,2.281440894197,2.28157396973057,2.28240063823321,2.2827683036894,2.28285751497081,2.28301692620759,2.2832088292628,2.28420775813621,2.28391151070605,2.28475465993321,2.28539613475108,2.28580886348684,2.28601726333505,2.28753883145877,2.28751864493232,2.2878116269063,2.28907393843689,2.29014559666732,2.34818300790447,2.34883985932997,2.3486663732709,2.35009565304505,2.35022738833722,2.35084177225606,2.35112801901265,2.35140145726963,2.35092215183464,2.3509706909978,2.35076103247799,2.35092002124516,2.35155951948857,2.35109162513297,2.35081527209233,2.35111653976177,2.35103259699438,2.35125203726981,2.3509180466492,2.351414638833,2.35228138790121,2.35221974371037,2.35239338686725,2.35308206866288
2.30564417331489,2.30595562251737,2.30674379187086,2.3070368753326,2.30766725963456,2.30836046466659,2.30957266172201,2.31054240318918,2.31101635502563,2.31173356441075,2.31285886610369,2.31346403272129,2.31392707854841,2.31398348547872,2.31456357074778,2.31510901256576,2.31540009489054,2.31473746567547,2.31449004420891,2.31404044878119,2.31352659980308,2.27388012270724,2.2721272382511,2.27176004438009,2.27134800086468,2.27102616378419,2.27067595191463,2.27026318521251,2.27023455804764,2.27045510256109,2.27010386902862,2.27057259433155,2.27048883203141,2.27065663744313,2.27060639481256,2.27120165643442,2.27130182286417,2.27177421193221,2.27211443403251,2.2726563511096,2.27306364843519,2.27385157177966,2.27344594263921,2.27369258963772,2.27396114774779,2.27441906049685,2.27484434920648,2.27555543872455,2.27618465078259,2.27685935864296,2.27799082134472,2.27972702289023,2.28030232458088,2.31178352061503,2.32872271177756,2.3295631258058,2.33017653636866,2.33004970957886,2.33011750607834,2.33042633926607,2.33036134875133,2.3303259679979,2.32980133197063,2.32911404167175,2.32864612769138,2.32838736893025,2.32876011918712,2.32804750084777,2.32796605479203,2.32804341122466,2.3277369962626,2.32812924846846,2.32817489734654,2.32827323652799,2.32836147481813,2.32907488416389,2.32987522006448,2.33123805206471,2.3311222713084,2.33153337042387,2.33198683430963,2.33257167315316,2.33315631584709,2.33318273207061,2.33321902785017,2.33341981090727,2.33312031348763,2.33266296323447,2.33234396543681,2.33202671400619,2.33202737381496,2.28380205362945,2.28298867230544,2.28251366724997,2.28203609597985,2.28167533550408,2.28099973836908,2.28040216263145,2.2801091347241,2.27997365231143,2.27980348853109,2.27978754604124,2.28028700263108,2.27956710663398,2.27940979197694,2.27925838564178,2.27949605800919,2.27906369843411,2.27920237003864,2.27910666339484,2.27971522074991,2.27944323324003,2.27902993616895,2.27893918531021,2.27897310424337,2.27909884624464,2.27936840357761,2.27926969755796,2.27915008762011,2.27912290608491,2.27896516520422,2.27921322000497,2.27944796036138,2.27936625415953,2.27942021004384,2.27964433030875,2.27974720886558,2.27991266163373,2.28003953801919,2.28050067008246,2.28063008424203,2.28186680685434,2.28159892867431,2.28134132038633,2.28133413076827,2.28151865661771,2.28221752096752,2.28292283404092,2.28269696137046,2.2826162343445,2.28353795588576,2.28349346944332,2.28393699465855,2.2847786709308,2.28651763116969,2.28656692795193,2.28690351887187,2.28763454165203,2.28750960703043,2.28783327273677,2.28912746933445,2.29138746936031,2.29333025982333,2.34947321106146,2.35134003841241,2.35111230697595,2.3511002466753,2.35078320999795,2.35094963103673,2.35143025704327,2.35114303444524,2.351163804548,2.35064365166613,2.35039057359207,2.35006528953465,2.35012948802466,2.34965107850496,2.35032692588813,2.3505571694007,2.35013589773975,2.3504487525324,2.35108697264134,2.35173502206785,2.35172261956316,2.35188455126493,2.35249967271105
2.30515813688261,2.30637606369879,2.30674899392344,2.30693504840532,2.30753081985988,2.30848939406813,2.30936569377667,2.31052123185939,2.31080298193558,2.31148451320416,2.31249847281346,2.31329392854758,2.31357057622354,2.31366057142175,2.31441659043534,2.31480085750175,2.31486842306099,2.31484323292377,2.3146810312799,2.31508896057797,2.31345518954784,2.27308856022445,2.2723994791774,2.27153601788402,2.2709598681257,2.27058319711779,2.27041159046589,2.26991613926209,2.27015591097613,2.27028307585299,2.27020827519321,2.27002715970978,2.27036800823736,2.27048823861534,2.27091153430637,2.27064230998258,2.27141764211005,2.27173807421391,2.272112330687,2.2724443713419,2.27297175999874,2.27351662868118,2.2734286011586,2.27372595997416,2.27435197667672,2.27432530128455,2.27507441665676,2.27562820898901,2.27644521524653,2.27751791493184,2.27841148138123,2.27932648102964,2.328497473752,2.3290853015745,2.32871145063384,2.32929528968783,2.32983019902658,2.32934444035077,2.32957157178778,2.32953721756191,2.329421689286,2.32924717602111,2.32883719100013,2.32844633178571,2.32828110788723,2.32816902179501,2.32776850465805,2.32730371414115,2.32716160262202,2.32772481159487,2.32718780920225,2.32751694366613,2.32778678447271,2.32769493861871,2.32801944710576,2.32840114305279,2.32929193538859,2.3297531507795,2.33048568420328,2.33106169189036,2.33155216502249,2.33212916247723,2.33266984690347,2.33259736441623,2.33284932269642,2.33204475833117,2.33230015290244,2.33256565178888,2.33201967920758,2.33187792263106,2.28546597928765,2.2835975445557,2.28249204317179,2.28219430805506,2.28198628796752,2.28152825655651,2.28079555640545,2.28005763143575,2.27986910239793,2.27978191008445,2.27953234356008,2.27941254581696,2.2794638577662,2.27933098743025,2.27903592872028,2.27943304568426,2.27923507825549,2.27931900053834,2.27906819072293,2.27937327872138,2.27909165762678,2.27916374257161,2.27913266080917,2.27893221126211,2.27881861885531,2.27916126539953,2.27881315456067,2.27885730559326,2.2789926351293,2.27928860397226,2.27876621899019,2.27899236808773,2.27927138553418,2.2792571454788,2.27939536915072,2.27945502834229,2.27938350317122,2.27956573980938,2.27986666314104,2.28023198004554,2.28026388993528,2.28071958798265,2.2811261145243,2.28109954880789,2.28151170644764,2.28155630174726,2.28156394961857,2.28220827082783,2.28234236123763,2.28274388201618,2.28263839197757,2.28364240349411,2.28340388568586,2.28456129319795,2.28584427357234,2.28841463243451,2.2863228282025,2.28667580505527,2.28726330468962,2.28803325504078,2.28950131078769,2.29098314813831,2.3520504846433,2.34999963210115,2.35104061541588,2.35052755629989,2.35089777929069,2.35064236627806,2.35069140587596,2.35115168168298,2.35105534388593,2.35047349729466,2.3504547897676,2.3498346505439,2.34963273196225,2.34975273297472,2.35028906773135,2.35330834608764,2.35095519185607,2.35034760073366,2.34987178888217,2.35070891725647,2.35097719717913,2.35128065726003,2.35167723799482,2.3519490795042
2.30465239554189,2.30518979285084,2.30630492207543,2.30668520725807,2.30730067936283,2.3082964049211,2.30945858138947,2.31010334604566,2.31057033596395,2.31142038320701,2.31212833398972,2.31285128057648,2.31280758593433,2.31287960944514,2.31320351683988,2.31388347068113,2.31430665417777,2.3146885531584,2.31466305678519,2.31536795011527,2.31630331810481,2.27229851002677,2.27146806711429,2.27116411243176,2.27078494664322,2.27047015760886,2.27001489839156,2.26994493743164,2.26996831782063,2.27020700150682,2.26983333674651,2.27022987557685,2.27023590640426,2.27057771412735,2.27062826197904,2.27112540325532,2.27148093529404,2.27185202378496,2.27205309303455,2.27241409112028,2.27271491987088,2.27305928200571,2.27321236571094,2.27361705570723,2.27393641322023,2.27440853541953,2.2750542585538,2.27607502601232,2.27660793823271,2.27720132882619,2.27851686592451,2.27879727658812,2.32875115172954,2.3287322747924,2.32814859832162,2.3290097172717,2.32961098555151,2.32954940304673,2.32935284318242,2.32919092956447,2.32866865345989,2.32805458305635,2.32763832876707,2.32752589686194,2.32756692199304,2.32663611783263,2.32646692849441,2.32599564474651,2.32607369978079,2.32591808618967,2.32608063385043,2.32665806241546,2.32720906746575,2.3271220897587,2.32726670947214,2.32774383750425,2.32843600010963,2.3298391078333,2.32992906672215,2.3305685680205,2.33129366644902,2.33200542854445,2.33234710244071,2.33226056519079,2.33226861434051,2.33193983408442,2.33154466440421,2.33189280317547,2.33145613503006,2.33135308920519,2.28495387150363,2.2836895785186,2.28251089744373,2.28200941067127,2.28165414797217,2.28114997106137,2.28050239527146,2.28000971490686,2.2798138665784,2.2797701282429,2.27972904905617,2.27913368119432,2.27945872215941,2.27911390393564,2.27904093976972,2.27887480393095,2.27944709967698,2.27865754645173,2.27889325921282,2.27905138672781,2.27920242934291,2.27897169485277,2.2793919948233,2.27896868318289,2.27886302894858,2.27874516427767,2.27866246686161,2.27861582265373,2.27897506297467,2.27956999309766,2.27917912069316,2.27906720416351,2.27910015349953,2.27919243602307,2.27941369697673,2.27957128595,2.27938523317581,2.27989623059853,2.27983005654408,2.28003434684999,2.2801826633642,2.28026189404696,2.28054671059442,2.28081710350715,2.28087747441007,2.28126623722801,2.28138466057615,2.28204416366473,2.28219893935083,2.28231678056557,2.28324766421933,2.28304322084916,2.28386940791407,2.28407817862026,2.2845841508895,2.28541098643619,2.28567666276482,2.28657047209641,2.28726360526108,2.28791056127641,2.28997254580842,2.29068476133316,2.34837815395788,2.34860854781174,2.34934635885692,2.34969775363416,2.35017497214898,2.34995916520581,2.35005994063552,2.35029898830893,2.3501185984964,2.35011896055679,2.34944694422036,2.34937358414546,2.34900970958295,2.34940799100035,2.3490448819107,2.34976640107012,2.34973587726145,2.3494263166355,2.35005283241348,2.34998430143343,2.35058163199887,2.35083512051622,2.35139922975958,2.35220839431357
2.30409327172801,2.30495745664778,2.30653227562496,2.30663444685653,2.30695351275075,2.3079911526765,2.30907822480195,2.30990570820746,2.31029742122435,2.31107454272532,2.31136341096465,2.31190570959994,2.31196654590002,2.31218332387597,2.311989759262,2.31330803020824,2.31367690930375,2.3146536386254,2.31419047138179,2.31371668116104,2.31450222804611,2.27243962232581,2.2712625838273,2.27094520179167,2.27057028094221,2.2701592636248,2.26992760595686,2.26976515429,2.26988304768501,2.26967446860801,2.27015820228541,2.27020931623523,2.27036045064115,2.27054832587571,2.27105700255998,2.27074137042718,2.27137219906925,2.2717450875236,2.27212335287872,2.27255645124562,2.27285031844806,2.27277651606797,2.27331339477513,2.27361458209237,2.27387402506489,2.27432373360556,2.27545473070394,2.2762290783739,2.2769700922853,2.27769539552545,2.27916148301617,2.28018224835675,2.32628513584866,2.32795906264112,2.32738139813653,2.32921088999021,2.32937683255096,2.32934590703132,2.32932902574483,2.32937076494122,2.3282823115171,2.32732325684295,2.32703715942022,2.32689423613045,2.3266314567138,2.32630526258435,2.32534060716072,2.32534468833829,2.32522843090424,2.32521494628177,2.32559181379869,2.3259499391994,2.32618421689203,2.32637149993562,2.32669400467884,2.326820572314,2.32800340679263,2.3285570556318,2.32932106132034,2.32980670222329,2.33101145574833,2.33127819187621,2.33180216529921,2.33163924002777,2.33167799528849,2.33137657903083,2.33155465159424,2.33095498647186,2.33151627318735,2.33129069015611,2.28451623420786,2.28338651140406,2.28271442474876,2.28197555731788,2.28164503950835,2.28060147998298,2.28063048852698,2.27990428846954,2.27975674088685,2.27965996105003,2.27961146515502,2.27942607549137,2.27897951230435,2.27908710516372,2.27901397326387,2.27951752382704,2.27897087470313,2.27877060787998,2.27873201802328,2.27887638975471,2.27849124716463,2.27861049375639,2.27884168679621,2.27890948124128,2.27894947848585,2.27893458944767,2.27855094628865,2.27856895662446,2.27881964209972,2.27916186791909,2.27895185714652,2.27898629884141,2.27902120233306,2.27920518755909,2.27954940478448,2.2796119401886,2.2794704765752,2.27956935665973,2.27976903906492,2.27988582733063,2.27996128180627,2.28004254850422,2.28067239423533,2.28082707110017,2.28105503796923,2.28106322298426,2.28125258577378,2.28173621819387,2.28208959055818,2.28254167549268,2.28277453684463,2.28339132919211,2.28357080584387,2.28392345525689,2.28387510249577,2.28432186258333,2.28501501607622,2.28669509810046,2.2875824356617,2.28843543056448,2.28969134424256,2.34749604794961,2.34729008463375,2.34771552918308,2.34788867208041,2.34886471861036,2.34890896919652,2.34945855744502,2.34954403647845,2.3495741429328,2.34982824779817,2.34929672332245,2.34942418903987,2.3489642447704,2.34879016687582,2.34892482278274,2.34859548863239,2.34865168043067,2.34899734452009,2.34915724937574,2.34941279087541,2.34987403987291,2.3499286122102,2.3503510785011,2.35072574594231,2.35148628449428
2.30409037229186,2.3047347203107,2.30681416919817,2.30654950458972,2.30683246641888,2.30779977565222,2.30893645579523,2.30876011114637,2.30994051232104,2.31153704042923,2.31085004490759,2.31132579036286,2.31160999364481,2.31204072420904,2.31184753388687,2.31268063354194,2.31356749756088,2.31411319982971,2.31405328350716,2.31442899736957,2.27317535455539,2.27237912922346,2.27136729529222,2.27078846441495,2.27034937215114,2.26976057166053,2.26990218513902,2.26976651480074,2.26989362715259,2.26986659246871,2.26987840995561,2.27106578381828,2.27031607384066,2.27061714996176,2.27061100810156,2.2708598821035,2.27101461697926,2.27159450281236,2.27200060010905,2.27206474717925,2.27228412748296,2.2729364171401,2.27356663148001,2.27374203307787,2.2738822337417,2.27457651054567,2.27552557653833,2.27649034334871,2.2773845168582,2.27798156342905,2.27922027969671,2.32499985101795,2.32989119702232,2.32922916835666,2.32981397915286,2.33045690394159,2.32939310794453,2.32991304770162,2.32935266713889,2.32925855461535,2.3280366604838,2.3271120921585,2.3268589384862,2.32634075545951,2.32570582514376,2.32518490826269,2.32504835553084,2.32466814575947,2.32467893964574,2.32447924823868,2.32482283056367,2.32534816290689,2.3254609207743,2.3258125707404,2.32592516392764,2.32682837923636,2.3276669381324,2.32840254445624,2.3289304170686,2.32928771552973,2.33028743052218,2.33058983060009,2.33116201092742,2.33127439899173,2.33109658717824,2.33119259037033,2.33059891827144,2.33190186651493,2.33268592813815,2.28407884092296,2.2839101339928,2.28308784011027,2.2823374933949,2.28163397557288,2.28099137254778,2.28019845521702,2.28009387129659,2.27980989907616,2.27977359930337,2.27964288465283,2.27951165959645,2.27940300444878,2.2789331123481,2.27908324471362,2.27925451613723,2.27886661107373,2.27903206026434,2.27873539150813,2.27873074403023,2.27851768054816,2.27850416520538,2.278464513771,2.27873522061698,2.27888670833904,2.27915507589244,2.27860238778237,2.27838516085077,2.27859002381293,2.27874904321237,2.27860368090312,2.27907147358492,2.27896427158504,2.27907091660982,2.27914913065803,2.27916212751092,2.27918276777148,2.27930896414144,2.27969885583752,2.27986646630943,2.27993007875278,2.28020803326298,2.28079830151469,2.28067790865399,2.28094369922665,2.28105686134136,2.2812218974989,2.28124638887675,2.28160128376738,2.28217960749412,2.28257502970679,2.2832524734394,2.28336622900072,2.28378117292624,2.28397563266827,2.28424857580569,2.28439786094574,2.28546845342303,2.28619779426905,2.28822826541248,2.29117010859542,2.28928912323798,2.29037093675622,2.34818916299293,2.34748593725717,2.34744764765986,2.34831722526085,2.34878500972019,2.34887324763426,2.34912734400331,2.34923279950468,2.3490728734923,2.34923739595381,2.34873490088383,2.34869893930935,2.34846468696848,2.34856173134098,2.34849528709312,2.34806444450511,2.34853457204977,2.34940871334917,2.34914250808029,2.34925347712808,2.3492508671594,2.34997075550931,2.35047275147996,2.35236777311394
2.30393483378534,2.30463646645376,2.30527730560237,2.30611536061002,2.30650455257643,2.30706584360276,2.30919489587227,2.30807554356386,2.30920213865853,2.30954434793353,2.31018709773049,2.3115696199748,2.31297456885494,2.31261792844227,2.3123663795598,2.31316558495397,2.31343128069251,2.31403265806539,2.31375318592015,2.31404606652592,2.27316511001124,2.27205298816589,2.27077406919883,2.27061056319507,2.27003639831177,2.2698958000889,2.27053581193783,2.27011575991079,2.27012633527716,2.27003764681267,2.27038840026834,2.27023333483697,2.2704438434326,2.27060612230644,2.27071391921086,2.27081729478629,2.27126357803985,2.27168463126431,2.27222030038737,2.27251765362362,2.27272302657934,2.2729752457115,2.27330921903726,2.27384351966447,2.27399151854954,2.27518264613342,2.27639141585953,2.27698488926817,2.27800883736609,2.27847077206647,2.27984134668789,2.33072095837673,2.33019594565382,2.32941604792792,2.33052840932809,2.33024271542456,2.33039069085836,2.32943037687201,2.32906586703407,2.32854784203221,2.32769550488826,2.32673809047898,2.32742342611299,2.32613150295391,2.3251023482247,2.32490903487547,2.32444698955448,2.32452929275732,2.32425858978164,2.3238936375017,2.3243632149219,2.32467582630199,2.32511378092529,2.32547200345451,2.32579143750024,2.32642117703853,2.32726690398426,2.32860089583806,2.32896693569489,2.32948885799827,2.32974609567687,2.33029640795012,2.33070904888545,2.33096968640304,2.33113651780041,2.33084175163915,2.33072811887028,2.33009129072396,2.3343287593979,2.28345846535346,2.28306568577192,2.28237091654482,2.28159751870125,2.28137367058812,2.28109785107066,2.28023006586942,2.28015420270096,2.27981195735405,2.27986701905126,2.27972375655385,2.27969760395724,2.27930869112489,2.2790316850358,2.27917884296588,2.27906484525129,2.27949813098044,2.2788197939032,2.27870062907724,2.27871627920739,2.27856322782937,2.27860068787404,2.27828796429335,2.27854292837609,2.27877309025115,2.27875574278849,2.27839183572642,2.27844707729939,2.27869537500355,2.2788762887658,2.2790886448824,2.27896647752801,2.27878088854497,2.27902005474064,2.27915213614184,2.27900623921193,2.27910854529831,2.27932435209548,2.279879388711,2.28011390278607,2.28046784320052,2.28104351026194,2.28078499420921,2.28110599431186,2.28115889610931,2.28123251802378,2.28109314101493,2.28172586301937,2.28169129761091,2.28227704061159,2.28269631244401,2.28299339687573,2.28348301043286,2.28419585853407,2.28422939622785,2.28419357123394,2.28499604474177,2.28535271956612,2.2865886417018,2.28804603876236,2.28884897819425,2.29001088060651,2.29143576482879,2.34827330492228,2.34739822680227,2.34827379909367,2.34787365467276,2.34858938224177,2.34893751917953,2.34894798658756,2.34890984096653,2.34978833575164,2.34885848919975,2.34857363985312,2.34845056396745,2.34845804883711,2.34835919079469,2.34834411382323,2.34701282298377,2.34779566390633,2.34803612776764,2.34892216109851,2.34875199426617,2.34920775396989,2.34991243133338,2.35069781927791,2.35190418468527
2.30402904048614,2.30464359125278,2.30535925560219,2.30595331007664,2.3064827564287,2.30715932063027,2.30823331442207,2.30849076564404,2.30911790119888,2.30970375276874,2.31066552403175,2.31173373830089,2.3128138618153,2.31288035056683,2.31293240208861,2.31328050380155,2.31362300147007,2.31350723328209,2.31326276477018,2.31340587796676,2.27298720656723,2.27214505458366,2.27125991591007,2.27066618968929,2.2702054015476,2.27000397167437,2.27016653569999,2.27013368435271,2.27018103273692,2.27017670669396,2.2702565849389,2.27041867280445,2.27048024202438,2.27065714184046,2.27070176249003,2.27101779078225,2.27144712966966,2.27196429680276,2.27244613604127,2.27277912293001,2.27286518959072,2.27311926941585,2.27356986120955,2.27416963690028,2.27469959711975,2.27536568857433,2.27627711707316,2.27736801385832,2.27860879354881,2.27943332277035,2.28048013032961,2.32693695819274,2.32681870010706,2.3280152875881,2.32969262122258,2.33015213940694,2.32997898032907,2.32936203241575,2.32875857212139,2.32829501718078,2.32732946418998,2.32667134146373,2.32626488407439,2.32553567387074,2.32492031186278,2.32449174784825,2.32426896768563,2.32413635965176,2.32399831572075,2.32392071053574,2.32415643740114,2.3244239158114,2.32482723211131,2.32516263614653,2.32555325892661,2.32623341847163,2.32705522876282,2.32807398611444,2.32866966741549,2.329269443863,2.32973071895724,2.33028735247387,2.33056649762854,2.33078203408059,2.33096070251472,2.33123073260887,2.33196529951211,2.33344517317753,2.33673952494284,2.29727481029174,2.28245589097218,2.2821302505563,2.28146850597084,2.28119090863673,2.2809073609099,2.28043824643997,2.28016091112036,2.27998384776363,2.27993075170812,2.27976342365467,2.2796333346972,2.27942192626905,2.27930232583902,2.27928775618905,2.27917101525966,2.27918877495671,2.27897709202231,2.27876012445155,2.27875827668721,2.27865465564416,2.27857728759965,2.27844257253847,2.27855510328803,2.27870119979694,2.2787087536252,2.27867368851444,2.2787397841423,2.27868233691592,2.27886003926164,2.27890439013279,2.27903166206187,2.27901118044551,2.27917165371329,2.279235928212,2.27916178942501,2.27910205719596,2.27932637407701,2.27976237818615,2.2800529600546,2.28022567733646,2.28053328246899,2.28073826267477,2.280982345805,2.28119615280574,2.28131837457781,2.28145262215904,2.28184875306084,2.28198311078105,2.28247328670091,2.28287918093093,2.28315833314999,2.28350098496378,2.28400586775308,2.28429504406701,2.28452251871174,2.28511784529134,2.28575253956519,2.28696413223269,2.2883067862089,2.28955338804139,2.29068010255305,2.29162224819226,2.34655121317732,2.34642867841674,2.34705285279563,2.34760066662522,2.34823531428351,2.34855491084663,2.34870957952329,2.34881951970934,2.34896262688425,2.34869895000094,2.34836038651675,2.34825780643373,2.3481780230355,2.34798552354582,2.34778489418259,2.34748050265649,2.3475917108192,2.34781094716566,2.34831119243065,2.34870502520956,2.34924636260258,2.34977741279377,2.35046092127093,2.3513893787479
2.30370606707974,2.30439640705566,2.30516069438638,2.30562317519863,2.3060363286553,2.3065864554441,2.30782076987529,2.30819189032706,2.30889038828791,2.30928753471929,2.31070998062247,2.31169512140957,2.313267505348,2.31289391056278,2.31267294269999,2.31316432654869,2.31388004953469,2.31319546492855,2.31284424533393,2.31344538704203,2.27223367166864,2.27121312814119,2.27068074971976,2.27040497435144,2.27003036770001,2.26977196356493,2.26987054779476,2.26989279112992,2.27000390792864,2.2698747651006,2.27004388593167,2.27033175011968,2.27029377485463,2.27044360326218,2.27028086506396,2.27082734542469,2.27140833422473,2.27200819719572,2.27247417703044,2.27314285287842,2.27253535150774,2.27296531842287,2.273422305928,2.27427669672588,2.27511172423181,2.2752940206187,2.27574349799137,2.27718833738668,2.27842157998499,2.27892197437008,2.28034611945289,2.32470748230521,2.32284861080254,2.32666543499689,2.33014423627131,2.33037366609345,2.32981650067167,2.32898850312647,2.32814378352289,2.32832995368123,2.32649572182572,2.32620558641197,2.32528424205141,2.32473470877784,2.32423973536903,2.32388636763749,2.32365303203943,2.32372601892361,2.32349640696745,2.3235135420105,2.32376446702753,2.32384782005941,2.32443248699211,2.32467139021334,2.32495308523983,2.32560737170694,2.32665012929993,2.3277002690175,2.32831727125711,2.32886740851292,2.32969986925288,2.33015993895311,2.33045019864389,2.33031416397451,2.33050277042382,2.33038826798231,2.33087324064251,2.33164193418262,2.3353615016446,2.33170686767268,2.28304340814984,2.28268711463951,2.28123729100584,2.28105894160395,2.28098788816199,2.28019513265065,2.27997152303071,2.27970526361164,2.27976565889426,2.27952158588818,2.27941933487452,2.27921233100742,2.27923707202041,2.27912195086296,2.27897693653925,2.27881544475741,2.27895247976074,2.27832995311558,2.27855307315887,2.27844137646315,2.27839830463076,2.27812725017227,2.27828270176545,2.27843400448348,2.27843681319762,2.27868953475141,2.27884689793727,2.27827541188623,2.2785282588414,2.27853835491038,2.2788147747592,2.27903855411774,2.2790382227729,2.27913928139327,2.27902820178462,2.27864295752139,2.27884902259278,2.27952703902471,2.27971245996704,2.27967151089886,2.27983834285943,2.2804656022384,2.28059427025148,2.28101587863475,2.28114887038864,2.2813295506956,2.28193733728016,2.28174301496371,2.28232571910141,2.28308792846669,2.28283492993387,2.28329657110715,2.28372623320443,2.28408286317308,2.28432755427797,2.28492920343678,2.28546819957494,2.28695457868006,2.28817518737844,2.28958396216327,2.29012683438344,2.29110217001138,2.34603996304939,2.34601233645616,2.34647141878434,2.34747510665737,2.34815421367535,2.34825896909087,2.34843851650968,2.34844278570633,2.34876782857622,2.34830539117203,2.34803377033956,2.34795575637514,2.348080843753,2.34753634625742,2.34732762043415,2.34742756642162,2.34731341324726,2.3472709029193,2.34773784855571,2.34849931679854,2.34927798366736,2.34952766763288,2.34993277618418,2.35076676780584
2.30354967039417,2.30416515507212,2.30481341075641,2.30521576096923,2.30558684969105,2.30686372908549,2.30785118624983,2.30836193595735,2.30893545448718,2.3095424396306,2.31076595113919,2.31141726748897,2.31247221645982,2.31242159350611,2.31234863846981,2.31284154700903,2.31380015783137,2.31198164699359,2.31193083667727,2.31329664930422,2.27270308118352,2.27099236473682,2.27033293091045,2.27008038720015,2.2698450858431,2.26948214051361,2.26971527332409,2.26952862860768,2.26986457709622,2.27019305944564,2.27007805488137,2.27003993683723,2.27037231396383,2.2703830647128,2.27033198545883,2.27061627130856,2.27160623549235,2.27174181498175,2.2721885638997,2.27246696399771,2.27268089639618,2.27279884120232,2.27342789671483,2.27415348782013,2.27509682319077,2.27507014874542,2.27593799949856,2.27717750351436,2.27849186012744,2.27880371125202,2.32473999384216,2.32389188801558,2.32231313101337,2.32588934317737,2.32895026285968,2.32949654847035,2.32870012640399,2.32485627130321,2.32643972178857,2.32684919326077,2.32546853241037,2.32479277883962,2.32426058554497,2.32379843118336,2.32347346579971,2.32292011131317,2.32292080350194,2.32288681897223,2.32282536882663,2.32277159335564,2.32293039149428,2.32362670195973,2.32402010137094,2.32414024666376,2.32451269975291,2.32512284232859,2.32661391912346,2.32765951180225,2.32784263495449,2.32830089215527,2.32877120753476,2.33010217054202,2.32924026674269,2.32961733350803,2.32983453727288,2.33010856258777,2.32971684401025,2.33034953527429,2.29963990829158,2.28367337843852,2.28232210341534,2.28223785764593,2.28110216461099,2.28099147358478,2.28096284146226,2.2802737803135,2.27972779931542,2.27973564494536,2.27964519754272,2.27954271863708,2.2793041759776,2.27922581771494,2.27899934242156,2.27894021616323,2.27867759518452,2.27879550813697,2.2783996006905,2.27835311422156,2.27834775502006,2.2785684006413,2.27806209262961,2.27826158849152,2.27820879758834,2.27809740497297,2.27793633804731,2.27803880085551,2.27877209581491,2.27854808241889,2.27841378264741,2.27812509135858,2.27804464765919,2.27857288963811,2.27899732803266,2.27891470407331,2.27895999480136,2.27887221562938,2.27893855626138,2.27908633733651,2.27946415310678,2.2797154125571,2.27976254685346,2.27998960764561,2.28073539431694,2.28084892994086,2.2811597024944,2.28074109386175,2.28130885517438,2.28146665248229,2.28190084605062,2.28189646996946,2.28220517409026,2.28324141695554,2.28348689118417,2.28387589963237,2.28418147969799,2.28519943419978,2.28518844148503,2.28634570985731,2.28770497357667,2.28867861711879,2.29047185376104,2.34568639703241,2.34543814020181,2.34577201315579,2.34660441030034,2.34673828048906,2.34737736179086,2.34819283329918,2.34823262094196,2.34851598632027,2.34831389313277,2.34831102460184,2.347915919784,2.34758420982052,2.34736391969658,2.34702338699309,2.34689539263511,2.34685939227077,2.34692405427037,2.34726700409834,2.34724368980412,2.34763728103998,2.34868385474927,2.3491578567244,2.34963299170348,2.35194463692855
2.30331428700551,2.30439143490792,2.3047545396298,2.30495083876801,2.30553895322126,2.3067274575032,2.30756454845225,2.30862505706824,2.30892492488743,2.3099282292589,2.31062511230685,2.31136033535167,2.31202867009744,2.3122628656083,2.31309630921088,2.31079734322262,2.3110849815439,2.30884507617853,2.30998932756769,2.31153425644381,2.27198728032301,2.27117477740438,2.26994434749433,2.26984463557353,2.26952747513128,2.26947826026261,2.26923082315569,2.26924483463194,2.26957324941237,2.26974243719376,2.26966367131873,2.2698798997553,2.27035841191355,2.27031383751396,2.27008651246454,2.27085043768521,2.27111352620725,2.27160828296365,2.27186380811128,2.27209053624656,2.27223546959876,2.27308232393512,2.27339252567513,2.27401430068951,2.27426368973474,2.27517419600716,2.27626515923024,2.27789308083824,2.27888205843694,2.27965144851104,2.32260093224191,2.32462595755046,2.3254386481917,2.32573515864191,2.32639349866838,2.32693731879156,2.32647394926086,2.32716083053826,2.32600493831301,2.32556934994746,2.32454903314068,2.32423376059423,2.32299240245106,2.32292606115707,2.32260123312485,2.32242951312612,2.3222181854872,2.32218396084664,2.32215904328201,2.32245551317018,2.32250547468997,2.32272617960535,2.3230548037308,2.323423058834,2.32372811913895,2.32468121052038,2.326209306646,2.32708600193593,2.32746916714173,2.32782452732237,2.32870232657966,2.32849997523977,2.3289182240356,2.32895219427963,2.32936986403603,2.32943184932326,2.32928486162509,2.28462954683689,2.28349299324979,2.28349077042897,2.28240262839172,2.2813071458136,2.28128026358086,2.28079187853707,2.28061752875847,2.27968265488838,2.27966118581603,2.27969410292247,2.27965862810509,2.27954619757874,2.27909047907124,2.27883542806927,2.27895433991455,2.27869298809879,2.27870523052477,2.2782675347147,2.27861889558546,2.2778824623454,2.2781479923086,2.27824881005023,2.27810467317345,2.27790850062722,2.27793632235876,2.27783935120341,2.27767449121978,2.27948462934117,2.27844118138754,2.27842932904723,2.27814097375235,2.27832463360194,2.27779615542045,2.27854376116509,2.2785659590643,2.2788015148479,2.27895459521639,2.27854244363656,2.27858692948559,2.27903230768965,2.27917202077846,2.27946795723467,2.27965564441791,2.27981582048854,2.28023515481331,2.28065564471754,2.2811448432354,2.28059681884467,2.28093120217996,2.28226588015173,2.28178940638542,2.28171352555205,2.28209367969746,2.28298530858146,2.28343702057104,2.28371419899429,2.28414360293601,2.2850544212366,2.28546057968733,2.28721531867697,2.28772532601686,2.28854329431432,2.29086508550234,2.34574468457853,2.34538930458992,2.34570355692268,2.34610022885038,2.34592791075191,2.34774831354644,2.34838631334533,2.34802295843082,2.34791300526397,2.34796037141059,2.34724025826488,2.34729567294723,2.34700843065294,2.34682323681209,2.34663979143573,2.34648624189612,2.34651956230393,2.34641284871064,2.34629450185976,2.34645305094713,2.34758018288932,2.34831217208422,2.34881587714022,2.34932754465258,2.35086979575585
2.30321319955793,2.30373727510004,2.30441090187568,2.30460823126257,2.30514382285895,2.30628191950538,2.30739199422649,2.30807946466015,2.30866893966257,2.3094573439274,2.31065119231834,2.31106433528296,2.31178518547867,2.31149695688904,2.31157592991327,2.31021298207756,2.31057220765903,2.30891374135721,2.30826646276762,2.30762544681347,2.27154171010191,2.27066231727681,2.26996690621745,2.26975298051053,2.26972961133952,2.26933318943144,2.26941635938721,2.26932858306312,2.26952161233459,2.26967899720136,2.27001800192924,2.26998992271013,2.27017595566265,2.27038942394107,2.27078761655034,2.27077977335986,2.27108410316892,2.27142678608,2.27180474610867,2.27191744029397,2.27305026235179,2.27332397469208,2.27424526762895,2.27402996158403,2.27426612463024,2.27527937873786,2.27663545881959,2.27801145711963,2.27917740914309,2.28023496332159,2.32386989421209,2.32466524236184,2.32535873638135,2.32548468176874,2.32575099528308,2.32584580287192,2.326525274074,2.32569261204972,2.32504955134168,2.32436495815075,2.32390243227591,2.32379612106594,2.32291682205028,2.3225019518521,2.3224750743035,2.32218341805093,2.32173761959627,2.32152998611976,2.32156627261131,2.32172869060828,2.32216406641357,2.32220135518421,2.32277399538212,2.32309377391777,2.32364530132418,2.32475091931706,2.32639807461497,2.32709210086289,2.32701924270191,2.32769175509611,2.3275887084945,2.32797223601501,2.32801353752226,2.32839425712575,2.32867889920076,2.32804401910726,2.32804957661199,2.28433663648079,2.28343664349339,2.28327876453446,2.28196188550166,2.2810078568241,2.28075461362652,2.28057871805869,2.28043295367049,2.27990115467949,2.27923095793864,2.27952902815847,2.27965327412148,2.28017019882045,2.27927528772338,2.27884977827448,2.27875882610293,2.27859415021449,2.27833449530382,2.27860610160174,2.27763397843946,2.27791665616199,2.27783339684106,2.27790196752338,2.27772824563018,2.27803051654018,2.27779657409486,2.27769790402967,2.27768491391041,2.27800402037755,2.2775960081566,2.27767340758007,2.27788383963033,2.27775935492027,2.27819172439243,2.27780178417146,2.27877594687046,2.27854815192285,2.27869304986132,2.27829601093632,2.27874207333608,2.2788891369035,2.27896691603294,2.27904938062815,2.27965856155667,2.27954308714536,2.27996890623625,2.28025945368231,2.28088372520258,2.28082417555325,2.28168106589373,2.28124319971744,2.28155118962244,2.28174392669702,2.28228594075054,2.28280887812544,2.28319556190709,2.28361469701931,2.28402076219251,2.28412614858352,2.28497697691792,2.28738800561688,2.28748960055721,2.28787436123717,2.29075781328141,2.34333476933187,2.34536702282299,2.34579008994242,2.34615046078172,2.34706591803565,2.34808224610589,2.34782721814076,2.34742563009548,2.34702268558507,2.34676431630781,2.34737997259798,2.34685383054339,2.34669900309417,2.34653765574173,2.34605499749784,2.34650372209746,2.34613153145338,2.34597981054241,2.3458558348157,2.34636054016992,2.34717066134787,2.348250936739,2.34863840938847,2.34929829744009,2.35049818217414
2.30274663302045,2.30383429792648,2.30414926420496,2.30434880442893,2.30476776658488,2.3060532564435,2.30705660449185,2.30800499214253,2.30841339791121,2.30931529683959,2.31033503195141,2.31101293153112,2.31119832273852,2.31102660379814,2.31067931466219,2.31122219003851,2.31072929911237,2.30699093726765,2.30702717596481,2.30610562780233,2.27146207744624,2.27185800012011,2.27021517528795,2.26972768889091,2.26944256612217,2.26946860282658,2.26916432388787,2.26944169888811,2.26946992734608,2.26961289320157,2.27001695575235,2.27034791189918,2.27026469815296,2.27039707689939,2.27064585275329,2.27116286053544,2.27114259785677,2.27166332756834,2.2717916671463,2.27222333688479,2.27251768561206,2.27356606263791,2.27352091137048,2.27403045888322,2.2743921815123,2.2758849356155,2.27697563649634,2.27892661263924,2.27954421046295,2.28050156831779,2.32376466633117,2.3243404027967,2.32532186842559,2.32529254073181,2.32534142983785,2.32587741169917,2.32536564769972,2.32483027222053,2.32439089824779,2.32400461486248,2.32383784603056,2.32282650681031,2.322465517813,2.32209335138236,2.32205470921252,2.3213254088904,2.32104739008415,2.32103586249029,2.32099137090333,2.32123618737138,2.32155946373078,2.32185334167645,2.3224416968706,2.32276213202459,2.32339690964629,2.32420684839865,2.32527362866418,2.32599651914125,2.32645676590468,2.32673133321682,2.32766793044288,2.32754137694876,2.32800149073048,2.32790888390298,2.32848628559861,2.328084484667,2.3280316410912,2.2842101294632,2.28352064999638,2.28313848441142,2.28245838863042,2.28076674682424,2.28073315348843,2.28028438287236,2.28004000695433,2.279671031906,2.27952065647893,2.27927738279975,2.27966947220353,2.28031371255249,2.27952065528252,2.27872190949596,2.27878611035314,2.27837816262377,2.27844178189978,2.27796374957685,2.27809996404956,2.27779666727998,2.27794280953357,2.27814333957755,2.27766855864167,2.27800676597533,2.27781114269255,2.27776926289791,2.27767996549815,2.27778372560889,2.27761636766197,2.27793590155091,2.27770639176406,2.27801357057671,2.27819629856206,2.27838804285018,2.27825036629914,2.27847780053418,2.27854684437884,2.27839772221198,2.27856819320514,2.27895592127408,2.27877055095587,2.27875525452382,2.2790367658904,2.27971659784503,2.27980642139099,2.28004640029828,2.28021901240902,2.28072478999768,2.28106342420465,2.28154092353545,2.28143100726882,2.28177600338988,2.28188707818574,2.2828129044587,2.28333056851583,2.28361574332066,2.28450147200087,2.28386275543173,2.28523247794613,2.28623936259221,2.28737666260711,2.28821209065899,2.29014127023616,2.34167167934814,2.34599523678852,2.34590753898198,2.34747239097709,2.34757122658267,2.34748665898527,2.34795685290337,2.34731070731579,2.34642605673739,2.34670313685957,2.34643117377366,2.34662669980917,2.34633653811787,2.34627028167979,2.3458514561265,2.34572408419236,2.34574381877608,2.34576795000088,2.34586489411322,2.34708474561332,2.34693036813401,2.34783737238195,2.34832644821082,2.34900952896555,2.35128427131742
2.30254284862336,2.30328625852978,2.3039180814666,2.30416065588673,2.30483254214145,2.30562449555625,2.30692217253527,2.30758442080958,2.30823399759007,2.30913346749771,2.30991632670026,2.31060511311057,2.31261314413037,2.31072092501969,2.31031069530979,2.30907903496578,2.3103070855076,2.3094595635599,2.30773685315585,2.30633242935576,2.271392439626,2.27023363289804,2.26959339937435,2.26947872402402,2.26930328618459,2.26900887625315,2.26928942943002,2.2694380282806,2.26949164901006,2.26962990279139,2.26990182330361,2.2699179490018,2.26999933423568,2.27030320151537,2.27061741287909,2.27095653383323,2.27126861557182,2.2716564291296,2.27186778364653,2.27194919232214,2.27267541409356,2.27309238350903,2.27399530019101,2.27417740919157,2.27464213099275,2.27627717770122,2.27765045084385,2.27904845804921,2.28619755065637,2.32366246183164,2.32372482391572,2.32415607744755,2.325320209228,2.32531387271264,2.32559376429417,2.32590720299411,2.3259194046628,2.32468233677034,2.323945838023,2.32361451907727,2.3228042820469,2.32227547592107,2.32262525880326,2.3215358316138,2.32117083565968,2.32057416571922,2.32051988017151,2.32050548004297,2.32054806128354,2.32084904276733,2.32111043180437,2.32151530449507,2.32191651271795,2.32244828260566,2.32314415832364,2.32429967008942,2.3247786723655,2.3257881555054,2.3259364654523,2.32648069754008,2.3269069233754,2.32754283631255,2.32765952748077,2.32731798108311,2.32693664293662,2.32758308649556,2.32757612849364,2.28424928715735,2.28344455160722,2.2829826356894,2.28212434489815,2.28119668272773,2.28072512074752,2.28029905212736,2.28013560273845,2.27973935761977,2.27915586446673,2.27916072101762,2.27937267754105,2.28001522383465,2.27892403804883,2.27914400604366,2.2784017845385,2.27837418475913,2.27817721274581,2.27824882745634,2.27755824090507,2.27826013451946,2.27780372751231,2.27781427115811,2.27741747909926,2.27771870025478,2.27795201869149,2.27806155772024,2.27813686688207,2.27775208034167,2.27782706747755,2.27727801188135,2.27770505077965,2.27768780559448,2.27840731127309,2.27798041283968,2.27881839512133,2.27838751443349,2.27874057289584,2.27838331553803,2.27830302167247,2.27864266546694,2.27878558777009,2.27900040967079,2.27924975191044,2.27937041575609,2.27970665704187,2.27983384462895,2.28038647776781,2.28077719372982,2.28113947236161,2.28125713563615,2.28131054822168,2.28139287001535,2.28140771104803,2.28256720723232,2.282832403122,2.28340109270549,2.28379238087708,2.28445006692959,2.2859385648751,2.28658593108977,2.2876492311117,2.28943791498722,2.33563891642295,2.33848049428929,2.34539756517084,2.34572573802335,2.34626163352304,2.34691752804128,2.34746853283195,2.34791621605007,2.34720764766187,2.34701821115838,2.34641920971408,2.34655681585897,2.3464155802446,2.34615217749983,2.34593122347449,2.34557451632603,2.34558911777844,2.34571030513433,2.34564004638413,2.34577908946838,2.34604407235516,2.34662211648695,2.34738848603568,2.34802086005871,2.34858491380209,2.35093001158805
2.30218349796824,2.30306122091713,2.30370507707308,2.30403721796898,2.30458897855222,2.3054498255656,2.30645892393943,2.30741190510278,2.30791957535199,2.3087168598979,2.30925589983587,2.31012148629646,2.30954394752862,2.30956374661408,2.30904193536447,2.30902624107226,2.30905155262512,2.30870923506432,2.30863036999905,2.30958729560597,2.27078592899229,2.26974590544687,2.26927520147379,2.26939903421744,2.26915211975396,2.26911323831585,2.26916439513991,2.26944746445739,2.269391654517,2.2693653681037,2.26944838579679,2.26968891795814,2.2701856911691,2.27033629536021,2.27040922890464,2.27078043364134,2.27103723427847,2.27168214105587,2.27183946992331,2.27213538835143,2.27248784762521,2.27341820197068,2.27378735410501,2.27452347139948,2.27503208368734,2.27626629011844,2.27771771625753,2.27901203721186,2.29672220569456,2.32448919443884,2.32358521877645,2.32455180002003,2.32511353273245,2.32522695712158,2.32568779942753,2.32662495209129,2.32649967128982,2.32458861661289,2.32336502280153,2.32256171602602,2.32199984962982,2.32133775519866,2.32111499810152,2.3206722374747,2.31999182203321,2.32038639099374,2.31973871270547,2.31996117213065,2.31999728797718,2.32030431152455,2.32057688129511,2.32125197526023,2.32217906289448,2.32214451696308,2.32249294532418,2.32357871358198,2.32457049695554,2.32515467838433,2.32565223306871,2.32596936708112,2.32688626251084,2.32733480410116,2.32687086111398,2.32672449619027,2.32657376635502,2.32638826725506,2.32605236368127,2.28390357546273,2.28325361344019,2.28270407745519,2.28192495753414,2.28087210388833,2.28019408644927,2.27999726560891,2.27991047844935,2.27943948235252,2.27933343570894,2.27876969202738,2.27909251068279,2.27924559814113,2.27865682713152,2.2785582581337,2.27829928086649,2.27826794770974,2.27855476054629,2.27776956511013,2.27808208768349,2.27772958627509,2.27783632528044,2.27783985525518,2.27762001550073,2.2779264006269,2.27956108460297,2.27865314728755,2.27865041718573,2.27826278539369,2.27813649903133,2.27812637067284,2.27789457224527,2.27836161605187,2.27753344995887,2.27844896922098,2.27756508538867,2.27809200449182,2.27818325159995,2.27807705767349,2.27823569334847,2.27880822142386,2.27869053599298,2.27879617233547,2.2788403804625,2.27901479818128,2.27927423367139,2.27971340317809,2.28000655704537,2.28047489944123,2.28042176486744,2.28100023287831,2.28118820588699,2.28168884451219,2.28154551813524,2.2821138063899,2.28306256241519,2.28350413294409,2.28455160789145,2.28465655226859,2.28574114785448,2.28595150792312,2.28727635204766,2.28787886645735,2.2875277604053,2.34124816756317,2.34325546111081,2.34374766317187,2.34541028892095,2.34699419270883,2.34702206457824,2.34779090947631,2.34723790147421,2.34682470561672,2.34660359450236,2.34615922572521,2.34622914898361,2.34584859217295,2.34570584792846,2.34553218747524,2.3452216255076,2.34539179977384,2.34543879014248,2.34561474915283,2.3467076182372,2.34679025809448,2.34729344989633,2.34795928266538,2.3488679275184,2.34982139761519
2.30188934669607,2.30281979276052,2.30355735203407,2.30395938294957,2.30439030201544,2.30522386452252,2.30626580107795,2.30715698193501,2.30779916937215,2.30830061891921,2.30892308628584,2.30874613787181,2.30909899441842,2.30893456550043,2.30887480416524,2.30933521248075,2.30913269552747,2.30864564484974,2.30849488509846,2.30815698002709,2.27033276823713,2.26968857320711,2.26983500869362,2.2697051588632,2.26950773458427,2.26878068765032,2.26906883194243,2.26918674016666,2.26936092834219,2.26931646707144,2.26951265285029,2.26966480183868,2.27012053315099,2.27037806405096,2.27055160205656,2.27060306539008,2.27107666561768,2.27137195156555,2.27192539080591,2.27218918266758,2.27277239762055,2.27317515105285,2.27477229735256,2.27489279195247,2.27531194334656,2.27623254157758,2.27750392117722,2.27942143555025,2.30935331781584,2.32445309422779,2.32374406409501,2.3246900966893,2.32483630503474,2.32502830443743,2.32502837901932,2.32483461632716,2.32412045264178,2.32278997616907,2.32256769824786,2.32182820801361,2.3213651547865,2.3206888184515,2.32057143984566,2.3201566097978,2.31979285019775,2.31946771497244,2.31940039649753,2.31931181083112,2.31954225739053,2.31967843059207,2.31992418770287,2.32073312382561,2.32139282613605,2.32176501982977,2.32197718747085,2.32308249375435,2.32421033510552,2.32512039084172,2.3254446268476,2.3260871526794,2.32639603474835,2.32743809670133,2.32641767112006,2.326483767958,2.32609578126102,2.32660946739314,2.32611866267973,2.28336118085894,2.28282466362038,2.28223558076602,2.28160439591524,2.28061653231804,2.28012323530393,2.27988350110585,2.27945187750019,2.27954157348797,2.27890063329014,2.27879842128584,2.27885257714592,2.27890017417934,2.27843075516467,2.27862181876147,2.27848866975524,2.27832786892259,2.27807112445515,2.2779607880146,2.27798243796134,2.27785755338461,2.27770939631033,2.27773030083633,2.27752087767632,2.27775826813969,2.2781645674059,2.27841447356067,2.27864090408007,2.27811067761728,2.27785305854243,2.2776021039512,2.27786021041926,2.27788652887793,2.27818979673767,2.27780243333479,2.27806611977752,2.27799172549372,2.27808156022643,2.27794639987878,2.27821804134573,2.27831379193016,2.27864220448339,2.27868028647275,2.27890387422733,2.27906640994081,2.27935934733045,2.27959593518189,2.27976272577778,2.27985724510373,2.28037653092187,2.28062831730741,2.28106137446909,2.28117370596298,2.28169515776218,2.28224873109738,2.28289856751885,2.28323806065282,2.28330750404576,2.28389248046222,2.28530879069831,2.28604796294987,2.28734935942567,2.28731919711375,2.33642420579984,2.33759645983925,2.33867155114216,2.34182693526406,2.3438847141612,2.34702796292892,2.34711949622724,2.34733320731756,2.34690018170035,2.34673250808057,2.34583966904424,2.34643611669111,2.34587076204464,2.34565446831452,2.3454611471858,2.34502677574826,2.34515502261449,2.34521039449558,2.34530760173804,2.34551586831226,2.34585254059546,2.3465965180646,2.34688150578234,2.34783967064176,2.34860543099406,2.34942911394626
2.30194117017762,2.30315679396318,2.30346023467459,2.30399209061841,2.30417095715508,2.30517891052351,2.30585639410131,2.30720443766004,2.3077630836051,2.30821483771691,2.30870897525733,2.30814262247098,2.30794709660953,2.3084610573048,2.3086202881603,2.30903672953464,2.30862521812088,2.30796928898585,2.30219913198766,2.27258079476502,2.27117088163989,2.27017714637365,2.26942925530361,2.27001739852601,2.27117028729212,2.26934933122397,2.26894747604424,2.26914319060418,2.26938897080095,2.26939709838084,2.26962535746663,2.27023642723109,2.27024723442213,2.27044510505751,2.27033289395537,2.27100781191992,2.27180385653805,2.2716600563945,2.27206737939574,2.27233954697031,2.27285269601546,2.27380659589307,2.27519851094643,2.27529271503126,2.27555860744561,2.27691598374248,2.27835183984319,2.32091850236372,2.32260106394884,2.322987227276,2.32425884247281,2.32521648982174,2.32505696435692,2.3251177856462,2.32508888859084,2.32479167436975,2.32368624117523,2.32262388683283,2.32234573762149,2.32210634189296,2.32110586590731,2.32043287598514,2.3201734174745,2.31978303657091,2.31916225642738,2.31896052880923,2.31868576648678,2.31889825563653,2.31917906009233,2.31921565006955,2.31978089282788,2.32055670569438,2.32119138531196,2.32157396937038,2.32186694143562,2.32277980608257,2.32382999959768,2.32461581878174,2.32524817139192,2.32564098337058,2.32673975637859,2.32621708615608,2.32641319810326,2.32646639872231,2.32612696861624,2.32612874892129,2.32625079974812,2.2832694951905,2.28250185564093,2.28203038053115,2.28110449535233,2.2802928966,2.27988386423227,2.27982035421156,2.27956155946539,2.27936153813314,2.27861870117684,2.27873325672693,2.27877980009791,2.27846383742593,2.27839664247242,2.27822618668566,2.27809566188762,2.27818003010549,2.27808752393715,2.27746042465029,2.27778229585113,2.27758037386447,2.27771183703269,2.27733435811656,2.27731962251081,2.27750234994529,2.27758783424632,2.27816837012546,2.27836443249849,2.27822674154426,2.27776118368204,2.27765975632921,2.27776837368361,2.27767065716117,2.27752508883199,2.278104126019,2.27753787916692,2.27797387364099,2.27784763677161,2.27814256854457,2.27810933184578,2.27842908159616,2.2787172802857,2.27890825263916,2.27865174685053,2.27899083080447,2.27928487997134,2.27976690868142,2.27992784603921,2.28042740589793,2.28022787144856,2.28071042287035,2.28110713492497,2.28127358204212,2.28161613976163,2.28229442806724,2.28266144361175,2.2831815401734,2.2834571570069,2.2838805155023,2.28487093713471,2.28708461953827,2.28805115927516,2.28769674691167,2.33742555859225,2.33774347133892,2.3385055219374,2.34008351017778,2.34054675398666,2.3469691296591,2.34715387878453,2.3467530546856,2.34665974776841,2.34617968575033,2.34579331079966,2.34558542992951,2.34564765152135,2.34534907375153,2.34506027502788,2.34506987772149,2.34503957753218,2.34509181168193,2.34512416786648,2.34507690132756,2.34558371562683,2.34600037189949,2.34717066147079,2.34801223595581,2.34888650103178,2.3496800967749
2.30207638572427,2.30276188826947,2.30371847482794,2.30416645969038,2.30459435625078,2.30504490425582,2.30560714413032,2.30698953188031,2.30780670822895,2.3084652012566,2.30899792703143,2.30825668024213,2.30781230455045,2.30807442948644,2.30862637768998,2.30889990664586,2.30915910764096,2.30903212509054,2.29485218000464,2.27034733617343,2.26987882968926,2.26952527496363,2.26940690478506,2.26967310569645,2.26985406749304,2.26934221541756,2.26918046236458,2.26929381318002,2.26951272002794,2.2695850926108,2.26980575922846,2.27010857302822,2.2703742664514,2.27060666815233,2.27075160752545,2.27101897382379,2.27154996735561,2.27183271215787,2.27225893814336,2.2725555978486,2.27309906213844,2.27376056164276,2.27466579896912,2.27537553591814,2.27617434693782,2.27748480392256,2.27858670952594,2.32167655646892,2.32255358186141,2.32325883427703,2.32430768082569,2.32496708496065,2.32518956970185,2.32508253958175,2.32486001274566,2.32442074786782,2.32357437987855,2.32259298047513,2.321995684507,2.32148717090223,2.32085686534759,2.32037051458163,2.31992822160297,2.31951340669847,2.3191372179641,2.31885902046494,2.31875688717715,2.31886834937826,2.31907640654869,2.31931183341504,2.31974588784822,2.32030823424332,2.32100913949336,2.32146604513891,2.32195121680594,2.3227852428121,2.32369235937643,2.32452251634416,2.32508173984804,2.32559027253318,2.32608906285904,2.32624770918546,2.32638419025232,2.32647000952002,2.32634241479747,2.32648106983237,2.30164059377871,2.28258580755645,2.28211702144215,2.28160600161385,2.28094084226199,2.28038598038848,2.28005202836689,2.27988448497724,2.27959062729745,2.27936686859742,2.27894498159396,2.27886364098855,2.27877341187823,2.27857621182743,2.27848779526176,2.27838457832769,2.27825361879052,2.27821611343274,2.27798564905653,2.27785923306969,2.27780351452957,2.27780684982885,2.27783261826837,2.27778209212045,2.27782446298042,2.27781164233283,2.27796823051194,2.27818138019475,2.27815599549688,2.27798388058027,2.27772641570515,2.27771187317778,2.27786198950572,2.2778361307628,2.27779008597407,2.27783236931496,2.27803402768567,2.278160042137,2.27816405371216,2.27819268119205,2.27831149217072,2.27857886769744,2.27877821750647,2.27881955048663,2.27889900857935,2.27917654254817,2.27965135769964,2.27992940189287,2.28010291088578,2.28028291933792,2.28046095361583,2.28081180792684,2.28127577217175,2.28158429855242,2.28195690583009,2.28237569785625,2.28287881876354,2.28336233979684,2.28374574308424,2.28439845293653,2.28554791256086,2.28718628392781,2.28864644667376,2.28895330180354,2.33806628523933,2.33848713387559,2.33946761452255,2.34086498090069,2.34173979730137,2.3456129595426,2.34634849939241,2.34667800460234,2.34653545337353,2.34629064740496,2.34582217988553,2.34555921354907,2.34525759105268,2.34514826319326,2.34499860241747,2.34493121614446,2.34494418806501,2.34501745068592,2.34509616109758,2.34521859215915,2.34559172880802,2.34608796984114,2.34704578508495,2.34818239393889,2.34941087959578,2.35028129973401
2.30193142400798,2.30184402504429,2.3041058835069,2.30418555035518,2.30457312821763,2.3046077624589,2.30418032608521,2.3070773841292,2.30774636196685,2.30859120334778,2.31017054529646,2.3079044011855,2.30658165691581,2.30709171590397,2.30825581532867,2.30788881577325,2.30799855011555,2.30765139049669,2.28843995897779,2.2703814002454,2.27012352742036,2.26927857640614,2.26920103351656,2.26924927461979,2.26901094261549,2.26893404371171,2.26888359124027,2.26917494415663,2.26941777382901,2.26947310938654,2.26961343143615,2.26993453876283,2.27025108886929,2.27057012742434,2.27077557348476,2.27065885997724,2.2712824968063,2.27167024577565,2.27218825499545,2.27246128955241,2.27294437833502,2.27354771142445,2.27425558225576,2.27515073137486,2.27558238673626,2.27729506913834,2.27851635825624,2.32192858973231,2.32241857301965,2.32279005631494,2.32451270098856,2.32508830199043,2.32518121121071,2.32486320054538,2.32456188602151,2.32432571653417,2.32331713826,2.32198854409824,2.32143869202312,2.3207206574548,2.32034484986418,2.31996998387204,2.31953178994839,2.31904943773511,2.31878074134391,2.31841161803339,2.31837967904228,2.3185852869897,2.31878009378129,2.31903058219745,2.31934109639128,2.31979558467665,2.32085249362133,2.32119483081451,2.32149131540198,2.32252693248604,2.32348441680189,2.32448785448579,2.32486331724109,2.32516783129914,2.32577917141201,2.32575899072099,2.32599592961807,2.32589268943477,2.32558489576521,2.32603805946442,2.28349904979934,2.28304768195564,2.28200211790738,2.28148836867086,2.28075148485087,2.28001054258356,2.27993372745464,2.27970780658519,2.27945248498161,2.27925282018175,2.27882475605933,2.27867935607678,2.27855737437116,2.27828442887566,2.2784334546829,2.27830071326641,2.27816177198718,2.27800640632481,2.27776076684553,2.27769655494393,2.27780284291569,2.27756906633325,2.27774261526655,2.27775897998988,2.27825579793385,2.27763130464786,2.27819216529121,2.27803372220739,2.27785527047909,2.27760675322376,2.27719442625533,2.27742416353372,2.27768838868724,2.27796485806589,2.27751063278743,2.27739876560406,2.27816417958457,2.27818480285366,2.2781200386919,2.27808333931662,2.27799993051671,2.27862192276527,2.27859141504,2.27852160465911,2.27862278879116,2.27902530739831,2.27991287935017,2.27987640959042,2.27994009386532,2.27995262242729,2.28022437898406,2.28062526218484,2.28121090127116,2.28161004469836,2.28193759348041,2.28221350919073,2.28296363902095,2.28339733512341,2.28355529763674,2.2841426805768,2.28501637828954,2.28623697308059,2.28823370687063,2.28865341877679,2.33963463666249,2.33978445624757,2.34064776978575,2.34169484958739,2.3413629166051,2.34558998004501,2.34651449667742,2.34676543237852,2.34655373838019,2.34638043385686,2.34585039968726,2.34525274926226,2.34476475407123,2.34493888594447,2.34480532233858,2.34466134825091,2.34471005865139,2.34493838198791,2.34499131915761,2.34509868499883,2.3453924421348,2.34570987866823,2.34666432761235,2.34825878949165,2.35026791458227,2.35035953949748
2.30135358912436,2.30227318420657,2.30307807103073,2.30370765426131,2.30392098379694,2.30318486215397,2.30632412357573,2.30742706329138,2.30740225303612,2.30711051085029,2.30830961653873,2.30527002124671,2.30405150015406,2.30527700245811,2.30466668380773,2.30598084293217,2.30777742432694,2.30718260159082,2.28205995569794,2.27144031737406,2.26999238307822,2.26910899930529,2.26884363362921,2.26897859187932,2.26885933459544,2.26869557957125,2.26887002663217,2.26911478173205,2.26941015701218,2.26959679312408,2.26971143683704,2.26988180689927,2.27004524154156,2.27038578455613,2.2705580902251,2.27065645294027,2.27169208090419,2.27192365050852,2.27222846759852,2.27246022380508,2.27270273971718,2.27370785474657,2.2747491669142,2.27530746826617,2.27581465706085,2.27780430732572,2.27895456922686,2.32238087730424,2.32276354907009,2.32330963058762,2.32428883465299,2.32442431504113,2.32471598986933,2.32441365474604,2.32418342195238,2.32362631690887,2.32340467642364,2.3214844677613,2.32095986487058,2.32071291510753,2.31989026366164,2.31929593949999,2.318519157741,2.3184266208899,2.31826343821088,2.31802476458299,2.3179589934048,2.31825500122084,2.31837427647864,2.31852597671698,2.31881072522678,2.31943487616211,2.32028874398544,2.32084084575092,2.32151268323414,2.32250372239125,2.3232923597519,2.32423473078923,2.32460341178177,2.32509397788116,2.32521352120982,2.32516618992478,2.32506226745582,2.32521403066941,2.32537005268304,2.3245383507134,2.28316033689613,2.28256210860204,2.28184467377852,2.28123929268789,2.28056302400954,2.27996954284381,2.27960423331381,2.27949793366425,2.27921331267611,2.2791230217069,2.27859632170571,2.27836298426494,2.27823410145225,2.27795254648461,2.2782576624573,2.27787772488899,2.27779233691218,2.27779305803014,2.27754956207015,2.2774678457999,2.27736878455244,2.27747216187828,2.27745494907051,2.27745262070218,2.27846595569532,2.27744366806175,2.27756949069685,2.2777749714434,2.27772888869418,2.27730244545023,2.27717298112267,2.27722136774125,2.27738876132875,2.27732798111299,2.2773892480786,2.27782372304168,2.278189446092,2.27799515126544,2.27788677120478,2.27747219035334,2.27820570874223,2.2782654966925,2.27828678740573,2.27806879439093,2.2787673276008,2.27878630067832,2.27907748988809,2.27952126345687,2.27967042605078,2.27985637503629,2.28030547141352,2.28053790201717,2.28118090515204,2.28168956503971,2.28192776840053,2.28234440942147,2.28350242083389,2.28353045181632,2.2838810464313,2.28447057681159,2.28569318036951,2.28674663867883,2.28816892385218,2.28883759445633,2.34078566029939,2.34106062576051,2.34438739404168,2.3439910043125,2.34534264079695,2.34734807810072,2.34656743778421,2.34653341483135,2.346421759267,2.3464445701589,2.34579587053558,2.34541497429009,2.34530049885372,2.34509908665704,2.34526285915223,2.34487273477659,2.3446759742025,2.34482986810025,2.34488235497258,2.34512241960578,2.34532376862657,2.34582244661035,2.34689823389868,2.34792338918313,2.34876670604582,2.3507005225724
2.30129045567759,2.30247042103,2.30345250660819,2.3037840241026,2.3044305886158,2.3056547828805,2.3063531394219,2.30724057076051,2.30732777612722,2.3078603906084,2.30804685134063,2.30563907565376,2.3051732835713,2.30545825589992,2.30450044639054,2.30522659507825,2.30601420947933,2.30937870901133,2.27707202227856,2.27123770872799,2.2694493266145,2.26960980811301,2.26945415285944,2.26896549690835,2.26867504016164,2.26884929880669,2.2690874902154,2.26924085140166,2.2692556345501,2.26945153153118,2.26969436559793,2.27036056292291,2.27007180902458,2.27037769389027,2.27064410282423,2.27093982037581,2.271323770255,2.27197235760449,2.2722504722,2.27264673075753,2.27314581943114,2.27409123478366,2.27493535857218,2.27561872455391,2.27646935061277,2.27769027494086,2.32159054243972,2.32307297830166,2.32330273840956,2.32401372153371,2.3240555021377,2.32448569899015,2.32419467880572,2.32408003850511,2.32417876653689,2.32415172012795,2.32197242996656,2.32084743528961,2.32037084172758,2.3200440895948,2.31965629932043,2.3185869437447,2.31818217416296,2.31785868056799,2.31783017457595,2.31759394887417,2.31777067786081,2.31807140192585,2.31798129355449,2.31807523151634,2.3181681610408,2.31893594379278,2.3198712593043,2.32052699715236,2.32122460579004,2.32217717539356,2.32300067219309,2.32397561887265,2.32430823998343,2.32485627306482,2.32493050158871,2.32489562662046,2.32458040930806,2.32445013928906,2.32465939613124,2.32497837932309,2.28320291001967,2.28262252808525,2.2818700842894,2.28151646840927,2.28043758626878,2.27977035705871,2.27956535560538,2.27931240337263,2.27923014999663,2.27889127642195,2.27830064744736,2.2780172901746,2.27809242468325,2.27794217407279,2.27852004508489,2.27780681247171,2.27804681092869,2.27765883409122,2.27742882372546,2.27750688441004,2.27765035369665,2.2772716191885,2.27723008550733,2.27703842349202,2.27736767467718,2.27738836363616,2.27812266837194,2.27769581373027,2.27744218876368,2.27721636161188,2.27702561386834,2.2773909355375,2.27724106883573,2.27727898008525,2.27744224455726,2.2773839675928,2.27782422746925,2.2777676549974,2.27770724305016,2.27820433565064,2.27783576174981,2.27814567537181,2.27819121658929,2.27851256273898,2.27858280099305,2.27887596957498,2.27932043219831,2.27944296982841,2.27962333845701,2.2797752354059,2.28041333393224,2.2811900551225,2.28118644621197,2.28173262425188,2.28170158915682,2.28245802271743,2.28364269283251,2.28350374577837,2.28354069545744,2.28419263688736,2.28560290221865,2.28700809857469,2.28804620397264,2.28843528816282,2.34208183358194,2.34220362822487,2.34462608922497,2.34436921405213,2.34526888967282,2.34617057547383,2.3465363940269,2.34660590784519,2.34641377581688,2.34633535559588,2.34621407945519,2.34542132826874,2.34506529870185,2.34487946151377,2.34481651226233,2.34426289670727,2.34431753844879,2.34430854494695,2.34466633225143,2.34495176373993,2.34519870662374,2.34592389063765,2.34736923405121,2.34794817164039,2.34876009175015,2.35049184246393
2.30133714122004,2.30221897252761,2.30349669345452,2.30379542227371,2.30461422927317,2.3056589453281,2.30657514801526,2.30704690482091,2.30723154523957,2.30753304079179,2.30787978041996,2.30723110846058,2.30754137500383,2.30702439054545,2.30777452600422,2.30799773651624,2.30614607062799,2.27207139717549,2.27270146850323,2.27050679507205,2.26999753203643,2.26979461881631,2.26904983412646,2.26877738256668,2.26841587075643,2.26850013104638,2.26881127871559,2.26875753871659,2.26908899023923,2.26915799847237,2.26964173158885,2.26968572933423,2.27023223950091,2.27028968415165,2.27054738577728,2.27074276161052,2.2717267639319,2.27183128049702,2.27221228634259,2.2727827949008,2.27303387149662,2.27370796081224,2.27505574266912,2.27588018454085,2.2771666861906,2.27856484440586,2.32437564281716,2.32343116224196,2.32375804013007,2.32418916157625,2.32437923181615,2.32426014047449,2.32385753703424,2.32354879863625,2.32359813222939,2.32379944081112,2.3218957165735,2.32075872065017,2.31988017692918,2.31941082803377,2.31860725045192,2.31821293071267,2.31754901399424,2.31743286926885,2.31742418090983,2.31737708012403,2.31750569796139,2.31777583290167,2.31768769353804,2.31777883405785,2.31805414964278,2.31864232973995,2.31981338633597,2.32025828537791,2.32107946846321,2.32192424088964,2.32292031071261,2.32370847784929,2.3240027658789,2.32448926769397,2.32461986637461,2.32461786114779,2.32410470299267,2.32382213044479,2.32369915911349,2.28479002600679,2.28288324276341,2.28206451790697,2.28139760400675,2.28088641390172,2.2799449845875,2.27982768481886,2.27930434123607,2.27918580186369,2.27915489278711,2.27877473509305,2.27840828457786,2.278561724942,2.27819779998242,2.27813390158984,2.27821723203821,2.27771288612429,2.27776808828586,2.27756316948754,2.27749824678521,2.27722020785622,2.27727014137331,2.27739764947362,2.27713804297247,2.2770720700483,2.27709081464882,2.27760577520742,2.27807250668127,2.27753675404072,2.2772345665738,2.27749056674326,2.27690648648066,2.2770226264753,2.27703447378548,2.27704183573523,2.27729140830889,2.27750531823184,2.2774416159875,2.27748908524531,2.27782763964829,2.27764213151124,2.27777998515672,2.27757835338081,2.27796069485358,2.27837115265402,2.27827952676966,2.27877780231911,2.27917520870145,2.27943860220345,2.27974172483651,2.27973990824862,2.28014579106493,2.28053513281717,2.2808451917253,2.281082870061,2.28122605004893,2.2817249652359,2.2830165589844,2.28327450645625,2.28397576535372,2.2843744334502,2.28572934681244,2.28685638730551,2.28863195583697,2.29003465488639,2.34307399097978,2.34388648703264,2.3433425664839,2.34395266642829,2.34434914450387,2.34590169647837,2.34591634517199,2.34576540110931,2.34620607860433,2.34738800744021,2.34555586741933,2.34495242274176,2.34535214596716,2.3448300919465,2.34442430362077,2.34422713588676,2.34476273083775,2.34452813230049,2.34470608747612,2.34523475230278,2.34523702436897,2.3457502754945,2.34714691248299,2.34777410791492,2.34871780852907,2.35053075143029
2.30100199780991,2.30247752219075,2.30339764639189,2.30375240962438,2.30442157991643,2.30543769590317,2.30641834819696,2.30707095258986,2.30717047316753,2.30768139480909,2.30761786010327,2.30775319932132,2.30788351448302,2.30778057302416,2.30800998224158,2.3086291008791,2.30947175001785,2.27051581497764,2.27113945930925,2.27065679562581,2.26964913013909,2.26910811220786,2.26877705815391,2.26870022481643,2.26872745997532,2.26876368807148,2.26862165824733,2.26897622340689,2.26903723605362,2.26929673563228,2.26934718949592,2.26991195893953,2.26973504404432,2.2701822972659,2.27053807367257,2.27086884057068,2.27210806097949,2.27188107282189,2.27205846637493,2.27217331733376,2.27322203673947,2.27359236274627,2.27482336264697,2.27595065152395,2.27697735570134,2.27909336465176,2.32558026476598,2.32476795006743,2.32424482994347,2.32440283569091,2.32415638006805,2.32395476575658,2.32338183446013,2.32312310686761,2.32295185786009,2.32199615341288,2.32199157490237,2.32005830170871,2.31935775693034,2.31877182507664,2.31863918439755,2.31796274900718,2.31751422695464,2.31699827640931,2.31689090187715,2.31696307607057,2.31734203267048,2.31741175633223,2.31746842644164,2.31791310960137,2.3180603984723,2.31885942358347,2.31948600353299,2.32005024475086,2.32077638889746,2.32231974524971,2.32263217679386,2.32348446454071,2.32375713927242,2.32414472415221,2.32458543487042,2.3243982256275,2.32424953608696,2.32346837033583,2.32301184288971,2.32292482625238,2.28275870548846,2.28158459863842,2.28118383658818,2.28055061109507,2.28025063880752,2.27964343470539,2.27912874530887,2.27898065556031,2.27889139189314,2.27876118682551,2.27866936656617,2.27850958206555,2.2781995251273,2.27821900909196,2.27819116979783,2.27747670501561,2.27748321185974,2.27733682435923,2.27725959280879,2.27726296498471,2.27755172140786,2.27721797653148,2.27709439999408,2.27709257536048,2.2773480447448,2.27755898994998,2.27779877421748,2.2773491643806,2.27718586748863,2.27715939847083,2.27694179288578,2.27687169388092,2.27693586330663,2.27727279128941,2.27731216156109,2.27716899575865,2.27717266399665,2.27728488770149,2.27727411935419,2.27747154236612,2.27809847078554,2.27762223763235,2.27784554943977,2.27807504405106,2.27844549154271,2.27882585887023,2.2796111636074,2.27956393652975,2.27991693398656,2.27985598977125,2.2803688593054,2.28053636725925,2.2806553264579,2.28089949881282,2.28110041746254,2.28224007507112,2.28296871959995,2.28313402152341,2.28341839051199,2.28364923504178,2.28392977602587,2.28656218495829,2.28932943422231,2.28856637263169,2.34057157636416,2.3423226681138,2.34329692077943,2.34374059344,2.3444745706335,2.34523657569445,2.345577237499,2.34561318126157,2.34566936695718,2.34564035996393,2.34520487267933,2.34469593508764,2.34524118395879,2.34475212861174,2.34471666956052,2.34451672241097,2.34413744197523,2.34417707095514,2.34457646725183,2.34514920295416,2.34523253273782,2.3457009946123,2.34665374776389,2.34757388305131,2.34818043817715,2.35138618911608
2.30123393435877,2.30227579949085,2.30332091537177,2.30363384259212,2.30443148099106,2.30521570433011,2.30656869424667,2.30708408132352,2.3072896398685,2.30769421816766,2.30774243514697,2.30811451070197,2.30834024127679,2.308502190138,2.30891455653287,2.30889698725909,2.3091513795227,2.27111528381555,2.27075864792656,2.27032439872465,2.2692020576963,2.26932132521428,2.26872956982661,2.26866391802219,2.26846498449777,2.26821446295929,2.26854882277038,2.26875560669755,2.26901779964641,2.269054238781,2.26946575859595,2.26960321915292,2.26987565369836,2.2701133156119,2.27027145946792,2.27054388501884,2.27119912678723,2.27165477723034,2.272080592624,2.27256729064671,2.27290886494582,2.27392597145687,2.27554876927802,2.27627790788118,2.27702424696926,2.27973633775285,2.32551360072772,2.32481511440921,2.32441125950868,2.32471420084304,2.32398665819405,2.32349639709951,2.32314407774865,2.3226197136814,2.32235952058718,2.32107738924707,2.32081820047563,2.31957869288934,2.31901838435178,2.31884464178882,2.3179488790994,2.31779357400389,2.31686978566417,2.31664210263705,2.31651618919776,2.31656351808784,2.31702524635616,2.31700432776707,2.31714981736561,2.31765961801135,2.31833751351368,2.31901549864804,2.31902412869604,2.31980302339657,2.32076429766065,2.32168133316685,2.32240940170581,2.32348135912888,2.32366276406401,2.32409573264818,2.32446496356895,2.32431601720594,2.32403242586828,2.32329555889319,2.3230724220599,2.2836417843279,2.28247546141645,2.2819072568792,2.28115517943758,2.28085120164934,2.28008158273984,2.27971066953789,2.27922907016884,2.27904501892786,2.27892464035802,2.27869013923708,2.27873923666611,2.27823499274474,2.27802973809924,2.27760184623641,2.27783270092906,2.27766219449991,2.2773138808434,2.27734494050688,2.27742941441379,2.27730063409674,2.27720511467473,2.2771526469803,2.2770490633621,2.27708365723716,2.27701126547142,2.27760482475527,2.27731081551843,2.27709075901211,2.27690837428624,2.27694075377662,2.2770514746007,2.27677604784299,2.27678332025444,2.276829915415,2.27699853035278,2.27721404512987,2.27701830556171,2.27728569711517,2.27757834055837,2.27774639523607,2.27814765589324,2.27783315866914,2.27800171155516,2.27840288774136,2.27867613532372,2.27928801696048,2.27945172033632,2.27957471228276,2.27964624066194,2.28008317116203,2.28152184297322,2.28073892612855,2.28075457599982,2.2807631835791,2.28169481431288,2.28193474298537,2.28264374714795,2.2828857375276,2.28341502109897,2.28448152930239,2.28584618414271,2.28671933793474,2.29316689155875,2.33837723069546,2.34262158631295,2.34305104504275,2.34263617423758,2.343618814926,2.34445926782764,2.34486762229094,2.34520415133756,2.34507389417982,2.3451595315358,2.34509528515436,2.34463313617233,2.34458486428838,2.34450143278577,2.34451310466069,2.34456822441455,2.3442128287345,2.34419217045592,2.34421825869861,2.34446967372496,2.34483510880721,2.34538041396454,2.34595326184749,2.3466475439196,2.34770117588374,2.34895847163241,2.35100872049741
2.30113323740291,2.30224560625901,2.30315083520971,2.30355616152944,2.30417025901805,2.3051072972978,2.30650616580081,2.30734492712679,2.30736980568496,2.30767477273406,2.30780839681155,2.30837956085221,2.30904698149859,2.30938018275701,2.31022482764297,2.30934943672233,2.30947042499748,2.27015146233115,2.27039317324849,2.27021073178736,2.269170378827,2.26845909760985,2.26867629118803,2.26869075200605,2.2690119177551,2.26833926952363,2.26837778055292,2.26904890372499,2.26907438163128,2.26925346061194,2.26943163528989,2.2699537294057,2.2701958929222,2.27034057643719,2.27041603673813,2.27084214812345,2.27147400636175,2.27185075653446,2.27222462261114,2.27243898474225,2.2730532963594,2.27401753778558,2.27595149557057,2.27667523103006,2.27757120023754,2.27920220356255,2.32467393554749,2.32410112620049,2.32401354159576,2.32439282229894,2.32397975259031,2.32315337819368,2.32276599183564,2.32235002950707,2.3218130993716,2.3205917663598,2.32009954932939,2.31932927203077,2.3186140582869,2.31812118458178,2.31734495417749,2.31707425169107,2.31670192675788,2.31630797075485,2.31621168231616,2.31639045488856,2.31665499139232,2.31663963256314,2.31668030817572,2.31679107394504,2.31757900377658,2.31844714203356,2.31922022914657,2.31976167231563,2.32062417943729,2.32163488979443,2.32231714225464,2.3231577970145,2.32349756493164,2.32401109080983,2.3243349767226,2.32416047257342,2.32339199549254,2.3232060322298,2.32369444914314,2.32324059688133,2.282299123896,2.28125811461555,2.28101678458823,2.2805991910319,2.2807154892148,2.27980487178593,2.2791070254864,2.27905587401493,2.27913840667254,2.27868454265033,2.27871931261784,2.27842146310916,2.27826718584251,2.27825998727302,2.27811538661711,2.27792169894553,2.27744775386585,2.27733765393715,2.27722728405405,2.27717773022095,2.27702917404908,2.27700301774535,2.277015045786,2.27697962260634,2.27700753701731,2.2773347357636,2.27714380709872,2.27701362778817,2.27696377127636,2.27682625630981,2.27689846192414,2.27701118434999,2.27687301448893,2.27688904360729,2.27701884578618,2.27708014516678,2.27754180480177,2.27753582912905,2.27780491331784,2.27766216769403,2.2776814498436,2.27830155906433,2.27806043941852,2.27808434001002,2.27855890118527,2.27916919561896,2.27983309680397,2.27972681386594,2.27992927816268,2.28034696707306,2.28053222548836,2.28098047182112,2.28096814484198,2.28136236608291,2.2816726282975,2.28220017212743,2.28236615471343,2.28285819745325,2.283063071166,2.28333707802964,2.28640742402478,2.28656160795316,2.29566835219993,2.34089057593676,2.34164243663879,2.34250455215214,2.34306872811517,2.34364512447401,2.34450644679278,2.34448273908491,2.34532085747775,2.345295595543,2.34517346823776,2.34512679924584,2.34482155991793,2.34456049133123,2.3444880033324,2.34430608785905,2.34451086688945,2.34390900490038,2.34376122121191,2.34419328495524,2.34440634452425,2.34484088661681,2.34542407988843,2.34607417861468,2.34708053512167,2.34798769377441,2.34896289999013,2.35118678919762
2.300831035463,2.3017633423947,2.30298574655298,2.30350671868325,2.30410122594452,2.30491589585449,2.3063370325085,2.30737340732792,2.30759561581299,2.30796121859746,2.30825927640935,2.3085777906939,2.30997567713377,2.30991544658236,2.31042698060179,2.31121743655791,2.27094414087372,2.27007997321084,2.27029908175149,2.26998941205518,2.26886996891287,2.26830168865065,2.26846538717794,2.26851300788071,2.26839384472943,2.26833182263381,2.26818667345163,2.26883899024399,2.26912480935319,2.26917012464258,2.26956576607155,2.26962936232695,2.26998986491036,2.27050452379717,2.2713024003922,2.27059693039219,2.27140366558496,2.27209911320891,2.27253755721018,2.27297278436342,2.27315118838351,2.27428760374967,2.27609173692935,2.27714636446024,2.27785587484099,2.27976783846913,2.32210462861113,2.32321582048996,2.32343309907172,2.32369569218235,2.32370662468383,2.32325195694418,2.32245462807397,2.32217300939347,2.32193844451604,2.32178801724663,2.31968515727783,2.31847852171634,2.3182175145476,2.3178517525294,2.31740387285884,2.31661890539122,2.31627989095958,2.31613998141932,2.31590293745983,2.31596719698888,2.31582144663053,2.3160077552218,2.31640987322569,2.31657800635242,2.31737381542426,2.31796420515851,2.31882648311828,2.31948380374307,2.32013893496572,2.32109329045276,2.3219604448084,2.32258086034216,2.32341025925124,2.32421243647928,2.32427456509193,2.32428537470702,2.3236500208665,2.32273767995115,2.32293115232728,2.28302628018377,2.28215973544621,2.28136840056,2.28099221213413,2.28077551796231,2.28097183202086,2.28017408100997,2.27907768288269,2.27912498987203,2.27894895596236,2.27879244762667,2.27848019194805,2.27842056238739,2.2784173084291,2.27851414255529,2.27814514823461,2.27833301975688,2.27777181722206,2.27749928123805,2.27736222734618,2.27728476268364,2.27677342409723,2.27699415097598,2.27709433009401,2.27716575601022,2.27703510060607,2.27713322813693,2.27684997894075,2.2769320405226,2.27685783835675,2.2770296803867,2.27692776800537,2.27684940997094,2.27684074284785,2.27676392415088,2.27684845098521,2.27724561831123,2.27742281844827,2.27749336813259,2.27754146852275,2.27754982102176,2.27744086023477,2.27783536938887,2.2779985164742,2.27780781608763,2.2783484044877,2.27933427638308,2.27974973598102,2.27976813505401,2.2798261619271,2.28000188705483,2.28082319978491,2.28063876774211,2.28094196215895,2.28117383561566,2.28190630124271,2.2822053319909,2.28344331804966,2.28312402681655,2.28342563913604,2.28362692452843,2.2853978218941,2.28679585545646,2.3005230938662,2.33960551358779,2.33996428392942,2.34131659053001,2.34266475474012,2.34364054258284,2.34409198251421,2.34492545713728,2.34502481543869,2.34523828418202,2.34513339036115,2.34515274448783,2.34477895619723,2.34453547489161,2.34400464512352,2.34393049362227,2.34365008143362,2.34394746037006,2.34359762094952,2.34408764548981,2.34430885626487,2.34453964229195,2.34503458470241,2.34661708079023,2.34791740950269,2.34822441406268,2.34892905470961,2.35054952184945
2.30093990927145,2.30174511763388,2.30270703899832,2.30350951348787,2.30399336771025,2.30516771757298,2.3063551102488,2.30729476765087,2.30767199843763,2.30792011948993,2.30831099960014,2.30917656379429,2.30995172199544,2.30997675767427,2.31050281622524,2.31132106089397,2.27128143051903,2.2706421381398,2.27042257839925,2.27003317790775,2.26890276622545,2.26791841427764,2.26798745008955,2.26836665784201,2.26837928802517,2.26839620607618,2.2686638973565,2.26891641036965,2.26922148245021,2.26945997876744,2.26942187863583,2.26977095469183,2.26998333101253,2.27042115303962,2.27051507177835,2.27118136993446,2.27196930096398,2.27265947520401,2.27284352873752,2.27311738992064,2.2736385461419,2.2747211388237,2.27628317132311,2.2774523625048,2.27798908255311,2.32104555413822,2.32136473311658,2.32206153303014,2.32271671714057,2.32301688999969,2.32315784671066,2.32281019067554,2.32259245009113,2.32217894289706,2.32180307882033,2.32138197773134,2.31948011359137,2.31840001155502,2.31803241141613,2.31749901065189,2.31714124984271,2.3162936935427,2.31658303596504,2.31602292427541,2.31555742456922,2.31549395080092,2.31540988880752,2.31579117163015,2.31643045801828,2.31701870623179,2.317352646811,2.31780456818235,2.31863592676607,2.3193918304683,2.31990128751138,2.32109146963243,2.32188101128277,2.32278954947114,2.32334334217696,2.32389639671531,2.32426618403161,2.32423537311729,2.32134242034199,2.32139069431868,2.31999409557404,2.28315996789619,2.28229391095393,2.28144058060926,2.28101695628791,2.28058040954334,2.28006861596579,2.27962144377611,2.27943206073848,2.27927507077101,2.27908978464848,2.27836394140964,2.27816494159596,2.27816630887678,2.27845936514076,2.27838727334984,2.27806650864356,2.27759392848512,2.27738926367273,2.27743284311502,2.27695769587242,2.27700802459029,2.27683429556672,2.27703729670397,2.27717870664178,2.2771736288403,2.27699139491168,2.27693219122786,2.27680842862378,2.27699665241451,2.27695670636756,2.27689684365327,2.27695130638486,2.27682918079541,2.27691124544727,2.27668128367332,2.27686186762407,2.27689173173164,2.27707652165956,2.27749381979443,2.27771492291988,2.27746752289685,2.27788958408851,2.27823635237217,2.27822953345405,2.27812323233804,2.27865623291725,2.27881494597159,2.279415972576,2.27966336911214,2.27966149371704,2.27996222662952,2.28026879619526,2.28078199923882,2.28096492976473,2.28087872494289,2.28169700825575,2.28211361457125,2.28281115300277,2.28296892512164,2.28282507815697,2.28445661661215,2.28656355119285,2.28810631217034,2.31039475096802,2.33790899768128,2.33845963475448,2.34086093562411,2.34341872527315,2.34415483409059,2.34483950745441,2.3458690632282,2.34611676943541,2.3454789532548,2.34509328441528,2.34482417671202,2.34440961315832,2.34385468865817,2.34408448326476,2.34380917690371,2.34360237347067,2.34325586092909,2.34325978315545,2.34387133233996,2.34429522186766,2.3447664043148,2.34561099343898,2.34666697730204,2.34780131050848,2.34823324799953,2.34843405220612,2.34983309003074
