2.21380268071415,2.2157967831581,2.21516864088825,2.21580675367032,2.21716274333221,2.21755159330878,2.22027354314477,2.21786067918759,2.21893749450732,0,2.21975507650934,2.22143012256226,2.22048292390139,2.2214002110256,2.22335443142068,2.22283596478525,2.22348404807953,2.22406233778828,2.22424180700823,0,2.22574735435342,2.2263455850866,2.22688399274647,2.22769160423627,2.22773148628515,2.22841945162831,2.22917721055701,2.22996488102238,2.23051325919446,0,2.23098187326879,2.23107160787877,2.23167980912417,2.23286630007833,2.23307568083494,2.23340470773819,2.23403285000804,2.23443167049683,2.23474075637564,0,2.23526919352329,2.23651550755076,2.23681462291735,2.23732311904056,2.23822046514034,2.23862925614135,2.23903804714236,2.24001515733989,2.24048377141422,0,2.24119167778182,2.24165032134393,2.2420391713205,2.24308607510358,2.24402330325224,2.24448194681434,2.24521976471861,2.24638631464832,2.24699451589372,0,2.24764259918801,2.24847015170225,2.25015516826739,2.25162083356369,2.25216921173578,2.2547515744007,2.2556090384516,2.257124556309,2.2627778367376,0,2.31342803881398,2.31427553235266,2.31452479515815,2.31526261306241,2.31579105021006,2.31716698089639,2.31524267203797,2.31439517849929,2.3142954733771,0,2.31463447079257,2.31462450028035,2.31410603364492,2.31539222972127,2.31417582723046,2.31359753752171,2.31412597466936,2.31388668237609,2.31427553235266,0,2.31439517849929,2.31519281947687,2.31564149252676,2.31619984121107,2.31756580138518,2.31877223336377,2.32061677812442,2.3216138293464,2.32044727941669,0,2.32113524475985,2.32185312163967,2.32243141134842,2.32309943566714,2.32298976003273,2.32268067415391,2.322321735714,2.32490409837892,2.32344840359483,0,2.32775566487377,2.32458504198789,2.27484215652351,2.27327678610501,2.27245920410299,2.27282811305512,2.27168150414985,2.27214014771196,2.27258882076184,0,2.27222988232193,2.27175129773538,2.27212020668752,2.27240935154189,2.2721102361753,2.27289790664066,2.27246917461521,2.27275831946958,2.27312722842171,0,2.27327678610501,2.27355596044716,2.27383513478931,2.27500168471903,2.2758990308188,2.27504156676791,2.27578935518439,2.27567967954997,2.27623802823428,0,2.27652717308865,2.27752422431063,2.27949838573014,2.27851130502038,2.28063502412319,2.28174175097958,2.28323732781255,2.34044812692952,2.34121585637044,0,2.34024871668513,2.34224281912908,2.3440175703042,2.34432665618301,2.34411727542639,2.34337945752213,2.34254193449567,2.34276128576451,2.34330966393659,0,2.34327975239993,2.34260175756899,2.34348913315655,2.34288093191114,2.34313019471664,2.34282110883783,2.34274134474007,2.34357886776653,2.3440175703042,0,2.34441639079299,2.34492488691619,2.34501462152617,2.34447621386631,2.34542341252718,2.34497473947729,2.34479527025734,2.34531373689277,2.34404748184086,0,2.34651019835914,2.3453336779172,2.34502459203839,2.28634812762511,2.28489243284103,2.28449361235224,2.28340682652028,2.28333703293475,2.28262912656714,0,2.28225024710279,2.2819012791751,2.28160216380851,2.2825094804205,2.28235992273721,2.28230009966389,2.2818015740529,2.28116346127084,2.2820009842973,0,2.28187136763844,2.28157225227185,2.28249950990828,2.28244965734719,2.28204086634618,2.28249950990828,2.28237986376165,2.28240977529831,2.28203089583396,0,2.28241974581053,2.28314759320257,2.28206080737062,2.28253939195716,2.28310771115369,2.28296812398261,2.28343673805694,2.28323732781255,2.28392529315571,0,2.28391532264349,2.2860888943074,2.28469302259663,2.28542086998867,2.28584960201412,2.28572995586749,2.28681674169944,2.28725544423711,2.2866472429917,0,2.28751467755482,2.2878536749703,2.28848181724014,2.28906010694889
0,0,0,0,0,0,0,0,0,0,0,0,0,0,0,0,0,0,0,0,0,0,0,0,0,0,0,0,0,0,0,0,0,0,0,0,0,0,0,0,0,0,0,0,0,0,0,0,0,0,0,0,0,0,0,0,0,0,0,0,0,0,0,0,0,0,0,0,0,0,0,0,0,0,0,0,0,0,0,0,0,0,0,0,0,0,0,0,0,0,0,0,0,0,0,0,0,0,0,0,0,0,0,0,0,0,0,0,0,0,0,0,0,0,0,0,0,0,0,0,0,0,0,0,0,0,0,0,0,0,0,0,0,0,0,0,0,0,0,0,0,0,0,0,0,0,0,0,0,0,0,0,0,0,0,0,0,0,0,0,0,0,0,0,0,0,0,0,0,0,0,0,0,0,0,0,0,0,0,0,0,0,0,0,0,0,0,0,0,0,0,0,0,0,0,0,0,0,0,0,0,0,0,0,0,0,0,0,0,0,0,0,0,0,0,0,0,0,0,0,0,0,0,0,0,0,0,0,0,0,0,0,0,0
2.21414167812962,2.21442085247177,2.21521849344935,2.21583666520698,2.21667418823344,2.21701318564891,2.21763135740653,2.21832929326192,2.21976504702156,0,2.22036327775475,2.22021372007145,2.2207920097802,2.2213503584645,2.22236735071092,2.22265649556529,2.22314505066406,2.22384298651944,2.22495968388806,0,2.22342422500621,2.22520894669355,2.22686405172203,2.22707343247865,2.22760186962629,2.22797077857842,2.22849921572607,2.2291173874837,2.23083231558549,0,2.23136075273314,2.23085225660993,2.23140063478202,2.23254724368729,2.23252730266285,2.23354429490927,2.23423226025243,2.23412258461802,2.23476069740008,0,2.23501993071779,2.23656536011186,2.23710376777172,2.23701403316175,2.23780170362711,2.23861928562913,2.23910784072789,2.23983568811994,2.24069315217084,0,2.24106206112297,2.24127144187958,2.24215881746714,2.24339516098239,2.24364442378788,2.24473120961984,2.24563852623184,2.24608719928173,2.2462766390139,0,2.24754289406581,2.24832059401895,2.24974637726638,2.25084313361055,2.25301670527446,2.25404366803309,2.25568880254935,2.25660608967357,2.26239895727325,0,2.31354768496061,2.31457464771925,2.31446497208483,2.31446497208483,2.31546202330681,2.31538225920905,2.31512302589134,2.31431541440154,2.31445500157261,0,2.31441511952373,2.3151030848669,2.31403624005938,2.31468432335367,2.31267027988528,2.31317877600848,2.31392656442496,2.31377700674167,2.31369724264391,0,2.31391659391275,2.31497346820804,2.31502332076914,2.31650892708988,2.31648898606544,2.31700745270087,2.31759571292184,2.31868249875379,2.31977925509796,0,2.32041736788003,2.32069654222218,2.32103553963765,2.3213645665409,2.32193288573743,2.32210238444517,2.32210238444517,2.32258096903172,2.32294987798385,0,2.32347831513149,2.27531077059784,2.27351607839828,2.27258882076184,2.27364569505714,2.27285802459178,2.2721600887364,2.27233955795635,2.2726187322985,0,2.2720105310531,2.27152197595433,2.2721102361753,2.2721102361753,2.27213017719974,2.27235949898079,2.27280817203068,2.27282811305512,2.27278823100624,0,2.27467265781577,2.27396475144817,2.27563979750109,2.27402457452149,2.27492192062127,2.275091419329,2.27577938467217,2.27601867696544,2.27660693718641,0,2.27641749745423,2.27780339865278,2.27875059731366,2.27967785495009,2.28020629209774,2.28243968683497,2.28345667908138,2.34254193449567,2.34098653458939,0,2.34114606278491,2.34170441146921,2.34293078447224,2.34454600745184,2.34379821903536,2.34227273066574,2.34199355632359,2.34185396915251,2.34233255373906,0,2.34174429351809,2.34172435249365,2.34202346786024,2.34226276015352,2.34238240630016,2.34162464737145,2.34212317298244,2.34279119730117,2.34393780620644,0,2.34368854340094,2.34354895622987,2.34415715747527,2.34493485742841,2.34400759979198,2.34380818954758,2.34345922161989,2.34336948700991,2.34355892674209,0,2.34455597796406,2.34255190500789,2.34008918848961,2.28549066357421,2.28495225591435,2.28387544059461,2.2835663547158,2.28277868425044,2.2819012791751,0,2.28196110224842,2.28217048300503,2.28184145610178,2.28167195739404,2.28253939195716,2.28154234073519,2.28189130866288,2.28179160354068,2.28150245868631,0,2.28139278305189,2.28118340229528,2.28201095480952,2.2819012791751,2.28142269458855,2.2810438151242,2.28157225227185,2.28194116122398,2.28216051249281,0,2.28216051249281,2.28297809449483,2.28216051249281,2.28256930349382,2.28264906759158,2.28383555854573,2.28340682652028,2.28295815347039,2.28340682652028,0,2.28412470340011,2.28418452647342,2.28496222642657,2.28500210847544,2.28487249181659,2.28610883533184,2.28615868789294,2.28723550321267,2.28675691862612,0,2.28725544423711,2.28716570962713,2.2875545596037,2.28786364548252
2.21361324098197,2.21466014476505,2.21526834601045,2.21535808062043,2.21653460106236,2.21698327411225,2.21775100355317,2.21800026635866,2.21863837914073,0,2.21949584319163,2.21975507650934,2.22083189182908,2.22282599427303,2.22198847124657,2.22308522759074,2.22415207239826,2.22391278010498,2.22484003774142,0,2.22305531605408,2.22454092237483,2.22809042472506,2.22697372735645,2.22814027728616,2.22779130935847,2.22909744645926,2.22929685670365,2.22964582463134,0,2.23038364253561,2.23152028092866,2.2312411065865,2.23194901295411,2.23249739112619,2.23359414747037,2.23403285000804,2.23438181793573,2.23489031405894,0,2.23673485881959,2.2363360383308,2.23659527164852,2.23745273569941,2.23791137926152,2.23822046514034,2.23925739841119,2.23965621889998,2.24018465604763,0,2.24074300473193,2.24140105853844,2.2421388764427,2.24320572125022,2.24378401095896,2.24431244810661,2.2448608262787,2.24624672747724,2.24677516462489,0,2.24781209789574,2.24870944399552,2.24928773370427,2.2511721605138,2.25208944763802,2.2545521641563,2.25605771150148,2.25786237421326,2.26019547407268,0,2.31231134144536,2.31461452976813,2.31387671186387,2.31523270152575,2.31578107969784,2.31451482464593,2.31470426437811,2.3139963580105,2.31468432335367,0,2.31387671186387,2.3125306927142,2.31197234402989,2.31226148888426,2.31210196068875,2.31204213761543,2.3124808401531,2.31390662340053,2.31289960166633,0,2.31361747854615,2.31388668237609,2.3141957682549,2.3149535271836,2.31613004762553,2.3172268039697,2.31685789501757,2.31815406160614,2.31876226285155,0,2.31973937304908,2.32042733839225,2.32067660119774,2.32100562810099,2.3209059229788,2.32188303317633,2.32113524475985,2.32209241393295,2.32295984849607,0,2.27602864747766,2.27533071162228,2.27420404374145,2.27414422066813,2.27240935154189,2.2721600887364,2.27262870281072,2.2719108259309,2.27252899768853,0,2.27207035412642,2.27221991180971,2.27221991180971,2.27251902717631,2.27214014771196,2.27242929256633,2.27240935154189,2.27248911563965,2.27300758227507,0,2.27382516427709,2.27397472196039,2.2737254591549,2.27439348347362,2.27474245140131,2.27552015135445,2.27563979750109,2.27578935518439,2.27578935518439,0,2.27714534484627,2.27760398840838,2.27884033192363,2.27970776648675,2.28156228175963,2.28390535213127,2.33716782840922,2.3372077104581,2.33928157699981,0,2.33936134109757,2.3430604011311,2.34490494589176,2.34426683310969,2.34388795364534,2.34257184603233,2.34258181654455,2.34186393966473,2.34151497173704,0,2.34108623971159,2.34121585637044,2.34055780256394,2.34102641663827,2.3413454730293,2.34158476532258,2.34146511917594,2.342103231958,2.34156482429814,0,2.34176423454253,2.34312022420442,2.34357886776653,2.34290087293558,2.3422527896413,2.34525391381945,2.34275131525229,2.3431601062533,2.34547326508828,0,2.34228270117796,2.3454832356005,2.34070736024724,2.28448364184002,2.28401502776569,2.28278865476266,2.2833669444714,2.28310771115369,2.28208074839505,0,2.28157225227185,2.28161213432073,2.28145260612521,2.28153237022297,2.28137284202745,2.28130304844191,2.28230009966389,2.28096405102644,2.2811435202464,0,2.28086434590424,2.28081449334315,2.28131301895413,2.28113354973418,2.28141272407633,2.2810936676853,2.28132298946635,2.28121331383194,2.28178163302846,0,2.28227018812723,2.28178163302846,2.28237986376165,2.28233001120055,2.28209071890727,2.2842244085223,2.28322735730033,2.2829083009093,2.28377573547241,0,2.28403496879013,2.28390535213127,2.28509184308542,2.28476281618217,2.28546075203755,2.28527131230538,2.28601910072186,2.28619856994182,2.28682671221166,0,2.287704117287,2.28695632887052,2.28703609296828,2.28915981207108
2.21294521666325,2.21399212044632,2.21391235634856,2.21517861140047,2.21606598698803,2.21698327411225,2.21766126894319,2.21809000096864,2.21829938172526,0,2.21919672782504,2.22004422136372,2.21967531241158,2.22136032897672,2.22219785200318,2.2232148442496,2.22418198393492,2.22403242625162,2.22408227881272,0,2.22449106981373,2.22353390064063,2.22513915310801,2.22691390428313,2.22773148628515,2.22779130935847,2.22866871443381,2.22943644387473,2.22952617848471,0,2.23018423229121,2.23135078222092,2.23171969117305,2.23272671290725,2.23282641802945,2.23336482568931,2.23354429490927,2.23431202435019,2.23479060893674,0,2.23536889864548,2.23593721784201,2.23625627423304,2.23762223440715,2.23793132028596,2.23888848945906,2.23910784072789,2.23953657275334,2.24035415475536,0,2.24140105853844,2.24167026236837,2.24252772641927,2.24296642895694,2.24377404044674,2.24429250708217,2.24535935188968,2.24656578386827,2.24683498769821,0,2.24776224533465,2.24844024016559,2.24971646572972,2.25109239641604,2.25199971302804,2.2545023115952,2.25701488067458,2.25829110623871,2.30897121985174,0,2.3114738184189,2.31403624005938,2.31347789137508,2.31415588620602,2.31426556184044,2.31422567979156,2.31254066322642,2.31303918883741,2.31290957217855,0,2.31193246198101,2.31234125298202,2.31156355302888,2.31140402483337,2.3115735235411,2.31145387739446,2.31169316968774,2.31186266839548,2.31204213761543,0,2.31225151837205,2.31326851061846,2.31375706571723,2.31472420540255,2.31565146303898,2.31635936940659,2.31795465136175,2.31760568343406,2.31977925509796,0,2.31908131924258,2.31967954997577,2.31990887175682,2.3205569550511,2.32069654222218,2.32121500885761,2.3233786100093,2.32263082159281,2.32000857687902,0,2.32516333169663,2.27547029879335,2.27306740534839,2.2728181425429,2.27437354244918,2.27173135671095,2.27141230031991,2.27156185800321,2.27142227083213,0,2.27141230031991,2.2719108259309,2.27215011822418,2.27244923359077,2.27298764125064,2.27253896820075,2.27268852588404,2.27328675661723,2.27351607839828,0,2.27358587198382,2.27358587198382,2.273775311716,2.27383513478931,2.27483218601129,2.27437354244918,2.27545035776892,2.2760485885021,2.27648729103977,0,2.27780339865278,2.27788316275054,2.27911950626579,2.28053531900099,2.28249950990828,2.2841745559612,2.33657956818826,2.33867337575441,2.33852381807111,0,2.33906222573098,2.3397801026108,2.34055780256394,2.34348913315655,2.34309031266776,2.34111615124825,2.34029856924623,2.340787124345,2.33983992568412,0,2.33995957183076,2.34007921797739,2.34014901156293,2.3405378615395,2.34108623971159,2.34148506020038,2.34041821539286,2.34104635766271,2.34141526661484,0,2.34150500122482,2.34238240630016,2.34204340888468,2.34203343837246,2.34221290759242,2.34236246527572,2.3406874192228,2.33976016158636,2.34116600380935,0,2.34283107935005,2.3412457679071,2.28468305208441,2.28470299310885,2.28338688549584,2.283666059838,2.28218045351725,2.2828085957871,2.28122328434416,0,2.28073472924539,2.28193119071176,2.28197107276064,2.2810936676853,2.28181154456512,2.28092416897756,2.28117343178306,2.28162210483295,2.28051537797655,0,2.28096405102644,2.28115349075862,2.28125319588082,2.28025614465884,2.28110363819752,2.28244965734719,2.28102387409976,2.28160216380851,2.28155231124741,0,2.281851426614,2.281851426614,2.28214057146837,2.28269892015268,2.2826590381038,2.28226021761501,2.28272883168934,2.28309774064147,2.28344670856916,0,2.282758743226,2.283666059838,2.28382558803351,2.28461325849887,2.28483260976771,2.28484258027993,2.28637803916177,2.28675691862612,2.28668712504058,0,2.2870460634805,2.28803314419025,2.28783373394586,2.2884618762157
2.21359329995753,2.21466014476505,2.21784073816315,2.21576687162144,2.21681377540451,2.2173621535766,2.21813985352974,2.21767123945541,2.21859849709185,0,2.21932634448389,2.22045301236473,2.22099142002459,2.22171926741664,2.22305531605408,2.22296558144411,2.22377319293391,2.22383301600722,2.22429165956933,0,2.22406233778828,2.22344416603065,2.22450104032595,2.22677431711205,2.22768163372405,2.22808045421284,2.228768419556,2.22964582463134,2.22938659131363,0,2.23008452716901,2.23119125402541,2.23147042836756,2.23193904244189,2.23279650649279,2.23314547442048,2.23362405900703,2.23419237820355,2.23500996020557,0,2.23504984225445,2.23544866274324,2.23683456394179,2.23690435752733,2.23787149721264,2.23794129079818,2.23922748687453,2.2397160419733,2.24039403680424,0,2.24108200214741,2.24170017390503,2.24259752000481,2.24280690076142,2.2437540994223,2.2446614160343,2.24553882110964,2.24611711081839,2.24674525308823,0,2.24772236328577,2.24903847089877,2.24967658368084,2.25119210153824,2.25238856300461,2.25407357956975,2.25573865511045,2.25989635870609,2.30802402119087,0,2.30888148524177,2.31244095810422,2.3130890413985,2.31327848113068,2.31386674135165,2.31276001449525,2.31314886447182,2.31373712469279,2.31257057476308,0,2.31070608897798,2.31059641334357,2.3110151748568,2.31207204915209,2.3114738184189,2.31074597102686,2.31098526332014,2.31087558768572,2.31138408380893,0,2.31183275685882,2.31294945422743,2.31340809778954,2.31373712469279,2.31517287845243,2.31725671550636,2.31653883862654,2.31739630267744,2.31765553599515,0,2.31824379621612,2.31913117180368,2.31964963843911,2.32030769224561,2.32056692556332,2.32125489090649,2.32190297420077,2.32107542168653,2.32343843308261,0,2.27481224498685,2.27429377835142,2.27351607839828,2.2719108259309,2.2712527721244,2.27189088490646,2.27133253622215,2.27086392214783,2.27160174005209,0,2.27188091439424,2.27179117978426,2.27182109132092,2.27180115029648,2.27288793612844,2.27240935154189,2.27256887973741,2.27327678610501,2.27341637327608,0,2.27343631430052,2.27333660917833,2.27368557710602,2.27406445657037,2.2744333655225,2.27530080008562,2.27620811669762,2.27579932569661,2.27660693718641,0,2.27763389994504,2.27825207170267,2.27943856265682,2.28006670492666,2.2826091855427,2.33777602965463,2.33613089513837,2.33622062974835,2.33676900792043,0,2.33969036800082,2.339879807733,2.34116600380935,2.33534322467301,2.34044812692952,2.34008918848961,2.3397801026108,2.33950092826865,2.34112612176047,0,2.33893260907212,2.33903231419432,2.33931148853647,2.33991968978188,2.3407372717839,2.33611095411393,2.33921178341427,2.33997951285519,2.34076718332056,0,2.34112612176047,2.34098653458939,2.34128564995598,2.34165455890811,2.34147508968816,2.34155485378592,2.34193373325027,2.33948098724421,2.34028859873401,0,2.33947101673199,2.28675691862612,2.28462322901109,2.28394523418015,2.28226021761501,2.28305785859259,2.28169189841848,2.28184145610178,2.28138281253967,0,2.28177166251624,2.28062505361097,2.28035584978104,2.28162210483295,2.28072475873317,2.28073472924539,2.280944110002,2.28062505361097,2.2809939625631,0,2.28031596773216,2.28203089583396,2.28093413948978,2.28100393307532,2.28159219329629,2.28108369717308,2.28080452283093,2.2803857613177,2.28148251766187,0,2.28078458180649,2.28188133815066,2.28168192790626,2.28232004068833,2.28226021761501,2.28230009966389,2.28256930349382,2.28349656113026,2.28313762269035,0,2.28276871373822,2.28333703293475,2.28369597137466,2.28514169564652,2.28520151871984,2.28544081101311,2.28568010330639,2.28553054562309,2.28568010330639,0,2.28668712504058,2.28673697760168,2.28743491345707,2.28937916333992
0,0,0,0,0,0,0,0,0,0,0,0,0,0,0,0,0,0,0,0,0,0,0,0,0,0,0,0,0,0,0,0,0,0,0,0,0,0,0,0,0,0,0,0,0,0,0,0,0,0,0,0,0,0,0,0,0,0,0,0,0,0,0,0,0,0,0,0,0,0,0,0,0,0,0,0,0,0,0,0,0,0,0,0,0,0,0,0,0,0,0,0,0,0,0,0,0,0,0,0,0,0,0,0,0,0,0,0,0,0,0,0,0,0,0,0,0,0,0,0,0,0,0,0,0,0,0,0,0,0,0,0,0,0,0,0,0,0,0,0,0,0,0,0,0,0,0,0,0,0,0,0,0,0,0,0,0,0,0,0,0,0,0,0,0,0,0,0,0,0,0,0,0,0,0,0,0,0,0,0,0,0,0,0,0,0,0,0,0,0,0,0,0,0,0,0,0,0,0,0,0,0,0,0,0,0,0,0,0,0,0,0,0,0,0,0,0,0,0,0,0,0,0,0,0,0,0,0,0,0,0,0,0,0
2.21299506922435,2.2131745384443,2.21442085247177,2.21487949603388,2.2158964882803,2.21624545620799,2.21753165228434,2.21781082662649,2.21889761245844,0,2.22025360212033,2.21948587267941,2.22078203926798,2.22077206875576,2.22177909048995,2.22227761610094,2.22354387115285,2.2232646968107,2.22458080442371,0,2.22496965440028,2.2239726031783,2.22429165956933,2.22542829796239,2.22736257733302,2.22824995292058,2.2283097759939,2.2291672400448,2.22937662080141,0,2.23020417331565,2.23106163736655,2.23119125402541,2.23167980912417,2.23258712573617,2.23294606417608,2.23301585776162,2.23368388208035,2.23460116920456,0,2.23582754220759,2.23570789606096,2.23621639218416,2.23631609730636,2.23769202799269,2.2381008189937,2.23908789970345,2.23958642531444,2.24003509836433,0,2.24080282780525,2.24124153034292,2.24189958414943,2.24344501354349,2.24333533790907,2.24438224169215,2.24484088525426,2.2455188800852,2.24663557745381,0,2.24737339535807,2.24856985682445,2.24979622982748,2.25113227846492,2.25302667578668,2.25498089618175,2.25711458579678,2.25966703692504,2.30870201602181,0,2.3091506890717,2.31168319917552,2.31180284532216,2.31297936576409,2.3124808401531,2.31189257993213,2.31121458510119,2.31070608897798,2.31024744541587,0,2.31022750439143,2.31042691463583,2.31065623641688,2.31109493895455,2.31014774029368,2.31011782875702,2.31017765183034,2.31024744541587,2.3107160594902,0,2.31125446715007,2.31184272737104,2.31284974910523,2.31355765547283,2.31455470669481,2.315152937428,2.31682798348091,2.31731653857968,2.31803441545951,0,2.31867252824157,2.31922090641366,2.31876226285155,2.31930067051141,2.32058686658776,2.3207563652955,2.32073642427106,2.32076633580772,2.32125489090649,0,2.27513130137788,2.27320699251947,2.27223985283415,2.27235949898079,2.27349613737384,2.2710035093189,2.27117300802664,2.27158179902765,2.27144221185657,0,2.27107330290444,2.27166156312541,2.27168150414985,2.27242929256633,2.27208032463864,2.27243926307855,2.27298764125064,2.27236946949301,2.27318705149503,0,2.27413425015591,2.27328675661723,2.27381519376487,2.2742339552781,2.27427383732698,2.27439348347362,2.27555006289111,2.27593891286768,2.27634770386869,0,2.27753419482284,2.27878050885032,2.27960806136455,2.28196110224842,2.28316753422701,2.3357420451618,2.33589160284509,2.33622062974835,2.33764641299577,0,2.33999945387963,2.33944110519533,2.34120588585822,2.33539307723411,2.33351862093679,2.33739715019028,2.33842411294891,2.33983992568412,2.33875313985216,0,2.33838423090003,2.33731738609252,2.33833437833893,2.3398299551719,2.33962057441528,2.33884287446214,2.33904228470654,2.33971030902526,2.3397302500497,0,2.34074724229612,2.34056777307616,2.3404381564173,2.34217302554354,2.34047803846618,2.33959066287862,2.34012907053849,2.34069738973502,2.34024871668513,0,2.34162464737145,2.34135544354152,2.28350653164248,2.2834167970325,2.28368600086244,2.28303791756815,2.28217048300503,2.28090422795312,2.28102387409976,0,2.28019632158552,2.28184145610178,2.28120334331972,2.28102387409976,2.28021626260996,2.28019632158552,2.28017638056108,2.28059514207431,2.28067490617207,0,2.28037579080548,2.2802362036344,2.28086434590424,2.2802362036344,2.28030599721994,2.28103384461198,2.2801364985122,2.28056523053765,2.28116346127084,0,2.28032593824438,2.2809939625631,2.2817517214918,2.28204086634618,2.28183148558956,2.28312765217813,2.28271886117712,2.28248953939607,2.28456340593777,0,2.28306782910481,2.28397514571681,2.28424434954674,2.2842244085223,2.28448364184002,2.2851317251343,2.28529125332982,2.28558039818419,2.28529125332982,0,2.28644783274731,2.28645780325953,2.28691644682164,2.28754458909148
2.21346368329867,2.21382262173859,2.21460032169173,2.2155973729137,2.21626539723243,2.21616569211023,2.2174618586988,2.21874805477515,2.22000433931484,0,2.22190870714881,2.22122074180565,2.21915684577616,2.22057265851136,2.22097147900015,2.22183891356327,2.2233644019329,2.22416204291048,2.22381307498278,0,2.22449106981373,2.22554794410902,2.22550806206014,2.22561773769456,2.22736257733302,2.22777136833403,2.22813030677394,2.22854906828717,2.22964582463134,0,2.23033378997451,2.23096193224435,2.23195898346633,2.23164989758751,2.23204871807631,2.23242759754066,2.23324517954268,2.23347450132373,2.23463108074122,0,2.23583751271981,2.23554836786544,2.23625627423304,2.23677474086847,2.23772193952935,2.23839993436029,2.2389084304835,2.23937704455783,2.23948672019225,0,2.24080282780525,2.24136117648956,2.24178990851501,2.24252772641927,2.24300631100582,2.24408312632555,2.24485085576648,2.245419174963,2.24623675696502,0,2.24734348382142,2.24883906065438,2.24987599392523,2.25101263231829,2.25236862198017,2.25517033591393,2.25673570633243,2.25932803950957,2.30860231089961,0,2.31013776978146,2.31065623641688,2.31197234402989,2.31166325815108,2.31180284532216,2.3110151748568,2.31083570563684,2.31041694412361,2.3100580056837,0,2.30971900826823,2.30981871339042,2.30931021726722,2.30918060060836,2.30931021726722,2.31008791722036,2.30959936212159,2.31007794670814,2.31032720951363,0,2.31031723900141,2.31105505690567,2.31199228505433,2.31295942473965,2.31402626954716,2.31454473618259,2.31570131560008,2.31654880913876,2.31693765911533,0,2.31632945786993,2.31850302953383,2.3191411423159,2.31885199746153,2.31987896022016,2.31926078846254,2.31900155514482,2.32088598195436,2.32069654222218,0,2.27513130137788,2.27250905666409,2.27171141568651,2.27182109132092,2.27148209390545,2.27092374522114,2.2717612682476,2.2711530670022,2.27079412856229,0,2.27111318495332,2.27109324392888,2.27153194646655,2.27212020668752,2.27209029515086,2.27248911563965,2.27257885024963,2.27210026566308,2.27268852588404,0,2.27380522325266,2.2735260489105,2.27369554761824,2.27369554761824,2.27484215652351,2.27542044623226,2.27602864747766,2.27668670128417,2.2770057576752,0,2.27796292684829,2.27871071526478,2.28035584978104,2.28167195739404,2.3331696530091,2.33376788374228,2.33624057077279,2.33695844765261,2.33712794636034,0,2.33840417192447,2.33804523348456,2.33561242850294,2.33750682582469,2.33338900427793,2.33758658992245,2.3373572681414,2.33759656043467,2.33827455526562,0,2.33637018743164,2.33666930279823,2.33761650145911,2.33766635402021,2.33793555785014,2.3379654693868,2.33648983357828,2.33854375909555,2.33960063339084,0,2.34028859873401,2.33901237316988,2.33956075134196,2.33906222573098,2.33998948336741,2.33921178341427,2.3390721962432,2.33896252060878,2.33925166546315,0,2.33960063339084,2.28493231488991,2.28413467391233,2.28277868425044,2.28582966098968,2.28217048300503,2.28091419846534,2.28130304844191,2.28082446385537,0,2.28011655748776,2.28034587926882,2.28025614465884,2.28009661646332,2.28065496514763,2.28035584978104,2.28088428692868,2.28116346127084,2.27985732417005,0,2.28046552541545,2.28021626260996,2.27991714724337,2.27984735365783,2.28042564336658,2.28048546643989,2.28068487668429,2.28053531900099,2.28037579080548,0,2.28111360870974,2.2811933728075,2.28165201636961,2.28111360870974,2.28144263561299,2.28141272407633,2.28218045351725,2.2820508368584,2.28208074839505,0,2.28307779961703,2.28315756371479,2.2835165021547,2.28332706242253,2.28486252130437,2.28441384825448,2.28454346491334,2.28453349440112,2.28711585706603,0,2.28640795069843,2.28673697760168,2.28677685965056,2.28726541474933
2.21306486280988,2.21372291661639,2.21395223839744,2.21497920115608,2.21482964347278,2.21562728445036,2.21733224203994,2.21851873299409,2.21895743553176,0,2.21958557780161,2.22460074544815,2.21935625602055,2.22098144951237,2.22171926741664,2.22204829431989,2.22219785200318,2.22308522759074,2.22432157110599,0,2.22441130571597,2.22452098135039,2.22517903515689,2.22765172218739,2.22672446455095,2.22760186962629,2.22785113243179,2.2289179772393,2.22922706311811,0,2.23001473358348,2.23052322970668,2.23105166685433,2.23161001553864,2.23248742061397,2.23258712573617,2.23336482568931,2.23421231922799,2.23438181793573,0,2.23515951788887,2.23517945891331,2.23540878069436,2.23722341391836,2.23752252928495,2.23799114335928,2.23849963948249,2.23931722148451,2.24003509836433,0,2.24093244446411,2.24130135341624,2.24212890593048,2.24264737256591,2.24256760846815,2.24427256605773,2.24491067883979,2.24575817237847,2.24614702235504,0,2.2479417145546,2.24851003375113,2.24956690804642,2.25185015534475,2.25318620398219,2.25416331417973,2.2570747037479,2.30709676355443,2.30737593789658,0,2.30939995187719,2.3109154697346,2.31106502741789,2.31355765547283,2.31254066322642,2.31112485049121,2.31107499793011,2.30956945058493,2.30965918519491,0,2.30919057112058,2.30974891980489,2.3084926352652,2.30830319553302,2.30832313655746,2.30870201602181,2.30898119036396,2.30896124933952,2.30973894929267,0,2.31047676719693,2.31132426073561,2.31135417227227,2.31279989654413,2.31357759649727,2.31381688879055,2.31506320281802,2.31626963479661,2.31674821938316,0,2.31770538855625,2.31751594882408,2.32028775122117,2.31804438597172,2.31824379621612,2.31858279363159,2.31964963843911,2.32048716146557,2.2752908295734,0,2.27390492837485,2.27239938102967,2.27262870281072,2.27127271314884,2.27159176953987,2.27168150414985,2.27071436446453,2.27129265417328,2.27200056054088,0,2.27087389266005,2.27118297853886,2.27234952846857,2.27195070797978,2.27184103234536,2.27231961693191,2.27224982334637,2.27292781817732,2.27279820151846,0,2.27345625532496,2.27413425015591,2.27419407322923,2.27456298218136,2.27558994493999,2.27530080008562,2.27576941415995,2.27621808720984,2.27671661282083,0,2.27803272043383,2.27941862163238,2.28108369717308,2.2825593329816,2.33332918120462,2.3338277068156,2.3355426349174,2.33717779892144,2.33686871304263,0,2.33704818226259,2.33751679633691,2.33827455526562,2.33320953505798,2.33256145176369,2.3348347285498,2.33612092462615,2.33623060026057,2.33555260542962,0,2.33634027589498,2.33585172079621,2.33629042333388,2.33699832970149,2.33983992568412,2.33645992204162,2.33643001050496,2.33819479116786,2.33823467321674,0,2.33788570528905,2.33994960131854,2.33824464372896,2.33831443731449,2.33895255009656,2.33871325780329,2.33833437833893,2.33850387704667,2.33885284497436,0,2.28515166615874,2.28389538161905,2.28471296362107,2.28305785859259,2.28230009966389,2.28129307792969,2.28327720986143,2.28092416897756,2.28123325485638,0,2.28049543695211,2.28151242919853,2.27990717673115,2.27951832675458,2.27988723570671,2.28059514207431,2.28016641004886,2.28055526002543,2.28009661646332,0,2.28005673441444,2.27951832675458,2.27950835624236,2.27999691134113,2.28040570234214,2.27987726519449,2.28002682287778,2.28004676390222,2.28042564336658,0,2.28068487668429,2.28047549592767,2.28029602670772,2.28133295997857,2.28092416897756,2.28157225227185,2.28156228175963,2.28267897912824,2.28178163302846,0,2.28218045351725,2.28344670856916,2.28278865476266,2.2834167970325,2.28413467391233,2.28393526366793,2.2844238187667,2.28475284566995,2.28449361235224,0,2.28491237386547,2.28611880584406,2.28620854045404,2.28677685965056
2.21267601283331,2.21376279866527,2.21482964347278,2.21642492542794,2.21598622289027,2.21774103304095,2.21694339206337,2.21796038430979,2.21873808426293,0,2.22102133156125,2.2198348406071,2.22020374955923,2.22097147900015,2.22173920844107,2.22192864817325,2.22271631863861,2.22355384166507,2.22403242625162,0,2.22428168905711,2.224730362107,2.22531862232797,2.22677431711205,2.22658487737988,2.22788104396845,2.22833968753056,2.22877839006822,2.2290675349226,0,2.22957603104581,2.23065284636554,2.23120122453763,2.23160004502642,2.23220824627182,2.23302582827384,2.23349444234817,2.23429208332575,2.23453137561903,0,2.23510966532777,2.23495013713226,2.23625627423304,2.23692429855177,2.23727326647946,2.23802105489594,2.23859934460469,2.23910784072789,2.24034418424315,0,2.2412315598307,2.24149079314842,2.24176996749057,2.24242802129707,2.24317580971356,2.24429250708217,2.24480100320538,2.24583793647623,2.24646607874608,0,2.24807133121346,2.24893876577658,2.25021499134071,2.251271865636,2.25375452317872,2.25457210518074,2.2570747037479,2.30674779562674,2.30771493531205,0,2.31027735695253,2.31016768131812,2.31067617744132,2.31033718002585,2.31116473254009,2.30996827107372,2.30918060060836,2.30924042368168,2.30856242885073,0,2.30955948007271,2.30865216346071,2.30817357887416,2.30815363784972,2.30877180960735,2.30833310706968,2.30867210448515,2.30908089548616,2.30953953904827,0,2.31121458510119,2.31085564666128,2.31123452612563,2.31225151837205,2.31315883498404,2.31390662340053,2.31431541440154,2.31532243613573,2.31775524111735,0,2.31701742321309,2.31776521162957,2.31710715782307,2.31754586036074,2.31915111282812,2.31851300004605,2.32046722044113,2.32098568707655,2.27560988596443,0,2.27398469247261,2.2726685848596,2.27150203492989,2.27105336188,2.27148209390545,2.27169147466207,2.27088386317227,2.27135247724659,2.27102345034334,0,2.27078415805007,2.27064457087899,2.27107330290444,2.27156185800321,2.27200056054088,2.27232958744413,2.27260876178628,2.27232958744413,2.27329672712945,0,2.27380522325266,2.27370551813046,2.2736756065938,2.27391489888707,2.27461283474246,2.27499171420681,2.27590900133102,2.27608847055098,2.27782333967722,0,2.27892009602139,2.27944853316904,2.2825094804205,2.28395520469237,2.33369809015675,2.33487461059868,2.33512387340417,2.33512387340417,2.33540304774633,0,2.33782588221573,2.3356921926007,2.33556257594184,2.33513384391639,2.33429632088993,2.33645992204162,2.33576198618624,2.33643998101718,2.33461537728096,0,2.33469514137872,2.33519366698971,2.33626051179722,2.33580186823512,2.33606110155283,2.33700830021371,2.33698835918927,2.33763644248355,2.33749685531247,0,2.33846399499779,2.33739715019028,2.33784582324017,2.33787573477683,2.33845402448557,2.3390223436821,2.33807514502122,2.34061762563726,2.34087685895497,0,2.33410688115776,2.28470299310885,2.28319744576367,2.28258924451826,2.28157225227185,2.28107372666086,2.28164204585739,2.28019632158552,2.28019632158552,0,2.27964794341343,2.27974764853563,2.27978753058451,2.27936876907128,2.28128310741747,2.28020629209774,2.28061508309875,2.2795282972668,2.27938871009572,0,2.27933885753462,2.2792790344613,2.2793787395835,2.27999691134113,2.2794285921446,2.27992711775559,2.27969779597453,2.28000688185335,2.27986729468227,0,2.28001685236557,2.28321738678811,2.28063502412319,2.28070481770873,2.28093413948978,2.28141272407633,2.28090422795312,2.28173178046736,2.28227018812723,0,2.28211065993171,2.28242971632275,2.28276871373822,2.28302794705593,2.28299803551927,2.28340682652028,2.28376576496019,2.28453349440112,2.28526134179316,0,2.28524140076872,2.28626836352735,2.28752464806704,2.28707597501715
0,0,0,0,0,0,0,0,0,0,0,0,0,0,0,0,0,0,0,0,0,0,0,0,0,0,0,0,0,0,0,0,0,0,0,0,0,0,0,0,0,0,0,0,0,0,0,0,0,0,0,0,0,0,0,0,0,0,0,0,0,0,0,0,0,0,0,0,0,0,0,0,0,0,0,0,0,0,0,0,0,0,0,0,0,0,0,0,0,0,0,0,0,0,0,0,0,0,0,0,0,0,0,0,0,0,0,0,0,0,0,0,0,0,0,0,0,0,0,0,0,0,0,0,0,0,0,0,0,0,0,0,0,0,0,0,0,0,0,0,0,0,0,0,0,0,0,0,0,0,0,0,0,0,0,0,0,0,0,0,0,0,0,0,0,0,0,0,0,0,0,0,0,0,0,0,0,0,0,0,0,0,0,0,0,0,0,0,0,0,0,0,0,0,0,0,0,0,0,0,0,0,0,0,0,0,0,0,0,0,0,0,0,0,0,0,0,0,0,0,0,0,0,0,0,0,0,0,0,0,0,0,0,0
2.21315459741986,2.21347365381089,2.21411176659296,2.21510881781494,2.2155973729137,2.21644486645238,2.21737212408882,2.21707300872223,2.21874805477515,0,2.21954569575273,2.21936622653277,2.22023366109589,2.22096150848793,2.22146003409892,2.22180900202661,2.22234740968648,2.22295561093189,2.22405236727606,0,2.22448109930151,2.22479018518032,2.22572741332898,2.22605644023223,2.22765172218739,2.22778133884625,2.22850918623829,2.22860889136049,2.22973555924132,0,2.2299748515346,2.23047337714558,2.23113143095209,2.23179945527081,2.23284635905389,2.23281644751723,2.23335485517709,2.23410264359358,2.23448152305793,0,2.23469090381454,2.23523928198663,2.23573780759762,2.23622636269638,2.23654541908742,2.23809084848148,2.23822046514034,2.23917763431343,2.23994536375435,0,2.24083273934191,2.24157055724618,2.24190955466165,2.24241805078485,2.24343504303127,2.24436230066771,2.24484088525426,2.2454690275241,2.24689481077153,0,2.24748307099249,2.24928773370427,2.25030472595068,2.25198974251582,2.25282726554228,2.25622721020922,2.25875972031304,2.30669794306564,2.30832313655746,0,2.30994833004928,2.3108656171735,2.30989847748818,2.31020756336699,2.30949965699939,2.30902107241284,2.30888148524177,2.30941989290163,2.30778472889759,0,2.3073859084088,2.30827328399636,2.30788443401979,2.30778472889759,2.30816360836194,2.30751552506766,2.30795422760533,2.30847269424076,2.30852254680186,0,2.30938998136497,2.31029729797697,2.31065623641688,2.31156355302888,2.3125805452753,2.31334827471622,2.31416585671824,2.31521276050131,2.31585087328338,0,2.31655877965098,2.31795465136175,2.31768544753181,2.31856285260715,2.31714703987195,2.31845317697274,2.32052704351445,2.32182321010301,2.32154403576086,0,2.27356593095938,2.27225979385859,2.27190085541868,2.27092374522114,2.27050498370791,2.27036539653684,2.27041524909794,2.27040527858572,2.27068445292787,0,2.27054486575679,2.2718609733698,2.27133253622215,2.27126274263662,2.2718111208087,2.2719108259309,2.27210026566308,2.27229967590747,2.27246917461521,0,2.27327678610501,2.27449318859582,2.27403454503371,2.27406445657037,2.2746327757669,2.27523100650008,2.27574947313551,2.27657702564975,2.27727496150513,0,2.27914941780245,2.28030599721994,2.28181154456512,2.33196322103051,2.33273095047143,2.33329926966796,2.33421655679217,2.33583177977177,2.33658953870048,0,2.33613089513837,2.33557254645406,2.33479484650092,2.33422652730439,2.33328929915574,2.33502416828197,2.33372800169341,2.33322947608242,2.33383767732782,0,2.33351862093679,2.33365820810787,2.33436611447547,2.33487461059868,2.33540304774633,2.33600127847951,2.33576198618624,2.33599130796729,2.33672912587155,0,2.33765638350799,2.33809508604566,2.33749685531247,2.3381648796312,2.33832440782671,2.33898246163322,2.33275089149587,2.33822470270452,2.33531331313635,0,2.28472293413329,2.28315756371479,2.28323732781255,2.28181154456512,2.28157225227185,2.28063502412319,2.28117343178306,2.27975761904785,2.28281856629932,0,2.28024617414662,2.28062505361097,2.27987726519449,2.2794285921446,2.27946847419348,2.27936876907128,2.27954823829124,2.27924912292464,2.27921921138798,0,2.27936876907128,2.27964794341343,2.27962800238899,2.27979750109673,2.27989720621893,2.27954823829124,2.27988723570671,2.27949838573014,2.27940865112016,0,2.27963797290121,2.27944853316904,2.27977756007229,2.28080452283093,2.28139278305189,2.28140275356411,2.28093413948978,2.28148251766187,2.28179160354068,0,2.28224027659057,2.28146257663743,2.28266900861602,2.28329715088587,2.28308777012925,2.28324729832477,2.28382558803351,2.28436399569338,2.28519154820762,0,2.28479272771883,2.28623845199069,2.2861885994296,2.28670706606502
2.21294521666325,2.21366309354307,2.21392232686078,2.21490940757054,2.21440091144733,2.21572698957256,2.21656451259902,2.2158466357192,2.21712286128333,0,2.2183691753108,2.21867826118961,2.21943602011831,2.22015389699813,2.22132044692784,2.22166941485554,2.22243714429646,2.2224570853209,2.22329460834736,0,2.22418198393492,2.22419195444714,2.22537844540129,2.22651508379434,2.22557785564568,2.2274024593819,2.2279608080662,2.22820010035948,2.22979538231464,0,2.22995491051016,2.23044346560892,2.23067278738998,2.23161001553864,2.23233786293068,2.23206865910074,2.23265691932171,2.23428211281353,2.23447155254571,0,2.2349202255956,2.23592724732979,2.23574777810984,2.23641580242856,2.2370937972595,2.23721344340614,2.23812076001814,2.23879875484908,2.24080282780525,0,2.24071309319528,2.24156058673396,2.2413312649529,2.24246790334595,2.24332536739685,2.2440033622278,2.24493061986423,2.2454690275241,2.24664554796603,0,2.2479915671157,2.24886897219104,2.25030472595068,2.25188006688141,2.25376449369094,2.25573865511045,2.25816148957985,2.30709676355443,2.30808384426419,0,2.30853251731408,2.30974891980489,2.30855245833851,2.30934012880388,2.30887151472955,2.30890142626621,2.3084926352652,2.30771493531205,2.30858236987517,0,2.30764514172652,2.30696714689557,2.30740584943324,2.30671788409008,2.30689735331003,2.30689735331003,2.30741581994546,2.30896124933952,2.30807387375197,0,2.30899116087618,2.30987853646374,2.31030726848919,2.31085564666128,2.31168319917552,2.31299930678853,2.31391659391275,2.31482391052474,2.31503329128136,0,2.31594060789336,2.31680804245647,2.31711712833529,2.3174262142141,2.31689777706645,2.31806432699616,2.32002851790346,2.31460455925591,2.27445330654694,0,2.27269849639626,2.27229967590747,2.27066451190343,2.27078415805007,2.27003636963359,2.27147212339323,2.27021583885354,2.26977713631587,2.26994663502361,0,2.27004634014581,2.27097359778224,2.27113312597776,2.27104339136778,2.27253896820075,2.27199059002866,2.27264864383516,2.27221991180971,2.27302752329951,0,2.27299761176285,2.27415419118035,2.2734263437883,2.27441342449806,2.27445330654694,2.27527088854896,2.27628788079538,2.27654711411309,2.27779342814056,0,2.27945850368126,2.28183148558956,2.28311768166591,2.33123537363847,2.33163419412726,2.33353856196123,2.33442593754879,2.33582180925956,2.33557254645406,0,2.33422652730439,2.33318959403354,2.3339772644989,2.33295030174026,2.33301012481358,2.33281071456919,2.3323620415193,2.33229224793376,2.33177378129833,0,2.33204298512827,2.33291041969139,2.33256145176369,2.33389750040114,2.3337778542545,2.33489455162312,2.33511390289195,2.33527343108747,2.3356921926007,0,2.33621065923613,2.33636021691942,2.33698835918927,2.33597136694285,2.33592151438175,2.33576198618624,2.33593148489397,2.33263124534923,2.33665933228601,0,2.28314759320257,2.28307779961703,2.28215054198059,2.28134293049079,2.28134293049079,2.28120334331972,2.2801863510733,2.27973767802341,2.27945850368126,0,2.28000688185335,2.27989720621893,2.27974764853563,2.27928900497352,2.2795282972668,2.27929897548574,2.27939868060794,2.2802362036344,2.2793288870224,0,2.2792790344613,2.27924912292464,2.27968782546231,2.27921921138798,2.27917932933911,2.27929897548574,2.27956817931568,2.28000688185335,2.27923915241242,0,2.27966788443787,2.2792291819002,2.28004676390222,2.28052534848877,2.28042564336658,2.28137284202745,2.28053531900099,2.28168192790626,2.28157225227185,0,2.28189130866288,2.28227018812723,2.28237986376165,2.28310771115369,2.28316753422701,2.28339685600806,2.28380564700907,2.28381561752129,2.28542086998867,0,2.28592936611188,2.2860888943074,2.28611880584406,2.28643786223509
2.2131246858832,2.21376279866527,2.21397217942188,2.21419153069072,2.21326427305428,2.21464020374061,2.2156472254748,2.21608592801247,2.21766126894319,0,2.21754162279656,2.21877796631181,2.21986475214376,2.22045301236473,2.22103130207347,2.22116091873233,2.22198847124657,2.22292569939523,2.22335443142068,0,2.22405236727606,2.22465059800924,2.22557785564568,2.22640540815992,2.22699366838089,2.22741242989412,2.22810039523728,2.22815024779838,2.22890800672708,0,2.2297255887291,2.23025402587675,2.23101178480545,2.23136075273314,2.23235780395512,2.23192907192967,2.23335485517709,2.2338633513003,2.23445161152127,0,2.23483049098562,2.2354785742799,2.23743279467498,2.23674482933181,2.23751255877273,2.23761226389493,2.2387090202391,2.23975592402218,2.24011486246209,0,2.24016471502319,2.24100223804965,2.24161043929505,2.24231834566266,2.24310601612802,2.24403327376446,2.24469132757096,2.24573823135403,2.24664554796603,0,2.24748307099249,2.24888891321548,2.25092289770831,2.25291700015226,2.25400378598421,2.25573865511045,2.25794213831102,2.30723635072551,2.30770496479984,0,2.30823340194748,2.30903104292506,2.30903104292506,2.30822343143526,2.30882166216845,2.30838295963078,2.30908089548616,2.30714661611553,2.30732608533548,0,2.30629912257685,2.30620938796687,2.30616950591799,2.3060199482347,2.30700702894445,2.30762520070208,2.3075853186532,2.30723635072551,2.30708679304221,0,2.30846272372854,2.30924042368168,2.30991841851262,2.31056650180691,2.31158349405332,2.31267027988528,2.31347789137508,2.31397641698606,2.31467435284145,0,2.31532243613573,2.31621978223551,2.31614001813775,2.31607022455221,2.31712709884751,2.31790479880065,2.31739630267744,2.27491195010905,2.27263867332294,0,2.27140232980769,2.27174132722317,2.27065454139121,2.27195070797978,2.27076421702563,2.270146045268,2.27007625168247,2.27061465934233,2.27163165158875,0,2.27035542602462,2.27165159261319,2.27155188749099,2.27116303751442,2.27182109132092,2.27227973488303,2.27209029515086,2.27240935154189,2.2727682899818,0,2.27255890922519,2.27282811305512,2.27359584249604,2.27408439759481,2.27488203857239,2.27562982698887,2.27625796925872,2.27665678974751,2.27836174733708,0,2.28052534848877,2.28161213432073,2.33116558005293,2.33099608134519,2.33174386976167,2.33234210049486,2.33402711706,2.33450570164655,2.33510393237973,0,2.33545290030742,2.33330924018018,2.33234210049486,2.33196322103051,2.33272097995921,2.3315544300295,2.3324118940804,2.3313550197851,2.33112569800405,0,2.33124534415069,2.33202304410383,2.33218257229934,2.33357844401011,2.33342888632681,2.33445584908545,2.33442593754879,2.33442593754879,2.33542298877076,0,2.33580186823512,2.33590157335731,2.33555260542962,2.33568222208848,2.33582180925956,2.3356423400396,2.33400717603556,2.33482475803758,2.28512175462208,0,2.28304788808037,2.28244965734719,2.28213060095615,2.28154234073519,2.27970776648675,2.28012652799998,2.2801863510733,2.28020629209774,2.28004676390222,0,2.27944853316904,2.2801364985122,2.2793787395835,2.27913944729023,2.27935879855906,2.27950835624236,2.27935879855906,2.27921921138798,2.27960806136455,0,2.27997697031669,2.27945850368126,2.2793787395835,2.27915938831467,2.27780339865278,2.27960806136455,2.28061508309875,2.27945850368126,2.27985732417005,0,2.27976758956007,2.28016641004886,2.2801863510733,2.28029602670772,2.28007667543888,2.28006670492666,2.28053531900099,2.28229012915167,2.28110363819752,0,2.2817517214918,2.28141272407633,2.28248953939607,2.28203089583396,2.28252942144494,2.28320741627589,2.28378570598463,2.2835165021547,2.28486252130437,0,2.28576983791637,2.28536104691536,2.28700618143162,2.28646777377175
2.21300503973657,2.2134238012498,2.21378273968971,2.21520852293713,2.21542787420597,2.21701318564891,2.21654457157458,2.21710292025889,2.21765129843097,0,2.21865832016517,2.21941607909387,2.21994451624152,2.22061254056024,2.22138027000116,2.2215497687089,2.22217791097874,2.22342422500621,2.22361366473839,0,2.22431160059377,2.22485997876586,2.22547815052348,2.22579720691452,2.22671449403873,2.22706346196643,2.22771154526071,2.22824995292058,2.22870859648269,0,2.22999479255904,2.22968570668022,2.23092205019547,2.23157013348976,2.23313550390826,2.23240765651622,2.2332052974938,2.23328506159156,2.23439178844795,0,2.23454134613125,2.2357776896465,2.23640583191634,2.23639586140412,2.2373929126261,2.23797120233484,2.23881869587352,2.23925739841119,2.24008495092543,0,2.24040400731646,2.24144094058732,2.24189958414943,2.24265734307813,2.24307610459136,2.24419280195997,2.24505026601087,2.24498047242533,2.24603734672063,0,2.2479915671157,2.24916808755763,2.25029475543846,2.25193988995472,2.25409352059419,2.256217239697,2.2594476856562,2.30729617379883,2.30797416862977,0,2.30816360836194,2.30912077753504,2.31011782875702,2.30797416862977,2.30711670457887,2.30907092497394,2.30688738279781,2.30794425709311,2.30718649816441,0,2.3064785917968,2.30614956489355,2.30581056747808,2.30579062645364,2.30570089184366,2.30626921104019,2.30670791357786,2.30675776613896,2.30707682252999,0,2.30916065958392,2.3084427827041,2.31014774029368,2.31038703258695,2.31165328763886,2.31315883498404,2.31405618108382,2.3141459156938,2.31416585671824,0,2.31454473618259,2.31502332076914,2.3156115809901,2.31647901555322,2.3165687501632,2.3175757718974,2.31463447079257,2.27381519376487,2.27393483991151,0,2.27174132722317,2.26975719529143,2.26961760812036,2.27008622219469,2.26989678246251,2.27001642860915,2.26986687092585,2.26977713631587,2.27057477729345,0,2.27112315546554,2.27086392214783,2.27089383368449,2.27135247724659,2.27145218236879,2.27244923359077,2.27219997078527,2.27236946949301,2.27250905666409,0,2.27331666815389,2.27307737586061,2.27349613737384,2.27432368988808,2.27533071162228,2.27560988596443,2.27601867696544,2.27727496150513,2.27929897548574,0,2.28069484719651,2.28206080737062,2.33005885319653,2.33202304410383,2.33161425310282,2.33196322103051,2.33290044917917,2.33381773630338,2.33526346057525,0,2.33428635037771,2.33469514137872,2.33065708392972,2.33151454798062,2.33080664161302,2.33121543261403,2.33032805702647,2.3307966711008,2.33089637622299,0,2.33086646468633,2.33143478388286,2.33191336846941,2.33258139278813,2.332212483836,2.33337903376571,2.33358841452233,2.33419661576773,2.33479484650092,0,2.33449573113433,2.33520363750193,2.33491449264756,2.33498428623309,2.33506405033085,2.33594145540619,2.33404705808444,2.33505407981863,2.28368600086244,0,2.28284847783598,2.28258924451826,2.28167195739404,2.2812432253686,2.28072475873317,2.27971773699897,2.27990717673115,2.27986729468227,2.28003679339,0,2.28009661646332,2.27910953575357,2.27921921138798,2.27956817931568,2.27969779597453,2.27934882804684,2.27978753058451,2.27886027294807,2.27971773699897,0,2.2792790344613,2.27948841521792,2.27898988960693,2.27849136399594,2.27902977165581,2.27931891651018,2.27903974216803,2.27909956524135,2.27920924087576,0,2.2795781498279,2.27923915241242,2.2793288870224,2.28072475873317,2.28026611517106,2.28050540746433,2.28108369717308,2.28060511258653,2.28122328434416,0,2.2826091855427,2.28242971632275,2.28229012915167,2.28232004068833,2.28333703293475,2.2834167970325,2.28283850732376,2.28400505725347,2.28409479186345,0,2.28443378927892,2.2868965057972,2.28624842250291,2.28725544423711
0,0,0,0,0,0,0,0,0,0,0,0,0,0,0,0,0,0,0,0,0,0,0,0,0,0,0,0,0,0,0,0,0,0,0,0,0,0,0,0,0,0,0,0,0,0,0,0,0,0,0,0,0,0,0,0,0,0,0,0,0,0,0,0,0,0,0,0,0,0,0,0,0,0,0,0,0,0,0,0,0,0,0,0,0,0,0,0,0,0,0,0,0,0,0,0,0,0,0,0,0,0,0,0,0,0,0,0,0,0,0,0,0,0,0,0,0,0,0,0,0,0,0,0,0,0,0,0,0,0,0,0,0,0,0,0,0,0,0,0,0,0,0,0,0,0,0,0,0,0,0,0,0,0,0,0,0,0,0,0,0,0,0,0,0,0,0,0,0,0,0,0,0,0,0,0,0,0,0,0,0,0,0,0,0,0,0,0,0,0,0,0,0,0,0,0,0,0,0,0,0,0,0,0,0,0,0,0,0,0,0,0,0,0,0,0,0,0,0,0,0,0,0,0,0,0,0,0,0,0,0,0,0,0
2.21207778210013,2.21296515768769,2.21426132427626,2.21533813959599,2.21711289077111,2.21646480747682,2.21697330360003,2.21717271384443,2.21798032533423,0,2.21841902787189,2.21868823170183,2.22033336621809,2.22060257004802,2.22113100719567,2.22153979819668,2.22297555195633,2.22370339934837,2.2239726031783,0,2.22471042108256,2.22458080442371,2.22508930054691,2.22600658767113,2.22707343247865,2.22714322606418,2.22753207604075,2.22823998240836,2.22874847853157,0,2.22966576565578,2.23087219763437,2.23104169634211,2.23203874756409,2.23270677188281,2.23206865910074,2.23368388208035,2.23371379361701,2.23423226025243,0,2.2347706679123,2.23543869223102,2.23579763067093,2.23706388572284,2.23747267672385,2.23786152670042,2.23803102540816,2.23843981640917,2.23925739841119,0,2.23992542272992,2.2412315598307,2.24155061622174,2.24266731359035,2.24262743154147,2.24458165193654,2.24494059037645,2.24636637362388,2.24671534155157,0,2.24781209789574,2.24881911962994,2.25121204256268,2.2521293296869,2.25466183979072,2.25691517555238,2.25886939594746,2.30608974182023,2.30671788409008,0,2.30728620328661,2.30831316604524,2.30870201602181,2.30762520070208,2.30722638021329,2.30704691099333,2.30675776613896,2.30692726484669,2.30679764818784,0,2.30632903411351,2.30554136364815,2.30605983028357,2.30536189442819,2.30598006618582,2.30581056747808,2.3059202431125,2.30650850333346,2.30696714689557,0,2.30729617379883,2.30835304809412,2.30886154421733,2.30993835953706,2.31050667873359,2.31165328763886,2.31230137093314,2.31357759649727,2.31380691827833,0,2.31441511952373,2.3148538220614,2.31595057840558,2.31558166945345,2.31650892708988,2.31395647596162,2.31491364513472,2.27394481042373,2.27290787715288,0,2.27172138619873,2.27007625168247,2.26979707734031,2.26989678246251,2.27007625168247,2.26960763760814,2.26941819787596,2.26983695938919,2.27016598629244,0,2.2700961927069,2.27054486575679,2.27105336188,2.2709536567578,2.27152197595433,2.27239938102967,2.27217005924861,2.27223985283415,2.27245920410299,0,2.2727682899818,2.27327678610501,2.27409436810703,2.27521106547564,2.275091419329,2.27606852952654,2.27724504996847,2.27775354609168,2.27904971268025,0,2.2801364985122,2.28197107276064,2.33100605185741,2.33106587493073,2.33171395822501,2.33189342744497,2.33207289666493,2.3321626312749,2.33271100944699,0,2.33276086200809,2.33096616980853,2.33080664161302,2.33089637622299,2.33032805702647,2.32897206736458,2.33035796856313,2.33036793907535,2.33152451849284,0,2.32976970834216,2.33021838139205,2.33092628775965,2.331305167224,2.33228227742154,2.3323121889582,2.33309985942356,2.33352859144901,2.33389750040114,0,2.33420658627995,2.33435614396325,2.3346851708665,2.33645992204162,2.33639012845608,2.33526346057525,2.33655962716382,2.28558039818419,2.28312765217813,0,2.28249950990828,2.28166198688182,2.28163207534517,2.28050540746433,2.27975761904785,2.27930894599796,2.2793288870224,2.27933885753462,2.27979750109673,0,2.27874062680144,2.27860103963036,2.27975761904785,2.2795282972668,2.27926906394908,2.27902977165581,2.27930894599796,2.27912947677801,2.27902977165581,0,2.27953826777902,2.2784714229715,2.27858109860592,2.2785711280937,2.278720685777,2.27910953575357,2.27960806136455,2.27888021397251,2.27873065628922,0,2.27878050885032,2.27911950626579,2.2794285921446,2.27929897548574,2.27929897548574,2.27976758956007,2.28026611517106,2.28166198688182,2.28085437539202,0,2.28076464078205,2.28135290100301,2.28247956888385,2.28253939195716,2.28212063044393,2.28244965734719,2.2828085957871,2.28347662010582,2.28406488032679,0,2.28445373030336,2.28431414313228,2.28473290464551,2.28571001484305
2.21255636668668,2.21315459741986,2.21390238583634,2.21462026271617,2.21484958449722,2.21566716649924,2.2167040997701,2.21732227152772,2.21797035482201,0,2.21876799579959,2.21885773040956,2.21953572524051,2.22029348416921,2.22104127258569,2.22151985717224,2.22196853022213,2.22273625966305,2.22285590580969,0,2.22427171854489,2.22457083391149,2.22533856335241,2.22628576201328,2.22668458250208,2.22689396325869,2.22772151577293,2.22895785928818,2.22912735799592,0,2.23049331817002,2.23061296431666,2.23146045785534,2.23183933731969,2.2330058872494,2.23191910141745,2.23257715522395,2.23366394105591,2.2340627615447,0,2.23464105125344,2.23527916403551,2.23568795503652,2.2365853011363,2.23733308955278,2.23787149721264,2.23840990487251,2.23855946255581,2.2397160419733,0,2.23984565863216,2.24110194317185,2.24168023288059,2.24241805078485,2.24274707768811,2.24438224169215,2.24468135705874,2.24485085576648,2.24586784801289,0,2.24759274662691,2.24872938501996,2.25123198358712,2.25345540781213,2.25404366803309,2.25632691533142,2.3050129265005,2.30630909308907,2.3067278546023,0,2.30710673406665,2.30752549557988,2.30789440453201,2.30761523018986,2.30624927001575,2.30574077389254,2.30593021362472,2.30544165852595,2.30698708792001,0,2.30660820845566,2.3057706854292,2.30522230725712,2.30530207135487,2.30512260213492,2.3058205379903,2.3042551675718,2.30583050850252,2.30650850333346,0,2.30711670457887,2.30757534814098,2.30879175063179,2.30974891980489,2.31040697361139,2.31135417227227,2.31251075168976,2.31357759649727,2.31382685930277,0,2.31392656442496,2.31471423489033,2.31517287845243,2.31613004762553,2.31563152201454,2.31464444130479,2.31520278998909,2.27283808356734,2.27172138619873,0,2.27124280161218,2.2700961927069,2.26971731324255,2.2692885812171,2.26910911199715,2.26925866968045,2.26922875814379,2.26987684143807,2.27061465934233,0,2.26962757863258,2.27105336188,2.27161171056431,2.27171141568651,2.27114309648998,2.27217005924861,2.27240935154189,2.27319702200725,2.27262870281072,0,2.27312722842171,2.2729677002262,2.27384510530153,2.27476239242575,2.27555006289111,2.27585914876993,2.27696587562632,2.27830192426377,2.2792291819002,0,2.28252942144494,2.33007879422097,2.33052746727086,2.33100605185741,2.33092628775965,2.33089637622299,2.33102599288185,2.33148463644396,2.33101602236963,0,2.32961018014665,2.32907177248678,2.32886239173016,2.33103596339407,2.32944068143891,2.32877265712019,2.32948056348779,2.33036793907535,2.32920138914564,0,2.32881253916906,2.329081742999,2.33021838139205,2.33162422361504,2.33088640571077,2.3321127787138,2.33307991839912,2.33305997737468,2.33352859144901,0,2.3340769696211,2.33417667474329,2.33296027225248,2.33471508240316,2.33225236588488,2.33540304774633,2.33183360437165,2.28426429057118,2.28304788808037,0,2.28327720986143,2.2808942574409,2.28097402153866,2.2808942574409,2.27986729468227,2.27939868060794,2.27968782546231,2.2792291819002,2.28196110224842,0,2.27925909343686,2.27889018448473,2.27881042038697,2.27935879855906,2.27926906394908,2.2786708332159,2.27911950626579,2.278720685777,2.27889018448473,0,2.27923915241242,2.27856115758148,2.27891012550917,2.27871071526478,2.27883036141141,2.27871071526478,2.27964794341343,2.27901980114359,2.27935879855906,0,2.27924912292464,2.27919927036355,2.2793787395835,2.2793787395835,2.27919927036355,2.27948841521792,2.2801863510733,2.28037579080548,2.28053531900099,0,2.28096405102644,2.28053531900099,2.28214057146837,2.28257927400604,2.28352647266692,2.28335697395918,2.28326723934921,2.282758743226,2.28350653164248,0,2.28396517520459,2.28445373030336,2.28488246232881,2.28602907123408
2.21206781158791,2.21265607180887,2.21377276917749,2.21416161915406,2.21531819857155,2.21556746137704,2.21613578057357,2.21697330360003,2.217561563821,0,2.21834923428636,2.21945596114275,2.2198846931682,2.22037324826697,2.220692304658,2.22185885458771,2.2216494738311,2.22275620068749,2.22231749814982,0,2.22422186598379,2.22454092237483,2.22545820949904,2.22559779667012,2.22637549662326,2.22713325555196,2.22748222347966,2.22786110294401,2.22895785928818,0,2.23005461563235,2.23039361304783,2.23094199121991,2.2321484231985,2.23272671290725,2.23197892449077,2.23337479620153,2.23365397054369,2.23428211281353,0,2.23454134613125,2.23529910505995,2.23565804349986,2.23617651013529,2.23723338443058,2.23761226389493,2.23857940358025,2.23878878433686,2.23914772277677,0,2.2399154522177,2.24058347653642,2.24140105853844,2.24243799180929,2.24303622254248,2.24448194681434,2.24452182886322,2.24581799545179,2.24645610823386,0,2.24761268765135,2.24886897219104,2.2505639592684,2.25282726554228,2.25527004103612,2.25684538196685,2.30431499064512,2.30564106877035,2.30653841487012,0,2.30643870974793,2.30830319553302,2.30701699945667,2.30750555455544,2.30704691099333,2.305670980307,2.30600000721026,2.30391617015633,2.30576071491698,0,2.30559121620925,2.30331793942314,2.30441469576731,2.30505280854938,2.30448448935285,2.30529210084265,2.30535192391597,2.3057706854292,2.30622932899131,0,2.30670791357786,2.30751552506766,2.30837298911856,2.30956945058493,2.31043688514805,2.3117230812244,2.31197234402989,2.31436526696263,2.31378697725389,0,2.31362744905837,2.31383682981499,2.3139465054494,2.31442509003595,2.31346792086286,2.31363741957059,2.31285971961745,2.31109493895455,2.27251902717631,0,2.2703953080735,2.26998651707249,2.26971731324255,2.27138238878325,2.27247914512743,2.26929855172932,2.27002639912137,2.26973725426699,2.2700961927069,0,2.2704451606346,2.2702457503902,2.27093371573336,2.27105336188,2.27227973488303,2.2719108259309,2.27334657969055,2.27348616686162,2.27231961693191,0,2.27287796561622,2.27326681559279,2.27382516427709,2.27466268730355,2.27563979750109,2.2761482936243,2.27763389994504,2.2784714229715,2.27980747160895,0,2.32844363021693,2.32920138914564,2.32967000321996,2.32938085836559,2.32997908909878,2.33026823395315,2.33044770317311,2.3305474082953,2.33027820446537,0,2.32938085836559,2.32838380714362,2.32874274558353,2.32788528153263,2.32774569436155,2.32796504563039,2.32773572384933,2.32804480972814,2.3280747212648,0,2.3282242789481,2.32815448536256,2.32904186095012,2.32961018014665,2.33103596339407,2.33101602236963,2.33225236588488,2.33250162869038,2.33255148125147,0,2.33330924018018,2.3333192106924,2.3329702427647,2.33322947608242,2.33298021327692,2.33094622878409,2.33169401720057,2.28407485083901,2.28367603035022,0,2.28238983427387,2.28117343178306,2.28068487668429,2.28027608568328,2.28029602670772,2.27990717673115,2.27911950626579,2.27982741263339,2.27976758956007,0,2.27912947677801,2.27972770751119,2.27909956524135,2.27834180631265,2.27794298582385,2.27838168836152,2.27851130502038,2.27833183580043,2.2784714229715,0,2.27838168836152,2.27896994858249,2.27860103963036,2.27840162938596,2.27950835624236,2.27923915241242,2.27832186528821,2.2786708332159,2.27934882804684,0,2.2793787395835,2.27916935882689,2.27928900497352,2.27889018448473,2.28011655748776,2.27951832675458,2.27990717673115,2.28000688185335,2.28029602670772,0,2.2808942574409,2.28035584978104,2.28103384461198,2.28151242919853,2.28294818295817,2.28196110224842,2.28254936246938,2.28303791756815,2.28318747525145,0,2.28352647266692,2.28372588291132,2.28541089947645,2.28594930713632
2.2123170743934,2.21350356534755,2.21460032169173,2.21456043964285,2.21459035117951,2.21588651776808,2.21659442413568,2.21704309718557,2.21748179972324,0,2.21882781887291,2.21872811375071,2.22005419187594,2.22000433931484,2.22131047641563,2.22118085975677,2.22211808790543,2.2239726031783,2.22323478527404,0,2.22343419551843,2.22472039159478,2.22516906464467,2.22549809154792,2.22652505430656,2.22736257733302,2.22794086704176,2.22804057216396,2.22917721055701,0,2.228768419556,2.23012440921789,2.23082234507328,2.2314405168309,2.23165986809973,2.23243756805288,2.23442169998461,2.23497007815669,2.23426217178909,0,2.23461113971678,2.2348205204734,2.23566801401208,2.23657533062408,2.23726329596724,2.23779173311489,2.23835008179919,2.23887851894684,2.23998524580323,0,2.24021456758429,2.24105209061075,2.24163038031949,2.24276701871255,2.24372418788564,2.24415291991109,2.24479103269316,2.2456684377685,2.24673528257601,0,2.24724377869922,2.25012525673073,2.25144136434374,2.25272756042009,2.25590815381819,2.25714449733344,2.30365693683861,2.30746567250656,2.30619941745465,0,2.30668797255342,2.3066780020412,2.30692726484669,2.30608974182023,2.30485339830498,2.305670980307,2.30438478423066,2.30426513808402,2.30422525603514,0,2.30539180596485,2.3049630739394,2.304354872694,2.30447451884063,2.30403581630296,2.30485339830498,2.30466395857281,2.30545162903817,2.3060199482347,0,2.30666803152898,2.30716655713997,2.30848266475298,2.3093500993161,2.31028732746475,2.31068614795354,2.31186266839548,2.3125805452753,2.31349783239952,0,2.3140960631327,2.3157611386734,2.31384680032721,2.31403624005938,2.31454473618259,2.31374709520501,2.31418579774268,2.27400463349705,2.27182109132092,0,2.27092374522114,2.27021583885354,2.2694381389004,2.26992669399917,2.26973725426699,2.26966746068146,2.26969737221811,2.26994663502361,2.26959766709592,0,2.26976716580365,2.27061465934233,2.27059471831789,2.27104339136778,2.27092374522114,2.27161171056431,2.2742838078392,2.27273837844514,2.27258882076184,0,2.27331666815389,2.27402457452149,2.27415419118035,2.27467265781577,2.27543041674448,2.27607850003876,2.27744446021287,2.27960806136455,2.28125319588082,0,2.33095619929631,2.32902191992568,2.32823424946032,2.32905183146234,2.33058729034418,2.32950050451223,2.32922133017007,2.32917147760898,2.32852339431469,0,2.32794510460595,2.32789525204485,2.32729702131166,2.32739672643386,2.32688823031065,2.32717737516502,2.32718734567724,2.3272172572139,2.32711755209171,0,2.32750640206828,2.32897206736458,2.32808469177702,2.32932103529227,2.33006882370875,2.33118552107737,2.33139490183398,2.33181366334721,2.33232215947042,0,2.33308988891134,2.33283065559363,2.33352859144901,2.3325115992026,2.3321626312749,2.33177378129833,2.33128522619956,2.28326723934921,2.28145260612521,0,2.28127313690525,2.28085437539202,2.28003679339,2.27963797290121,2.27929897548574,2.2793288870224,2.27931891651018,2.27992711775559,2.27825207170267,0,2.27887024346029,2.27915938831467,2.27855118706926,2.27806263197049,2.27854121655704,2.27875059731366,2.27827201272711,2.27891012550917,2.2785711280937,0,2.27827201272711,2.27810251401937,2.27871071526478,2.27896994858249,2.27839165887374,2.27873065628922,2.27860103963036,2.27850133450816,2.27888021397251,0,2.27888021397251,2.2785711280937,2.27970776648675,2.2804356138788,2.28061508309875,2.28020629209774,2.27988723570671,2.28035584978104,2.28026611517106,0,2.28058517156209,2.28103384461198,2.28086434590424,2.28144263561299,2.28240977529831,2.282758743226,2.28291827142152,2.28272883168934,2.28310771115369,0,2.28406488032679,2.28486252130437,2.28465314054775,2.28602907123408
0,0,0,0,0,0,0,0,0,0,0,0,0,0,0,0,0,0,0,0,0,0,0,0,0,0,0,0,0,0,0,0,0,0,0,0,0,0,0,0,0,0,0,0,0,0,0,0,0,0,0,0,0,0,0,0,0,0,0,0,0,0,0,0,0,0,0,0,0,0,0,0,0,0,0,0,0,0,0,0,0,0,0,0,0,0,0,0,0,0,0,0,0,0,0,0,0,0,0,0,0,0,0,0,0,0,0,0,0,0,0,0,0,0,0,0,0,0,0,0,0,0,0,0,0,0,0,0,0,0,0,0,0,0,0,0,0,0,0,0,0,0,0,0,0,0,0,0,0,0,0,0,0,0,0,0,0,0,0,0,0,0,0,0,0,0,0,0,0,0,0,0,0,0,0,0,0,0,0,0,0,0,0,0,0,0,0,0,0,0,0,0,0,0,0,0,0,0,0,0,0,0,0,0,0,0,0,0,0,0,0,0,0,0,0,0,0,0,0,0,0,0,0,0,0,0,0,0,0,0,0,0,0,0
2.21288539358993,2.21272586539441,2.21375282815305,2.21400209095854,2.2150390242294,2.2155973729137,2.21537802164487,2.21661436516012,2.21743194716214,0,2.21817973557862,2.21898734706842,2.22055271748692,2.22128056487897,2.22136032897672,2.22119083026899,2.22197850073435,2.22406233778828,2.22205826483211,0,2.22378316344613,2.22500953644916,2.22606641074445,2.2257872364023,2.22587697101227,2.22657490686766,2.22755201706519,2.2282599234328,2.22835962855499,0,2.23161001553864,2.23027396690119,2.2299748515346,2.23162995656308,2.23308565134716,2.23231792190624,2.23216836422294,2.23324517954268,2.23419237820355,0,2.23466099227788,2.23511963583999,2.23528913454773,2.23614659859863,2.23753249979717,2.23793132028596,2.23837999333585,2.23911781124011,2.2396661894122,0,2.23972601248552,2.24046383038978,2.24165032134393,2.24250778539483,2.24346495456793,2.24431244810661,2.24496053140089,2.24691475179597,2.24744318894361,0,2.24837044658005,2.24954696702198,2.25173050919811,2.25367475908096,2.25468178081516,2.3048633688172,2.30423522654736,2.30440472525509,2.30607977130801,0,2.30700702894445,2.30589033157584,2.30619941745465,2.30553139313593,2.30530207135487,2.30388625861967,2.30398596374187,2.3041554624496,2.30384637657079,0,2.303447556082,2.30363699581417,2.3035472612042,2.30385634708301,2.30395605220521,2.30385634708301,2.30433493166956,2.30525221879377,2.30616950591799,0,2.30591027260028,2.30729617379883,2.30808384426419,2.30906095446172,2.31017765183034,2.31152367098,2.31208201966431,2.31288963115411,2.31357759649727,0,2.31405618108382,2.31354768496061,2.31387671186387,2.31378697725389,2.31389665288831,2.31529252459907,2.31668839630984,2.27289790664066,2.27160174005209,0,2.27007625168247,2.26971731324255,2.26922875814379,2.26840120562955,2.27046510165904,2.26932846326598,2.26959766709592,2.26979707734031,2.27023577987798,0,2.26996657604805,2.2703454555124,2.27131259519772,2.27048504268348,2.2709536567578,2.2721600887364,2.27238941051745,2.27290787715288,2.27287796561622,0,2.27319702200725,2.27354598993494,2.27415419118035,2.27513130137788,2.2752409770123,2.27661690769863,2.27818227811713,2.2786209806548,2.32683837774955,0,2.3271674046528,2.32957029809777,2.32825419048476,2.32869289302243,2.32905183146234,2.32858321738801,2.32852339431469,2.32773572384933,2.32752634309272,0,2.32732693284832,2.32701784696951,2.3264594982852,2.3259011496009,2.32605070728419,2.32552227013654,2.32624014701637,2.32642958674854,2.3271674046528,0,2.32683837774955,2.32775566487377,2.32790522255707,2.32828410202142,2.32904186095012,2.33093625827187,2.33106587493073,2.3314048723462,2.33257142227591,0,2.3322623363971,2.33190339795719,2.33139490183398,2.33163419412726,2.33203301461605,2.33214269025046,2.2844736713278,2.2825593329816,2.28192122019954,0,2.28133295997857,2.27963797290121,2.2803359087566,2.27983738314561,2.27901980114359,2.27880044987475,2.27912947677801,2.27889018448473,2.27853124604482,0,2.27854121655704,2.27863095116702,2.27911950626579,2.2786708332159,2.27838168836152,2.27809254350715,2.27827201272711,2.27880044987475,2.27924912292464,0,2.27784328070166,2.27824210119045,2.27783331018944,2.27838168836152,2.27814239606825,2.27876056782588,2.27855118706926,2.27811248453159,2.27905968319247,0,2.27856115758148,2.27815236658047,2.27907962421691,2.27883036141141,2.27916935882689,2.2792790344613,2.27966788443787,2.28003679339,2.28117343178306,0,2.28058517156209,2.28090422795312,2.28132298946635,2.2809939625631,2.28140275356411,2.28216051249281,2.28263909707936,2.2825094804205,2.28391532264349,0,2.28379567649685,2.28524140076872,2.28516163667096,2.28551060459865
2.21233701541784,2.21270592436997,2.21375282815305,2.21486952552166,2.21809000096864,2.21674398181898,2.21603607545137,2.21720262538108,2.21661436516012,0,2.21801023687089,2.21941607909387,2.22132044692784,2.22058262902358,2.22047295338917,2.22111106617123,2.22184888407549,2.22410221983716,2.22139024051338,0,2.22272628915083,2.22432157110599,2.22531862232797,2.22597667613447,2.22691390428313,2.22693384530757,2.22759189911407,2.22778133884625,2.22783119140735,0,2.22935667977697,2.22924700414255,2.23031384895007,2.23187921936857,2.23280647700501,2.2332551500549,2.23356423593371,2.23345456029929,2.23429208332575,0,2.23468093330232,2.23587739476869,2.23594718835423,2.23758235235827,2.23732311904056,2.23789143823708,2.23842984589695,2.23861928562913,2.24002512785211,0,2.24033421373092,2.24124153034292,2.24195940722275,2.2423881392482,2.24326554432353,2.24432241861883,2.24495056088867,2.24545905701188,2.24731357228476,0,2.24845021067781,2.25024490287737,2.25148124639262,2.25269764888343,2.25402372700865,2.30403581630296,2.30482348676833,2.30515251367158,2.30548154057483,0,2.30664809050454,2.30621935847909,2.30518242520824,2.30493316240274,2.30381646503413,2.30364696632639,2.30341764454534,2.30281941381215,2.30277953176327,0,2.30313847020319,2.30311852917875,2.30360708427751,2.30310855866653,2.30343758556978,2.30325811634982,2.30395605220521,2.30444460730397,2.3051126316227,0,2.30616950591799,2.30707682252999,2.30793428658089,2.30889145575399,2.30972897878045,2.31078585307574,2.31052661975803,2.3109154697346,2.31155358251666,0,2.31155358251666,2.31326851061846,2.3134380093262,2.31326851061846,2.31380691827833,2.31476408745142,2.31552184638013,2.27091377470893,2.27128268366106,0,2.27077418753785,2.26979707734031,2.26934840429042,2.2696375491448,2.26901937738717,2.27036539653684,2.27017595680466,2.26945807992484,2.2693882863393,0,2.27085395163561,2.27032551448796,2.27091377470893,2.27089383368449,2.27126274263662,2.27231961693191,2.27168150414985,2.27235949898079,2.27254893871297,0,2.27429377835142,2.27406445657037,2.2743835129614,2.27452310013248,2.27649726155199,2.27775354609168,2.27880044987475,2.28041567285436,2.3223715882751,0,2.33217260178712,2.32773572384933,2.32864304046133,2.32886239173016,2.32933100580449,2.32892221480348,2.32867295199799,2.32766593026379,2.32676858416401,0,2.32598091369865,2.32636976367522,2.32498386247668,2.32452521891457,2.3247944227445,2.32480439325672,2.32514339067219,2.32541259450213,2.32592109062533,0,2.32627005855303,2.32708764055505,2.3273169623361,2.32808469177702,2.32924127119451,2.32946062246335,2.32876268660797,2.33061720188084,2.33199313256717,0,2.33095619929631,2.33169401720057,2.33102599288185,2.33063714290528,2.33125531466291,2.28477278669439,2.28384552905795,2.28271886117712,2.2820009842973,0,2.28293821244595,2.28046552541545,2.28015643953664,2.27995702929225,2.27896994858249,2.27895997807027,2.2786708332159,2.27915938831467,2.27868080372812,0,2.27895997807027,2.27901980114359,2.2793288870224,2.27876056782588,2.27843154092262,2.27830192426377,2.27865089219146,2.27868080372812,2.27918929985132,0,2.2785711280937,2.27821218965379,2.27810251401937,2.27826204221489,2.27784328070166,2.27824210119045,2.27811248453159,2.27798286787273,2.27836174733708,0,2.27866086270368,2.27958812034012,2.27885030243585,2.27865089219146,2.27876056782588,2.28012652799998,2.27975761904785,2.27938871009572,2.28047549592767,0,2.27976758956007,2.2801863510733,2.28064499463541,2.28136287151523,2.28187136763844,2.28123325485638,2.28248953939607,2.28272883168934,2.28215054198059,0,2.2834666495936,2.28420446749786,2.28433408415672,2.28576983791637
2.21244669105226,2.21368303456751,2.21338391920092,2.21444079349621,2.21528828703489,2.21621554467133,2.2156970780359,2.21601613442693,2.21817973557862,0,2.21769118047985,2.21991460470486,2.21971519446046,2.21980492907044,2.22092162643905,2.22153979819668,2.22216794046652,2.22395266215386,2.22379313395835,0,2.22517903515689,2.22404239676384,2.22621596842775,2.22622593893997,2.22621596842775,2.22736257733302,2.227452311943,2.22759189911407,2.22819012984726,0,2.22841945162831,2.22919715158145,2.23096193224435,2.23088216814659,2.23157013348976,2.23211851166184,2.23289621161498,2.23347450132373,2.23435190639907,0,2.2345712576679,2.23551845632878,2.23556830888988,2.23604689347643,2.23683456394179,2.23783161516377,2.23827031770143,2.2389582830446,2.2390579881668,0,2.24074300473193,2.24108200214741,2.24140105853844,2.24240808027263,2.24297639946916,2.24428253656995,2.24504029549865,2.24582796596401,2.24731357228476,0,2.24852000426335,2.25015516826739,2.25176042073477,2.25335570268993,2.25513045386505,2.3034974086431,2.3042053150107,2.3042551675718,2.30527215981821,0,2.30490325086608,2.30520236623268,2.30419534449848,2.3042551675718,2.3032979983987,2.30318832276428,2.30327805737426,2.3026897971533,2.30192206771238,0,2.30233085871339,2.30195197924903,2.30225109461563,2.3025900920311,2.30251032793334,2.30318832276428,2.30364696632639,2.30388625861967,2.30624927001575,0,2.3060199482347,2.30689735331003,2.30820349041082,2.30838295963078,2.30918060060836,2.31103511588123,2.31058644283135,2.31073600051464,2.31124449663785,0,2.31152367098,2.31173305173662,2.31284974910523,2.31317877600848,2.31471423489033,2.31470426437811,2.27213017719974,2.27064457087899,2.27052492473235,0,2.26988681195029,2.26931849275376,2.26912905302159,2.26891967226497,2.26924869916823,2.26909914148493,2.26915896455825,2.26955778504704,2.26986687092585,0,2.27004634014581,2.27025572090242,2.27015601578022,2.27087389266005,2.27147212339323,2.27159176953987,2.27177123875982,2.27235949898079,2.27267855537182,0,2.27317708098281,2.27368557710602,2.27439348347362,2.27515124240232,2.27637761540535,2.27716528587071,2.27879047936253,2.28095408051422,2.32328887539932,0,2.33093625827187,2.32944068143891,2.32889230326682,2.32948056348779,2.32909171351122,2.32887236224238,2.32649938033408,2.32729702131166,2.32525306630661,0,2.32551229962432,2.32527300733105,2.32491406889114,2.32437566123127,2.32480439325672,2.324136368938,2.32438563174349,2.32471465864674,2.32698793543285,0,2.32566185730762,2.32595100216199,2.32663896750516,2.32764598923935,2.32781548794709,2.3291315955601,2.33032805702647,2.33019844036761,2.33068699546638,0,2.33070693649082,2.33060723136862,2.33051749675864,2.33122540312625,2.33274092098365,2.28438393671782,2.28312765217813,2.2825593329816,2.28139278305189,0,2.28040570234214,2.28102387409976,2.2792291819002,2.28026611517106,2.27917932933911,2.2784714229715,2.27889018448473,2.27920924087576,2.27885030243585,0,2.27782333967722,2.27795295633607,2.27951832675458,2.27795295633607,2.27814239606825,2.27765384096948,2.27734475509067,2.27802274992161,2.27845148194706,0,2.2786209806548,2.27855118706926,2.27745443072509,2.27793301531164,2.27770369353058,2.27779342814056,2.27869077424034,2.27848139348372,2.27843154092262,0,2.27836174733708,2.27836174733708,2.27840162938596,2.27954823829124,2.27915938831467,2.27880044987475,2.27946847419348,2.2801863510733,2.27967785495009,0,2.28017638056108,2.27985732417005,2.27973767802341,2.28076464078205,2.28069484719651,2.28203089583396,2.28271886117712,2.2841745559612,2.28425432005896,0,2.28382558803351,2.2836162072769,2.28475284566995,2.28624842250291
2.21234698593006,2.21306486280988,2.21392232686078,2.21515867037603,2.21449064605731,2.21480970244834,2.21606598698803,2.21674398181898,2.21830935223748,0,2.21875802528737,2.21920669833726,2.21942604960609,2.22015389699813,2.22080198029242,2.22158965075778,2.22232746866204,2.22193861868547,2.22324475578626,0,2.2246805095459,2.22438139417931,2.22453095186261,2.22572741332898,2.22643531969658,2.22571744281676,2.22781125038291,2.22755201706519,2.2280605131884,0,2.22923703363033,2.22945638489917,2.2304334950967,2.23091207968325,2.23157013348976,2.23195898346633,2.23288624110277,2.23331497312821,2.23394311539806,0,2.23443167049683,2.23528913454773,2.23571786657318,2.23610671654975,2.23698412162509,2.23764217543159,2.23813073053036,2.2390579881668,2.23993539324213,0,2.23984565863216,2.2406233585853,2.24141102905066,2.24249781488261,2.24298636998138,2.24392359813004,2.24508017754753,2.24609716979395,2.2473335133092,0,2.24862967989776,2.25037451953622,2.25238856300461,2.25353517190989,2.25570874357379,2.30338773300868,2.30363699581417,2.30469387010947,2.30509269059826,0,2.30460413549949,2.30386631759523,2.3041056098885,2.30338773300868,2.30277953176327,2.30277953176327,2.30341764454534,2.30300885354433,2.30174259849242,0,2.30156312927246,2.30156312927246,2.30197192027347,2.30177251002908,2.30220124205453,2.30269976766552,2.30332790993536,2.30383640605857,2.30443463679175,0,2.30525221879377,2.30635894565017,2.30873192755847,2.30702696996889,2.30794425709311,2.30850260577742,2.30960933263381,2.31095535178348,2.3117729337855,0,2.31202219659099,2.3123811350309,2.31273010295859,2.31361747854615,2.31408609262048,2.31462450028035,2.27325684508057,2.27073430548897,2.26976716580365,0,2.27025572090242,2.26930852224154,2.26903931841161,2.26923872865601,2.26977713631587,2.26949796197372,2.2696874017059,2.26965749016924,2.26931849275376,0,2.26996657604805,2.270146045268,2.27002639912137,2.27067448241565,2.27184103234536,2.27228970539525,2.27232958744413,2.27220994129749,2.27263867332294,0,2.27263867332294,2.27301755278729,2.27451312962026,2.27630782181981,2.2760984410632,2.2779130742872,2.28009661646332,2.33164416463948,2.3305474082953,0,2.33024829292871,2.32958026860999,2.33000900063544,2.32923130068229,2.32885242121794,2.33067702495416,2.32678852518845,2.3255521816732,2.32677855467623,0,2.32399678176692,2.32402669330358,2.32406657535246,2.32351819718037,2.32369766640033,2.32276043825167,2.32382728305919,2.32399678176692,2.32426598559685,0,2.32473459967118,2.32536274194103,2.32596097267421,2.32685831877399,2.3283239840703,2.32834392509474,2.32932103529227,2.32990929551324,2.32943071092669,0,2.32967000321996,2.33053743778308,2.32952044553667,2.32904186095012,2.32839377765583,2.28268894964046,2.28245962785941,2.28138281253967,2.2810438151242,0,2.28087431641646,2.27972770751119,2.27948841521792,2.28014646902442,2.27912947677801,2.27926906394908,2.27875059731366,2.27851130502038,2.2783717178493,0,2.27802274992161,2.27888021397251,2.27912947677801,2.27733478457845,2.27810251401937,2.27773360506724,2.27835177682487,2.27750428328619,2.27799283838495,0,2.27816233709269,2.27729490252957,2.2777136640428,2.27726499099291,2.27793301531164,2.27792304479942,2.27856115758148,2.27757407687172,2.27827201272711,0,2.27815236658047,2.27821218965379,2.27858109860592,2.27875059731366,2.27966788443787,2.27976758956007,2.28027608568328,2.27990717673115,2.2811933728075,0,2.27995702929225,2.27989720621893,2.28044558439101,2.28216051249281,2.28088428692868,2.28151242919853,2.28253939195716,2.28229012915167,2.28323732781255,0,2.28288835988486,2.28408482135123,2.28445373030336,2.28506193154876
0,0,0,0,0,0,0,0,0,0,0,0,0,0,0,0,0,0,0,0,0,0,0,0,0,0,0,0,0,0,0,0,0,0,0,0,0,0,0,0,0,0,0,0,0,0,0,0,0,0,0,0,0,0,0,0,0,0,0,0,0,0,0,0,0,0,0,0,0,0,0,0,0,0,0,0,0,0,0,0,0,0,0,0,0,0,0,0,0,0,0,0,0,0,0,0,0,0,0,0,0,0,0,0,0,0,0,0,0,0,0,0,0,0,0,0,0,0,0,0,0,0,0,0,0,0,0,0,0,0,0,0,0,0,0,0,0,0,0,0,0,0,0,0,0,0,0,0,0,0,0,0,0,0,0,0,0,0,0,0,0,0,0,0,0,0,0,0,0,0,0,0,0,0,0,0,0,0,0,0,0,0,0,0,0,0,0,0,0,0,0,0,0,0,0,0,0,0,0,0,0,0,0,0,0,0,0,0,0,0,0,0,0,0,0,0,0,0,0,0,0,0,0,0,0,0,0,0,0,0,0,0,0,0
2.2123669269545,2.21224728080786,2.21343377176202,2.21399212044632,2.21487949603388,2.21454049861841,2.21644486645238,2.21678386386785,2.21722256640552,0,2.2183193227497,2.22019377904701,2.22009407392481,2.21981489958266,2.22070227517022,2.22105124309791,2.22150988666002,2.22289578785857,2.22413213137382,0,2.22460074544815,2.22420192495936,2.22496965440028,2.22542829796239,2.22575732486564,2.22675437608761,2.22733266579636,2.22763178116295,2.2282599234328,0,2.22946635541139,2.22968570668022,2.23020417331565,2.2306329053411,2.23125107709872,2.2315900745142,2.23260706676061,2.2330557398105,2.23398299744694,0,2.23437184742351,2.23499001918113,2.23525922301107,2.23764217543159,2.23710376777172,2.23720347289392,2.23788146772486,2.23911781124011,2.23947674968003,0,2.24012483297431,2.24058347653642,2.24135120597734,2.24169020339281,2.24322566227465,2.24366436481232,2.24494059037645,2.24611711081839,2.24782206840796,0,2.24848012221447,2.24959681958308,2.25189003739363,2.25410349110641,2.25634685635586,2.30337776249646,2.3026897971533,2.30337776249646,2.30475369318279,0,2.30540177647707,2.30479357523167,2.30323817532538,2.30332790993536,2.30336779198424,2.30266985612886,2.30231091768895,2.30155315876024,2.30091504597818,0,2.30133380749141,2.30132383697919,2.30101475110038,2.30175256900464,2.30182236259018,2.30250035742112,2.30308861764209,2.30365693683861,2.30448448935285,0,2.30552142262371,2.30617947643021,2.30750555455544,2.30686744177338,2.30791434555645,2.30842284167966,2.31039700309917,2.31097529280792,2.31173305173662,0,2.31227145939648,2.31203216710321,2.31354768496061,2.31461452976813,2.31123452612563,2.31467435284145,2.27141230031991,2.27015601578022,2.26997654656027,0,2.26966746068146,2.26904928892383,2.26937831582708,2.26966746068146,2.26908917097271,2.26989678246251,2.26912905302159,2.26946805043706,2.26961760812036,0,2.26941819787596,2.26981701836475,2.2703454555124,2.27117300802664,2.27204044258976,2.27238941051745,2.27185100285758,2.27223985283415,2.27355596044716,0,2.27346622583718,2.27541047572004,2.27464274627912,2.27569962057441,2.27669667179639,2.27808257299493,2.2802362036344,2.32493400991558,2.3198989012446,0,2.33110575697961,2.32153406524864,2.32974976731772,2.32937088785337,2.32948056348779,2.32987938397658,2.32526303681883,2.32594103164977,2.32483430479338,0,2.32438563174349,2.32361790230257,2.3230794946427,2.32293990747163,2.32305955361826,2.3230296420816,2.3231791997649,2.32297978952051,2.32402669330358,0,2.32415630996244,2.32471465864674,2.32488415735448,2.32686828928621,2.32763601872713,2.32845360072915,2.32907177248678,2.32945065195113,2.33007879422097,0,2.33009873524541,2.32947059297557,2.33085649417412,2.33056734931974,2.33051749675864,2.28431414313228,2.28135290100301,2.28267897912824,2.28075467026983,0,2.28090422795312,2.27954823829124,2.2795781498279,2.27868080372812,2.27913944729023,2.27810251401937,2.27907962421691,2.2786209806548,2.27859106911814,0,2.27806263197049,2.27818227811713,2.27818227811713,2.2778632217261,2.27732481406623,2.27765384096948,2.277813369165,2.27742451918843,2.27688611152856,0,2.27749431277397,2.27838168836152,2.27845148194706,2.27850133450816,2.27718522689515,2.27806263197049,2.27773360506724,2.27841159989818,2.27868080372812,0,2.27859106911814,2.2778632217261,2.27834180631265,2.277813369165,2.2786209806548,2.27833183580043,2.27915938831467,2.27995702929225,2.2801364985122,0,2.28294818295817,2.28022623312218,2.28088428692868,2.28101390358754,2.2817018689307,2.28312765217813,2.28288835988486,2.28272883168934,2.28307779961703,0,2.28349656113026,2.28405490981457,2.28455343542556,2.2851317251343
2.21198804749015,2.21289536410215,2.21374285764083,2.21387247429969,2.21496923064386,2.21507890627828,2.21637507286684,2.21638504337906,2.21730233050328,0,2.21805011891976,2.21908705219062,2.21962545985049,2.2205925995358,2.22159962127,2.22151985717224,2.22170929690442,2.22295561093189,2.22345413654287,0,2.22426174803267,2.22445118776485,2.22529868130353,2.22518900566911,2.22628576201328,2.22767166321183,2.2273027542597,2.22759189911407,2.22868865545825,0,2.22892794775152,2.22971561821688,2.23051325919446,2.23065284636554,2.23125107709872,2.23177951424637,2.23280647700501,2.23291615263942,2.23416246666689,0,2.23435190639907,2.23511963583999,2.23570789606096,2.23671491779515,2.23668500625849,2.23730317801612,2.23835008179919,2.2389084304835,2.23937704455783,0,2.24000518682767,2.24116176624517,2.2414808226362,2.24200925978384,2.2428966353714,2.24418283144775,2.2453194698408,2.24602737620841,2.24766254021245,0,2.24877923758106,2.25093286822053,2.25220909378466,2.25490113208399,2.30196194976125,2.30145345363805,2.30266985612886,2.30318832276428,2.30412555091294,0,2.30470384062169,2.30377658298525,2.30281941381215,2.30245050486002,2.30267982664108,2.30200183181013,2.3010745741737,2.30069569470934,2.30089510495374,0,2.30066578317269,2.30067575368491,2.3009748690515,2.30090507546596,2.30171268695576,2.30224112410341,2.30301882405655,2.30350737915532,2.30428507910846,0,2.30438478423066,2.30542171750151,2.30668797255342,2.3075354660921,2.30822343143526,2.30931021726722,2.31029729797697,2.31199228505433,2.31126443766229,0,2.31227145939648,2.31131429022339,2.31453476567037,2.31704733474975,2.31240107605534,2.31393653493718,2.27148209390545,2.26983695938919,2.27013607475578,0,2.26941819787596,2.2687800850939,2.26886981970388,2.26870032099614,2.2693384337782,2.26922875814379,2.26922875814379,2.26911908250937,2.26942816838818,0,2.26924869916823,2.2702956029513,2.27090380419671,2.27141230031991,2.27116303751442,2.27154191697877,2.27202050156532,2.27242929256633,2.27240935154189,0,2.27343631430052,2.27432368988808,2.27469259884021,2.27582923723327,2.2775641063595,2.27923915241242,2.32401672279136,2.32457507147567,2.3189417320715,0,2.31997866534236,2.32816445587478,2.33168404668836,2.32088598195436,2.33133507876066,2.33169401720057,2.32493400991558,2.32390704715694,2.3231791997649,0,2.32406657535246,2.32225194212846,2.32236161776288,2.32276043825167,2.32246132288508,2.32188303317633,2.32218214854293,2.32285017286165,2.32325896386266,0,2.32399678176692,2.32409648688912,2.32528297784327,2.32616038291861,2.32750640206828,2.32759613667825,2.32867295199799,2.32916150709676,2.32836386611918,0,2.3290318904379,2.32927118273117,2.32922133017007,2.32924127119451,2.33147466593174,2.2833170919103,2.28098399205088,2.28317750473923,2.27961803187678,0,2.28009661646332,2.28055526002543,2.27988723570671,2.27961803187678,2.27884033192363,2.27886027294807,2.27926906394908,2.27850133450816,2.27848139348372,0,2.27825207170267,2.27768375250614,2.27814239606825,2.27747437174953,2.2779130742872,2.27774357557946,2.27735472560289,2.27825207170267,2.27716528587071,0,2.27747437174953,2.27788316275054,2.27757407687172,2.27806263197049,2.27746440123731,2.27720516791959,2.27724504996847,2.27880044987475,2.27895997807027,0,2.27832186528821,2.27758404738394,2.27780339865278,2.27898988960693,2.27899986011915,2.2793288870224,2.27896994858249,2.27925909343686,2.27994705878003,0,2.28037579080548,2.28034587926882,2.28003679339,2.28070481770873,2.28079455231871,2.28100393307532,2.28191124968732,2.28283850732376,2.28293821244595,0,2.28300800603149,2.28449361235224,2.28390535213127,2.28714576860269
2.21173878468466,2.21224728080786,2.21356338842087,2.21415164864184,2.2148894665461,2.21643489594016,2.21588651776808,2.21642492542794,2.21764132791875,0,2.21812988301752,2.21899731758064,2.21946593165497,2.22019377904701,2.22076209824354,2.22246705583312,2.22178906100217,2.22243714429646,2.22335443142068,0,2.22416204291048,2.22446115827707,2.22464062749702,2.22601655818335,2.22633561457438,2.22790098499289,2.22756198757741,2.22746228245522,2.22914729902036,0,2.22864877340937,2.22939656182585,2.23012440921789,2.23231792190624,2.23199886551521,2.23162995656308,2.23263697829727,2.23311556288382,2.2339132038614,0,2.23438181793573,2.23500996020557,2.23575774862206,2.23693426906399,2.23768205748047,2.23757238184605,2.23818058309146,2.23847969845805,2.23930725097229,0,2.24053362397532,2.24108200214741,2.24151073417286,2.24187964312499,2.24352477764125,2.24448194681434,2.24483091474204,2.24655581335605,2.24812118377456,0,2.2486994734833,2.25076336951279,2.2529369411767,2.25499086669397,2.25632691533142,2.30094495751484,2.30237074076226,2.30353729069198,2.3040557573274,0,2.30322820481316,2.30314844071541,2.30340767403312,2.30220124205453,2.30111445622257,2.30112442673479,2.30071563573378,2.30045640241607,2.30051622548939,0,2.30031681524499,2.30047634344051,2.30093498700262,2.30140360107695,2.30157309978468,2.30136371902807,2.30270973817774,2.30321823430094,2.30412555091294,0,2.30463404703615,2.30538183545263,2.30679764818784,2.30752549557988,2.30872195704625,2.31007794670814,2.31019759285477,2.31064626590466,2.31154361200444,0,2.30965918519491,2.30947971597495,2.3099583005615,2.30846272372854,2.30590030208806,2.30717652765219,2.27059471831789,2.27064457087899,2.26961760812036,0,2.26901937738717,2.26892964277719,2.2696874017059,2.26875017355724,2.26880999663056,2.26909914148493,2.26914899404603,2.26984692990141,2.26983695938919,0,2.26967743119368,2.2700961927069,2.27010616321912,2.27071436446453,2.27142227083213,2.27156185800321,2.27230964641969,2.27210026566308,2.27273837844514,0,2.2735260489105,2.27487206806017,2.27464274627912,2.27638758591757,2.27765384096948,2.32454515993901,2.32464486506121,2.32497389196446,2.32446539584125,0,2.3282242789481,2.32591112011312,2.32547241757545,2.32709761106727,2.32678852518845,2.32402669330358,2.3240865163769,2.3224712933973,2.3230794946427,0,2.32248126390952,2.32150415371198,2.32209241393295,2.32128480244315,2.32162379985862,2.32175341651748,2.32210238444517,2.32200267932297,2.3225211459584,0,2.32334869847264,2.32376745998587,2.32485424581782,2.32623017650415,2.32671873160292,2.32750640206828,2.32809466228924,2.3279750161426,2.32768587128823,0,2.3283738366314,2.32850345329025,2.32866298148577,2.33213271973824,2.28434405466894,2.28319744576367,2.28198104327286,2.28152239971075,2.28024617414662,0,2.27946847419348,2.27939868060794,2.2786708332159,2.27896994858249,2.27903974216803,2.27809254350715,2.27799283838495,2.27823213067823,2.27841159989818,0,2.27811248453159,2.27818227811713,2.27736469611511,2.27778345762834,2.2776139589206,2.27767378199392,2.2771054627974,2.2778632217261,2.27711543330962,0,2.27732481406623,2.27778345762834,2.27741454867621,2.2776139589206,2.27948841521792,2.27775354609168,2.27757407687172,2.27725502048069,2.27923915241242,0,2.27940865112016,2.27823213067823,2.27801277940939,2.27838168836152,2.27851130502038,2.27858109860592,2.27849136399594,2.27882039089919,2.27998694082891,0,2.28054528951321,2.27995702929225,2.28002682287778,2.28010658697554,2.27995702929225,2.28046552541545,2.28218045351725,2.28204086634618,2.2825593329816,0,2.28310771115369,2.28482263925549,2.28534110589092,2.28340682652028
2.21194816544127,2.21298509871213,2.21369300507973,2.21295518717547,2.21465017425283,2.21490940757054,2.21654457157458,2.2174120061377,2.21711289077111,0,2.21770115099207,2.21872811375071,2.21937619704499,2.22002428033928,2.22056268799914,2.22098144951237,2.2223573801987,2.22332451988402,2.22346410705509,0,2.22318493271294,2.22414210188604,2.22415207239826,2.22631567354994,2.22688399274647,2.22608635176889,2.22729278374748,2.22879833109266,2.22863880289715,0,2.22882824262932,2.2288182721171,2.22989508743684,2.23085225660993,2.23156016297754,2.23193904244189,2.23226806934514,2.23323520903046,2.23432199486241,0,2.23434193588685,2.23478063842452,2.23516948840109,2.23641580242856,2.23791137926152,2.23740288313832,2.23792134977374,2.23852955101915,2.23965621889998,0,2.24056353551198,2.24114182522073,2.24160046878283,2.2422385815649,2.24285675332252,2.24394353915448,2.24503032498643,2.24683498769821,2.24822088889675,0,2.25042437209732,2.25090295668387,2.25304661681112,2.25496095515731,2.3017326279802,2.30109451519814,2.30205168437123,2.30197192027347,2.30333788044758,0,2.30314844071541,2.30265988561664,2.30214141898121,2.30270973817774,2.30132383697919,2.3008253113682,2.30008749346394,2.30005758192728,2.30081534085598,0,2.2999678473173,2.3000176998784,2.30019716909836,2.30061593061159,2.30088513444152,2.3009748690515,2.3024405343478,2.30317835225206,2.30357717274086,0,2.30404578681518,2.30468389959725,2.30626921104019,2.30706685201777,2.30773487633649,2.30899116087618,2.30977883134154,2.31030726848919,2.31102514536901,0,2.31200225556655,2.31065623641688,2.31035712105029,2.30579062645364,2.30519239572046,2.30620938796687,2.27134250673437,2.270146045268,2.26836132358067,0,2.26934840429042,2.26955778504704,2.26907920046049,2.26885984919165,2.26898946585051,2.26922875814379,2.26957772607148,2.26946805043706,2.26937831582708,0,2.26994663502361,2.26979707734031,2.27027566192686,2.27052492473235,2.27093371573336,2.27156185800321,2.27204044258976,2.27242929256633,2.27361578352048,0,2.27382516427709,2.27444333603472,2.27607850003876,2.27608847055098,2.27865089219146,2.27974764853563,2.32200267932297,2.32336863949708,2.32533283040437,0,2.32579147396648,2.32558209320986,2.3255521816732,2.32340852154596,2.32488415735448,2.32439560225571,2.32349825615593,2.32412639842578,2.32202262034741,0,2.32177335754192,2.3207065127344,2.32079624734438,2.32064668966108,2.32069654222218,2.32160385883418,2.32125489090649,2.321414419102,2.32211235495739,0,2.32285017286165,2.32361790230257,2.32465483557342,2.32543253552657,2.32624014701637,2.32602079574753,2.32737678540942,2.3273169623361,2.32745654950718,0,2.32799495716704,2.32682840723733,2.3281245738259,2.32784539948375,2.28337691498362,2.28235992273721,2.28226021761501,2.28118340229528,2.28025614465884,0,2.28015643953664,2.27923915241242,2.27912947677801,2.27884033192363,2.27894003704583,2.27827201272711,2.27738463713955,2.27803272043383,2.27805266145827,0,2.27796292684829,2.2777635166039,2.27768375250614,2.27721513843181,2.2783717178493,2.27775354609168,2.2777635166039,2.27723507945625,2.27722510894403,0,2.2768063474308,2.27757407687172,2.27731484355401,2.27726499099291,2.27748434226175,2.27732481406623,2.27796292684829,2.2770057576752,2.27833183580043,0,2.2777136640428,2.27777348711612,2.27808257299493,2.27801277940939,2.27794298582385,2.27887024346029,2.27846145245928,2.27902977165581,2.27907962421691,0,2.27931891651018,2.27974764853563,2.28059514207431,2.28179160354068,2.28113354973418,2.28130304844191,2.2818015740529,2.28279862527488,2.28319744576367,0,2.28286841886042,2.2843241136445,2.28393526366793,2.2850320200121
0,0,0,0,0,0,0,0,0,0,0,0,0,0,0,0,0,0,0,0,0,0,0,0,0,0,0,0,0,0,0,0,0,0,0,0,0,0,0,0,0,0,0,0,0,0,0,0,0,0,0,0,0,0,0,0,0,0,0,0,0,0,0,0,0,0,0,0,0,0,0,0,0,0,0,0,0,0,0,0,0,0,0,0,0,0,0,0,0,0,0,0,0,0,0,0,0,0,0,0,0,0,0,0,0,0,0,0,0,0,0,0,0,0,0,0,0,0,0,0,0,0,0,0,0,0,0,0,0,0,0,0,0,0,0,0,0,0,0,0,0,0,0,0,0,0,0,0,0,0,0,0,0,0,0,0,0,0,0,0,0,0,0,0,0,0,0,0,0,0,0,0,0,0,0,0,0,0,0,0,0,0,0,0,0,0,0,0,0,0,0,0,0,0,0,0,0,0,0,0,0,0,0,0,0,0,0,0,0,0,0,0,0,0,0,0,0,0,0,0,0,0,0,0,0,0,0,0,0,0,0,0,0,0
