2.33931275391695,2.33324163080834,2.3321414272796,2.33231145873404,2.33304159380311,2.33875265030232,2.33178136067019,2.33376172702193,2.33590212297785,2.33300158640207,2.33534201936321,2.33381173627323,2.33173135141888,2.33216143098012,2.33198139767541,2.3323714698356,2.33300158640207,2.33309160305442,2.33221144023142,2.33212142357907,2.33199139952568,2.3328115512471,2.33225144763247,2.33218143468064,2.33392175662611,2.33389175107532,2.33142129406078,2.32968097211531,2.33133127740843,2.33132127555817,2.33212142357907,2.33227145133299,2.33489193610145,2.33134127925869,2.33147130331209,2.33224144578221,2.33544203786583,2.33346167151409,2.33534201936321,2.33474190834754,2.33534201936321,2.33666226359771,2.33910271506147,2.33827256148978,2.33911271691173,2.3399728760342,2.34095305735981,2.34149315727392,2.3428934163105,2.34387359763611,2.34458372900466,2.3451438326193,2.34572393993445,2.34618402504647,2.34861447465997,2.34996472444525,2.35103492242321,2.35168504269019,2.35221514075404,2.35955649884584,2.35862632677154,2.35856631566997,2.35902640078199,2.35924644148774,2.36059669127302,2.36149685779654,2.36192693735777,2.36698787358999,2.36572764045707,2.36639776442458,2.3662377348204,2.36901824919304,2.37004843976995,2.37071856373746,2.37272893563999,2.3736291021635,2.37315901520122,2.37397916692265,2.37279894859181,2.37299898559704,2.37272893563999,2.37275894119077,2.37354908736141,2.37436923908284,2.37171874876359,2.37159872656046,2.37610956102831,2.30037555084968,2.29779507348226,2.29461448509916,2.2949945554091,2.29711494766449,2.29573469232843,2.29738499762155,2.29886527146022,2.29687490325822,2.29901529921414,2.29794510123618,2.29865523260473,2.29924534177015,2.29854521225186,2.30003548794079,2.29955539912825,2.30036554899942,2.30150575992921,2.30212587464541,2.30217588389671,2.30404622989558,2.30510642602328,2.30656669616143,2.30809697925141,2.30851705696238,2.30988731044818,2.38105047505739,2.38878190530939,2.38931200337323,2.38768170178064,2.38789174063613,2.38896193861409,2.38817179244345,2.38908196081722,2.39005214029257,2.39040220505172,2.39126236417419,2.38885191826121,2.38975208478473,2.38894193491357,2.38993211808944,2.39002213474179,2.39061224390721,2.39070226055956,2.39192248629144,2.39156241968203,2.39154241598151,2.39119235122236,2.38974208293447,2.39005214029257,2.38909196266749,2.31490823927936,2.31218773600828,2.31329794138729,2.31177766014757,2.31250779521665,2.31139758983764,2.31198769900306,2.31163763424391,2.31139758983764,2.30995732340001,2.30974728454452,2.30968727344296,2.3110475250785,2.31258781001874,2.31188768050044,2.31106752877902,2.31039740481151,2.31056743626595,2.31069746031935,2.31263781927004,2.3123377637622,2.31447815971812,2.31121755653294,2.31113754173085,2.31220773970881,2.3136580079967,2.31255780446795,2.31194769160201,2.31207771565541,2.31167764164496,2.31240777671403,2.31340796174016,2.31276784332344,2.31412809495898,2.31348797654225,2.31341796359043,2.31316791733389,2.31373802279879
2.33645222474222,2.33803251708351,2.33231145873404,2.33523199901034,2.33532201566269,2.33224144578221,2.33477191389832,2.33231145873404,2.33456187504283,2.33333164746069,2.33383173997376,2.33247148833822,2.33161132921575,2.33109123300216,2.3314412977613,2.33324163080834,2.3321914365309,2.33209141802829,2.33412179363133,2.33458187874335,2.33254150129005,2.33311160675494,2.33334164931095,2.3354220341653,2.33377172887219,2.33273153644501,2.3311312404032,2.32994102022211,2.33165133661679,2.33029108498125,2.33172134956862,2.33137128480947,2.3317513551194,2.33186137547228,2.3323214605843,2.33370171592036,2.33337165486174,2.33386174552454,2.33552205266792,2.33567208042184,2.33696231910555,2.33776246712645,2.33861262439866,2.33967282052636,2.34133312766974,2.34150315912418,2.34237332009691,2.34190323313463,2.34453371975336,2.34388359948637,2.34494379561407,2.3457639473355,2.34697417121712,2.3483744302537,2.34984470224211,2.3497946929908,2.35169504454045,2.35351538128801,2.36353723524984,2.35759613619463,2.35817624350978,2.35941647294218,2.36156687074836,2.36126681524053,2.36624773667066,2.36183692070542,2.36409733886448,2.36439739437232,2.36546759235028,2.36625773852092,2.36643777182562,2.36763799385698,2.36896823994173,2.36961836020872,2.37141869325575,2.37069856003694,2.37516938710374,2.37227885237823,2.3731390115007,2.37320902445253,2.37151871175837,2.37136868400445,2.37223884497718,2.37243888198241,2.37239887458136,2.37272893563999,2.37322902815305,2.29606475338705,2.29615477003941,2.29505456651066,2.29501455910962,2.29622478299124,2.29736499392103,2.29743500687285,2.29817514379219,2.29810513084036,2.29788509013461,2.29771505868017,2.29975543613348,2.29811513269062,2.29941537322459,2.29934536027276,2.30153576547999,2.3005755878549,2.30301603931866,2.30149575807895,2.30230590795011,2.30289601711553,2.30446630760655,2.30491639086831,2.30752687378651,2.30683674611848,2.30730683308077,2.30839703475925,2.38984210143708,2.31196769530254,2.38678153525712,2.38741165182359,2.3876416943796,2.38736164257228,2.38803176653979,2.38892193121304,2.38948203482768,2.38955204777951,2.39049222170407,2.38877190345912,2.38834182389789,2.38895193676383,2.38972207923395,2.39184247148935,2.39147240302968,2.39110233457001,2.39207251404536,2.3918024640883,2.39214252699719,2.39239257325372,2.31412809495898,2.31234776561247,2.31101751952771,2.31223774525959,2.31363800429617,2.31102752137797,2.3123377637622,2.31024737705759,2.31152761389104,2.31049742331412,2.31001733450158,2.31048742146386,2.31093750472562,2.30978729194557,2.3098573048974,2.3118476730994,2.31046741776334,2.31196769530254,2.31205771195489,2.31150761019052,2.311717649046,2.31160762869313,2.31157762314234,2.31237777116325,2.31229775636116,2.31159762684287,2.31196769530254,2.31266782482083,2.31199770085332,2.31261781556952,2.31324793213598,2.31188768050044,2.31316791733389,2.31298788402919,2.31367801169722,2.3144581560176,2.31390805425323,2.31271783407213,2.31389805240297,2.31385804500192
2.33482192314963,2.33474190834754,2.33520199345956,2.33517198790877,2.33424181583447,2.3340017714282,2.33509197310668,2.33514198235799,2.33425181768473,2.33572208967314,2.335372024914,2.33358169371722,2.3329415753005,2.33729238016417,2.33183136992149,2.33090119784719,2.33198139767541,2.33278154569632,2.33483192499989,2.33781247637776,2.3348019194491,2.33380173442297,2.334491862091,2.33334164931095,2.33350167891513,2.33318161970677,2.33053112938752,2.33060114233935,2.33146130146183,2.33227145133299,2.3320614124775,2.33217143283038,2.3323214605843,2.33179136252045,2.33378173072245,2.33308160120416,2.33402177512872,2.33533201751295,2.33580210447523,2.34156317022575,2.34266337375449,2.33814253743638,2.33994287048342,2.34253334970109,2.34337350512304,2.34321347551886,2.342453334899,2.34341351252409,2.34525385297217,2.34882451351546,2.34496379931459,2.3463840620517,2.34743425632914,2.34919458197513,2.35050482435936,2.35060484286197,2.35262521661475,2.35438554226075,2.35479561812146,2.35688600482607,2.35743610659044,2.35862632677154,2.35973653215055,2.3606266968238,2.36141684299445,2.36222699286561,2.36299713533573,2.36471745358068,2.36521754609374,2.36557761270315,2.36611771261726,2.36663780883085,2.3682781122737,2.36949833800558,2.36998842866839,2.37426922058023,2.37435923723258,2.37591952587334,2.37739979971202,2.37377912991742,2.37036849897832,2.37068855818668,2.3705285285825,2.37040850637936,2.37115864514896,2.37060854338459,2.29587471823209,2.29554465717347,2.29670487180378,2.29653484034934,2.29611476263836,2.2959747367347,2.29785508458383,2.29744500872312,2.29819514749271,2.29806512343932,2.29903530291466,2.29883526590944,2.29976543798374,2.29958540467904,2.30080563041092,2.30077562486013,2.30476636311439,2.30229590609985,2.30202585614279,2.30144574882764,2.30268597826004,2.30350612998147,2.30566652963791,2.30436628910394,2.30431627985263,2.3069867738724,2.30642667025777,2.30633665360542,2.30887712357179,2.30872709581787,2.30932720683355,2.38674152785608,2.31098751397693,2.38669151860477,2.38762169067907,2.38873189605808,2.3887518997586,2.39013215509466,2.38976208663499,2.39092230126531,2.31362800244591,2.39013215509466,2.38921198487062,2.3903822013512,2.38711159631575,2.39160242708307,2.31255780446795,2.31190768420097,2.31235776746273,2.31160762869313,2.31196769530254,2.31136758428686,2.31098751397693,2.31402807645637,2.30968727344296,2.31079747882196,2.31220773970881,2.31151761204078,2.30994732154975,2.31111753803032,2.31083748622301,2.31035739741046,2.31390805425323,2.31055743441569,2.3112275583832,2.31377803019983,2.31416810236002,2.31349797839252,2.31167764164496,2.31089749732458,2.31367801169722,2.31180766569835,2.31168764349522,2.31341796359043,2.31205771195489,2.31316791733389,2.31315791548363,2.31329794138729,2.3130879025318,2.3132179265852,2.31301788957997,2.31485823002805,2.31211772305645,2.31375802649931,2.31443815231708,2.31472820597466,2.31373802279879,2.31335795248886,2.31738869814416,2.31314791363337
2.34205326088855,2.33515198420825,2.33376172702193,2.33893268360702,2.33680228950136,2.3389126799065,2.3341818047329,2.33500195645433,2.33420180843342,2.33390175292559,2.33467189539571,2.33594213037889,2.33279154754658,2.336482230293,2.33813253558612,2.33871264290127,2.33986285568133,2.33390175292559,2.33425181768473,2.33349167706487,2.33756243012122,2.33425181768473,2.33461188429414,2.33355168816644,2.33181136622097,2.33182136807123,2.33169134401784,2.33258150869109,2.33322162710782,2.3323714698356,2.33286156049841,2.33224144578221,2.33334164931095,2.33321162525755,2.33503196200511,2.33476191204806,2.33464188984492,2.33525200271086,2.33620217848569,2.33750241901966,2.3389126799065,2.34051297594831,2.33988285938185,2.34084303700693,2.34397361613872,2.34379358283402,2.34574394363497,2.34507381966747,2.34565392698262,2.34528385852295,2.34560391773132,2.34759428593332,2.34840443580448,2.35071486321484,2.35087489281903,2.35159502603784,2.35287526287129,2.35357539238958,2.35477561442094,2.35632590121144,2.35694601592764,2.35878635637572,2.35918643038617,2.3604966727704,2.36029663576518,2.36184692255568,2.363237179742,2.36439739437232,2.36390730370951,2.36575764600785,2.36481747208329,2.366107710767,2.36709789394287,2.3682281030224,2.37236886903058,2.37581950737073,2.37479931864408,2.37479931864408,2.37503936305035,2.36811808266952,2.37079857853955,2.37033849342753,2.37097861184426,2.37072856558772,2.37168874321281,2.29664486070221,2.29630479779333,2.29450446474629,2.29575469602895,2.29581470713052,2.29740500132207,2.2971649569158,2.29718496061632,2.29821515119324,2.29921533621937,2.2987152437063,2.29864523075447,2.29865523260473,2.2991553251178,2.29954539727799,2.30113569146954,2.30033554344863,2.30084563781196,2.30078562671039,2.3023859227522,2.3013257266245,2.30252594865586,2.30553650558451,2.30384619289035,2.30514643342432,2.30439629465472,2.30485637976675,2.30502641122119,2.3051264297238,2.30567653148817,2.30702678127345,2.30702678127345,2.30717680902737,2.30779692374357,2.30895713837388,2.31042741036229,2.31098751397693,2.31077747512144,2.31017736410576,2.31076747327118,2.31061744551726,2.31070746216961,2.3122877545109,2.31183767124914,2.31254780261769,2.31244778411508,2.31093750472562,2.30984730304714,2.31131757503555,2.31090749917484,2.3110975343298,2.31012735485445,2.30942722533616,2.31021737150681,2.3094172234859,2.31031739000942,2.31067745661883,2.31206771380515,2.31058743996647,2.31374802464905,2.31108753247954,2.31147760463973,2.31070746216961,2.31236776931299,2.31142759538842,2.31236776931299,2.31169764534548,2.31429812641342,2.31360799874539,2.31193768975175,2.31088749547431,2.31146760278947,2.31213772675698,2.31306789883128,2.31258781001874,2.31296788032867,2.31282785442501,2.31364800614644,2.31532831699034,2.3127278359224,2.31382803945114,2.3139680653548,2.3147682133757,2.3135279839433,2.31480822077675,2.31368801354748,2.31462818747204,2.31358799504487,2.31483822632753,2.31493824483014,2.31550835029504
2.33899269470859,2.3415231628247,2.33607215443229,2.33671227284901,2.33945277982061,2.34104307401216,2.33557206191922,2.33836257814213,2.33670227099875,2.33930275206669,2.34132312581948,2.3378524837788,2.33759243567201,2.33763244307305,2.33641221734117,2.33606215258203,2.33822255223847,2.33507196940616,2.33482192314963,2.33908271136094,2.3332516326586,2.33337165486174,2.33497195090355,2.3328115512471,2.33567208042184,2.33209141802829,2.33256150499057,2.33320162340729,2.33242147908691,2.33314161230573,2.33326163450886,2.33267152534344,2.33377172887219,2.3338717473748,2.3351119768072,2.3369223117045,2.33739239866678,2.33654224139457,2.3371023450092,2.33994287048342,2.33820254853795,2.33853260959657,2.3394827853714,2.33916272616303,2.34122310731686,2.3418332201828,2.34356354027801,2.34405363094081,2.34445370495127,2.34541388257635,2.34571393808419,2.3468241434632,2.34816439139821,2.34860447280971,2.35048482065883,2.35050482435936,2.35259521106397,2.35475561072041,2.35485562922303,2.35541573283766,2.35607585495491,2.35859632122076,2.35837628051501,2.35998657840708,2.35937646554114,2.36173690220281,2.36620772926961,2.363237179742,2.36104677453478,2.36335720194514,2.297785071632,2.36731793464862,2.36664781068111,2.36767800125802,2.29848520115029,2.29996547498896,2.30152576362973,2.29750501982468,2.29999548053975,2.30004548979106,2.30079562856065,2.29763504387808,2.30053558045386,2.30047556935229,2.29982544908531,2.29833517339637,2.29546464237138,2.29576469787922,2.29546464237138,2.29594473118392,2.29667486625299,2.29673487735456,2.29848520115029,2.29819514749271,2.29835517709689,2.29821515119324,2.29951539172721,2.29903530291466,2.2994653824759,2.3000854971921,2.30253595050612,2.30104567481719,2.30283600601396,2.30185582468835,2.3028260041637,2.30166578953339,2.30140574142659,2.30398621879401,2.30489638716779,2.30727682752998,2.30452631870812,2.30557651298556,2.30364615588513,2.30532646672903,2.30644667395829,2.30643667210803,2.30675673131639,2.31024737705759,2.3071167979258,2.30706678867449,2.30890712912257,2.30798695889853,2.30847704956134,2.31001733450158,2.3092371901812,2.3102973863089,2.30991731599897,2.308617075465,2.30955724938956,2.31084748807327,2.31126756578424,2.31111753803032,2.30963726419165,2.31093750472562,2.3098573048974,2.31063744921778,2.31074746957066,2.31055743441569,2.30939721978538,2.31002733635184,2.3109175010251,2.31214772860724,2.31158762499261,2.31039740481151,2.31124756208372,2.3130378932805,2.31188768050044,2.31181766754862,2.31157762314234,2.31152761389104,2.31270783222187,2.31158762499261,2.31271783407213,2.31299788587945,2.31337795618938,2.31193768975175,2.31199770085332,2.31407808570767,2.31399807090558,2.31460818377152,2.31301788957997,2.31279784887422,2.31589842245523,2.31293787477788,2.31282785442501,2.31473820782492,2.31728867964155,2.31418810606055,2.31484822817779,2.31485823002805,2.31735869259338,2.31747871479652,2.31567838174948,2.31580840580288,2.31570838730027,2.31591842615575
2.33923273911486,2.3376724504741,2.33677228395058,2.33863262809918,2.34055298334936,2.33701232835685,2.33845259479448,2.33626218958725,2.33686230060293,2.34001288343524,2.33920273356408,2.33733238756521,2.33762244122279,2.33976283717871,2.33717235796103,2.33730238201443,2.3384225892437,2.33863262809918,2.33896268915781,2.33413179548159,2.33575209522393,2.33381173627323,2.33476191204806,2.33466189354544,2.33485192870041,2.33532201566269,2.33354168631618,2.33355168816644,2.33334164931095,2.33334164931095,2.33366170851931,2.33484192685015,2.33456187504283,2.33519199160929,2.33501195830459,2.33489193610145,2.33708234130868,2.33544203786583,2.33709234315894,2.33775246527619,2.33898269285833,2.33955279832322,2.33929275021643,2.34039295374517,2.34088304440798,2.34177320908124,2.3421432775409,2.3427133830058,2.3442636697963,2.34564392513236,2.34559391588106,2.34741425262861,2.34860447280971,2.34947463378244,2.35010475034891,2.35137498533209,2.35247518886084,2.35373542199376,2.35458557926597,2.35608585680517,2.3563359030617,2.29474450915256,2.297785071632,2.29625478854202,2.29366430932434,2.29237407064063,2.29627479224254,2.2946044832489,2.2951745887138,2.29515458501328,2.29404437963427,2.29414439813688,2.29697492176083,2.29751502167494,2.29771505868017,2.29767505127913,2.29633480334411,2.29618477559019,2.29829516599533,2.29714495321528,2.29819514749271,2.29802511603827,2.29814513824141,2.29707494026345,2.29828516414507,2.29567468122686,2.29616477188967,2.29507457021118,2.29616477188967,2.29620477929071,2.29702493101214,2.29976543798374,2.29776506793148,2.29949538802668,2.29855521410212,2.29973543243295,2.30120570442137,2.30061559525595,2.30139573957633,2.30033554344863,2.30094565631457,2.3012757173732,2.30075562115961,2.30441629835525,2.30185582468835,2.30283600601396,2.30341611332912,2.30428627430185,2.30483637606622,2.30367616143591,2.30456632610917,2.30505641677197,2.30565652778765,2.30664671096352,2.30603659809758,2.30660670356247,2.30549649818347,2.30777692004305,2.30723682012894,2.30712679977606,2.3071167979258,2.30973728269426,2.30822700330481,2.30868708841683,2.31028738445864,2.30979729379583,2.30871709396761,2.30986730674766,2.3094172234859,2.30927719758224,2.3084870514116,2.30965726789217,2.31131757503555,2.31131757503555,2.31286786182605,2.30960725864087,2.31004734005236,2.31219773785855,2.31132757688581,2.31204771010463,2.31139758983764,2.31094750657588,2.31132757688581,2.3114075916879,2.3144581560176,2.31186767679992,2.3126478211203,2.31200770270358,2.31188768050044,2.31331794508781,2.31223774525959,2.31185767494966,2.31300788772971,2.31310790623232,2.31322792843546,2.31389805240297,2.31419810791081,2.31275784147318,2.31417810421028,2.31415810050976,2.31426812086264,2.31353798579356,2.31499825593171,2.31437814121551,2.31441814861656,2.31513828183537,2.31542833549295,2.31574839470131,2.31488823557884,2.3146381893223,2.31677858527822,2.31593842985628,2.32009919956498,2.31574839470131,2.31601844465836,2.31665856307509
2.34180321463202,2.34219328679221,2.34216328124143,2.33755242827096,2.3384225892437,2.33809252818507,2.33737239496626,2.34020291859021,2.33849260219553,2.33866263364997,2.33762244122279,2.33790249303011,2.33732238571495,2.33716235611077,2.33776246712645,2.33616217108464,2.33580210447523,2.33656224509509,2.33558206376949,2.33399176957794,2.33578210077471,2.33182136807123,2.33248149018848,2.33234146428482,2.33243148093717,2.33284155679789,2.33415179918212,2.333381656712,2.33296157900102,2.33303159195285,2.33254150129005,2.33346167151409,2.33422181213395,2.33652223769405,2.33520199345956,2.3355520582187,2.33454187134231,2.33406178252977,2.33688230430346,2.33732238571495,2.33881266140389,2.33912271876199,2.34032294079335,2.29102382085536,2.3407730240551,2.29016366173288,2.29050372464177,2.29120385416006,2.29037370058837,2.2912438615611,2.29020366913393,2.2915039096679,2.29144389856633,2.2915039096679,2.29198399848044,2.29326423531389,2.28909346375492,2.29096380975379,2.29263411874743,2.2910638282564,2.29240407619142,2.29222404288671,2.29435443699237,2.29359429637251,2.29395436298192,2.29221404103645,2.2942944258908,2.2919940003307,2.29285415945317,2.29244408359246,2.2947345073023,2.29434443514211,2.29632480149385,2.29643482184672,2.29417440368767,2.29493454430753,2.29547464422164,2.29687490325822,2.29686490140796,2.2965948514509,2.29602474598601,2.29593472933366,2.29636480889489,2.29681489215665,2.2965448421996,2.29651483664881,2.29702493101214,2.29782507903305,2.29652483849907,2.29758503462677,2.29766504942886,2.29798510863723,2.29886527146022,2.29877525480787,2.29906530846545,2.29967542133139,2.30185582468835,2.30386619659088,2.30184582283809,2.30142574512712,2.30209586909462,2.30202585614279,2.30241592830299,2.30247593940455,2.30296603006736,2.30373617253748,2.30387619844114,2.30426627060133,2.30508642232276,2.30435628725368,2.30426627060133,2.30417625394898,2.30487638346727,2.30634665545568,2.30651668691012,2.30703678312371,2.30565652778765,2.30801696444932,2.30704678497397,2.30801696444932,2.30745686083469,2.30626664065359,2.30838703290899,2.30953724568904,2.30821700145454,2.30833702365768,2.308617075465,2.30856706621369,2.30886712172153,2.31115754543137,2.31080748067222,2.31090749917484,2.31079747882196,2.31008734745341,2.30899714577493,2.31172765089626,2.3110475250785,2.31203770825436,2.31403807830663,2.31193768975175,2.31063744921778,2.31092750287536,2.31101751952771,2.3114075916879,2.31098751397693,2.31210772120619,2.3146381893223,2.31298788402919,2.3119776971528,2.3130879025318,2.31164763609417,2.31348797654225,2.31446815786786,2.31380803575062,2.31642852051908,2.31408808755793,2.3141480986595,2.31426812086264,2.31397806720506,2.313708017248,2.31449816341865,2.31444815416734,2.31404808015689,2.31393805980401,2.3146381893223,2.31615847056202,2.31470820227413,2.31454817266995,2.31778877215462,2.31748871664678,2.3175087203473,2.31640851681856,2.31603844835889,2.3188789738331,2.31676858342796,2.31676858342796
2.34024292599125,2.33862262624892,2.33722236721234,2.33827256148978,2.33757243197149,2.33765244677358,2.3374124023673,2.33567208042184,2.33670227099875,2.33655224324483,2.33739239866678,2.33745240976835,2.33833257259134,2.33680228950136,2.33611216183333,2.3381125318856,2.33548204526687,2.33464188984492,2.3349319435025,2.3341818047329,2.33073116639275,2.33137128480947,2.33100121634981,2.33135128110895,2.33146130146183,2.3323714698356,2.33339165856226,2.33457187689309,2.33289156604919,2.33342166411304,2.33280154939684,2.28616292162836,2.28681304189534,2.28673302709325,2.28815328983036,2.28754317696442,2.28843334163768,2.28997362657792,2.28838333238637,2.28794325097487,2.28803326762722,2.28898344340205,2.28903345265335,2.28821330093193,2.28693306409848,2.28798325837592,2.29097381160405,2.28916347670675,2.2904437135402,2.28857336754133,2.2902636802355,2.2893835174125,2.28978359142295,2.29011365248158,2.29021367098419,2.28915347485649,2.29018366543341,2.29285415945317,2.29189398182809,2.29171394852339,2.28989361177583,2.29082378385013,2.29111383750771,2.29226405028776,2.29365430747408,2.29306419830866,2.29420440923845,2.29248409099351,2.29300418720709,2.29699492546136,2.29637481074516,2.29386434632957,2.29326423531389,2.29302419090762,2.29345427046885,2.29368431302486,2.29470450175152,2.2954846460719,2.29464449064995,2.29564467567608,2.29625478854202,2.29724497171789,2.29718496061632,2.2971649569158,2.29539462941955,2.29724497171789,2.29695491806031,2.2976550475786,2.29689490695874,2.29719496246658,2.29835517709689,2.29846519744977,2.29852520855134,2.29953539542773,2.30177580988626,2.30035554714916,2.30124571182241,2.30137573587581,2.30045556565177,2.30202585614279,2.30126571552294,2.3013257266245,2.30210587094489,2.30299603561814,2.30270598196056,2.30372617068722,2.3036261521846,2.30570653703896,2.30409623914689,2.30466634461178,2.30716680717711,2.3066767165143,2.30661670541274,2.30505641677197,2.30723682012894,2.30734684048181,2.30675673131639,2.30535647227981,2.30697677202214,2.30679673871744,2.30792694779697,2.30891713097284,2.30805697185036,2.30884711802101,2.3087971087697,2.30854706251317,2.30914717352885,2.31043741221256,2.30993731969949,2.30978729194557,2.31027738260837,2.31032739185968,2.31014735855498,2.31059744181674,2.3107874769717,2.31150761019052,2.31274783962292,2.31406808385741,2.31731868519234,2.31239777486377,2.31418810606055,2.31206771380515,2.31567838174948,2.31238777301351,2.31408808755793,2.3130378932805,2.31287786367631,2.31238777301351,2.31243778226482,2.31313791178311,2.31361800059565,2.31402807645637,2.31473820782492,2.31496825038093,2.31499825593171,2.3142781227129,2.31416810236002,2.3141480986595,2.31319792288468,2.31470820227413,2.31421811161133,2.31560836879765,2.31503826333276,2.31487823372858,2.31654854272221,2.31624848721438,2.31581840765314,2.31510827628459,2.31534832069086,2.31707864078606,2.31690860933162,2.31703863338502,2.31616847241229,2.31756873144887,2.31778877215462,2.31698862413371
2.34156317022575,2.33955279832322,2.33815253928664,2.3417832109315,2.33852260774631,2.3378024745275,2.33896268915781,2.33584211187628,2.33580210447523,2.3374124023673,2.33721236536208,2.33817254298716,2.33560206747001,2.33631219883856,2.33626218958725,2.3367422783998,2.33714235241025,2.27784138221095,2.27871154318368,2.27782137851043,2.27966171895851,2.27882156353656,2.28026182997419,2.33118124965451,2.28132202610189,2.28065190213438,2.28089194654065,2.28159207605894,2.28224219632593,2.28228220372697,2.28364245536251,2.2844726089342,2.2839025034693,2.28383249051747,2.28427257192897,2.28516273660223,2.28545279025981,2.28439259413211,2.28607290497601,2.28555280876242,2.28596288462313,2.28486268109439,2.28582285871947,2.28531276435615,2.28590287352157,2.28623293458019,2.28665301229116,2.28706308815188,2.2865930011896,2.28743315661155,2.28921348595806,2.28810328057905,2.28836332868585,2.29025367838523,2.2875231732639,2.28975358587217,2.28918348040727,2.28895343785126,2.28853336014029,2.29064375054543,2.28979359327321,2.2904437135402,2.29017366358314,2.29077377459882,2.29131387451293,2.29235406694011,2.29156392076947,2.29112383935797,2.29160392817051,2.29189398182809,2.29385434447931,2.29431442959133,2.29307420015892,2.29324423161337,2.2942944258908,2.29333424826572,2.29658484960064,2.29578470157974,2.29591472563314,2.29574469417869,2.29645482554725,2.29594473118392,2.2974750142739,2.29595473303418,2.29688490510848,2.2974750142739,2.29730498281946,2.29801511418801,2.29847519930003,2.29875525110735,2.29850520485081,2.29868523815552,2.29941537322459,2.29973543243295,2.30149575807895,2.30090564891353,2.30048557120255,2.30242593015325,2.30157577288104,2.30154576733025,2.30223589499828,2.30262596715847,2.30425626875107,2.30370616698669,2.30308605227049,2.30394621139297,2.30402622619506,2.30399622064427,2.30491639086831,2.30797695704827,2.30627664250385,2.30467634646204,2.30689675722005,2.30663670911326,2.30606660364836,2.30691676092057,2.30754687748704,2.30784693299488,2.30752687378651,2.30792694779697,2.30945723088695,2.30874709951839,2.30802696629958,2.30761689043887,2.30853706066291,2.30997732710054,2.31156762129208,2.30867708656656,2.3100373382021,2.30889712727231,2.31102752137797,2.3113575824366,2.31107753062928,2.31289786737684,2.31158762499261,2.31158762499261,2.31192768790149,2.31234776561247,2.31224774710985,2.31212772490672,2.31154761759156,2.31206771380515,2.31521829663746,2.31322792843546,2.314588180071,2.31237777116325,2.31312790993285,2.31566837989922,2.31376802834957,2.31359799689513,2.31372802094853,2.31307790068154,2.31406808385741,2.31405808200715,2.3138380413014,2.31375802649931,2.31478821707622,2.31543833734321,2.31526830588877,2.31822885356611,2.31509827443432,2.31678858712849,2.31488823557884,2.31514828368563,2.31485823002805,2.31592842800601,2.31727867779129,2.31618847611281,2.32119940309372,2.31683859637979,2.31773876290331,2.31764874625096,2.31771875920279,2.31806882396193,2.31723867039024,2.31747871479652
2.34136313322052,2.33907270951068,2.33875265030232,2.26670932287011,2.33786248562906,2.33520199345956,2.26915977618413,2.33518198975903,2.33614216738412,2.33795250228142,2.26951984279354,2.27018996676105,2.27022997416209,2.27198029795782,2.27283045523003,2.27262041637455,2.27324053109075,2.27401067356087,2.27479081788125,2.27597103621209,2.27685119903508,2.27774136370834,2.27817144326957,2.27776136740886,2.27870154133342,2.27871154318368,2.27892158203917,2.27941167270198,2.27942167455224,2.27998177816687,2.27999178001713,2.28246223703167,2.28100196689352,2.28215217967357,2.28275229068925,2.28240222593011,2.28242222963063,2.2831023554484,2.28301233879605,2.28295232769448,2.28351243130911,2.28426257007871,2.28347242390807,2.28464264038864,2.28520274400327,2.28440259598237,2.28516273660223,2.28631294938228,2.28626294013097,2.28683304559587,2.28645297528594,2.28705308630162,2.28815328983036,2.28812328427958,2.28872339529525,2.28862337679264,2.2881432879801,2.28763319361677,2.28862337679264,2.28828331388376,2.28942352481355,2.28897344155179,2.28970357662086,2.2904437135402,2.28991361547635,2.29036369873811,2.29134388006372,2.29200400218096,2.29215402993488,2.29270413169925,2.29321422606258,2.29279414835161,2.29440444624368,2.29363430377356,2.29375432597669,2.2945544739976,2.2936743111746,2.29469449990126,2.29524460166563,2.29619477744045,2.29649483294829,2.2965448421996,2.29571468862791,2.29694491621005,2.29724497171789,2.296904908809,2.29754502722573,2.29899529551362,2.30205586169358,2.2979150956854,2.29866523445499,2.29892528256179,2.30007549534184,2.29947538432616,2.30060559340569,2.30040555640046,2.3015857747313,2.30290601896579,2.30195584319097,2.3030060374684,2.30322607817415,2.30265597270926,2.30329609112598,2.30531646487877,2.30392620769244,2.30476636311439,2.30425626875107,2.30457632795943,2.30741685343364,2.30545649078242,2.30445630575629,2.3060065925468,2.30884711802101,2.30841703845977,2.30722681827868,2.30661670541274,2.30734684048181,2.30684674796875,2.30736684418233,2.30875710136866,2.30957725309008,2.31063744921778,2.31086749177379,2.30865708286604,2.30951724198851,2.31006734375289,2.31042741036229,2.30976728824505,2.30984730304714,2.31112753988059,2.31041740851203,2.3106574529183,2.31408808755793,2.31193768975175,2.31372802094853,2.31262781741978,2.31199770085332,2.31316791733389,2.31307790068154,2.31231776006168,2.31374802464905,2.31407808570767,2.31443815231708,2.31408808755793,2.31314791363337,2.3130378932805,2.31403807830663,2.31515828553589,2.31481822262701,2.31846889797239,2.31465819302283,2.31407808570767,2.31498825408145,2.31466819487309,2.31588842060497,2.31532831699034,2.31474820967518,2.31457817822074,2.31535832254112,2.31616847241229,2.31636850941751,2.31529831143955,2.31581840765314,2.3162684909149,2.31581840765314,2.31577840025209,2.31851890722369,2.31743870739547,2.31712865003737,2.3173786962939,2.31892898308441,2.31798880915984,2.31894898678493,2.31836887946977,2.31846889797239,2.31776876845409
2.26247854020958,2.26298863457291,2.26476896391942,2.26296863087238,2.2661192137047,2.26665931361881,2.26712940058109,2.26471895466811,2.2674894671905,2.26862967812029,2.27175025540181,2.26771950974651,2.26870969292238,2.2694798353925,2.27080007962699,2.2717802609526,2.27049002226889,2.27176025725207,2.27273043672742,2.27345056994624,2.27458077902576,2.27495084748543,2.27553095480059,2.27579100290738,2.27674117868221,2.27603104731365,2.27690120828639,2.2774913174518,2.27760133780468,2.27816144141931,2.27940167085171,2.27951169120459,2.28037185032706,2.28101196874379,2.28093195394169,2.28162208160973,2.281862126016,2.28325238320232,2.28442259968289,2.28240222593011,2.28144204830502,2.28295232769448,2.28413254602531,2.2843425848808,2.28537277545772,2.28472265519073,2.28440259598237,2.28584286242,2.28737314550998,2.28618292532888,2.28587286797078,2.28667301599169,2.29130387266267,2.28913347115597,2.28738314736024,2.28813328612984,2.28784323247226,2.28846334718846,2.28922348780832,2.2887634026963,2.28853336014029,2.29082378385013,2.28975358587217,2.29139388931502,2.2904437135402,2.29036369873811,2.2915039096679,2.29190398367835,2.29309420385945,2.29772506053043,2.29273413725004,2.2974750142739,2.29285415945317,2.29481452210439,2.29381433707826,2.29229405583854,2.2953546220185,2.29544463867085,2.29516458686354,2.29637481074516,2.2965448421996,2.29657484775038,2.29744500872312,2.29677488475561,2.29694491621005,2.2992853491712,2.29804511973879,2.29861522520369,2.29833517339637,2.30005549164132,2.29943537692512,2.30063559895647,2.30138573772607,2.30043556195125,2.30116569702032,2.30122570812189,2.30373617253748,2.30305604671971,2.30317606892284,2.30416625209871,2.3034461188799,2.30382618918983,2.3049463964191,2.30558651483582,2.30447630945682,2.30485637976675,2.31094750657588,2.31095750842614,2.30684674796875,2.30700677757293,2.30732683678129,2.30677673501692,2.3063666591562,2.30737684603259,2.30805697185036,2.30721681642841,2.30846704771108,2.30847704956134,2.30898714392467,2.30898714392467,2.30862707731526,2.30778692189331,2.31099751582719,2.31005734190263,2.31007734560315,2.3107874769717,2.31177766014757,2.31062744736752,2.31134758058633,2.31221774155907,2.31068745846909,2.31161763054339,2.31114754358111,2.31280785072449,2.31198769900306,2.31594843170654,2.31394806165427,2.31182766939888,2.31478821707622,2.31446815786786,2.31415810050976,2.31420810976107,2.31408808755793,2.31371801909826,2.31429812641342,2.31518829108668,2.3153383188406,2.3179988110101,2.31585841505418,2.31529831143955,2.31607845575993,2.31560836879765,2.31508827258406,2.3155183521453,2.31549834844478,2.3173786962939,2.31516828738615,2.31742870554521,2.31603844835889,2.31694861673267,2.31590842430549,2.31689860748136,2.31681859267927,2.3173786962939,2.31767875180174,2.31651853717143,2.32121940679425,2.31741870369495,2.3181288350635,2.31780877585514,2.31939907004669,2.32015921066655,2.31894898678493,2.3188789738331,2.31854891277448,2.31889897753362
2.26066820531228,2.26047817015732,2.26278859756768,2.26303864382421,2.26242853095827,2.26285861051951,2.26413884735296,2.264178854754,2.26537907678536,2.2649289935236,2.26919978358518,2.26712940058109,2.26774951529729,2.2685996725695,2.26999993160608,2.27034999636523,2.27162023134842,2.27141019249293,2.27184027205417,2.27321052553996,2.27354058659859,2.27336055329388,2.27450076422367,2.27661115462881,2.27465079197759,2.27637111022254,2.27481082158177,2.27733128784762,2.27765134705599,2.27848150062767,2.27939166900145,2.27791139516278,2.28100196689352,2.28092195209143,2.28164208531025,2.2805418817815,2.28169209456155,2.28152206310711,2.28079192803804,2.28307234989761,2.28376247756565,2.283852494218,2.28384249236774,2.28519274215301,2.2849126903457,2.28536277360745,2.28939351926276,2.28569283466608,2.28591287537183,2.28647297898646,2.28634295493306,2.28779322322095,2.29357429267199,2.2887634026963,2.28923348965858,2.2895635507172,2.29070376164699,2.28926349520936,2.28846334718846,2.29019366728367,2.28986360622504,2.29055373389307,2.2905737375936,2.29153391521868,2.29047371909098,2.2936243019233,2.29342426491807,2.29384434262904,2.29248409099351,2.29264412059769,2.29382433892852,2.29382433892852,2.29434443514211,2.29347427416938,2.29385434447931,2.29428442404054,2.29514458316301,2.29649483294829,2.29651483664881,2.29694491621005,2.29724497171789,2.29846519744977,2.29908531216597,2.29803511788853,2.29829516599533,2.29941537322459,2.2996454157806,2.29994547128844,2.29978544168426,2.29984545278583,2.30038555269994,2.29960540837956,2.3005755878549,2.30262596715847,2.30119570257111,2.301765808036,2.30112568961928,2.3029560282171,2.30524645192694,2.30418625579924,2.30356614108304,2.30423626505054,2.30514643342432,2.30456632610917,2.3076068885886,2.30669672021483,2.30706678867449,2.30699677572266,2.30685674981901,2.30622663325254,2.30738684788286,2.30720681457815,2.30750687008599,2.30825700885559,2.30842704031003,2.30833702365768,2.31061744551726,2.30945723088695,2.31009734930367,2.30868708841683,2.31366800984696,2.30962726234139,2.31064745106804,2.31218773600828,2.31207771565541,2.31165763794443,2.31147760463973,2.31161763054339,2.31183767124914,2.31155761944182,2.31164763609417,2.31262781741978,2.31219773785855,2.31307790068154,2.31271783407213,2.31455817452021,2.3126478211203,2.3138380413014,2.31559836694739,2.31323793028572,2.31464819117257,2.31418810606055,2.31490823927936,2.31526830588877,2.31431813011394,2.31529831143955,2.31578840210236,2.3158284095034,2.31563837434844,2.31735869259338,2.31547834474425,2.31635850756725,2.31617847426255,2.31648853162065,2.31615847056202,2.31716865743842,2.31765874810122,2.3170686389358,2.31669857047613,2.31656854642274,2.31560836879765,2.31634850571699,2.31788879065723,2.31814883876402,2.31745871109599,2.31762874255044,2.31753872589808,2.31852890907395,2.3186989405284,2.31964911630322,2.31836887946977,2.3199891792121,2.31780877585514,2.31956910150113,2.3250301117438,2.31983915145819
2.25874785006211,2.2607682238149,2.26085824046725,2.26092825341908,2.26212847545043,2.26220849025253,2.26397881774878,2.26338870858336,2.2633787067331,2.26563912489215,2.26898974472969,2.26780952639886,2.26928980023753,2.26894973732865,2.27318051998918,2.2699699260553,2.27035999821549,2.27049002226889,2.2709000981296,2.27248039047089,2.27307049963631,2.27433073276923,2.27405068096191,2.27324053109075,2.27449076237341,2.27595103251156,2.27680118978377,2.27623108431888,2.27847149877741,2.28017181332184,2.27903160239205,2.27763134335546,2.27989176151452,2.28007179481922,2.27978174116164,2.28140204090398,2.28508272180014,2.28397251642113,2.28635295678332,2.28227220187671,2.28270228143795,2.28332239615415,2.28374247386512,2.2843425848808,2.28528275880536,2.28560281801373,2.28709309370266,2.28581285686921,2.28672302524299,2.28821330093193,2.28573284206712,2.28864338049316,2.28751317141364,2.28803326762722,2.28767320101782,2.28885341934865,2.2921240243841,2.29105382640614,2.28961355996851,2.29099381530457,2.29115384490875,2.29161393002077,2.2925641057956,2.29358429452225,2.29193398922913,2.29306419830866,2.29257410764586,2.29384434262904,2.29193398922913,2.29320422421232,2.29307420015892,2.29302419090762,2.30115569517006,2.29542463497033,2.2954846460719,2.29563467382582,2.29579470343,2.29590472378287,2.29615477003941,2.2967248755043,2.2979651049367,2.29697492176083,2.29857521780264,2.29893528441205,2.29919533251884,2.29912531956702,2.30015551014393,2.30079562856065,2.29970542688217,2.30143574697738,2.30044556380151,2.30044556380151,2.30236591905168,2.30286601156474,2.30249594310508,2.30265597270926,2.30401622434479,2.30338610777833,2.3035761429333,2.30467634646204,2.30421626135002,2.30456632610917,2.3064966832096,2.30489638716779,2.30769690524096,2.31027738260837,2.30846704771108,2.30858706991421,2.30831701995716,2.30716680717711,2.30732683678129,2.30775691634252,2.3083070181069,2.30829701625664,2.30780692559383,2.31086749177379,2.30976728824505,2.30948723643773,2.31099751582719,2.31025737890785,2.30981729749635,2.31067745661883,2.31176765829731,2.31070746216961,2.31058743996647,2.31144759908895,2.3109675102764,2.31100751767745,2.31356799134434,2.31142759538842,2.31724867224051,2.31350798024278,2.31447815971812,2.31294787662814,2.31372802094853,2.31483822632753,2.31424811716211,2.31466819487309,2.31549834844478,2.31475821152544,2.31914902379016,2.31616847241229,2.31713865188763,2.31743870739547,2.31616847241229,2.31510827628459,2.31718866113894,2.31628849461542,2.31669857047613,2.31653854087195,2.31641851866882,2.31739869999443,2.31608845761019,2.31661855567404,2.31695861858293,2.31784878325618,2.3173286870426,2.31774876475357,2.31735869259338,2.3162684909149,2.31730868334207,2.31867893682787,2.31800881286037,2.31808882766246,2.31840888687082,2.31852890907395,2.31968912370427,2.31963911445296,2.32415995077107,2.31813883691376,2.32045926617439,2.32012920511576,2.31865893312735,2.32106937904033,2.32405993226846,2.319679121854
2.25800771314278,2.25929795182648,2.25923794072492,2.26034814610392,2.26199845139704,2.26163838478763,2.26223849580331,2.26285861051951,2.26519904348066,2.26560911934137,2.26696937097691,2.26596918595078,2.26693936542612,2.26692936357586,2.26895973917891,2.26987990940295,2.26963986499668,2.27256040527298,2.2716502368992,2.27324053109075,2.27327053664153,2.2737706291546,2.27371061805303,2.27465079197759,2.2751408826404,2.27531091409484,2.2762510880194,2.27952169305485,2.27696121938795,2.2781914469701,2.27802141551565,2.27842148952611,2.2780614229167,2.27888157463813,2.2814220446045,2.28093195394169,2.28182211861495,2.28301233879605,2.28216218152384,2.28432258118028,2.28261226478559,2.28402252567244,2.28455262373629,2.28408253677401,2.28466264408916,2.28480266999282,2.28499270514779,2.28823330463245,2.28645297528594,2.28638296233411,2.28816329168062,2.28748316586285,2.28686305114665,2.28649298268698,2.28835332683559,2.28979359327321,2.28909346375492,2.2892034841078,2.29130387266267,2.29114384305849,2.29025367838523,2.29097381160405,2.29242407989194,2.29483452580491,2.29196399477992,2.29231405953906,2.29302419090762,2.29223404473697,2.29351428157042,2.29267412614847,2.29498455355883,2.29432443144159,2.2951745887138,2.29704493471266,2.29762504202782,2.29562467197556,2.2959747367347,2.29666486440273,2.29624478669176,2.29934536027276,2.29739499947181,2.29888527516074,2.29890527886127,2.30005549164132,2.29807512528958,2.30089564706327,2.30240592645272,2.30032554159837,2.3028260041637,2.30361615033434,2.30097566186536,2.30202585614279,2.30343611702964,2.30223589499828,2.30232591165063,2.30292602266631,2.30356614108304,2.30776691819279,2.30501640937093,2.3055665111353,2.30421626135002,2.30510642602328,2.30616662215098,2.30716680717711,2.30651668691012,2.30858706991421,2.30791694594671,2.30788694039592,2.31194769160201,2.30952724383878,2.30822700330481,2.31012735485445,2.31024737705759,2.30986730674766,2.30908716242728,2.30883711617075,2.31103752322823,2.30966726974243,2.31185767494966,2.31100751767745,2.31061744551726,2.31223774525959,2.31174765459679,2.31112753988059,2.3110975343298,2.31330794323755,2.31159762684287,2.31243778226482,2.31316791733389,2.31310790623232,2.31430812826368,2.31336795433912,2.31306789883128,2.31376802834957,2.31444815416734,2.31413809680924,2.31800881286037,2.31590842430549,2.31369801539774,2.31439814491603,2.31554835769608,2.31660855382378,2.31725867409077,2.3159584335568,2.31665856307509,2.31572839100079,2.31571838915053,2.3150782707338,2.31608845761019,2.31882896458179,2.31718866113894,2.31727867779129,2.31641851866882,2.31531831514007,2.31653854087195,2.31729868149181,2.31789879250749,2.3209993660885,2.31744870924573,2.31720866483946,2.3179488017588,2.31797880730958,2.31840888687082,2.31909901453885,2.31837888132003,2.31976913850636,2.31919903304146,2.32000918291263,2.31965911815348,2.3247200543857,2.32082933463405,2.3206893087304,2.32080933093353,2.32176950855862,2.32232961217325,2.32302974169154
2.25992806839295,2.26003808874582,2.25979804433955,2.26091825156882,2.26121830707666,2.26378878259381,2.26260856426298,2.26299863642317,2.26346872338545,2.26494899722412,2.26655929511619,2.26653929141567,2.26727942833501,2.26712940058109,2.26922978913596,2.26991991680399,2.27030998896419,2.27064005002281,2.27119015178718,2.27243038121958,2.27375062545408,2.27231035901645,2.27322052739023,2.27643112132411,2.27475081048021,2.27585101400895,2.27584101215869,2.27619107691783,2.27622108246862,2.27708124159109,2.27820144882036,2.27944167825276,2.27944167825276,2.28078192618778,2.2817321019626,2.28027183182445,2.28159207605894,2.28120200389875,2.28271228328821,2.28604289942522,2.28335240170493,2.28337240540545,2.28342241465676,2.2837224701646,2.28549279766085,2.28531276435615,2.28641296788489,2.28720311405554,2.28639296418437,2.28657299748907,2.28778322137069,2.28766319916756,2.28755317881468,2.2873931492105,2.286953067799,2.28855336384081,2.28877340454656,2.29076377274856,2.29226405028776,2.29251409654429,2.2933642538165,2.29370431672539,2.29476451285308,2.29042370983968,2.29265412244795,2.29246408729298,2.29258410949612,2.2936243019233,2.29637481074516,2.2942444166395,2.29448446104577,2.29591472563314,2.29538462756929,2.29663485885195,2.2965948514509,2.29735499207076,2.29837518079742,2.29808512713984,2.29837518079742,2.29825515859428,2.29864523075447,2.29848520115029,2.29873524740682,2.29854521225186,2.29876525295761,2.3041962576495,2.30456632610917,2.30240592645272,2.30123570997215,2.30256595605691,2.30188583023914,2.3018958320894,2.30434628540342,2.30460633351021,2.30546649263268,2.30610661104941,2.30725682382946,2.30619662770176,2.3061866258515,2.30646667765882,2.30579655369131,2.30651668691012,2.30621663140228,2.30901714947545,2.31085748992353,2.30780692559383,2.30809697925141,2.3095472475393,2.31009734930367,2.30966726974243,2.31012735485445,2.30916717722937,2.30896714022414,2.30909716427754,2.3101673622555,2.31100751767745,2.31084748807327,2.31296788032867,2.31008734745341,2.31252779891717,2.3113575824366,2.3124677878156,2.31181766754862,2.31251779706691,2.31313791178311,2.31871894422892,2.31270783222187,2.31374802464905,2.31355798949408,2.3130879025318,2.31403807830663,2.31709864448659,2.3152082947872,2.31497825223119,2.31660855382378,2.31513828183537,2.31702863153476,2.3161384668615,2.31506826888354,2.31491824112962,2.3164485242196,2.31635850756725,2.31617847426255,2.31718866113894,2.31673857787718,2.31658855012326,2.31708864263633,2.31643852236934,2.31659855197352,2.31689860748136,2.31665856307509,2.31784878325618,2.31769875550227,2.31700862783423,2.31769875550227,2.31820884986559,2.3175087203473,2.31815884061429,2.31830886836821,2.31824885726664,2.31959910705191,2.31823885541638,2.31848890167291,2.31885897013258,2.31938906819643,2.31994917181106,2.31951909224982,2.32263966953135,2.32002918661315,2.32061929577857,2.32087934388536,2.32020921991785,2.32027923286968,2.32209956961724,2.32525015244955,2.32191953631254
2.26079822936568,2.26095825896986,2.26023812575105,2.26093825526934,2.26102827192169,2.26224849765357,2.26365875854041,2.26488898612256,2.26444890471106,2.26375877704303,2.26672932657064,2.26792954860199,2.26724942278422,2.26845964666584,2.26813958745748,2.26944982984171,2.2696598686972,2.2705900407715,2.27124016103849,2.27324053109075,2.2722703516154,2.27362060140068,2.27517088819118,2.2743907438708,2.27435073646975,2.27368061250225,2.27670117128116,2.2766911694309,2.27632110097123,2.27737129524867,2.27776136740886,2.27940167085171,2.28100196689352,2.27988175966426,2.28174210381286,2.28086194098987,2.28123200944953,2.28177210936364,2.2834124128065,2.28276229253951,2.28319237210075,2.28325238320232,2.28363245351225,2.2841625515761,2.28467264593942,2.28445260523368,2.2858928716713,2.28549279766085,2.28673302709325,2.28777321952043,2.29025367838523,2.28952354331616,2.29089379680196,2.28871339344499,2.28769320471834,2.2877032065686,2.28972358032138,2.28999363027844,2.29042370983968,2.2919439910794,2.29175395592443,2.29269412984899,2.29301418905736,2.29288416500396,2.29312420941023,2.29366430932434,2.29644482369698,2.29446445734525,2.29584471268131,2.29450446474629,2.29640481629594,2.29663485885195,2.29600474228549,2.29730498281946,2.29771505868017,2.29691491065927,2.29848520115029,2.29808512713984,2.29935536212303,2.30038555269994,2.29991546573766,2.29880526035865,2.29913532141728,2.30038555269994,2.30038555269994,2.30198584874175,2.30184582283809,2.30079562856065,2.3015857747313,2.30263596900873,2.30299603561814,2.30353613553225,2.30477636496465,2.30713680162632,2.30584656294261,2.30522644822641,2.30629664620437,2.30617662400124,2.30619662770176,2.30526645562746,2.30594658144523,2.30651668691012,2.3076869033907,2.30732683678129,2.30787693854566,2.30884711802101,2.31088749547431,2.3095472475393,2.30824700700533,2.31238777301351,2.31203770825436,2.3087971087697,2.30880711061996,2.3098573048974,2.31031739000942,2.31067745661883,2.31172765089626,2.31120755468268,2.31138758798738,2.31295787847841,2.31216773230776,2.31545834104373,2.31384804315166,2.31437814121551,2.31325793398624,2.31456817637048,2.31405808200715,2.31328793953703,2.31340796174016,2.31423811531185,2.31403807830663,2.31477821522596,2.31417810421028,2.31456817637048,2.31526830588877,2.31653854087195,2.3158284095034,2.31690860933162,2.31611846316098,2.31681859267927,2.31575839655157,2.31714865373789,2.31690860933162,2.31679858897875,2.31679858897875,2.31811883321324,2.31780877585514,2.31878895718075,2.31667856677561,2.3175087203473,2.3186989405284,2.31817884431481,2.31954909780061,2.31823885541638,2.32142944564973,2.31821885171585,2.319679121854,2.3202492273189,2.31948908669904,2.32017921436707,2.32128941974608,2.31837888132003,2.31916902749068,2.32044926432412,2.31999918106237,2.3204292606236,2.32008919771472,2.32149945860156,2.32089934758588,2.32062929762883,2.32082933463405,2.32083933648432,2.32141944379947,2.32220958997012,2.32282970468632,2.32431998037525
2.26072821641385,2.25962801288511,2.26009809984739,2.2631186586263,2.26184842364312,2.26363875483989,2.26269858091533,2.26464894171628,2.2658091563466,2.26408883810165,2.26661930621776,2.26881971327525,2.26989991310347,2.26780952639886,2.26926979653701,2.269039753981,2.26971987979877,2.27128016843953,2.27231035901645,2.27243038121958,2.27318051998918,2.27210032016096,2.27536092334615,2.27564097515346,2.27538092704667,2.27699122493874,2.27661115462881,2.27808142661722,2.27859152098055,2.27982174856269,2.27784138221095,2.27861152468107,2.27938166715119,2.2801818151721,2.28060189288307,2.28143204645476,2.28223219447566,2.28258225923481,2.28170209641182,2.28349242760859,2.28287231289239,2.28660300303986,2.28559281616346,2.2844726089342,2.28501270884831,2.28628294383149,2.28724312145658,2.28714310295397,2.2895635507172,2.29102382085536,2.28941352296328,2.29022367283445,2.29107383010666,2.29103382270562,2.29383434077878,2.29420440923845,2.28998362842818,2.28972358032138,2.29074376904804,2.29174395407417,2.29234406508985,2.2922540484375,2.29228405398828,2.29356429082173,2.29678488660587,2.29358429452225,2.29622478299124,2.2948645313557,2.29605475153679,2.2970349328624,2.29653484034934,2.29787508828435,2.29728497911893,2.2961047607881,2.29846519744977,2.29818514564245,2.29812513454088,2.29834517524663,2.29859522150317,2.30084563781196,2.30085563966222,2.29970542688217,2.29949538802668,2.29903530291466,2.3003955545502,2.30087564336274,2.30453632055838,2.30279599861292,2.30330609297624,2.30319607262337,2.30511642787354,2.3066767165143,2.30637666100646,2.30734684048181,2.30575654629026,2.3071167979258,2.30596658514575,2.30689675722005,2.30770690709122,2.31139758983764,2.3069867738724,2.30865708286604,2.30790694409644,2.3084870514116,2.3089271328231,2.30917717907963,2.31107753062928,2.31088749547431,2.30976728824505,2.3096772715927,2.31247778966586,2.309727280844,2.31209771935593,2.31059744181674,2.31151761204078,2.31118755098215,2.31258781001874,2.31152761389104,2.31236776931299,2.31444815416734,2.31315791548363,2.3139680653548,2.31405808200715,2.31420810976107,2.31410809125846,2.31402807645637,2.31422811346159,2.31402807645637,2.3139680653548,2.31395806350454,2.3152082947872,2.31534832069086,2.31497825223119,2.31523830033798,2.3159584335568,2.31646852792012,2.31625848906464,2.31724867224051,2.31770875735253,2.31695861858293,2.31917902934094,2.32066930502987,2.31709864448659,2.31819884801533,2.31800881286037,2.31788879065723,2.31902900158702,2.31830886836821,2.3179488017588,2.31899899603623,2.31801881471063,2.31892898308441,2.32010920141524,2.3188789738331,2.31821885171585,2.31953909595035,2.31915902564042,2.32014920881629,2.31963911445296,2.31978914220688,2.31995917366132,2.31932905709486,2.32020921991785,2.32118940124346,2.32434998592604,2.3200691940142,2.32115939569268,2.32277969543501,2.32259966213031,2.32188953076175,2.32239962512508,2.32163948450522,2.322549652879,2.32296973058997,2.32315976574494,2.32314976389468
2.26240852725775,2.26004809059608,2.26095825896986,2.26226850135409,2.26323868082944,2.26329869193101,2.26315866602735,2.26572914154451,2.26453892136341,2.26544908973719,2.26740945238841,2.26875970217368,2.26822960410983,2.26919978358518,2.27267042562585,2.27018996676105,2.26980989645112,2.27081008147725,2.2713401795411,2.27154021654633,2.27237037011801,2.27343056624571,2.27407068466244,2.27469079937864,2.27507086968857,2.27616107136705,2.27654114167698,2.28020181887262,2.27828146362245,2.27882156353656,2.27792139701304,2.27776136740886,2.28008179666948,2.28184212231547,2.28219218707462,2.28112198909666,2.28242222963063,2.28305234619709,2.28410254047453,2.28361244981173,2.28456262558655,2.28531276435615,2.28453262003577,2.28485267924413,2.28586286612052,2.2863329530828,2.28636295863359,2.28772321026912,2.28723311960632,2.28806327317801,2.28835332683559,2.28893343415074,2.29110383565745,2.29127386711189,2.29226405028776,2.29363430377356,2.294914540607,2.29370431672539,2.29726497541841,2.29166393927208,2.29276414280082,2.29180396517574,2.29360429822277,2.2934942778699,2.29518459056406,2.29464449064995,2.29414439813688,2.29483452580491,2.29489453690648,2.29771505868017,2.29475451100282,2.29705493656292,2.29722496801737,2.29715495506554,2.29831516969585,2.29941537322459,2.29794510123618,2.29889527701101,2.30088564521301,2.30091565076379,2.30017551384445,2.30168579323391,2.30205586169358,2.30128571922346,2.30244593385377,2.30302604116893,2.30324608187467,2.30351613183173,2.30309605412075,2.3040662335961,2.30404622989558,2.30508642232276,2.30517643897511,2.30385619474061,2.30641666840751,2.30744685898442,2.30801696444932,2.30821700145454,2.307736912642,2.30739684973312,2.30717680902737,2.30853706066291,2.30840703660951,2.30991731599897,2.31169764534548,2.31056743626595,2.31040740666177,2.31053743071517,2.31443815231708,2.31182766939888,2.3112275583832,2.31123756023346,2.31198769900306,2.31192768790149,2.31403807830663,2.31363800429617,2.31181766754862,2.31261781556952,2.31226775081038,2.31211772305645,2.31297788217893,2.3150782707338,2.31354798764382,2.31354798764382,2.31395806350454,2.31341796359043,2.31453817081969,2.35759613619463,2.31409808940819,2.31455817452021,2.35543573653818,2.31542833549295,2.31492824297988,2.31562837249817,2.31597843725732,2.31695861858293,2.31707864078606,2.31764874625096,2.32067930688014,2.31795880360906,2.31845889612212,2.31846889797239,2.31692861303214,2.31845889612212,2.31846889797239,2.32115939569268,2.31849890352317,2.31901899973676,2.31852890907395,2.31790879435775,2.32021922176811,2.31943907744773,2.31924904229277,2.31903900343728,2.3198091459074,2.32008919771472,2.32085934018484,2.31984915330845,2.31992916811054,2.32053928097648,2.32196954556384,2.32077932538275,2.320559284677,2.32159947710418,2.32195954371358,2.32284970838684,2.3240499304182,2.32224959737116,2.32429997667473,2.32338980830095,2.32361985085696,2.32253965102874,2.32353983605487,2.32550019870609,2.32398991931663,2.32530016170086
2.25963801473537,2.26192843844521,2.26061819606098,2.26089824786829,2.26305864752474,2.26254855316141,2.26483897687125,2.26566913044294,2.26584916374764,2.2666093043675,2.26692936357586,2.26614921925548,2.26749946904076,2.26864968182081,2.27061004447202,2.27047001856837,2.27049002226889,2.27248039047089,2.27181026650338,2.27328053849179,2.27329054034205,2.27596103436182,2.27460078272629,2.27507086968857,2.27445075497237,2.27907160979309,2.27765134705599,2.27849150247794,2.27826145992193,2.27812143401827,2.2786815376329,2.27969172450929,2.28000178186739,2.28096195949248,2.28140204090398,2.28112198909666,2.28215217967357,2.28301233879605,2.28472265519073,2.28413254602531,2.2852727569551,2.28489268664517,2.28495269774674,2.28524275140432,2.28631294938228,2.28792324727435,2.28763319361677,2.28756318066494,2.28786323617278,2.29001363397896,2.28900344710257,2.2896935747706,2.29086379125117,2.29226405028776,2.29184397257678,2.29303419275788,2.29444445364472,2.29544463867085,2.29404437963427,2.29481452210439,2.29250409469403,2.29402437593375,2.29377432967722,2.29539462941955,2.29413439628662,2.29568468307712,2.29557466272425,2.2956646793766,2.29551465162268,2.29726497541841,2.29726497541841,2.29684489770744,2.29895528811257,2.29835517709689,2.30035554714916,2.29980544538478,2.29936536397329,2.29932535657224,2.29953539542773,2.29994547128844,2.3018958320894,2.30123570997215,2.30197584689149,2.30154576733025,2.30293602451657,2.30222589314802,2.3029560282171,2.30376617808826,2.30319607262337,2.30515643527458,2.30464634091126,2.30469635016256,2.30511642787354,2.30460633351021,2.30607660549862,2.30619662770176,2.30663670911326,2.30779692374357,2.3072468219792,2.30743685713416,2.30911716797806,2.30904715502623,2.3100373382021,2.30981729749635,2.31086749177379,2.30956725123982,2.31020736965655,2.31062744736752,2.3110975343298,2.31178766199783,2.31410809125846,2.31136758428686,2.31130757318529,2.31309790438206,2.31450816526891,2.31349797839252,2.3133979598899,2.31731868519234,2.31335795248886,2.31459818192126,2.31419810791081,2.31470820227413,2.31389805240297,2.31391805610349,2.31425811901237,2.35471560331937,2.3546555922178,2.31544833919347,2.35335535168383,2.3534153627854,2.35302529062521,2.32501010804328,2.34867448576154,2.35100491687242,2.35414549785447,2.3173786962939,2.31778877215462,2.31694861673267,2.3219295381628,2.31988916070949,2.31915902564042,2.32111938829163,2.31872894607918,2.32168949375653,2.32002918661315,2.31820884986559,2.31977914035662,2.32004919031367,2.31952909410008,2.3208693420351,2.32142944564973,2.32087934388536,2.31906900898806,2.31978914220688,2.31919903304146,2.32138943824869,2.31979914405714,2.320559284677,2.32478006548727,2.32261966583083,2.32138943824869,2.3217495048581,2.32225959922142,2.32184952336071,2.32196954556384,2.3224196288256,2.32165948820574,2.32424996742342,2.32466004328414,2.32371986935957,2.32868078708918,2.32318977129572,2.32399992116689,2.32488008398989,2.3237398730601,2.3248500784391
2.25972803138772,2.26020812020026,2.26192843844521,2.26203845879808,2.26635925811097,2.26438889360949,2.26432888250792,2.26494899722412,2.26551910268902,2.26622923405757,2.26608920815391,2.2692197872857,2.26752947459154,2.27012995565948,2.26966987054746,2.26976988905007,2.27080007962699,2.27168024244998,2.27166023874946,2.27260041267402,2.27353058474833,2.27396066430956,2.27551095110007,2.27815143956905,2.27709124344135,2.2782414562214,2.27834147472402,2.27831146917323,2.2794316764025,2.27843149137637,2.27862152653133,2.27945168010302,2.28003178741818,2.2814220446045,2.28289231659291,2.28188212971652,2.28503271254883,2.28294232584422,2.28436258858132,2.28547279396033,2.28433258303054,2.28570283651634,2.28536277360745,2.28685304929639,2.28998362842818,2.28748316586285,2.2875731825152,2.28754317696442,2.28895343785126,2.28883341564813,2.28992361732661,2.29081378199987,2.29077377459882,2.29141389301555,2.29188397997783,2.2927441391003,2.29340426121755,2.29386434632957,2.29356429082173,2.29638481259542,2.2961047607881,2.29427442219028,2.29413439628662,2.2944244499442,2.29608475708758,2.30002548609053,2.29817514379219,2.30088564521301,2.30024552679628,2.29699492546136,2.29704493471266,2.29722496801737,2.29787508828435,2.29870524185604,2.29872524555656,2.29911531771675,2.30297603191762,2.30111568776902,2.29997547683923,2.30067560635752,2.30234591535116,2.30259596160769,2.30284600786422,2.30289601711553,2.3076068885886,2.30335610222755,2.30395621324323,2.30353613553225,2.30473635756361,2.30414624839819,2.30446630760655,2.30572654073948,2.30585656479288,2.30748686638547,2.30655669431117,2.30672672576561,2.30735684233207,2.307736912642,2.30862707731526,2.30844704401055,2.30995732340001,2.31031739000942,2.30937721608486,2.31011735300419,2.31048742146386,2.31083748622301,2.31090749917484,2.31045741591308,2.31158762499261,2.31394806165427,2.31410809125846,2.31367801169722,2.31327793768677,2.31275784147318,2.31313791178311,2.31348797654225,2.31386804685218,2.31500825778197,2.31404808015689,2.31531831514007,2.31515828553589,2.31468819857361,2.31452816896943,2.31490823927936,2.3535453868388,2.35377542939481,2.35272523511737,2.35307529987651,2.32171949930731,2.32120940494398,2.35223514445456,2.32184952336071,2.35232516110692,2.35058483916145,2.35014475774995,2.36100676713373,2.36027663206466,2.3193690644959,2.32000918291263,2.31917902934094,2.32336980460043,2.32051927727595,2.32014920881629,2.32045926617439,2.31897899233571,2.32113939199216,2.31957910335139,2.32003918846341,2.32487008213962,2.32019921806759,2.32002918661315,2.32094935683719,2.32114939384242,2.32092935313667,2.32235961772404,2.32133942899738,2.32426997112394,2.32152946415235,2.32154946785287,2.32196954556384,2.32206956406646,2.32208956776698,2.32247963992717,2.32388990081402,2.32234961587377,2.32235961772404,2.32248964177743,2.32306974909259,2.32336980460043,2.32317976944546,2.32506011729459,2.32607030417098,2.32457002663178,2.32572023941183,2.32614031712281,2.32844074268291
2.26116829782535,2.26153836628502,2.26288861607029,2.26298863457291,2.26315866602735,2.26387879924616,2.26521904718118,2.26739945053814,2.2670993950303,2.26761949124389,2.26687935432456,2.26893973547839,2.26924979283649,2.27029998711392,2.27185027390443,2.27301048853474,2.27335055144362,2.27193028870652,2.27182026835364,2.27288046448134,2.2734605717965,2.27349057734728,2.27553095480059,2.27794140071356,2.27798140811461,2.27712124899214,2.27871154318368,2.2794316764025,2.28063189843386,2.27911161719414,2.2799217670653,2.28094195579196,2.28112198909666,2.28147205385581,2.28203215747044,2.28262226663586,2.2832323795018,2.28598288832366,2.28458262928707,2.28485267924413,2.28603289757496,2.28736314365972,2.28650298453724,2.28703308260109,2.28971357847112,2.28732313625867,2.28749316771311,2.288943436001,2.28915347485649,2.28946353221459,2.2901336561821,2.29089379680196,2.29211402253384,2.29309420385945,2.29351428157042,2.29326423531389,2.29276414280082,2.2947345073023,2.29556466087399,2.29738499762155,2.29520459426458,2.29543463682059,2.29635480704463,2.29580470528026,2.30044556380151,2.29813513639115,2.29784508273357,2.30020551939524,2.30131572477424,2.29774506423095,2.30002548609053,2.29934536027276,2.29837518079742,2.2993353584225,2.30031553974811,2.30117569887058,2.30031553974811,2.30288601526527,2.30317606892284,2.30231590980037,2.30382618918983,2.30796695519801,2.30700677757293,2.30380618548931,2.30748686638547,2.30387619844114,2.30411624284741,2.30550650003373,2.30469635016256,2.30493639456884,2.30586656664314,2.30674672946613,2.30692676277084,2.30713680162632,2.3096772715927,2.30829701625664,2.30865708286604,2.30876710321892,2.30934721053407,2.35201510374882,2.35353538498853,2.34660410275745,2.34702418046842,2.3485544635584,2.34885451906624,2.31128756948477,2.31173765274653,2.31179766384809,2.31254780261769,2.31271783407213,2.31380803575062,2.31407808570767,2.31444815416734,2.3124677878156,2.31637851126777,2.31404808015689,2.31697862228345,2.31479821892649,2.31570838730027,2.31513828183537,2.31658855012326,2.31789879250749,2.31596843540706,2.3615068596468,2.36071671347615,2.32385989526323,2.3252901598506,2.32101936978902,2.31990916441001,2.31979914405714,2.32028923471994,2.32013920696602,2.32180951595966,2.32280970098579,2.35581580684811,2.35811623240821,2.35871634342389,2.31893898493467,2.31938906819643,2.31987915885923,2.32195954371358,2.32003918846341,2.32494009509145,2.32082933463405,2.32048927172517,2.32239962512508,2.32061929577857,2.32085934018484,2.32114939384242,2.32122940864451,2.32163948450522,2.32138943824869,2.3210493753398,2.32242963067586,2.32262966768109,2.32371986935957,2.32600029121915,2.32215958071881,2.32163948450522,2.32256965657952,2.32289971763815,2.32235961772404,2.32250964547795,2.32548019500556,2.32372987120983,2.3237898823114,2.32436998962656,2.32588026901602,2.32486008028936,2.32526015429981,2.32556020980765,2.32737054470495,2.32552020240661,2.32693046329345,2.32756057985992,2.32776061686514
2.26109828487352,2.26194844214573,2.26254855316141,2.26397881774878,2.26556911194032,2.26469895096759,2.27006994455791,2.26664931176855,2.26847965036637,2.26729943203553,2.26816959300827,2.26839963556428,2.26913977248361,2.27040000561654,2.27079007777673,2.27089009627934,2.27260041267402,2.273900653208,2.27269042932638,2.27434073461949,2.27547094369902,2.27734128969789,2.27667116573038,2.27680118978377,2.27690120828639,2.27768135260677,2.27805142106644,2.27952169305485,2.28094195579196,2.28019181702236,2.27980174486217,2.28097196134274,2.28408253677401,2.28156207050816,2.28234221482854,2.2832823887531,2.28486268109439,2.2841625515761,2.28485267924413,2.28598288832366,2.28453262003577,2.28685304929639,2.28963356366903,2.28723311960632,2.28988360992557,2.28891343045022,2.28883341564813,2.28997362657792,2.28852335829003,2.29038370243863,2.29173395222391,2.29308420200918,2.29260411319664,2.29239407434115,2.29334425011598,2.29277414465108,2.29320422421232,2.29439444439342,2.29506456836092,2.29541463312007,2.2962347848415,2.29595473303418,2.29737499577129,2.29752502352521,2.29738499762155,2.29832517154611,2.29932535657224,2.29894528626231,2.30103567296693,2.30301603931866,2.32905085554885,2.33011105167655,2.29818514564245,2.29909531401623,2.30048557120255,2.30051557675334,2.30105567666745,2.30312605967154,2.30371616883696,2.30248594125481,2.30478636681492,2.30591657589444,2.30820699960428,2.30498640382014,2.30767690154043,2.30421626135002,2.30431627985263,2.33925274281539,2.30653669061064,2.31141759353816,2.30978729194557,2.30791694594671,2.30740685158338,2.30846704771108,2.31274783962292,2.30955724938956,2.31562837249817,2.33848260034526,2.31058743996647,2.34978469114054,2.35223514445456,2.34910456532277,2.34844444320553,2.34776431738776,2.34792434699194,2.34934460972905,2.3523551666577,2.35485562922303,2.31344796914121,2.31378803205009,2.31517828923642,2.31424811716211,2.31328793953703,2.31634850571699,2.31630849831594,2.31566837989922,2.31482822447727,2.31925904414303,2.31690860933162,2.31583841135366,2.3147682133757,2.36619772741935,2.36428737401944,2.36644777367588,2.35990656360499,2.32308975279311,2.32065930317961,2.32105937719006,2.32124941234503,2.32302974169154,2.32548019500556,2.32178951225914,2.32137943639843,2.32393991006532,2.32262966768109,2.35728607883652,2.358146237959,2.32027923286968,2.32074931983196,2.32189953261202,2.32116939754294,2.32120940494398,2.32077932538275,2.32136943454817,2.32089934758588,2.32075932168223,2.32128941974608,2.3213094234466,2.32022922361838,2.32184952336071,2.32226960107168,2.3226796769324,2.32154946785287,2.32224959737116,2.32305974724233,2.3233498008999,2.32341981385173,2.32430997852499,2.32313976204442,2.32204956036593,2.32155946970313,2.32271968433344,2.32446000627891,2.32430997852499,2.3275905854107,2.32474005808623,2.32615031897307,2.32701047809554,2.32730053175312,2.32639036337934,2.32582025791445,2.3266604133364,2.32630034672699,2.32786063536775,2.32862077598761,2.32882081299284
2.26258856056245,2.26463893986602,2.26327868823048,2.26544908973719,2.26515903607961,2.26725942463449,2.2666093043675,2.26822960410983,2.26794955230252,2.26734944128684,2.26907976138204,2.27490083823413,2.27440074572106,2.27189028130547,2.2715202128458,2.27293047373265,2.27657114722776,2.27389065135773,2.27614106766653,2.27584101215869,2.27614106766653,2.27626108986966,2.27679118793351,2.27738129709893,2.27848150062767,2.27812143401827,2.2783714802748,2.27977173931138,2.28030183737523,2.28000178186739,2.28060189288307,2.28202215562018,2.28177210936364,2.28291232029343,2.28391250531956,2.28370246646408,2.28456262558655,2.28338240725572,2.28429257562949,2.28645297528594,2.28568283281582,2.2867730344943,2.2873931492105,2.28753317511416,2.28869338974447,2.2899536228774,2.28874339899578,2.29052372834229,2.29149390781764,2.29043371168994,2.29312420941023,2.2922540484375,2.2928741631537,2.29220403918619,2.32172950115757,2.29366430932434,2.29385434447931,2.29487453320596,2.29467449620073,2.3254701931553,2.29632480149385,2.29755502907599,2.2970349328624,2.29879525850839,2.29971542873243,2.29818514564245,2.30206586354384,2.30120570442137,2.30100566741614,2.30496640011962,2.32805067052272,2.32844074268291,2.32807067422324,2.32812068347455,2.30726682567972,2.30302604116893,2.30262596715847,2.30391620584218,2.30519644267563,2.30397621694375,2.30521644637615,2.30418625579924,2.30588657034366,2.30758688488808,2.30679673871744,2.31112753988059,2.33714235241025,2.33602214518098,2.33781247637776,2.30997732710054,2.30935721238433,2.30905715687649,2.30928719943251,2.3099873289508,2.30953724568904,2.31289786737684,2.31571838915053,2.35451556631414,2.35586581609942,2.34997472629551,2.34895453756885,2.3146381893223,2.31764874625096,2.3181288350635,2.34701417861816,2.35505566622825,2.35462558666702,2.35406548305238,2.35383544049637,2.35502566067747,2.31511827813485,2.3147682133757,2.31583841135366,2.31616847241229,2.3190590071378,2.31692861303214,2.31744870924573,2.31665856307509,2.31576839840183,2.31619847796307,2.36558761455341,2.36611771261726,2.36595768301308,2.36686785138686,2.3222395955209,2.32282970468632,2.32225959922142,2.31875895162996,2.31961911075244,2.31952909410008,2.32097936238797,2.31989916255975,2.32147945490104,2.32131942529686,2.32392990821506,2.35650593451614,2.3690282510433,2.36843814187788,2.32256965657952,2.32009919956498,2.32320977499625,2.32524015059929,2.32206956406646,2.32159947710418,2.32250964547795,2.32226960107168,2.32168949375653,2.32118940124346,2.32488008398989,2.32369986565905,2.32213957701829,2.32263966953135,2.3237898823114,2.32397991746637,2.32332979719938,2.32492009139093,2.32381988786219,2.32318977129572,2.32510012469563,2.32356984160565,2.32443000072813,2.3243599877763,2.32504011359407,2.32475005993649,2.3257302412621,2.32508012099511,2.32933090735617,2.32650038373222,2.32712049844842,2.32782062796671,2.32730053175312,2.33089119599693,2.32986100542002,2.32943092585878,2.32849075193422,2.32811068162429
2.26257855871219,2.26356874188806,2.26424886770583,2.26689935802508,2.26442890101054,2.26950984094328,2.26643927291306,2.26809958005644,2.26788954120095,2.26971987979877,2.27014995936,2.27176025725207,2.2719602942573,2.27274043857768,2.27251039602167,2.27287046263108,2.27575099550634,2.27454077162472,2.27399066986035,2.2745207679242,2.27611106211574,2.27599103991261,2.27622108246862,2.27673117683195,2.27922163754701,2.27772136000781,2.28008179666948,2.28177210936364,2.28081193173856,2.28330239245362,2.28106197799509,2.281862126016,2.28182211861495,2.28271228328821,2.28392250716983,2.28446260708394,2.28475266074151,2.28552280321164,2.2869030585477,2.28638296233411,2.28594288092261,2.28639296418437,2.28792324727435,2.28958355441773,2.29260411319664,2.29067375609621,2.29433443329185,2.29018366543341,2.29176395777469,2.33242147908691,2.32439999517734,2.29332424641546,2.32149945860156,2.32056928652726,2.29430442774106,2.32116939754294,2.32168949375653,2.32212957516803,2.32288971578788,2.32333979904964,2.29678488660587,2.29748501612416,2.29856521595238,2.2985352104016,2.29904530476492,2.29861522520369,2.29930535287172,2.30016551199419,2.30195584319097,2.303756176238,2.32705048549659,2.3268404466411,2.32727052620234,2.32764059466201,2.30918718092989,2.3030060374684,2.30302604116893,2.30385619474061,2.30424626690081,2.30713680162632,2.30718681087763,2.30439629465472,2.3112275583832,2.3054364870819,2.30775691634252,2.30802696629958,2.3374924171694,2.33841258739344,2.33782247822802,2.30915717537911,2.3083070181069,2.30899714577493,2.30995732340001,2.31098751397693,2.31076747327118,2.31786878695671,2.3148982374291,2.35270523141685,2.35218513520326,2.34916457642434,2.34848445060657,2.31602844650863,2.31548834659452,2.31636850941751,2.3181288350635,2.35398546825029,2.35338535723461,2.35199510004829,2.35349537758749,2.35344536833618,2.31378803205009,2.31494824668041,2.31554835769608,2.32005919216393,2.31589842245523,2.31672857602692,2.31805882211167,2.3176387444007,2.31783878140592,2.31814883876402,2.3725689060358,2.36454742212623,2.36464744062885,2.36407733516395,2.32128941974608,2.31928904969381,2.31910901638911,2.31821885171585,2.3201192032655,2.32129942159634,2.32061929577857,2.32418995632185,2.32075932168223,2.32132942714712,2.32402992671767,2.37172875061385,2.374069183575,2.3749993556493,2.32306974909259,2.32321977684651,2.32359984715644,2.32260966398057,2.32218958626959,2.32269968063292,2.32293972503919,2.32426997112394,2.32396991561611,2.32331979534912,2.32282970468632,2.32279969913553,2.32244963437639,2.32419995817212,2.32475005993649,2.32384989341297,2.3237898823114,2.32438999332708,2.3250301117438,2.32551020055635,2.32445000442865,2.32520014319825,2.32540018020347,2.32564022460974,2.32572023941183,2.32541018205373,2.3257302412621,2.32553020425687,2.32544018760452,2.32605030047046,2.32611031157203,2.32567023016053,2.3311312404032,2.32822070197716,2.32863077783788,2.32905085554885,2.32853075933526,2.3303811016336
2.26444890471106,2.26371876964198,2.26449891396236,2.26563912489215,2.26703938392874,2.26581915819686,2.26734944128684,2.26700937837795,2.26800956340408,2.26909976508257,2.27076007222594,2.27102012033274,2.2725303997222,2.27174025355155,2.27244038306984,2.27310050518709,2.27274043857768,2.27416070131479,2.27577099920686,2.27446075682263,2.27677118423299,2.27738129709893,2.27834147472402,2.27845149507689,2.27939166900145,2.27935166160041,2.27932165604962,2.28025182812393,2.28034184477628,2.28211217227253,2.28276229253951,2.28267227588716,2.28395251272061,2.28606290312575,2.28402252567244,2.28417255342636,2.28494269589648,2.28546279211007,2.28636295863359,2.28749316771311,2.28660300303986,2.28746316216233,2.29130387266267,2.28962356181877,2.29089379680196,2.2915039096679,2.29223404473697,2.29399437038296,2.31908901268859,2.32960095731322,2.32956094991218,2.32548019500556,2.32917087775199,2.31929905154407,2.30001548424027,2.3014557506779,2.32119940309372,2.32151946230208,2.32305974724233,2.32480006918779,2.29786508643409,2.29787508828435,2.29795510308644,2.2984051863482,2.29886527146022,2.29991546573766,2.30012550459315,2.30100566741614,2.303756176238,2.30246593755429,2.3263503559783,2.32720051325051,2.32721051510077,2.33516198605851,2.30507642047249,2.30503641307145,2.30554650743478,2.30506641862223,2.30508642232276,2.30660670356247,2.30465634276152,2.30507642047249,2.30657669801169,2.3064966832096,2.30749686823573,2.31214772860724,2.33669226914849,2.34566392883288,2.33883266510441,2.30877710506918,2.31477821522596,2.3116676397947,2.311717649046,2.31098751397693,2.31242778041456,2.31315791548363,2.31462818747204,2.35237517035822,2.35028478365361,2.35169504454045,2.35230515740639,2.31447815971812,2.31703863338502,2.31677858527822,2.31744870924573,2.3535453868388,2.3631871704907,2.35485562922303,2.36414734811578,2.3623070076677,2.317688753652,2.31601844465836,2.31667856677561,2.32062929762883,2.31790879435775,2.32093935498693,2.31635850756725,2.32113939199216,2.31907901083833,2.37212882462431,2.37258890973633,2.36384729260794,2.36343721674723,2.36359724635141,2.31958910520165,2.31973913295557,2.3183888831703,2.32023922546864,2.31974913480583,2.3191890311912,2.32259966213031,2.32385989526323,2.3219795474141,2.32238962327482,2.32245963622665,2.36832812152501,2.3801703122344,2.37970022527212,2.37740980156228,2.32268967878266,2.32235961772404,2.32246963807691,2.32396991561611,2.32238962327482,2.32292972318893,2.32356984160565,2.32626033932595,2.3244099970276,2.32377988046114,2.32280970098579,2.32304974539207,2.32580025421393,2.3249801024925,2.3236098490067,2.32466004328414,2.32445000442865,2.32489008584015,2.32494009509145,2.32589027086628,2.32500010619302,2.32553020425687,2.32555020795739,2.32574024311236,2.32779062241593,2.32745055950704,2.32811068162429,2.32796065387037,2.32618032452386,2.32748056505782,2.32947093325983,2.32992101652158,2.32876080189127,2.32930090180538,2.32934090920643,2.33042110903465,2.33004103872472
2.26288861607029,2.26420886030479,2.26454892321367,2.26533906938431,2.26592917854973,2.26708939318004,2.26768950419572,2.26751947274128,2.27261041452429,2.27019996861131,2.2704600167181,2.27042000931706,2.27110013513483,2.27206031275991,2.27355058844885,2.27379063285512,2.27424071611688,2.27506086783831,2.27544093814824,2.27497085118595,2.2768712027356,2.27722126749475,2.27892158203917,2.28035184662654,2.28040185587785,2.28030183737523,2.28057188733229,2.2812420112998,2.28122200759927,2.28250224443272,2.28404252937296,2.28432258118028,2.28431257933002,2.28471265334047,2.28470265149021,2.28689305669743,2.28569283466608,2.28785323432252,2.28629294568176,2.28754317696442,2.28798325837592,2.288943436001,2.28962356181877,2.29066375424595,2.29129387081241,2.29546464237138,2.29273413725004,2.29475451100282,2.32676043183901,2.32683044479084,2.3260402986202,2.3271004947479,2.32814068717507,2.29854521225186,2.29923533991989,2.29707494026345,2.29814513824141,2.30025552864654,2.3213094234466,2.32258966028005,2.29817514379219,2.29862522705395,2.29894528626231,2.30133572847476,2.30046556750203,2.30404622989558,2.30091565076379,2.30139573957633,2.303756176238,2.3048163723657,2.32641036707986,2.32645037448091,2.32788063906828,2.33274153829527,2.30454632240864,2.30784693299488,2.30502641122119,2.30544648893216,2.30566652963791,2.30617662400124,2.3063166499049,2.30647667950908,2.30689675722005,2.30803696814984,2.31036739926073,2.31098751397693,2.34235331639639,2.33958280387401,2.31191768605123,2.30806697370063,2.31672857602692,2.31121755653294,2.30965726789217,2.31565837804896,2.3124677878156,2.311717649046,2.31444815416734,2.34967467078767,2.3508548891185,2.35108493167451,2.35286526102103,2.32023922546864,2.31575839655157,2.31610846131072,2.3171986629892,2.36231700951796,2.36151686149706,2.35457557741571,2.36327718714305,2.36263706872632,2.36394731111056,2.320559284677,2.32207956591672,2.31749871849704,2.31891898123415,2.31780877585514,2.31801881471063,2.32013920696602,2.37018846567361,2.37254890233528,2.36932830655114,2.36439739437232,2.36418735551683,2.32010920141524,2.31997917736184,2.32114939384242,2.31955909965087,2.31963911445296,2.32017921436707,2.32154946785287,2.3219795474141,2.32156947155339,2.32172950115757,2.32233961402351,2.32520014319825,2.37758983486698,2.37633960358432,2.37435923723258,2.37762984226803,2.32526015429981,2.32411994337003,2.32439999517734,2.3237898823114,2.32355983975539,2.32417995447159,2.32599028936889,2.32284970838684,2.32536017280243,2.32549019685582,2.32412994522029,2.32453001923074,2.32520014319825,2.32725052250181,2.32574024311236,2.32441999887786,2.32456002478152,2.32708049104737,2.32505011544433,2.32948093511009,2.32572023941183,2.32706048734685,2.32617032267359,2.32785063351749,2.32677043368927,2.32860077228709,2.33198139767541,2.32774061316462,2.32835072603056,2.32843074083265,2.32824070567768,2.32835072603056,2.33036109793308,2.33191138472358,2.33135128110895,2.33028108313099,2.33036109793308
2.26533906938431,2.26957985389511,2.26497900277491,2.26906975953178,2.26721941723344,2.26772951159677,2.26855966516846,2.2691697780344,2.27150020914528,2.27212032386148,2.27087009257882,2.2731505144384,2.27187027760495,2.27185027390443,2.27360059770016,2.27499085488648,2.27701122863926,2.27512087893987,2.27733128784762,2.27832147102349,2.27655114352724,2.27722126749475,2.27768135260677,2.27838148212506,2.28026182997419,2.27934165975015,2.2801818151721,2.28094195579196,2.282972331395,2.28394251087035,2.28570283651634,2.28402252567244,2.28623293458019,2.28484267739387,2.28759318621573,2.28604289942522,2.28579285316869,2.28666301414142,2.28789324172357,2.28900344710257,2.28932350631093,2.28908346190466,2.28910346560518,2.29129387081241,2.29281415205213,2.29370431672539,2.29753502537547,2.29516458686354,2.32406993411872,2.32446000627891,2.32738054655521,2.32570023571131,2.33271153274449,2.29762504202782,2.29794510123618,2.29829516599533,2.29735499207076,2.32121940679425,2.30059559155543,2.30193583949044,2.2995954065293,2.29954539727799,2.30011550274288,2.30085563966222,2.30081563226118,2.30029553604759,2.30389620214166,2.3035761429333,2.30218588574698,2.30448631130708,2.32550019870609,2.32711049659816,2.32787063721802,2.32974098321688,2.30526645562746,2.3063166499049,2.30652668876038,2.30732683678129,2.30805697185036,2.3076869033907,2.30534647042955,2.30710679607554,2.30836702920846,2.30807697555089,2.31032739185968,2.34160317762679,2.34391360503716,2.34452371790309,2.3440836364916,2.31220773970881,2.31088749547431,2.31275784147318,2.31169764534548,2.31447815971812,2.31374802464905,2.31474820967518,2.34859447095945,2.34918458012486,2.34999472999603,2.35115494462634,2.35157502233732,2.31710864633685,2.31554835769608,2.31714865373789,2.36713790134391,2.36279709833051,2.36104677453478,2.36244703357136,2.36340721119645,2.3635472371001,2.32127941789581,2.31903900343728,2.3173786962939,2.31933905894512,2.31829886651794,2.31921903674198,2.31955909965087,2.3202492273189,2.37044851378041,2.37000843236891,2.36992841756682,2.37137868585471,2.3685381603805,2.32160947895444,2.32145945120052,2.32152946415235,2.32181951780992,2.32326978609781,2.32567023016053,2.32662040593535,2.32257965842978,2.32268967878266,2.32277969543501,2.32229960662247,2.32494009509145,2.37593952957387,2.37629959618327,2.37651963688902,2.37697972200104,2.38155056757046,2.32740055025573,2.32491008954067,2.32583025976471,2.32522014689877,2.32466004328414,2.32515013394694,2.32473005623597,2.32487008213962,2.32621033007464,2.32546019130504,2.32539017835321,2.32706048734685,2.32662040593535,2.32564022460974,2.32712049844842,2.32806067237298,2.3290908629499,2.32551020055635,2.32659040038457,2.32750056875835,2.32679043738979,2.32662040593535,2.32859077043683,2.32842073898239,2.3292708962546,2.32969097396557,2.32841073713213,2.32773061131436,2.32842073898239,2.32954094621165,2.33135128110895,2.33166133846705,2.33124126075608,2.33182136807123,2.33264151979266,2.3328115512471
2.26593918039999,2.26520904533092,2.266169222956,2.26703938392874,2.26790954490147,2.2692197872857,2.26771950974651,2.26922978913596,2.273900653208,2.27102012033274,2.27189028130547,2.27168024244998,2.27331054404258,2.27441074757132,2.27484082713256,2.27295047743317,2.28383249051747,2.27627109171992,2.27747131375128,2.27734128969789,2.27730128229684,2.2788615709376,2.28003178741818,2.27981174671243,2.28224219632593,2.28014180777105,2.28048187067994,2.28115199464744,2.28360244796146,2.2839025034693,2.28411254232479,2.28480266999282,2.28467264593942,2.28578285131843,2.28768320286808,2.28734313995919,2.28644297343568,2.28674302894351,2.28707309000214,2.28945353036433,2.28844334348794,2.29067375609621,2.2905737375936,2.29180396517574,2.29227405213802,2.29361430007303,2.2964148181462,2.29593472933366,2.32317976944546,2.32308975279311,2.32464003958361,2.32677043368927,2.3282107001269,2.30240592645272,2.29834517524663,2.30022552309576,2.30018551569471,2.30013550644341,2.30024552679628,2.30230590795011,2.30467634646204,2.29967542133139,2.30155576918051,2.30068560820778,2.30152576362973,2.30333609852703,2.3038862002914,2.3032660855752,2.30320607447363,2.3052564537772,2.34233331269587,2.32665041148614,2.32776061686514,2.32882081299284,2.30635665730594,2.3053064630285,2.3072968312305,2.30654669246091,2.30744685898442,2.31019736780628,2.30645667580855,2.3110975343298,2.31128756948477,2.3087971087697,2.31407808570767,2.33983285013054,2.33262151609214,2.34065300185197,2.31223774525959,2.31172765089626,2.31163763424391,2.31286786182605,2.3150782707338,2.31726867594103,2.31508827258406,2.3152082947872,2.31509827443432,2.34894453571859,2.34969467448819,2.35011475219917,2.3535453868388,2.31535832254112,2.31590842430549,2.31690860933162,2.36369726485402,2.36469744988015,2.36375727595559,2.36176690775359,2.36197694660908,2.36315716493991,2.31896899048545,2.31798880915984,2.3219795474141,2.31813883691376,2.31846889797239,2.31992916811054,2.32065930317961,2.32326978609781,2.37077857483903,2.36982839906421,2.36962836205898,2.37009844902126,2.37001843421917,2.32283970653658,2.32220958997012,2.32111938829163,2.3217995141094,2.32278969728527,2.32353983605487,2.32330979349886,2.32154946785287,2.32348982680356,2.32528015800034,2.32459003033231,2.32553020425687,2.3836609579756,2.38245073409398,2.38314086176201,2.38126051391288,2.32628034302647,2.32785063351749,2.32393991006532,2.32348982680356,2.32423996557316,2.3275905854107,2.32651038558248,2.32477006363701,2.32630034672699,2.32667041518666,2.32564022460974,2.32608030602124,2.32784063166723,2.32822070197716,2.32603029676994,2.32693046329345,2.33137128480947,2.32915087405146,2.3286507815384,2.3275905854107,2.32687045219188,2.32740055025573,2.32773061131436,2.32809067792376,2.32859077043683,2.32936091290695,2.32968097211531,2.33111123670268,2.33006104242524,2.33031108868178,2.33112123855294,2.33089119599693,2.3300210350242,2.33142129406078,2.33346167151409,2.33145129961156,2.33278154569632
2.26578915264607,2.26597918780104,2.26706938947952,2.26672932657064,2.26755948014232,2.26639926551201,2.26970987794851,2.2704600167181,2.27161022949816,2.27224034606462,2.27164023504894,2.27259041082376,2.27450076422367,2.27463078827707,2.27567098070425,2.27654114167698,2.27668116758064,2.27730128229684,2.27723126934501,2.27650113427593,2.27963171340772,2.27935166160041,2.28120200389875,2.28076192248725,2.28145205015528,2.28179211306417,2.2834124128065,2.28679303819482,2.28307234989761,2.28484267739387,2.28502271069857,2.28574284391738,2.28658299933933,2.28617292347862,2.2881432879801,2.28777321952043,2.2901336561821,2.28831331943454,2.28773321211938,2.28997362657792,2.28911346745544,2.29126386526163,2.29077377459882,2.29417440368767,2.29266412429821,2.29405438148453,2.29481452210439,2.29717495876606,2.32262966768109,2.3237898823114,2.32414994892081,2.32557021165792,2.32711049659816,2.29935536212303,2.30182581913757,2.29909531401623,2.29831516969585,2.30086564151248,2.3002155212455,2.30088564521301,2.30149575807895,2.30151576177947,2.30195584319097,2.30140574142659,2.30272598566109,2.30423626505054,2.30438629280446,2.30365615773539,2.30704678497397,2.30595658329549,2.34089304625824,2.33961280942479,2.34273338670632,2.30591657589444,2.30736684418233,2.30516643712485,2.3066767165143,2.30788694039592,2.30885711987127,2.30808697740115,2.30814698850272,2.30927719758224,2.31013735670472,2.3084870514116,2.31156762129208,2.32926089440434,2.3303310923823,2.31301788957997,2.31456817637048,2.31833887391899,2.31330794323755,2.31480822077675,2.31346797284173,2.31555835954634,2.31523830033798,2.31777877030436,2.34836442840344,2.35825625831187,2.36015660986152,2.36642776997536,2.36741795315123,2.36041665796831,2.36328718899331,2.36372727040481,2.36390730370951,2.36228700396718,2.36236701876927,2.36255705392423,2.36232701136822,2.32060929392831,2.32115939569268,2.32202955666541,2.3199891792121,2.31976913850636,2.31971912925505,2.32039925507282,2.32383989156271,2.32376987861088,2.37011845272178,2.3708385859406,2.36971837871133,2.36967837131029,2.36989841201604,2.32488008398989,2.32288971578788,2.32167949190627,2.32330979349886,2.32280970098579,2.3234798249533,2.32459003033231,2.32468004698466,2.32446000627891,2.32473005623597,2.32523014874903,2.32592027641706,2.38042035849093,2.38489118555774,2.38293082290652,2.38009029743231,2.32900084629754,2.32567023016053,2.3249801024925,2.32506011729459,2.32441999887786,2.32610030972176,2.32643037078039,2.32619032637412,2.32739054840547,2.32919088145251,2.32798065757089,2.32801066312167,2.32875080004101,2.32813068532481,2.3287007907897,2.32873079634049,2.32877080374153,2.32842073898239,2.32823070382742,2.32838073158134,2.32855076303579,2.32973098136662,2.32768060206305,2.32863077783788,2.32923088885355,2.3297109776661,2.32995102207237,2.33093120339798,2.33045111458543,2.33073116639275,2.33150130886287,2.33337165486174,2.33230145688378,2.33227145133299,2.33253149943979,2.33273153644501,2.33301158825233
2.26606920445339,2.26664931176855,2.26587916929843,2.2678495337999,2.26944982984171,2.26971987979877,2.2696598686972,2.27157022209711,2.27074006852542,2.27095010738091,2.27407068466244,2.27405068096191,2.27471080307916,2.27557096220163,2.27760133780468,2.27707123974083,2.27763134335546,2.28267227588716,2.28280229994056,2.28275229068925,2.28011180222027,2.27981174671243,2.27998177816687,2.28102197059405,2.28199215006939,2.28095195764222,2.28394251087035,2.28654299193829,2.2848326755436,2.2858928716713,2.28578285131843,2.28570283651634,2.28610291052679,2.28608290682627,2.28691306039796,2.28754317696442,2.2873931492105,2.28888342489943,2.28964356551929,2.28917347855701,2.28966356921982,2.29123385971084,2.29235406694011,2.29209401883331,2.29277414465108,2.29458447954838,2.29518459056406,2.29813513639115,2.32541018205373,2.32514013209668,2.32489008584015,2.32734053915417,2.32850075378448,2.29865523260473,2.29872524555656,2.29937536582355,2.29932535657224,2.33701232835685,2.3000854971921,2.30100566741614,2.30082563411144,2.30348612628095,2.30119570257111,2.30301603931866,2.30258595975743,2.30239592460246,2.30307605042023,2.30425626875107,2.30789694224618,2.31086749177379,2.33881266140389,2.33840258554317,2.34228330344456,2.3103473955602,2.30736684418233,2.30809697925141,2.30632665175516,2.31108753247954,2.30953724568904,2.30901714947545,2.30993731969949,2.30950724013825,2.31193768975175,2.31282785442501,2.32993101837185,2.33008104612577,2.33368171221984,2.31222774340933,2.31242778041456,2.3170686389358,2.31156762129208,2.31341796359043,2.31475821152544,2.31723867039024,2.31579840395262,2.31622848351385,2.31702863153476,2.35687600297581,2.36211697251274,2.3633672037954,2.36370726670429,2.36246703727188,2.36142684484471,2.3618169170049,2.3622569984164,2.36233701321849,2.36222699286561,2.36232701136822,2.32146945305078,2.32075932168223,2.32125941419529,2.32206956406646,2.32098936423824,2.32323978054703,2.32080933093353,2.32310975649363,2.32278969728527,2.32263966953135,2.37727977750888,2.3731390115007,2.37181876726621,2.37040850637936,2.325420183904,2.32743055580652,2.32555020795739,2.32233961402351,2.32431998037525,2.32271968433344,2.32227960292194,2.32182951966019,2.32374987491036,2.32893083334571,2.32673042628823,2.32569023386105,2.32616032082333,2.38807177394083,2.3811004843087,2.38040035479041,2.38022032148571,2.32681044109032,2.32651038558248,2.32570023571131,2.32536017280243,2.32745055950704,2.3280306668222,2.33190138287332,2.32748056505782,2.32800066127141,2.32755057800965,2.32750056875835,2.32831071862951,2.32764059466201,2.32820069827664,2.3288308148431,2.32836072788082,2.33114124225346,2.32961095916348,2.3297109776661,2.32997102577289,2.3306411497404,2.33236146798534,2.32950093881061,2.32931090365564,2.3292708962546,2.33122125705555,2.33151131071313,2.33147130331209,2.33223144393195,2.33173135141888,2.3357320915234,2.33271153274449,2.33496194905328,2.33543203601557,2.33336165301147,2.33479191759884,2.3341818047329
2.26649928401463,2.26689935802508,2.2669193617256,2.27246038677037,2.27048002041863,2.27012995565948,2.27081008147725,2.27237037011801,2.27123015918823,2.27409068836296,2.27372061990329,2.27636110837228,2.27494084563517,2.27738129709893,2.27708124159109,2.27802141551565,2.27887157278786,2.27932165604962,2.27982174856269,2.28130202240136,2.2806719058349,2.2817321019626,2.28393250902009,2.28175210566312,2.28296232954474,2.28181211676469,2.2822221926254,2.28325238320232,2.28448261078446,2.28536277360745,2.28701307890057,2.2862029290294,2.2863329530828,2.28692306224822,2.28723311960632,2.2882733120335,2.28806327317801,2.28883341564813,2.29273413725004,2.29023367468471,2.29078377644908,2.29303419275788,2.29469449990126,2.2931842205118,2.29461448509916,2.29452446844681,2.2990253010644,2.29772506053043,2.29921533621937,2.32471005253544,2.32480006918779,2.3277206094641,2.32829071492899,2.29923533991989,2.29935536212303,2.29886527146022,2.29999548053975,2.33523199901034,2.33596213407941,2.30126571552294,2.30112568961928,2.3030060374684,2.30146575252816,2.30171579878469,2.30476636311439,2.30730683308077,2.30497640196988,2.30503641307145,2.30782692929435,2.34068300740275,2.33797250598194,2.3409030481085,2.34174320353045,2.30761689043887,2.30715680532685,2.30825700885559,2.30943722718642,2.30832702180742,2.311717649046,2.30949723828799,2.31094750657588,2.31204771010463,2.31266782482083,2.31302789143023,2.31420810976107,2.34684414716372,2.31306789883128,2.31174765459679,2.31833887391899,2.31478821707622,2.31514828368563,2.31346797284173,2.3198091459074,2.31539832994216,2.32089934758588,2.31588842060497,2.35570578649524,2.36265707242685,2.35779617319985,2.36121680598922,2.36132682634209,2.36244703357136,2.36337720564566,2.36327718714305,2.36297713163521,2.36327718714305,2.36452741842571,2.32009919956498,2.32249964362769,2.32489008584015,2.32018921621733,2.32017921436707,2.32118940124346,2.32318977129572,2.32286971208736,2.32227960292194,2.32678043553953,2.32621033007464,2.37954019566794,2.37519939265453,2.38155056757046,2.37613956657909,2.37565947776655,2.3271505039992,2.32546019130504,2.32477006363701,2.32875080004101,2.32549019685582,2.32431998037525,2.32479006733753,2.33139128851,2.32520014319825,2.3283907334316,2.32791064461906,2.38396101348344,2.38558131322577,2.38381098572952,2.38394100978291,2.38071041214851,2.32884081669336,2.33124126075608,2.32699047439502,2.32606030232072,2.32683044479084,2.32652038743274,2.32797065572063,2.32717050769972,2.32694046514371,2.3287007907897,2.32795065202011,2.33098121264928,2.32908086109963,2.33044111273517,2.33152131256339,2.33079117749432,2.32959095546296,2.32926089440434,2.32984100171949,2.32964096471427,2.33021107017916,2.33185137362202,2.33139128851,2.33102122005033,2.33430182693604,2.33455187319257,2.3326315179424,2.33336165301147,2.33169134401784,2.33329164005965,2.33394176032663,2.3341818047329,2.33553205451818,2.3356820822721,2.33551205081766,2.33532201566269,2.33563207302079
2.26692936357586,2.26824960781036,2.26818959670879,2.26930980393805,2.27065005187307,2.27263041822481,2.27137018509188,2.27441074757132,2.27359059584989,2.2753209159451,2.27585101400895,2.27612106396601,2.27709124344135,2.27711124714187,2.2776213415052,2.27739129894919,2.28002178556792,2.27991176521504,2.27993176891556,2.28024182627366,2.28151206125685,2.28119200204849,2.28105197614483,2.28169209456155,2.28440259598237,2.28289231659291,2.28445260523368,2.2863329530828,2.28585286427026,2.28618292532888,2.28594288092261,2.28606290312575,2.28671302339273,2.28980359512348,2.28944352851407,2.28841333793715,2.29313421126049,2.2904437135402,2.29118385045954,2.29245408544272,2.29128386896215,2.29344426861859,2.29477451470335,2.29557466272425,2.29489453690648,2.29587471823209,2.2965948514509,2.29609475893784,2.34246333674927,2.32530016170086,2.32627034117621,2.32739054840547,2.32846074638343,2.33924274096512,2.34325348291991,2.34222329234299,2.34509382336799,2.33928274836617,2.34218328494195,2.30348612628095,2.30467634646204,2.30447630945682,2.30321607632389,2.30336610407781,2.30514643342432,2.30466634461178,2.30576654814052,2.30952724383878,2.30728682938024,2.34001288343524,2.34101306846138,2.33955279832322,2.34084303700693,2.31121755653294,2.30846704771108,2.30868708841683,2.3116676397947,2.30973728269426,2.30960725864087,2.31218773600828,2.31194769160201,2.31158762499261,2.31208771750567,2.31170764719574,2.34933460787878,2.34461373455545,2.34711419712077,2.31602844650863,2.31739869999443,2.31404808015689,2.31545834104373,2.31556836139661,2.31618847611281,2.31773876290331,2.31953909595035,2.31987915885923,2.35392545714872,2.35597583645229,2.35933645814009,2.36224699656613,2.36149685779654,2.36021662096309,2.36190693365725,2.36280710018077,2.36271708352842,2.36327718714305,2.36339720934618,2.36413734626552,2.3198091459074,2.32078932723301,2.31870894237866,2.32209956961724,2.32359984715644,2.32297973244024,2.32203955851567,2.32276969358475,2.32555020795739,2.32810067977403,2.37816994218214,2.3776098385675,2.37637961098536,2.37930015126167,2.37980024377473,2.32632035042751,2.3275905854107,2.3252901598506,2.32722051695103,2.32521014504851,2.32476006178675,2.32807067422324,2.32681044109032,2.32643037078039,2.32643037078039,2.32700047624528,2.38379098202899,2.38294082475678,2.38186062492856,2.38268077664999,2.38204065823326,2.3837109672269,2.33162133106601,2.32949093696035,2.32967097026505,2.3275905854107,2.32965096656453,2.32884081669336,2.32964096471427,2.33187137732254,2.3291408722012,2.3297109776661,2.32986100542002,2.3297609869174,2.33032109053204,2.33066115344092,2.3297609869174,2.33065115159066,2.3303310923823,2.33071116269223,2.3314412977613,2.33145129961156,2.33458187874335,2.33349167706487,2.3321914365309,2.33297158085128,2.33365170666905,2.33364170481879,2.33361169926801,2.33419180658316,2.33335165116121,2.33505196570564,2.33488193425119,2.33503196200511,2.33522199716008,2.33647222844274,2.33696231910555,2.33806252263429
