1.81564, 1.86473, 1.81317, 1.81724, 1.81148, 1.81404, 1.81201, 2.06644, 1.80965, 1.81013, 1.81327, 1.81048, 1.81031, 1.80957, 1.80787, 1.89229, 1.80622, 1.80721, 1.80658, 1.80639, 1.80794, 1.80559, 1.90903, 1.90926, 1.91022, 1.8036, 1.80447, 1.80293, 1.80239, 1.80225, 1.80183, 1.98526, 1.80255, 1.80348, 1.91345, 1.89911, 1.80065, 1.90756, 1.80188, 1.80043, 1.79965, 1.80077, 1.80308, 1.80285, 1.8061, 1.98896, 1.80776, 1.8733, 1.95421, 1.94911, 1.87331, 1.95472, 2.03373, 1.95223, 1.94938, 1.9501, 1.95855, 1.94851, 1.94801, 1.86988, 1.95927, 1.9591, 1.86899, 1.96003, 1.9423, 1.94195, 1.94207, 1.94125, 1.94151, 2.03867, 1.93973, 1.96557, 1.94113, 1.96473, 2.04163, 1.94147, 1.94062, 1.94038, 1.96562, 1.86774, 1.86779, 1.86938, 2.0545, 1.96786, 1.96824, 1.95798, 2.06015, 1.96231, 2.06043, 1.94471, 1.94685, 2.04559, 1.94483, 2.02272, 2.04206, 2.02336, 1.94631, 1.94495, 2.02307, 2.02378, 2.02688, 2.02454, 2.02569, 2.03196, 2.04046, 2.02818, 2.04245, 2.04469, 1.95167, 2.041, 2.0399, 2.03987, 2.05543, 2.03359, 2.05185, 1.95795, 2.03604, 2.036, 2.04476, 2.04515, 2.03758, 1.96203, 2.03861, 2.05528, 1.96428, 2.04824, 2.05814, 1.96614, 2.0448, 2.04808, 2.04856, 2.05462, 2.04691, 1.9673, 2.06537, 2.06414, 2.05324, 2.07169, 2.04875, 1.96611, 1.96614, 2.04535, 2.05983, 2.05364, 1.96702, 1.96592, 1.96594, 1.97029, 1.96711, 1.96949, 2.05591, 2.05239, 2.0513, 2.07877, 2.08073, 1.9096, 1.91022, 1.908, 1.90983, 1.95838, 1.9585, 1.90512, 2.00954, 2.00293, 2.09806, 2.11397, 1.91099, 1.91176, 1.9109, 1.91241, 2.08407, 1.91344, 1.91208, 2.12113, 2.08725, 1.913, 1.91292, 1.91298, 2.10404, 1.91098, 1.91395, 2.10852, 1.91113, 1.90994, 1.9093, 1.9114, 1.90999, 1.90971, 2.08169, 2.07709, 2.09403, 2.07926, 1.91059, 2.08378, 2.08558, 1.83812, 1.83824, 1.83257, 1.94375, 1.93799, 1.93827, 1.82769, 1.82718, 1.82176, 1.99307, 1.81693, 1.82026, 1.94366, 1.9205, 1.81448, 1.94813, 1.91356, 1.81251, 1.90818, 1.8135, 1.9448, 1.80717, 1.80822, 1.80513, 1.80699, 1.80683, 1.80607, 1.80987, 1.8065, 1.80423, 1.80444, 1.80419, 1.80378, 1.93535, 1.80553, 1.92745, 1.89623, 1.80255, 1.93077, 1.80114, 1.92306, 1.79996, 1.85206, 1.92459, 1.9218
1.818, 1.81846, 1.81397, 1.814, 1.81503, 2.09056, 1.81214, 2.06897, 2.09381, 2.0939, 1.81196, 2.0652, 1.81269, 1.81215, 1.81043, 1.89378, 1.90435, 1.80997, 1.80723, 1.89585, 2.06507, 1.80817, 1.80562, 1.8049, 1.80646, 1.80495, 1.90976, 1.80416, 1.80612, 1.90335, 1.80285, 1.80341, 1.80461, 1.9012, 1.80384, 1.80545, 1.80105, 1.80182, 1.80266, 1.80343, 1.80239, 1.80482, 2.08803, 1.80437, 1.80598, 1.80662, 1.8065, 1.8761, 1.87502, 1.95488, 1.87509, 1.87336, 1.95438, 1.95025, 1.95852, 1.94847, 1.95162, 1.95439, 1.9443, 1.95548, 1.94501, 1.95872, 1.94417, 1.94575, 1.96219, 1.94184, 1.94139, 1.93847, 1.96228, 2.04074, 2.04154, 1.96596, 1.9403, 1.94122, 1.9415, 1.9376, 1.86497, 1.86438, 1.94325, 1.94413, 1.96959, 1.94749, 1.94551, 2.0707, 1.95469, 1.95952, 1.95918, 1.97277, 2.04838, 2.02945, 2.02931, 2.03413, 2.03025, 2.03756, 2.02028, 1.94631, 1.94542, 2.02775, 2.02345, 2.02569, 2.02688, 1.94769, 2.0259, 2.04458, 2.03053, 2.03392, 2.04186, 2.04515, 2.06556, 2.0182, 2.04182, 2.02951, 2.03454, 2.03516, 2.03883, 2.04428, 2.0739, 1.96011, 2.03883, 2.06698, 1.96146, 2.07665, 2.04121, 1.96554, 2.05446, 2.04818, 2.05221, 2.0403, 2.0512, 2.05824, 2.05019, 1.96706, 2.04252, 2.05159, 2.07005, 2.07746, 2.05398, 2.05662, 2.054, 2.06195, 1.96753, 2.05547, 2.05171, 2.04251, 1.96761, 1.96896, 1.96694, 1.96777, 1.96698, 2.04963, 2.05258, 2.04739, 2.06916, 2.07014, 1.90872, 2.0795, 1.90929, 1.90782, 1.9579, 2.00923, 2.09478, 1.9073, 1.90971, 1.90748, 1.90672, 1.90705, 1.90963, 1.91148, 1.91138, 1.91151, 1.91391, 2.10149, 2.11476, 1.91526, 1.91144, 2.00006, 2.09087, 1.91143, 1.91095, 2.08208, 1.9131, 1.91313, 2.08121, 2.08665, 1.90926, 2.08097, 2.1007, 2.10504, 1.90762, 1.91007, 1.90708, 1.90943, 2.08773, 1.90772, 1.90761, 1.83476, 1.83437, 1.83224, 1.93508, 1.94107, 1.83094, 1.83009, 1.82417, 1.82441, 1.82026, 1.8192, 1.86862, 1.86584, 1.92397, 1.81531, 1.81267, 1.90823, 1.86132, 1.8135, 1.81089, 1.94724, 1.9455, 1.80695, 1.94353, 1.80833, 1.93783, 1.94214, 1.80674, 1.93985, 1.80515, 1.94254, 1.80506, 1.93825, 1.93738, 1.93353, 1.80544, 1.80422, 1.80408, 1.80234, 1.92806, 1.92565, 1.80282, 1.79894, 1.92789, 1.85186
1.81898, 1.81756, 1.81459, 1.81614, 1.81637, 1.81639, 1.816, 1.81457, 1.81343, 1.81089, 2.08052, 2.07596, 1.81209, 1.81042, 1.81115, 1.90912, 1.81053, 1.80834, 1.91273, 1.80836, 2.07606, 1.80513, 2.0668, 1.80822, 1.80431, 1.80654, 1.80318, 1.9107, 1.90784, 1.8067, 1.80698, 1.80437, 1.85477, 1.85536, 1.85673, 1.8548, 1.85429, 1.8032, 1.8023, 1.80246, 1.80365, 1.80659, 2.07991, 1.80667, 1.80688, 1.80689, 1.80986, 1.87579, 1.87573, 1.95567, 1.94815, 1.94842, 1.9481, 1.94921, 1.95454, 1.95216, 1.95653, 1.86997, 1.94636, 1.86968, 1.94562, 1.94445, 1.94242, 1.94494, 1.94467, 1.94189, 1.94032, 1.94115, 1.94115, 1.96197, 1.86152, 1.93846, 1.93874, 1.93908, 1.96601, 1.9419, 2.04468, 1.94007, 1.94328, 1.94252, 1.97001, 1.94572, 1.8725, 1.94922, 1.96965, 1.95603, 1.88343, 1.9719, 2.05948, 2.04645, 2.02136, 1.9471, 1.9486, 2.03012, 1.94545, 1.94657, 1.94785, 2.02743, 2.02597, 2.02579, 2.02749, 2.03122, 2.02806, 2.02517, 2.02748, 2.0454, 1.95214, 2.04567, 1.9523, 1.95238, 1.95452, 2.04095, 2.04996, 2.05875, 2.05081, 2.04901, 1.9593, 1.96057, 1.96099, 1.9609, 2.03956, 2.03935, 2.03809, 2.03833, 2.03983, 2.04506, 2.04198, 2.04342, 2.04168, 2.0522, 1.96678, 2.06304, 2.03918, 2.03861, 2.051, 2.05262, 2.0421, 2.0409, 2.04181, 1.96818, 2.05434, 2.04131, 2.04354, 2.0417, 2.04124, 1.96839, 1.96713, 1.96739, 1.9693, 1.96906, 2.04502, 2.04816, 2.06869, 2.06346, 1.90994, 1.91073, 1.90777, 1.90962, 1.90739, 2.01343, 2.00512, 1.90911, 1.91075, 1.90941, 1.90682, 1.91027, 1.91049, 1.91356, 1.91175, 1.91295, 1.9105, 1.91263, 1.91352, 1.99884, 1.91344, 1.91314, 1.91343, 1.91367, 1.91218, 1.91265, 1.91228, 1.91097, 2.08416, 1.90955, 1.90963, 2.09783, 1.90614, 1.91027, 1.90864, 1.90606, 1.9065, 1.90755, 1.908, 2.08837, 1.90625, 1.90626, 1.83543, 1.83514, 1.8344, 1.93834, 1.94119, 1.827, 1.82472, 1.82332, 1.82164, 1.8192, 1.86995, 1.81634, 1.81603, 1.81393, 1.81429, 1.81418, 1.81089, 1.94105, 1.81066, 1.94364, 1.81005, 1.80866, 2.0213, 1.80434, 1.80717, 1.8045, 1.80579, 1.9439, 1.80569, 1.85444, 1.80401, 2.13176, 1.93588, 1.80079, 1.80563, 1.85451, 1.80392, 1.80548, 1.92914, 1.93043, 1.80384, 1.80325, 1.93174, 1.80231
1.92465, 1.92301, 1.86858, 1.81789, 1.93012, 1.86599, 1.8165, 1.81509, 2.087, 1.81368, 1.81531, 1.91112, 1.81267, 1.81294, 1.90943, 1.81044, 1.81047, 1.81029, 1.81008, 1.81232, 1.81138, 1.80777, 1.85848, 1.8088, 1.91059, 1.8083, 1.80731, 1.91028, 1.91295, 1.91024, 1.80674, 1.86355, 1.85512, 1.80763, 1.80754, 1.85684, 1.85436, 1.85464, 1.80438, 1.80599, 1.80442, 1.8061, 1.8064, 1.8069, 1.80887, 1.81022, 1.80966, 2.03199, 1.87872, 1.87534, 1.95378, 1.9554, 1.95294, 1.95134, 1.94988, 1.95026, 1.94968, 1.9473, 1.94516, 1.95876, 1.94889, 1.95809, 1.86786, 1.96041, 1.86706, 1.94183, 1.96207, 1.94057, 1.94074, 1.94138, 1.96477, 2.04984, 1.94001, 1.86311, 1.93938, 1.86401, 1.86491, 1.94372, 2.04534, 1.94265, 1.94592, 1.94531, 2.0482, 1.9507, 1.95254, 1.95572, 1.97047, 1.97005, 2.07973, 1.94302, 2.02464, 2.04443, 2.0418, 2.02721, 2.02491, 2.03421, 1.94856, 1.94835, 2.02846, 2.03071, 1.94749, 2.02684, 2.02505, 1.95141, 2.02908, 2.05486, 2.05476, 2.04104, 2.03991, 1.95469, 1.95536, 2.05159, 2.04447, 2.0583, 2.05783, 2.02716, 1.95962, 2.05522, 1.96179, 2.05734, 2.04033, 2.05405, 2.05277, 2.04482, 2.04105, 2.03991, 2.04524, 2.04676, 2.0499, 2.0588, 2.05322, 1.96812, 2.05598, 2.04265, 2.04319, 2.04513, 2.0449, 2.05255, 2.05687, 2.05655, 2.05282, 2.04518, 2.0455, 2.04496, 1.9687, 2.04522, 1.96959, 1.96988, 1.96944, 1.9687, 2.06932, 2.07281, 1.97179, 1.91297, 1.90959, 1.95978, 2.06578, 1.96, 1.9579, 2.0086, 1.90783, 2.08479, 1.90935, 1.90743, 1.90903, 1.91209, 1.91369, 2.00672, 1.90792, 1.9113, 1.91369, 1.91353, 2.08748, 1.91343, 1.9633, 2.0947, 1.91469, 1.91307, 1.9616, 1.98655, 1.91122, 1.91034, 1.90973, 1.90878, 2.11017, 1.90894, 1.90796, 1.90761, 1.9095, 1.90851, 1.906, 1.90909, 1.95624, 1.90562, 1.90523, 1.88877, 1.88704, 1.8842, 1.83233, 1.82885, 1.9443, 1.94431, 1.82502, 1.93787, 1.9407, 1.93884, 1.93598, 2.01435, 1.8156, 1.8139, 1.94072, 1.91885, 1.95461, 1.81304, 1.80931, 1.91356, 1.81032, 1.94141, 1.80633, 1.92066, 1.91952, 1.94165, 1.94219, 1.80315, 1.85457, 1.85608, 1.85606, 1.80609, 1.92345, 1.93683, 1.80423, 1.92817, 1.80329, 1.80322, 1.92884, 1.80411, 1.80336, 1.80136, 1.80274, 1.92246
1.86999, 1.82113, 1.81862, 1.87033, 1.81898, 1.90071, 1.81871, 1.817, 1.81618, 1.81635, 1.81352, 1.81579, 2.06852, 1.81262, 1.81247, 1.81078, 1.81395, 1.81325, 1.80771, 1.80937, 1.81164, 1.81163, 1.85938, 1.8125, 1.80673, 1.91346, 1.80717, 1.80746, 1.80716, 1.98995, 1.80753, 1.80567, 1.85795, 1.89742, 1.80608, 1.80742, 1.80616, 1.80698, 1.80607, 1.99227, 1.98723, 1.80616, 1.8579, 1.80819, 1.80848, 1.81013, 1.81262, 2.03444, 1.88225, 1.87635, 1.87519, 1.87633, 1.96117, 1.95521, 1.95132, 1.95857, 2.03583, 1.94755, 1.94635, 1.94783, 1.94774, 1.95921, 2.04148, 1.86621, 1.94486, 1.96381, 1.96323, 1.94085, 1.94076, 1.94068, 1.96541, 1.93964, 2.0442, 1.86559, 1.96824, 1.94095, 1.94169, 1.94414, 1.94329, 1.94135, 1.94573, 1.9479, 1.95014, 1.87614, 1.87999, 1.88137, 1.96325, 2.05214, 2.05617, 2.02481, 2.03551, 2.02437, 2.02419, 2.02437, 2.04541, 2.02321, 1.9494, 1.95123, 1.94624, 1.95188, 2.02762, 2.02573, 2.02734, 2.02818, 2.04602, 1.95072, 2.04457, 2.05282, 2.04179, 2.04654, 2.05049, 2.042, 1.95651, 2.05241, 2.03729, 2.04932, 2.05229, 2.03785, 2.03816, 2.06238, 2.03993, 2.04128, 2.06309, 2.05489, 2.04264, 2.04276, 2.04508, 2.05669, 2.05517, 2.05676, 1.96822, 2.05362, 2.05881, 2.04497, 2.04423, 2.04466, 2.04506, 2.04523, 2.04404, 2.04352, 2.05566, 2.05293, 2.05816, 2.04245, 2.04302, 1.97165, 1.96853, 1.96829, 1.96894, 2.04771, 2.07654, 1.97159, 2.04862, 1.91418, 1.91218, 1.90801, 1.91024, 2.01059, 2.00991, 1.90981, 2.09008, 2.00727, 1.90858, 1.9099, 1.90991, 1.96436, 1.90806, 2.01017, 2.0832, 1.9112, 2.09807, 1.91056, 1.91048, 1.91467, 1.91493, 1.91333, 2.09495, 1.96407, 1.96248, 1.98892, 1.987, 1.91062, 1.9095, 1.90789, 1.91087, 1.91045, 1.90884, 2.11021, 1.91037, 1.90862, 1.90742, 1.95654, 1.95727, 1.98731, 1.95495, 1.88804, 1.83759, 1.92341, 1.83155, 1.82913, 1.82764, 1.82496, 1.87378, 1.82334, 1.8204, 1.821, 1.81829, 1.81722, 1.81695, 1.81186, 1.81374, 1.86178, 1.81262, 1.86254, 1.86111, 1.80835, 1.94064, 1.80747, 1.80707, 1.92312, 1.93723, 1.80792, 1.80496, 1.80703, 1.85551, 1.80447, 1.80325, 1.85508, 1.85265, 1.80637, 1.93466, 1.80326, 1.80231, 1.80429, 1.85988, 1.80009, 1.80337, 1.80122, 1.80067, 1.89801
1.82082, 1.82368, 1.81842, 1.81974, 1.82045, 1.81832, 1.81834, 1.81688, 1.8174, 1.81821, 1.91077, 1.9167, 1.9151, 1.81541, 1.81655, 1.81139, 1.81511, 1.81385, 1.81342, 2.07594, 1.81428, 1.80942, 1.8099, 1.81026, 1.81091, 1.91372, 1.80978, 1.81151, 1.88672, 1.9039, 1.80771, 1.80955, 1.85887, 1.85767, 1.8095, 1.80883, 1.80831, 1.80856, 1.80494, 1.80711, 1.80641, 1.80803, 1.80999, 1.81311, 2.0799, 1.81062, 1.8129, 2.03416, 2.03845, 1.8733, 1.95187, 1.95467, 1.9542, 1.95686, 1.95648, 1.95827, 1.94835, 1.94661, 1.94761, 1.94949, 1.9591, 1.9445, 1.94487, 1.94471, 1.94489, 1.86829, 1.96656, 1.96694, 1.94354, 1.94141, 1.9721, 2.05912, 1.94205, 1.96925, 1.86475, 1.96846, 1.94127, 1.94451, 1.94283, 1.97189, 1.94855, 1.94929, 1.9709, 1.95148, 1.87949, 1.88256, 1.9617, 1.97021, 2.06426, 1.90643, 1.94561, 2.02476, 2.03886, 2.02599, 2.02492, 2.02394, 2.02581, 1.94824, 1.94878, 2.0254, 2.03081, 2.02771, 2.053, 2.04559, 1.95106, 1.95155, 2.0457, 1.95157, 2.0311, 2.05175, 2.02517, 2.04834, 2.05169, 2.04644, 2.04139, 1.9584, 2.0481, 2.05299, 2.05299, 1.96206, 2.04799, 1.96453, 2.04104, 2.05172, 2.04425, 2.0414, 2.04277, 2.04283, 2.0417, 2.05266, 2.05507, 2.06122, 1.96643, 1.96975, 2.05431, 2.04532, 2.04534, 2.04477, 2.05125, 1.96849, 2.04226, 2.05466, 2.06894, 2.04327, 2.04148, 1.96866, 1.96963, 1.96894, 2.04867, 2.04705, 2.05192, 2.07929, 2.04973, 1.96222, 1.90992, 2.09379, 1.91081, 1.91204, 1.9773, 2.08693, 2.0072, 1.90943, 1.90736, 1.90651, 1.96548, 1.9656, 1.96562, 2.00301, 1.90977, 1.91093, 1.91249, 1.91171, 1.91055, 1.91022, 1.90726, 1.91468, 1.91254, 1.91106, 1.90954, 2.07325, 1.96191, 2.0834, 2.08706, 1.95922, 1.96004, 1.95865, 1.90836, 2.07908, 2.08012, 2.08073, 1.90687, 1.95474, 1.90516, 1.90529, 1.9562, 1.97236, 1.92256, 1.92491, 1.83197, 1.93499, 1.89382, 1.87591, 1.87293, 1.82104, 1.8707, 1.82028, 1.93875, 1.93699, 1.938, 1.81359, 1.86496, 1.93974, 1.81156, 1.86155, 1.86139, 1.8095, 1.93095, 1.80885, 1.94487, 1.94522, 1.80419, 1.80908, 1.80689, 1.94203, 1.85604, 1.80635, 1.8534, 1.8549, 1.80309, 1.93789, 1.93502, 1.9292, 1.86537, 1.86252, 1.85929, 1.93137, 2.11356, 1.8018, 1.80009, 1.80093
1.82305, 1.82389, 1.8209, 1.91728, 1.82028, 1.82023, 1.82063, 1.81863, 1.81649, 1.82017, 1.81797, 1.91981, 1.92159, 1.81837, 1.86409, 1.86435, 1.8136, 1.80998, 1.81261, 1.81339, 1.81087, 1.86129, 1.81346, 1.92931, 1.81271, 1.81245, 1.80973, 1.81103, 1.90789, 1.91017, 1.80805, 1.85778, 1.8595, 1.85938, 1.85839, 1.80739, 1.85765, 1.86028, 1.85961, 1.91198, 1.80964, 1.80979, 2.0675, 1.81031, 1.81126, 1.81066, 1.86461, 1.95551, 1.95627, 1.87865, 1.95834, 1.95286, 1.95857, 1.95826, 1.95885, 1.87467, 1.95166, 2.03638, 1.94794, 1.86891, 1.94511, 1.94552, 1.94391, 1.94487, 1.86736, 1.86809, 1.94283, 1.94321, 1.96568, 1.96585, 1.94287, 1.9394, 1.96658, 1.94419, 1.86527, 1.94144, 1.94295, 1.94218, 1.97338, 1.94532, 1.94665, 1.87423, 1.97294, 1.87611, 1.95561, 1.88235, 1.97268, 2.05659, 2.06732, 2.04347, 1.94903, 2.02191, 2.02554, 2.02589, 2.02741, 1.94726, 1.94822, 1.94881, 1.94819, 2.02674, 2.03197, 2.03105, 2.03732, 2.04211, 2.04813, 2.02921, 2.02778, 2.02819, 2.03111, 2.0551, 2.03064, 2.03169, 2.03738, 2.04954, 2.04134, 2.05067, 2.04631, 2.04288, 2.04834, 2.05646, 2.03936, 2.04123, 2.04108, 2.04247, 2.04658, 2.0695, 2.05199, 2.05202, 2.05513, 2.0515, 2.03901, 2.04692, 2.06107, 2.04666, 2.05562, 2.05497, 2.05544, 2.04498, 2.05225, 2.05184, 2.0447, 2.0428, 2.04562, 2.04518, 2.0449, 2.04519, 1.96997, 1.96905, 1.96921, 2.04802, 1.96897, 2.04802, 2.04877, 1.96327, 1.90969, 1.90957, 2.07915, 1.91008, 1.91078, 2.00675, 2.00492, 1.90796, 2.08613, 1.90661, 1.90751, 1.99962, 1.96717, 1.90978, 1.91016, 1.91211, 1.91202, 1.91085, 2.10264, 1.913, 1.90983, 1.91312, 1.91103, 1.99347, 1.90983, 1.96243, 1.95959, 2.08724, 1.90977, 1.96141, 1.95887, 1.95845, 1.95633, 1.90701, 2.08035, 1.90734, 1.90603, 1.9553, 1.9543, 1.95483, 1.95527, 1.922, 1.97326, 1.88129, 1.87985, 1.82793, 1.8269, 1.825, 1.82209, 1.87241, 1.87173, 1.87014, 1.81512, 1.8164, 1.86901, 1.86785, 1.93777, 1.81352, 1.86217, 1.92374, 1.81017, 1.80938, 1.80875, 1.80772, 1.80822, 1.80498, 1.93739, 1.80658, 1.80426, 1.80359, 1.80291, 1.85539, 1.85793, 1.80437, 1.80479, 1.80427, 1.80323, 1.80138, 1.80322, 1.80408, 1.80298, 1.93153, 1.80479, 1.92892, 1.80092, 1.92178
1.87471, 1.87308, 1.87329, 1.99, 1.82289, 2.09248, 1.81965, 1.8188, 2.07203, 2.07293, 1.81895, 1.81489, 1.81664, 1.81623, 1.86539, 1.81732, 1.86504, 1.86735, 1.81371, 1.8152, 1.81589, 1.81235, 1.9047, 1.81261, 1.81267, 1.81299, 1.91621, 1.8116, 1.90046, 1.81096, 1.81015, 1.81188, 1.8083, 1.8084, 1.80859, 1.80819, 1.81053, 1.85838, 1.8081, 1.91047, 2.06931, 1.81003, 1.81048, 1.81021, 1.81014, 1.81136, 1.9544, 1.95786, 2.03911, 1.95986, 1.95768, 1.9523, 1.88178, 1.8755, 1.95758, 1.87548, 1.96124, 1.94865, 1.94816, 1.94934, 1.94744, 1.9621, 1.94748, 1.96553, 1.9452, 2.06849, 1.94478, 1.94485, 1.96847, 1.9422, 1.93874, 1.96903, 1.96694, 1.9407, 1.94101, 1.93795, 1.94216, 1.94306, 2.06033, 1.9461, 1.94835, 1.97271, 1.97435, 1.95343, 1.95593, 1.97271, 1.97048, 1.97496, 2.05911, 2.05219, 2.03968, 2.03457, 1.94843, 2.02674, 2.04134, 2.02789, 2.02756, 1.94836, 1.94932, 2.0271, 2.03145, 2.02816, 2.02705, 2.03154, 2.02903, 2.02791, 2.0374, 2.03179, 2.02946, 2.04218, 2.04488, 2.03194, 2.03442, 2.04039, 2.04226, 2.05144, 2.04307, 2.04577, 2.04528, 2.04631, 2.04497, 2.0472, 2.04238, 2.04923, 2.05138, 2.04121, 2.04593, 1.96693, 2.0444, 2.05874, 2.04177, 2.04422, 2.04504, 1.96885, 1.96916, 2.05268, 2.05984, 2.04518, 2.04521, 2.06307, 2.04463, 2.04648, 2.04577, 2.04512, 2.04491, 1.96934, 1.96911, 2.04888, 2.05155, 2.04791, 2.061, 2.07347, 2.0722, 1.91358, 1.91196, 1.91182, 2.08105, 2.09148, 1.90858, 1.90862, 1.90953, 2.08266, 1.90887, 1.90897, 1.90875, 2.00594, 1.90775, 1.96515, 1.9112, 1.99641, 1.91199, 1.96481, 1.91436, 1.91019, 1.9103, 1.91675, 2.09945, 1.91167, 1.91049, 1.96235, 2.10214, 2.10404, 1.91098, 1.95828, 1.95854, 1.90676, 1.90688, 1.90709, 2.09491, 2.0859, 1.90615, 1.90658, 1.95527, 1.96904, 1.95498, 1.83457, 1.83397, 1.8286, 1.88158, 1.89899, 1.93254, 1.92979, 1.82138, 1.82142, 1.81947, 1.8704, 1.81776, 1.81502, 1.814, 1.81453, 1.81314, 1.81062, 1.89562, 1.86113, 1.80807, 1.94218, 1.80922, 1.80698, 1.80671, 1.80239, 1.80679, 1.80461, 1.94845, 1.80313, 1.80282, 1.93577, 1.8655, 1.80384, 1.94147, 1.80568, 1.8053, 1.8024, 1.80343, 1.80302, 1.91736, 1.803, 1.93017, 1.93085, 1.80496, 1.80284
1.88363, 1.88483, 1.82619, 1.82426, 1.82419, 1.82097, 1.8235, 1.82148, 1.81862, 1.82373, 2.07521, 1.81868, 1.81782, 1.81952, 1.81817, 1.81685, 1.91422, 1.81688, 1.81756, 1.8161, 1.81842, 1.81615, 1.81486, 1.93557, 1.81139, 1.81276, 1.92063, 1.91832, 1.81147, 1.81191, 1.81104, 1.91694, 1.99658, 1.9145, 1.80823, 1.81025, 1.90228, 1.8119, 1.80969, 1.81197, 1.92372, 1.91421, 1.8925, 1.81164, 1.90405, 1.81486, 1.9882, 1.8789, 1.88021, 1.95767, 1.95955, 1.96145, 2.03816, 1.95553, 1.96199, 1.94963, 1.94903, 1.94878, 2.04408, 2.05183, 2.04872, 1.96477, 1.96525, 1.94481, 1.94533, 1.96813, 1.94245, 1.96991, 1.96779, 1.94296, 2.05227, 2.04824, 2.04718, 1.94165, 2.04834, 2.07303, 1.86641, 1.8679, 1.86812, 1.86941, 1.94884, 1.94687, 1.95185, 2.05187, 1.87924, 1.96116, 1.88613, 2.06177, 2.05026, 2.02809, 2.04538, 1.94846, 2.03521, 2.04013, 2.0486, 2.02704, 2.02848, 1.94993, 1.95155, 2.02702, 2.02856, 2.03418, 1.95154, 2.02865, 2.02934, 2.04263, 2.02869, 2.03489, 2.03156, 2.03134, 2.03291, 2.03422, 2.0338, 1.95986, 2.04109, 2.03853, 2.03543, 2.04427, 2.04459, 2.04112, 2.04911, 2.06638, 2.04333, 1.96484, 2.05481, 2.07185, 2.04549, 2.05825, 2.05166, 2.051, 2.06031, 2.04556, 2.06672, 2.0562, 2.04943, 2.05674, 2.06512, 2.04821, 2.04968, 2.0449, 1.96895, 2.04601, 2.06589, 2.04797, 1.96996, 2.04849, 1.97013, 2.04873, 2.05124, 2.04702, 2.04859, 1.97212, 2.04862, 1.91343, 1.91358, 1.91317, 1.91177, 1.91006, 1.90691, 1.96102, 1.90692, 1.91057, 1.90923, 1.90864, 1.90687, 1.908, 1.90825, 1.90902, 1.96014, 1.91302, 1.91155, 1.99575, 1.99441, 1.91326, 1.91044, 2.10799, 1.91361, 1.91227, 1.91323, 1.90993, 1.90979, 2.09407, 1.90679, 1.95947, 1.959, 1.96845, 1.95826, 1.90721, 1.90688, 1.90503, 1.90443, 1.9043, 1.95598, 1.90373, 1.90252, 1.83309, 1.8337, 1.82988, 1.82973, 1.82674, 1.82486, 1.82347, 1.82102, 1.82172, 1.89604, 1.81794, 1.86573, 1.86713, 1.94905, 1.81175, 1.93781, 1.81242, 1.89463, 1.86109, 1.93892, 1.80859, 1.81018, 1.85933, 1.80755, 1.80614, 1.93968, 1.80289, 1.8051, 1.805, 1.8021, 1.9364, 1.80539, 1.80419, 1.80342, 1.80249, 1.80452, 1.80133, 1.80292, 1.92383, 1.91984, 1.80171, 1.92846, 1.92754, 1.92751, 1.92389
1.82516, 1.82408, 1.82388, 1.82698, 1.82571, 1.82336, 1.87277, 1.87308, 1.82118, 1.81849, 1.9195, 1.81799, 1.82049, 1.81823, 1.91796, 2.09114, 1.91072, 1.81598, 1.81788, 1.81716, 1.81826, 1.8181, 1.81736, 1.81536, 1.81554, 1.81492, 1.81445, 1.81312, 1.91424, 1.81387, 1.9162, 2.08479, 1.81084, 1.81279, 1.81118, 1.81309, 1.81289, 1.91376, 1.8111, 1.81107, 1.91359, 1.91464, 1.81442, 1.81391, 1.81559, 1.81583, 1.81518, 1.95527, 1.87995, 1.87895, 1.95319, 1.94919, 1.95905, 1.95607, 1.95189, 1.96168, 1.95142, 1.87172, 1.94823, 2.05846, 1.96415, 1.94743, 1.96546, 2.05479, 1.86834, 1.94775, 1.94416, 1.9424, 2.05344, 1.96884, 1.86464, 2.0624, 2.0629, 1.97237, 1.86626, 1.97371, 1.9416, 1.94256, 1.94522, 1.97257, 1.94796, 1.94857, 1.97501, 1.97614, 1.97556, 1.96217, 1.97467, 1.97138, 2.07664, 1.90948, 1.94999, 2.02696, 2.02658, 1.95089, 2.03762, 2.03752, 1.94999, 1.94977, 2.03069, 2.03063, 2.02958, 2.02854, 2.04206, 2.04184, 2.04077, 2.03069, 2.03457, 2.03388, 2.04843, 2.04815, 1.95588, 2.03529, 2.04614, 1.96078, 2.04622, 1.95966, 2.03565, 2.04543, 2.03768, 1.96465, 2.05194, 2.0479, 2.04884, 2.04977, 2.0502, 2.04924, 2.04376, 2.06247, 2.05081, 2.06163, 1.96687, 2.04821, 2.04864, 2.05242, 2.05703, 2.05711, 2.05577, 2.05615, 2.04482, 2.06104, 2.0561, 2.06561, 2.04827, 2.04735, 2.04641, 2.04817, 2.0478, 2.05119, 2.0499, 2.04955, 2.06771, 2.06735, 2.04908, 2.04902, 1.91444, 1.91034, 1.91448, 1.90614, 1.90837, 1.96201, 1.90796, 1.90755, 1.91002, 2.08526, 2.08661, 1.90969, 1.91086, 1.91113, 1.91107, 1.90882, 1.99462, 1.96309, 1.96253, 1.90839, 1.91094, 2.09346, 2.09291, 1.91257, 1.91296, 2.09626, 1.91069, 1.91058, 1.91035, 1.90876, 1.96058, 2.09948, 1.90732, 1.90507, 1.90853, 1.90335, 2.09177, 1.90469, 1.90417, 1.90332, 1.90326, 1.8339, 1.83113, 1.83063, 1.82749, 1.82579, 1.82464, 1.82423, 1.82137, 1.82001, 1.9134, 1.93001, 1.81644, 1.81338, 1.8161, 1.81333, 1.81328, 1.93478, 1.81066, 1.88674, 1.81086, 1.80935, 1.92423, 1.859, 1.9391, 1.93648, 1.80464, 1.93944, 1.8063, 1.93666, 1.80305, 1.80265, 1.8045, 1.80534, 1.80283, 1.80591, 1.80571, 1.80521, 1.80637, 1.85416, 1.92397, 1.80426, 1.80296, 1.93112, 1.80207, 1.92571
1.82721, 2.09991, 1.8237, 1.87493, 1.8753, 1.82336, 1.87378, 1.87399, 1.82193, 1.82131, 1.92003, 1.82041, 1.819, 1.81901, 1.81771, 1.8195, 1.82065, 1.82056, 1.8179, 1.81869, 1.8198, 1.82028, 1.81581, 1.81801, 1.91832, 1.9207, 1.9183, 1.91388, 1.81503, 1.81645, 1.81134, 1.81123, 1.90613, 1.81306, 1.81354, 1.81576, 2.08728, 1.91365, 1.9167, 1.92382, 1.81297, 1.86188, 1.81407, 1.81548, 1.81609, 1.81802, 1.81441, 1.95638, 2.04051, 1.95895, 1.95565, 1.87963, 1.95953, 1.95559, 2.04392, 1.95136, 1.95099, 1.9651, 1.96547, 1.94867, 1.94727, 1.96697, 1.86884, 1.86896, 1.86833, 1.94422, 1.96615, 1.94206, 1.97025, 1.94185, 1.9445, 1.9428, 1.94098, 1.94236, 1.94185, 1.9422, 1.97163, 1.86782, 1.97436, 1.87195, 1.9473, 1.94957, 1.95169, 1.9546, 1.97648, 1.88304, 1.97847, 1.97933, 2.04806, 2.04202, 2.02805, 1.95158, 2.02742, 2.04044, 1.94942, 2.04472, 1.95175, 1.95187, 1.95163, 1.95181, 1.95198, 2.0256, 2.02598, 2.04237, 2.02961, 2.03028, 2.04805, 2.0304, 1.95468, 2.06551, 2.03454, 2.04267, 2.03915, 2.05276, 2.04579, 2.0426, 1.96177, 2.05063, 2.03814, 2.05881, 1.966, 1.96641, 2.04248, 2.0423, 2.05434, 2.05195, 2.04701, 2.04528, 2.04594, 1.96873, 2.04547, 2.04383, 1.97087, 1.96978, 2.04852, 2.04636, 1.96952, 2.04779, 2.07008, 2.04753, 2.05315, 1.96934, 2.04729, 2.07233, 1.9702, 2.04736, 2.05112, 2.0488, 2.05238, 2.05075, 2.06434, 2.04878, 2.04945, 1.9724, 1.91001, 1.96371, 1.91122, 1.90802, 1.99812, 1.90655, 1.96477, 1.90792, 1.90733, 1.90737, 2.09041, 1.91259, 1.90779, 1.96762, 2.00766, 2.00529, 1.90967, 1.91399, 2.09459, 2.1012, 2.11049, 2.10493, 2.08366, 2.09387, 1.91029, 1.90905, 1.90913, 1.97142, 2.08126, 1.90791, 1.90734, 1.90676, 1.9076, 1.90624, 2.08648, 2.1042, 2.08073, 2.0947, 1.90074, 1.9015, 1.90304, 1.82958, 1.83157, 1.82838, 1.82677, 1.82346, 1.82373, 1.93563, 1.86919, 1.82049, 1.81717, 1.81805, 1.81514, 1.81523, 1.81487, 1.81353, 1.91015, 1.93712, 1.81091, 1.80957, 1.85854, 1.80973, 1.80942, 1.8094, 1.80675, 1.80688, 1.8044, 1.80679, 1.80435, 1.80601, 1.80393, 1.80479, 1.9352, 1.80252, 1.90412, 1.93492, 1.80439, 1.93214, 1.9207, 1.8555, 1.80637, 1.92843, 1.80093, 1.8028, 1.92665, 1.91152
1.8282, 1.82926, 1.82678, 1.82766, 1.8276, 1.87615, 1.90724, 1.82449, 1.82394, 1.82228, 1.8212, 1.82409, 1.82234, 1.82075, 1.81859, 1.99972, 1.86838, 1.81981, 2.0754, 1.81959, 1.81989, 1.82027, 1.81843, 1.81938, 1.91748, 1.8139, 1.81432, 1.81346, 1.81457, 1.91707, 1.92082, 1.81096, 1.91375, 1.81485, 1.81397, 1.91626, 1.81344, 1.81412, 1.81297, 1.8152, 1.81467, 1.8137, 1.8161, 1.81617, 2.09726, 1.81687, 2.03724, 1.95925, 2.04084, 2.04127, 1.96172, 1.96249, 2.04145, 1.96149, 2.05803, 1.87588, 2.05701, 1.97228, 1.96707, 2.04129, 1.94984, 1.94756, 1.94622, 1.87165, 1.94646, 1.94788, 1.94447, 1.86835, 1.86852, 1.94433, 1.94112, 1.94262, 1.94364, 1.94458, 1.86624, 1.94394, 1.8689, 1.86875, 2.06619, 2.06445, 1.94998, 1.97609, 2.05413, 1.95824, 1.97855, 1.96214, 1.97534, 1.97557, 2.05246, 2.03152, 2.02745, 2.02749, 2.02787, 1.94937, 2.04223, 2.03055, 1.94964, 1.95172, 1.95203, 1.95016, 1.951, 1.9509, 2.02807, 2.02676, 2.02948, 2.03259, 2.03234, 2.03235, 2.03437, 2.03477, 2.04136, 2.04481, 2.04914, 2.05886, 2.05765, 2.04808, 2.04963, 2.05196, 2.03822, 2.03823, 1.9647, 1.96484, 2.06478, 2.06086, 2.04171, 1.96695, 2.05725, 1.97198, 1.96869, 2.06728, 2.04475, 2.04547, 2.04879, 2.05183, 2.04561, 2.06255, 2.06478, 2.07198, 2.05251, 2.04862, 2.05801, 1.97025, 2.06216, 2.0618, 1.97152, 2.04658, 1.97176, 1.97245, 1.97185, 2.05305, 1.9737, 2.05116, 2.05584, 1.9145, 2.00116, 2.07617, 2.08359, 1.91037, 1.90966, 1.96597, 1.96899, 1.9091, 1.9068, 1.90933, 1.90711, 2.00141, 1.91006, 1.9687, 1.96666, 1.96803, 1.91186, 1.91091, 1.91105, 1.91316, 2.09997, 1.91147, 1.91077, 2.09648, 1.91281, 1.91112, 1.95936, 2.07815, 2.08954, 1.90797, 1.90738, 1.90538, 1.99272, 1.99064, 1.90725, 1.90293, 1.90284, 2.09908, 1.90366, 1.90185, 1.89989, 1.83195, 1.83009, 1.94292, 1.94065, 1.93462, 1.8236, 1.82416, 1.82165, 1.82037, 1.8204, 1.93182, 1.93115, 1.81676, 1.93651, 1.81336, 1.9374, 1.9318, 1.80724, 1.81053, 1.81046, 1.85774, 1.8077, 1.93802, 1.80679, 1.80608, 1.80498, 1.80351, 1.80437, 1.93826, 1.80338, 1.80358, 1.80327, 1.80214, 1.80059, 1.80397, 1.93424, 1.93135, 1.80126, 1.80269, 1.85533, 1.85307, 1.92904, 1.92641, 1.89741, 1.92625
1.91569, 1.89614, 1.83038, 1.83023, 1.89615, 1.82779, 1.82975, 1.82439, 1.87543, 1.8238, 1.82541, 1.92401, 1.82145, 1.82142, 1.82054, 1.82225, 1.82364, 1.86965, 1.82093, 1.81908, 1.81954, 1.91789, 1.91958, 1.81728, 1.94521, 1.91016, 1.92378, 1.91648, 1.91397, 1.92043, 1.812, 1.81523, 1.81543, 1.81643, 1.91758, 1.91858, 1.91976, 1.81375, 1.81668, 1.81601, 1.81479, 1.81376, 1.99297, 1.81671, 1.818, 1.81728, 2.07232, 1.88217, 1.88168, 1.96182, 1.95895, 2.04455, 2.04831, 1.95531, 2.04196, 1.96528, 1.964, 1.87781, 1.96687, 2.04138, 1.95205, 1.94907, 1.94808, 1.96855, 1.86903, 1.86986, 2.06784, 1.94413, 2.05982, 1.94387, 1.97335, 1.9447, 1.94349, 1.86705, 1.94415, 1.94476, 1.97682, 1.97543, 1.94728, 1.94865, 1.95027, 1.95092, 2.05555, 1.97667, 1.95942, 1.88383, 1.96477, 2.05493, 2.05231, 2.0659, 2.04658, 2.02826, 1.95148, 1.95164, 1.95225, 2.03135, 2.03205, 2.0314, 1.95367, 1.94984, 1.94786, 1.95042, 2.03954, 2.04018, 2.03096, 2.03066, 1.95485, 2.04927, 2.03556, 2.0348, 2.05225, 2.04652, 1.95889, 2.05073, 2.05031, 2.03798, 1.9647, 2.04194, 2.04144, 2.03801, 2.0417, 1.96619, 2.06376, 2.06894, 2.05301, 2.06171, 1.96867, 2.05259, 2.04604, 2.06841, 2.0472, 2.06933, 2.04417, 2.07013, 2.06978, 2.05712, 2.04798, 2.06529, 2.06843, 2.04939, 2.04577, 1.97142, 2.06301, 2.05984, 2.05068, 2.04887, 1.97229, 1.97303, 2.05516, 2.04925, 2.05134, 2.05503, 2.06882, 1.91412, 1.9139, 1.99953, 1.91175, 1.90971, 1.90956, 1.90918, 1.95761, 1.90679, 1.90699, 2.0038, 1.9074, 1.90857, 1.90899, 1.96813, 1.96726, 1.96753, 1.91249, 1.91187, 1.91048, 1.96504, 1.9119, 2.09652, 2.08839, 1.91013, 2.0962, 1.91129, 2.01017, 1.90955, 1.90912, 2.08385, 1.90692, 1.90702, 1.99248, 1.99278, 1.99656, 1.90245, 1.9063, 1.90181, 1.90363, 1.89972, 1.89984, 1.83168, 1.83049, 1.93577, 1.93402, 1.82446, 1.87324, 1.87289, 1.81945, 1.88902, 1.9354, 1.93096, 1.81652, 1.92673, 1.81681, 1.81555, 1.9347, 1.9321, 1.811, 1.80991, 1.80915, 1.80874, 1.80748, 1.93364, 1.93685, 2.00903, 1.805, 1.80697, 1.80494, 1.98789, 1.80414, 1.8049, 1.80002, 1.80249, 1.80376, 1.80302, 1.80366, 1.80282, 1.80315, 1.91549, 1.80373, 1.80409, 1.93112, 1.92798, 1.92746, 1.80336
1.83117, 1.83096, 1.83135, 1.83075, 1.82702, 1.82854, 1.88768, 1.82652, 1.87837, 1.82584, 1.82502, 1.82335, 1.82495, 1.82418, 1.82194, 1.92694, 1.82389, 1.82132, 1.91544, 1.82054, 1.82032, 1.82081, 1.90681, 1.81686, 1.81886, 1.81655, 1.81787, 1.8169, 1.86788, 1.81615, 1.81681, 1.81761, 1.81417, 1.81691, 1.91903, 1.81506, 1.81468, 1.86533, 1.81755, 1.81683, 1.81644, 1.81655, 1.81636, 1.81709, 1.99215, 1.81867, 1.81905, 1.88261, 2.04143, 1.96566, 2.04715, 2.04674, 1.96537, 1.96568, 1.87676, 1.95277, 1.87736, 1.96496, 1.95177, 1.96737, 2.05263, 1.9481, 1.87036, 1.94737, 1.86869, 1.86863, 2.06483, 2.05971, 1.94451, 2.06599, 1.86838, 1.97522, 1.97449, 1.94302, 1.97573, 1.9455, 1.97501, 1.94428, 1.94617, 1.94827, 1.97842, 1.95209, 2.05567, 1.97935, 1.97704, 1.97903, 1.96692, 1.89361, 2.07387, 2.02977, 2.03971, 1.95281, 2.04508, 2.0284, 2.0282, 1.95187, 2.03304, 2.03146, 1.95176, 1.95123, 1.95204, 1.95317, 2.03558, 2.03045, 2.04902, 1.95457, 2.04837, 2.04932, 2.04533, 1.95736, 2.05207, 1.95792, 2.03491, 2.04999, 1.96035, 1.96184, 2.06473, 2.04183, 2.06905, 2.06831, 2.0385, 2.05962, 2.04884, 2.05528, 1.96301, 2.04488, 2.05076, 2.06319, 2.06184, 2.0521, 1.97015, 2.04274, 2.04217, 2.04325, 2.06031, 2.05591, 2.05555, 2.04972, 2.04747, 1.97194, 2.05866, 2.06264, 2.04847, 2.04896, 2.05174, 2.0501, 2.05368, 2.05207, 2.05187, 2.05202, 2.05783, 2.04891, 2.07432, 2.06758, 1.91526, 1.91232, 1.91135, 2.0093, 1.90743, 1.90782, 1.95887, 1.95836, 1.90784, 1.90925, 1.90759, 1.90639, 1.90875, 1.99874, 1.96791, 1.96883, 1.91131, 2.1006, 2.11478, 1.90956, 1.90965, 1.91141, 1.91009, 1.91338, 2.10011, 1.91015, 1.99315, 1.90996, 1.91107, 1.90811, 1.95707, 1.90542, 1.90563, 1.90265, 1.99911, 2.09668, 1.90393, 1.90341, 1.90102, 1.90114, 1.83491, 1.83015, 1.82856, 1.82796, 2.1322, 1.82325, 1.87516, 1.86984, 1.82028, 1.93037, 1.8693, 1.81697, 1.9313, 1.92925, 1.81368, 1.81112, 1.81483, 1.929, 1.81099, 1.93142, 1.93043, 1.93172, 1.90604, 1.90509, 1.93284, 2.00754, 1.80585, 1.80647, 1.9332, 1.93538, 1.94067, 1.93924, 1.80279, 1.8064, 1.80422, 1.80325, 1.8034, 1.91676, 1.80282, 1.80395, 1.9149, 1.85392, 1.80271, 1.80431, 1.80298, 1.92514
1.83185, 1.82837, 1.83364, 1.83286, 1.82753, 1.83006, 1.82753, 1.82888, 1.82689, 1.82899, 1.8268, 1.82386, 1.82496, 1.82654, 1.8225, 1.82463, 2.11041, 1.81791, 1.82311, 1.82247, 1.91709, 1.87099, 1.82003, 1.82075, 1.82098, 1.82021, 1.81866, 1.81803, 1.92395, 1.92365, 1.87648, 1.81655, 1.91871, 1.89293, 1.81854, 2.07549, 1.92083, 1.81602, 1.81841, 1.81763, 1.92037, 1.81667, 1.81676, 1.81769, 1.82, 1.98218, 1.81893, 1.96577, 2.04243, 2.05218, 2.04237, 1.95802, 2.05146, 1.95655, 2.04534, 1.96252, 1.95303, 1.95245, 1.96688, 1.87559, 1.94979, 1.9498, 1.94865, 1.97386, 1.94824, 1.97265, 1.97388, 1.94545, 1.94624, 1.94437, 1.94531, 1.86764, 1.9446, 1.9431, 1.94281, 1.94734, 1.97602, 1.94531, 1.94764, 1.94994, 1.95297, 1.95308, 1.95459, 1.95528, 1.88307, 1.97692, 1.96818, 1.97341, 2.08094, 2.05553, 2.02695, 2.03046, 2.03099, 1.9523, 2.03017, 2.03224, 2.02966, 2.02809, 1.95306, 1.95251, 1.95428, 2.03208, 2.04271, 2.05304, 2.03761, 2.04417, 1.95535, 1.95524, 2.03404, 1.95821, 1.95913, 1.95824, 2.04399, 2.04838, 2.03644, 2.04129, 2.0629, 2.04226, 2.04139, 2.03971, 2.04885, 1.96662, 2.05853, 2.05564, 2.04802, 2.05272, 2.05973, 2.05878, 2.05253, 1.96948, 1.96911, 2.04624, 2.04588, 1.96963, 2.04939, 2.04953, 2.05521, 2.04792, 2.05818, 2.04815, 2.04792, 2.04808, 2.04956, 2.05269, 2.05186, 2.05042, 2.0558, 2.05147, 2.0536, 2.05462, 2.04955, 2.06116, 2.06665, 2.06936, 2.08173, 1.91309, 2.08026, 1.91125, 1.90963, 1.9066, 1.9096, 1.90674, 1.90673, 1.90957, 1.90979, 1.90721, 1.90952, 1.90852, 1.90872, 1.90756, 2.11792, 2.10372, 1.91264, 1.91168, 1.91034, 1.91131, 1.91293, 1.91311, 2.08103, 2.09435, 1.91204, 1.91058, 1.90926, 1.9077, 1.99578, 1.95775, 1.9065, 2.09038, 1.90622, 1.90569, 1.90444, 1.90169, 1.90287, 1.9009, 1.90249, 1.83106, 1.83, 1.82498, 1.82393, 1.82125, 1.87271, 1.9318, 1.8711, 1.8716, 1.8167, 1.86805, 1.86541, 1.86586, 1.86611, 1.86386, 1.81452, 1.81336, 1.81252, 1.93511, 1.90097, 1.98579, 1.90263, 1.90015, 1.93494, 1.93244, 1.90309, 1.80496, 1.80872, 1.80609, 1.80554, 1.80376, 1.80576, 1.80015, 1.92168, 1.92048, 1.91802, 1.85322, 1.85452, 1.80279, 1.80442, 1.85488, 1.80417, 1.8026, 1.80144, 1.80603
1.83433, 1.83398, 1.83045, 1.83006, 1.8308, 1.83088, 1.8307, 1.83031, 1.82769, 1.82808, 1.83004, 1.82603, 1.82744, 1.8254, 1.92983, 1.92378, 1.82465, 1.82584, 1.82134, 1.82533, 1.87136, 1.87246, 1.82108, 1.82228, 1.82051, 1.87139, 1.81957, 1.81984, 1.82077, 1.81951, 1.91795, 1.81731, 1.81775, 1.86999, 1.81949, 1.92118, 1.92129, 1.81746, 1.81727, 1.81883, 1.8683, 1.81982, 1.81846, 1.8185, 1.81775, 1.97917, 1.87175, 1.9688, 2.04209, 2.05213, 2.04938, 2.05102, 1.87924, 2.05256, 1.97258, 1.87824, 1.87872, 1.96963, 1.87757, 1.95127, 1.95083, 2.04815, 1.97457, 1.97619, 1.94827, 1.94833, 1.86875, 1.97594, 2.05287, 1.8697, 1.97647, 1.9758, 1.97597, 1.86697, 1.9436, 1.86789, 1.94455, 2.06545, 1.94708, 1.87269, 1.95163, 2.06605, 2.07359, 2.07565, 1.96166, 1.96268, 1.97689, 2.05502, 2.05721, 2.0318, 2.04642, 2.04556, 2.0309, 2.03228, 2.02945, 1.95134, 2.03522, 1.95442, 1.954, 1.9522, 1.9532, 1.9531, 2.04443, 1.95454, 2.04463, 2.03031, 2.04144, 2.03131, 2.03968, 2.03627, 2.05005, 2.04851, 2.07275, 1.96192, 2.04534, 2.05982, 2.03925, 1.96224, 2.06254, 2.05941, 2.05752, 2.04086, 2.04295, 2.04895, 2.05165, 2.05803, 2.05962, 2.05489, 2.06254, 2.05463, 2.0457, 1.97164, 1.97123, 2.07279, 2.06364, 2.05445, 2.06462, 2.07136, 2.04986, 2.05974, 2.05783, 2.04623, 2.04766, 2.0498, 2.05147, 2.05124, 2.05485, 1.97315, 2.05451, 2.05588, 2.04899, 2.05313, 2.0702, 2.11159, 1.91439, 2.08291, 1.9095, 1.90924, 1.9108, 2.08239, 2.10333, 2.08242, 1.90615, 2.105, 1.90625, 1.90405, 1.90968, 1.90874, 1.90876, 1.90718, 1.9108, 1.91014, 1.91159, 2.09413, 2.00271, 1.96381, 1.96139, 1.91328, 2.10362, 1.91109, 1.91157, 1.911, 1.90681, 1.90881, 1.90804, 2.09758, 1.90654, 1.90427, 1.95428, 1.90315, 2.08304, 1.89963, 1.89755, 1.9023, 1.9002, 1.83088, 1.91765, 1.82567, 1.82397, 1.92699, 1.873, 1.9337, 1.8203, 1.86905, 1.91486, 1.91062, 1.86636, 1.86688, 1.86649, 1.81411, 1.81232, 1.8125, 1.9279, 1.81295, 1.80967, 1.80905, 1.80859, 1.90299, 1.80659, 1.80624, 1.8063, 1.85901, 1.80373, 1.80575, 1.92876, 1.80296, 2.03848, 1.8004, 1.80301, 1.93137, 1.9338, 1.8038, 1.91751, 1.80483, 1.80405, 1.80234, 1.92082, 1.80174, 1.80434, 1.90705
1.83359, 2.08652, 2.08635, 1.8335, 1.8324, 1.83365, 1.83257, 1.8306, 1.82854, 1.82783, 1.82795, 1.82718, 1.82721, 1.82639, 1.82852, 1.82468, 1.92792, 1.92657, 1.82695, 1.82532, 1.82542, 1.82409, 1.82345, 1.82371, 1.82132, 1.87293, 1.82085, 1.8207, 1.82292, 1.82187, 2.08661, 1.81812, 1.81973, 1.87001, 1.82054, 1.93887, 1.81796, 1.86982, 1.8698, 1.87013, 1.81929, 1.82035, 1.90384, 1.90435, 1.97985, 1.98115, 1.95996, 1.96553, 1.96112, 1.95863, 1.95845, 1.95814, 1.95812, 1.88008, 1.95374, 1.95441, 1.95195, 1.95219, 1.95174, 1.95152, 1.94928, 1.97318, 1.87173, 1.94842, 1.97296, 1.94897, 1.94599, 1.86895, 2.06198, 1.97637, 1.94445, 1.94769, 1.86843, 1.97838, 1.94626, 1.86957, 1.86936, 1.86998, 1.94941, 1.95141, 1.95338, 1.87828, 1.87915, 1.96036, 1.9597, 1.96574, 1.9691, 1.89485, 2.07412, 2.04473, 1.9546, 2.04873, 1.95445, 2.03105, 2.03288, 2.04855, 2.03862, 1.95202, 1.95322, 1.95458, 1.95246, 2.03823, 1.95564, 2.04316, 2.04721, 2.0454, 2.03988, 2.03832, 2.05192, 2.04483, 2.0551, 2.04861, 2.0563, 2.056, 2.04823, 2.03915, 2.04048, 1.96288, 2.06199, 1.96741, 2.04277, 2.0431, 2.04398, 1.96737, 2.06206, 2.05579, 2.0599, 2.04471, 2.04887, 2.04787, 2.05637, 2.05646, 2.048, 2.06241, 2.06906, 2.07373, 2.06693, 2.04905, 2.04848, 2.0491, 2.04918, 2.04771, 2.0525, 2.04979, 2.05413, 2.05509, 2.05467, 2.0495, 2.05323, 2.05536, 1.97368, 2.04896, 2.05217, 1.911, 1.91235, 1.91274, 1.91183, 1.90969, 1.91031, 1.90968, 1.90714, 2.00754, 1.90477, 2.00678, 1.90732, 2.01081, 1.90982, 2.08788, 1.90848, 2.08682, 2.09247, 1.9121, 1.91086, 1.9119, 1.91092, 1.91346, 1.91302, 1.91031, 1.91339, 1.96121, 1.91272, 1.91041, 1.90976, 1.91097, 1.90927, 1.9066, 1.90506, 1.90518, 1.90248, 1.90132, 1.90211, 1.89811, 1.90061, 1.8994, 1.89897, 1.83299, 1.87861, 1.92461, 1.82503, 1.82299, 1.82185, 1.82362, 1.94203, 1.91682, 1.89059, 1.91315, 1.91382, 1.9074, 1.86444, 1.86513, 1.86138, 1.81078, 1.81262, 1.81066, 1.80987, 1.89637, 1.85753, 1.85616, 1.80752, 1.80688, 1.80471, 1.80351, 1.80469, 1.80249, 1.87479, 1.80565, 1.80237, 1.79806, 1.86211, 1.80521, 1.93136, 2.10919, 1.89844, 1.93059, 1.80381, 1.9298, 1.803, 1.80225, 1.80311, 1.80234
1.83707, 2.11109, 1.83566, 1.83751, 1.82905, 1.83118, 2.08313, 1.83113, 1.88223, 1.83149, 1.82827, 1.83114, 1.82766, 1.83014, 1.92773, 1.82459, 1.82411, 1.82568, 1.92845, 1.82583, 1.82417, 1.82536, 1.82583, 1.92123, 1.824, 1.92411, 1.82294, 1.87228, 1.82039, 1.82344, 1.82714, 1.82138, 1.82131, 1.82199, 1.8708, 1.87098, 1.82057, 1.82093, 1.82027, 1.82008, 2.00106, 1.82112, 1.82202, 1.82112, 1.87219, 1.821, 1.9685, 1.96355, 1.96431, 1.96345, 1.96027, 1.88245, 2.04815, 1.95901, 1.87929, 1.95771, 1.87881, 1.8777, 1.95218, 1.95188, 1.87544, 1.94951, 2.05211, 1.87385, 1.9749, 1.94774, 1.9446, 1.98174, 1.86987, 1.97592, 1.94561, 1.97725, 1.97743, 1.94583, 1.94779, 1.94589, 1.97963, 1.9478, 1.9492, 1.98021, 2.06112, 1.95223, 1.95826, 1.98608, 2.06522, 1.88896, 1.96729, 1.98259, 2.07616, 2.06652, 2.0326, 2.04794, 2.07298, 2.04809, 2.03859, 1.95474, 1.9555, 1.95306, 1.95299, 1.9552, 2.03052, 1.95609, 2.03206, 1.95705, 2.04498, 2.03866, 1.95722, 2.07615, 2.05191, 2.06258, 1.95979, 2.0352, 1.95974, 1.96232, 1.96502, 2.07766, 2.06725, 2.04176, 2.04324, 2.04343, 2.04336, 2.06236, 2.0452, 2.04162, 2.05328, 2.04692, 2.06615, 2.06045, 2.05085, 2.04994, 2.04869, 2.04537, 1.97087, 2.05602, 1.97285, 1.97197, 2.0733, 2.0521, 1.97181, 2.04821, 2.0522, 2.06318, 2.05889, 2.06707, 2.05445, 2.05848, 2.05784, 2.05433, 2.05687, 2.05327, 2.04921, 2.05122, 2.05043, 1.91388, 1.91212, 1.91437, 1.91114, 1.95952, 1.90778, 1.95725, 1.90676, 1.90502, 1.90662, 2.00993, 1.90569, 1.95516, 1.90411, 1.90705, 1.90826, 1.91012, 1.90978, 1.96269, 1.96173, 1.91068, 1.91148, 1.91274, 1.91223, 1.96456, 1.91131, 1.91109, 1.96127, 2.0771, 1.9085, 1.99725, 1.90781, 1.9075, 1.90736, 1.90474, 1.90605, 2.08289, 1.90331, 1.90036, 1.89835, 1.90137, 1.88401, 1.89096, 1.9648, 1.82655, 1.82487, 1.82638, 1.82031, 1.8204, 1.81927, 1.91658, 1.91457, 1.81732, 1.81281, 1.81735, 1.81625, 1.8653, 1.81376, 1.80901, 1.81165, 1.81206, 1.81052, 1.80619, 1.85673, 1.91668, 1.85638, 1.80999, 1.80374, 1.80267, 1.80109, 1.93366, 1.92917, 1.92358, 1.92198, 1.91724, 1.91058, 1.80371, 1.80324, 1.80277, 1.8015, 1.80171, 1.80402, 1.80539, 1.92802, 1.9252, 1.8007, 1.92079
1.83697, 1.83982, 1.83724, 1.83791, 1.83607, 1.83383, 1.83546, 1.83222, 1.82887, 1.82982, 2.10004, 1.88207, 1.83095, 1.82834, 1.8304, 2.09416, 1.82653, 2.08482, 1.82752, 1.82554, 1.82687, 1.82734, 1.82257, 1.82324, 1.82594, 1.82727, 1.82363, 1.82388, 1.82318, 1.98938, 1.87334, 1.9166, 1.82104, 1.82374, 1.87195, 1.92127, 1.82308, 1.82099, 1.82207, 1.82109, 1.82141, 1.82345, 1.87167, 1.87269, 1.82479, 1.99947, 1.88525, 1.96967, 1.9685, 1.96221, 1.96882, 1.95895, 1.88323, 1.95886, 1.95833, 1.958, 1.95552, 1.87821, 1.95338, 1.95833, 1.95495, 1.95088, 1.94909, 1.94981, 1.94895, 1.94781, 1.94668, 1.97834, 1.94782, 1.94626, 1.94518, 1.9471, 1.94521, 1.97955, 2.06008, 1.9794, 1.97918, 1.94839, 1.98071, 1.95204, 1.982, 1.9539, 1.95586, 1.98251, 1.96217, 2.05882, 1.98219, 1.98404, 2.09528, 2.03366, 2.0343, 2.02791, 2.05269, 2.03279, 2.03274, 2.0294, 2.03779, 1.95414, 1.95514, 1.95623, 2.03242, 2.03298, 2.04032, 2.04058, 2.04762, 2.03272, 1.95868, 2.05107, 1.95889, 2.05894, 2.05234, 2.03049, 1.96251, 1.9612, 2.04075, 2.05922, 2.06178, 2.0428, 2.06324, 2.06578, 2.04421, 2.06474, 2.06007, 2.06616, 2.06299, 2.07369, 2.06936, 2.06652, 2.05549, 2.04711, 2.06364, 2.06937, 2.04567, 2.06224, 1.97336, 2.06295, 2.06271, 2.05051, 2.06211, 2.04872, 2.06213, 2.05038, 1.97289, 2.05219, 2.04913, 2.04768, 2.05888, 2.05601, 2.05891, 1.97517, 2.05204, 2.05281, 1.97607, 1.91289, 1.9106, 1.9086, 1.9597, 1.95856, 1.90709, 1.90676, 2.02457, 1.95586, 1.90667, 1.90278, 2.09997, 1.90564, 1.90644, 1.90691, 2.0076, 1.90795, 1.91095, 1.90989, 1.91139, 1.91088, 1.91108, 1.91273, 2.00679, 2.00497, 1.91286, 1.96351, 1.96206, 2.0928, 2.08244, 1.90964, 2.07638, 1.95772, 1.95737, 1.95507, 1.95502, 2.0054, 1.90258, 1.98635, 1.89994, 1.89632, 1.88415, 1.88217, 1.83052, 1.82706, 1.97665, 1.82258, 1.82038, 1.82043, 1.92353, 1.91646, 1.91859, 1.91532, 1.91999, 1.81556, 1.81386, 1.91159, 1.81333, 1.81107, 1.80837, 1.81123, 1.80951, 1.85912, 1.80801, 1.80716, 1.80671, 1.85542, 1.8551, 1.93724, 1.8034, 1.93475, 1.80386, 1.92705, 1.90326, 1.80277, 1.80097, 1.80073, 1.80098, 1.80315, 1.80093, 1.80348, 1.80369, 1.92539, 1.92702, 1.97608, 1.90397, 1.80209
1.89002, 1.89059, 1.83843, 1.83366, 1.83386, 1.83771, 1.92676, 1.83253, 1.83387, 1.83099, 1.88228, 1.88102, 1.83091, 2.10132, 1.83104, 1.92753, 1.82873, 1.82891, 1.82712, 1.82722, 1.82647, 1.82686, 2.08285, 1.91844, 1.82473, 1.82234, 1.82411, 1.82486, 1.82431, 1.8749, 1.82049, 1.91912, 1.92542, 1.82412, 1.87242, 1.92395, 1.9107, 1.9173, 1.9163, 1.82475, 1.82399, 1.92052, 1.82486, 1.82471, 1.82522, 1.99657, 1.9608, 1.96558, 1.96972, 1.88506, 1.96212, 1.95994, 1.9722, 2.04906, 1.95845, 1.95617, 1.95585, 1.95444, 1.95351, 1.95544, 1.87533, 1.87264, 1.95151, 1.95164, 1.95011, 1.9484, 1.94863, 1.97856, 1.94868, 1.94808, 1.94768, 1.94749, 1.94718, 1.94863, 1.98278, 1.94636, 1.94756, 1.94896, 1.95108, 1.9518, 1.8772, 1.9535, 1.95567, 1.9612, 1.96192, 1.98319, 2.05838, 1.89686, 2.08109, 2.03687, 2.03761, 2.06533, 2.05885, 1.95603, 2.03325, 1.95594, 2.03761, 2.03552, 1.95781, 1.95468, 2.03684, 2.04446, 2.03582, 2.03373, 2.03449, 2.03449, 2.04579, 2.05919, 1.96005, 2.05792, 2.04767, 2.06439, 2.05667, 2.05909, 2.04468, 2.04383, 2.04376, 2.04401, 2.04798, 2.06184, 2.06625, 2.06448, 1.96895, 2.04732, 2.06355, 2.04709, 2.06511, 2.06948, 2.04797, 2.04888, 2.06214, 2.04917, 2.04825, 2.06468, 2.05841, 2.06232, 1.96735, 1.96674, 2.04985, 1.97228, 2.05909, 2.05921, 2.0587, 2.05849, 2.06154, 2.05829, 2.05676, 2.05517, 2.05928, 2.05279, 2.05256, 2.05267, 2.05147, 2.00722, 2.0063, 1.96122, 1.95998, 1.99376, 1.99859, 2.02849, 2.02792, 1.90783, 1.90661, 1.90431, 1.90567, 2.10465, 1.90919, 1.90851, 1.90806, 1.911, 1.90917, 2.11138, 2.0984, 1.91095, 1.91068, 2.10135, 1.91298, 2.00704, 1.91319, 2.08225, 2.09286, 1.911, 1.90946, 2.09356, 1.90813, 1.90629, 1.90617, 1.95494, 1.95407, 1.95189, 1.90006, 1.89962, 1.95142, 1.89793, 1.83386, 1.82898, 1.82773, 1.82798, 1.82415, 1.8224, 1.82167, 1.82081, 1.81942, 1.91707, 1.91827, 1.81904, 1.81623, 1.90017, 1.91892, 1.81272, 1.81089, 1.9237, 1.92155, 1.81006, 1.89101, 1.87136, 1.80717, 1.91115, 1.91725, 1.8553, 1.85534, 1.80589, 1.80354, 1.80562, 1.80426, 1.80381, 1.93313, 1.80335, 1.80101, 1.91087, 1.90796, 1.93103, 1.90827, 1.92737, 1.9269, 1.92561, 1.79994, 1.92605, 1.80105, 1.85126
1.8388, 1.83852, 1.8895, 1.83523, 1.83535, 1.9305, 1.92954, 1.83264, 2.10475, 1.83417, 1.83179, 1.88292, 1.91767, 1.83155, 2.01153, 1.92687, 1.92882, 1.83064, 2.08949, 2.09127, 1.8308, 1.82821, 1.82808, 1.82669, 1.82381, 1.82458, 1.82539, 1.82773, 1.92368, 1.82362, 1.82436, 1.92286, 1.92666, 1.92512, 1.82192, 1.82433, 1.87496, 1.92646, 1.82428, 1.92467, 1.82676, 1.82381, 1.99736, 1.99453, 1.82722, 1.99774, 1.96554, 1.9703, 1.96365, 1.97224, 1.96201, 1.96005, 1.95898, 1.95954, 1.88121, 1.95875, 1.95599, 1.95649, 1.97408, 1.9768, 1.97745, 1.98236, 1.95446, 1.95256, 1.97699, 1.9484, 1.98156, 1.97974, 1.98262, 1.9812, 2.0561, 1.94732, 1.98208, 1.86981, 1.94809, 1.98255, 1.94836, 1.95172, 2.07648, 1.95492, 1.95491, 1.95462, 1.96006, 1.96169, 1.88566, 1.98367, 2.06223, 2.06184, 2.06038, 2.05906, 2.05561, 2.03478, 2.03503, 2.03459, 2.03423, 1.95661, 2.03751, 2.03723, 1.95556, 1.95521, 1.95736, 2.03839, 2.03404, 2.03807, 2.03565, 2.03439, 2.04918, 2.05335, 1.95866, 1.96205, 1.96149, 2.05098, 2.05588, 2.06649, 2.06304, 2.06563, 2.06579, 2.06193, 2.06409, 2.04585, 2.04538, 2.04517, 2.04557, 1.9696, 2.04576, 2.04617, 2.04861, 2.04876, 2.04819, 2.06245, 2.04837, 2.05637, 1.96983, 2.05128, 2.0578, 2.05974, 2.05553, 2.05283, 2.05571, 2.0695, 1.97481, 2.0519, 2.05082, 2.05077, 2.0489, 2.05395, 2.05219, 2.05743, 2.0563, 2.05222, 1.97617, 2.05272, 2.05204, 2.00413, 1.962, 1.96152, 1.99237, 1.95886, 2.00021, 2.03031, 1.95796, 1.95502, 2.00103, 1.90603, 1.90672, 1.90719, 2.01125, 1.90679, 1.90588, 1.9091, 1.90987, 1.91106, 1.91029, 1.91065, 1.91132, 1.91108, 2.01637, 1.9638, 1.91449, 1.91473, 1.91303, 1.91158, 1.912, 1.90854, 1.90876, 1.90678, 2.09411, 1.95663, 1.95552, 1.90308, 1.90161, 2.08613, 1.90132, 1.89678, 1.89499, 1.90339, 1.82921, 1.82824, 1.82715, 1.82328, 1.8233, 1.82243, 1.81957, 1.90462, 1.81761, 1.9138, 1.91335, 1.89984, 1.81428, 1.81268, 1.81005, 1.81261, 1.9238, 1.88984, 1.85821, 1.85968, 1.85762, 1.8585, 1.85628, 1.80656, 1.80522, 1.80533, 1.80624, 1.80459, 1.80264, 1.90313, 1.80299, 1.80075, 1.85707, 1.80264, 1.91624, 1.93037, 1.91103, 1.80327, 1.80249, 1.80439, 1.85313, 1.85246, 1.80006, 1.80127
1.84093, 1.84112, 1.88953, 1.83904, 1.83885, 1.83797, 1.84028, 1.83496, 1.83505, 1.83331, 1.83239, 1.83407, 1.83343, 1.83181, 1.83191, 2.09334, 1.83091, 1.949, 1.82981, 1.88007, 1.83021, 1.83032, 1.82925, 1.92853, 1.82811, 1.82758, 1.82604, 1.82684, 1.82896, 1.91575, 1.82421, 1.82327, 1.9258, 1.8272, 1.82439, 1.82295, 1.87472, 1.87515, 1.91703, 1.87506, 1.87572, 1.82494, 2.00018, 1.99742, 1.82738, 1.82585, 1.82662, 1.96437, 1.96585, 1.9695, 1.96402, 1.88489, 1.8847, 1.88571, 1.97607, 1.95922, 1.9765, 1.87985, 1.95527, 1.97732, 1.9545, 1.95239, 1.95244, 1.95315, 1.95217, 1.95014, 1.94846, 1.94785, 1.87131, 1.98238, 1.94779, 1.94779, 1.98202, 1.94675, 2.07056, 1.94566, 1.87384, 1.98402, 1.94835, 1.95386, 1.95527, 1.98394, 1.95787, 1.88376, 1.88604, 1.96931, 1.97057, 2.06356, 2.07461, 2.06167, 2.03356, 2.05538, 2.03411, 2.05938, 1.95774, 2.03503, 1.95812, 1.95543, 1.9578, 1.95719, 1.95815, 2.03544, 2.04372, 2.04044, 2.03595, 2.03626, 2.0507, 2.05299, 2.05358, 2.05582, 1.9631, 2.05776, 2.055, 1.96351, 2.06246, 2.05538, 1.96533, 2.0601, 2.05598, 1.96936, 2.05179, 2.04475, 1.97238, 2.04639, 2.06523, 2.04791, 1.97198, 2.07332, 1.97225, 2.04798, 2.04917, 1.97321, 2.05891, 2.04936, 2.04848, 2.05477, 2.06356, 2.04858, 2.0497, 2.05183, 2.06269, 2.06723, 2.05148, 2.05058, 2.05464, 2.05328, 2.05777, 2.05334, 2.05431, 2.0554, 2.05303, 2.05733, 2.05914, 2.05882, 1.91264, 1.96236, 1.91113, 1.95817, 1.99652, 1.95785, 1.99581, 1.9069, 1.9058, 1.90655, 1.90508, 1.9041, 1.99802, 1.9059, 1.99386, 1.90746, 1.95773, 1.90962, 1.90932, 2.11405, 1.91168, 1.91203, 1.91206, 2.07929, 1.9155, 1.9112, 1.91412, 1.96338, 1.96178, 1.9093, 2.11006, 1.90382, 2.09067, 1.90524, 1.90334, 1.95299, 1.90231, 1.9012, 1.89951, 1.89721, 1.89151, 1.88912, 1.82997, 1.82464, 1.82708, 1.82469, 1.87295, 1.91523, 1.82124, 1.8691, 1.90157, 1.81976, 1.81524, 1.81508, 1.81559, 1.81475, 1.90712, 1.80861, 1.8094, 1.81173, 1.85925, 1.8073, 1.92755, 1.93135, 1.80478, 1.80427, 1.93045, 1.93422, 1.92935, 1.93425, 1.93351, 1.80272, 1.80309, 1.80257, 1.91734, 1.91536, 1.91173, 1.80026, 1.92733, 1.80073, 1.92647, 1.80241, 1.80207, 1.90929, 1.80056, 1.91359
1.89309, 1.89285, 1.89246, 1.83752, 1.83864, 2.11257, 1.83873, 1.83949, 1.88718, 1.88763, 2.11215, 1.8346, 2.098, 1.8361, 1.93201, 1.83443, 1.83412, 1.95094, 1.83191, 1.9172, 1.82959, 1.83101, 1.82788, 1.82998, 2.08605, 1.82734, 1.9316, 1.8265, 1.82854, 1.931, 1.92943, 1.82675, 1.82671, 1.82649, 1.9281, 1.82609, 1.82671, 1.87594, 1.87594, 1.82724, 1.87682, 1.87649, 1.82658, 1.82809, 1.8266, 1.87844, 1.87828, 2.04933, 1.96475, 1.97323, 1.96356, 1.96371, 1.97126, 1.96129, 2.06175, 2.05035, 1.9565, 2.06226, 1.97673, 1.97722, 1.95241, 1.87557, 1.95069, 1.95223, 1.95498, 1.95251, 1.94867, 1.87247, 1.98281, 1.94884, 1.86971, 1.94907, 1.87189, 1.9485, 1.94723, 1.94804, 2.06175, 1.94944, 1.95038, 1.95211, 2.06302, 2.06308, 1.95915, 1.96512, 2.07531, 1.96474, 1.98482, 1.98654, 2.06556, 2.05265, 2.03565, 2.03534, 2.03869, 2.04601, 2.05776, 2.03788, 1.95743, 1.95766, 1.95694, 1.95771, 1.95637, 2.03952, 2.04512, 2.05244, 2.03709, 2.0357, 2.03776, 2.03733, 2.05313, 2.04957, 2.05142, 2.05156, 2.0473, 2.05323, 2.05873, 2.05023, 2.05302, 1.96784, 2.05464, 2.08248, 1.96949, 2.04681, 1.97037, 2.05543, 1.97063, 2.04825, 2.04887, 2.06208, 1.9729, 2.05946, 2.06692, 2.06379, 2.0681, 2.04891, 2.06024, 2.06227, 1.97499, 2.04939, 2.04996, 2.06439, 2.05294, 1.97326, 2.05311, 2.05347, 2.05553, 2.05587, 2.05815, 2.0546, 2.05517, 2.05841, 2.05254, 2.06969, 2.05131, 2.10207, 1.91234, 1.91033, 1.90759, 1.90436, 2.00955, 1.90631, 1.90707, 1.90654, 1.90435, 1.90589, 1.90485, 1.90516, 2.0012, 1.90745, 1.95668, 1.99346, 1.90768, 1.90981, 1.959, 1.91012, 1.90936, 1.91108, 1.91408, 2.09352, 1.91377, 1.964, 2.09761, 1.91099, 1.9108, 1.91209, 1.90759, 1.90622, 2.10755, 1.90433, 1.90058, 2.08059, 1.90275, 1.89927, 1.90056, 1.89588, 1.83538, 1.93313, 1.90936, 1.82466, 1.82674, 1.87267, 1.82361, 1.91391, 1.87102, 1.90013, 1.81825, 1.81622, 1.91073, 1.81522, 1.81498, 1.91524, 1.91673, 1.86246, 1.80983, 1.81118, 1.81024, 1.80864, 1.91787, 1.80456, 1.80451, 1.81001, 1.80633, 1.80292, 1.92831, 1.92859, 1.92518, 1.85324, 1.80307, 1.80245, 1.80323, 1.91992, 1.79954, 1.80259, 1.80303, 1.80364, 1.80318, 1.80284, 1.80086, 1.80027, 1.92772, 1.92401
1.84208, 1.84396, 1.89613, 1.93782, 2.09667, 1.84165, 1.84087, 1.88875, 1.84034, 1.83767, 1.83746, 1.83739, 1.83776, 1.83733, 1.93777, 1.83496, 1.90012, 1.9244, 1.88337, 1.83415, 1.83364, 1.9347, 1.83063, 1.83262, 1.83302, 1.92411, 1.82795, 1.82879, 1.82767, 1.9342, 1.82738, 1.82629, 2.00543, 1.82642, 1.92173, 1.92316, 1.8271, 2.08303, 1.87748, 1.87783, 1.87828, 1.87884, 2.00637, 1.82928, 1.83023, 1.8277, 1.96662, 1.96845, 1.97522, 1.96613, 1.96633, 1.9648, 1.9773, 1.96253, 2.07452, 1.88295, 1.95713, 2.06276, 1.95653, 1.95557, 1.95285, 1.87497, 1.87517, 1.95436, 1.87423, 1.95158, 1.95245, 2.05948, 1.94977, 1.98537, 1.94962, 1.95136, 1.94849, 1.95034, 1.94655, 1.98616, 1.95136, 1.95107, 1.95083, 2.06357, 2.06302, 2.06335, 1.95884, 1.9859, 1.96584, 2.06962, 1.98558, 1.98521, 2.0709, 1.96094, 2.03981, 1.96155, 2.0523, 2.05864, 2.05459, 2.05551, 1.96007, 1.95826, 1.96013, 1.95881, 1.9578, 1.95919, 2.03519, 2.06392, 2.03848, 2.0605, 2.03876, 2.05394, 2.06833, 2.06596, 1.96435, 2.03412, 1.96402, 2.03066, 2.07143, 2.05921, 2.0488, 2.05482, 2.05843, 2.05927, 1.9704, 2.06394, 1.97075, 1.972, 2.05722, 2.07683, 2.05969, 2.0483, 2.0483, 1.97343, 2.05307, 2.05831, 2.05027, 2.05194, 2.0595, 2.05999, 2.05183, 1.97512, 2.07377, 2.05143, 2.05411, 2.05863, 2.06122, 2.05223, 2.05617, 2.05543, 2.05642, 2.05711, 2.05896, 2.05342, 2.05174, 2.08281, 2.05396, 1.91221, 2.08584, 1.91166, 1.91063, 1.90778, 1.90683, 1.95627, 1.95508, 1.90674, 1.90344, 1.9038, 1.90513, 1.9046, 1.90383, 1.95554, 1.99303, 1.90618, 1.95937, 2.08675, 1.9599, 1.91051, 1.91004, 2.09357, 1.91345, 2.08477, 1.96599, 1.96505, 2.10011, 1.9998, 1.99986, 1.91316, 1.90981, 1.90339, 2.07884, 1.90168, 2.10138, 1.90188, 2.07901, 1.89941, 1.89815, 1.89698, 1.83801, 1.88271, 1.91212, 1.82523, 1.82443, 1.82442, 1.82344, 1.87167, 1.81842, 1.81764, 1.81772, 1.81798, 1.8168, 1.81634, 1.81437, 1.91623, 1.81293, 1.86967, 1.86196, 1.91807, 1.86126, 1.85817, 1.80741, 1.80522, 1.93053, 1.93005, 1.80195, 1.80476, 1.806, 1.92463, 1.7999, 1.80314, 1.80416, 1.93117, 1.80468, 1.87083, 1.92835, 1.80288, 1.85516, 1.85411, 1.93103, 1.92121, 1.919, 1.80315, 1.97278, 1.80003
1.84466, 2.09894, 1.84817, 1.8442, 1.84442, 1.89342, 1.83978, 1.89249, 2.01439, 1.83878, 1.888, 1.83782, 1.83857, 1.83805, 1.8363, 1.93734, 1.88509, 1.88422, 1.88544, 1.88296, 1.88359, 1.83414, 2.10097, 1.82861, 1.83012, 1.83091, 1.82785, 1.82959, 1.83048, 1.82727, 1.82627, 1.82698, 1.82739, 1.93007, 1.82569, 1.82799, 1.92864, 1.82463, 1.82497, 1.82746, 1.87862, 1.9144, 1.82854, 1.82733, 1.83248, 2.09956, 1.96562, 1.96622, 1.96718, 1.96717, 1.882, 1.97737, 1.96389, 1.96313, 1.96192, 1.97836, 1.9595, 1.95828, 1.97918, 1.88013, 1.95483, 1.8762, 1.95477, 1.87548, 1.8757, 1.953, 1.95247, 1.87362, 1.87402, 1.87233, 1.98566, 1.95414, 1.87219, 1.95023, 1.94978, 1.95135, 1.95106, 1.95134, 1.98894, 2.07304, 1.95858, 1.95801, 1.95909, 1.9653, 1.98654, 2.08748, 1.97425, 1.98738, 2.06596, 2.04644, 1.96239, 1.96168, 2.03845, 1.96012, 2.03491, 2.04526, 1.96169, 1.95951, 1.95849, 1.95978, 2.03783, 2.03798, 2.04193, 2.04774, 2.03819, 2.05855, 1.962, 2.05235, 2.03948, 2.06529, 2.0329, 2.05498, 2.05572, 1.96565, 2.05825, 2.03416, 1.9678, 2.05853, 2.05145, 1.96978, 2.06412, 2.06267, 2.06707, 1.97211, 2.04893, 2.05178, 2.06907, 2.04963, 2.06816, 2.0537, 2.0505, 2.0602, 2.05179, 2.05228, 2.05121, 2.05236, 2.05309, 2.04955, 2.05415, 2.05321, 2.05085, 2.05503, 2.05436, 2.05203, 2.05147, 2.05203, 2.05321, 2.05395, 2.05782, 2.05228, 2.05196, 2.08048, 1.97607, 2.00638, 1.9094, 1.90981, 2.1105, 1.95806, 1.95695, 2.0026, 1.90591, 1.90628, 1.90446, 1.90403, 1.90539, 1.90592, 1.90548, 1.90636, 1.95622, 1.99618, 1.90535, 1.90965, 1.95877, 2.08255, 1.9094, 1.91019, 2.08432, 2.10455, 2.09314, 2.10416, 2.07763, 1.91112, 2.09071, 2.07986, 1.90739, 1.90469, 1.90476, 1.90379, 2.0799, 2.07959, 2.07687, 1.89809, 1.90057, 1.8963, 1.83347, 1.83408, 1.83052, 1.82861, 1.82532, 1.82363, 1.82125, 1.82002, 1.90743, 1.81922, 1.81479, 1.81696, 1.8189, 1.81728, 1.81376, 1.81326, 1.86304, 1.90065, 1.81069, 1.85987, 1.85998, 1.85804, 1.80763, 1.85469, 1.80532, 1.92761, 1.80592, 1.85298, 1.8042, 1.92641, 1.80419, 2.12252, 1.93123, 1.80074, 1.8027, 1.9289, 1.80006, 1.80618, 1.80245, 1.80062, 1.92126, 1.92313, 1.91911, 1.80341, 1.91832, 1.80348
1.845, 1.84595, 1.84547, 1.93832, 1.94108, 1.89358, 1.84402, 1.84229, 1.84139, 1.84186, 1.841, 1.8413, 1.83916, 1.83722, 1.83754, 1.83578, 1.93355, 1.83746, 1.83442, 1.93458, 1.83409, 1.92931, 2.104, 1.8301, 1.83201, 1.88149, 1.88086, 1.88125, 1.83005, 1.83056, 1.82721, 1.82727, 1.93356, 1.93139, 1.93026, 1.82993, 1.93433, 1.82888, 1.82921, 1.83014, 1.87903, 1.91664, 1.83012, 1.8307, 1.83121, 1.83323, 1.96823, 2.05916, 1.88967, 1.97987, 1.88348, 1.97812, 1.96334, 1.88679, 1.97666, 1.97982, 1.96228, 1.88059, 1.88107, 2.05984, 2.08371, 1.87581, 1.87627, 1.95279, 1.95157, 1.95001, 1.95202, 2.08419, 1.95171, 1.94974, 1.95003, 1.95023, 1.98541, 1.87238, 1.95375, 1.95266, 1.9879, 1.95327, 1.9545, 1.95466, 1.95927, 1.88211, 1.98759, 1.98862, 1.96836, 1.97197, 1.98798, 2.09383, 2.08047, 2.03939, 1.96212, 2.0386, 1.96292, 2.0396, 2.05602, 1.96206, 1.96216, 1.96034, 1.95972, 1.96058, 2.03793, 2.03851, 2.03727, 2.03781, 2.03889, 2.05665, 2.03908, 2.04098, 2.04156, 2.06275, 2.0388, 2.04323, 2.05885, 1.96578, 1.96737, 2.05192, 2.06032, 2.05674, 1.96859, 1.97213, 1.97178, 2.05497, 2.04864, 2.04894, 2.04879, 2.05943, 2.06928, 2.05566, 2.05958, 2.05656, 2.05119, 2.06267, 2.04959, 2.07603, 2.08334, 2.05158, 2.05022, 2.05314, 2.0519, 2.05487, 2.05254, 2.05366, 2.06271, 2.05571, 2.05843, 2.0535, 2.05736, 2.05416, 2.05843, 1.97326, 1.9754, 2.05249, 1.97624, 1.9131, 1.96549, 2.00874, 2.0095, 1.95947, 1.90618, 2.09819, 1.90597, 2.08589, 1.90412, 1.9057, 1.90646, 1.90675, 1.90495, 1.90687, 1.95602, 1.90793, 1.95655, 1.95776, 1.91004, 1.90866, 2.08252, 1.91058, 1.91287, 2.10788, 1.90979, 2.09714, 1.91054, 2.09062, 2.07991, 1.90737, 1.90707, 1.90641, 1.90415, 1.90352, 2.08177, 1.90208, 1.90099, 1.90019, 1.90002, 1.89653, 1.88488, 1.88198, 1.83075, 1.82153, 1.87589, 1.87385, 1.89906, 1.82208, 1.81932, 1.81834, 1.8174, 1.81947, 1.81526, 1.81653, 1.81251, 1.81009, 1.86388, 1.86234, 1.81121, 1.80896, 1.81016, 1.85767, 1.85685, 1.80701, 1.8039, 1.80653, 1.89386, 1.8551, 1.80611, 1.85335, 1.85234, 1.80143, 1.93214, 1.80217, 1.92816, 1.92809, 1.80117, 1.92739, 1.80289, 1.80207, 1.92157, 1.79902, 1.80268, 1.80164, 1.80071, 1.90634
1.84764, 1.8481, 1.8483, 1.94094, 1.9423, 1.89602, 1.90954, 1.8942, 1.84292, 1.8435, 2.12009, 1.84031, 1.84006, 1.84065, 1.84033, 1.94109, 1.83629, 1.8376, 1.83724, 1.93115, 1.83426, 1.93555, 1.83428, 1.93828, 1.82973, 1.8306, 1.83102, 1.82858, 1.83149, 1.87919, 1.8299, 1.933, 1.829, 1.933, 1.93128, 1.92168, 1.93521, 1.83101, 1.83075, 1.82628, 1.87893, 1.88207, 1.88046, 1.88177, 1.92133, 1.83397, 1.83373, 1.96858, 1.96727, 1.96731, 1.97065, 1.97998, 1.97937, 1.97895, 1.98013, 1.98264, 2.07267, 1.98194, 1.95587, 2.06163, 1.98527, 1.95518, 1.98563, 1.95455, 1.95281, 1.95203, 1.95209, 1.98872, 1.95421, 1.95115, 1.94985, 1.95054, 1.98826, 1.95179, 1.95137, 1.98908, 2.06556, 2.06373, 1.95487, 1.95646, 1.99136, 2.0682, 2.06667, 1.99422, 1.96978, 2.06681, 2.06601, 1.98977, 2.07292, 2.03829, 1.96335, 2.03969, 2.04221, 2.06879, 2.03849, 2.06933, 1.96181, 1.96325, 1.96022, 2.03475, 2.03662, 2.03877, 2.03883, 2.0734, 2.0399, 2.04148, 2.04071, 2.04201, 2.05361, 2.03859, 2.05203, 2.05567, 2.04318, 2.0431, 1.96843, 2.0828, 1.96971, 1.96967, 2.06019, 1.97166, 1.97135, 2.06334, 2.05006, 2.06649, 1.97408, 2.05339, 2.05187, 2.05121, 1.9736, 2.05166, 2.05999, 2.06543, 2.06597, 2.05914, 2.05845, 2.07314, 2.07419, 2.06297, 2.06049, 2.0527, 2.05504, 1.97504, 1.9754, 1.97548, 2.05264, 2.06171, 2.05514, 2.05865, 2.0556, 2.05183, 2.04981, 2.05508, 2.05242, 1.91339, 1.91233, 2.08677, 1.90757, 1.90928, 1.90744, 2.01157, 2.01032, 1.90458, 1.90395, 1.90265, 1.9031, 1.90611, 1.90696, 1.9047, 2.09262, 2.10528, 1.9078, 1.90811, 1.91211, 1.91086, 1.91331, 1.91086, 1.91052, 1.90975, 1.91034, 1.91066, 1.90961, 1.90856, 2.08078, 1.90746, 1.90733, 1.95556, 1.9555, 1.90542, 1.9011, 1.90046, 1.90131, 1.90092, 1.99691, 1.89571, 1.83461, 1.83024, 1.83072, 1.82843, 1.82405, 1.87398, 1.87081, 1.82113, 1.81826, 1.81724, 1.89213, 1.81801, 1.81755, 1.81621, 1.81411, 1.81362, 1.91493, 1.91276, 1.90484, 1.80916, 1.91727, 1.85926, 1.8599, 1.90665, 1.92206, 1.80613, 1.80395, 1.80444, 1.91311, 1.79999, 1.85405, 1.80305, 1.80362, 1.93154, 1.80374, 1.80221, 1.92758, 1.80051, 1.80343, 1.80201, 1.80271, 1.91727, 1.79999, 1.80248, 1.80145, 1.91949
1.85108, 2.1017, 1.84739, 2.10018, 1.84756, 1.84734, 1.89584, 1.89649, 1.84406, 1.84561, 2.02034, 2.10119, 2.10047, 2.10858, 1.84016, 1.84163, 1.83869, 1.84, 1.83798, 1.84043, 1.83672, 1.83587, 1.83341, 1.83507, 1.88277, 1.92402, 1.92377, 1.82794, 1.88346, 1.82831, 1.82896, 1.93549, 1.83087, 1.93677, 1.83125, 1.83117, 1.83192, 1.83129, 1.93364, 1.83059, 1.83031, 1.83188, 1.83169, 1.82893, 1.92129, 1.83253, 1.83472, 1.9831, 1.89251, 1.89172, 1.96586, 2.05792, 2.06172, 1.98394, 1.98208, 1.96178, 1.95886, 1.95807, 1.98429, 1.98327, 1.95906, 1.95597, 1.95634, 1.95758, 1.95352, 1.98914, 1.95823, 1.9518, 1.87533, 1.98957, 1.94977, 1.87342, 1.95064, 1.95077, 1.99131, 2.06655, 1.95189, 1.99106, 1.99163, 1.95681, 1.95737, 1.98997, 1.98984, 1.99076, 1.89488, 2.09045, 1.8995, 2.06603, 2.08685, 1.96489, 2.0494, 2.04955, 2.07232, 1.96256, 2.04471, 1.96235, 1.96285, 1.96122, 2.03971, 2.04297, 2.03794, 2.04637, 1.96291, 2.0604, 2.03893, 2.0429, 2.04253, 2.04261, 2.05919, 2.06139, 2.06931, 2.0457, 2.05218, 2.04325, 2.06156, 2.05962, 2.05998, 2.05979, 2.05949, 2.06335, 1.97304, 2.07337, 2.07243, 2.06636, 2.05958, 2.05941, 2.05048, 2.05847, 2.05309, 2.06039, 1.97411, 2.0617, 2.05225, 1.97533, 2.07703, 2.06351, 2.08292, 2.06103, 1.97418, 2.05563, 2.05327, 2.06554, 1.97513, 1.97576, 2.05223, 2.05589, 2.056, 2.05897, 2.05976, 2.05283, 1.97591, 2.05506, 2.06219, 1.91032, 1.91024, 2.1041, 1.90966, 1.90456, 1.90592, 2.09016, 1.90587, 2.01114, 1.90488, 1.9036, 1.90628, 1.90494, 1.90476, 1.90343, 1.90741, 2.09595, 1.9068, 1.90808, 1.90685, 1.90678, 1.90621, 1.91069, 1.91153, 1.96165, 1.91011, 2.09926, 2.1037, 1.90972, 1.90748, 1.95914, 1.9588, 1.90631, 1.90388, 1.90166, 1.90028, 1.89992, 2.07959, 1.89907, 1.89707, 1.89592, 1.83369, 1.83231, 1.8305, 1.82714, 1.8248, 1.82157, 1.82311, 1.82043, 1.86897, 1.81851, 1.89409, 1.89978, 1.81537, 1.90283, 1.8138, 1.81172, 1.81048, 1.8099, 1.91703, 1.91756, 1.91644, 1.92418, 1.80666, 1.89388, 1.80684, 1.80499, 2.14264, 1.80654, 1.80438, 1.92846, 1.80361, 1.80274, 1.92361, 1.85145, 1.92378, 1.92087, 1.92728, 1.85387, 1.80428, 1.80276, 1.80266, 1.92405, 1.80008, 1.91579, 1.80141, 1.8585
1.90229, 1.85008, 1.85039, 1.84952, 1.84973, 1.84948, 1.84924, 1.84597, 1.84694, 1.84636, 1.84462, 1.84492, 1.84302, 1.84406, 1.89237, 1.89202, 1.89125, 1.94447, 1.94176, 1.94183, 1.83744, 1.83399, 1.83754, 1.93155, 1.88565, 1.83565, 1.83173, 1.83482, 1.8823, 1.83162, 1.93217, 1.83191, 1.83248, 1.82903, 1.83147, 1.83102, 1.83098, 1.83043, 1.83097, 2.01144, 1.83216, 1.83227, 2.00869, 1.8307, 1.83113, 1.8312, 1.83362, 1.96828, 1.98001, 2.06457, 1.98032, 1.98284, 1.96812, 1.9664, 1.9646, 2.06294, 1.98506, 1.96179, 1.9612, 1.96141, 2.06389, 1.96029, 1.95566, 1.98661, 1.95503, 1.99222, 1.95516, 1.9878, 1.95151, 1.95234, 1.9527, 1.95161, 1.95284, 1.95245, 1.95362, 1.95377, 1.95534, 1.95488, 1.95526, 1.95785, 1.95821, 1.95964, 1.99094, 1.89129, 1.9709, 1.89573, 2.07056, 2.06968, 2.08541, 1.92316, 1.9654, 2.05164, 2.05639, 2.04207, 2.04047, 1.9632, 1.96507, 1.96274, 2.04186, 2.04495, 2.03924, 2.04483, 2.0402, 2.0416, 2.04224, 2.04154, 2.07292, 2.04249, 2.06559, 2.04548, 2.05518, 2.06028, 2.05188, 2.04481, 2.06031, 1.97091, 2.04207, 1.96959, 2.06285, 2.06618, 2.067, 2.06672, 1.97264, 2.05862, 2.07963, 1.97597, 1.97611, 1.97666, 2.06279, 2.05904, 2.05148, 2.06871, 2.06195, 2.06681, 2.06206, 2.06612, 2.05096, 2.0669, 1.97559, 2.06992, 2.0537, 2.06059, 2.05339, 2.05188, 2.05246, 2.05211, 2.06117, 2.06012, 2.0568, 2.06302, 2.09329, 2.05344, 2.05456, 2.00645, 1.91034, 1.90983, 1.90672, 1.90503, 1.90591, 2.11842, 1.99713, 2.08407, 1.90769, 1.90614, 1.90649, 1.90445, 2.08635, 1.90643, 2.0974, 1.90474, 1.90702, 2.01121, 1.90824, 1.91053, 1.9098, 1.90788, 1.91364, 1.91305, 1.91112, 2.10032, 1.91072, 1.96032, 1.95962, 1.95953, 1.90665, 1.90581, 2.10686, 1.90282, 1.90153, 1.95193, 1.89997, 1.89921, 1.8984, 1.89641, 1.92446, 1.97268, 1.92227, 1.92082, 1.82379, 1.82329, 1.82054, 1.8196, 1.81676, 1.86842, 1.89531, 1.89318, 1.81601, 1.81346, 1.81601, 1.81304, 1.86135, 1.91433, 1.92048, 1.81042, 1.9171, 1.8091, 1.80689, 1.80547, 1.80696, 1.92397, 1.80315, 1.80371, 1.80391, 1.92876, 1.92705, 1.92666, 1.80214, 1.80159, 1.79951, 1.80305, 1.80057, 1.79936, 1.92435, 1.80145, 1.80174, 1.80099, 1.80119, 1.80014, 1.8029, 1.85105
1.85157, 1.90149, 1.935, 1.85063, 2.13568, 1.84956, 1.84731, 1.85062, 1.84578, 1.84514, 1.84428, 1.84454, 1.94116, 1.89288, 1.8937, 1.89223, 1.89302, 1.89116, 1.83934, 1.83881, 1.84035, 1.83728, 1.83636, 1.95727, 1.88538, 1.83822, 1.89682, 1.88511, 1.83496, 1.93438, 1.82874, 1.83375, 1.8321, 1.83075, 1.93394, 1.93411, 1.83412, 1.83203, 1.83018, 1.83056, 1.83128, 1.83133, 1.83321, 1.83428, 1.83507, 1.88515, 1.97168, 1.89348, 2.05891, 1.98191, 1.9685, 1.89062, 2.06237, 1.96498, 1.96566, 1.9621, 1.9621, 2.06506, 2.08352, 1.9599, 2.06273, 1.96162, 1.9862, 1.95566, 1.95483, 1.95595, 1.99259, 1.9919, 2.08203, 1.95156, 1.87515, 1.87426, 1.9895, 1.99131, 1.95431, 1.9521, 1.87818, 1.87871, 1.88169, 1.99374, 2.07603, 2.0694, 2.08696, 1.99299, 1.89341, 1.97426, 1.89931, 2.06975, 2.07, 2.04117, 2.04295, 2.04116, 1.96548, 2.04381, 2.04254, 1.96522, 2.04425, 2.04515, 2.04858, 2.04959, 2.04604, 2.04689, 2.03998, 2.04256, 2.04173, 2.06235, 1.96537, 2.04253, 2.04157, 2.07606, 2.04491, 2.04451, 2.05589, 1.96999, 2.04762, 2.04194, 2.06434, 1.97056, 2.05307, 2.07378, 1.97337, 2.0681, 1.97553, 2.06491, 1.97317, 2.06604, 2.06497, 2.06324, 2.05631, 2.06389, 2.05366, 2.07701, 2.05323, 2.06001, 2.06809, 2.05875, 2.05783, 2.07261, 1.97589, 2.07002, 2.05304, 1.9755, 2.05349, 2.07328, 2.05763, 2.05724, 2.05777, 2.05972, 2.05983, 2.05563, 2.06569, 2.0672, 2.06417, 1.91305, 1.90923, 1.91015, 1.90801, 1.91029, 2.11062, 1.9099, 2.10044, 2.10709, 1.90752, 1.90624, 1.90586, 1.90611, 2.10391, 1.90538, 2.1107, 1.90674, 2.08816, 2.11112, 1.90942, 1.90931, 2.10882, 1.90851, 1.91347, 2.00731, 1.91096, 2.09635, 1.91077, 1.97897, 1.90965, 1.90693, 1.90288, 1.9066, 1.90646, 1.90502, 1.90376, 1.90281, 1.90054, 1.89852, 1.89614, 1.83859, 1.83423, 1.83065, 1.82932, 1.91515, 1.8263, 1.82195, 1.82109, 1.8211, 1.81889, 1.81741, 1.81529, 1.9084, 1.81615, 1.81447, 1.81103, 1.8131, 1.81235, 1.81087, 1.81073, 1.91732, 1.80758, 1.89939, 1.80613, 1.93103, 1.92875, 1.80326, 1.80173, 1.802, 1.80414, 1.93084, 1.80357, 1.80034, 1.85187, 1.85238, 1.79922, 1.93059, 1.80303, 1.80057, 1.92473, 1.80146, 1.80036, 1.92025, 1.92232, 1.92302, 1.80033, 1.8494
1.85548, 1.90312, 1.8522, 1.85158, 1.9513, 1.85063, 1.85169, 1.85054, 1.84811, 1.85048, 1.94449, 1.84644, 1.94141, 1.84389, 1.93413, 1.934, 1.93085, 1.84103, 1.94795, 1.8408, 1.89637, 1.93421, 1.83746, 1.8379, 1.83554, 1.888, 1.83525, 1.83557, 1.83428, 1.83516, 1.83471, 1.83368, 1.83411, 1.83434, 1.93768, 2.01283, 1.82874, 1.88081, 1.92356, 2.01334, 2.01474, 1.92647, 1.83359, 1.83352, 1.83418, 1.83641, 1.83695, 1.97299, 2.06597, 2.06182, 1.98608, 1.89271, 1.96803, 2.06303, 1.98564, 1.96434, 1.9656, 1.96223, 1.9607, 1.98683, 1.88318, 1.98949, 1.98595, 1.95604, 1.8801, 2.07661, 1.95482, 1.95332, 1.95628, 1.95524, 1.9552, 1.98976, 1.87612, 1.95447, 1.99426, 1.95489, 1.95823, 1.99367, 1.95863, 2.07014, 1.88482, 1.99375, 1.99393, 1.89014, 1.97079, 1.89627, 1.99446, 2.07998, 2.09211, 2.07569, 2.05979, 2.06195, 2.0418, 1.96677, 2.05478, 1.96486, 2.04565, 2.04215, 2.04288, 1.96529, 2.04218, 2.04759, 2.04553, 2.04301, 2.04236, 2.06194, 1.96684, 2.04397, 2.05221, 2.0533, 1.96914, 2.04807, 2.04945, 2.05054, 2.04866, 2.04648, 2.04787, 2.06949, 2.05429, 1.97224, 2.07958, 2.06828, 1.97285, 2.06994, 1.97511, 2.06287, 2.06335, 2.05734, 2.06689, 2.06522, 2.06535, 2.07314, 2.07325, 2.06859, 2.063, 2.05944, 2.08101, 1.97613, 2.05243, 2.05155, 2.08203, 2.06568, 2.06347, 1.97577, 1.97768, 2.05421, 2.0553, 1.97725, 2.05589, 2.05396, 2.05389, 2.0613, 2.06825, 1.91071, 1.91016, 1.90754, 2.08682, 1.90706, 2.11079, 1.90601, 1.90562, 2.08482, 2.0839, 2.08568, 1.90675, 2.00356, 1.90687, 1.90684, 2.01187, 1.90299, 2.11737, 1.90951, 1.90815, 1.90848, 2.10535, 1.90923, 1.90849, 1.9098, 1.90803, 2.08231, 1.90942, 1.99958, 2.10045, 1.90775, 2.1108, 1.90746, 1.90544, 2.08653, 1.90364, 1.90203, 2.0996, 1.90215, 1.89823, 1.95087, 1.83405, 1.88332, 1.8303, 1.82676, 1.82419, 1.87335, 1.82082, 1.8183, 1.81908, 1.81863, 1.81689, 1.8166, 1.81446, 1.81045, 1.9105, 1.8106, 1.81055, 1.80792, 1.80608, 1.80478, 1.8067, 1.80774, 1.8062, 1.80424, 1.80234, 1.80413, 1.8025, 1.80171, 1.80312, 1.80369, 1.80392, 1.85426, 1.85303, 1.87269, 1.80196, 1.80102, 1.80283, 1.80095, 1.8001, 1.80182, 1.92542, 1.80218, 1.80049, 1.79906, 1.79792, 1.84995
2.02489, 1.8577, 1.85493, 1.85455, 1.94951, 1.85183, 1.84906, 1.84858, 1.85127, 1.84876, 1.85041, 2.1081, 2.12522, 1.84552, 1.84671, 1.84464, 1.93386, 1.89296, 1.84066, 1.84108, 1.83855, 1.8407, 1.94448, 1.94519, 1.83737, 1.94301, 1.83792, 1.83736, 1.9442, 1.93102, 1.83534, 1.93099, 1.94344, 2.02094, 1.92006, 1.92309, 1.89339, 1.8822, 1.83249, 2.01468, 2.01541, 2.01532, 1.83638, 1.83549, 1.88569, 1.8856, 1.97217, 1.97295, 2.06093, 1.97166, 1.97184, 1.98593, 1.96828, 1.98623, 1.96826, 1.98588, 1.96484, 1.88547, 1.96038, 1.96126, 1.96141, 1.96019, 1.96029, 1.95808, 1.9569, 1.99096, 2.07809, 1.95379, 1.95249, 1.95833, 1.95494, 1.99357, 1.95279, 1.95801, 1.95575, 1.9556, 1.95637, 1.99444, 1.95804, 1.88215, 1.96162, 1.96463, 1.96542, 1.99507, 1.8957, 1.97537, 1.97708, 1.90787, 2.08058, 2.07953, 2.06496, 2.07025, 2.04852, 2.06533, 2.0564, 1.96608, 2.04467, 2.04887, 2.04841, 2.04215, 2.05471, 2.04213, 1.96625, 2.04425, 2.05548, 2.06134, 2.07264, 2.07329, 1.96659, 2.04841, 2.05865, 2.05256, 1.9697, 2.0466, 2.07762, 1.97233, 1.97388, 2.05441, 2.05175, 2.05117, 2.05225, 2.05167, 2.06633, 2.06106, 2.05853, 1.97553, 2.06978, 2.07154, 2.06352, 2.066, 2.07264, 2.05425, 2.05927, 2.05253, 2.06947, 2.05617, 2.05299, 2.07053, 2.073, 2.0521, 2.06105, 2.05331, 2.06253, 2.05483, 2.05457, 2.05783, 2.05498, 2.05406, 2.05741, 2.05157, 2.0517, 2.0728, 2.07009, 1.91159, 2.09557, 1.90757, 2.10191, 2.09822, 1.90703, 1.90822, 1.90745, 2.0975, 1.90679, 1.90652, 1.90716, 1.9045, 1.90766, 1.90723, 1.9063, 1.90537, 1.90753, 1.90845, 2.10009, 1.90682, 1.90706, 1.90733, 1.90782, 1.90859, 1.90809, 1.9072, 2.108, 2.0793, 1.91072, 2.10795, 1.90482, 1.905, 1.90388, 1.90349, 2.08818, 1.9013, 1.89783, 1.9516, 1.95002, 1.95009, 1.83418, 1.82894, 1.82731, 1.82467, 1.82421, 1.82279, 1.90647, 1.81975, 1.819, 1.81737, 1.81655, 1.86605, 1.86223, 1.81329, 1.91799, 1.81094, 1.91494, 1.80974, 1.80628, 1.92298, 1.80539, 1.92082, 1.92042, 1.80588, 1.80323, 1.85281, 1.88044, 1.80175, 1.92438, 1.80263, 1.8043, 1.80365, 1.92431, 1.79971, 1.80245, 1.80274, 1.80198, 1.8004, 1.8001, 1.92321, 1.79888, 1.80012, 1.80073, 1.79921, 1.85237, 1.80112
1.85575, 1.8568, 1.85709, 1.85593, 1.90559, 1.85322, 1.95131, 1.85067, 1.85121, 1.85146, 1.8509, 1.85057, 1.84754, 1.84976, 1.89653, 1.89645, 1.89577, 1.8955, 1.89557, 1.84246, 1.95131, 1.95082, 1.84127, 1.94596, 1.83845, 1.89031, 1.9429, 1.83732, 1.83741, 2.02022, 1.94302, 1.83687, 1.83702, 1.83439, 1.837, 1.83308, 1.83382, 1.88344, 1.92326, 2.11123, 1.83401, 1.83187, 1.83257, 1.83487, 1.83534, 1.83732, 1.83725, 1.9736, 1.97384, 1.89548, 1.98785, 1.98709, 1.97184, 1.96969, 1.96899, 1.98651, 1.96742, 1.96616, 1.96478, 1.88558, 1.95887, 1.96084, 1.96097, 1.95951, 1.95894, 1.95625, 2.07106, 1.99285, 1.99367, 1.95391, 1.95318, 1.99343, 1.95739, 1.87643, 1.87847, 1.95579, 2.07293, 1.95681, 1.95885, 1.88269, 1.96209, 1.99746, 1.96749, 1.9705, 1.97323, 1.99458, 2.09637, 1.90481, 2.09413, 1.96727, 2.05666, 1.96796, 2.04392, 1.96882, 2.06302, 2.06582, 2.04855, 1.96699, 2.04245, 2.0518, 2.04689, 2.04284, 2.0667, 2.06558, 2.04578, 2.05384, 1.96922, 2.04611, 2.05719, 2.06117, 2.04521, 2.06183, 1.9704, 2.05731, 2.0625, 2.04527, 2.05904, 1.97326, 2.07192, 2.06771, 2.05129, 2.052, 2.05172, 2.06223, 2.06862, 2.06436, 2.06504, 2.06631, 2.05532, 2.05555, 2.06635, 2.06659, 1.9771, 2.05901, 2.05497, 2.06005, 2.06176, 2.0832, 2.05287, 2.05122, 1.97741, 2.05233, 2.05275, 2.05329, 2.05266, 2.05912, 2.05732, 2.05583, 2.05631, 2.05432, 2.05502, 2.06952, 2.05393, 1.91328, 1.91137, 1.91119, 1.90869, 1.90706, 2.09814, 2.00303, 1.90619, 2.09739, 1.90694, 1.9069, 1.90761, 1.90678, 2.10449, 2.00114, 1.90764, 1.95635, 1.99393, 1.9073, 1.90519, 1.90741, 1.90758, 2.1036, 2.10576, 1.90849, 1.90534, 1.90696, 1.90726, 2.09368, 1.9049, 2.08758, 1.90642, 1.90503, 1.90455, 1.9995, 1.90368, 1.90356, 1.89924, 1.90027, 1.95184, 2.07535, 1.83375, 1.83048, 1.88952, 1.82452, 1.91878, 1.9185, 1.82047, 1.81993, 1.91673, 1.81723, 1.81608, 1.81428, 1.91115, 1.8112, 1.91762, 1.80984, 1.9148, 1.9238, 1.92091, 1.91533, 1.80494, 1.80594, 1.80254, 1.92116, 1.8556, 1.85395, 1.91009, 1.8526, 1.92419, 1.92885, 1.92841, 1.92734, 1.80044, 1.80299, 1.80108, 1.80254, 1.8017, 1.79761, 1.92387, 1.85065, 1.80065, 1.85011, 1.84913, 1.80057, 1.79663, 1.79996
1.86127, 1.85864, 1.90709, 1.85817, 1.85769, 1.85527, 1.95243, 1.95204, 1.85343, 1.85109, 1.85148, 1.8523, 1.85032, 1.84897, 1.8977, 1.89819, 1.8476, 1.8959, 1.95677, 1.84382, 1.84488, 1.93372, 1.84244, 1.84149, 1.84174, 1.84048, 1.9456, 1.83839, 1.88843, 1.83774, 1.83693, 1.83746, 1.83722, 1.83492, 1.88619, 1.88642, 1.83538, 1.8346, 1.88552, 1.83439, 1.83578, 1.83336, 1.83453, 2.02058, 1.8373, 1.83801, 1.83858, 1.98935, 1.97544, 1.98789, 1.98832, 1.97066, 1.96911, 1.96806, 1.96821, 2.07263, 1.96482, 1.96634, 1.88603, 1.96455, 2.08404, 1.98967, 2.09091, 2.09723, 1.95958, 1.88059, 1.95567, 1.87947, 2.07088, 1.95066, 1.95287, 1.95371, 1.95621, 1.95574, 1.87862, 1.95566, 1.95898, 1.88222, 1.88234, 1.99627, 2.07516, 2.07675, 1.99687, 1.89285, 1.97317, 2.08816, 1.97889, 1.99677, 2.07411, 2.04514, 2.04666, 2.04677, 2.05284, 2.06123, 2.06058, 2.05887, 1.96849, 1.96908, 2.04779, 2.0488, 2.0485, 2.04433, 1.96866, 2.06426, 2.05655, 2.04557, 2.06566, 2.04909, 2.06108, 1.96858, 2.0501, 2.05814, 2.05818, 2.06069, 1.97194, 1.97217, 2.06296, 1.97397, 1.97427, 2.06267, 2.06497, 2.06882, 2.06283, 2.07632, 2.05996, 2.05979, 1.97863, 1.978, 2.06319, 2.07734, 2.06366, 1.97608, 2.06384, 2.07238, 2.07437, 2.06636, 2.06312, 1.97889, 2.06383, 2.06567, 1.97696, 2.05388, 2.05414, 2.0532, 2.05829, 2.0602, 2.0581, 2.05736, 2.05567, 2.06645, 2.05269, 1.97784, 2.0644, 1.91413, 1.91218, 1.90954, 1.90684, 1.90572, 1.9059, 1.90829, 1.90677, 1.95791, 1.95747, 2.01099, 2.01022, 1.90783, 1.90736, 1.99474, 1.90624, 2.07201, 1.95702, 1.95762, 2.09838, 2.08322, 2.08398, 1.90839, 1.907, 1.90949, 1.9052, 1.90784, 1.90825, 1.90782, 1.90669, 1.90558, 1.90587, 1.90459, 2.08826, 2.10104, 1.90035, 2.09826, 1.90019, 1.95254, 1.89894, 1.89718, 1.83436, 1.83087, 1.82494, 1.92252, 1.82424, 1.87298, 1.93833, 1.92013, 1.81865, 1.90641, 1.81413, 1.81475, 1.81274, 1.81115, 1.81064, 1.92023, 1.80632, 1.91769, 1.80459, 1.80385, 1.80309, 1.8034, 1.8063, 1.80335, 1.89986, 1.9099, 1.85222, 1.90947, 1.91055, 1.80435, 1.80258, 1.92911, 1.79994, 1.9301, 1.92536, 1.79951, 1.91156, 1.85202, 1.85102, 1.85131, 1.84942, 1.84915, 1.9214, 1.80203, 1.79789, 1.92407
1.90956, 1.85807, 1.85896, 1.94224, 1.90791, 1.90881, 1.85829, 1.95466, 1.95609, 1.85283, 1.85455, 1.85146, 1.8516, 1.95424, 1.84911, 1.84862, 1.95317, 1.84756, 1.95245, 1.84477, 1.84298, 1.89432, 1.84413, 1.84246, 1.84156, 1.83992, 1.84268, 1.84204, 1.83755, 1.88952, 1.8383, 1.83851, 1.9411, 1.88807, 1.93068, 1.83625, 1.88631, 1.88616, 1.89528, 1.83525, 1.9411, 1.83686, 2.02298, 1.83675, 2.01183, 1.83753, 1.90318, 2.06989, 1.9766, 1.97396, 1.9737, 1.99041, 1.97152, 1.99134, 1.96795, 1.96616, 1.96611, 1.966, 1.96609, 1.96544, 1.99374, 1.99231, 1.96055, 1.9613, 1.96314, 1.8819, 1.88208, 1.95691, 1.95768, 1.95633, 1.95522, 1.95457, 1.95702, 1.99768, 1.9554, 1.99689, 1.95586, 1.95592, 1.96203, 1.96213, 1.99961, 1.96676, 1.96947, 1.96868, 1.97521, 2.07001, 2.00007, 1.99757, 2.09897, 2.07061, 1.97043, 2.04849, 2.04846, 2.0657, 2.07749, 2.04589, 2.0417, 1.96863, 1.96767, 1.96927, 1.96834, 1.96879, 2.04681, 2.04613, 2.04627, 2.0456, 2.04883, 2.06158, 2.06429, 2.06126, 2.0553, 2.05958, 2.05932, 2.05894, 2.06545, 2.0654, 2.04836, 2.07393, 2.07336, 2.0619, 2.06243, 2.05895, 2.06525, 2.06304, 2.06449, 2.06316, 2.06552, 2.06204, 2.05666, 2.06716, 2.06463, 2.06845, 2.06608, 2.05283, 2.06686, 2.06314, 2.06538, 1.97948, 2.05538, 2.05371, 1.97716, 2.05429, 2.05378, 2.05608, 2.05988, 2.05789, 2.05878, 2.05653, 2.05641, 2.05525, 1.97751, 2.06655, 2.06292, 1.91038, 1.90923, 1.91069, 1.90846, 1.90451, 1.95745, 2.01061, 1.90696, 1.90659, 1.90592, 1.95688, 2.10859, 2.10504, 1.90748, 1.95805, 1.95573, 1.99185, 1.95749, 1.95771, 1.90453, 1.90766, 1.90664, 1.90773, 1.90952, 2.0976, 1.90946, 2.00253, 1.90489, 1.90764, 1.90775, 1.90675, 2.09916, 1.90405, 1.90617, 1.90252, 1.90326, 1.9519, 2.08329, 1.89949, 1.89897, 1.89822, 1.83371, 1.91615, 1.92016, 1.82445, 1.8233, 1.87152, 1.92455, 1.92015, 1.86905, 1.86674, 1.86462, 1.81307, 1.81181, 1.8092, 1.91756, 1.80855, 1.80737, 1.80715, 1.80462, 1.80297, 1.92368, 1.80556, 1.80382, 1.92384, 1.80474, 1.90878, 1.85336, 1.8003, 1.80029, 1.85485, 1.85192, 1.80264, 1.80181, 1.8019, 1.80241, 1.92696, 1.79817, 1.85467, 1.85197, 1.8498, 1.84962, 1.80016, 1.79928, 1.92106, 2.12142, 1.79802
1.86002, 1.86192, 1.91138, 1.91022, 1.91051, 1.85326, 1.85556, 1.85522, 1.95443, 1.95622, 1.85589, 2.13219, 1.85138, 1.85053, 1.85157, 1.84955, 1.84906, 1.84805, 1.84729, 1.95246, 1.84769, 1.89586, 1.94261, 1.94764, 1.84362, 1.84149, 1.8413, 1.95005, 2.12559, 1.83794, 1.83985, 1.84003, 1.83682, 1.83555, 1.83565, 1.88722, 1.88795, 1.83695, 1.83503, 2.01694, 1.83674, 1.83707, 1.88569, 1.83747, 1.83716, 2.01613, 2.06756, 1.97355, 1.97544, 1.97569, 1.97463, 1.97383, 1.97243, 1.97376, 1.99215, 1.96972, 1.96621, 1.88917, 1.96722, 1.96271, 1.88619, 1.88621, 1.8823, 1.96006, 1.96091, 1.88281, 1.95482, 2.08702, 1.88055, 1.95922, 1.95898, 1.9558, 1.95697, 1.8798, 2.08704, 1.88053, 1.95624, 1.95709, 2.00057, 2.08331, 1.96557, 1.96648, 1.96917, 2.00317, 1.89557, 1.89864, 1.90737, 2.10415, 2.09184, 2.04889, 2.04961, 2.04853, 2.08935, 2.07122, 2.04858, 2.04936, 2.04363, 1.96954, 1.96908, 1.97052, 1.97011, 2.04685, 2.0484, 2.04693, 2.04616, 2.05988, 2.05918, 2.05912, 2.0571, 1.97164, 2.05936, 2.06009, 2.06354, 2.06444, 2.07232, 2.06097, 1.97405, 2.06334, 2.0553, 2.06151, 2.05975, 2.05168, 2.05372, 2.06573, 2.06648, 1.97767, 2.0722, 2.07308, 2.07435, 2.07389, 1.97892, 2.05513, 2.05518, 2.0538, 1.97689, 2.06966, 2.07513, 2.07243, 2.0592, 2.05392, 2.05918, 2.05912, 2.05544, 2.05332, 2.05685, 2.05835, 2.06277, 2.06142, 2.05501, 2.05891, 2.06382, 2.06241, 2.08349, 1.91221, 1.91117, 1.90862, 1.90788, 2.0107, 1.90627, 2.00984, 1.90585, 1.90599, 1.90496, 1.90497, 2.10688, 1.90753, 1.90741, 1.90568, 1.95794, 1.95731, 1.9061, 1.90761, 1.90661, 1.90706, 1.90658, 1.90696, 1.9085, 2.08322, 1.90676, 2.00365, 1.90727, 2.08101, 1.90629, 1.90628, 2.11191, 2.08081, 1.90446, 2.08116, 2.07912, 1.95353, 1.95055, 1.90075, 1.99334, 1.89953, 1.88318, 1.83155, 1.82674, 1.82513, 1.82563, 1.82062, 1.92414, 1.86913, 1.88947, 1.81692, 1.86437, 1.91737, 1.81308, 1.81052, 1.80887, 1.80904, 1.80722, 1.8062, 1.92383, 1.80285, 1.92426, 1.9228, 1.91991, 1.80521, 1.85896, 1.80468, 1.8545, 1.92327, 1.80221, 1.85493, 1.85327, 1.80007, 1.92416, 1.80208, 1.80376, 1.80245, 1.80257, 1.92746, 1.80129, 1.80104, 1.7969, 1.79977, 1.79889, 1.79913, 1.79671, 1.79728
1.95495, 1.86384, 1.86258, 1.91222, 1.91153, 1.85756, 2.14574, 1.85841, 1.90762, 1.85582, 1.85578, 1.85211, 1.85299, 1.85302, 1.95084, 1.95536, 1.84999, 1.84818, 1.84867, 2.02802, 1.84709, 1.84679, 1.89597, 1.96213, 1.84564, 1.89582, 1.84189, 1.84212, 1.83825, 1.84132, 1.8415, 1.94903, 1.83864, 2.02576, 1.83858, 1.83839, 1.8385, 1.8384, 1.83754, 1.83742, 1.9386, 1.83847, 1.88705, 1.83813, 1.8374, 1.84019, 1.97945, 1.90133, 2.07591, 2.06961, 2.0758, 1.97414, 1.97212, 1.99259, 1.97073, 1.89242, 1.89, 1.96725, 1.96903, 2.07589, 1.96307, 1.99621, 1.96166, 1.96485, 1.96344, 1.99853, 1.95832, 1.95797, 1.95825, 1.99696, 1.88004, 1.99945, 1.99961, 1.95736, 1.95833, 1.95884, 1.95938, 1.99979, 1.88396, 1.96013, 1.96552, 1.96647, 2.07668, 2.07675, 1.99968, 1.97601, 1.98291, 1.99988, 2.09751, 2.05228, 2.05203, 2.04878, 2.07675, 2.04963, 2.04934, 2.05536, 2.04815, 2.04912, 1.96986, 2.05022, 1.9705, 2.05185, 2.07643, 2.04884, 2.04823, 2.04688, 2.048, 2.04727, 1.97304, 2.05537, 2.05956, 2.04936, 2.06661, 2.07199, 2.05236, 1.97596, 2.06575, 2.05927, 2.0692, 2.08047, 2.0553, 1.97874, 2.07231, 2.07897, 2.05992, 1.97876, 1.97794, 2.06597, 1.979, 1.97952, 2.06841, 2.07288, 1.97791, 1.97815, 1.97806, 2.06581, 2.06571, 1.97642, 2.0796, 1.9768, 2.06974, 2.05907, 2.05539, 2.05546, 2.05503, 2.05636, 2.06188, 2.05835, 2.05387, 1.97619, 2.05327, 2.05477, 2.05543, 1.91122, 1.90969, 1.90849, 1.90706, 2.012, 1.90996, 1.90684, 1.90749, 2.00986, 1.90455, 1.9561, 1.98448, 2.00771, 1.90603, 1.90402, 1.90342, 2.10084, 1.90646, 1.90562, 2.08698, 2.09606, 1.90542, 2.01045, 2.08181, 1.95829, 1.90796, 1.90829, 1.90683, 1.90477, 2.07994, 1.90575, 1.90397, 1.90269, 1.90305, 1.90244, 2.07994, 1.90297, 1.90264, 1.90014, 1.90052, 1.89931, 1.91535, 1.92618, 1.94174, 1.82634, 1.92772, 1.82318, 1.86903, 1.86818, 1.86749, 1.81189, 1.81075, 2.03845, 1.80781, 1.80986, 1.85882, 1.80799, 1.85542, 1.80505, 1.85462, 1.90437, 1.80288, 1.92391, 1.8034, 1.85144, 1.80252, 1.92227, 1.91062, 1.90749, 1.802, 1.92388, 1.92322, 1.97892, 1.97739, 1.92665, 1.7992, 1.85286, 1.80094, 1.79984, 1.79952, 1.79967, 1.92963, 1.80167, 1.7997, 1.79915, 1.92191, 1.79946
1.91667, 1.86433, 1.96079, 1.8634, 2.11845, 1.8596, 1.85856, 1.91029, 1.91037, 2.11723, 1.85684, 1.85447, 1.85369, 1.8535, 1.85407, 1.95921, 1.9459, 1.85151, 1.95121, 1.84849, 1.84639, 1.84773, 1.9551, 1.96185, 1.84482, 1.84501, 1.84524, 1.9554, 1.84406, 1.84245, 1.84174, 1.84182, 2.02839, 1.83936, 1.93358, 1.83808, 1.83757, 2.02133, 2.02868, 1.83767, 1.94073, 2.02363, 1.83882, 1.83709, 1.88952, 1.84109, 1.98214, 1.97982, 2.0766, 1.97737, 1.97467, 2.07523, 2.07977, 1.99075, 2.09697, 1.97062, 1.96892, 1.96752, 1.96572, 1.96887, 1.96506, 1.96188, 1.96192, 1.96162, 2.0832, 1.95959, 1.88361, 1.96182, 1.95907, 1.95837, 2.0007, 1.95906, 1.95772, 2.00113, 1.95694, 1.99986, 2.00177, 1.96237, 1.96354, 1.96267, 2.0016, 2.07955, 1.96927, 1.89376, 1.89918, 2.00297, 1.99956, 2.09438, 2.08322, 2.07328, 2.05161, 2.05021, 2.04827, 1.97175, 2.04955, 2.04929, 2.05204, 1.97056, 2.05085, 2.05213, 2.04921, 2.0497, 2.04831, 2.04859, 2.07383, 2.0488, 2.06876, 2.05555, 2.06227, 2.05327, 2.05126, 2.05157, 2.05856, 2.05981, 2.0571, 2.07547, 2.06049, 1.97633, 1.97617, 2.06456, 2.05575, 2.06207, 2.06911, 2.05468, 2.05298, 1.97934, 2.07126, 2.07687, 2.08012, 2.0667, 2.07121, 2.06153, 2.0641, 2.07224, 2.07968, 2.06724, 2.07375, 2.07317, 2.06721, 1.97839, 2.06211, 2.05527, 2.0548, 2.07512, 2.05644, 2.05332, 2.06286, 2.06053, 2.06142, 2.05539, 2.05275, 2.06656, 2.05664, 1.91116, 2.0107, 1.90945, 2.08638, 1.90826, 1.90769, 2.0079, 2.0067, 1.90733, 1.90665, 1.90563, 1.90417, 2.01005, 1.90718, 1.90446, 2.09402, 1.90596, 1.90779, 1.90604, 2.08562, 2.10067, 1.9077, 1.9098, 1.90646, 1.95801, 1.90624, 1.90794, 1.90695, 2.09331, 2.07972, 1.90687, 1.90454, 1.90042, 1.90302, 1.90226, 2.10706, 1.90247, 1.90326, 1.8975, 1.90337, 1.83565, 1.83379, 1.83114, 1.92487, 1.92041, 1.82405, 1.82245, 1.86938, 1.86835, 1.86759, 1.81459, 1.81391, 1.93252, 1.93028, 1.80983, 1.92597, 1.80726, 1.85538, 1.85458, 1.85457, 1.90675, 1.80266, 1.80035, 1.91225, 1.80341, 1.80012, 1.85099, 1.87833, 1.79959, 1.92471, 1.90013, 1.9268, 1.8004, 1.97671, 1.92661, 1.80198, 1.79827, 1.8897, 1.92495, 1.92741, 1.92388, 1.80279, 1.80026, 1.79764, 1.84866, 1.79791, 1.79884
1.91615, 1.96281, 1.86601, 1.96271, 1.86451, 1.95936, 1.86178, 1.91043, 1.91056, 1.91081, 1.85915, 1.85772, 1.95968, 1.85468, 1.85406, 1.85339, 1.85153, 1.90004, 1.89931, 1.85125, 1.84783, 1.84832, 1.84769, 1.84837, 1.84565, 1.8954, 1.89485, 1.84358, 2.03184, 2.02994, 1.84255, 1.8424, 1.84412, 1.83832, 2.02534, 2.02691, 1.93456, 1.8393, 1.84032, 1.83902, 1.83908, 1.83803, 1.8381, 1.93855, 1.9407, 1.84205, 1.98141, 1.9962, 2.07297, 2.07935, 1.97825, 2.07982, 2.07898, 1.97295, 1.9968, 1.89426, 1.96869, 2.09473, 1.9967, 1.88876, 1.88783, 1.96502, 1.96247, 1.96362, 1.96449, 1.95955, 2.00065, 1.95987, 1.88293, 1.95972, 2.00197, 2.00195, 1.9616, 1.95868, 1.95834, 2.00312, 2.00317, 1.96133, 1.96503, 2.09652, 2.00117, 2.00312, 1.97329, 1.97324, 1.97563, 1.90235, 1.98673, 2.00245, 2.10023, 2.06102, 2.07718, 2.05183, 2.0512, 2.06856, 2.06681, 2.05892, 2.05552, 2.05569, 2.05108, 2.0526, 2.05046, 2.0544, 1.97259, 2.05145, 2.07688, 2.04893, 2.049, 2.04866, 2.08582, 2.08283, 2.07315, 1.97235, 2.06896, 2.05208, 2.05222, 2.05876, 2.05838, 1.97661, 1.97805, 1.97823, 2.0655, 2.07867, 2.0608, 2.06311, 2.06658, 2.06224, 2.07951, 1.97953, 1.97901, 2.06513, 2.06619, 2.06243, 2.05925, 2.05688, 1.97852, 2.06643, 2.06573, 2.0629, 2.05878, 2.06207, 2.05395, 2.07062, 2.07716, 2.08588, 2.057, 2.05637, 2.05566, 2.05901, 2.06257, 1.97874, 2.05479, 2.05824, 2.05696, 1.91037, 2.10964, 2.08897, 2.08798, 2.1072, 1.90685, 1.90508, 2.01954, 1.90731, 1.9068, 2.09732, 1.90494, 1.90418, 1.9691, 1.90638, 1.96363, 2.08817, 1.90633, 1.90758, 2.09892, 2.00649, 2.00524, 2.00519, 2.10578, 1.90756, 1.90796, 1.90631, 2.0065, 1.90567, 1.9061, 1.90405, 1.9027, 1.90246, 1.90336, 1.90289, 1.901, 1.90117, 1.90168, 1.90252, 1.89998, 1.89921, 1.9268, 1.83003, 1.92427, 1.9212, 1.92747, 1.92709, 1.81803, 1.92944, 1.8143, 1.81457, 1.81299, 1.86151, 1.81001, 1.85802, 1.80813, 1.80708, 1.8551, 1.85489, 1.8547, 1.80413, 1.80312, 1.80219, 1.91363, 1.80428, 1.80364, 1.80423, 1.92309, 1.80328, 1.80218, 1.92751, 1.80243, 1.80275, 1.85431, 1.85046, 1.92616, 1.79971, 1.80334, 1.80288, 1.80146, 1.80243, 1.79645, 1.7979, 1.80116, 1.79795, 1.84845, 1.92149
1.86853, 1.86589, 1.86782, 1.86535, 1.86522, 1.95246, 1.86274, 1.86506, 1.91289, 1.91158, 1.91006, 1.8598, 1.85852, 1.85514, 1.95144, 1.96112, 1.96931, 1.85162, 1.90086, 1.8529, 1.84957, 1.84695, 1.84836, 2.03754, 1.8477, 1.89659, 2.02129, 1.84203, 2.03292, 2.03163, 1.84263, 1.84255, 2.03438, 1.84304, 1.94281, 1.93537, 1.93683, 1.89072, 1.84159, 1.84171, 1.84142, 1.84079, 1.83954, 1.94302, 1.94092, 1.84205, 1.90424, 1.90413, 2.0781, 1.90167, 2.08127, 1.97699, 1.97523, 2.07968, 1.97378, 1.97162, 2.10273, 2.10433, 1.96856, 1.9662, 1.96663, 1.99694, 1.96495, 1.88558, 1.88591, 1.96154, 1.95979, 1.9996, 1.95882, 1.88231, 1.88026, 1.88156, 1.88244, 1.95962, 1.96032, 1.95897, 1.9605, 1.965, 1.88637, 1.96322, 1.96618, 2.00339, 2.00192, 1.97319, 1.97706, 1.97912, 1.98774, 1.91063, 2.08598, 2.07207, 2.0539, 2.07549, 2.07669, 2.06533, 2.07145, 2.05704, 2.05345, 2.0518, 2.04595, 2.04643, 2.05579, 2.05479, 2.04957, 1.97227, 2.06946, 2.07015, 2.05024, 2.0498, 2.09071, 2.0818, 2.05118, 2.05002, 2.06078, 2.0707, 2.07624, 2.05899, 1.9762, 2.06145, 2.06513, 1.9793, 1.98006, 2.07389, 2.07326, 2.05958, 2.06649, 1.98212, 2.08252, 2.07877, 2.06086, 1.97896, 1.97962, 2.06922, 2.05915, 2.05779, 2.05693, 2.07052, 2.06196, 2.07987, 2.07431, 2.0658, 2.05567, 2.08328, 2.07613, 2.06756, 2.05951, 2.06183, 2.06144, 2.0582, 2.05976, 2.05615, 1.97889, 2.07215, 2.06337, 1.91157, 1.95884, 1.95773, 2.1117, 2.0934, 1.90382, 1.90403, 1.90413, 1.90582, 2.00997, 2.00989, 1.96529, 1.96502, 1.90631, 1.90532, 1.90453, 1.90335, 2.01033, 2.00992, 1.90774, 2.00766, 1.90661, 2.09382, 2.09961, 2.11177, 1.90685, 1.90614, 1.96151, 1.95519, 1.90541, 1.90606, 1.90301, 1.90308, 1.90363, 1.90563, 1.90263, 2.08599, 1.90285, 2.09752, 1.90074, 1.92072, 1.93052, 1.8284, 1.82653, 1.87327, 1.82054, 1.98057, 1.82005, 1.81614, 1.81537, 1.93171, 1.90191, 1.86152, 1.86665, 1.81053, 1.90732, 1.93018, 1.80116, 1.92695, 1.85417, 1.80314, 1.92766, 1.80121, 1.8003, 1.80324, 1.80057, 1.80211, 1.80219, 1.96242, 1.92526, 1.92376, 1.92834, 1.85286, 1.80189, 1.85173, 1.80322, 1.80562, 1.91695, 1.80145, 1.79991, 1.84935, 1.79815, 1.98306, 1.92107, 1.91891, 1.7957, 1.79971
1.87012, 1.86646, 1.9182, 1.91695, 1.86823, 1.93719, 1.86524, 1.91339, 1.91347, 1.86232, 1.91178, 1.97545, 1.96084, 1.858, 2.04232, 1.95631, 1.97286, 1.97378, 1.97686, 1.85146, 1.95983, 1.94416, 1.84923, 1.84872, 1.8999, 1.85004, 1.95172, 1.93517, 1.89656, 1.84304, 1.90078, 1.84391, 1.84435, 1.94932, 2.03466, 1.94818, 1.93953, 1.89144, 1.84033, 1.93285, 1.90558, 1.84079, 1.84101, 1.84139, 1.84193, 1.84322, 1.90625, 2.07763, 2.07691, 2.07539, 2.08201, 2.08252, 1.97614, 1.976, 1.97447, 1.97319, 2.09644, 1.96928, 1.969, 1.96639, 1.89055, 1.96516, 1.96718, 1.96448, 1.88594, 1.96251, 2.00149, 1.96128, 1.95853, 1.88282, 1.95946, 1.96001, 1.95853, 1.95928, 1.96058, 1.96141, 1.88445, 2.08833, 1.96353, 1.96618, 1.96667, 1.96931, 1.89646, 1.97247, 1.9782, 1.98088, 1.90803, 1.99212, 2.00502, 1.97593, 2.06524, 2.05689, 2.0522, 2.05059, 2.05051, 2.04849, 2.04877, 1.97428, 1.97266, 2.05331, 2.0517, 2.05018, 2.04894, 2.06389, 2.05009, 2.05053, 2.04923, 2.06486, 2.05902, 1.97336, 2.07064, 2.06831, 2.05104, 1.97873, 1.97885, 1.97641, 1.97893, 2.0596, 1.97643, 1.97963, 1.9789, 2.05859, 2.06466, 2.07228, 2.06352, 2.06623, 2.0658, 2.07096, 2.06241, 2.07012, 1.98192, 1.97923, 2.06683, 2.07338, 2.05734, 2.05646, 1.97959, 2.05822, 2.07404, 2.07905, 2.08062, 2.0757, 2.06725, 2.05564, 2.05708, 2.0617, 2.0578, 2.05988, 2.06216, 2.06267, 1.97693, 2.0722, 1.97955, 1.9852, 1.95986, 1.91042, 1.90636, 1.90727, 1.90483, 1.90613, 2.01058, 1.90294, 2.01062, 2.10631, 2.08792, 1.95793, 2.10353, 1.9024, 1.90618, 2.01709, 1.9072, 2.09017, 2.09616, 1.90447, 2.00817, 1.90771, 1.99579, 1.99411, 1.90364, 1.906, 1.90601, 1.956, 1.99442, 1.90383, 1.90337, 1.90392, 2.09787, 1.90351, 1.90267, 1.90144, 1.90238, 2.07629, 1.9013, 1.92054, 1.88043, 1.94769, 1.82807, 1.88471, 1.8718, 1.82027, 1.81986, 1.93228, 1.81606, 1.81156, 1.80826, 1.8102, 1.808, 1.80753, 1.80517, 1.93254, 1.80587, 1.80446, 1.80257, 1.93147, 1.80269, 1.79979, 1.80088, 1.8034, 1.79984, 1.92652, 1.80278, 1.79868, 1.9278, 1.80024, 1.93055, 1.80072, 1.80236, 1.8018, 1.80046, 1.80259, 1.92321, 1.79969, 1.80268, 1.80165, 1.80007, 1.79977, 1.79942, 1.92139, 1.92365, 1.79829
1.8685, 1.96806, 1.86979, 1.91991, 1.86986, 1.86617, 1.86857, 1.96285, 1.86277, 1.91176, 1.95612, 1.85945, 1.91032, 1.90862, 1.85876, 1.90704, 1.90699, 1.95873, 1.96192, 1.9564, 2.04102, 2.03992, 1.96453, 1.84944, 1.95337, 1.84855, 1.84786, 1.93849, 1.94387, 1.90396, 1.90278, 1.89631, 1.94091, 1.93867, 1.9185, 1.89237, 1.84361, 1.83854, 1.89184, 1.89146, 1.84343, 1.84312, 1.84097, 1.84195, 1.84316, 1.84319, 1.98263, 1.98275, 1.99894, 2.0827, 2.08348, 1.99897, 2.08472, 1.97737, 1.97601, 1.89659, 1.97236, 1.97086, 2.08654, 1.97192, 1.96747, 1.96609, 1.96618, 1.96409, 1.96506, 1.9634, 1.96371, 1.88606, 1.88526, 1.9606, 1.96064, 1.95983, 1.95835, 2.09445, 1.96129, 1.96157, 1.96339, 2.08408, 1.88733, 1.96771, 1.89049, 2.09996, 1.89661, 1.97511, 1.98198, 2.08928, 1.98644, 2.00512, 2.09032, 2.07022, 2.06255, 2.05394, 2.05183, 2.06977, 2.04992, 2.05546, 1.97497, 1.97563, 2.05465, 2.05562, 2.05579, 2.05042, 2.0505, 2.0576, 2.08759, 2.0728, 2.06548, 2.0597, 2.05959, 2.06064, 2.07645, 1.9763, 2.05808, 2.07107, 2.06563, 1.97904, 2.08637, 2.06307, 2.05574, 2.0667, 2.06309, 2.05654, 2.07906, 2.06338, 2.06641, 2.06614, 2.06394, 2.0686, 1.98167, 2.0722, 2.07154, 2.07205, 2.06588, 2.0777, 2.07407, 2.05869, 2.06167, 2.05613, 2.07434, 1.98004, 2.06199, 2.05857, 2.06531, 1.97835, 1.97894, 2.0564, 2.05882, 2.05525, 2.06291, 2.06236, 2.05276, 2.07001, 1.97935, 1.98632, 1.98524, 1.90818, 1.90706, 1.90605, 2.11352, 1.90526, 1.90475, 2.00955, 2.08762, 2.08957, 1.90395, 1.9064, 2.00964, 2.00177, 2.09042, 1.90668, 1.90633, 1.90714, 1.99955, 1.90671, 2.00774, 1.90518, 1.99855, 1.99686, 1.90613, 1.9075, 1.90825, 1.90628, 1.98923, 1.98766, 1.90346, 2.07743, 2.10042, 1.95499, 1.95406, 1.90461, 2.10047, 1.9017, 1.90246, 1.88547, 1.83419, 1.83065, 1.87621, 1.82422, 1.89169, 1.86991, 1.81748, 1.93306, 1.81474, 1.81312, 1.80877, 1.80977, 1.80922, 1.93084, 1.80652, 1.80393, 1.80249, 1.92769, 1.80174, 1.80044, 1.79975, 2.03163, 1.80163, 1.80003, 1.92663, 1.92488, 1.93064, 1.79918, 1.85132, 1.80138, 1.79828, 1.92374, 1.79887, 1.80156, 1.80077, 1.80172, 1.92516, 1.92794, 1.92334, 1.79979, 1.9228, 1.79955, 1.92499, 1.79881, 1.79704, 1.79751
1.86902, 1.87125, 1.95779, 1.95819, 1.96773, 2.12603, 1.86493, 1.969, 1.86338, 1.86324, 1.91416, 1.95204, 1.95356, 1.91221, 1.85916, 1.85617, 1.85804, 1.90701, 1.85494, 1.94979, 1.9553, 1.85331, 1.96516, 1.96362, 1.96185, 1.85207, 1.85042, 1.8501, 1.89799, 1.84798, 1.84729, 1.84542, 1.95123, 1.96468, 1.91988, 1.84426, 1.84436, 2.02756, 1.84295, 1.84378, 1.94809, 1.89379, 1.94493, 2.02249, 2.03582, 1.84456, 2.07961, 2.08353, 1.98327, 2.00083, 2.00071, 2.08064, 2.0798, 2.07987, 2.11415, 1.89762, 1.89622, 1.97183, 1.97223, 1.89328, 1.96943, 2.00775, 1.96523, 1.8898, 1.96733, 1.96587, 1.96636, 1.88586, 1.96053, 1.96214, 1.96264, 1.88284, 1.96213, 1.96145, 1.88589, 1.96221, 1.96479, 2.00708, 1.88908, 1.96575, 2.00669, 2.08455, 1.89699, 1.97603, 1.90166, 1.98164, 2.0037, 2.00591, 2.11424, 1.97882, 1.97922, 1.97921, 2.05602, 2.07566, 2.0673, 1.97511, 1.97527, 1.97605, 1.97457, 1.9743, 2.05326, 2.05387, 2.05113, 2.09023, 2.05332, 2.05204, 2.06666, 2.08028, 2.05274, 2.05178, 2.0754, 2.07627, 1.97792, 2.07199, 1.97564, 1.97894, 2.06844, 2.06877, 1.9791, 2.06598, 2.07379, 2.07719, 2.08236, 1.98043, 2.06348, 2.07555, 2.07316, 1.98398, 2.08997, 2.06428, 1.98058, 2.07399, 2.07964, 2.07382, 2.07412, 1.97961, 2.05844, 2.06507, 2.06137, 2.0627, 2.07229, 2.05635, 2.05523, 2.05457, 2.05398, 2.06241, 2.05961, 2.06588, 2.05481, 2.05557, 2.05513, 2.08108, 2.0729, 1.90949, 1.91075, 1.91005, 1.9074, 1.90646, 2.089, 1.90727, 1.9046, 1.9039, 2.00828, 1.90594, 1.90665, 2.10424, 1.90664, 1.9065, 1.90619, 2.00695, 1.90713, 1.90766, 1.90684, 2.10513, 1.90678, 1.99331, 1.99017, 1.95539, 1.90607, 1.90547, 1.90405, 1.90986, 1.90653, 2.00048, 1.90408, 1.90382, 2.09369, 2.08972, 1.90298, 1.90338, 2.07731, 2.07605, 1.90214, 1.93065, 1.92969, 1.82878, 1.91799, 1.91696, 1.91637, 1.86977, 1.81857, 1.93117, 1.81427, 1.81281, 1.90992, 1.85933, 1.85894, 1.80658, 1.80421, 1.80565, 1.8033, 1.80413, 1.92788, 1.80063, 1.85097, 1.85021, 1.79897, 1.92702, 1.80137, 1.79914, 1.8014, 1.79722, 1.80268, 1.80116, 1.85234, 1.85078, 1.79942, 1.92092, 1.79923, 1.92602, 1.92527, 1.79895, 1.80025, 1.80022, 1.92475, 1.92132, 1.80026, 1.85533, 1.85418, 1.79659
1.87104, 1.92124, 1.95829, 1.92187, 1.87233, 1.87222, 1.87185, 1.8663, 1.86562, 1.86677, 1.91573, 1.96551, 1.96824, 1.86203, 1.86278, 1.97283, 1.97146, 1.85986, 1.86132, 2.02548, 1.90621, 1.90702, 1.85313, 1.96291, 1.8503, 1.85192, 1.95205, 1.89985, 1.84842, 1.84838, 1.95301, 1.95812, 1.84659, 1.96466, 1.95493, 1.94453, 1.84443, 1.8444, 1.95056, 1.94799, 1.9502, 1.84357, 1.84417, 1.84428, 1.84641, 1.84694, 2.08025, 1.90978, 1.98381, 1.984, 1.98128, 1.97945, 2.07987, 1.9794, 1.98012, 1.89986, 1.97451, 1.97438, 1.97473, 1.97075, 1.97038, 1.9687, 2.00438, 1.96605, 2.10715, 2.09798, 1.88793, 1.96229, 2.00631, 1.96091, 1.96357, 1.96393, 2.01056, 1.96179, 1.88486, 1.88646, 1.88674, 1.88716, 1.96702, 1.88977, 1.96917, 1.96976, 1.97493, 1.97532, 2.08647, 2.00641, 1.98885, 2.00579, 2.10307, 1.9335, 2.07039, 1.97865, 1.97951, 2.08683, 2.06223, 2.05311, 1.97646, 1.9775, 1.97605, 1.97561, 2.05902, 2.05475, 2.0533, 2.06986, 2.0517, 2.05245, 2.07229, 1.9769, 2.08397, 2.0787, 2.07695, 2.07002, 2.06326, 1.9771, 2.08397, 2.08379, 1.97983, 2.07227, 2.06817, 2.07607, 2.05597, 2.07126, 2.06426, 1.98097, 2.06941, 2.06805, 2.0577, 2.06502, 2.08645, 1.98061, 1.98054, 2.06825, 2.06959, 2.08208, 1.98278, 1.98219, 2.05642, 2.06973, 2.06621, 2.06099, 2.07241, 2.05434, 2.05564, 2.05477, 1.97765, 2.0563, 2.06205, 2.05747, 2.05692, 2.05624, 2.05497, 2.06472, 2.06668, 2.10413, 1.90768, 2.09281, 2.09703, 1.95639, 1.90508, 1.90555, 1.9561, 1.95622, 1.95489, 1.95522, 2.00048, 1.90423, 2.10095, 2.11029, 1.90742, 1.90687, 1.90703, 1.90733, 1.90717, 2.08763, 2.08687, 1.90496, 1.9073, 2.00048, 1.90622, 1.90612, 2.10701, 2.08976, 2.08348, 2.09005, 1.90395, 1.90475, 2.09689, 1.90291, 1.90245, 1.9014, 2.09777, 1.90254, 1.98933, 1.83431, 1.83406, 1.93035, 1.82734, 1.82353, 1.93088, 1.81835, 1.81707, 1.93193, 1.81337, 1.81121, 1.81134, 1.80784, 1.80702, 1.92902, 1.80583, 1.85398, 1.80435, 1.93671, 1.80168, 1.80273, 1.85154, 1.85037, 1.80065, 1.93111, 1.93148, 1.89567, 1.93025, 1.85087, 1.85011, 1.80092, 1.85075, 1.80045, 1.85188, 1.90954, 1.90591, 1.92707, 1.79937, 1.7993, 1.79731, 1.92909, 1.89957, 1.79816, 1.79772, 1.8527, 1.79712, 1.79631
