1.86414655541068,1.97832008333287,1.91051532423765,1.8598264236169,1.8596036365513,1.85636838090304,1.97782607723089,1.85470232110813,1.8528619062184,1.85164142055469,1.85254225521124,1.97447458485275,1.84710818808946,1.84779592207457,1.84689508741802,1.97099716935058,1.8469435193888,1.96453634444823,1.84647857246929,1.9665220552503,1.94688773429516,1.89306044196771,1.84357265422236,1.84156757063197,1.84303021614959,1.88777167075828,1.89014483732661,1.83942687752339,1.94575442617885,1.95409441154756,1.89162685563255,1.89126845904876,1.89158811005593,1.89453277387949,1.83961091901236,1.84053112645723,1.84024053463253,1.83998868838447,1.84106387813583,2.01201904860319,2.01266803701167,1.97715771603409,1.97716740242825,1.97678963305615,1.97536573311515,1.97435834812288,1.97419367942222,1.97669276911458,2.00079251777585,1.89540454935357,1.96605710833079,1.96541780631646,2.08028875461792,1.89022232847987,1.96147544389478,1.96185321326689,1.95980938409987,1.99774130361657,1.99842903760168,1.95468528159111,1.95271894357734,1.95376507414624,1.87985788673245,1.94750766352117,1.94653902410552,1.94727519006141,1.94671337920034,1.94421428950797,1.99494193570535,1.99650144516454,1.99715043357303,1.94257728889553,1.94157959029742,1.94091122910062,1.86729463351153,1.99319838475719,1.93828621628422,1.93810217479525,1.99195852630516,1.93783095575887,1.93792781970043,1.9384024530141,1.94051408694021,1.94169582702729,1.9875221577815,1.98731874350422,1.9475464090978,2.07051518291405,1.98849079719715,1.94981302533041,1.95337761837998,1.98441282525728,1.95630290941523,1.88728735105046,2.06760926466711,1.98356042257151,2.07472876437211,1.95711656652438,2.03440430549877,2.02856340982243,2.02853435063996,1.95388131087612,2.03449148304618,2.03502423472478,2.03129497297455,1.95160500824935,1.95018110830835,1.94969678860053,1.94821477029459,1.94862159884916,1.9480791607764,1.94787574649912,1.94791449207574,2.03550855443261,2.04188220178756,1.94711052136075,1.94750766352117,2.03869537811008,2.03757175638793,2.02105645435117,2.04496247512931,2.02733323776455,2.01838300956399,2.02076586252647,2.01909011633741,2.04502059349425,2.01778245312628,2.03239922190838,2.0336197075721,2.04833334029576,2.02100802238039,2.02015561969462,2.01758872524316,2.01816022249839,2.03638032990669,1.94214140115849,2.01753060687822,2.01738531096587,2.02173450194212,2.03438493271046,1.9414730399617,2.02718794185221,2.02487289364881,1.9407368740058,2.02809846290291,1.93897395026933,1.94054314612267,1.93884802714529,1.9375113047517,2.02765288877172,2.02868933294646,2.01816990889254,2.026122438495,2.02011687411799,2.01779213952044,2.02498913037869,2.0149540260326,1.93280371719166,1.9316607226812,1.93037243225839,2.00437648361374,2.01231932682204,2.0255218820573,2.01029487044334,1.92764086910627,1.92529676172041,1.92459934134114,1.92688533036207,1.92478338283012,1.92518052499053,1.92368882029043,1.92200338770721,2.02474697052478,1.9235628971664,2.01716252390027,1.89909506552718,1.89996684100127,1.89413563171908,1.84130603798974,1.83820639185968,1.83643378172905,1.83391531924837,1.83294667983272,1.88969926319542,1.83034103980463,1.82608871276995,1.82679581954337,1.87311615639956,1.87199253467741,1.82420955230359,1.82311498976391,1.8212261429034,1.95496618702164,2.02740104252365,1.81941478719615,1.81938572801368,1.81945353277277,1.81951165113771,1.87356173053076,1.86611289342444,1.95233148781109,1.81548211116862,1.81944384637862,1.81773904100708,1.81672196962065,1.81652824173752,1.9501036171551,1.81704162062781,1.94681992953606,2.03544074967351,1.81950196474355,1.81708036620444,1.81770029543045,1.81741938999992
1.86363317652038,1.86331352551322,1.85990391477015,1.97709959766915,1.97847506563937,2.05246943060057,1.85539974148739,1.85352058102104,1.85123459200012,2.0547747924098,1.94352655552286,1.84973320090587,1.8491035852857,1.89770991116281,1.84873550230775,1.89796175741088,1.84480282628023,1.84713724727193,1.84665292756411,1.91443831387102,1.8945521466678,1.84524840041142,1.96751006745426,1.9666770375568,1.89088100328251,1.8431851984561,1.84140290193131,1.8372668116265,1.95628353662692,1.95736841277245,1.83838074695449,1.83982401968381,1.89299263720861,1.83987245165459,1.84062799039879,1.88835285440767,1.95242835175265,1.83965935098315,1.84010492511434,1.84336923994507,2.0131523567195,1.97758391737698,1.97599534873532,1.97589848479375,1.97578224806388,1.97517200523202,2.00463801625597,1.89701249078354,2.00403745981827,2.00087000892911,2.08098617499718,2.08406644833894,1.96675452871006,2.09126343919719,1.96122359764672,2.07830304381585,2.08511257890784,1.95526646524049,1.99954297292967,1.95676785633474,1.9989811620686,1.95694221142956,1.95711656652438,1.95664193321071,1.94977427975378,1.9501714219142,1.87362953528985,1.87326145231191,1.94720738530232,1.94636466901071,1.99761538049254,1.86742055663556,1.94310035417998,1.99352772215851,1.8668781185628,1.94025255429798,1.94016537675057,1.93860586729138,1.86531860910361,1.99503879964692,1.99106737804277,1.94089185631231,1.9906605494882,1.9418508093338,1.94388495210665,1.94449519493851,1.98766745369385,2.07468033240133,1.87234124486704,1.95166312661429,1.98679567821977,1.95432688500732,1.95421064827744,2.07158068627126,1.98434502049819,2.0649648790624,1.98650508639508,2.04931166610556,2.05209166122847,2.04033237872252,2.04103948549594,2.02799191256719,2.02790473501979,2.05252754896551,2.0270329595457,2.02457261542996,2.02227694001488,1.95073323277527,1.95056856407461,1.95033609061486,1.94986145730119,1.94941588316999,1.9481469655355,1.9478563737108,2.03103344033232,2.01861548302374,2.02741072891781,2.02254815905126,2.02949330366144,2.03685496322035,2.03594444216965,1.94698459823672,2.03445273746955,2.03913126584712,2.03202145253628,2.05908523780943,2.03870506450424,2.03146932806936,2.03822074479642,2.0252312902326,2.02829219078604,2.01956474965107,2.01897387960753,2.02519254465598,2.02917365265428,2.0355763591917,2.02032028839528,2.0246307337949,2.01567081920018,2.01486684848519,1.94034941823955,2.03405559530914,2.01410162334683,2.03109155869726,2.02388488144485,2.0363318979359,1.94016537675057,1.93789876051796,2.0222963128032,2.01560301444108,1.93838308022578,2.01447939271893,2.03184709744146,2.0205818210375,2.02082398089141,2.02907678871272,2.0143534695949,1.93184476417017,1.93042086422917,1.93063396490062,2.01864454220621,2.01722064226521,2.01075981736285,2.01284239210649,1.92672066166141,1.92507397465481,1.92478338283012,1.92465745970608,1.92381474341447,1.92437655427554,1.92321418697677,1.92319481418846,2.02462104740075,2.01887701566596,1.99745071179188,1.9561769862912,1.95447218091966,1.84307864812038,1.84216812706967,1.83862290680841,1.83660813682386,1.83411873352565,1.88755857008684,1.88655118509457,1.82962424663705,1.82733825761613,1.82501352301858,1.92451216379373,1.82419017951528,1.82355087750095,1.82300843942819,2.03581851904561,1.95786241887443,1.81896921306495,1.81809743759087,1.81897889945911,1.82038342661179,1.81787465052527,1.90432571837167,1.90286307285405,1.81698350226287,1.93479911438789,1.81840740220387,1.81670259683234,1.91504855670287,1.81429068468738,1.91810945725631,1.81898858585326,1.91016661404802,1.81833959744478,1.81884328994091,1.81883360354676,1.81701256144534,2.03577008707483
0,0,0,0,0,0,0,0,0,0,0,0,0,0,0,0,0,0,0,0,0,0,0,0,0,0,0,0,0,0,0,0,0,0,0,0,0,0,0,0,0,0,0,0,0,0,0,0,0,0,0,0,0,0,0,0,0,0,0,0,0,0,0,0,0,0,0,0,0,0,0,0,0,0,0,0,0,0,0,0,0,0,0,0,0,0,0,0,0,0,0,0,0,0,0,0,0,0,0,0,0,0,0,0,0,0,0,0,0,0,0,0,0,0,0,0,0,0,0,0,0,0,0,0,0,0,0,0,0,0,0,0,0,0,0,0,0,0,0,0,0,0,0,0,0,0,0,0,0,0,0,0,0,0,0,0,0,0,0,0,0,0,0,0,0,0,0,0,0,0,0,0,0,0,0,0,0,0,0,0,0,0,0,0,0,0,0,0,0,0,0,0,0,0,0,0,0,0,0,0,0,0,0,0,0,0,0,0,0,0,0,0,0,0
1.86579324241727,1.98039297168235,1.86283889219955,1.86182182081313,1.85725952916543,1.98402536949102,1.85677520945761,1.98143910225125,1.8548863625971,1.84736972073169,1.94186049572795,1.9747748630716,1.84961696417599,1.84722442481934,1.85117647363518,1.84744721188494,1.96711292529384,1.93760816869327,1.89601479218543,1.89573388675489,2.02362334880263,1.91751858721277,1.95453998567876,1.84396010998861,1.84505467252829,2.03434618713383,1.84234248216449,1.84321425763857,1.84313676648532,1.84102513255921,1.84142227471962,1.8993372253811,1.88916651151681,1.84219718625214,1.84200345836901,1.84221655904045,1.84123823323065,1.8403373985741,2.04398414931951,1.84306896172622,2.01301674720131,1.98405442867349,1.98389944636699,1.97877534385822,2.00750518892628,1.97511388686708,1.89872698254924,1.89989903624217,1.97329284476567,1.96989292041675,1.96838184292834,2.00233265444673,1.89342852494565,1.96515627367424,1.96146575750063,1.96161105341297,1.9606036684207,1.96013872150119,1.96094269221618,1.95471434077358,1.95426876664238,1.95246709732928,1.95112068854153,1.95018110830835,1.9501714219142,1.94789511928743,1.94790480568158,1.94721707169648,2.08066652399002,2.08836720734441,1.99621085333985,1.9968889009308,1.99512597719433,1.8680792314382,1.99483538536963,1.86749804778881,2.08377585651425,1.93913861896999,1.93853806253229,1.9415602175091,1.93883834075114,1.93750161835755,1.93988447132004,1.94412711196057,1.9448535915223,1.94428209426707,1.94381714734756,1.94386557931834,1.98782243600035,1.9484569301485,1.9533291864092,1.95711656652438,1.98445157083391,1.98720250677434,1.96723884841788,1.89399033580673,1.98926570872967,2.04201781130575,2.03095594917907,1.95545050672947,1.95439468976641,2.03025852879981,2.04041955626993,2.0453208717131,1.95196340483314,2.02487289364881,1.95062668243955,2.02913490707766,1.94908654576867,1.94922215528686,1.9505491912863,1.94878626754982,1.94800166962315,2.02751727925353,2.02099833598623,2.03064598456606,2.03345503887144,2.03490799799491,1.94709114857244,2.03383280824354,2.0333291157474,1.94669400641203,2.04298645072139,2.02473728413062,1.94644216016396,2.04297676432724,2.03937342570103,2.0408941895836,2.0382013720081,2.03138215052195,2.03484019323581,2.02935769414325,2.04287990038567,2.03330005656493,2.03204082532459,1.94205422361108,1.94384620653003,2.02706201872817,2.03748457884052,2.02534752696248,2.03372625790782,2.02488258004297,1.94148272635585,2.03817231282563,2.03522764900207,2.02427233721111,1.93858649450307,2.02859246900489,2.01767590279056,2.01422754647086,2.04070046170047,2.00919062150951,2.02089178565051,1.93508970621259,2.01724970144768,2.02138579175249,2.02119206386936,2.01144755134796,2.02328432500715,2.01403381858773,2.02100802238039,1.92902602347064,2.02396237259811,2.00050192595116,1.92623634195358,1.92522895696131,1.92420219918073,1.92486087398337,1.92463808691777,1.92472526446518,1.92382442980863,1.9233401101008,1.99696639208405,1.99738290703278,1.9970438832373,1.89668315338223,1.84509341810492,1.8413157243839,1.84120917404818,2.02497944398453,2.0419403201525,1.83664688240049,1.83439963895619,2.05773882902168,1.95079135114021,1.95622541826198,2.03486925241828,1.82522662369002,1.82333777682951,1.82277596596844,1.95022954027913,1.82110021977937,1.82134237963328,1.8204706041592,1.81688663832131,1.86706216005177,1.86660689952642,1.86684905938033,1.9059433461958,1.81598580366476,1.81711911178106,1.81759374509473,1.81713848456938,1.81770998182461,1.81795214167852,1.91280131325857,1.90951762563953,1.90700884955301,1.81884328994091,1.9440980527781,1.81451347175298,1.81489124112508,1.81658636010246,1.8152205785264
1.86323603435997,1.86089192697411,1.86283889219955,2.04778121582884,1.85738545228947,1.85823785497524,1.98454843477547,1.85553535100558,1.9476335866452,1.85426643337109,1.85098274575205,1.90013150970192,1.90018962806686,1.89770991116281,1.85036281652603,1.84690477381218,1.85040156210266,1.84932637235129,1.89778740231606,1.84736003433753,1.8976905383745,1.89438747796714,1.8449190630101,1.84522902762311,1.97066783194926,2.03674841288463,1.84143196111378,1.95958659703427,1.95983844328234,1.8428946066314,1.88942804415904,1.89009640535583,1.84106387813583,1.84168380736185,1.84130603798974,1.84329174879182,1.94733330842635,1.84427007460162,1.84399885556524,1.84477376709776,1.84619766703876,1.98134223830968,1.98036391249988,1.90473254692624,2.08447327689351,1.97533667393268,1.97757423098282,2.00609097537944,2.00719522431327,1.89995715460711,1.96776191370233,2.08506414693705,2.08538379794422,1.96488505463786,1.96264749758772,1.96072959154474,1.9592475732388,1.95883105829007,1.95911196372061,2.09464399075779,1.95413315712419,1.9535519734748,1.95439468976641,1.95576047134247,1.87636109844197,1.94847630293682,1.94782731452833,1.94718801251401,2.08479292790067,1.94589003569704,1.94356530109949,1.94311972696829,1.87047177079485,1.99765412606916,1.94254822971306,1.94018474953889,1.94084342434153,1.86873790624084,1.99526158671252,1.94390432489497,1.94388495210665,1.94290662629685,1.99315963918056,1.99164856169216,1.99160012972137,1.8713048006923,1.94527979286518,2.07574583575854,2.07459315485392,1.88012910576884,1.95087852868762,1.88203732541766,1.98792898633608,1.96363550979168,1.96348052748517,1.98383164160789,1.98405442867349,1.95761057262636,2.05334120607465,2.05084211638228,2.03220549402525,2.03053943423034,2.02827281799773,2.04826553553666,1.95386193808781,2.02442731951762,1.9507041735928,1.94935776480505,1.94902842740373,1.95059762325708,1.95127567084803,2.02517317186766,1.94978396614794,2.02128892781092,2.028970238377,2.05792287051065,2.03986743180301,2.04153349159792,1.94713958054322,1.94726550366726,2.04432317311498,1.9471008349666,2.03460771977606,2.03589601019886,2.02805971732629,2.02933832135494,2.03455928780527,2.03021978322318,2.03404590891498,2.03251545863826,2.03178897907653,2.03184709744146,2.04715160020867,2.03125622739792,2.02656801262619,2.04096199434269,2.0244757514884,2.04159160996286,2.0252312902326,2.02397205899226,1.9407368740058,2.02444669230593,2.02880556967634,2.03496611635984,1.94119213453116,2.01954537686276,2.04640574785862,2.01730781981262,2.02167638357718,2.0091034439621,2.02165701078887,2.01909011633741,2.01493465324429,1.93482817357036,1.93424698992098,2.02361366240847,1.93091487033115,2.02734292415871,2.01881889730103,2.0268779772392,2.01760809803147,2.01805367216267,2.0007828313817,2.00029851167388,2.00392122308839,1.92523864335547,1.92452185018789,1.92408596245085,1.92432812230476,1.92203244688968,1.92172248227667,1.92240052986763,2.00372749520526,1.9946416574865,2.01452782468971,1.94786606010496,1.84293335220803,1.84329174879182,1.95167281300845,2.04732595530349,1.83633691778748,1.8332857036282,1.83304354377428,1.82987609288512,1.8297695425494,1.82745449434601,1.82707672497391,1.82625338147061,1.95548925230609,1.82192356328267,1.9153100893451,1.82200105443592,1.81868830763441,1.86837950965705,1.87021023815262,1.81794245528436,1.81850426614544,1.818291165474,1.81507528261405,1.81659604649662,1.81725472129926,1.81721597572263,1.81628608188361,1.81732252605835,1.81688663832131,1.81489124112508,1.81703193423366,2.02809846290291,1.94580285814963,1.81521089213224,1.81489124112508,1.90681512166988,1.94765295943352,1.9075900332024
1.86678125462123,1.86168621129494,1.91266570374038,1.86183150720728,1.85997171952924,1.86067882630266,1.85951645900389,1.85601967071341,1.97709959766915,2.04887577836852,1.8541308238529,1.97683806502693,1.97196580876623,1.90071269335131,1.9003155511909,1.84842553769474,2.05430015909614,1.84797027716939,1.84802839553433,1.84674010511152,1.84711787448362,1.96419732065275,1.84564554257184,1.84503529973998,2.04026457396343,1.84495780858673,1.84375669571133,1.8439407372003,1.84397948277693,1.84365983176976,1.84370826374055,1.8437857548938,1.8417612985151,1.84283648826647,2.02571560994043,2.02224788083241,1.84230373658786,1.84614923506797,1.84695320578296,2.01809241773929,2.12124282911143,2.09538015671368,2.01012051534853,1.98060607235379,1.90360892520409,2.08358212863112,1.97576287527556,1.97198518155454,1.97353500461958,2.07919419207824,1.97016413945313,2.08324310483564,1.96599898996585,1.96690951101656,1.96559216141128,1.96381955128065,2.08786351484827,1.95928631881542,1.96363550979168,1.95795928281599,2.08573250813385,1.9543753169781,1.95449155370798,2.00231328165842,1.95043295455642,1.94979365254209,1.9487475219732,1.87553775493867,2.00085063614079,2.00267167824221,2.00025007970309,1.87065581228382,1.8701036878169,1.99949454095889,1.9458319173321,1.94402056162484,1.94391401128912,1.94382683374171,1.94236418822409,1.94202516442861,1.86812766340898,1.99172605284541,1.94172488620976,1.94760452746273,1.95057825046877,1.94571568060222,1.94738174039714,1.87448193797562,1.98831644210233,1.9504813865272,1.98715407480356,1.98780306321204,2.072617130446,2.05923053372178,1.89436810517883,1.89344789773397,1.98127443355059,1.95767837738545,2.03950903521922,2.04413913162601,2.04098136713101,2.04387759898379,2.03024884240565,2.06854884490029,1.95575078494832,1.95326138165011,1.95308702655529,1.95042326816226,1.95117880690647,1.95451092649629,1.94847630293682,2.02844717309255,2.02249972708048,2.02187979785447,2.03138215052195,1.94833100702447,1.94903811379789,2.0512392585427,2.04164004193365,2.0504159150394,1.94793386486405,2.02898961116531,1.94826320226537,1.94768201861599,1.94797261044068,2.03000668255174,2.03063629817191,2.02872807852308,2.0384919638328,1.94548320714247,1.94515386974115,2.03122716821545,2.01821834086333,1.9446986092158,2.01768558918472,2.02851497785164,2.01916760749066,2.0339974769442,2.04061328415306,2.0211823774752,2.03507266669557,2.03600256053459,2.0283018771802,2.01532210901054,2.01431472401827,1.93913861896999,1.93822809791928,2.03119810903298,2.03456897419943,2.02071743055569,2.02015561969462,2.01879952451271,2.02300341957662,2.01183500711422,1.93490566472362,2.02842780030423,2.02743978810028,2.00377592717604,2.00402777342411,2.02408829572214,2.00246826396492,2.01340420296757,1.92671097526725,1.92621696916527,1.92540331205613,2.00110248238886,1.92469620528271,1.92206150607215,1.9217612278533,1.92102506189741,1.92132534011626,1.92268143529816,1.99625928531063,1.92253613938582,1.92144157684614,1.8461879806446,1.84276868350737,1.84094764140596,1.83987245165459,1.88659961706535,1.83655001845892,1.83427371583215,1.88117523633773,1.87997412346233,1.88053593432341,1.82821003309021,1.8259434168576,1.82538160599652,1.94424334869044,1.82288251630416,1.91708269947573,1.95571203937169,2.04869173687955,1.81939541440783,1.94408836638394,2.02199603458434,1.81815555595581,1.81870768042272,2.03149838725183,1.81514308737315,1.81607298121217,1.8163538866427,1.90655358902766,1.81692538389794,1.81640231861349,2.03125622739792,2.03669029451969,1.81461033569454,1.81438754862894,1.81508496900821,1.81397103368022,1.8135738915198,1.81590831251151,1.94236418822409
1.91506792949119,1.91399273973982,1.86090161336826,1.91110619428119,1.86003952428834,1.86074663106176,1.86033011611303,1.91205546090853,1.85698831012905,1.85476043947307,1.85499291293282,1.97494921816642,1.97525918277943,1.84897766216166,1.84959759138767,1.85005285191303,1.94389463850081,1.94496014185802,1.8497913192708,1.84794121798692,1.89653785746988,1.8972449642433,1.84803808192848,2.03773642508859,1.84513216368155,1.84428944738993,1.84361139979898,1.84362108619314,1.8425846420184,1.84307864812038,2.03082033966088,1.84519996844064,1.84427976099578,2.03096563557323,1.84341767191585,1.84376638210549,1.84288492023725,1.94808884717056,1.93949701555378,1.84695320578296,1.84653669083423,1.8480574547168,2.01029487044334,2.08466700477664,1.97840726088028,1.97824259217962,1.97753548540619,1.9782232193913,1.97315723524748,2.08431829458701,1.97085187343824,1.97020288502975,1.96989292041675,1.89343821133981,2.00398902784749,1.96461383560148,1.88938929858241,1.8889243516629,2.004453974767,1.8854759953432,2.07601705479492,1.95373601496377,2.00091844089989,1.87971259082011,2.08521912924356,1.95117880690647,2.00141244700187,1.94993894845444,1.99902959403938,1.94677149756528,2.00013384297322,2.00022102052062,1.87116919117411,1.87139197823971,1.94308098139167,1.94674243838281,1.9971116879964,1.94114370256038,1.94170551342145,1.94165708145067,1.94071750121749,1.94142460799091,1.99276249702015,1.94458237248592,1.94376871537678,1.94535728401844,1.94879595394398,1.94989051648366,1.99062180391157,1.87854053712718,1.95539238836453,1.95605106316717,1.98645665442429,1.96224066903314,1.96453634444823,1.98560425173853,2.06540076679944,2.04575675945014,2.0442747411442,2.0468997539606,2.04121384059076,2.05795192969312,2.03710680946842,1.95496618702164,1.95347448232155,1.95268988439488,1.95091727426424,1.95052981849798,1.95252521569422,1.95158563546104,1.9509269606584,1.95149845791363,1.95096570623503,2.05115208099529,2.02951267644976,1.9484569301485,1.94835037981278,2.04100073991932,2.03083971244919,2.03013260567577,1.94882501312645,2.01860579662958,2.02875713770555,2.02759477040678,2.04519494858907,1.94764327303936,1.94707177578413,2.03119810903298,2.03164368316418,2.01693973683467,2.03509203948388,1.94395275686575,2.01603890217812,2.01745311572497,2.03441399189293,1.94105652501297,1.94114370256038,2.02445637870009,2.02132767338755,2.02053338906672,2.02760445680094,1.94173457260392,2.03171148792327,2.01213528533307,2.01396601382864,1.93807311561278,2.01852830547633,2.02683923166257,2.02535721335664,2.02669393575023,2.02594808340018,1.93486691914699,2.03378437627276,1.93271653964426,2.02131798699339,1.9317285274403,1.93104079345519,2.01804398576851,2.02092084483298,2.01887701566596,1.92812518881409,2.01429535122996,2.00151899733759,2.00079251777585,1.99739259342694,2.00282666054871,1.92346603322484,1.92434749509307,1.92388254817356,1.9216062455468,1.92184840540071,1.92230366592606,2.0151768130982,2.0031172523734,2.01027549765503,1.84779592207457,1.84695320578296,1.95221525108121,1.88873062377977,1.88701613201408,1.84029865299747,1.83358598184705,1.88210513017675,1.87982882754999,1.82973079697278,1.87768813444141,1.82543972436146,1.82542035157315,1.87440444682237,1.87300960606384,1.82387052850812,2.0343752463163,1.819715065415,1.93267779406763,1.81954071032018,1.81789402331358,1.86777895321935,1.93676545240166,1.81825241989737,1.94395275686575,1.81623764991283,1.81628608188361,2.03324193819999,2.03259294979151,1.94510543777037,1.81617953154789,1.81434880305232,1.944030248019,1.94431115344954,1.90724132301277,1.81403883843931,1.8137966785854,1.86099847730983,1.86274202825799
0,0,0,0,0,0,0,0,0,0,0,0,0,0,0,0,0,0,0,0,0,0,0,0,0,0,0,0,0,0,0,0,0,0,0,0,0,0,0,0,0,0,0,0,0,0,0,0,0,0,0,0,0,0,0,0,0,0,0,0,0,0,0,0,0,0,0,0,0,0,0,0,0,0,0,0,0,0,0,0,0,0,0,0,0,0,0,0,0,0,0,0,0,0,0,0,0,0,0,0,0,0,0,0,0,0,0,0,0,0,0,0,0,0,0,0,0,0,0,0,0,0,0,0,0,0,0,0,0,0,0,0,0,0,0,0,0,0,0,0,0,0,0,0,0,0,0,0,0,0,0,0,0,0,0,0,0,0,0,0,0,0,0,0,0,0,0,0,0,0,0,0,0,0,0,0,0,0,0,0,0,0,0,0,0,0,0,0,0,0,0,0,0,0,0,0,0,0,0,0,0,0,0,0,0,0,0,0,0,0,0,0,0,0
1.94321659090986,1.86188962557222,1.86079506303254,1.86191868475469,1.85727890195375,1.85933241751492,1.90943044809213,1.90665045296922,1.85644587205629,1.90367672996319,1.90464536937883,1.94840849817772,1.90088704844613,1.90152635046046,1.90012182330777,1.89925973422784,1.89955032605254,1.89886259206743,1.85165110694884,1.8980005029875,1.89699311799523,1.89695437241861,1.96853682523484,1.84584895684912,2.03719398701583,1.84372763652886,1.94795323765237,1.84623641261538,1.84398916917108,1.84650763165176,1.84485125825101,1.84425070181331,1.84393105080615,1.84155788423781,1.84525808680558,1.84614923506797,1.84411509229512,1.84469627594451,1.84598456636732,2.01767590279056,2.01791806264448,2.01814084971007,2.01140880577133,2.01099229082261,1.98017018461675,1.97792294117245,1.97451333042938,1.97358343659036,1.90068363416884,1.97076469589083,1.97111340608046,2.00538386860602,1.97235326453249,1.96764567697245,1.96799438716208,2.00200331704541,1.96102986976359,2.00264261905974,1.96175634932532,2.09181556366411,2.09101159294912,1.88403272261389,1.88172736080465,1.95030703143239,1.95122723887725,1.95174061776754,1.87784311674791,1.8796254132727,1.94869909000241,1.99942673619979,1.94467923642748,1.87362953528985,1.94472766839827,1.99828374168933,1.87058800752472,1.94156990390326,1.86935783546685,1.87119825035658,1.9971794927555,1.87019086536431,1.94667463362371,1.8672558879349,1.94436927181448,1.94393338407744,1.94723644448479,1.94625811867499,1.94985177090703,1.99131922429084,1.99067992227651,1.99042807602844,2.08428923540454,1.99032152569272,1.88738421499202,2.06509080218643,2.0615843275018,1.98797741830686,1.9099922589532,2.04763591991649,2.04798463010613,2.03611879726446,2.04503027988841,2.05213040680509,1.95467559519695,1.95451092649629,1.95658381484577,1.95345510953324,1.9519052864682,1.95571203937169,1.95267051160656,1.95201183680392,1.95167281300845,2.02801128535551,1.95118849330062,2.03164368316418,1.9504813865272,2.04551459959623,2.04563083632611,2.03632221154175,2.04488498397606,2.05192699252781,1.94954180629403,1.94806947438224,2.02129861420508,1.94893156346217,2.04863361851461,1.94901874100958,1.94774013698092,1.94733330842635,2.02189917064278,2.03811419446069,2.03083002605504,2.03126591379208,1.94367185143521,2.05060964292253,2.03973182228482,2.03755238359962,1.94209296918771,2.0336197075721,2.03493705717738,2.04107823107257,1.94026224069214,1.9414730399617,2.02237380395645,2.03268981373308,2.02590933782355,2.03090751720829,1.93744349999261,2.02838905472761,2.02422390524033,2.02477602970725,2.01635855318529,1.93701729864972,2.02152140127068,1.93363674708912,1.93340427362936,2.03000668255174,2.01928384422054,2.02115331829273,2.0042311877014,2.02271282775192,2.02753665204184,2.00741801137887,2.01000427861865,2.01538022737548,1.92637195147177,1.92553892157432,2.00050192595116,2.00125746469536,1.92325293255339,1.9231851277943,1.9219840149189,1.92148032242276,2.00136401503109,2.00785389911591,1.99573622002618,1.8464107677102,1.84619766703876,1.84350484946326,1.95367789659883,2.04154317799208,1.83952374146496,1.83545545591924,1.83296605262103,1.83102877378974,1.82974048336693,1.8779787262661,1.87671949502576,1.8749759440776,1.87358110331907,1.87244779520276,1.82216572313658,1.82288251630416,1.82161359866966,1.82030593545854,1.81819430153243,1.81867862124025,1.8165766737083,1.81673165601481,1.81780684576617,1.81622796351867,1.81695444308041,1.81601486284723,2.03793983936588,2.03005511452252,1.81587925332904,1.81538524722706,1.81388385613281,1.81368044185552,1.81309925820613,1.91294660917092,1.90697010397639,1.81409695680425,1.81340922281914,1.92705968545688
1.86795330831417,1.91526165737432,1.86422404656393,1.86355568536713,1.86398188671002,1.86040760726628,1.85823785497524,1.98099352812005,1.85971018688702,1.85669771830436,1.90336676535018,1.85432455173603,1.85451827961916,1.85426643337109,1.85365619053923,1.84957821859936,1.84961696417599,2.04762623352234,1.85018846143122,1.95566360740091,1.96809125110365,1.89776802952775,1.94982271172456,1.96925361840242,1.84487063103932,1.84681759626477,1.84748595746157,1.93341396002352,1.93467319126386,1.8458102112725,1.84697257857127,1.84386324604705,1.84674010511152,1.84704038333037,1.84872581591359,1.93532217967234,1.94323596369817,1.94337157321636,1.84654637722839,1.94622905949252,1.94718801251401,2.0861877686592,1.98245617363768,1.98147784782787,1.98066419071873,1.98085791860186,1.97508482768461,1.90687324003482,1.97693492896849,1.90146823209552,1.97204329991948,1.97059034079601,2.08189669604789,2.08038561855948,2.0810055477855,1.89053229309287,1.88993173665517,1.96092331942787,1.96194039081429,1.95751370868479,1.95725217604257,1.95650632369252,1.95467559519695,1.95382319251118,1.95757182704973,1.87979976836752,1.95165344022013,1.94842787096603,1.87714569636865,1.8737748312022,2.08473480953573,2.00041474840375,2.09141842150369,1.9468102431419,1.87102389526176,1.94706208938997,1.94466955003333,1.94376871537678,1.94437895820863,1.94638404179902,1.94354592831118,1.87004556945196,1.87026835651756,2.08540317073253,1.94648090574058,1.87341643461841,1.9484569301485,1.94873783557904,1.95125629805972,1.95343573674492,1.95434625779563,1.95538270197037,1.96055523644992,1.96049711808498,1.98726062513928,2.0679676612509,2.068345430623,2.04818804438341,2.04767466549312,2.03853070940942,2.05710921340151,2.05135549527257,2.05164608709727,2.04542742204882,2.0301713512524,1.95373601496377,1.95711656652438,1.95328075443842,1.95173093137339,2.02819532684448,1.95114006132984,1.95402660678847,2.03824980397888,2.02528940859754,2.03066535735438,2.05165577349142,2.04293801875061,2.040671402518,1.94977427975378,1.95057825046877,2.03359064838963,1.94839881178356,2.02090147204466,1.94879595394398,2.03851133662111,2.03053943423034,2.03609942447615,2.02099833598623,2.02226725362073,2.02760445680094,2.0274785336769,1.94476641397489,2.04905013346334,2.03217643484278,2.04126227256154,2.0414947460213,1.94096934746556,2.03494674357153,2.02533784056832,2.03659343057813,2.03120779542714,2.04014833723355,1.93816029316019,1.93710447619713,1.93743381359845,2.03001636894589,1.93827652989006,2.02557031402808,2.0234296209195,2.0210273951687,2.02175387473043,2.03240890830254,1.93486691914699,2.02416578687539,2.02870870573477,2.01540928655795,1.93099236148441,2.01290051047143,2.02454355624749,2.01187375269084,2.00632344883919,2.01107946837001,1.92597480931136,2.00030819806803,1.99614304858075,1.99389580513646,1.92463808691777,1.92418282639241,1.92406658966254,1.92310763664105,1.9961333621866,1.99578465199696,2.01677506813401,1.92305920467027,2.01511869473326,1.84627515819201,1.89363193922294,1.89185932909231,1.88992205026102,1.83864227959672,1.83917503127532,1.83570730216731,1.83389594646005,1.8828509825268,1.83052508129361,1.87938325341879,1.87685510454395,1.8265439732953,1.82547846993809,1.82492634547117,1.824296729851,1.82320216731132,1.82171046261123,1.82089680550208,1.82003471642216,1.81878517157598,1.81985067493319,1.81891109470001,1.81741938999992,1.81585988054073,1.81764217706551,2.02885400164712,2.03856945498605,1.81444566699388,1.94404962080731,1.81431974386985,1.81434880305232,1.81114260658653,1.81247932898012,1.81354483233733,1.81371918743215,1.86284857859371,1.86162809293,1.87225406731963
1.86959030892661,1.87030710209419,1.98820020537246,1.86696529611021,1.86467930708928,1.86056258957279,1.95524709245218,1.85869311550059,1.98440313886312,1.98119694239734,2.06258202609991,1.85666865912189,1.98085791860186,1.94714926693738,1.94433052623785,2.04806212125938,1.85156392940144,1.84845459687721,1.85058560359163,1.8477668628921,2.04468156969877,1.97365124134945,1.95020048109667,1.85028532537278,1.91251072143388,1.89726433703161,1.84671104592905,1.8469435193888,1.84684665544724,1.89512364392304,1.84506435892245,1.84484157185685,1.84693383299465,2.02568655075796,1.84744721188494,1.84838679211812,1.84895828937335,2.01807304495098,1.94746891794454,1.94723644448479,2.01877046533024,2.01487653487935,2.01513806752157,1.91076717048572,1.98015081182844,1.97665402353796,1.97740956228216,1.97535604672099,1.97725457997566,2.00836727800621,1.9733509631306,1.97216922304352,1.8982232900531,1.96514658728008,1.96694825659318,2.09091472900756,1.8905710386695,2.00545167336511,2.08185795047127,1.96412951589365,2.00464770265013,1.88323843829306,2.07746032752423,1.95509211014568,1.95405566597094,1.95481120471514,1.95311608573776,1.95336793198583,1.94893156346217,1.87376514480804,1.94840849817772,1.87460786109965,1.94639372819318,1.87340674822425,1.94414648474888,2.08375648372593,1.8705492619481,1.94334251403389,1.87082048098448,1.94435958542032,2.07828367102753,1.99579433839112,1.94390432489497,1.94645184655812,1.87344549380088,1.94688773429516,2.08234227017909,1.95105288378243,1.95151783070194,1.99218131337076,1.95466590880279,1.95735872637829,1.95799802839262,1.8884787775317,2.06753177351386,1.98727031153344,1.98576892043919,2.04867236409124,2.04708379544958,2.03278667767464,2.05906586502112,1.95841454334134,2.0527503360311,2.0323507899376,2.03034570634721,1.95458841764954,1.95477245913851,1.95289329867216,1.95249615651175,1.95046201373889,1.95326138165011,1.95381350611702,2.03652562581903,2.03191490220056,2.04054547939397,2.03927656175947,2.03507266669557,2.05397082169482,2.04232777591875,2.04143662765636,2.04391634456041,1.94978396614794,1.94930933283427,1.94938682398752,1.95037483619148,2.04523369416569,2.02928988938416,2.02115331829273,2.02137610535833,2.02968703154457,2.03299977834608,1.94584160372626,2.04542742204882,2.02539595893326,2.0268779772392,2.03777517066522,2.02149234208821,2.03563447755664,2.03600256053459,2.03001636894589,2.03781391624184,1.94037847742202,1.93894489108686,2.01221277648632,2.01091479966936,2.01737562457171,2.02767226156003,1.93700761225557,1.93688168913153,2.02110488632195,2.01233869961035,2.01805367216267,1.93451820895736,1.93353988314755,2.01617451169631,2.02532815417417,1.93054678735321,2.02855372342827,1.92879355001089,2.0140628777702,2.01753060687822,2.01281333292402,2.01801492658604,2.00486080332157,1.9247640100418,1.92593606373473,1.92428937672814,1.92405690326838,1.92473495085933,1.92372756586706,1.92188715097733,1.92216805640787,1.92312700942936,1.92067635170778,2.00146087897265,1.84650763165176,1.89408719974829,1.84440568411981,1.84223593182877,1.84050206727476,1.83993057001953,1.83665656879464,1.8346417988101,1.83290793425609,1.94853442130175,1.82927553644742,1.82627275425892,1.8261662039232,1.82446139855166,1.82472293119389,1.82037374021764,1.82273722039181,1.82174920818785,1.81974412459747,1.87977070918505,1.82001534363385,1.81995722526891,1.81663479207324,1.81580176217579,1.86458244314772,1.93044992341164,1.94495045546386,1.81318643575354,1.94693616626594,1.94525073368271,1.90681512166988,1.81400009286268,1.81672196962065,1.94256760250137,1.81203375484892,1.81338016363667,1.9279895792959,1.99820625053608,1.87365859447232
1.99093176852458,1.98611763062882,1.86954187695582,1.86510550843217,1.86378815882689,1.86173464326572,1.8627614010463,1.86072725827345,1.86002983789418,1.85873186107722,1.95066542801618,1.85541911427571,1.85465388913735,1.90299868237224,1.96361613700336,1.9643426165651,1.85103117772283,1.85269723751774,1.85292002458334,1.84893891658504,1.85035313013188,1.9653209423749,2.05883339156136,1.96724853481203,1.96141732552985,1.89666378059391,1.8482124370233,1.84737940712584,1.95405566597094,1.84819306423499,1.84828992817655,1.84690477381218,1.84774749010379,1.84715662006025,1.95664193321071,1.95449155370798,1.84960727778183,1.84829961457071,1.97368998692608,1.85088588181048,1.85155424300728,1.8535302674152,2.01392726825201,1.91107713509872,1.90773532911475,1.98112913763824,2.01165096562525,1.97569507051647,1.97714802963994,1.97525918277943,1.97359312298452,1.97436803451703,1.8988916512499,1.96843996129328,1.89523988065291,1.89338009297487,2.09341381869992,1.96097175139865,1.96207600033248,1.96034213577848,1.95827893382315,1.95790116445105,1.95743621753154,1.95657412845162,2.00492860808066,1.95372632856962,1.95270925718319,1.95334855919751,1.95232180141693,2.00431836524881,1.87431726927496,1.87436570124574,1.8740847958152,1.94589003569704,1.94900905461542,1.94530885204765,1.94381714734756,2.09431465335647,1.94768201861599,1.94607407718601,1.94682961593022,1.99672423223014,1.94658745607631,1.94603533160939,1.94602564521523,2.08792163321321,1.87704883242708,1.9935955269176,1.95308702655529,1.95470465437942,1.99038933045182,1.8872776646563,1.99093176852458,1.88771355239334,1.96556310222881,2.05893994189708,2.05765165147427,2.05070650686409,2.03413308646239,2.05090992114138,2.05745792359114,2.04812992601847,2.03129497297455,2.0352663945787,2.02858278261074,2.02831156357436,1.95446249452551,1.9537069557813,1.95330012722673,1.95328075443842,1.95465622240864,1.952883612278,1.95142096676038,1.95078166474605,2.03948966243091,2.03698088634439,2.03796889854835,1.95111100214737,2.03364876675457,1.95069448719864,2.03373594430197,1.94884438591476,2.04825584914251,1.9501714219142,2.04237620788954,2.03489831160075,2.0214729692999,2.04429411393252,2.03541169049104,2.03521796260791,2.02547345008651,1.94578348536132,2.02521191744429,1.94408836638394,2.04160129635702,2.02927051659585,2.02945455808482,2.02542501811573,1.94246105216565,2.02728480579377,2.02729449218793,2.02505693513779,2.02628710719566,2.02558000042223,1.93940983800637,2.01821834086333,2.01871234696531,2.03206988450706,2.01792774903863,2.01571925117096,2.01441158795984,2.01506057636832,2.01734656538924,2.01180594793175,2.0120384213915,2.02104676795701,2.02017499248293,2.0337746898786,2.02160857881809,2.00835759161205,2.00334972583316,1.926633484114,2.00117028714796,1.99863245187896,2.00214861295776,2.00085063614079,1.99351803576435,1.99400235547218,1.92365007471381,1.99580402478528,1.92549048960354,1.99865182466728,2.00076345859339,2.00348533535135,2.00373718159942,1.89723527784914,1.84683696905308,1.84372763652886,1.84204220394564,1.84069579515789,1.83718932047325,1.83438995256203,1.83331476281067,1.92209056525462,1.91976583065707,2.03541169049104,1.82928522284158,1.82929490923573,1.95042326816226,1.82493603186533,1.82304718500482,1.94951274711156,1.82163297145798,1.82153610751641,1.81996691166306,1.8190467042182,1.8177777865837,1.81650886894921,1.81654761452583,1.81749688115317,1.86381721800936,1.81492998670171,1.9452313608944,1.81233403306777,1.90546871288213,1.81157849432357,1.94356530109949,1.81197563648398,1.94315847254492,1.90717351825367,1.81620859073036,1.81254713373922,1.81175284941839,1.81112323379822
0,0,0,0,0,0,0,0,0,0,0,0,0,0,0,0,0,0,0,0,0,0,0,0,0,0,0,0,0,0,0,0,0,0,0,0,0,0,0,0,0,0,0,0,0,0,0,0,0,0,0,0,0,0,0,0,0,0,0,0,0,0,0,0,0,0,0,0,0,0,0,0,0,0,0,0,0,0,0,0,0,0,0,0,0,0,0,0,0,0,0,0,0,0,0,0,0,0,0,0,0,0,0,0,0,0,0,0,0,0,0,0,0,0,0,0,0,0,0,0,0,0,0,0,0,0,0,0,0,0,0,0,0,0,0,0,0,0,0,0,0,0,0,0,0,0,0,0,0,0,0,0,0,0,0,0,0,0,0,0,0,0,0,0,0,0,0,0,0,0,0,0,0,0,0,0,0,0,0,0,0,0,0,0,0,0,0,0,0,0,0,0,0,0,0,0,0,0,0,0,0,0,0,0,0,0,0,0,0,0,0,0,0,0
1.86957093613829,1.86720745596412,1.91692771716923,1.86432091050549,1.91512604785612,1.86313917041841,1.98346355862995,1.98029610774079,1.98057701317132,2.06188460572065,1.85965206852208,1.85666865912189,1.85636838090304,1.8547313802906,2.03740708768727,1.90202035656243,1.85260037357618,1.85151549743065,1.90152635046046,1.89994746821295,1.84967508254093,1.85052748522669,1.84860957918372,1.84819306423499,1.84916170365063,1.84955884581105,1.8500141063364,1.84763125337391,1.84784435404536,1.84996567436562,1.84684665544724,1.84648825886345,1.84700163775374,1.84637202213357,1.94407867998978,1.84901640773829,1.89818454447648,1.84801870914017,1.84769905813301,1.93036274586424,1.94686836150684,2.01514775391573,2.01540928655795,2.01454719747803,1.91012786847139,1.90842306309985,2.0127067825883,1.98059638595964,1.98092572336096,2.0106823262096,1.97508482768461,1.89956001244669,1.97194643597792,1.96891459460695,2.00954901809329,2.09049821405883,2.09250329764922,1.961117047311,1.96335460436114,1.96339334993776,1.96051649087329,1.95817238348743,1.9586470168011,2.07934917438474,1.95663224681655,1.95222493747537,1.95376507414624,1.9536197782339,2.00364031765785,1.87683573175564,2.08179014571217,1.94517324252946,1.9473236220322,2.08719515365148,2.0838533476675,1.94489233709893,1.94481484594567,1.86941595383179,1.94706208938997,1.94593846766782,1.87232187207873,1.87098514968514,1.87259309111511,1.99623991252232,1.94843755736019,1.99424451532609,1.94903811379789,1.95278674833644,1.95345510953324,1.88199857984103,1.95561517543013,1.99041838963429,1.88676428576601,1.96395516079884,1.99334368066954,2.08319467286486,1.99393455071308,1.96020652626029,2.05380615299416,2.05055152455759,2.04042924266409,1.95856952564785,2.03234110354344,1.95720374407179,2.03433650073967,2.03233141714929,2.02733323776455,2.0341524592507,1.95363915102221,1.95480151832098,1.95574109855416,1.95031671782654,1.95133378921297,1.95163406743182,2.03858882777436,2.04079732564203,2.03598318774627,1.95110131575322,1.95057825046877,2.04292833235645,2.03588632380471,2.03958652637248,2.03828854955551,2.04579550502677,2.04499153431178,1.94879595394398,2.02235443116813,2.03929593454778,1.9473236220322,1.94724613087894,2.02166669718303,2.01997157820565,2.0222285080441,2.03256389060904,2.02414641408708,1.94416585753719,2.02575435551705,2.02698452757492,1.94164739505651,2.03391998579095,2.02389456783901,2.02834062275683,2.02531846778001,1.94052377333436,2.02579310109368,2.0169106776522,2.02536689975079,2.02083366728557,2.01763715721394,2.0147990437261,2.02718794185221,2.01843144153477,2.02378801750329,1.93200943287083,1.93141856282729,1.93087612475453,2.02374927192666,2.01629074842619,2.00796044945163,2.01519618588651,2.01317172950781,2.01415005531761,2.00069565383429,2.02032997478943,1.9977122444341,1.99740227982109,1.99848715596662,1.99406047383711,1.92146094963445,1.92240052986763,1.92330136452418,1.92051168300712,2.00173209800903,2.01422754647086,2.01071138539207,1.89770991116281,1.84461878479125,1.84393105080615,1.8431851984561,1.83979496050134,1.84016304347928,1.8374895986921,1.83420591107306,1.83650158648814,1.83213302272358,1.94761421385689,1.82990515206759,1.82830689703178,1.92965563909081,1.82438390739841,2.04661884853007,1.82443233936919,2.03259294979151,1.81715785735769,2.03845321825617,1.81936635522536,1.81734189884666,1.81504622343158,1.81841708859803,1.81703193423366,1.81612141318295,2.03076222129594,1.9452991656535,2.02824375881526,1.81358357791396,1.81084232836768,1.81145257119954,1.80915689578445,1.81359326430811,1.81198532287814,1.80798484209152,1.81005773044101,1.94091122910062,1.94422397590213
1.87011337421106,1.91697614914001,1.97382559644427,1.91540695328666,1.91637559270231,1.98614668981129,1.86525080434451,1.86219959018523,1.98464529871704,2.0622720614869,1.98029610774079,1.9073672461368,1.90746411007836,1.85821848218692,1.8549541673562,2.03478207487087,1.90203004295659,1.85282316064178,1.85104086411699,1.85062434916826,2.04637668867615,1.84946198186948,1.9378018965764,1.85085682262801,1.8506824675332,2.04133007732064,2.05777757459831,1.8467885370823,1.8497041417234,1.84714693366609,2.03374563069613,1.84771843092132,2.03124654100376,1.84774749010379,1.84962665057014,1.935486848373,1.89663472141144,1.8510602369053,1.94705240299582,1.85003347912472,1.9475464090978,1.8544407884659,1.91401211252813,2.01579674232421,1.91044751947855,2.01388852267539,1.90699916315885,1.97898844452966,1.97987959279206,1.90291150482483,2.01081793572779,1.90080955729288,2.08495759660133,1.89669283977638,1.89733214179071,1.96767473615492,1.96600867636001,1.96572777092947,2.00775703517435,2.08599404077607,1.95852109367706,1.96058429563239,1.95955753785181,1.95834673858225,2.09462461796948,1.95356165986896,2.08348526468955,1.95379413332871,1.95095601984087,1.95182779531495,2.08179983210633,1.8755765005153,1.94915435052777,1.87357141692491,2.09950656062434,2.0855872122215,1.94592878127367,1.94676181117112,1.94736236760882,1.94455331330345,1.87268026866252,1.9446986092158,1.94519261531778,1.87200222107157,1.94802104241146,1.87733942425178,1.99212319500582,2.08232289739078,1.95572172576585,1.95639008696264,1.88213418935922,1.88490449808797,1.96179509490195,1.99036027126935,1.96501097776189,2.08432798098116,2.09123438001472,2.06220425672781,2.06236892542847,2.05016406879133,2.03802701691329,2.04392603095457,2.06156495471348,1.95745559031985,1.95721343046594,2.03357127560131,2.02869901934061,1.95435594418979,1.95361009183974,1.95396848842353,1.95335824559167,1.95328075443842,2.04600860569821,2.03830792234382,2.04392603095457,2.03113030427389,2.04167878751027,1.95209901435133,2.03488862520659,2.03563447755664,2.03066535735438,1.95079135114021,2.03012291928161,1.95008424436679,1.94860222606085,2.03560541837417,2.04432317311498,2.02079492170894,2.03506298030141,2.05372866184091,2.01781151230875,2.03090751720829,2.01894482042506,2.03529545376116,1.94445644936188,2.02958048120885,2.03568290952742,2.03441399189293,2.0345302286228,1.94243199298318,1.9415602175091,2.02613212488915,2.02429170999943,2.0353535721261,2.02006844214721,2.01086636769857,2.01847018711139,1.93487660554115,2.03117873624467,2.02498913037869,1.93402420285538,2.02028154281865,2.0336197075721,1.93199006008252,2.0217829339129,2.02156983324146,2.02123080944598,2.01498308521507,1.93007215403954,2.0079023310867,1.92777647862446,1.92432812230476,1.9254323712386,1.99879712057962,2.00444428837284,1.99965920965955,2.00165460685578,1.92192589655396,1.9981578185653,1.99789628592307,1.92125753535716,1.92048262382465,1.99605587103335,1.99783816755813,1.99499036767614,1.94954180629403,1.84401822835355,1.89325416985084,1.8425168372593,1.95042326816226,2.03345503887144,1.83823545104215,1.83323727165741,1.83099002821312,1.94301317663257,1.94071750121749,1.82934334120652,1.87564430527439,1.82813254193696,1.8259434168576,1.87243810880861,1.82172014900538,1.82254349250868,1.82059652728323,2.04869173687955,1.81725472129926,1.81821367432075,1.81431974386985,1.81670259683234,2.03711649586258,1.81639263221933,1.81610204039464,1.94372028340599,1.81447472617635,1.94385589292418,1.94356530109949,1.81456190372376,1.81191751811905,1.81235340585609,1.81063891409039,1.81001898486438,1.81091981952093,1.81015459438257,2.03751363802299
2.06839386259379,1.86833107768627,1.86751742057712,1.98250460560846,1.86661658592057,1.86540578665102,1.86772083485441,1.86287763777618,1.86353631257882,1.86188962557222,1.85986516919352,1.90789031142125,1.85963269573377,1.85791820396807,1.85497354014451,1.96221160985068,1.90336676535018,1.85356901299182,1.97865910712834,1.8528619062184,1.85101180493452,1.94062063727593,1.8509924321462,2.04353857518831,2.04163035553949,1.85110866887608,1.85055654440916,1.9673453987536,1.84991724239484,1.93686231634322,1.84916170365063,1.84969445532924,1.85079870426308,1.94125993929025,1.95478214553267,1.93485723275283,1.93659109730684,1.93991353050251,1.90020900085518,2.02030091560696,2.02066899858491,1.99022466175116,1.98818083258414,2.01808273134513,1.98727999792759,2.0202040516654,1.90867490934792,1.90686355364066,2.01163159283693,1.97779701804842,1.97718677521656,1.89907569273887,1.9744648984586,1.97255667880977,1.97056128161354,2.09730774915082,2.09492489618833,1.9675003810601,2.0852094428494,2.08920992363602,2.08279753070444,1.95778492772117,2.0850544605429,2.0993806375003,2.08776665090671,2.09536078392537,1.95347448232155,2.08831877537362,2.08121864845694,1.95074291916943,1.95349385510986,1.95060730965124,1.87463692028212,1.87378451759635,1.94765295943352,1.94749797712701,1.87221532174301,1.94363310585859,1.94596752685029,1.94424334869044,1.87291274212227,1.94450488133267,1.87357141692491,1.99742165260941,1.94775950976924,1.94825351587122,2.07450597730651,1.95391037005859,1.9946416574865,1.95552799788272,1.88435237362105,2.07773154656061,1.9614948166831,1.96194039081429,2.06475177839096,2.06378313897531,2.08919055084771,2.06490676069746,2.05695423109501,2.03368751233119,2.06215582475703,1.95801740118093,1.95688409306462,2.05119082657191,1.95778492772117,2.02633553916644,1.95577015773663,1.95478214553267,1.95435594418979,1.95468528159111,1.95258333405915,1.95333887280336,2.04468156969877,1.95420096188328,2.03059755259528,1.95372632856962,2.04753905597493,2.03136277773364,2.05301186867333,2.02310028351818,2.01879952451271,1.95111100214737,2.04257962216682,2.04471062888124,2.03917001142375,2.04957319874779,2.03919907060622,2.03127560018623,2.03818199921979,2.03480144765918,2.02730417858209,2.03086877163166,2.02291624202921,2.02606432013006,2.04065202972969,2.03803670330744,2.04347077042922,2.03403622252082,1.9416280222682,2.02596745618849,2.04180471063431,2.02405923653967,2.04152380520377,2.02373958553251,2.02808877650876,2.01941945373873,2.03014229206993,2.02437888754683,2.03145964167521,2.0234974256786,2.01730781981262,2.01461500223712,2.02174418833628,2.02390425423317,2.01912886191403,2.01633918039697,2.01534148179886,2.02277094611686,2.01764684360809,2.01864454220621,2.01444064714231,2.0147990437261,2.00015321576153,2.0181795952867,1.99905865322185,1.9241634536041,1.92316575500599,1.92149969521108,1.92121878978054,1.92199370131305,1.92052136940127,2.01243556355192,1.99884555255041,2.00576163797812,1.92030826872983,1.85088588181048,1.84741815270247,1.95063636883371,1.84308833451453,1.94811790635303,1.9441852303255,1.94704271660166,1.83679217831283,1.89705123636017,1.8965766030465,1.94194767327536,1.8299245248559,1.87695196848552,1.87382326317298,1.93384984776056,1.82381241014318,1.87083985377279,1.86936752186101,1.91403148531644,1.94342000518714,1.91072842490909,1.81841708859803,1.81613109957711,1.81737095802913,1.81502685064327,1.81413570238088,1.81693507029209,1.81518183294977,1.81346734118408,1.81053236375467,1.81210155960802,2.02661644459698,1.81055173654299,1.81294427589963,1.80973807943384,1.81227591470283,1.81063891409039,1.81138476644044,1.90043178792078
2.06859727687107,1.95428813943069,1.97124901559865,1.8696581136857,2.06437400901886,1.86690717774527,1.98757058975229,1.98798710470101,1.8612503235579,2.06501331103318,1.86210272624366,1.92086039319675,1.9224295890501,1.85787945839145,1.90708634070626,1.85461514356072,1.85549660542896,1.85704642849399,1.97736113031138,1.85307500688984,2.05098741229463,1.85161236137222,1.90123575863576,1.85264880554696,1.85012065667212,1.96611522669573,1.8528619062184,1.85328810756129,1.84943292268701,1.84728254318428,1.89777771592191,1.89868823697261,1.90000558657789,1.84974288730002,1.85069215392735,1.84962665057014,1.89826203562973,1.89839764514792,1.8533074803496,1.85337528510869,1.85396615515224,1.9908833365538,1.98555581976774,1.9136634023385,1.98383164160789,1.98469373068782,1.98029610774079,1.90700884955301,1.90672794412247,1.90682480806404,1.97717708882241,1.97419367942222,1.97423242499884,1.9733509631306,1.89636350237506,1.96868212114719,1.96833341095756,2.01079856293948,2.0935978601889,1.96412951589365,1.96087488745708,1.96073927793889,1.96006123034794,2.00662372705804,2.09988432999644,1.88198889344688,1.95474339995605,1.95201183680392,1.9521958782929,2.00552916451836,2.00430867885465,1.87639015762444,1.94764327303936,1.87393949990286,1.94945462874662,1.9452991656535,2.00365969044617,1.94755609549195,1.94571568060222,1.94750766352117,1.94666494722956,1.94689742068931,1.87340674822425,1.94755609549195,1.94926090086349,1.9496580430239,1.99477726700469,2.08463794559417,1.95406535236509,1.95582827610157,1.95789147805689,1.9582014426699,1.9612720296175,1.99040870324013,2.09158309020435,1.99360521331176,2.08466700477664,2.06554606271179,2.03439461910461,2.03507266669557,1.9624731424929,2.05600496446768,2.04958288514194,2.04829459471913,2.03840478628539,1.95636102778017,1.95423002106575,1.95363915102221,1.95522771966387,1.95956722424596,1.95378444693456,2.03876318286918,2.03127560018623,2.03886004681074,2.03144995528105,1.95241866535849,2.05997638607182,1.95209901435133,2.05576280461376,2.0234296209195,2.04445878263318,2.03893753796399,2.04415850441432,2.04118478140829,2.04030331954005,2.04394540374288,2.03798827133666,2.03769767951197,2.0378914073951,2.03559573198001,2.03007448731083,2.03261232257982,2.04087481679528,2.03606067889952,1.94549289353663,1.94364279225274,2.03762018835871,2.03149838725183,2.03172117431743,2.03834666792045,2.03681621764373,1.94061095088177,2.03154681922261,2.03843384546786,2.03763956114703,2.02167638357718,2.01461500223712,2.02201540737266,2.01417911450008,1.93671702043087,2.02016530608877,1.93480880078205,2.01419848728839,2.02588996503524,1.93095361590778,1.93132169888573,1.93430510828591,2.02457261542996,1.92508366104897,1.92455090937036,1.92547111681522,1.92490930595415,2.01588391987162,1.92367913389628,1.92387286177941,1.92530644811456,1.92348540601315,1.92214868361956,1.92246833462672,1.92157718636433,1.92003704969345,2.01125382346483,1.91814820283294,1.92054074218959,1.89826203562973,1.89716747309005,1.84708881530115,1.84516122286402,1.84231342298202,1.84017272987344,1.83852604286684,1.88591188308024,1.95375538775209,1.95289329867216,1.83305323016844,1.83073818196505,1.8287912167396,1.82650522771867,1.87524716311398,1.93430510828591,1.87325176591775,1.8714597829988,1.89681876290042,1.90368641635735,1.81925980488964,1.91178424187215,1.81852363893375,1.81873673960519,1.92016297281748,1.86390439555677,1.90306648713133,1.90099359878185,1.81500747785496,1.81415507516919,1.94446613575604,1.94373965619431,2.03320319262337,1.93853806253229,1.81143319841122,1.81080358279105,1.94459205888008,1.81098762428003,1.80984462976956,1.80921501414939
0,0,0,0,0,0,0,0,0,0,0,0,0,0,0,0,0,0,0,0,0,0,0,0,0,0,0,0,0,0,0,0,0,0,0,0,0,0,0,0,0,0,0,0,0,0,0,0,0,0,0,0,0,0,0,0,0,0,0,0,0,0,0,0,0,0,0,0,0,0,0,0,0,0,0,0,0,0,0,0,0,0,0,0,0,0,0,0,0,0,0,0,0,0,0,0,0,0,0,0,0,0,0,0,0,0,0,0,0,0,0,0,0,0,0,0,0,0,0,0,0,0,0,0,0,0,0,0,0,0,0,0,0,0,0,0,0,0,0,0,0,0,0,0,0,0,0,0,0,0,0,0,0,0,0,0,0,0,0,0,0,0,0,0,0,0,0,0,0,0,0,0,0,0,0,0,0,0,0,0,0,0,0,0,0,0,0,0,0,0,0,0,0,0,0,0,0,0,0,0,0,0,0,0,0,0,0,0,0,0,0,0,0,0
1.9187584456648,1.87001651026949,1.86773052124857,1.96109767452268,2.06877163196589,2.06462585526692,1.86528954992114,1.97984084721543,1.86268390989305,2.07475782355458,1.86311979763009,1.86117283240464,1.85890621617203,1.92292359515207,1.85688175979333,1.85710454685893,2.05087117556475,1.85457639798409,2.052062602046,2.04720003217945,1.85261974636449,1.85195138516769,1.85081807705139,1.85002379273056,1.85164142055469,1.85147675185403,1.85065340835073,1.85016908864291,1.90049959267987,1.89894976961484,1.94722675809063,2.0211823774752,1.85019814782537,1.95504367817489,1.85018846143122,1.8500819110955,1.85148643824818,1.93813123397772,1.93759848229911,1.90111952190588,1.90059645662144,2.01885764287765,1.98756090335813,1.98801616388348,1.99016654338622,1.98382195521374,1.90909142429665,1.98435470689234,1.98597233471647,1.97649904123145,1.90648578426856,1.97598566234116,1.97536573311515,2.01167033841356,1.97111340608046,2.01207716696813,2.01163159283693,2.09572886690332,1.96538874713399,1.96473975872551,2.09852823481453,1.96138826634738,1.96160136701882,2.00759236647369,1.88357746208854,2.09860572596779,1.95429782582485,2.00433773803712,2.00491892168651,1.9510819429649,1.95073323277527,1.95275768915397,1.87712632358033,1.94788543289327,1.94734299482051,1.94759484106858,1.94798229683484,1.94812759274718,1.94936745119921,1.94794355125821,2.0013155830603,1.94691679347763,1.87302897885215,1.94797261044068,2.07144507675307,1.95024891306745,1.95030703143239,1.95237991978187,1.87987725952077,1.95469496798526,2.07954290226787,1.88504010760616,1.88986393189608,1.964274811806,1.96581494847688,1.99248159158961,1.91176486908383,1.96456540363069,2.05500726586956,2.05086148917059,2.04586330978586,2.03450116944033,2.05535597605919,2.03058786620112,1.95695189782372,1.9576686909913,1.95670005157565,1.95440437616057,1.95600263119638,1.95411378433588,1.95518897408724,2.05098741229463,2.04208561606484,1.95433657140147,2.02848591866917,1.95384256529949,2.03577977346899,2.05754510113855,2.05898837386786,2.02225756722657,2.04424568196173,2.04172721948105,2.0441197588377,1.95062668243955,2.0417175330869,2.02775943910744,2.03028758798227,1.95001643960769,1.94805978798809,2.03745551965805,1.94744954515623,2.04421662277926,2.01782119870291,2.04110729025504,2.03449148304618,2.0287474513114,2.04109760386088,2.03763956114703,2.04200812491159,2.01440190156568,1.94082405155321,2.03472395650593,2.02741072891781,2.02208321213175,1.94029129987461,2.03755238359962,2.01475061175531,2.02599651537096,1.93628113269383,1.9349540966944,1.93418887155604,1.93432448107423,1.93369486545406,2.024698538554,1.93247437979034,1.9312829533091,1.93075020163049,2.03141120970442,2.01478935733194,2.01235807239867,1.92828985751475,2.02363303519679,1.92473495085933,1.92396972572097,1.99826436890102,1.99747008458019,1.92397941211513,1.92234241150269,1.92172248227667,1.92390192096188,1.92192589655396,1.92022109118242,2.00440554279621,1.98814208700752,1.99607524382166,1.89740963294396,1.84506435892245,1.84484157185685,1.84392136441199,1.83923314964026,1.83851635647268,1.83707308374337,1.95049107292136,1.9434296915813,1.88134959143255,1.83329539002235,1.94970647499469,1.95073323277527,1.9478563737108,1.82315373534054,1.82367680062499,1.82191387688851,1.82290188909247,1.93123452133832,1.82320216731132,1.81958914229096,2.0345980333819,1.81707067981028,1.81631514106608,1.86652940837317,1.86488272136657,1.863361957484,1.86303262008268,1.81375793300877,1.8108810739443,1.81015459438257,1.81168504465929,1.81095856509756,1.8095249787624,2.0376008155704,1.8113266480755,1.80962184270396,1.8093699964559,1.8084788481935
1.92380505702031,1.86992933272208,1.87046208440069,1.91720862259976,1.91775106067253,1.91808039807384,1.86782738519013,2.06497456545656,2.06680529395213,1.86313917041841,1.86355568536713,1.86340070306063,1.85875123386553,1.85946802703311,1.96439104853588,1.8584025236759,1.85655242239201,1.97827165136209,1.85367556332754,2.04950539398869,1.85337528510869,1.85354964020351,1.8537530544808,1.85086650902217,1.96759724500167,1.85310406607231,1.85236790011642,1.85249382324046,1.89965687638826,1.89965687638826,1.89956001244669,1.85116678724102,1.89998621378958,2.05734168686127,2.03243796748501,1.85050811243838,1.85106992329946,1.93711416259129,1.9385574353206,1.9399813352616,1.96909863609592,1.99121267395512,1.98773525845295,1.98804522306595,1.98820989176661,1.98366697290723,1.98386070079036,2.01754029327237,1.9811388240324,1.90547839927629,1.97546259705671,1.97617939022429,1.97405806990403,1.97409681548065,1.97147180266425,1.96877898508875,1.96950546465049,2.08415362588635,1.89122002707798,1.96473975872551,1.88913745233434,2.01132162822393,2.08288470825185,1.88577627356205,1.95548925230609,1.95498555980996,1.95585733528404,2.00655592229895,1.88013879216299,2.10002962590878,1.95084946950515,1.95100445181165,2.00430867885465,1.94837943899525,2.00396965505917,1.9489703090388,1.94849567572513,1.94760452746273,1.94676181117112,1.94678118395943,1.87368765365479,1.94721707169648,1.94759484106858,1.94711052136075,1.99435106566181,1.99743133900356,1.99773161722241,1.95344542313908,1.95218619189874,1.95620604547367,1.95751370868479,1.96026464462523,1.96395516079884,1.99200695827595,1.89432935960221,2.09125375280303,2.07592987724751,2.05795192969312,2.03509203948388,2.05054183816343,2.04464282412215,2.05113270820698,2.05267284487785,2.03089783081413,2.03075253490178,2.03100438114985,1.95695189782372,1.95527615163465,2.03084939884335,1.9565547556633,1.95524709245218,1.95273831636566,1.95389099727028,2.05488134274553,1.95337761837998,1.95253490208837,2.04216310721809,1.95146939873116,2.04011927805108,2.03558604558586,2.04836239947823,1.95363915102221,2.03854039580358,2.03552792722092,1.95210870074549,2.02253847265711,2.02218007607332,2.01703660077624,2.03669029451969,2.04133976371479,2.04119446780245,2.02902835674193,2.02787567583732,2.03650625303072,2.02824375881526,2.0191579210965,2.01807304495098,2.03476270208256,2.02774006631913,1.9432747092748,1.94253854331891,2.01458594305465,2.01049828472063,2.02554125484561,1.93805374282446,1.93994258968497,2.02915427986597,1.93686231634322,1.93724008571532,2.02436920115268,1.93547716197885,2.01702691438208,2.0186251694179,1.93377235660731,2.01896419321337,2.01667820419245,2.02173450194212,1.92968469827328,2.01076950375701,2.00899689362638,2.02375895832082,2.01486684848519,2.0151768130982,1.92382442980863,2.01370448118642,1.92170310948836,1.92324324615924,1.92183871900655,1.92137377208704,1.9202695231532,1.91926213816093,1.9215384407877,2.00828978685295,1.99127079232005,1.99026340732778,1.84724379760765,1.8491907628331,1.84434756575487,1.84199377197485,1.89692531323614,1.88741327417449,1.88497230284707,1.92089913877337,1.88354840290607,1.82985672009681,1.83015699831566,1.82829721063762,1.8263211862297,1.91765419673096,1.82421923869775,1.82371554620161,1.82318279452301,1.82135206602744,1.82049966334167,1.8200928347871,1.81979255656825,1.94733330842635,1.81416476156334,1.81360295070227,1.81406789762178,1.81289584392885,1.92117035780976,1.81523995131471,1.81377730579709,1.81239215143271,1.88460421986912,1.88325781108137,1.8130411398412,1.80953466515656,1.94075624679412,1.90203972935075,1.94381714734756,1.80937968285005,1.94120182092531
1.87205065304235,1.87145009660465,1.87055894834225,1.92013391363501,1.91794478855565,1.98644696803014,1.98786118157698,1.99175511202788,1.86411749622821,2.06788048370349,1.86296481532359,1.98591421635153,1.86153122898843,1.90984696304085,1.96442010771835,1.96584400765935,1.96748100827179,1.98008300706934,1.85382085923989,1.85364650414507,2.05115208099529,1.85339465789701,1.85412113745874,1.85389835039314,1.97291507539356,1.97070657752589,1.95533426999959,1.85186420762029,1.85036281652603,1.89846544990701,1.85267786472943,1.95863733040694,1.85077933147476,1.85291033818918,1.85437298370681,1.85038218931435,1.85131208315337,1.85393709596977,1.85514789523933,1.85443110207175,1.93801499724784,1.99107706443693,1.99156138414475,1.98904292166407,1.98745435302241,2.09758865458136,1.98348293141826,1.98159408455775,1.98172969407594,1.9784460064569,1.98152627979866,1.97577256166972,2.01383040431045,1.97377716447349,2.09630036415855,1.89793269822841,2.01196093023825,1.96742288990685,1.89107473116564,2.01304580638378,2.10476627265129,1.89038699718053,1.96055523644992,2.01163159283693,1.96099112418696,2.01072107178623,2.09464399075779,2.01014957453099,2.00836727800621,2.08782476927164,2.00688525970027,1.94975490696547,2.08046310971274,2.00523857269367,1.87462723388797,1.94760452746273,1.94727519006141,1.87402667745027,1.87465629307044,1.94721707169648,1.94857316687838,1.87424946451586,2.07490311946693,1.94885407230892,1.94997769403107,1.87771719362388,1.9505491912863,1.95343573674492,1.95474339995605,1.95585733528404,1.88383899473076,1.9608942602454,1.88760700205762,2.08389209324412,1.96700637495812,2.07939760635553,1.98748341220488,2.04604735127483,2.03793015297172,2.05268253127201,2.04983473139001,1.96065210039149,2.0542420407312,2.03463677895852,2.03144995528105,2.02800159896135,1.95533426999959,1.9548208911093,1.95456904486123,1.9543753169781,1.95362946462805,1.95240897896434,1.95147908512532,2.02714919627558,2.04228903034213,2.03968339031404,1.95357134626311,1.95237023338771,1.95731998080166,2.04776184304053,2.03790109378925,2.04844957702564,1.95123692527141,1.95082041032268,2.05741917801452,2.02225756722657,2.02259659102205,2.04578581863261,1.94802104241146,1.94880564033813,2.03169211513496,2.02753665204184,2.03495642996569,2.03896659714646,2.04913731101075,1.94404962080731,1.94393338407744,2.02419484605786,2.01369479479226,2.01433409680658,2.03450116944033,2.03266075455061,2.02153108766483,1.94032035905708,2.02176356112459,1.93903206863427,2.03184709744146,1.93813123397772,2.01724001505352,2.01832489119905,2.01936133537379,2.02405923653967,2.00101530484145,2.00036631643297,1.93152511316301,2.02063025300828,2.00893877526144,2.01852830547633,2.01213528533307,2.01579674232421,2.00703055561261,2.00560665567162,2.00814449094061,2.00981055073552,2.0105273439031,1.92334979649496,1.92200338770721,1.9219840149189,1.92090882516753,1.91981426262785,1.92057948776621,1.92054074218959,2.00200331704541,2.01247430912855,1.91984332181032,1.95472402716773,1.95369726938715,1.84610080309719,1.84279774268984,1.88957334007138,1.83980464689549,1.83874882993244,2.03900534272309,1.83265608800803,1.83178431253394,1.82851031130906,1.94870877639657,1.82656334608361,1.95033609061486,1.8240739427854,1.95113037493569,1.94838912538941,1.94430146705538,2.03425900958642,1.93822809791928,1.81967631983837,1.81974412459747,1.94379777455925,1.81530775607381,1.94437895820863,1.94312941336245,1.81360295070227,1.81464908127117,1.81313800378276,1.81294427589963,1.80909877741952,1.92433780869892,1.85873186107722,1.85899339371944,1.85754043459597,1.8078782917558,1.80830449309869,1.80662874690962,1.80938936924421
1.94764327303936,1.97880440304069,1.97803917790233,1.92012422724086,1.86913504840125,1.86929971710191,1.86769177567194,2.0639865532526,1.86661658592057,1.86593853832962,1.98629198572363,1.86206398066704,2.0460764104573,1.97098748295643,1.90766752435565,1.9074350508959,1.98600139389894,1.85431486534187,1.85616496662575,1.85703674209984,1.85382085923989,1.97718677521656,1.97518169162618,1.85230978175148,1.85091494099295,2.05088086195891,1.85011097027797,1.85078901786892,1.85304594770737,1.85169953891963,1.90078049811041,1.96365488257999,1.85227103617486,1.85309437967816,1.95499524620411,1.85020783421953,1.95734903998413,1.854508593225,1.85459577077241,1.85446984764837,1.85129271036505,1.99104800525446,2.02085304007388,1.98817114618999,1.9879677319127,1.98778369042373,1.98741560744578,2.0184023823523,1.98205903147726,1.98147784782787,2.01714315111196,1.90278558170079,1.90362829799241,1.97443583927613,1.89880447370249,2.01288113768312,1.97062908637264,1.9672775939945,1.96812031028612,2.09283263505053,1.89068727539938,2.08497696938965,1.96498191857942,1.96017746707782,1.8843426872269,1.95729092161919,1.88192108868778,1.88121398191436,2.01060483505635,1.95491775505086,1.87803684463104,1.87834680924405,2.00564540124824,1.94844724375435,1.94818571111212,1.94844724375435,2.00421181491308,1.94837943899525,2.07567803099944,2.08709828970991,2.08523850203187,1.94709114857244,1.94844724375435,1.94822445668875,2.07924262404902,1.95179873613248,1.95138222118375,1.95376507414624,1.95460779043785,1.88344185257034,1.9584920344946,1.88666742182445,1.96232784658055,1.96381955128065,1.99182291678697,1.89902726076809,2.06529421646372,2.04419724999095,2.03877286926333,2.03785266181847,2.03613817005278,1.96085551466877,2.033551902813,2.03095594917907,2.03440430549877,2.03025852879981,2.03331942935325,2.03165336955834,1.95473371356189,1.9547530863502,1.95463684962032,1.95456904486123,2.03728116456324,2.02794348059641,2.03469489732346,1.95400723400015,2.04722909136192,1.95221525108121,2.03839509989123,2.04008053247445,2.04815898520094,1.95229274223446,2.04594080093911,2.02311965630649,2.0437419894656,2.02198634819019,2.04893389673346,2.03517921703129,2.03111093148557,2.03187615662393,2.02865058736983,1.94739142679129,2.03424932319227,2.04076826645956,1.94510543777037,2.02971609072704,2.03162431037587,2.03758144278209,2.01456657026634,2.01234838600451,1.94263540726047,2.04377104864807,1.93997164886744,1.94039785021033,2.02150202848237,2.01908042994325,2.02028154281865,2.01283270571233,1.93699792586141,1.93518657015415,2.01484747569688,1.93412106679694,2.01540928655795,2.01439221517152,2.01928384422054,1.93156385873964,2.02773037992497,2.01551583689367,2.02474697052478,2.0307719076901,2.01727876063015,2.01152504250121,2.01131194182977,2.0103045568375,1.92303983188195,1.92366944750212,1.92136408569288,1.92042450545971,1.92096694353247,1.92327230534171,1.9205601149779,1.92005642248176,2.00106373681224,2.00425056048971,2.01115695952327,1.84932637235129,1.84478345349191,1.8463429629511,1.84317551206194,1.84025990742085,2.02806940372044,1.92759243713549,1.83615287629851,1.8336634730003,1.8298373473085,1.82802599160124,1.94715895333154,1.82751261271095,1.82630181344139,1.82455826249323,2.0301713512524,2.03090751720829,1.82086774631962,1.82188481770604,1.81998628445138,1.86742055663556,1.90531373057563,1.86676188183292,1.86404969146911,1.81467814045364,1.81443598059973,1.81263431128662,1.81270211604572,1.93733694965689,1.81164629908267,1.811171665769,1.94049471415189,2.01200936220904,1.85876092025969,1.85662022715111,1.94023318150967,1.80874038083573,1.80741334483629,1.94005882641485
0,0,0,0,0,0,0,0,0,0,0,0,0,0,0,0,0,0,0,0,0,0,0,0,0,0,0,0,0,0,0,0,0,0,0,0,0,0,0,0,0,0,0,0,0,0,0,0,0,0,0,0,0,0,0,0,0,0,0,0,0,0,0,0,0,0,0,0,0,0,0,0,0,0,0,0,0,0,0,0,0,0,0,0,0,0,0,0,0,0,0,0,0,0,0,0,0,0,0,0,0,0,0,0,0,0,0,0,0,0,0,0,0,0,0,0,0,0,0,0,0,0,0,0,0,0,0,0,0,0,0,0,0,0,0,0,0,0,0,0,0,0,0,0,0,0,0,0,0,0,0,0,0,0,0,0,0,0,0,0,0,0,0,0,0,0,0,0,0,0,0,0,0,0,0,0,0,0,0,0,0,0,0,0,0,0,0,0,0,0,0,0,0,0,0,0,0,0,0,0,0,0,0,0,0,0,0,0,0,0,0,0,0,0
1.87584771955168,1.92188715097733,1.87120793675074,1.87323239312944,1.87056863473641,1.86999713748118,1.86907693003632,1.86716871038749,1.86729463351153,1.86411749622821,1.86426279214055,1.91303378671833,1.97172364891232,2.0437419894656,1.90835525834076,1.90773532911475,1.85836377809927,1.85475075307891,1.90669888494,1.90392857621126,1.90363798438656,1.90328927419693,2.05174295103883,2.05164608709727,1.85080839065723,1.85673646388099,1.85269723751774,1.8512830239709,1.9637420601274,1.90155540964292,1.84960727778183,1.95452061289045,1.95675816994059,1.8537530544808,1.85341403068532,1.85347214905026,2.02856340982243,1.85414051024705,1.85302657491906,1.8538402320282,1.85535130951661,1.9920166446701,2.10148258503225,1.91685991241013,1.98857797474456,2.01902231157831,1.98544926943202,1.91034096914283,1.98399631030855,2.01841206874645,2.01764684360809,1.97480392225407,1.97770015410685,1.97660559156717,2.11169204447316,1.97196580876623,1.97096811016812,1.97059034079601,1.89404845417167,1.9707937550733,2.01449876550725,1.96500129136774,2.08833814816194,1.88694832725498,2.01171877038434,2.00808637257567,1.95572172576585,1.8822504260891,1.95647726451005,1.8757314828218,2.08252631166806,1.87796903987195,1.95039420897979,1.95103351099412,1.87667106305498,1.87515998556657,1.94724613087894,1.94621937309836,1.94738174039714,1.87470472504122,2.00338847140979,1.94824382947706,1.94778856895171,1.94974522057131,1.95024891306745,1.94973553417716,1.99713106078471,1.95122723887725,2.08519975645524,1.95733935358998,1.95750402229064,1.8866771082186,1.96451697165991,1.96851745244653,1.96834309735171,1.99106737804277,2.0753099480215,2.05018344157964,2.05893994189708,2.06073192481603,2.03609942447615,2.05555939033648,2.05353493395778,2.05111333541866,1.9579786556043,1.9577558685387,2.03126591379208,2.03127560018623,1.9555086250944,1.95498555980996,1.95443343534304,1.95378444693456,2.03416214564486,2.04586330978586,2.04002241410952,2.03431712795136,1.95198277762145,2.0371552414392,2.04331578812271,2.03906346108803,1.9536197782339,1.95177936334417,2.04753905597493,2.04602797848652,1.95186654089158,1.95107225657075,2.03921844339453,2.02609337931253,2.03276730488633,2.02917365265428,2.03136277773364,2.02424327802864,1.94721707169648,2.02494069840791,2.03237984912007,2.03395873136757,2.03406528170329,2.03015197846408,1.94407867998978,1.94384620653003,1.94285819432607,2.02827281799773,2.0356441639508,1.93979729377263,2.02744947449443,2.0319052158064,2.03192458859472,2.01552552328783,2.0323507899376,2.02475665691894,2.0244079467293,1.93537061164313,2.02675205411517,2.01480873012025,2.02022342445371,2.03453991501696,1.93130232609741,2.01227089485126,2.01989408705239,1.99705356963146,1.9282123663615,1.92725341334001,2.01722064226521,2.00834790521789,1.92484150119505,1.99549406017227,1.92073447007271,1.9199595585402,1.92053105579543,1.91944617964991,1.91956241637978,1.99452542075662,2.00082157695832,1.99424451532609,2.01380134512798,1.8482802417824,1.8467885370823,2.03772673869444,1.84140290193131,1.84088952304102,1.83735398917391,1.83661782321802,1.83430277501462,2.0345302286228,2.04170784669274,1.82928522284158,1.82660209166024,1.82515881893093,2.02879588328218,1.82441296658088,1.82343464077108,1.82025750348776,1.81977318377993,1.94833100702447,1.81972475180915,1.81799088725515,1.81698350226287,1.81501716424911,1.8156661526576,2.0268779772392,1.81303145344704,1.81250838816259,1.81270211604572,1.90096453959938,1.93812154758356,1.81090044673262,1.81075515082027,1.93467319126386,1.80848853458766,1.80709369382913,1.85839283728174,1.8095249787624,1.80814951079218,1.80721961695316
1.87361984889569,1.87395887269117,2.07038925979002,1.87109170002086,1.87111107280917,1.99098988688952,1.87179880679428,2.04781996140547,1.86677156822708,1.86635505327835,1.86514425400879,1.86467930708928,1.97163647136491,1.91228793436828,1.90966292155188,1.90836494473492,1.92358226995471,1.92530644811456,1.94264509365463,1.94344906436961,1.854508593225,1.96126234322334,1.8550413449036,1.90239812593454,1.90378328029891,1.96742288990685,1.85364650414507,1.97400963793324,1.90142948651889,2.02416578687539,1.85213542665667,1.85398552794055,2.03679684485542,2.03794952576003,1.85609716186666,1.85442141567759,1.94712020775491,1.94002976723238,1.85587437480106,1.85662022715111,1.85602935710756,2.02341993452534,2.09839262529634,1.99204570385257,1.99133859707915,1.91369246152097,1.98512961842486,1.98421909737415,1.98360885454229,1.90710571349458,1.98365728651308,1.9786687935225,1.98083854581355,2.09464399075779,1.90029617840258,1.97307974409422,2.01543834574042,2.01423723286502,1.8937288031645,1.96855619802316,2.01319110229612,1.89030950602727,1.96040025414342,1.89029981963312,1.886454321153,1.95996436640638,1.88422645049702,1.88132053225008,1.95644820532758,1.88050687514094,2.01407256416436,1.95391037005859,1.95080103753437,1.87713600997449,1.87663231747835,2.00496735365729,1.94772076419261,1.94836006620694,1.9468102431419,1.94816633832381,2.00149962454928,1.94899936822126,2.00132526945446,1.95003581239601,1.94970647499469,1.94991957566613,1.94882501312645,1.95435594418979,1.8812721002793,1.95731998080166,1.95730060801335,1.99780910837566,1.96443948050666,1.9640520247404,1.96934079594983,1.99112549640771,1.98378320963711,1.98412223343259,1.96357739142674,1.96246345609874,2.0504159150394,2.04482686561112,2.03696151355608,2.0537964666,2.06596257766052,1.95659350123993,1.95720374407179,2.03113999066804,2.03042319750046,1.95419127548913,1.95472402716773,1.95672911075812,2.04169816029858,1.95401692039431,2.03367782593704,2.03840478628539,2.04912762461659,1.95217650550458,2.0469675587197,1.9519052864682,1.95171155858507,2.03165336955834,2.03084939884335,2.04534024450141,1.95117880690647,2.04138819568558,2.04705473626711,1.95072354638111,2.01898356600169,1.9495708654765,1.94885407230892,2.02484383446634,2.03653531221319,2.04458470575721,2.03863725974514,2.02923177101922,2.03240890830254,2.03374563069613,2.03447211025787,2.03330974295909,2.03207957090122,2.02408829572214,2.03426869598058,2.02873776491724,2.03695182716192,1.93730789047442,2.02697484118077,2.02876682409971,2.02707170512233,1.93514782457753,1.9339079661255,2.01441158795984,2.02135673257002,1.93442134501579,1.9312829533091,2.01131194182977,1.92996560370382,2.03062661177775,2.00002729263749,2.0009378136882,1.99983356475437,2.01421786007671,2.00518045432873,1.92352415158978,1.99802220904711,1.92216805640787,2.00029851167388,1.91885530960636,1.91946555243822,1.92086039319675,1.99623022612816,1.91963990753303,1.99251065077208,1.99247190519546,1.99287873375003,1.89671221256469,1.89353507528138,1.84298178417881,1.84180973048588,1.84135446996053,1.8382451374363,1.93664921567178,1.8335956682412,1.94993894845444,1.82950800990718,1.82944989154224,1.82822940587852,1.8254978427264,1.82463575364648,1.94688773429516,1.91858409056998,1.82048997694751,1.93152511316301,1.81846552056881,1.81910482258314,1.81711911178106,1.92350477880146,1.81392260170943,1.81467814045364,1.86310042484178,1.81206281403139,1.81151068956447,2.02928020299,1.93993290329082,1.81083264197352,2.01459562944881,1.80622191835505,1.91438988190023,1.80626066393167,1.80927313251433,1.80944748760915,1.85673646388099,1.80518547418031,1.80684184758106
2.06726055447748,2.06836480341132,1.87273838702746,1.99136765626162,1.99378925480073,1.87060738031304,1.87111107280917,1.91678242125688,1.86981309599221,1.87006494224027,1.86793393552585,1.86707184644593,2.07438005418248,1.9905927447291,1.86212209903198,1.86166683850662,1.86039792087213,1.85990391477015,1.90456787822558,1.90509094351003,1.90685386724651,1.90346362929175,1.96129140240581,1.96037119496095,1.90303742794886,1.85522538639258,2.04524338055985,1.95750402229064,1.90118732666498,1.85456671158994,2.04106854467841,1.96769410894323,1.85431486534187,1.85590343398353,1.85389835039314,1.94765295943352,1.85474106668475,1.85560315576468,1.85663959993942,1.85658148157448,1.94139554880844,2.11126584313028,1.99113518280186,2.09762740015798,1.99095114131289,1.98336669468838,1.91222981600334,1.91146459086498,1.98342481305332,1.90587554143671,2.01913854830819,2.01810210413345,1.97852349761015,1.97500733653136,2.01824740004579,1.97077438228499,1.89977311311814,1.96798470076793,2.08806692912556,2.08918086445355,1.96725822120619,1.9667448423159,2.01033361601997,1.96182415408442,1.96021621265444,1.95821112906406,1.88327718386968,1.88232791724235,1.95412347073003,2.00870630180168,1.87994506427986,2.00797013584579,2.00668184542298,2.08933584676005,2.00598442504372,1.94861191245501,1.94860222606085,1.94906717298036,1.94858285327254,1.94791449207574,2.00210986738113,2.09482803224677,1.87473378422369,2.00072471301676,1.99996917427256,1.95299984900788,1.9541525299125,1.95363915102221,1.95483057750345,1.95507273735736,1.88387774030739,1.99600743906256,1.99445761599753,1.96704512053475,1.96998978435831,2.07937823356721,1.98492620414757,2.05447451419095,2.05389333054157,2.05523973932931,2.06426745868314,2.03855008219773,2.05744823719699,2.0481686715951,2.04115572222582,2.03493705717738,1.95719405767763,1.95702938897697,1.95526646524049,1.95537301557621,1.95178904973832,2.03783328903016,2.03824980397888,2.03380374906107,2.03500486193647,1.95530521081712,2.02619992964825,1.95348416871571,2.02525066302092,2.05599527807352,2.03463677895852,1.95348416871571,2.04164004193365,2.03659343057813,2.04097168073685,2.05455200534421,2.03834666792045,2.02165701078887,2.03726179177493,2.03507266669557,2.03696151355608,2.03835635431461,2.0285246642458,2.03853070940942,2.03829823594967,1.94564787584313,1.94508606498205,1.94407867998978,2.01917729388482,2.01958412243939,2.02657769902035,2.02524097662676,1.94129868486688,1.94115338895453,2.04056485218228,2.02576404191121,2.03413308646239,2.03776548427106,2.01816022249839,2.02189917064278,2.02022342445371,2.02866996015815,2.02846654588086,1.93367549266575,2.02135673257002,1.93126358052079,2.01758872524316,1.93035305947008,2.00298164285521,2.00082157695832,2.00145119257849,1.99834186005427,1.99743133900356,2.02381707668576,2.00202268983372,1.9937311364358,1.99829342808349,1.99698576487237,1.99877774779131,1.92172248227667,1.99727635669706,2.01448907911309,1.92023077757658,1.99431232008518,1.9923072364948,1.93628113269383,1.84533557795883,1.84291397941972,1.84122854683649,1.84025022102669,1.95056856407461,1.83660813682386,1.94401087523069,1.83391531924837,1.83236549618333,1.8293917731773,1.82792912765967,1.8751309263841,1.8739298135087,1.87335831625347,1.82224321428983,1.87016180618184,1.86985184156883,1.81835897023309,1.86754647975959,1.81749688115317,1.81812649677334,1.81435848944647,1.81311863099445,1.89772928395112,1.87385232235545,1.87323239312944,1.81077452360858,1.81091013312677,1.94033973184539,1.93828621628422,1.80975745222216,1.80858539852922,1.80813013800387,1.80628003671999,1.80438150346532,1.80499174629718,1.80970902025137,1.80789766454412
1.87679698617901,1.87634172565366,1.87584771955168,1.87193441631247,1.99113518280186,1.96257969282862,1.99108675083108,1.8713726054514,1.91652088861465,1.87095609050267,1.87019086536431,2.06511017497475,1.86512488122048,1.86706216005177,1.86312948402425,1.86304230647684,1.86068851269682,2.05760321950349,1.8584897012233,1.90582710946592,1.98000551591609,1.90460662380221,1.9034733156859,1.9029405640073,1.85399521433471,1.90438383673661,1.90370578914566,1.85340434429116,1.96726790760035,2.0434513976409,2.04284115480905,1.95022954027913,1.90417073606517,1.90490690202106,1.90363798438656,1.85350120823273,1.8547313802906,2.02942549890235,1.90363798438656,1.85426643337109,1.85670740469852,2.02615149767747,2.02491163922544,1.99145483380903,1.9880355366718,1.98882013459847,1.98366697290723,1.91353747921447,1.9834732450241,1.9827177062799,2.09755959539889,2.095399529502,1.90399638097035,1.9767121419029,1.97775827247179,1.97572412969894,2.11153706216666,2.1111496064004,1.96715167087047,2.01347200772666,1.9651659600684,2.08797006518399,1.96370331455077,2.10787560517552,2.01347200772666,2.01300706080715,1.88420707770871,2.0127745873474,1.95724248964841,2.00980086434136,1.95178904973832,1.87840492760899,1.87993537788571,2.00704992840093,1.94982271172456,1.95165344022013,1.95245741093512,2.08837689373856,1.87652576714263,1.95045232734473,1.94958055187065,2.00360157208123,1.95149845791363,1.94991957566613,1.95113037493569,1.95177936334417,1.95480151832098,1.95610918153211,2.07900046419511,1.88419739131455,1.8871226823498,1.99494193570535,1.99354709494682,1.89056135227534,1.99354709494682,1.99241378683052,1.98425784295078,2.05370928905259,2.06266920364732,2.05080337080566,1.96068115957395,2.04833334029576,2.0535736795344,2.042095302459,2.03506298030141,1.95827893382315,1.95708750734191,1.9567775427289,2.02748822007106,1.95609949513795,1.95451092649629,2.04781996140547,2.0317502334999,2.03585726462224,2.02813720847954,2.04814929880679,2.03543106327935,2.04462345133383,2.0373780285048,2.03795921215419,2.03154681922261,1.95181810892079,2.03707775028595,2.03829823594967,1.95371664217546,1.95037483619148,2.02955142202638,2.03577008707483,2.03551824082676,2.04102979910179,2.0402936331459,2.0290574159244,1.9479241784699,1.94685867511269,2.0327285593097,2.03767830672365,2.03243796748501,2.04170784669274,1.94283882153776,1.94420460311382,2.02259659102205,1.94174425899808,2.03019072404071,2.01769527557888,2.0297935818803,2.0157773695359,2.03041351110631,1.93827652989006,2.03465615174684,2.01708503274702,2.02191854343109,1.93566120346782,1.93610677759902,1.93385953415472,2.01665883140414,2.01902231157831,2.01157347447199,2.01434378320074,2.00552916451836,2.00431836524881,2.00054067152779,2.02137610535833,2.01116664591742,2.02148265569405,1.99345991739941,2.00047286676869,1.99928144028745,1.92000799051098,1.92036638709477,1.92142220405782,1.98984689237905,2.0076795440211,2.01289082407727,1.99115455559018,1.9905927447291,1.89405814056582,1.84523871401727,1.95504367817489,1.84061830400464,2.03765893393534,1.83684061028362,1.83577510692641,1.83302417098597,1.83257859685477,1.8311934424904,2.03724241898661,1.82637930459464,1.87536339984386,1.82340558158861,1.82257255169115,1.82156516669888,1.92573264945745,1.90138105454811,1.81836865662725,1.81880454436429,1.86596759751209,1.81611172678879,1.81563709347513,1.8620058623021,1.81289584392885,1.88048750235262,1.87237030404951,1.81174316302423,1.81324455411848,1.81082295557937,1.93742412720429,1.80844010261688,1.80955403794487,1.81091013312677,1.80841104343441,1.80443962183026,1.93929360127649,1.93689137552569,1.80598944489529
0,0,0,0,0,0,0,0,0,0,0,0,0,0,0,0,0,0,0,0,0,0,0,0,0,0,0,0,0,0,0,0,0,0,0,0,0,0,0,0,0,0,0,0,0,0,0,0,0,0,0,0,0,0,0,0,0,0,0,0,0,0,0,0,0,0,0,0,0,0,0,0,0,0,0,0,0,0,0,0,0,0,0,0,0,0,0,0,0,0,0,0,0,0,0,0,0,0,0,0,0,0,0,0,0,0,0,0,0,0,0,0,0,0,0,0,0,0,0,0,0,0,0,0,0,0,0,0,0,0,0,0,0,0,0,0,0,0,0,0,0,0,0,0,0,0,0,0,0,0,0,0,0,0,0,0,0,0,0,0,0,0,0,0,0,0,0,0,0,0,0,0,0,0,0,0,0,0,0,0,0,0,0,0,0,0,0,0,0,0,0,0,0,0,0,0,0,0,0,0,0,0,0,0,0,0,0,0,0,0,0,0,0,0
1.92588763176395,1.92518052499053,1.98200091311232,1.92373725226122,1.87090765853189,1.9914838929915,1.96091363303371,1.87101420886761,1.86858292393434,1.91669524370947,1.91674367568025,2.06226237509275,1.86721714235827,1.91330500575471,1.91025379159543,1.86306167926515,1.8640303186808,1.90718320464783,1.85801506790964,1.98061575874795,1.85759855296091,1.85272629670021,1.85412113745874,1.85420831500615,1.85520601360426,1.977399875888,2.05044497422187,1.90350237486837,1.9523508605994,1.85361744496261,1.85476043947307,1.85491542177957,1.90356049323331,1.90371547553981,1.95237023338771,1.85553535100558,1.85617465301991,1.94199610524614,1.85623277138485,1.85730796113622,1.85802475430379,1.99389580513646,1.99469008945728,1.99150326577981,1.9147095329074,1.9144867458418,1.98725093874512,1.98419972458584,1.98552676058527,1.98284362940393,1.98130349273306,1.97838788809196,2.10156007618551,1.97614064464766,2.02170544275965,1.97579193445803,1.97435834812288,2.11903433124376,1.89407751335414,2.09781144164696,1.96483662266708,1.96416826147028,1.96418763425859,1.96280247989422,2.01118601870574,2.01116664591742,1.96129140240581,1.95956722424596,1.88363558045347,1.95619635907951,1.95046201373889,1.95120786608894,1.87849210515639,1.95312577213192,1.94858285327254,1.95144033954869,1.9504813865272,1.94951274711156,1.9490574865862,1.95031671782654,1.95110131575322,2.07889391385939,1.95057825046877,1.95041358176811,2.0005600443161,2.00098624565898,1.95508242375152,1.95408472515341,1.95386193808781,1.88188234311115,1.88661898985366,1.96318993566048,1.99383768677152,1.96793626879714,1.96934079594983,2.08237132936156,1.99067992227651,2.06170056423167,1.96424575262353,1.96312213090138,2.03516953063713,2.0505708973459,2.03539231770273,2.05242099862978,2.04200812491159,1.95697127061203,1.95690346585294,1.95589608086066,1.95565392100675,1.954307512219,1.95449155370798,1.95433657140147,2.05121988575438,2.02893149280037,2.03817231282563,2.02791442141394,2.02404955014551,1.95481120471514,2.04192094736418,2.04365481191819,2.03881161483996,2.04102979910179,2.03121748182129,2.02160857881809,2.03729085095739,1.95114006132984,2.0435192024,2.03518890342544,1.94838912538941,2.0450980846475,1.94806947438224,1.94709114857244,2.03669998091385,2.03435587352799,2.0371552414392,2.03111093148557,2.02712982348727,2.03214737566031,2.02330369779547,2.02508599432026,2.03559573198001,2.0319052158064,2.02939643971988,2.02476634331309,2.0238073902916,2.02041715233684,2.01051765750894,2.0228968692409,2.02445637870009,2.01709471914118,2.02188948424862,2.02192822982525,2.02875713770555,2.01620357087878,2.01378197233967,2.01474092536116,2.02079492170894,2.0106145214505,2.02401080456889,1.99923300831666,1.99852590154324,2.02203478016097,2.00170303882656,1.99532939147161,1.92357258356056,1.92326261894755,1.92274924005726,1.99436075205597,1.99255908274286,1.92139314487535,1.99094145491873,1.92001767690514,2.01063389423882,2.00118965993627,1.98917853118226,1.97103591492721,1.95403629318262,1.95027797224992,1.84187753524498,1.94484390512814,1.88471077020484,1.88393585867232,1.883606521271,1.83093190984818,1.83035072619879,1.82785163650642,1.82988577927928,1.93541904361391,1.82642773656542,1.82342495437692,1.82168140342876,1.82097429665534,1.82013158036372,1.81972475180915,2.02865058736983,1.81741938999992,1.81620859073036,1.8130411398412,1.81285709835222,1.8119950092723,1.81102636985665,1.90105171714679,1.94104683861881,1.80747146320123,1.8107260916378,1.80782017339086,1.806899965946,1.80780080060255,1.80643501902649,1.91041846029609,1.80581508980048,1.80362596472112,1.80485613677899,1.80664811969793
1.9270790582452,1.92384380259694,1.98120662879149,1.98116788321487,1.92256519856829,1.92352415158978,1.87249622717355,1.95768806377961,1.87047177079485,1.99060243112326,2.0675898918788,1.86752710697128,1.9835410497832,1.98471310347613,2.06500362463903,1.86314885681256,1.86292606974696,1.86144405144102,1.90906236511418,1.85662022715111,2.05554970394232,2.05482322438059,1.85624245777901,1.85680426864008,2.07166786381867,2.07440911336495,1.85714329243556,1.85480887144385,1.91005037731814,1.85486698980879,1.85446984764837,1.8536852497217,1.8547313802906,1.96318993566048,1.96181446769026,1.90318272386121,1.85228072256901,1.95434625779563,1.94546383435416,1.85677520945761,1.85738545228947,2.11058779553933,2.11356151854536,2.1137746192168,2.10206376868164,2.10093046056534,1.98482934020601,1.98713470201525,2.02338118894872,1.98387038718452,2.09942906947108,1.97747736704126,1.90581742307177,2.10085296941208,1.97471674470667,1.97392246038584,2.01750154769575,1.89764210640371,1.8946199514269,1.89465869700353,1.89299263720861,2.01437284238321,1.9646525811781,1.96099112418696,1.96141732552985,1.9612720296175,1.95992562082975,1.88406178179636,1.95570235297753,1.88214387575338,1.95342605035077,1.88017753773962,1.95258333405915,2.00766985762694,1.87668074944914,1.87730067867515,1.87743628819334,1.95022954027913,1.95080103753437,1.87488876653019,1.95038452258564,1.87527622229645,2.00347564895719,1.87997412346233,1.95117880690647,1.95139190757791,1.99809970020036,1.95443343534304,1.99620116694569,1.88369369881841,1.95934443718036,1.88945710334151,1.96366456897414,2.07698569421057,1.9937311364358,1.97311848967085,2.07911670092499,2.04618296079302,2.0366224897606,2.03761050196456,2.03731022374571,2.07166786381867,2.03413308646239,2.05068713407578,2.04590205536249,1.95822081545821,1.95814332430496,1.9551308557223,1.95522771966387,2.02731386497624,1.9549080686567,1.95670005157565,1.95428813943069,2.03862757335099,2.02804034453798,2.02625804801319,2.02603526094759,1.95435594418979,2.03505329390725,2.0578453793574,2.02432076918189,2.03818199921979,2.0587365276198,1.95222493747537,1.95143065315454,2.03729085095739,2.04458470575721,2.03463677895852,1.95322263607348,1.94862159884916,2.03503392111894,1.94783700092249,2.02743978810028,2.03391029939679,1.94537665680675,1.94631623703992,2.02840842751592,1.94491170988724,2.02915427986597,2.02760445680094,2.03647719384825,2.03291260079868,2.03231204436097,2.02967734515042,2.03146932806936,2.02306153794156,2.01769527557888,2.02266439578114,2.02083366728557,2.00824135488217,2.01808273134513,2.02041715233684,2.01499277160922,2.02539595893326,2.02802097174966,2.01441158795984,1.93040149144086,2.02375895832082,2.01769527557888,1.92868699967517,2.00972337318811,2.00936497660432,1.92743745482898,2.00835759161205,1.92341760125405,1.92237147068516,1.92161593194095,1.92096694353247,1.92044387824802,1.92092819795584,1.99449636157416,1.99569747444956,2.00413432375983,2.00829947324711,1.92004673608761,1.89429061402558,1.84346610388664,1.84042457612151,1.83946562310002,1.84008555232603,1.83719900686741,1.88318031992812,1.88242478118392,1.83062194523517,1.88935055300579,1.82741574876938,1.82637930459464,1.93033368668177,1.82598216243423,1.82295032106325,2.03509203948388,2.02484383446634,1.82059652728323,1.81870768042272,1.94367185143521,1.94374934258846,1.91077685687987,1.94704271660166,1.81323486772432,1.81292490311132,2.02430139639358,2.04226965755382,1.9401363175681,1.9073672461368,1.90646641148025,1.8103483222657,1.85662991354526,1.80820762915712,1.80716149858822,1.80771362305514,1.80616379999011,1.93924516930571,1.80478833201989,1.80306415386004
1.99314026639225,1.92548080320938,1.87741691540503,1.92366944750212,1.9211606714156,1.87375545841388,1.87263183669174,1.92062791973699,1.948301947842,1.95059762325708,1.86963874089739,1.87098514968514,1.86811797701483,1.86719776956996,2.06040258741471,1.8644080880529,1.98905260805823,1.86183150720728,1.91376995267422,1.9085683590122,1.90738661892511,1.85764698493169,1.8569108189758,1.8597586188578,1.91303378671833,1.90385108505801,1.85475075307891,1.96470101314889,1.96501097776189,1.85520601360426,1.9040738721236,1.95704876176528,1.85497354014451,1.90334739256187,1.90437415034245,1.85438267010097,1.85657179518033,1.85689144618749,1.85722078358881,1.85644587205629,1.85849938761746,1.99491287652288,2.10386543799474,1.99156138414475,1.99061211751742,1.98933351348876,1.98733811629253,2.02486320725466,1.9869894061029,1.98388007357868,1.98273707906821,1.90540090812304,1.97723520718734,2.09372378331293,1.97523980999111,1.97643123647236,2.01835395038152,2.09579667166241,1.96966044695699,1.96929236397905,1.97048379046029,1.89032887881559,1.96578588929441,1.96131077519412,1.96168854456623,1.96201788196755,2.01372385397473,1.95661287402824,1.95699064340034,1.95502430538658,1.95386193808781,1.87983851394414,1.88024534249871,2.10399136111878,1.95121755248309,1.95103351099412,1.95052013210383,2.0804049913478,1.95009393076094,1.95034577700901,1.95101413820581,1.95042326816226,1.95111100214737,1.87696165487967,2.00023070691478,1.95107225657075,1.95329044083258,1.95581858970741,1.95526646524049,1.99406047383711,1.95988687525313,1.88666742182445,1.96690951101656,1.96968950613946,1.99513566358848,1.99375050922411,2.0765110608969,1.96691919741071,2.03839509989123,2.03836604070876,2.03901502911724,2.03850165022695,1.96042931332589,2.03135309133949,2.03224423960188,2.03396841776173,1.95495650062749,1.95421064827744,1.95483057750345,1.95537301557621,1.95383287890534,2.04123321337907,2.03172117431743,2.02714919627558,1.95435594418979,2.02711045069896,2.02824375881526,2.0426280541376,2.04378073504222,2.04799431650028,2.03354221641884,2.04198875212328,2.04138819568558,1.95274800275981,1.95088821508177,2.05211103401678,1.94990020287782,2.0310818723031,2.03395873136757,2.03394904497342,2.03865663253346,2.0454758540196,2.03883098762827,2.03572165510405,2.0321958076311,2.03758144278209,2.04156255078039,2.03474332929425,1.94416585753719,2.01981659589914,2.03169211513496,2.02757539761847,2.0240301773572,2.02457261542996,2.03129497297455,2.02476634331309,2.02559937321055,2.01616482530216,2.02187979785447,2.02391394062732,2.01542865934627,2.01724970144768,1.93343333281183,2.02483414807219,2.01419848728839,2.01219340369801,2.01168971120187,1.93024650913436,1.92786365617187,1.92782491059524,2.01078887654532,2.00916156232704,2.01212559893891,2.01863485581205,1.92365007471381,1.92179028703577,1.9205601149779,1.92232303871437,1.91963022113888,1.91988206738695,1.9219840149189,1.92149000881692,1.99754757573344,2.00461864346766,1.99525190031836,1.89338977936903,1.94489233709893,1.94473735479242,1.95993530722391,1.88681271773679,1.88439111919768,1.88341279338788,1.88276380497939,1.88063279826497,1.87899579765253,1.8769325956972,1.87527622229645,1.82395770605553,2.04466219691046,2.03528576736701,1.82078056877221,2.04442972345071,1.81877548518182,1.9079678025745,1.81451347175298,1.81584050775241,1.81327361330095,1.8133511044542,1.81343828200161,1.81181096778333,1.81001898486438,1.8101255352001,1.81053236375467,1.80807201963893,1.80649313739143,1.85759855296091,1.85670740469852,1.80749083598954,1.80748114959539,1.8058538353771,1.89318636509174,1.80646407820896,1.80460429053092,1.80333537289642
