1.83550095121561,1.83446945826743,1.88302931402886,1.9214734919346,1.83490486735446,1.88227939613616,1.83426667210312,1.93853291444853,1.90498497465512,1.83597804733162,1.83426428513011,1.83721554986596,1.92348281965243,1.83809349548415,1.88897221173767,1.89870501707625,1.99580083782437,2.07931427474507,2.07217284463426,1.89452482959695,1.96641493081596,1.99264311904177,1.96369960122832,1.95951377511389,1.99232057371158,1.95869472505901,1.95888914520058,1.99170451213091,1.95391733080742,1.95475215324582,1.95476960466859,1.9498925575269,1.94946458598017,1.98973053471013,1.87497858258723,1.94626147132735,1.94567529674302,1.86998558087583,2.0622451758442,1.99089847195656,1.9897983420403,1.94058265783973,1.93882171691135,1.9380619425652,1.93667576036889,1.86371527637994,1.93609997150846,1.93581291863513,1.93691941471941,1.93447132893017,1.93535595518787,1.98525038007374,1.93696424378928,1.93695187488442,1.98276355557795,1.937063295812,1.93762278658932,1.8657159637206,1.86645321029077,1.86723545954672,1.94226522759656,1.94331249980597,2.07240535374686,1.87765288655619,1.98187333046662,1.95547038462033,1.97888708992582,1.97886160567359,2.06394391870162,1.97849628085949,2.03985573783201,2.03827545001987,1.95174529273134,1.95049565996636,2.03533531613426,2.02833605076623,1.94924464486425,2.02457676897158,2.02212001191248,1.94809104840199,1.94590941468701,1.94914926175665,1.94303063092036,1.9489679553003,1.94475624256401,2.03742853813912,2.01906077904978,2.02174597451531,2.01567285562586,1.94539818585615,1.94518488215604,1.94489977091891,2.03508465235183,1.94342915256087,2.03205441432561,2.03291596470364,1.94283889460661,2.02973496203678,2.02995624032491,2.02924361825862,2.03122085405604,1.94375976152432,2.02532009713523,2.02352283876284,2.0365350875961,2.02649098505148,2.03602228142823,1.94224863665236,2.03532443671659,1.94401291217538,2.0251456633422,2.04384073930374,2.02742953518426,2.03223893273138,2.0463952983143,2.03604642565919,2.03045893641682,2.0256943959976,2.036436197915,1.94181317842462,2.03558661465601,2.0358965466927,2.04251509655538,1.93843292539617,2.04132518665659,2.03686378289221,2.04591148031355,2.02531057370513,2.03636091307987,2.01938847257422,2.02901881337726,2.02736360770144,2.02792142084838,2.02007559938365,2.01291509306265,1.93218908630894,1.93251417216088,1.93336093713277,1.93194629472615,1.9315841039539,1.93132145566668,2.00635452102829,1.93148652203608,1.92893649874921,2.01183150462128,2.00245159860099,2.02996483919845,2.00822697475733,1.90089187441496,1.84902188428333,1.84627394494636,1.84679877376375,1.95469243549122,1.842369578589,1.88982230841528,1.889048958553,1.88785364350581,1.93568806463623,1.93503007216263,1.83454440941603,1.83516185419517,1.83184796374816,1.83130855333219,2.05535076941132,1.82995071867966,1.8274844094857,1.82944994128401,1.82681659852433,1.82813473688261,1.82787132125327,1.82637412537543,1.95820495413703,1.82606137464336,1.8251655072164,1.95405379573744,1.8252299699479
1.94729191106001,2.11924861204928,1.83493935099361,1.83509935317235,1.8357516593026,1.88295674132956,1.83440792323444,1.83544331746766,1.93947350998461,1.83532747890275,1.83884105960891,1.83575219913991,1.92261865409982,1.88862225005441,1.83998364028906,1.97265082767877,1.9710641094449,1.89854051895785,1.96885811472226,1.99506220901822,2.0722408556269,1.96271528560319,1.96221315798631,1.96012656578705,1.99350754052669,1.95942437762462,1.95959109712579,1.8831067249081,1.95371684439644,2.08937768902007,1.95420455632785,1.99249797364319,2.07202797570568,2.07907236572017,1.9479171506414,1.94638239097419,1.9457900633722,1.99112231780991,1.9912706886618,2.07527923263732,1.86894698491261,1.86862443958242,1.94003520476482,1.93808374894314,1.93826224571152,1.86442751908261,1.85891582106792,2.07577756517247,1.93716311848759,1.93781684458953,1.93479024480761,1.86293151450451,1.93654546776759,1.93658766810211,1.93720506580419,1.93796089920479,1.93882359103986,1.93969087516515,1.94064305731408,1.94431265086027,1.98466979847939,1.87185311833765,1.94936196113229,1.87712552494133,1.87798575333695,1.95668573846525,1.9786953602179,1.97821619563902,2.07004437336704,2.05505409955658,2.05270433032203,2.03858619941237,1.9517342340343,2.02244469482499,2.02092873177309,1.94863503419019,2.0495594680077,1.9491575576251,2.02949071802615,1.94721042600586,1.94763115834797,1.94589814634718,1.9483471839368,1.94524458484633,1.94610564780504,1.94511631751343,2.01921463040654,1.94594500613638,1.94540312998165,2.04357786485884,2.04291342146898,2.03024728894299,2.03313695559654,2.03907680470291,2.03883154660111,2.0448761662611,2.02234947286227,2.03033723777355,1.94370009063823,2.02244630754521,2.03326461264345,1.94461773210263,2.02672426641158,2.02303881327138,1.94563697534604,2.03881870849755,1.94301306908492,2.02490410297603,2.03555224587207,1.94395618214378,2.03270329673492,2.02349139055011,2.02900110911255,2.03750789147519,2.03173554726778,2.01435687067941,2.02986677868727,2.02595272412783,1.9406939831262,1.939113229523,2.0135440564383,2.03224511605274,2.03060689525231,1.9386522562207,2.02572659355971,1.9389070434881,2.03058412623996,2.02056687406301,2.01953138007689,2.02839743806368,1.9379813619339,2.00989930205583,2.02820143672544,2.03452244933452,2.02363649981406,2.01313764349172,2.01356350451929,1.93181672030885,1.93180904752968,1.93182236746645,1.92879279753546,1.93190980175309,1.92898863532778,1.93028722375597,2.00289998346124,2.01587586973175,2.01459920681626,1.92801471123093,1.850996167664,1.84891019139034,1.84691748428753,1.95820495413703,2.0427182815543,1.84178455298573,1.84211283349056,1.83809743428159,1.83777026582339,1.93545583199849,1.93495266128339,1.95648417480044,1.95827107592972,1.83014093923689,1.83094245845052,1.83124171718451,1.82886186784766,1.83061667452354,1.82592509054902,1.82756548354571,1.95644385663417,2.05226886599281,2.04646301562635,1.82308856991686,1.82515290707597,1.82542891398759,1.82542749344398,1.8245368282888
1.83593447036732,1.94856729967085,1.83439814972825,2.02180766779786,1.83482833402969,2.01476327778644,1.83629458040617,1.93649117159399,1.94206296481394,1.8368488701475,1.83639330014289,1.84082829982304,1.83954165338554,1.83999175458682,1.84201644369084,1.97318877185232,1.97268703467202,2.07319881525757,1.96784972660783,1.96822392733194,1.96868524005349,1.99589437597012,1.96252007960352,2.072744026342,1.96074943472283,1.96067177833873,1.96004447745694,1.95612234002595,1.99310537257784,1.9563277403153,2.06944438761412,1.95251796115763,2.06715109031995,1.94903443568462,1.94832129552681,1.87337230684287,1.94639366941882,1.87155471120651,1.87263019591085,1.942491513286,1.94226315119222,1.94206575345014,1.86824383609279,1.94032706187396,1.8679459335971,1.9375611732387,1.93839929078345,2.07657102668474,1.93832276274768,1.93687509060263,1.93770484869887,1.93552589091581,1.8662804088713,1.93678964390228,1.98656636502093,1.93968274573325,1.93933604768055,1.9412108876813,1.9416167482551,1.94356512316219,2.07237632466558,1.94676354927007,1.94828292659326,1.87774577961129,1.95171214549355,1.9555014076999,1.88752882139749,1.95860168489316,1.89213476870021,2.05558933576167,2.03966700273067,2.02601527163024,2.04516640061046,2.06351277899186,2.03381603043097,2.02332815097141,2.02299940995409,2.02502308567318,1.94925432122416,2.02505891606626,2.02560367028756,2.0208303554481,1.94634855259362,2.01894346526574,1.94801368293985,2.04514704789065,2.03238392916695,1.9464868822911,2.04604694936189,1.94633206053261,2.03534005653281,2.02426581837179,2.03307476461071,2.02590076802238,1.94513993299221,1.94575147893826,2.03875742489951,2.02038698230742,2.01743770039491,2.01659960685162,1.94502575194532,2.02468154668988,2.03827038145086,2.02382795246878,1.94525637185641,2.02686647835312,2.03598352219627,2.03001324036215,2.03622240291534,2.04921993013857,2.0450221919203,2.04022390245598,2.04026712268988,2.0371318098119,1.94490963562646,2.02797797875448,2.02807876166144,1.94202492229175,1.94124553006485,2.02877266408379,2.03591558717736,2.01725010226994,2.04559216044631,2.03217946224487,1.93908406672443,1.93982297805203,2.02315058209137,2.02302594875062,1.93807812553296,2.02240122961397,2.01892430222018,2.01222264409657,2.01318822519748,2.02195889548092,1.93183687339372,2.02533953915626,2.00624799154591,1.93162924893402,1.93081475515241,1.9292004288075,1.93141667989159,1.92986658461991,1.93189196233152,1.9298749373904,2.02035094848382,2.02033221235606,1.92862747561645,2.03124211870602,1.8515263879663,1.84995835542583,1.8474569265535,1.84770694511278,1.96228837801727,2.04939041938868,2.05214760660316,1.95727602358607,1.83785554064239,1.83633388349469,1.95854201400708,1.83426552271825,1.83361555847092,1.88047171790806,1.87850071921459,1.87836158391811,1.83039182057269,1.82609752746407,1.82981768877689,2.05271396133699,1.82792990525221,1.95510851896717,1.82463329580768,1.82592961003727,1.82566578751982,1.95389252307234,1.95471823911764,1.82705261691559
1.88733723461586,1.83763479579629,1.83684662396407,1.83766538834939,1.83853477130307,1.94267439648822,1.83964156087143,2.01835320731149,1.94505229687316,1.94252192217101,1.84064426939008,1.84198965773979,1.84387208634326,1.84140534012942,1.84461854977378,1.97204149347213,1.97193664064098,1.99842958226544,1.96707619138211,1.96745588019095,1.99710392095835,1.96769505209661,1.96848041333718,1.96224644766992,1.96180983639334,1.9612825092406,1.95953044078453,1.95815066983045,1.99387063441268,1.99300473843482,1.95608586921767,1.95245126976568,1.95201282669205,1.95107401477788,1.94931306828931,1.9491267032988,2.07540502531609,1.99496544541917,1.87688557869172,1.87555697458421,1.94256118307732,1.99180127572997,1.93897045380173,1.93899344634045,1.87240985815601,1.93772194559004,1.93752127553457,1.93802981774771,1.93735668159943,1.93819939701326,1.93738288998681,1.93654155321515,1.87031754984522,1.93694659428724,1.9389965194908,1.93985282361672,1.98686633217801,1.94134362752974,2.07269564454247,1.94489400059175,1.94527440304735,1.94720060298994,1.8819349871015,1.9488285613883,2.0729085244604,1.97980258944678,1.88785858739006,1.98127662160576,1.98183139957369,2.07730159185763,2.04027338795142,2.02867949605762,1.952660399911,2.03958314094482,2.025290464157,2.02397170217549,2.0237832431495,2.02400440899658,2.02348039465092,2.02252532113616,2.02601035139933,1.94662720419866,1.94774586560302,1.94714506975761,1.94814679311001,2.02822309441541,2.04141197297496,2.01873058534781,2.03257745695802,2.03215168682503,2.03605611746319,2.04249051309601,2.04012056993142,2.03546099463398,2.02191410775682,1.94574373785034,2.03928639924104,2.02217341136764,2.03037131980338,2.02009739853421,2.02042007915049,2.05354612828889,2.03851551590213,2.03205493293785,2.02609825273208,2.02377961340321,2.04171196604098,2.0263652008862,1.94460966846938,2.02969390112109,1.94503542830523,2.03916210907509,2.03499068174876,2.02346232534056,2.04237960895759,2.02269319723512,2.03376750741639,2.02853269743388,1.94215652078647,2.0252060529831,2.03280993768975,2.02866817165547,2.01476327778644,2.02948228457517,1.9395047176306,1.93955498290651,2.03200655118726,2.02477620503868,2.02110054527399,2.02237572552413,2.02884934364185,2.02736490814832,2.03224816456403,2.02047371246969,2.02127767974493,1.93317221106072,2.02442028497242,1.93228704851883,2.00534817961715,1.99921336739875,1.93053829730671,2.0073608624585,1.92926408548259,1.93033271522828,1.92894005036644,1.9285570879137,1.92859156920048,2.04402459014158,1.95946288092478,1.85481343771431,1.85107509469514,1.89315078649032,1.84845307345175,1.84671674633964,1.84635425881773,1.84296790036522,1.95891132841015,1.92828564930829,1.95865167941934,1.83558096668683,1.83168139975916,1.83107676974816,1.87878303350643,1.87858294302805,1.82941468439748,1.83152250650874,1.82844425948042,2.03770592712309,1.82823156629752,1.8273040183886,1.82712267023627,1.82806318585933,1.82674876227459,1.82725668550114,1.82701764857873,2.03727049092733
1.85967381631976,1.84799095519448,1.8444928454734,1.84499515876141,1.84846661965021,1.85992588368352,1.87399629419548,1.89649771471991,1.89647826537021,1.86780565210815,1.85273633474596,1.85097746618251,1.85366385645805,1.8520288353067,1.85514671607422,1.90289045228998,1.91145858347043,1.91588441329725,1.91732215259218,1.91763065120386,1.91767464887732,1.91767875605489,1.91767898773358,1.91767899366331,1.91767899366331,1.91767899366331,1.91767565970236,1.9175854003793,1.91663998037458,1.91144168957836,1.91663957362408,1.91756973463476,1.91745100901588,1.91596292853246,1.90939261096654,1.91586531740207,1.9166412550543,1.91328836499835,1.90128395408385,1.90053613641334,1.9119896331966,1.91238846914426,1.90240999107252,1.90841623983395,1.90087714840621,1.91125716793711,1.91118173131012,1.90116498361205,1.91228899932657,1.91612464297998,1.91546038762111,1.90906832885367,1.89224797102039,1.90908732837066,1.91564571900804,1.91724716448835,1.91683079100925,1.91361643027821,1.90346652207448,1.91032413379039,1.90433154434708,1.9119135725252,1.90715422685518,1.91527649390069,1.91720068702867,1.91654300309413,1.91124282752475,1.91657779676505,1.91757488323205,1.91767498021421,1.91767899366331,1.91767899366331,1.91767899366331,1.91767899366331,1.91767899366331,1.91767899366331,1.91767899366331,1.91767899366331,1.91767899366331,1.91767899366331,1.91767899366331,1.91767899366331,1.91767899366331,1.91767899366331,1.91767899366331,1.91767899366331,1.91767899366331,1.91767899366331,1.91767899366331,1.91767899366331,1.91767899366331,1.91767899366331,1.91767899366331,1.91767899366331,1.91767899366331,1.91767899366331,1.91767899366331,1.91767899366331,1.91767899366331,1.91767899366331,1.91767899366331,1.91767899366331,1.91767899366331,1.91767899366331,1.91767899366331,1.91767899366331,1.91767899366331,1.91767899366331,1.91767899366331,1.91767899366331,1.91767899366331,1.91767899366331,1.91767899366331,1.91767899366331,1.91767899366331,1.91767899366331,1.91767899366331,1.91767899366331,1.91767899366331,1.91767899366331,1.91767899366331,1.91767899366331,1.91767899366331,1.91767899366331,1.91767899366331,1.91767899366331,1.91767899366331,1.91767899366331,1.91767899366331,1.91767899366331,1.91767899366331,1.91767899366331,1.91767899366331,1.91767899366331,1.91767899366331,1.91767899366331,1.91767899366331,1.91767899366331,1.91767899366331,1.91767899366331,1.91767899366331,1.91767898283897,1.91767856163925,1.91767116808951,1.91759323191094,1.91704627943332,1.91442524547043,1.90613076102272,1.88350662374083,1.87371757597894,1.86756958615496,1.88103794706685,1.86961704008704,1.85872134289872,1.86452456623208,1.87464678412119,1.88619114353841,1.88219428048683,1.88331265102257,1.84193038321754,1.83837549543912,1.83771977449642,1.88343380570281,1.88329720101268,1.83596256923721,1.83426270740418,1.83453328987583,1.83720029384727,1.83655043727452,1.83155053756899,1.83061549101052,1.82971342980338,1.83169963136476,1.83465074689619,1.8343589123516,1.85560222366972
1.84069212139348,1.8402504582869,1.83941439510665,1.84047077943518,1.84067789903729,1.84158750396521,1.94047359637176,1.9454746662242,1.94137849971293,1.84248743527879,1.8423510756188,1.84265336880105,2.00956707251702,1.84436406258173,1.84517961245862,1.97572884192643,1.97495473313397,2.0791883715032,2.07333896768366,2.07421435327418,1.96715558704989,1.96719429248952,1.99525573621634,1.96468665738712,1.96321093360091,1.96240193672407,1.99576858329135,1.95864928827714,1.95845126472112,1.88841415705229,1.99610725588805,1.95313991335023,1.95274868232569,1.9953122765154,1.88381601873367,1.95204944444812,1.94656427536902,1.94612681390573,1.94598835566263,1.94567377942193,2.07497926548024,1.94382814217129,1.87527783059673,1.93925922257288,1.9391349905542,2.07650813034535,1.9390788694807,1.87167884126775,1.93833938725042,2.07430192028683,1.93989506945584,1.9390347028265,1.87156563549472,1.93881365061414,1.93871341441555,1.93920724608951,2.07982712179304,1.9401748866789,1.87675465036747,1.94645785321138,1.87872466208773,1.94667129823825,1.94912187124477,1.95163716166585,1.9530661167124,1.95750133816559,1.98231844302228,2.0532364847719,2.0664156869636,2.08038835066758,2.05071095483649,2.03007217103115,2.02970441445075,2.02844961144054,2.02678185717454,1.952660399911,2.02687126120269,2.03004275466276,2.02833934038122,2.0278869594424,2.02662690975931,1.9491669587376,1.94845805055596,1.94702409814582,1.94794782956225,1.94686911491862,2.02051103557048,2.04530186964914,2.03166787854187,1.94731098560975,1.94716261475786,2.01975107299185,2.01938479481095,2.0226349407505,2.02328989983231,2.01930394876919,1.94700664105176,1.94635860140549,2.02265585687001,2.02610486320715,2.02702453477305,2.02987540539507,2.03474429656606,2.04300373415767,2.03675764385851,1.94524222593979,1.94475343153083,1.94495580568658,2.03795751246944,2.02703594195067,2.02820597043399,2.05620712726298,2.02959713754307,2.02556209543033,1.94318724356322,2.04916273725156,2.03589644781427,2.02217057479607,2.02591782125287,2.02984595755617,2.02719830924062,2.04185708552268,2.01486004138549,1.94218090213302,2.03383957426585,2.03742405304337,1.93828132909098,2.03511637528712,1.93876192163297,2.01143138452613,2.01172812623346,2.02608461888075,2.01924343241829,1.93519701803811,1.93363120889565,1.93413351317206,2.03932187924503,2.0123635405298,1.9299426382834,1.92924605054132,1.93081893280488,1.92873694264008,1.9291749983837,1.92732769580305,1.9284201936542,2.01545778650999,2.01630054944644,1.92694869891464,1.85828834027702,1.9529313379903,1.85128033489986,1.89378942624411,2.0283875925338,1.84226152282351,1.9594128863986,1.95890326477689,2.03168723126168,1.83811170054975,2.03890579575141,1.83474295180477,1.8310233608753,1.829538589242,1.87905232145027,1.87842557870702,1.82965584823494,1.82988789259762,1.82690730982618,1.82823408450937,1.91190357198777,1.82707797674936,1.82383014780701,1.82718451371263,1.8265974674297,1.95492466812896,1.82506308771755,1.89505057848516
1.9490248954374,1.95292853113738,1.83734417030951,1.83930314384434,1.84028619407285,1.93265936398571,1.946244702536,1.8386844956547,1.83901643058699,1.96452361715551,1.88820616657846,1.88859322097469,2.00925742900003,1.84470251701713,1.8446668579038,2.08995827061442,1.99813946451573,1.89863728255691,2.07523359651759,2.07408395224813,2.0726679311162,2.07585209593021,2.07688649718237,2.07858253457449,2.07080875436199,1.96187085182792,1.96087256555773,1.99603952136871,1.95858597699833,1.95851233932599,1.95569656617699,1.95444789145081,1.95339277337588,1.99596419754748,2.0800883835105,1.87815242863633,1.94615654868721,1.94624391711345,1.87337391956952,1.94558956638338,1.94509095350668,1.94472734858503,1.87007020796347,1.94241184591629,1.94204731158089,1.94129819437304,1.94013981117301,1.86726926559189,1.9901853236257,1.93829302859933,1.86539898628048,1.93936867547697,1.86560784371932,1.93993650148645,1.93992890684356,1.99004179095376,1.94139160374249,1.94167239751714,1.94214886409968,1.86990816999659,1.94624528817933,1.94675064240282,2.06897049485381,2.0733824172207,1.95390332545176,1.95615704793832,1.95697245131134,1.9630463595431,1.98201686313855,1.90464630205842,2.07220215018727,2.03078861876266,2.03047967540093,2.03005917414814,2.04535025144195,2.03485278329044,2.0354001887927,2.03651711719344,1.95126700408457,2.02859443627349,2.02846459582757,1.94867982819036,1.94848704542988,1.94801354799078,1.94857222366078,2.02309641602024,2.04204682183433,1.94672879128875,2.05229787786104,2.02388419091951,2.0250580190626,1.94695134756658,2.03186905876422,2.03508836463081,1.94806412895575,2.03662217480539,1.94636634249342,2.02853274385886,2.02028217941595,2.03224402338011,2.03585231821729,2.03517149481203,2.03295702192652,2.04457130447598,1.94549989358071,2.02804891046998,2.03495140005741,2.03519652385259,1.94527733730288,2.03228929373235,2.02770900065805,2.03946218644549,2.03859131403556,2.03019707184023,2.05221079062189,1.94336111902955,2.03040995176202,2.02354754257712,2.0252917206609,2.01834682607372,2.01730351583813,2.01688091106252,2.03132515927584,2.03207670647839,2.03156036379158,2.03565275413306,2.02761023392127,2.033154685258,1.93882643069901,2.02618104177981,2.01961090928644,1.93814570248487,1.93521253052741,1.93522379550955,2.02926330317731,1.93213363445983,2.03311933251007,1.93149994724311,1.93128297241367,1.92995815975955,1.9297478932597,1.92922324752747,1.92553406618367,1.92704668589293,1.92935430599732,1.92874912082386,2.01562872196677,1.92667130993067,1.85319290691792,1.96242384705402,1.84594253002083,1.84562786608829,1.84140170328713,1.83919687088855,1.83853100613747,1.8379568112694,1.83676518067973,1.83527652633531,1.83471238774194,1.95836497418362,1.83440567705294,1.83002334903886,1.95716626601744,1.94864457206871,1.94791912204692,1.88948828426598,1.82579170668133,1.82620701749645,1.82513414222882,1.82265016694666,1.82580694305072,1.82261355018481,1.95655997295304,1.82256051515839,1.82417402142947,1.89541182925498
1.83929962550916,1.83838440133114,1.8378336602209,1.95089123877489,1.95066545704376,1.837665441512,1.83944900106259,1.83801430738003,1.84132963011184,1.88791587578128,1.83929630315211,1.84128601911561,1.84234365720291,1.84409895687702,1.8922799140988,2.00200837771521,2.00138718004039,2.00133436919763,2.00183738165172,1.96920721417977,1.96846969162704,1.89485221310709,1.89515540571748,1.99816832054799,1.96251293541089,1.96252640248697,1.96251593203675,1.96302898949267,1.88829325381761,1.95954879763733,1.95626558624118,1.95602595327577,1.95497554870919,1.99728245928524,1.99788277306449,2.10263187253368,2.09866942408697,1.99389136946962,1.87380613031198,2.0770887119397,1.94479108780755,1.99521703077672,1.9415720873644,1.94107219120725,2.08286549880347,1.94002373443518,1.86839865785128,2.06547708005274,1.86626663321871,1.93981031187566,1.99163677761157,2.0784240496067,1.9385204144225,1.94030506332114,1.94009768481075,1.99028047449811,1.9415153345528,1.94163673819343,1.98592772526715,1.9449169677931,1.94662714921386,1.9479266981347,1.9482995962997,1.98510523467515,1.95495924869794,1.95633412570612,1.96236075789926,1.96460747894107,1.9819330013527,2.06375468799444,1.95725667086626,2.03074154493401,2.03771896833068,2.04199476436983,1.95283457438931,2.02643296783978,2.05449441155965,1.95176049843976,2.02841662161352,1.9515100855639,1.94914980868691,1.94964891723305,2.02759134015748,2.02640755150963,2.02755683458472,2.02301842444321,2.04390174220993,2.04544786118707,2.01955559433006,2.01903283403635,2.03271845476033,2.03289539391676,2.05532657851156,2.03779030665444,2.02858022632917,2.02293101690063,2.03052607011593,2.04660879131706,2.03893361187464,2.03066320048986,1.94577315588177,1.94566633645772,1.9465736374983,1.94589268738649,2.03582387512644,2.03588193327962,1.9447935774488,2.02482036290089,2.03545125894837,2.03023946122218,1.94471610842834,2.02455575401645,1.94516767189061,2.02338007628046,2.03236596500647,1.94436626441183,1.94245358444693,1.94240574253014,2.02644686019653,2.02628862756671,2.01580754840523,2.0225106197162,2.0152759856936,2.01454082290701,2.03239947327623,2.03319248121461,2.02763594208494,2.03806368504054,2.0220977575785,2.02019549701433,2.02260294307062,2.00383866745279,1.93504127711171,2.01659210980863,2.02947618161441,2.03613835815511,1.93213941278895,1.93086254242431,1.92973997325357,1.93212948678218,1.9285019126561,1.93059601162019,1.926983423172,1.92592972627865,2.00574496044055,2.01007992670329,2.01299990969919,2.01881792527265,1.85338975524458,1.8474759618253,2.03992181354152,1.84446254464113,1.89073108474136,1.88951062382644,1.89717615220368,1.83807185815908,1.8373465963868,1.83385557130374,1.95929390473458,1.95827145021032,1.95581541147004,1.82905990272492,1.95812063156417,1.95815712527249,1.82688720402487,1.88939152066692,1.87528822610421,1.82640224241655,1.95835009953561,1.82400211575662,1.82239173558516,1.82538263524377,1.82227459837019,1.82399264924637,1.87868382206783,1.87927569274873
1.95446684349098,1.9487801795937,1.93325929829987,1.8390568402874,1.83832796478577,1.84006600125607,1.83929102956679,1.841358592509,1.83954404190935,1.84055013516456,1.94133583336791,1.94051011732262,2.01492132499823,2.01547610296616,1.90519785457305,2.00313334654393,1.97586196102639,1.90170146319375,1.90172726682017,1.97441309793954,1.97308297600057,1.96647105130091,1.96543728800958,1.96672323574376,1.89121551450916,1.96323483407651,1.96260677501824,1.96369743396817,1.95973509465867,1.9975296807942,1.95535666719505,1.88137465648496,1.95481894917572,2.06882510058015,1.95212820011618,2.07322784433729,1.87572204957332,1.87594783130446,1.94701085451893,1.94670816217579,1.87365292128013,1.94543888352561,1.94580113747217,1.99492673997954,1.87118544950415,1.94103795747369,1.94057701273483,1.94119436181806,1.86733748371495,1.94055683668935,1.94066090125851,1.94123325749313,1.94117476824862,1.94007393046396,1.94048313877886,2.07556952343449,1.94202862658693,1.98892739683795,1.94399456424558,1.94528716111161,1.94786976603863,2.06212899169841,2.06733500898158,1.95298901135061,1.95510383388473,1.98528908551336,1.88956085696527,2.0772532100581,2.05978738043028,2.07233761921887,2.03941859210471,2.04994652242312,2.03653220917704,2.04084265764211,2.04241484105758,2.04215442053174,2.03274195447994,2.0447599934875,1.95406085881288,1.95119407663462,1.95258560695817,1.94854525941528,2.02691235226761,1.95081436818772,2.02665403387694,2.02225446760769,2.0221235400527,2.02167803279769,1.94855762331094,2.03690278925091,2.05609101094411,2.03271845476043,1.94835032862782,1.94856611490017,2.03632059493495,2.03697213650845,2.0448401579698,2.04304391109204,2.03535162587044,2.02649001991097,2.032719160335,2.02897141941247,2.03238539145438,2.0366205519229,1.94590397504802,1.94597208333234,1.94552921336652,2.03011159318146,2.02950458983648,1.94340012348115,2.02879399963934,2.03419340792065,1.94434195584531,2.0242896541196,2.03190269697009,1.94302051116086,2.02632652787911,2.03335163204854,2.02413622185086,2.03074758140575,2.02946180837546,2.02272398610141,2.02469078106949,2.02500732937026,2.02425979609381,2.02624601489775,1.93968125646035,2.02769089462059,1.9389780270042,2.02043343166224,2.02347649737048,2.02355963410999,1.93472110602848,1.93370644206936,2.01390222242136,2.00518368147777,2.00273556242545,1.93049025753233,1.93239466166341,1.92731257193181,1.93277057894283,1.92836076645436,1.92844601863714,1.92895121946418,2.00270742421967,2.00220187393038,2.01276175243205,2.02226278209701,1.85113877059496,1.84669223785826,1.84494978958926,1.84374203193416,1.89140719036093,1.88986966140919,1.94483222474721,1.83750710762668,1.83599361711597,1.83439421575541,1.83294561131418,1.83143282543365,1.83021894382771,1.82994285647552,1.82865907931651,1.82583541948128,1.82456663320182,1.87467861543015,1.82464091994636,1.82241110758331,1.82203191184944,1.82090379737238,1.82505406440148,1.82052638676093,1.82549054117124,1.82269461655902,1.87851448576947,1.88087713031314
1.95519693433355,1.8406431224749,2.02702322578709,1.94842215427226,1.83758026205215,1.90186162361309,1.84135162125985,1.83966463955477,1.84100183973598,1.84044535727576,1.84274661312276,2.03504409874672,2.03500207569798,2.03498217004332,1.97915509653083,1.98192088907273,1.97616269910097,1.97761579401247,1.97346657995008,1.97348060664915,1.97298590236682,1.97168776985029,1.89586984362385,2.00207756994993,1.96827804479897,1.89122519086907,2.0744083602458,1.88939635884687,1.95978135063587,1.95884650936385,1.88570966572276,1.95816518166412,1.95691299163786,1.99725874271684,1.87965382072978,1.87866946423614,2.06993788196931,1.94980392467864,1.95130748618457,1.87238531813247,2.08303967328177,1.94544933500912,1.94620654141147,1.87036295891216,1.94421597885492,1.86833092333194,1.94109422365615,1.94521934130586,1.99488803453992,1.94069442719819,2.07831760964774,1.94113920155974,2.06609636708671,1.86780839989703,1.94084464109823,1.9420291559698,1.94200814770601,1.87119512586406,2.0609001618173,1.87254456336978,1.98781461544878,1.87829757403492,1.952087089985,1.95238776686037,1.98578257986856,1.88533228768644,2.07050878719302,1.96172684397675,1.96755351397053,1.90881681317782,2.04683078521677,2.03231619465434,2.02753607286504,2.04218944097883,2.050546456741,2.02707381933037,2.02588279765205,2.04294083783769,1.95066015555734,1.95166677293001,1.95065985666639,1.95119695227842,1.9504063364178,1.95204398344908,1.9494596778009,2.02261284051123,2.02271182600411,2.0379734642916,2.04337612046987,1.94844150699207,2.04321822565657,2.04308927335985,2.03576551659226,1.94885479267281,1.94875823742389,2.03062697868398,1.94814637801495,1.94832055249325,2.03509127602597,2.03324291379369,2.03461558749139,1.94626985536178,2.02691193942518,2.02580879715722,2.04314186337059,2.03914020642722,1.9458618475824,2.03219039497601,2.02494084108836,2.0298106820531,1.94510316282457,2.03547070108452,2.02690694386261,2.03508224578908,2.02990144414014,2.03097637102323,1.9423163711717,2.02127546801672,2.04357947758224,1.94257625055203,1.94246898119079,2.02848437927399,2.03651573483715,2.02505121783114,2.02467280564604,1.93933290750374,1.93928162279624,1.93923227336072,2.01910870927058,1.9368201987452,2.03241134551835,2.03294677077039,2.01749201127987,2.03234522373527,2.01597268211661,1.93162367398088,1.93031580330682,1.93108410579294,1.92974842396356,1.9331595556983,1.92665265040293,1.93089682606872,1.9288420703771,1.92607678342941,1.92815009164253,2.00235011495303,2.00231841264081,2.02153037950626,1.84986380009867,1.84841587329608,1.84382176815858,1.95830494318939,1.84189004485407,1.89015864142905,1.88858120380894,1.88483392089624,1.88454366644416,1.83430789534903,1.83275839153602,2.04267957611467,1.8298158882715,1.82868387253432,1.82555572736483,1.87588816041837,1.82430917160628,1.92605041017005,1.87389483027778,1.82261621465623,1.8216110727707,1.82415374877783,1.8213102016925,1.8243185479053,1.82292902813365,1.82436698124351,1.95955964452384,1.82196286545679
1.84159001465612,1.84003401311522,1.83924433674226,1.84073866063802,1.84110573850801,1.90446898282262,1.90578914407724,1.84106168515231,1.95207014195675,1.84199929109527,1.84172710437154,1.84456722549016,1.92662131540449,1.84516988766655,1.8458505174918,2.07799828977085,2.00433216180798,1.97853648156551,1.90267508931189,1.97460451739297,2.00235597264779,1.97288399814517,2.00230980258767,1.9678987647152,2.0002697033742,2.00120508483176,1.96015074144979,1.96472598174184,2.07559855251421,1.88725788330769,2.0839298983931,1.99847473861167,1.99927465103055,1.88167770001973,1.88041179017817,1.95210884739637,1.87765534867338,1.87706430570287,1.87626272288326,1.94807925670929,1.9470840414422,1.94399491740242,1.99842958226544,1.94283032411641,1.94302827479334,2.06920247861647,1.94132876852593,2.0697443547712,2.06916377317685,1.99198512656818,1.94062585582246,1.94354221474318,1.86906632668478,1.99240121004413,1.86880395909762,1.99260399855223,1.99209916763745,1.99162474116388,1.94579340983118,1.87337507151712,1.94903729743697,1.94912451688858,1.87846207215332,1.95300970832129,1.98566646354969,2.0594825750914,2.05942451694209,1.96519031808629,1.96596547168569,2.07359558825485,2.05910680978143,2.0597519004418,1.95671479471153,2.04184749844845,2.04084824747908,2.05220342674496,2.02558753044885,2.05204629248745,1.95473797979727,1.95417381709193,1.95440097279394,1.9477774608281,1.95358596090868,1.9487272572647,2.04309565957415,2.04935626446615,1.94905111766614,2.03687725754347,1.94897854496684,2.04297657530335,2.03675587964335,2.03680320455756,2.03717364187376,1.94934526992484,1.94884452958272,2.03010169057804,2.04184829374175,2.04285511640781,2.0188757307565,2.02560823296453,2.04196352550733,1.94741443050493,1.94793418926558,2.0325912338072,2.03700930371644,1.94528862638943,2.0320452565773,1.94584630042087,1.94576112107585,2.02484776252767,2.03173186719556,2.02505200262069,2.03573904829223,2.0255273178831,2.02546176303337,2.03017631978679,2.0306925705862,2.03048168793794,2.03191327995888,1.94178776545342,2.02214634039676,1.94173689963596,1.94179641553273,1.9409372720623,1.94017402089966,2.02532986306945,2.03309997980663,2.02333626059724,2.02044273577761,2.02837791621649,2.01815959347142,2.02514609859227,1.93419585006755,2.01548900474954,2.02651040187368,2.01981964511051,2.01945355915351,1.9311800720274,1.93244177547986,1.92803596853653,1.93213276597659,1.92809573870432,1.92768263646615,1.92917578014367,1.9277816961851,1.92707930370285,2.0169999814,2.0205446047161,1.90277202909117,1.90182526368078,1.84440156924104,1.95831784500259,1.8409731876817,1.83927365684043,1.83912579143684,1.83785978493936,1.91635469754444,1.95757815745393,1.95668975856616,1.83017782229533,1.82925470807854,1.87621715665517,1.95588262775963,1.91771261338455,1.91660305744868,1.89992423842438,1.82291504288622,2.04857506087705,2.0462848214552,1.95627935851577,1.82258988265175,1.81927873837947,1.81998799506918,2.02940361032391,1.82105641437802,1.95813721961769
1.84219687909174,2.03226781285603,1.84245639204283,2.03056477351261,1.84151575465785,1.89471061570714,1.84144031915372,1.93661699518718,1.84239609456059,1.84055865427859,1.84590462725377,1.84258891563806,1.84622664229086,1.84580811360116,1.97933892001009,1.97940536936435,1.97828914720487,1.97888722597643,1.90489235806745,1.90290732194963,2.00226971481092,2.00217792762552,1.97449994421104,1.96820080004003,1.96757470217847,1.96668979283173,2.08983247793564,2.00215498082918,1.96311131424999,1.95874882316533,1.95716953545863,1.95741256626028,1.95804660377597,1.95618048311001,1.88019399958812,1.87908659444463,1.87792229101527,1.99842958226544,1.94903012251332,1.94902841585959,2.09006471057338,1.94581578428086,1.94402484602304,1.99794465840045,1.87206599825558,1.99708456823854,2.0720763575085,1.94218896576627,1.94229863117854,2.09098396475536,2.08342672768708,1.86780839989703,1.94221960757264,1.86885040562517,1.86930270633391,2.06918312589666,1.94513010037822,1.99067640906371,1.94650300955761,1.87433275468037,1.95032356171211,1.95293782872933,1.98776623364925,1.95355858734726,1.95871780122377,1.98598578342658,2.08280744064403,1.98574313009664,2.07406975084398,2.06702519220164,2.03550939343846,2.04604172879435,2.0569135074872,2.04920135787256,2.0424706566366,2.05194060465522,2.04269570338797,2.04291503420929,1.95165579926963,1.95509681747953,1.95020360433791,1.95358706462733,1.94801676509001,1.95370445586077,1.94996124077261,1.95051276149034,2.04177171307111,2.04050081633405,1.9497333010395,2.03567709364478,2.03897041652856,2.03867164832853,2.02476863390452,2.03496751729805,1.95031309232104,2.02989157533104,2.03949380331906,2.0320549329309,1.94807380531565,2.02695409410435,2.02736505988558,2.02604651334622,2.04584375175899,2.03144669559226,2.03023020767773,1.94525637185641,2.01893378890674,2.03864461103676,1.94544357220382,1.94561430733935,1.94554599959621,2.02317500908523,2.03165584572082,1.94495801742598,2.01584703009216,2.03222075278761,2.01295379848821,2.03313719418761,2.03049290252391,2.03051615610982,2.02949504571989,1.94175923485285,2.02616202974872,2.03133565685313,1.93966620888292,2.02782125292997,2.02054003588893,2.0305068068169,1.93705566579032,1.93679766534248,1.93555930617241,1.93438649474139,1.93321999350426,2.02609429525888,2.00829227643765,2.01360201596518,2.02166976630718,1.93211861098867,1.92983752949327,1.93050809148044,1.92825944376221,1.92913307698034,1.99871019670271,1.92550207159918,1.92610644965136,1.92706357557095,2.02510687207674,2.02495268687696,1.90376926335911,1.84835612740655,1.89839537355927,1.84447869243807,1.84120110758521,1.8398284861203,1.83823972153558,1.89240037623448,1.89194017539348,1.95599951155955,1.95620454545274,1.87851320507478,1.87825327148515,1.82762855949161,1.82707230703074,1.82590229688441,1.95439246833414,1.82445819897542,1.82206521704991,1.82240603615386,2.04345514023173,1.82198807070202,1.82134703118918,1.82176906149711,1.82019377705315,1.82101260181031,1.820953825375,1.82109576249754
1.84234273851575,1.94761901641506,1.95834844072987,1.89452482959695,1.84251246030896,1.8956085819064,1.89674652183132,1.84306708366451,1.84330257528207,1.84499467707389,1.84159306098678,1.84734541171172,1.84447515311615,1.84624509945571,1.84769628753574,1.97922398825277,1.97872894529772,1.97819637095642,1.97757942359316,1.97678441835848,1.97538423112858,1.975632914209,1.89918883507154,1.96862642698012,1.89620567673988,1.89311976161284,1.89307821088952,1.96459171656135,1.96349892416965,2.07902398392086,2.0005304582347,2.00092193610975,1.95804491587328,1.95617365630137,1.88298060021243,1.959204411102,1.95897118053377,1.9498825933327,1.94945094914943,1.94892045709946,1.8771369733515,1.94565692539382,1.94627852601068,1.99867563827448,1.94726268444655,1.94575994575318,1.94477005413481,2.08947445261913,1.99612660860786,1.94279390306457,1.94299484645094,1.99247862092337,1.87033125752063,1.94178255865023,1.94200834038137,1.87090483506689,1.94423150916261,1.98998937937217,1.87456249911128,1.98926929488795,1.95143879262973,1.95257781357676,1.95422664144962,1.88149066585155,1.88484857664343,1.95974349536205,1.96353662844512,1.98643685066533,1.98628243957649,1.98417951247243,2.05030466985308,2.04374908398092,1.95879521209128,2.05582015172897,2.04391505715938,2.0519129476226,2.0650029384126,2.03608997502434,2.02735849677611,1.95253510340415,1.95485025365268,1.94921213438142,1.95457971199163,1.94916136237173,1.9517890562394,2.02956810844231,2.03623504152623,2.05219937640968,2.04812910459394,1.94976071739256,1.94961879744728,2.04101042967283,2.03206450479262,2.04616306570033,1.94951428127203,1.95226345856379,2.02305533777494,2.02224035878483,2.02091118920824,2.02052445707481,2.02247524577719,2.03904126516417,2.03923478565837,2.02337061151564,2.03830592544376,2.02087403729896,1.94560633353967,2.03242290561078,1.94496223532646,2.0327241220618,2.018962722595,2.02458291100502,2.03206815466878,2.03163883717114,2.03179346565875,2.02661300168273,2.02687398941249,2.03291509165325,2.03903320116105,1.94254537835614,1.94200027674811,2.04302792507128,2.00934451625415,2.03093570064773,2.0453986332482,2.02818968549814,2.00890908004343,1.9381458600523,2.02771058177575,2.04016372254402,2.03337091787962,1.93374114684372,1.93328144833841,2.00625775743768,2.01368662958989,2.0300616027975,1.9345945989914,1.93186956856617,1.92906321364563,1.92853502486075,1.92829509181695,1.92890653953793,1.92740662831877,1.92893536605599,1.92551337599389,2.01869187990819,1.92681484260261,2.01979498493062,1.90253562233739,1.84826034748003,1.84774542823947,1.95583424596011,1.84265041431486,1.84035390648872,1.83947523920638,1.89191032435216,1.9461482096944,1.83388302860047,1.95267638733356,1.95188980783332,1.8760356774738,1.87587895838984,1.93568806463623,1.91548382515291,1.8255517361884,1.95837912861533,1.82295230357475,1.82376606765901,1.82333027360879,1.82308748611468,1.82351495296934,1.86879538860742,1.86887279948667,1.95550524972331,1.82025069373243,1.821343290169
1.84394269845102,1.95857293228006,1.95950296868855,1.84569324239454,1.84612955600435,1.89544601905998,1.96207549809935,1.84756277680217,1.89137033626766,1.95580521688039,1.84729281484799,1.84663239217135,1.8495868430384,2.01573091377702,1.98044078340082,1.97927360501318,2.00673189906462,1.97818174208172,1.97709171112886,2.00638355010801,1.97558130695617,1.9751848037802,2.00242591890654,2.08343156585781,2.08534748511412,2.07840469689222,1.96878992572478,1.96483241513908,2.08088184502278,1.89269183049879,1.95908550288845,2.00164517489585,1.88943408343217,1.95610844891041,1.95612849068203,1.95987469411746,1.95959791639579,1.95186031488502,1.95195333434466,1.88197870412509,1.88157206486021,1.99842958226544,1.94824076779169,1.99926838443556,1.87796552215951,1.94582284209256,2.07200862298916,1.87609162063432,1.94310206334391,1.94322580774212,1.94254231770702,1.87500125036413,1.8746268445845,1.87654808587748,1.87763449477697,1.99322370063612,1.94464577781244,1.94648176334208,1.94756186972282,1.99044335988985,2.07689518474159,1.88178456938491,1.9549013530903,1.98961441839126,2.07361489873352,1.89215635830322,1.9882475876381,1.98727009561842,2.06651245056266,1.99287535166975,2.04898851438368,2.05525888253787,2.04116522578941,2.04273279609416,1.95600842043841,2.0499413336321,2.05611036366704,2.02843373022088,2.0262929992181,2.02563997525684,1.95258887267647,1.9539005774553,1.9512625393242,1.95298196970428,1.95158145421786,1.95143893391315,2.02657809520174,2.0323742708365,2.02187540232537,2.05532657851156,2.03200655111036,2.03227748919521,2.0395413213886,2.03914124703559,1.94971676073318,2.03699955284997,1.94942849570246,2.0353836007457,2.06263223024043,2.04179902736324,2.02198764715239,2.02906233427986,2.02929289491313,2.03021825368037,2.02252288902796,2.02170675718671,2.04302792506005,2.03350806642385,2.03630867427636,2.03322608173924,2.02939393394543,2.01889992164213,2.01849351452534,1.94429034859248,2.01914505609711,2.01867413991503,1.94334851622832,1.94333561441511,2.03946541191841,1.94280664007359,1.94200995310802,2.02558112801223,2.02273691848275,1.94176481865707,2.02624911698845,2.03478350910793,2.02158511152072,2.03262487055563,2.03200234612044,2.03209847657754,1.93503974852254,2.03231619465091,2.02218594440766,2.02229902982937,2.02001889256735,2.01408746529441,2.01610668398066,1.93004785180243,1.92899558254105,1.92812849480082,1.92845111385865,1.92707732054651,1.92854600347379,1.9260356155225,1.92703547415626,2.02840696817974,2.02266884090335,2.00053902872491,1.95954029180403,1.84946980366607,1.84894286765044,1.84837588124799,1.84387381368539,1.843061420195,1.84106655145991,1.89121919299081,1.89058148099567,1.83712038025838,1.83501429971855,1.83253132761064,1.92795665307149,1.82964481545768,1.82884435289043,1.82816060557002,2.06121948169225,2.05172697262853,1.82402533822112,1.82396916781851,1.82399351480297,1.95193467291807,1.82434222049891,1.90772822268841,1.9067025285384,1.82236159426466,1.93872644164665,1.82316038278098
1.85858325001105,1.86287024443756,1.86281327552912,1.86037195015149,1.87199472953485,1.88400619365739,1.87257371152323,1.8630232197971,1.87143594008875,1.88220837289229,1.86106382375771,1.86320589814241,1.86282664590639,1.90349409603083,1.91226406872643,1.91625568941994,1.91741858972446,1.91764621427084,1.91760856243541,1.91615403347955,1.91610400926622,1.91760650594589,1.91767899366331,1.91767266982897,1.91743186797078,1.91474803378298,1.91743186797078,1.91763810847214,1.91704647762706,1.91289523531323,1.91697219194431,1.91671957699498,1.91180415105642,1.91675413835182,1.91760470798055,1.91767565576075,1.91764636194847,1.91730519977848,1.91514757817555,1.90610524402071,1.9060780023798,1.91507310682158,1.91660141887777,1.91396097537063,1.90414541444883,1.90975656443777,1.90040008975446,1.89815285212718,1.9009111709447,1.91225323655707,1.91168972417051,1.899213639214,1.89643188034896,1.89750484025042,1.90110906511201,1.91336349658395,1.91688823219305,1.9175830242255,1.91763587631375,1.91729302244655,1.91528345961055,1.90753768854123,1.91528345961055,1.91725606256918,1.91697464038825,1.91272776616399,1.91701149033313,1.91764186878998,1.91767899366331,1.91767899366331,1.91767899366331,1.91767899366331,1.91767899366331,1.91767899366331,1.91767899366331,1.91767899366331,1.91767899366331,1.91767899366331,1.91767899366331,1.91767899366331,1.91767899366331,1.91767899366331,1.91767899366331,1.91767899366331,1.91767899366331,1.91767899366331,1.91767899366331,1.91767899366331,1.91767899366331,1.91767899366331,1.91767899366331,1.91767899366331,1.91767899366331,1.91767899366331,1.91767899366331,1.91767899366331,1.91767899366331,1.91767899366331,1.91767899366331,1.91767899366331,1.91767899366331,1.91767899366331,1.91767899366331,1.91767899366331,1.91767899366331,1.91767899366331,1.91767899366331,1.91767899366331,1.91767899366331,1.91767899366331,1.91767899366331,1.91767899366331,1.91767899366331,1.91767899366331,1.91767899366331,1.91767899366331,1.91767899366331,1.91767899366331,1.91767899366331,1.91767899366331,1.91767899366331,1.91767899366331,1.91767899366331,1.91767899366331,1.91767899366331,1.91767899366331,1.91767899366331,1.91767899366331,1.91767899366331,1.91767899366331,1.91767899366331,1.91767899366331,1.91767899366331,1.91767899366331,1.91767899366331,1.91767899366331,1.91767899366331,1.91767899366331,1.91767899366331,1.91767899366331,1.91767899366331,1.91767899163589,1.91767889177855,1.91767674785609,1.91764983557688,1.91743416682253,1.91629491792643,1.91230760188759,1.90346325099625,1.86092999271974,1.85612546295099,1.8550921144049,1.85568370679659,1.85146515431523,1.85324870874679,1.865690016509,1.87769751563881,1.86187529701104,1.84986077456692,1.85882544785121,1.86809206679241,1.83469560079639,1.83290861213761,1.83324754341971,1.83548813857322,1.83474450107169,1.83075923942971,1.83103045654627,1.8465662471592,1.8580658585379,1.84709622175971,1.8844400931608,1.88293857122029,1.85366694611867,1.84206879396476,1.83006144045728
1.84874795480958,1.84922591766194,1.84778581718008,1.84821406509918,1.90182080496081,1.8919412415021,1.84957149139204,1.84868288834641,1.84947311964998,1.94975426648596,1.84804930310234,2.04610500752133,1.84981361944581,2.01576961921664,1.98582654495221,1.98558872942424,1.98084923134935,1.98108589840478,1.97855023492215,1.90453276448104,1.9042846532951,1.97825446073963,1.97251603658013,1.97143130633565,1.97043366853619,1.89859013786515,1.96835147766663,1.96519979441928,2.08239135716808,1.9633242226508,1.96257095531333,2.08946477625922,1.95795692410438,1.95692188732657,1.95585364905319,1.95452011414923,1.95295819486756,1.95270606139699,1.95170241207757,2.00177760279285,1.95160034150632,1.95155955217126,1.94742323191244,1.99853257347447,1.99831914446378,1.99754826704508,1.87684222754156,1.99696845191967,1.8774547546644,1.9961943431272,1.94239865644835,1.94205295257668,1.94497262648874,1.94247727100088,1.94167160318576,1.94243555302196,1.94727577968183,1.9479822853655,1.9477853164137,1.94766886290599,1.94768625835176,1.99006114367358,1.95205618345749,1.95554252595621,1.96003400088873,1.95980107422548,1.98909189495634,1.96714007191321,1.96741275220622,1.98679085942092,2.04420837201432,2.04929506691997,2.04711456178678,1.95693735098937,2.03211299109754,2.04534304563346,2.04858911765157,2.04041530789672,2.02774914463554,1.9538201092065,1.95449411377014,1.95162694726679,1.95350360648376,1.9520793984766,1.9523383813563,1.95252102585042,2.02641306218233,2.0238562914266,2.03116393835633,2.03641286003474,2.03687741540478,1.95054127709163,2.0368539904984,2.03628292334385,1.94996069549728,2.04581471674948,2.02814568353615,1.94889629590765,2.045527515242,2.04926333621371,2.04438911958053,2.04946862832616,2.03910356712846,2.04095681498588,2.03305075915546,2.03159505076229,2.03551732854185,2.03326080587698,2.04335692129469,1.94654494045054,2.04197804003425,2.04048788060528,2.02818481513831,2.02884440164916,2.02924527506987,2.03463858083603,1.9428098655269,2.02934555217174,1.9422705759102,1.94208272056959,2.02206760958114,2.02039503342148,2.01942719165146,2.02003550552994,2.0122353810493,2.00975329016452,1.93836841633013,2.02104315384834,2.02539853394137,2.02505992220952,2.02973685657576,2.0266103404606,1.93339676684034,1.93261032592512,1.93244054699963,2.01591476461315,2.00312261682184,1.92956360564667,1.92785493889053,1.92907252748174,1.92775250580145,1.92861303218693,1.92715702933522,1.92687752804736,1.92618026077224,2.00986703967531,2.0012357266409,2.01070888297678,1.89984151149671,1.85108618891305,1.84750322531419,1.84751531302068,2.02861014881164,1.84338809243031,1.84301307798634,1.84295979439401,2.06133559801306,1.95414088297659,1.83547581838499,2.04977227781158,2.04504067804573,1.82796787541854,1.82841846757195,1.82637728973223,1.82751704393338,1.82596587066701,1.82604239801256,1.82243529010828,1.87068707421631,1.86995557560959,1.82178877587547,1.91046340708845,1.90729601194595,1.95535042796481,1.82248624203685,1.82413244162508
1.96161103282387,1.95975317172195,1.96157232738425,1.89195312960645,1.89250385270879,1.84437709438513,1.8916025689054,1.84579799056936,1.84602646103908,1.94943172115577,1.84780996199379,2.0225430711507,1.84861512276531,2.12850888847913,1.98465322478872,1.98399448747671,2.08374604755489,1.9793310366615,1.97864082314213,1.97780602506574,2.00810373043184,2.00747559644024,2.00796439084919,1.97130067038375,2.08614578481153,2.10236336401366,1.96817089890766,1.89426356787949,1.96516804570435,1.96438658241926,1.96198083642286,1.88825454837799,2.00284200238249,1.95772257455515,1.95728289160977,1.95704070828183,1.95747473482799,1.95295563433524,1.95183542805967,1.87867333934459,1.87816371772289,2.08512976702142,1.94753726433588,1.999661274528,1.94621796922407,1.9466131236705,1.87220367189335,1.94521214959296,1.94340582458244,1.94348216074035,1.8660859351086,1.87123390402888,1.94628266797261,1.99400748579376,1.99451065650142,1.87154347482067,1.94798451473841,1.87358518676079,1.94709184914073,1.94680513080401,1.94696539829277,1.99033853265754,1.95261950572952,1.95364252566496,1.88615639100508,1.88616284191168,1.9659863013693,1.96599251684136,1.96627565042829,1.98563744872087,2.06202261956637,2.04915657586263,2.04907213055531,2.04266142598639,2.05089482073894,2.03229682876669,2.04954035909527,1.95655029659313,2.03164121476073,2.0298848711651,1.95177110106296,1.95314460416192,1.95007687007572,1.95387140812063,2.03575130242212,1.95228980572039,1.9522965207456,2.02399784274999,2.03250282933437,2.03565464073858,2.03647736910521,2.056410330821,2.03683049398932,1.94971878649964,2.03514990939952,2.0371600559257,2.0372583494573,2.03591820653432,2.03474734911123,1.94853272091413,1.94816558843535,2.03668688382111,2.03579762630732,2.03574921752385,2.03705150695023,2.04981105336939,2.0345832417237,2.03242940080957,2.03195985179545,2.02567003580546,2.02973423467876,2.03519016453256,1.94400005779531,2.02868527846177,2.03691715815446,2.03786617653045,2.03417070723328,2.03524192617503,1.94215913388596,2.03513309802028,2.019383085953,2.02507448917337,2.01311338664106,2.02052619729186,2.0213613647253,2.01998507183165,2.02558497454104,2.0307086084244,2.02403557024686,2.0231404928537,2.02900777638848,2.01706625144832,1.93411379488346,2.01537975249692,2.01362520988141,1.92970323603449,2.01938857784182,1.92868772877582,1.9305130099328,1.92612080422928,1.92859956625628,1.92878157437669,1.92576075845578,1.92567127213213,1.92600404480647,2.0170259332727,1.92709545703987,2.00069385049374,1.95065874141731,1.9497514366401,1.84699891509087,1.95530204616529,2.04619209476048,1.83989661805426,2.06275802291921,2.0522301433417,1.83357499025109,2.03716405096837,1.83229073060706,1.83078247278899,1.82895205324674,1.82753184611189,1.82614603943833,1.82688086719289,1.82450548824847,1.82344836267109,1.87188205193635,1.87273318968399,1.87136034365282,1.82183996147547,1.82108144089981,1.81911848550148,2.03222910741641,1.82106219012666,1.82238565039029,1.82005534824022
1.8463471111272,1.84687877745321,1.8467820927111,1.84672725583376,1.89333104325704,1.84420291990683,1.97197441428298,2.02881335236966,1.84561522540089,1.84666236666648,1.84843497957765,1.84854463056788,2.02149802428087,1.84985435382092,2.0907614084866,2.01184262982154,2.01169425896965,1.98292327179211,1.98179189891777,2.07843372596661,1.97611378852026,1.97626017906884,2.08098172962972,2.0810722103581,1.97032171664545,1.96953636100715,1.96849909625772,1.96820088288226,1.968390035988,2.00547397227687,1.96225467156865,1.9616511584597,1.9613997633972,2.08654251556767,1.88549678580483,2.00243521617506,1.9580121851107,1.9524400259876,1.95335118202308,1.95236286211974,2.07884980944256,2.00227906686905,2.00176870400763,2.00168718676346,1.87460175748575,1.94693266198671,1.87229122590933,1.94591191958962,2.07271499726228,1.94564168655844,1.99739743720882,1.9981844478145,1.87155315118057,2.00167123882242,1.87263690349002,1.94549929804906,1.95011326318695,1.94955224363535,1.99293986074555,1.95135481303928,1.95162377831305,1.95156593715923,1.95475350444092,1.99248829728328,1.95658879003676,2.06909603865609,2.06196456140836,1.98677701894855,1.98676811498733,1.9858000799716,2.0429486195886,2.03672200180288,2.03596317679993,2.04321039499369,1.95846621585448,2.04215706585487,2.03153783613587,2.04382138658835,1.95548677182855,1.95529306641911,1.95298597220695,1.95258925513219,1.95549359645922,1.95091270176909,1.95231561526818,2.02679099313229,2.03295483443476,2.04049271877618,1.95110459872729,1.95173225680576,1.95227119037589,1.95284020883013,2.04233686155866,2.03718308594469,2.03320590025983,2.03603989029048,2.04656677880066,1.95146225665779,2.03253435357514,1.94868412748677,2.03442630905627,2.03253903879147,1.94841247791236,2.04074781829854,2.03856251557345,2.03521986517708,1.94860600511047,2.03914133908784,2.03892200848779,2.02335436174867,2.03248867323675,2.02057027963806,2.01832453759915,2.02863286247992,2.01891443617963,2.03922315662509,2.02336593691461,1.94171882673318,1.94230896783006,2.03300733370109,2.01492085304521,2.02327835940126,2.0231854174641,2.03608997501217,1.9389780270042,2.02839256240887,2.02323046320059,1.93821359457164,2.03213014762137,1.93609447175227,2.02218499630718,2.0065286955066,1.93263652051557,2.02146741658873,2.0159609824583,1.9302257594694,2.01259555782706,2.00948646510058,1.92724812792311,1.9295607061518,2.00472889256412,1.92833916518383,1.92755283752768,1.99931980737678,1.92595825454359,2.01628407901814,1.99972621449282,2.02509763016583,1.9528213089921,1.95539710095274,1.95720377453055,1.84327882753536,1.84463351792531,1.83828441901716,1.83784719628261,1.83550095430487,1.83475273858026,1.88262650098935,1.88163453586529,1.83112847542318,1.82936076669461,1.8276665966026,1.82609320675539,1.95902744472902,1.82235906629546,1.95704379094833,1.822010603181,1.87073637092351,1.82251916564888,1.82237802600485,2.04430520457885,1.81924618327912,2.04446970269724,1.82149200583508,1.81837210277198,1.81984074721147
1.84611181240052,1.84653974251439,1.84584625878321,2.03237586554165,2.03323383611996,1.95503110808792,1.84509190647764,1.84584592046558,1.93921993600184,1.94968923898678,1.95042240214951,1.84843256184107,1.84856571612978,1.84991415938958,1.85142586136829,2.09586089349254,1.98260362562055,1.9814244641892,1.9800890602468,1.97823525652441,2.00675125178443,1.97574512653316,2.08570529060926,2.08661388875039,2.08860043978266,1.97120285867974,1.96963370007119,1.96954838804024,2.08222685904968,1.89231861953842,1.96473621627573,2.0083672038887,1.96023039634453,2.00611356168163,2.00420360388011,2.00293827643523,1.88215844163733,1.95475927335427,1.95306492536397,1.9532839374456,1.9512210234928,2.00017132705009,1.95091603634819,1.87519782125595,1.87522325625913,1.94764192345152,1.94751388189891,1.94698178710073,1.99891340026073,1.94665193388361,1.94579952097895,1.94557495347211,1.94483149777187,1.99656196881199,1.94347845708676,1.94588348203664,1.949933299081,1.94813453038747,1.99277213717385,1.9495000850051,1.95267783462395,1.95313812490619,1.99153282585944,1.95823884089812,1.96038422076132,1.88866095549403,1.96543968115476,1.96643308335579,1.98822460239046,2.07935298015766,1.96142718198566,2.05931320056678,2.06423854421076,1.95980155352148,2.04538895688091,2.05842301368141,2.0317498845211,1.95576896827246,1.95660538834564,1.95186721467388,1.95606985693045,1.95442198903069,1.95299145911074,1.95365804435851,1.95206360919421,2.04027016249812,1.9524862254327,2.03041410469498,2.04961752616713,1.95166930933844,2.04311501231043,1.9523093072986,2.03285800889939,1.95141703242339,2.03512696761572,2.04428752316765,2.04214839900867,1.95069504936576,2.0347599931876,1.94907061268536,2.03920372682868,2.02929232414941,2.0190111997746,2.03204203005765,2.02341394354827,2.02101420629755,2.03714473643625,2.01943695962094,1.9450893921816,2.0417409692038,2.02231395011417,2.02088767642492,2.01886294280981,1.94454354667669,1.94389200510969,2.04138426435273,2.02917100251716,2.01844416509461,1.94240004247054,2.0330273484192,2.03376591851337,2.03341451735053,2.03505469522743,1.9394811977193,2.0261990730084,2.02039832682785,2.03676732020735,2.02599872159233,2.0259501825368,1.93563000647679,2.02857614063321,2.02658312697549,1.93327408232565,2.02161580490836,2.01781247917713,2.00302592314498,2.00865798783079,2.00582347301028,1.92934217172671,1.92510170979799,1.92861345126906,1.92554741567123,1.92946161311265,1.92534669865722,1.92611384435479,1.92574844926615,2.03667055661317,2.00038420696642,1.84926849431751,1.95521809349496,1.95570213722358,1.89177190520375,1.89109456001034,1.84014374975975,1.83768082352906,1.83790616072542,1.8846065606935,1.83199619188566,1.88152726650405,1.93267871670552,1.9482334652541,1.94778835269843,1.87629029314076,1.82595834907146,1.8224233518195,1.82405751504165,1.82211118627438,1.95536978068463,2.03686408381129,1.82141219007566,1.94003275023393,1.93883288160561,1.82084902527418,2.0340579394386,1.81977011240525,1.90969736192924
1.84795561329879,1.9623270834569,1.84663732094613,1.94059397910847,1.84860701489393,2.05276234313652,1.84533490432853,1.84718190167936,1.84638639154901,2.02592012075782,1.95126066875599,1.84913351718235,1.94551924630052,1.8511162178513,1.85278084980092,2.09036463439488,1.98290872857595,1.98180951797028,2.00932832108473,2.00953482213656,1.98063636912057,1.9756435613766,1.97500734681698,2.08667290888943,2.00864781832597,1.97092661542017,2.08328158227942,1.97148630717362,1.96563631773083,2.09518350496355,1.89027773700058,1.96236419540147,1.96181606106036,2.09522221040317,2.00398104651449,2.00376367105177,1.88157786004299,1.95504949600327,1.95516172762591,2.00329679129806,2.08496526890302,1.95182888034745,1.95160226718987,2.00196145363106,1.94926399758407,2.07463091652363,1.94683940705474,1.87364305518768,1.9436860454242,1.94266621899941,1.94506400239537,1.94595697183371,1.94532621496322,1.94564613252121,1.8747657026693,1.94784484768918,1.87535918607686,1.87657195651838,1.94596747279213,1.95184397470971,1.99476224186114,1.87846207215332,1.99247170923773,1.99272495339983,1.95990701690133,1.96152417468882,1.96220495017515,1.89572479000732,1.90041764099753,1.99979394901815,2.05093232311318,2.04112168216262,2.04954979165652,2.04555858013543,2.03153240952875,2.04235053358036,2.03708629471898,1.95639900202522,1.95326338678913,1.95764808984657,1.95150104367837,1.9570418970991,1.95237119398985,1.95352259829332,2.0532364847719,1.95454945915764,2.05845204276113,2.03236598845112,1.95171864854837,1.9515512489828,2.05898424255595,2.04052051938334,2.03777740134803,1.95213326209756,2.02340426718232,1.95200680215318,1.95155991574079,1.95127833452309,1.95119960038095,2.02869721365522,2.03196957028581,2.03136907008049,2.02448086015372,2.0345837030484,1.94786092539772,2.03139831918202,2.03071598720953,1.94601890416921,1.94507301504934,1.94569319703972,2.01934931006847,2.01907712412528,2.02793034446384,2.02610707863701,2.02634342144058,2.03456632673689,2.0164624465859,2.01613732089306,2.03230539234311,2.0402146571353,2.04383818650078,2.02770327595663,2.03510829387143,2.02127536141601,2.03372821955292,2.02901466482574,2.02157541865328,2.04150873744837,2.03550939253572,2.02540340314013,2.00839623296942,2.01932085817513,2.02973757186952,2.02881163209985,2.00812922459176,2.00739364906138,2.01096996802197,1.92897379179672,1.92711174811095,1.93067267211628,1.92426835359539,1.92878089992943,1.92416717345774,1.92711744707438,2.00383835558475,1.99630109495646,2.01368275092134,2.01609538999986,1.95565823207762,1.95518611769714,1.84696552065993,1.95843718677477,2.04732422886946,1.83871865233272,1.8396264508136,1.83738688162636,1.83499119166474,1.88161656548261,1.94274213100756,1.82895781487524,1.878705286352,1.87792975334556,1.87565153211126,1.82609538198782,1.82595213563766,1.8250985967461,1.94941881934256,1.8213564999085,1.82059993217834,1.87098224594613,1.86924050116309,1.82212102043538,1.87775569788019,1.81982571247009,1.81957495393291,2.0403072552111
1.84940239044115,1.84965533218661,1.84824134397966,1.84854438804221,1.84870988439874,2.05264622681765,1.84650756679832,1.84822242910769,1.95183791343985,1.95151279956631,1.94693188733034,1.84937309348973,2.0204629639734,2.02166394311286,1.98521074280119,1.98466892339682,1.98317666568858,1.98252379271591,2.01360217833312,2.08656186828748,1.98006223843744,1.90423989494237,2.00950901435759,1.97468795791214,2.00826076392974,2.08295258604262,1.89615045806112,2.08350966790577,2.08320334199789,1.89289422471911,1.89221632659085,2.00595776045115,1.96506241326707,1.96244191350097,2.00365785270904,1.88506134960907,2.00696413170236,1.95561426967925,2.09807673657538,2.00523206327922,1.95313868361256,1.95310318167891,1.95320937436067,2.08994859425451,1.9998552326249,1.94771940176097,1.94718797616552,1.873487474499,1.87228305228955,1.87229519517257,1.94603401267113,1.99851021859799,1.99832959321308,1.94745175510824,1.9481075015918,1.87306266332588,1.94747356767729,1.9945203328635,1.95028658634435,1.87834595583445,1.95291491382814,1.95453911720249,1.95551134198231,1.95677600659475,1.99216897740639,1.89007093936602,1.89130398408544,2.07371650051253,2.07559371433426,1.990669141615,2.04910792210674,1.9615045928649,2.05984543857481,2.04495914192367,2.04383986332576,2.0495302911938,1.95797156948621,1.95722036879724,1.95868296650164,1.95303308694537,1.95880710660616,1.95195554288419,1.95641728729484,1.95297707102906,1.9528203895208,1.95402318694556,2.03101462042532,2.03223342647665,2.03267895432912,2.05118509647187,1.95216690555581,1.95201208379731,2.03810020856044,1.95197951458592,2.02433319773327,2.0242170814144,2.04739900750795,2.04676603796318,2.05008158571864,2.06326119363431,2.04600824392227,2.0266293768312,2.02305392776923,2.02810516081934,2.02577556620666,2.03243450211674,1.94617711764148,1.94671850926566,2.03056477351261,2.03842197776064,2.04530908582056,2.01953528761053,1.94491769925971,2.02256423514033,1.94314369994365,2.03358734226065,1.94169224595778,2.03130609224621,2.02963189809482,2.02140121206734,2.03638994217301,2.02876313088016,1.93720241496148,2.01905001181108,1.93936508140043,2.02893209996336,1.93600456051109,1.93603196994258,2.02425772212729,2.02577497536053,2.03517073494186,2.0272194969455,2.02909026266464,2.02077229729081,2.00621365446211,2.01299267698341,1.9313143499588,2.02215601675447,1.93037589093541,1.92686840094143,1.93034804961455,1.92593168306484,1.93067786413618,1.92413991407726,1.92547024079504,2.00292905773877,2.00655775647614,1.92502524152157,1.848894366605,1.84715773113809,1.94906079402604,1.84365620557215,1.95576651144076,1.83941057770664,1.83882753832666,1.88576880786768,1.8351028018127,1.83445095246476,1.83015225414886,1.87946448063141,1.87836658931841,1.8274134422053,1.82767541629776,1.87478505538911,1.82541627897816,1.82514649735312,2.02885205780928,1.95176049843976,1.8212394129617,1.82053799601238,1.95268942899072,1.82153593305689,1.82004934395307,1.8190539001246,1.95579554052048,2.04049433150261
1.93655571157445,1.93754915119144,1.84722160718757,1.84716487909607,1.89839537355927,1.85102828255246,1.84980695948383,1.84934653580562,1.95216305849237,1.85092614155091,1.85137541211509,2.02172058055871,1.94810444712202,2.02186430139661,2.01541938828311,1.91483550903922,1.98257793851406,2.014705219627,1.98577278355441,1.97950433799019,2.00982833423448,1.9800154693647,1.90506238553437,1.97481898587532,1.97399194585369,2.00827044028964,1.97124554802476,2.08267694801902,2.00738791227623,2.00726381311043,2.00806752053944,2.00871756386948,1.96612555737034,1.96199915854685,1.96206144212694,1.95893182665776,2.07940136195719,1.95859198558597,1.95486581710101,1.95470386278779,1.95384984170376,2.09816382381454,2.00294191079852,1.9504832189322,2.0015324683419,1.94845884150478,1.94833868879494,1.99991227707044,1.9996501859507,1.99904527522288,1.94617201730178,1.94647650295118,1.94833194906422,1.94739584769047,1.94750471976057,1.94859291981284,1.94884881307891,1.94882796943251,1.95066116604588,1.99489771089983,1.95227006068273,1.8811037184076,1.95617220173663,1.88522584772747,1.9598209062413,1.89130398408544,1.96986498809706,1.97124868728734,1.97237114503933,2.08201397913176,2.04946683488682,2.04900928854402,2.04265373233096,2.05434926614819,1.95992043451461,1.958501603685,2.04642432739822,2.03286774717019,1.9558251658046,1.95912068389531,1.9541961737708,1.95723899700501,1.95163097498109,1.95778427077734,1.95475090802907,2.0373962836061,1.95283457438931,2.04558248409006,2.05590716009114,1.95491499176905,2.04016856071912,2.04034273519742,1.95258353429342,1.95208254462495,2.04890631371406,2.04799673588291,1.95170244028033,2.03887825046882,2.04295280374178,2.02518832441822,2.03154213666887,2.04579536400582,2.03128084377654,2.02671443162672,1.94840943677067,2.05651677077997,2.04358915394477,2.03638994220418,1.94536276573747,1.94558836315699,2.04491675390006,2.04057039254632,1.94483383747386,2.03216137288703,1.94385975057668,2.02890135493389,1.94062784636814,2.02963530903362,2.02793255644151,2.03929285013576,2.02337685437511,2.02558945389986,1.93865386894735,2.04217640539957,2.01877455896213,1.93837809269004,2.02943263940363,1.93573196125606,1.9354491291466,2.02665745938393,1.93379149809469,2.03301059357815,2.0089898637017,2.01280528028698,2.00513471063462,2.01857576359044,2.01005895414557,1.99907511316826,2.00088588542166,1.92843674429569,1.92572345996161,1.92931991772774,1.92459447779076,1.92850969695286,1.92403006260094,2.01968693225184,2.01960307046598,1.92518906136571,1.84987062912627,1.89668404019307,1.89510264651704,1.89331666694585,1.94713519840479,1.84168957481552,1.88601652268127,1.88511515161711,1.88446862481093,1.88299941429577,1.88168154322585,1.88008171188492,1.82887046147857,1.82671146549646,1.82967054969984,1.82652009551472,1.82653955085334,1.92908878718047,1.82466601982497,1.82446291342804,2.03898320663066,1.82219854184578,1.82151920483658,1.82199910190971,1.91922857643646,1.81969926383666,1.94901241222652,1.81539873798238
1.85045428596545,1.89780511560501,1.95945320456487,1.84915579225511,1.84900698628497,1.89753417752765,1.85044874557244,1.85063712561436,1.85124045117892,1.85251268957742,1.85286471530622,1.85248764730751,1.94989134825129,2.02202030041093,2.01626334672222,2.01656660883827,1.9132872914543,1.98262027199247,1.9823170052584,1.98078420025093,1.98197953045513,2.01116007782494,2.01010065464897,2.0110207382423,1.97406476674522,1.9744818090705,1.9704201527199,1.96963540173644,2.09176778162282,2.0841717547549,1.96814257576685,2.08270100068507,1.89148645258653,2.0065286955066,1.96020786075474,1.95931521513746,1.95896386494605,1.95806196879458,2.00654804822641,1.88287449227036,1.95494315130107,1.95393999773621,2.00504458380605,2.0049158882193,1.87821086887277,1.87662396777792,1.87645425837807,1.94800837682564,2.08630060657002,1.87481819931187,1.87455775743451,1.87470982408093,1.95031449172771,1.8757623677396,1.94740006139489,1.95107074540516,1.94942700638838,1.99714262639797,1.95078923744245,2.08572002497568,1.88020381693636,1.9552488261858,1.99488803453992,1.88480008789162,1.96074983679225,1.99477063752636,1.96335275733587,1.98957732567828,1.98911931130941,2.06492552753811,2.05150748734388,2.04981642468884,2.04895970027544,2.06170813786539,1.96146644036013,2.05385899725918,2.05545882209693,1.95968543720261,2.03149944609122,1.95626607462793,1.95727356638592,1.95301232551029,1.95560396671099,1.95677998528184,1.95677471268122,1.95490752232471,2.0529994139601,2.05367675913825,2.0437522081458,2.04108445801484,1.95284908892917,1.95252009269237,2.03630313140417,2.0363429427135,1.95225537513209,1.9518207683386,2.0493207844662,2.0500303841788,2.04261774462737,2.03041597029242,2.02334762193086,1.9488285613883,2.03877932013172,2.03927724150462,1.94874562116054,2.03279007942408,2.03360174127715,2.02624903715155,2.04076365683925,1.94504538113256,2.03971928811519,2.03971155447439,2.03274885161961,1.94508381010476,2.04186676188798,2.04919176632588,2.02621930114905,2.0244749184521,2.02368800865279,2.03181302393888,1.94059236638182,1.94054721003559,2.02186429667318,2.0161139404912,2.01782492616392,2.01829918645101,2.01592572937066,1.93546461132245,2.02880367600975,1.93398502529281,2.0158760591756,1.93168688981518,1.93151271533687,2.02142650537624,2.01622819252812,2.02775862913497,2.01183295346162,1.92810179847008,2.00222200319124,1.92709731888664,1.92844217824271,1.92551975864653,1.92790540215719,1.92500446398828,1.92681758555797,1.92573642318734,1.92517773832422,1.92500427264286,1.84922272259788,1.8486554229624,1.847882783064,1.84595163811875,1.84537434646337,1.95512787167607,1.84017612591299,1.88519596736126,1.8370762808362,1.95267007627091,1.83271204067303,1.83097345844015,1.82875052010705,1.82897347666219,1.82760558457458,1.82617878752395,1.82369222793825,1.82629125725137,1.82268053941237,1.88296157950951,1.82306101879101,1.82293911677024,1.91520321071564,1.82137815645242,1.86790516349609,1.81932508495814,1.8188790135096,1.81735077287345
1.85361946419715,1.95713087818748,1.85387615762249,1.85293460387583,1.85167853358111,1.85278572006553,1.85305876511681,1.96097216586301,1.95652149472049,1.85736877278371,1.85681023667125,1.9763384526005,1.860439743833,1.85991341688963,1.86244681117099,2.01568416156221,2.01534996782265,1.91149698259521,1.98354146145551,2.01321506020151,1.97986928621822,1.97982510546674,1.97848116416719,1.97745705776535,1.97850269553765,1.90344932248175,1.97159389698137,1.90063941870535,1.89921331178052,2.0918742108056,1.96492196063609,1.9656638148934,2.0088703746038,1.96181967418016,1.9614130367157,1.9605926263509,1.95981047610006,2.0071963643401,1.95645634073007,1.95592568152368,1.95583824914262,1.95534501105979,2.00555839851704,1.88308331710401,1.88270978509228,1.94923691371652,1.94947742083817,1.95049191649434,1.94872259271679,1.94715026405723,1.87811856857633,1.95140122269258,1.94977241053252,1.94986033987548,1.94967077038216,1.94994048500738,1.94924656908673,1.9494924525631,1.95172745433598,1.95226502356559,1.99606855044843,1.95573264418109,1.8879498003265,1.99234927075934,1.99198669186169,1.99313988628341,1.89449613167511,1.96894571363247,2.08585549401436,1.99117231233609,2.04546636778229,2.03676732019749,2.07596625419063,2.05967610228912,2.0519011471049,2.0327781152309,2.03226599532772,2.03174236099154,2.03078084411238,2.03513083233704,2.03334142980522,1.95644462061924,1.95630718200174,1.95741612267271,1.95532614637647,1.95511110955086,1.95418171317449,2.04096525010759,2.03972018293789,2.04982076571108,2.0442374340656,2.03513201539387,2.05261719773793,2.03611734529398,1.95199881336087,2.05046904583884,1.9529829452412,1.95257008721855,2.03749304719792,2.04835959937221,2.0268573147659,2.03914304426226,2.03302065153031,2.03999306481406,1.9488274555186,2.02915220616712,2.03301445731339,2.04486643345066,1.94625464965336,2.03201138931852,2.03005676461757,2.04484404039678,2.03087222507513,2.03146346587319,2.02777378032849,2.02764321828924,1.94228734209198,1.94213252033349,2.02216082479239,2.02287800529629,2.03531456854936,2.03117568186151,2.01975933595997,2.01717748846327,1.93862967804759,2.01942561778134,2.01579632004312,2.01546641307967,1.93604608995274,2.02294699005922,2.02367244058001,2.02500611944703,2.01872090899483,2.00571588127451,1.92992095413237,2.00371969187489,2.0021331468256,2.00763452179803,2.0034688983251,1.99608790316824,1.92585504557234,1.9267077311729,1.99898113478007,1.92828063451101,1.92473799671604,2.00204854087514,2.00738989153329,2.01841126547092,1.9020089696,1.94544183542127,1.84927611638712,1.84782218437284,1.84677187432691,1.9616594146343,1.84139995883703,1.92560087413557,1.92504130406559,1.92307727947213,1.95186693839873,1.83456352672498,1.83475456212606,1.95393767941857,1.8305972018191,1.82683941310957,1.82865555076111,1.82410245644622,1.82628133503418,1.82273147072393,1.82363814965657,1.82107443156569,1.82137494261628,1.82071426452467,1.94826733251377,1.86746972730033,1.82035936705956,1.94837377247273
1.86333933143206,1.86605978555776,1.86222706920591,1.85936916687178,1.8591781666293,1.86012546879962,1.86480339015186,1.88883421214539,1.88166287469937,1.87949379352891,1.8837983518419,1.89401896989399,1.88207211462791,1.87477617780335,1.88507955926222,1.90670469750212,1.91476619027067,1.91700019768294,1.91724196912246,1.91767329711151,1.9176787065282,1.91767898715074,1.91763922834085,1.91648205748653,1.9161452445494,1.91591454894267,1.91743967520414,1.91511455519861,1.91450350400131,1.91421682278746,1.91735983416523,1.91763523422638,1.91707616381585,1.91303988013318,1.91707616381585,1.91764660741137,1.91767899366331,1.91767899366331,1.91767899366331,1.91767832961507,1.91765793393648,1.91739925391854,1.91557408594217,1.90733321316959,1.90705861841488,1.91341712405621,1.90776326270206,1.91535229373115,1.91632783906198,1.91229500616362,1.8980883816272,1.91228026383028,1.91619215259076,1.91459084733739,1.9047862092963,1.90525388235037,1.91490237333149,1.91725887257364,1.91764130903922,1.91767360634252,1.91757660992669,1.91658800601096,1.9112766664664,1.9165587205782,1.91699031731368,1.91272299540579,1.91294142240825,1.91713699717048,1.91765321040838,1.91767899366331,1.91767899366331,1.91767899366331,1.91767899366331,1.91767899366331,1.91767899366331,1.91767899366331,1.91767899366331,1.91767899366331,1.91767899366331,1.91767899366331,1.91767899366331,1.91767899366331,1.91767899366331,1.91767899366331,1.91767899366331,1.91767899366331,1.91767899366331,1.91767899366331,1.91767899366331,1.91767899366331,1.91767899366331,1.91767899366331,1.91767899366331,1.91767899366331,1.91767899366331,1.91767899366331,1.91767899366331,1.91767899366331,1.91767899366331,1.91767899366331,1.91767899366331,1.91767899366331,1.91767899366331,1.91767899366331,1.91767899366331,1.91767899366331,1.91767899366331,1.91767899366331,1.91767899366331,1.91767899366331,1.91767899366331,1.91767899366331,1.91767899366331,1.91767899366331,1.91767899366331,1.91767899366331,1.91767899366331,1.91767899366331,1.91767899366331,1.91767899366331,1.91767899366331,1.91767899366331,1.91767899366331,1.91767899366331,1.91767899366331,1.91767899366331,1.91767899366331,1.91767899366331,1.91767899366331,1.91767899366331,1.91767899366331,1.91767899366331,1.91767899366331,1.91767899366331,1.91767899366331,1.91767899366331,1.91767899366331,1.91767899366331,1.91767899366331,1.91767899366331,1.91767899366331,1.91767899366331,1.91767899145574,1.91767888520197,1.91767664321196,1.91764886625807,1.91742848500635,1.91619577829672,1.91031166707563,1.90336058230189,1.86048770465097,1.85588274111588,1.85434182361156,1.85675792009825,1.8537185399886,1.85940837484591,1.86479961589187,1.87082833930297,1.87863027072246,1.84425617217517,1.84500996232677,1.86237826494116,1.83763933402239,1.83698935039567,1.8317618831417,1.82920338120597,1.8259887043854,1.8254060731286,1.82404361263966,1.82433438223333,1.82358986796129,1.82599564750985,1.83013049306852,1.83190367924733,1.82828879452021,1.85261017610643
1.85401425263392,1.85520761500182,1.85300272587004,1.85362181819238,1.85080708085881,1.85327680481439,1.85262954398137,1.94793833627697,1.85646387487224,1.9010386325402,1.94924464485096,1.93327381283973,1.93383504171427,1.85967600400738,2.01692663196966,2.01696863898509,1.98615995790489,1.91345861258575,1.91014455790929,2.01509227402323,1.98207062180291,2.01245201010608,2.01255927946732,1.9059352094591,1.90471155344174,1.9750095658401,1.9736806790797,2.01147654087176,2.01141203180573,1.89753230046545,1.96533864312751,1.96612159887674,1.96729713837244,1.89314617054351,1.96200345596947,1.96210036751565,1.95979037879903,1.95916417490031,1.95578180648026,1.9563635553944,1.95626474763826,2.00554009406956,2.00545623228371,2.08394280020631,1.94920796375391,1.95008756387448,1.88173038438467,2.08563293773652,1.9484201172616,1.94907453752655,1.87798452067014,1.95004191007147,1.94961705284551,1.94888342571393,1.88014692827053,1.88089721757152,1.94848021242303,1.95145766283051,1.99594275776965,1.95233722525793,1.95383444444579,1.95579439240029,1.95685825035585,1.95801168463679,1.99305920251772,1.89341258096403,1.99546966997865,1.99522499273373,2.08523620698039,1.99046593806297,2.06156985216361,2.05859745621795,2.05504590550356,2.04449873180871,1.96163038554368,2.04194417276183,1.95972414264224,2.03587669524583,2.03595469548844,2.03012886738966,2.03626242459879,1.95589992510168,1.95808598633417,1.95735054435294,1.95501470797872,2.04896985174233,1.95472146457094,2.04013784947695,2.04149531586712,2.03817420358462,1.95384782750516,1.9536410298706,2.04905629729259,1.95337645054403,2.04323435407535,2.04235703078202,2.04858054293303,2.04884503010857,1.95242816727326,2.03880903213834,2.02514601196536,1.95057998253125,2.03337091788529,2.02484604480828,1.94857697603075,2.02605416635557,2.03629156585018,2.03628511494359,1.94713519840479,2.03131307867878,2.03043575538497,1.94519025006372,2.02881335595188,2.02641354460968,2.03243962824995,2.02963078781625,1.94335888705084,1.94265206517486,2.02122708620336,2.02781668729863,2.03591580053197,2.01977894186015,2.01822808927915,2.02627391548203,2.02152364762698,2.02402931466185,1.93538809747915,2.01869185782228,1.93419790521073,2.02639405677908,2.01996257671304,1.93315534654774,1.93231377970336,2.01874674831818,2.01884992494718,2.00343153872622,2.00248024183644,2.00202852581561,2.0011846786878,2.0048031922057,2.00174240020034,1.92480956259422,1.92583643215187,1.92485656021281,1.92495656265597,1.92551628702332,2.01255900300053,2.01353438007633,1.90211738534385,2.02532986280357,1.85031154698162,1.84891666459329,1.8457071884258,1.84595523380184,1.84421195598465,1.84115608580523,1.84056257303284,1.83976948227983,1.9512961183818,1.83541783995014,1.83498408547635,1.93270774578524,1.83013585542803,2.04982072972515,1.82880666236954,1.82551809366409,1.82262587147313,1.81994322630702,1.82488100237204,1.818879768172,1.82302222480839,1.82045423250676,1.82343705225949,1.82043082501507,1.82067116665012,1.94894790316048
1.85289352703261,1.85229568667001,1.85183204062711,1.85046776448485,1.85348592150652,1.85150297869853,1.85247132164919,1.85221471824122,1.8526896922382,1.90007744745623,1.95566007149509,1.8517391915468,1.85299066742795,2.02550407337256,2.0174485926852,1.99138520039656,2.0158663828157,1.91376274292141,1.9834127215619,1.98310947691002,1.98263480859774,2.01312437888582,1.90538170541126,2.01197648613357,1.97601144507924,2.0863441501896,2.08640220834904,1.89898563151352,1.96947460157725,1.96884259902449,2.01149753515785,1.96881992095306,2.08854552206817,1.96282373535278,2.00874458192503,1.96261095967399,2.00950901435759,2.1094852353117,1.95758088661077,1.88512908412841,1.95693643165004,1.95401230950127,1.95508997121798,2.08271712795158,1.87918779914625,1.95319917603803,1.87848966704436,2.00593843755234,1.87564625142073,1.94916495165447,2.00326937494499,1.9494764963759,1.94879024210437,1.94853637505741,1.87607201310383,1.87680018683019,1.87604267973489,1.95152396553811,2.07548243619534,1.99482030002058,1.95307263094466,1.95817328821846,1.95912906275493,1.88546775672512,1.96316731289226,1.89165030579689,1.99263561429078,1.99293189878853,2.06616410160605,2.09615114095413,2.0641201586656,1.96482358431259,2.03591580052288,2.03579968420754,2.04766288966512,2.06544805097518,2.0584907481986,1.96011248027616,1.96027126526245,2.03430207191797,1.95601602651969,1.95856731133214,1.95534929812097,1.95776533470094,1.95531585139154,2.0486249217597,2.04786831637836,2.03772732175135,2.03880615705822,2.04329647347425,1.9547402643559,2.04957882072751,2.02570734511971,2.03540296205741,1.95327415759646,1.95183099763336,2.02950037391795,2.03746906785275,2.03884277153098,2.04273752557671,1.95149151224616,2.04582000616906,2.04498284631656,1.94976716829917,2.04628885835677,2.02193488391758,1.94864632327675,1.94830442522674,2.03200655114003,1.9482334652541,2.03872678308871,2.03975247724304,1.94551924630052,2.04252475436095,2.02723925691242,2.02729036236488,2.02518470232708,1.94204944524357,1.9419660446243,2.02152090229078,1.93784589289522,2.0208011906126,2.02279074444871,1.93763301297729,2.02060001271124,1.9373040167405,2.02621707454772,2.02092933612893,2.02282117836939,2.01994143601915,2.01912362621842,2.01950154810618,1.93287666738245,2.012121598021,2.00528214304617,2.01665016798822,2.00257523654885,2.00319857750424,2.00465005241529,2.0050999816613,2.00258884709933,1.9246842863182,1.92400509877607,1.92580120667066,1.92409201491471,1.99822902649715,2.00230012622723,2.01536127683058,1.90120689805853,1.84855906123614,1.89615690896773,1.89525378204318,1.84456447535174,2.03613835681835,1.84365122618722,1.83846346443008,1.83795188060172,1.94548132589283,1.94482812349431,1.83390401774523,1.87844610615947,1.83096755936206,1.82975312900932,1.87643971293301,1.8256984414434,1.82496156801541,2.04226349263872,1.82290641574445,1.818373648766,1.82397772923848,1.81848797788826,1.82344648481543,1.81930660203839,1.82053837928677,1.81931027822148,1.92159928461338
2.04268925247458,1.94113746798984,1.93994405026813,1.85335968121238,1.85218470523008,1.85381539978863,1.94470643206844,1.9586694194125,1.93817765380748,1.93870957713382,1.85504528118128,1.94889658270173,1.95324069471127,1.85612903349073,2.10642743517409,1.98932348911957,1.91639203815629,1.91500104678267,1.98853886559686,1.98283852785354,1.98263212476601,1.98216524734581,1.97965526674363,1.98034440739699,1.97779176996324,1.97733916608316,1.97642590375918,2.09652851899046,1.97275933018382,2.01221681955831,2.0119056166269,2.01202392913673,1.891950917862,1.96337643621015,1.96367781039351,1.96270677716035,1.9621175673157,2.10348469011724,2.08907441195381,1.95784290194311,1.95501020705544,1.9554818568111,1.95375816731585,1.95603418933915,2.08470400718733,2.07772735169173,1.87855939583092,2.09540606124138,1.87487214262826,1.95146078348329,2.00230818986102,1.94890778374708,1.87742025073679,1.94871782125372,1.94887218708034,1.94852752872339,1.87705182872094,1.9504113463722,1.88007489367056,1.88083648011491,1.88134192762058,2.09584149743714,1.95911250238955,1.95902228433411,1.96443816168838,1.99514929625738,1.96567349125765,1.96675079266051,1.9758352818854,1.98986600374881,2.03808330515942,2.06629068744545,2.05627491032038,2.05182207104243,2.0525510916648,1.9602515042571,1.95976768626181,2.04468258261517,1.95948834221115,2.03148420939422,1.95879563469008,1.95404372903872,1.96080610572268,1.95406637626504,1.95726118403142,1.95540158375423,2.04665538828655,2.05549107662143,2.02594456557622,2.03521910260985,2.04175064557186,2.06203229592627,2.03360303765132,2.02204957679551,1.95469520016548,2.05828754464273,2.04155711836318,1.95223786552845,1.95263782173789,2.0486499152291,1.95196378505667,2.04380464784114,2.04518485859555,1.95088962604824,2.03533199349556,1.94843344335882,2.03548036434675,2.04621144746916,2.03870259220101,1.94848505061165,2.02932619944467,1.94552481020747,2.02600265083186,2.02622881742904,2.03273340241871,2.0273524347259,1.94218090213302,2.02851212840271,1.9414876792456,2.02365820926059,2.02243296417732,2.02624614218142,2.02799339513088,2.02932199454392,2.03082817423042,2.02562873874995,2.02767567854112,2.02148503696636,2.01625075959619,2.01839021167288,2.03209363837003,2.02037087127756,2.02149184621019,2.02247215056737,2.00517615446518,2.00328124268203,2.00286114819599,2.00491815053843,1.92753870861327,2.0047590297588,1.92579580551367,1.92419263364168,1.9995230109348,1.92423603152442,1.92472705294506,2.00186204224228,2.02181734415776,1.92310879675868,1.85337220104647,1.85070536785077,1.84855903130152,1.84780423801061,1.84541097564012,1.95055901708479,1.9514040858499,1.83859746218205,1.83709111028429,1.94524752874137,1.94504911515037,1.83438467500744,1.87857576938221,1.87795841762022,1.93770397294994,1.82738056821059,1.87437265142169,1.82788376620464,1.9519927310775,1.82053777169959,1.82326558423986,1.82007192177612,2.02158511152003,1.82012937319,1.81655223843715,1.90811043890469,1.81892970879627,1.81641745075833
1.85446338297622,1.90134666333054,1.90146277964941,1.85212421539543,1.85204628333716,1.90186603032605,1.95632330912436,1.94279051280555,1.93804384357233,1.90271534809942,1.90273262018809,1.90326201255596,1.90390524109897,1.90457550074577,1.98833862718391,1.98862436779281,1.91677168484691,1.98805647518633,1.91328740747675,1.91259236775046,1.91159028561898,1.98147797743708,1.98176546528385,1.97868446672379,1.97891533555831,1.90298196815462,2.08817782039175,1.97333212735483,1.97253147622306,2.01173786565891,2.01467368436131,2.09569635203856,1.96811354668057,1.89273470301437,1.96523867316981,1.96580509758738,2.10236996126305,2.10262876607974,2.08524919324947,1.95742734875827,1.95839495569287,2.00768985869529,1.95551978911995,1.95386874714726,2.00558041223583,1.95189827109602,1.878119232796,1.95185571239799,1.94946878165984,2.00537720867781,1.87501728802685,1.94978588879982,1.8759236404047,1.94858114124472,1.94954269849228,1.87633166024739,1.95153780752305,1.95071685634271,1.9525552757709,1.95310746775799,1.88163904878945,2.08263326616573,1.95998644724595,1.96231474719583,1.88887383541196,1.96517128039916,1.99203199050733,1.99175498098846,1.99249266113186,1.91552253059254,2.05855848271692,2.06313286428989,2.03672014795769,2.03824820645949,2.06677371228011,2.05227852515918,2.04606630206676,2.05617809817218,1.95851539146295,1.95838170978656,1.95489719557558,1.9610863509802,1.95527178725752,1.95869954116612,1.9542032943993,1.95638411956861,2.04525742225643,1.95603744951813,2.02864242636882,1.95517625348651,2.03477115628737,2.02999670206465,1.95478436091033,1.9550746517075,2.04035663955354,2.03988421284306,1.9529990725077,2.053657406424,2.05549591479821,1.95270849100444,1.95197192482723,2.04166048846648,2.04964704332847,2.0489473866932,2.03353864145706,1.94967846833336,2.0347836664316,1.94791737083051,1.94709810569182,2.03644800036364,1.94552481020747,1.94558577127487,2.03466720799245,2.03261115942989,2.02608853880789,2.02800694143847,2.02828717777332,2.02723042118025,2.03185180081971,2.01898192121698,2.02062952599019,1.93924251417496,2.02737086985692,2.02911592803165,1.93839085053452,1.93809353295581,1.93617487275132,1.93527451445622,2.01897778924758,1.93506767173255,2.01518903762365,2.02869562334327,2.02919234314405,1.92972742693425,1.92949519429651,2.02913273233775,2.01993045397614,1.92825862979026,1.92737624776968,1.92682783590094,1.92508258420237,1.92657168392068,1.92305292323954,1.92575004941402,1.92278687080893,1.92294152578535,2.00633185839637,1.9017917758862,1.85256234654932,1.85138490872906,2.03243231097443,1.95428602837518,1.84174397148821,1.84334250333608,1.84260333321551,1.95685855777012,1.95616296573007,1.83511590282668,1.83451730943077,1.83454494287846,1.879932395041,1.82963173822257,1.938142634599,1.87512353695038,1.87434866401619,1.8739330373641,1.82263382217925,1.82291773204847,1.82200327626603,1.8223058124125,1.92446832532545,1.92363615837355,1.86761414955297,1.81831635560965,1.81878299762833,2.03375797228152
1.95274748715015,1.85239174682768,1.85373759025687,1.90133574850616,1.90150671194537,1.90251139704202,1.95672971662005,1.85272231203132,1.85333702805892,1.85467636496438,1.94341191993045,1.85594518265252,1.90451357204238,1.85806430547189,1.98894895347757,1.91858195995719,1.91847264102555,1.99211211295026,1.91313853590411,1.91266124563396,1.91081131193522,1.98489753119449,1.97988178082335,1.98190865879667,1.97776176131352,1.97849129641049,2.10574041362078,2.01263447860716,1.89896627879371,2.08589509125883,2.10564365002172,1.96849092471689,2.01204493214996,1.96421628857273,1.96449758641232,2.10589523537927,2.00886876187715,1.88834992963992,1.95790558185894,1.95963155674085,1.95599213694865,1.95446193882018,1.95324039939223,1.95633541577154,1.95194652854941,1.95372014026753,1.95225061374745,2.00588037939291,1.95084295848652,1.95086021044244,1.95045729284419,1.94871266939071,2.00242591890654,1.87686869822216,2.00232915530748,1.87624779846154,1.95139071812933,1.9545497517884,1.95336516185034,1.95467269384831,1.95496310261442,1.95606330692955,1.95884749189315,2.08235107060564,2.07774667107759,1.96514706065869,1.96849805733425,1.96867381569849,1.9935574401866,2.08659001027187,2.03934695462251,2.06551752900055,2.03628067994529,2.03792001658601,1.96180617274864,1.96134815837976,2.0395605627874,2.04005083166497,1.95881667131882,1.95596867330071,1.95854315576185,1.95575955652728,1.95969026706878,2.02932619944467,1.95598011341403,2.03961227988751,2.03201037815519,2.03076358507569,2.03111489763114,2.0273430804309,1.95536010432472,2.05952611870934,2.02650715325878,2.02506215017951,2.04321128135207,1.95507948988745,2.04333822269595,2.04278866681071,2.04621133255707,2.06044537290172,1.95232143660821,2.04419452560982,2.03977856045217,2.03655453418014,1.94971878649964,2.02911331952674,2.04499223270015,2.03675767376188,2.03349678304863,2.02653930536223,2.04341497374354,1.94535450627312,2.03161130174133,2.03003625280111,2.0264636069262,1.94202608037453,2.03837359594531,1.9423676558792,2.03798654155804,2.02671842046015,2.02855692884225,1.93987470302214,2.02435534968096,2.03321324479815,2.00635452102829,1.93737676801639,2.02373326341911,2.03952508278538,2.02838759252479,1.93506324825374,2.0362254440575,1.92893396542198,2.0188303671336,2.01922683503175,2.02704714419921,2.02309967425093,1.92624393736816,2.00160895766306,2.00116660978166,1.92623299108008,1.92802662433642,1.92366757776659,1.92649575980695,1.92385561198709,2.00999283235288,1.92195656066042,2.00250663969392,2.03928317378774,1.90120151793195,1.95150891308221,1.84879547343436,1.84768951587597,1.84248519208738,1.8905204754005,1.88863054407719,1.95704544975461,1.9483931251931,1.83479051796069,1.83438006246355,1.83417901336419,1.83073914588257,1.82872763301063,1.87837498491416,1.93727498766078,1.82610289196942,1.87397988257429,1.90713312655421,1.82266486415739,1.9152048234423,1.82133134111749,1.86780693918426,1.86807203228645,1.86807553137324,1.90525913818578,1.90449793120653,1.81719827291543
1.85531839935451,1.90178486383849,1.85422638466582,1.90146947472607,2.02369455797949,1.85293168771042,1.95867868840376,1.95825292894753,2.03518039718768,1.85474125792154,1.94156253918611,1.94188435940891,1.94271333631314,1.85899323602284,1.91926728187608,2.11640376223697,1.99186034448819,1.99163659020188,1.91231584977016,1.91224191813568,1.98613261665316,1.98521971836826,1.98027958510469,1.97889835170092,1.97905445134973,1.97842189518025,1.97674314284993,1.97586697495515,1.97538313885324,2.09154430183412,1.97007784774144,2.01252931934289,2.01255094885327,1.89356394729499,1.9649356946688,1.96554369263622,2.00948159800452,1.88729935342157,1.95939438566259,1.95630910712036,1.96018650565116,1.95729941894518,1.95612280642775,1.95293832658122,1.95496568625701,1.95126457765781,1.95331546450981,1.95106770324743,2.09500933048525,1.95249041924534,1.9486116317898,1.95217384514512,1.95022535257133,1.8762623130014,1.94988976017977,1.95181399158488,1.95131458828422,2.0770887119397,1.95296349531341,2.00044226512585,1.88240397495553,1.88618018303759,2.07819175712499,2.08249947142954,1.88828721472019,1.89198810858302,1.89516394986144,1.99287535167929,1.97290334483417,2.08159672543315,2.03936986118224,2.03977812896256,2.06184844508336,2.04999490421352,2.05917623813608,2.05502655258266,2.04626014485864,2.03246431003538,2.03236707672207,1.9580148931624,1.95626382969292,1.96152475073931,1.95608132986013,1.95860286108207,1.95619277797192,1.95852736820009,2.03366483900263,1.95625032943605,2.02890917017211,2.04040563153681,2.06319345911546,2.04538834606014,1.95597939135869,2.06138397980599,2.05395253541265,2.04057902160361,2.04096330405626,2.0310774096303,2.02659767690679,2.04808866130202,2.03949605370566,1.95148517393592,1.95150633366963,1.95092781560535,2.03211299109754,1.94925432122416,2.04309510891783,1.94980587373879,2.02153287361907,2.02054988389273,2.0482821942241,2.03349671054695,1.94614337151444,2.04245701983778,2.02835526807399,2.02903916674192,1.94223605738448,1.94226315119222,2.03732854908388,1.94222605847925,1.94167128051131,2.01946598870065,2.02849927076648,2.03304058841274,2.01997730649753,2.0223332758729,1.93576547551547,2.02894882140181,2.01882742077652,1.9341077768299,2.01754175746865,2.01689534039309,2.01736449031911,2.01849516678069,1.92979516145359,1.92867270370452,2.02598785527716,1.92690192984176,2.0013380195857,1.92748088565733,1.92491417501916,1.92661530623455,1.92300326624274,1.92596423078754,1.92440078077039,2.0089187564298,1.99224427591601,1.99181552702007,1.85298421652475,1.84860988677063,1.84785507379663,1.8461893071664,1.89243473585729,1.84248536602355,1.88851553362802,1.83965019257115,1.88525810225461,1.88414854632597,1.83295976942647,1.9582726968877,1.95236042452259,1.8279887430221,1.82758578738264,1.95122829864494,1.82722035740573,1.82568048000258,1.8242248474462,1.82379594343266,1.91602408858099,1.81927226779037,1.94793833627697,1.81650727491596,1.8688735474209,1.86804938061262,1.86691221536121,1.86539247386736
1.85529105545674,1.90218297548349,1.90182355914022,1.90209444652811,1.85467343249347,1.85365050301771,2.06630924700464,2.04214737631985,1.8542847305937,1.85522320013752,1.85681818258306,1.94166183853671,1.94253690932837,1.94229855009964,1.99466817176046,1.99273392330982,1.99251993715711,1.99213549169374,1.91276050038303,1.98793385217346,1.98790973505282,2.01926278514263,1.98511811166612,1.97954229741415,2.01684369516618,1.90542041085088,1.97653021348498,1.97449054096284,1.9741328930849,1.89951783130834,2.0860877266521,2.01235799085279,1.8957798115215,1.89260510151018,1.96487064524944,1.96469501605934,2.08913578002971,1.88823381332105,1.95792040448686,1.95967235605491,1.95608112168394,1.95763870562297,1.95502700795318,1.95570005228343,2.00622872834952,1.95227161642955,1.95169520141817,1.95281551103761,1.95194516094273,1.95130438602351,1.95342061950721,1.94960762776195,1.95268705551209,1.95163964539734,1.87616877485564,1.8754643358545,2.0021114372096,2.00209208448979,1.95382744990091,1.95436211694238,1.95664373214183,1.95683074253989,1.95833254975545,1.88785781762185,1.96390071674577,1.96525055674528,1.89585756420936,1.97012622954097,2.08230172357052,2.07961884555151,2.05979383133473,2.04119899211656,2.0404194089517,2.0400856310004,2.0590148620147,2.03534776885661,2.05217176959889,2.03272510225705,2.03205480112911,2.0320846169414,1.95929800149615,1.95638038679489,1.96098805790846,1.95520437500218,1.95821173984982,2.05286878309548,2.03568396235622,2.04251012545343,1.95569601224716,1.95576015268997,2.05276234314025,2.04565688376011,2.02001754121529,2.05432023707967,1.95562942967543,1.95531333525184,2.03991328804209,2.02671358227193,1.95379253401998,2.02758663013658,2.01943689471996,2.05220111426198,1.95155381766257,2.04340530310761,2.04286342695288,2.01979498493746,2.04069309721802,2.04238305233721,2.02645234277092,2.02003191431166,2.01945530662114,2.04207964181763,1.9462401351135,2.02565890856896,2.02943403620575,2.01293444577277,2.03323544884661,1.94220509303278,2.02940375179596,2.02897834556405,2.02722377008586,1.94070041906743,2.02898001127151,2.01474654988918,2.01896341388006,2.02639293131544,2.02669023665164,1.93555259559755,2.02517496923174,2.03604159321853,1.93254324766684,2.01581123202259,2.01544190213736,2.01472852764721,1.93145949535739,2.01943936674628,1.9278115076729,2.0089574618479,1.9258188511988,1.92502443824132,1.92792056631475,1.92280851304364,1.92608786906212,1.92242377337921,1.92576828579229,2.00268725518877,1.99524352271533,2.0099250978268,1.95822430685684,1.84966368048505,1.93768139477682,1.8945635350266,1.90036935098296,1.89905336603992,1.83973452000414,1.94524830822316,1.83566934682225,1.89217347414437,1.83237435995315,1.83255968075411,1.83093235412097,2.0462986197466,1.82688634763528,1.82742346847622,1.82577200848088,1.82528507222563,1.94243193455572,1.94173302490309,1.82253432701942,1.81917671244832,1.81876093869652,1.8170059916341,1.81954403723313,1.81828373008649,1.92239274612566,1.81817406995474
