1.89314555882834,1.8944970139506,1.88948982410911,1.93606155098436,1.94378137376911,1.93445730569534,0,1.88466736554332,1.88669940957608,1.88360759138269,2.00869011043282,1.88106996701642,1.88108941241387,2.00555940144455,1.87652946671355,2.00032858953246,0,1.98382916980234,1.98444169982178,1.98547230588625,1.87116253701937,1.87264038722502,1.87032638492933,1.87117225971809,1.86742902071037,1.86755541579375,0,1.86770125627457,1.86751652499887,1.86745818880654,2.0821937127662,1.86743874340909,1.98525840651438,1.92079691399185,1.91862875217699,2.0736766286863,0,1.87336958962912,1.87234870626337,2.04835872121592,1.87695726545729,1.93845333486981,1.9374907876964,2.00961376681135,2.00862205154177,2.00918596806761,0,2.00486908983533,2.00351763471307,2.00113557352633,2.00233146546906,1.99826737740354,1.92244977277447,1.92179835196014,2.02742575086886,1.99214207720909,0,1.9925115397605,1.98857384677836,2.02523814365655,1.984538926809,1.98264300055833,1.98010537619206,1.98106792336548,2.10992284951949,1.98203047053889,0,1.97739274324881,1.97611906971631,2.02288525056599,1.97176330068915,1.97027572778478,1.96783533040572,1.9701007192078,2.09971401586207,1.89179410370607,0,1.96849647391877,2.01590435288406,2.09453181744359,2.10074462192653,2.11245075118704,1.96526853794329,1.96461711712896,1.96714501879651,1.96520047905224,0,1.96638664829624,2.0082720343878,1.8970929745092,1.9692840125152,1.97452454712601,1.97903587933271,2.00547189715606,2.00492742602766,1.90716569038452,0,2.11252853277681,1.99265738024132,2.06004540507898,2.06776522786373,2.05065327811415,2.04952544506248,2.04532523921486,2.04560719747778,2.04585026494581,0,2.04646279496525,2.0430695731115,1.96879787757914,1.9669602875208,1.96534631953306,1.96639637099496,2.06546094826677,2.04712393847831,2.05269504484564,0,2.05579658573775,1.9648212938021,1.96561855509725,2.06041486763039,2.03750818944289,1.96753392674536,1.96438377235964,2.05573824954542,2.05916063949533,0,2.05333674296125,1.96100999590334,2.04897125123536,2.04646279496525,2.0619218859322,2.04761979611309,2.03783876119942,1.95603197415801,2.04636556797804,0,2.0380137697764,2.03589422145515,2.02504368968213,2.03286073945409,2.03245238610779,2.02426587378442,2.04207785784193,1.95170537322701,2.03845129121886,0,2.02541315223354,2.04445019632994,1.94706764593693,2.01574878970452,1.94474392094252,1.94407305473075,2.03173290640241,2.03213153704999,1.93986312618441,0,1.94229380086474,2.04509189444554,2.02262273770051,2.01601130257,2.02273941008517,2.03159678862031,2.00764978166964,1.93110297463647,1.9285167367766,0,1.92946956125129,1.92786531596227,1.92907093060371,1.92787503866099,1.92881814043696,1.9240540180635,1.92399568187117,1.86114815733638,1.90723374927557,0,1.90544477271084,1.85476034427646,1.95377630805465,1.95434022458049,1.84816835454338,1.8463988233761,1.89334973550148,1.94431612219878,1.88822587327533,0,1.886981367839,1.83671501544964,1.83454685363478,1.83320512121123,1.8815172111576,1.88064216827268,1.82928687362653,1.82991884904342,1.82906325155594,0,1.82665202227304,1.95645977290175,2.03143150274205,1.82678814005514,1.82527139905461,1.82406578441317,1.82342408629756,1.9188620969463,1.95029558191241,0,1.82227680784844,1.82072117605302,1.87087085605773,1.82394911202851,1.82380327154769
2.00838870677246,1.89041348048764,1.88942176521806,2.08362294947824,1.88796336040986,1.93394200266311,0,1.88396733123538,1.8840645582226,1.88195473260006,1.88212974117705,1.88295617056836,2.00532605667524,2.07619480765513,1.87733645070743,2.00098001034679,0,1.87515856619384,1.87433213680253,1.96767976722618,1.96860342360471,2.06977782649904,1.86939300585208,1.87057917509609,1.87071529287819,1.87362237979587,0,1.86934439235848,1.87031666223061,1.87102641923727,1.86774014706946,1.86815822311447,1.98496672555274,1.96952707998324,1.98235131959669,1.98271105944938,0,1.92196363783841,1.92400540456989,1.87506133920663,1.87750173658569,2.11250908737936,2.0115971973505,2.03638035639122,2.01108189431827,2.03206347815894,0,2.0054913425535,2.00615248606655,2.0017092127509,1.99977439570535,2.00454824077753,1.99857850376262,1.99537001318458,1.99442691140861,2.12314571978052,0,2.10976728633994,1.99103368955486,1.98625984448267,1.98571537335428,1.9818554619619,2.09907231774646,1.98086374669233,2.1103409255645,2.09616523082878,0,1.97478705999148,1.97365922693981,1.97144245163134,1.97144245163134,1.96906039044461,2.01874338091069,2.01881143980174,1.89374836614906,1.89206633927027,0,1.96751448134792,1.9655018827126,1.9659102360589,2.01620575654442,1.96381985583381,1.96486018459699,1.88955788300016,2.10202801815775,1.96511297476375,0,1.96517131095607,1.9647726803085,1.967232523085,2.00836926137502,1.97238555340731,1.90131262575427,1.97972619094193,2.08908710615964,1.90741848055127,0,2.09842089693213,2.04865040217756,1.97468011030555,1.97365922693981,2.05622438448149,2.04745451023483,1.97097576209272,2.04547107969568,2.04523773492636,0,1.96834091073923,2.04270011056009,1.9676894899249,1.96729085927733,1.96673666545021,2.05767306659097,2.05602993050706,2.04857262058779,2.05383260059604,0,2.06293304659922,2.05697303228303,2.05538823239145,2.04272927865626,2.0560493759045,2.0550479379362,1.96197254307675,1.96102944130078,2.05998706888665,0,2.05202417863386,2.05679802370605,2.05667162862267,2.04289456453452,2.05589381272496,2.04845594820313,2.04300151422045,2.04555858398417,2.04305012771406,0,2.03845129121886,1.95441800617026,2.03535947302548,2.02586039637472,2.02297275485448,2.02253523341202,2.04688087101027,1.95098589352163,2.04440158283633,0,2.03771236611604,1.94915802616201,2.02381862964324,2.02524786635528,1.94480225713485,2.02491729459875,2.02508258047701,2.02929250902336,1.94135069908877,0,1.94090345494759,2.02801883549086,1.93772413246571,1.93630461845239,2.00617193146399,2.02960363538244,2.02594790066321,2.0150584780953,1.9279722656482,0,1.92759308039807,1.92816671962263,1.92743751721853,1.92772919818017,1.92381095059546,1.92367483281336,1.92587216272439,1.86158567877884,1.86002032428471,0,2.06119268352809,1.85562566446266,1.85415753695573,1.95289154247101,1.84995733110811,1.84725442086358,1.9114825686168,1.9103450128664,1.88782724262776,0,1.83999156491873,1.8867091322748,1.88401594472899,1.88394788583794,1.83238841451864,1.8801949241315,1.83004524412679,1.8309591778066,1.82859656201731,0,1.8266325768756,1.82672980386282,2.04279733754731,1.82595198796511,1.95268736579786,1.82387133043874,1.95059698557277,1.82469775983005,1.92105942685732,0,1.82310323723975,1.8731362448598,1.87173617624393,1.87186257132731,1.82427968378504
1.88945093331422,1.89151214544315,1.89128852337256,2.08498412729923,1.8867091322748,2.01289031628044,0,1.99580753462704,1.99785902405724,1.87901847758622,1.88017547873406,2.08582027938927,2.08230066245214,1.87677253418159,1.87742395499592,2.00078555637237,0,1.98100958717315,1.87405017853961,1.98788353516914,1.96481157110338,2.0785477007457,2.07060425589036,2.07174181164076,1.86893603901218,1.86822628200552,0,1.8680318280311,1.86936383775592,1.87110420082704,1.86901382060195,1.86879992123008,1.86923744267254,1.87082224256412,1.86752624769759,1.87053056160248,0,1.87138615908996,1.87524607048234,1.87549886064909,1.92608606209626,2.01383341805641,1.93581848351633,2.00952626252286,2.00862205154177,2.0092248588625,0,2.00580246891258,2.00287593659746,2.00120363241738,1.99924936997439,2.00124252321227,1.99707148546081,1.99921047917951,2.1016391102089,1.99198651402955,0,1.98960445284282,1.99082951288171,1.98481116237319,1.98494728015529,1.91163813179634,1.98091236018593,1.98133043623095,1.97885114805701,1.97895809774294,0,1.97352310915771,1.97427175695925,2.10489621428055,1.97068408113108,2.11614537670115,1.97126744305436,1.97165635100321,1.96731030467477,1.96744642245687,0,2.01688634545492,1.96592968145634,1.9649574115842,1.96466573062256,2.01312366104976,1.89111351479557,1.89115240559046,1.89152186814187,1.96645470718729,0,1.9656380004947,1.96814645676481,2.09639857559809,1.97134522464413,1.97627463289585,1.89991255713839,2.00712475593868,1.981991579744,2.09356927027018,0,2.00641499893203,2.04891291504303,2.04843650280569,1.97395090790145,2.05196584244154,2.04814482184405,1.97057713144514,1.96957569347684,1.96940068489986,0,1.97103409828505,1.96790338929677,1.96766032182874,1.9659588495525,2.05030326096019,2.03910271203319,2.05454235760269,1.96517131095607,2.03884019916772,0,2.0593259253736,2.03816933295595,2.03873324948178,1.96401430980823,1.96478240300722,1.96410181409672,2.05441596251932,2.06461507347801,2.05944259775825,0,2.06921390997321,2.05444513061548,2.06300110549027,2.05347286074335,1.95833625375497,1.95978493586445,1.95856959852428,2.04864067947884,2.04791147707474,0,2.04187368116878,2.0557285268467,2.0527242129418,2.03472749760859,2.03845129121886,1.95184149100911,2.02943834950418,2.05004074809471,1.95213317197075,0,2.05168388417862,2.0326371173835,1.94772878944998,2.03417330378147,2.0329093529477,1.94346052471131,2.02464505903455,2.04157227750842,2.02942862680545,0,2.02950640839523,2.02236994753376,2.02496590809236,2.02470339522688,2.0232547131174,2.00914707727273,2.00836926137502,2.02650209449033,2.00807758041338,0,1.92634857496174,1.92780697976994,1.92781670246866,1.92781670246866,1.92492906094842,1.9247832204676,2.00531633397651,1.86221765419573,2.04473215459285,0,1.85793966675834,1.85456589030203,1.95449578776003,1.95344573629813,1.84822669073571,1.84689468101089,1.8440750983817,1.88999540444262,1.8889842437756,0,1.88780779723032,1.88580492129372,1.8357427455775,1.83416766838465,2.03674981894263,2.047483678331,1.83190227958257,1.83015219381273,1.82742011547203,0,1.82837293994672,1.87669475259182,1.82732288848482,1.82582559288173,1.95291098786845,1.87405017853961,1.82672980386282,1.82615616463826,1.82697287133085,0,1.82379354884897,1.87375849757797,1.87271816881479,1.82393938932979,1.82315185073336
1.89032597619914,1.89406921520686,1.88911063885898,1.88991762285285,1.88781751992904,1.88494932380624,0,2.08857180312741,1.88239225404253,1.88370481836991,1.88040882350337,1.92763197119295,1.87679197957903,1.87542107905932,1.99842294058308,1.87364182519331,0,1.87220286578255,1.87262094182757,1.98675570211746,1.98758213150878,1.98406251457165,1.96848675122005,1.86966524141628,1.87066667938458,1.8697624684035,0,1.86811933231959,1.86770125627457,1.868488794871,1.87022915794212,1.91925100489515,1.92079691399185,1.87220286578255,1.87343764852017,1.87102641923727,0,1.87331125343679,1.9789386523455,1.92520129651262,1.92525963270494,2.01501958730042,2.12274708913294,2.00957487601646,2.03237460451802,2.00699836085531,0,2.00545245175861,2.00466491316218,2.00140780909053,1.92713611355816,1.92489989285225,1.9971103762557,2.11317995359114,2.10265027087592,2.10291278374139,0,2.02629791781718,1.9877279719896,1.98605566780953,1.98506395253995,1.91021861778302,2.09859590550912,1.97906504742888,1.97813166835163,1.97817055914651,0,1.97609962431887,1.97435926124775,1.97451482442729,1.8986874970995,1.97130633384924,1.89453590474549,1.89402060171326,1.97052851795154,1.96453933553919,0,1.96467545332128,1.89039403509019,1.9648212938021,1.89090933812243,2.01215139117762,1.96565744589214,1.96592968145634,2.01184998751726,1.96648387528346,0,1.89189133069328,1.89245524721912,1.9708785351055,1.97188969577252,1.96995487872698,2.09602911304668,1.97985258602531,2.08962185458931,2.09142055385276,0,2.09213031085942,1.9776163653194,1.9753412538186,2.04915598251107,2.06182465894498,2.04573359256115,2.04485854967623,1.96941040759858,1.96864231439959,0,1.96759226293769,1.96689222862975,1.9641795956865,1.9667755562451,1.96641581639241,2.05235475039039,2.03950134268077,1.96429626807115,1.96534631953306,0,2.0372359538787,2.03621507051295,2.04031804937336,2.03990969602707,2.04582109684965,2.04983657142156,2.0312273260689,1.96259479579492,2.06320528216341,0,1.96174892100616,2.0559132581224,2.04057083954012,2.04927265489572,2.04204868974576,1.9589876745693,1.95741259737644,2.03543725461525,2.03925827521274,0,2.04202924434832,1.95536110794623,2.03856796360352,2.03916104822552,1.95178315481678,1.95130674257943,2.03925827521274,1.95088866653441,1.95144286036153,0,2.03586505335899,2.0352330779421,2.02652153988777,1.94768989865509,2.03599144844236,2.0299050390428,1.94377165107039,2.03584560796154,2.02482006761154,0,1.93815193120945,1.93837555328004,2.0325009996014,1.93803525882479,1.93567264303551,2.01800445580787,2.00795118533,2.00109668273145,2.00160226306496,0,2.00420794632228,1.92854590487276,1.92607633939754,1.92679581910292,1.9259693897116,2.00597747748957,1.99784930135852,1.99632283765927,1.91087003859735,0,1.85843552439313,1.85487701666111,1.85211577022425,1.85114350035212,1.85027818016592,1.8442112161638,1.846855790216,1.84357924074691,1.84154719671415,0,1.8400207330149,1.83999156491873,1.95315405533649,1.83543161921842,1.95490414110633,1.83256342309562,1.83166893481326,1.95088866653441,1.82811042708125,0,1.8280423681902,1.87642251702762,1.82857711661987,1.87420574171915,1.82632145051652,2.0066775117975,1.82528112175333,1.82368659916303,1.8254464076316,0,1.82530056715078,1.82375465805408,1.82668119036921,1.94644539321876,1.82295739675893
2.01404731742828,1.89314555882834,1.88838143645488,1.88689386355051,1.88734110769169,1.88730221689681,0,1.8826061534144,1.88364648217758,1.88362703678014,1.8807880087535,1.88052549588803,1.87589749129667,2.08919405584557,2.00520938429058,1.87365154789204,0,1.87352515280866,1.87355432090482,1.98496672555274,1.98552091937985,1.97902615663399,1.91956213125424,1.86926661076871,1.86833323169146,1.86788598755028,0,1.91752036452275,1.92876952694335,1.92061218271614,1.86995692237792,1.91983436681843,1.91887181964502,1.87117225971809,1.9223233776911,1.92230393229365,0,1.92105942685732,1.87105558733344,1.87218342038511,1.87507106190535,2.11599953622033,2.10984506792971,1.93734494721558,1.93692687117056,2.00525799778419,0,2.00613304066911,2.0014855906803,1.9275152988083,2.00150503607775,2.00144669988542,1.99571030763982,1.99501999603061,1.92071913240208,1.98825299772055,0,2.0257145558939,2.11569813255997,2.11072983351336,1.98726128245097,1.98176795767341,1.9806692927179,2.11301466771287,1.98109709146164,1.97498151396591,0,1.97589544764572,2.09550408731573,1.97282307484977,1.97413563917715,1.97081047621445,1.97067435843236,1.97123827495819,1.96793255739294,1.96832146534179,0,1.96420876378266,1.96434488156476,1.96431571346859,1.96261424119236,1.8911718509879,1.96379068773764,1.96455878093663,2.0083595386763,1.96559910969981,0,1.96564772319342,2.00894290059958,1.970966039394,1.89687907513733,1.97432037045286,2.09082746923076,1.97847196280688,2.07396830964794,2.09859590550912,0,2.09356927027018,2.08267012500355,1.97541903540837,2.06290387850305,2.06196077672708,2.0591898075915,2.05497987904515,2.07167375274971,1.96915761743183,0,1.96816590216225,1.96584217716785,1.96572550478319,1.96597829494995,1.9653657649305,2.05056577382566,2.0593745388672,2.04696837529876,1.96611441273204,0,2.05058521922311,2.06291360120177,2.04248621118822,2.03567059938456,2.05479514776945,2.04923376410084,2.04539329810591,2.04971989903691,2.04883513345326,0,2.04702671149109,2.0621066172079,2.03539836382036,2.03481500189708,2.05278254913413,1.95820013597287,2.04470298649669,2.05020603397297,2.03834434153293,0,2.04950599966504,1.95392214853547,2.03916104822552,2.04095002479025,1.9523373486439,1.95223039895796,2.04024026778359,2.02867997900391,1.94958582490575,0,1.94876911821316,2.03029394699165,2.03183985608835,1.9464162251226,2.0254423203297,2.03825683724444,2.03039117397887,1.94171043894146,1.93974645379975,0,1.93754912388873,1.93740328340791,2.03230654562697,2.03069257763923,1.93405867504776,2.01477651983238,1.93155021877766,2.00606498177806,1.92845840058427,0,1.92817644232135,1.9266985921157,1.92611523019242,1.92636802035918,1.92719444975049,1.92489017015353,1.92521101921134,1.99767429278154,1.85991337459877,0,1.90596979844179,1.85468256268669,1.85311720819255,1.85139629051887,1.84879060726155,2.04257371547672,1.84477513268963,2.04182506767517,1.8420722224451,0,1.93522539889432,1.83930125330952,1.83752199944351,1.83315650771763,1.83364264265369,2.04557802938161,1.83233980102503,1.95177343211806,1.83016191651145,0,1.93218219419454,1.878328165977,1.87697671085474,1.82785763691449,1.93372810329124,2.02895221456811,1.8752752385785,1.82410467520805,1.93414617933626,0,1.82710898911295,1.94138958988366,1.82873267979941,1.87337931232784,1.82609782844593
1.93979506729336,1.94510366079521,1.93725744292709,1.93592543320226,1.88550351763336,1.88167277433715,0,2.0115485838569,1.881468597664,1.88079773145222,1.88042826890081,2.00454824077753,2.08583972478671,1.87509050730279,1.92415124505071,1.87704476974579,0,1.87317513565469,1.8718139578337,1.8732237491483,1.87379738837286,1.91823012152941,1.91881348345269,1.86988886348687,1.91847318899744,1.8690332659994,0,1.87026804873701,1.8714931087759,1.86928605616615,1.86999581317281,1.87057917509609,1.92061218271614,1.92103998145988,1.87195979831452,1.87345709391761,0,1.87279595040456,1.87301957247515,1.9241026315571,1.98098041907698,1.93875473853017,2.01167497894028,2.10699631720436,2.00977905268961,2.00472324935451,0,2.00417877822612,2.00566635113048,2.02777576802283,2.02909805504893,1.92662081052593,2.02879665138857,1.99849099947413,2.10199885006159,2.02553954731692,0,1.98829188851544,2.02568538779774,2.10055016795211,2.10215441324113,2.02350750328415,1.97877336646724,1.98132071353223,2.02615207733636,2.02520897556039,0,1.97527319492755,1.97400924409378,1.97314392390758,1.97066463573363,2.0184711453465,2.01623492464059,2.10746300674298,1.97104382098377,1.96469489871873,0,1.96489907539188,1.96474351221233,2.01589463018534,1.96634775750136,1.96337261169262,1.96488935269315,1.96580328637296,1.96528798334073,1.96451989014174,0,1.96485046189827,1.96795200279038,1.89495398079051,1.97029517318222,1.97319253740118,1.97411619377971,1.97888031615317,2.00482047634173,1.90602813463412,0,2.08913571965325,2.07563089112929,2.06970004490927,2.06241774356698,2.06992366697986,2.05911202600173,2.05517433301958,2.06195105402836,1.96904094504717,0,1.96804922977759,1.96625053051414,1.9650449158727,1.96598801764867,1.9659102360589,1.96416015028905,1.96438377235964,1.96374207424404,2.05622438448149,0,2.04687114831155,2.06516926730513,2.04621972749722,2.05836337820018,2.05487292935922,2.05207279212747,1.96335316629518,1.96364484725682,2.04282650564347,0,1.9609030462174,2.04831010772231,2.04022082238615,2.04324458168849,2.04367238043223,2.03826655994316,1.957986236601,1.95503053618971,1.95549722572833,0,2.03534975032676,2.03164540211392,1.95284292897741,1.95295960136206,2.03851935010991,2.04257371547672,2.03443581664695,2.03539836382036,1.94953721141215,0,2.04625861829211,1.9470579232382,2.0311787125753,2.02059069366775,2.03873324948178,1.94383970996144,1.94421889521157,2.03418302648019,2.02540342953482,0,1.93950338633172,1.93873529313273,2.03202458736405,2.02868970170263,1.9343017425158,2.02165046782838,2.01580712589685,2.00425655981589,2.00545245175861,0,1.92752502150702,1.92775836627633,1.92501656523691,1.92530824619855,1.92645552464767,1.92750557610958,1.92484155665993,1.99500055063317,1.86041895493228,0,1.85772576738647,1.85699656498237,2.03890825805877,1.85341861185291,1.84668078163902,2.03683732323112,1.84516404063849,1.84403620758681,1.84196527275917,0,1.83955404347627,1.83850399201437,1.83821231105273,1.83776506691154,1.83348707947415,1.88376315456224,1.832096733557,1.91436048743831,1.92447209410852,0,1.87869762852841,1.90092371780541,1.89925141362534,1.82984106745365,1.82832432645312,1.8274978970618,1.87740450959847,1.87710310593811,1.82706037561934,0,1.82331713661162,1.82281155627811,1.82701176212573,1.82495054999681,1.82191706799575
1.94073816906933,1.93807414961968,1.93525456699049,1.88703970403133,1.8881189235894,2.00493714872638,0,2.00445101379031,2.00536494747012,2.00865121963794,1.87895041869517,2.07560172303313,1.92434569902514,1.92487072475609,1.92406374076222,1.96734919546965,0,1.99817987311505,1.87246537864803,1.87145421798101,1.87247510134675,2.0518588927556,1.91965935824145,1.87161950385927,1.87145421798101,1.87190146212219,0,1.97148134242623,1.8713569909938,1.87128893210275,1.86812905501831,2.07259740912823,1.87175562164137,1.87171673084649,1.87139588178868,1.87104586463471,0,2.05217974181341,2.05238391848655,1.87433213680253,2.15615428193949,1.94131180829389,2.01223889546611,2.01178192862621,2.03043978747247,2.00897206869574,0,1.93128770591218,2.00460657696986,1.92785559326354,2.03120788067146,2.0325009996014,1.99513666841526,1.99466025617792,2.02500479888724,2.10584903875524,0,1.99423245743418,2.02393530202789,1.98768908119471,1.98620150829035,2.0989070318682,1.90685456402543,1.98164156259003,2.02189353529641,1.97769414690917,0,1.90095288590158,1.97440787474135,1.97330920978584,1.97214248593928,2.10980617713483,1.96801033898271,1.89341779439253,1.96861314630343,1.96678527894382,0,1.96515186555863,1.96562827779598,1.88800225120474,1.96426709997499,1.96484073919955,1.95877377519743,1.96443238585325,1.96503519317397,1.8908996154237,0,1.96385874662869,1.96581300907168,2.00639555353458,1.9696923658615,1.97134522464413,1.97554543049175,1.90243073610722,1.9800762080959,1.98141794051944,0,2.07605868987303,1.92365538741592,1.97432037045286,2.06461507347801,1.97212304054184,1.97152995591983,2.05690497339198,1.96880760027786,1.96865203709832,0,1.96721307768756,1.96802006168143,1.96508380666758,1.96566716859086,1.96479212570594,1.96438377235964,1.96520047905224,1.96387819202613,1.96556994160365,0,1.96484073919955,1.96479212570594,2.05220890990957,2.06890278361412,2.0621066172079,1.96246840071154,1.96248784610898,2.04346820375908,2.05114913574894,0,2.04550997049056,2.04791147707474,2.03878186297539,1.95960992728746,1.95876405249871,2.04610305511256,2.04165005909819,1.95586668827974,1.95603197415801,0,1.95554583922194,2.03700260910938,1.95422355219584,2.04609333241384,2.03822766914827,1.95151091925258,2.03987080523218,2.03945272918716,2.04276816945114,0,2.03885964456516,2.02969113967093,2.03414413568531,2.02826190295889,2.04180562227773,1.94363553328829,1.94180766592868,2.02937029061313,1.93963950411382,0,1.93812276311329,2.0231185953353,1.93665463560636,1.93482676824675,2.00852482455456,2.0056760738292,1.93123909241857,2.00469408125835,1.92775836627633,0,1.92733056753259,1.92682498719908,1.92723334054538,1.9259693897116,1.92429708553153,1.9239179002814,1.99645895544137,1.99507833222294,1.85933973537421,0,1.85855219677778,1.85708406927086,1.8534575026478,1.85065736541605,1.95454440125364,1.95116090209861,1.9582584721652,1.8432583916891,1.95502081349099,0,1.84019574159188,1.83999156491873,1.83855260550797,1.93347531312448,1.83676362894325,2.02637569940695,2.02590900986833,1.83157170782605,1.82979245396004,0,1.83114390908231,1.82919936933804,1.87828927518212,1.87809482120769,1.87845456106038,1.82808125898508,1.82825626756207,1.82952021839584,1.94731071340496,0,1.82851878042754,1.89418588759152,1.89447756855316,1.89475952681608,1.82642840020245
1.9396783949087,1.88617438384513,2.0096818257024,1.88443402077401,1.88813836898684,2.00924430425994,0,2.08322431883067,1.8813324798819,1.87961156220822,1.88072967256118,1.98517090222588,1.98597788621976,1.92549297747426,1.9250554560318,1.87501272571302,0,1.87153199957078,1.87215425228895,1.87225147927616,2.00100917844296,1.87410851473194,1.91946490426702,1.87105558733344,1.87234870626337,1.97337726867689,0,1.91850235709361,1.91807455834987,1.87036527572422,1.87016109905107,2.07238350975636,1.8723584289621,1.873408480424,1.87190146212219,1.86902354330067,0,1.87444880918719,1.97832612232606,1.87449742268079,1.87548913795037,2.01457234315924,2.01430983029376,2.10631572829387,1.93481704554803,2.02888415567706,0,2.00691085656682,2.02816467597168,1.92720417244921,1.92805976993669,1.9959728205053,1.99800486453806,2.02499507618852,1.99248237166434,1.98965306633642,0,1.98806826644485,1.98576398684789,1.98566675986067,1.98522923841821,1.98330414407139,1.90910050743007,1.97951229157006,1.90229461832512,1.97644964147284,0,1.97570099367129,2.01943369251991,1.9720160908559,1.97120910686203,2.10261138008103,1.96791311199549,1.89416644219408,1.96778671691212,1.96724224578372,0,1.96614358082821,1.964092091398,1.88813836898684,2.01401814933212,1.96525881524457,1.96352817487217,1.96110722289055,1.96387819202613,1.96229339213455,0,2.09727361848301,2.00965265760624,1.89525538445087,1.8960915365409,1.97218137673416,1.97148134242623,2.09354982487274,1.90531837762746,2.084468824267,0,2.08257289801634,1.92380122789674,2.06573318383096,2.05971483332245,2.05774112548202,2.06797912723559,2.0688444474218,2.05881062234136,1.96735891816838,0,1.96588106796273,1.96626025321286,1.9659588495525,1.96444210855197,1.96423793187882,1.96435460426348,2.06526649429234,1.96438377235964,2.03478583380092,0,2.04847539360057,1.96474351221233,2.05444513061548,2.05279227183285,1.96206004736524,2.0550479379362,2.05952037934802,1.96106833209566,2.05636050226359,0,2.04837816661336,1.95989188555038,2.05176166576839,2.05580630843647,1.95853070772939,2.04192229466239,2.03854851820608,1.95767511024191,2.04157227750842,0,1.95480691411912,2.0424764884895,2.03220931863976,2.03849018201375,1.95237623943878,2.0366914827503,2.03951106537949,2.0320440327615,2.02951613109395,0,2.05300617120472,2.02156296353988,1.94770934405253,2.03831517343677,2.03574838097433,2.02218521625805,2.03851935010991,1.94162293465297,2.02610346384275,0,1.9387644612289,2.04004581380917,2.03243294071035,2.02389641123301,2.022710241989,2.00507326650848,2.00470380395707,2.00965265760624,2.00469408125835,0,2.00254536484093,1.92708750006456,1.92694165958374,1.92440403521747,1.92515268301901,1.92309147089008,2.00888456440725,2.0066775117975,1.85848413788673,0,1.8581049526366,1.85735630483506,1.85380751980177,1.85338944375675,1.84903367472958,1.94899274028375,1.84577657065793,1.84308338311212,2.03994858682195,0,1.8393401441044,1.95693618513909,1.94135069908877,1.88544518144103,1.8371525368921,1.83597609034682,1.83694836021895,1.95420410679839,1.83244675071097,0,1.83338012978822,1.83192172498001,1.82899519266489,1.95186093640655,1.82843127613905,1.83061888335135,1.82928687362653,1.82835349454928,2.04552941588801,0,1.82972439506899,1.82801320009403,1.82796458660043,1.82934520981886,1.82772151913239
0,0,0,0,0,0,0,0,0,0,0,0,0,0,0,0,0,0,0,0,0,0,0,0,0,0,0,0,0,0,0,0,0,0,0,0,0,0,0,0,0,0,0,0,0,0,0,0,0,0,0,0,0,0,0,0,0,0,0,0,0,0,0,0,0,0,0,0,0,0,0,0,0,0,0,0,0,0,0,0,0,0,0,0,0,0,0,0,0,0,0,0,0,0,0,0,0,0,0,0,0,0,0,0,0,0,0,0,0,0,0,0,0,0,0,0,0,0,0,0,0,0,0,0,0,0,0,0,0,0,0,0,0,0,0,0,0,0,0,0,0,0,0,0,0,0,0,0,0,0,0,0,0,0,0,0,0,0,0,0,0,0,0,0,0,0,0,0,0,0,0,0,0,0,0,0,0,0,0,0,0,0,0,0,0,0,0,0,0,0,0,0,0,0,0,0,0,0,0,0,0,0,0,0,0,0,0,0,0,0,0,0
1.89033569889787,1.886981367839,2.00627888114993,2.01091660844001,2.01009990174742,1.8843367937868,0,1.8837923226584,1.88177972402308,1.88130331178573,1.98783492167553,1.98658069354048,1.98568620525812,1.92448181680724,1.87494466682197,1.87396267425112,0,1.92063162811358,1.92112748574837,1.92125388083175,1.87090002415389,2.07925745775236,1.87164867195544,1.87165839465416,1.91963019014528,1.87151255417334,0,1.87163894925672,1.87080279716668,1.87060834319225,1.8738654472639,1.87142504988485,1.87210563879534,1.87224175657744,2.05155748909524,1.98168045338492,0,1.87377794297541,1.87425435521276,1.87409879203322,1.87469187665522,2.0131431064472,2.012277786261,2.0117333151326,2.10351559106212,2.0050343757136,0,2.02628819511846,1.92758335769935,1.99908408409613,1.92707777736584,1.9991618656859,1.92244005007575,2.09900425885541,1.99354214582496,2.10540179461406,0,2.02438254616908,1.98769880389343,1.98752379531645,2.1035058683634,1.91005333190476,1.98091236018593,1.98027066207032,1.97856918979409,2.01886005329535,0,1.97509818635057,1.97185080497764,2.01903506187233,1.97175357799042,2.01836419566056,1.89366086186057,1.89379697964267,1.96705751450801,2.01811140549381,0,1.89066627065439,1.96439349505837,1.9639559736159,2.01541821794799,1.96427682267371,1.96447127664814,1.96287675405784,1.964092091398,1.96447127664814,0,1.96564772319342,1.96945902109219,1.96781588500828,2.00874844662515,1.97263834357407,1.97334810058073,1.97492317777358,1.9799400903138,2.07480446173798,0,2.08109504781069,2.0824659483304,2.04805731755556,2.05899535361707,2.06083294367541,2.05917036219405,2.04588915574069,1.96767004452746,1.96645470718729,0,1.96780616230956,1.96484073919955,1.96378096503892,1.96438377235964,1.96310037612843,2.03951106537949,2.06772633706884,2.05290894421751,2.04779480469008,0,2.05396871837813,1.96423793187882,2.04708504768342,1.96218644244862,2.05648689734696,2.05336591105741,2.0539978864743,2.05259781785842,1.96094193701229,0,2.04301123691918,2.04466409570181,2.05530072810296,1.95829736296008,1.95784039612018,2.0457530379586,2.04375988472072,2.02864108820903,2.04378905281688,0,2.04182506767517,2.04371127122711,2.04724061086296,1.95283320627868,2.04765868690798,2.04521828952892,2.04405156568236,1.94883717710421,2.04006525920661,0,1.94697041894971,1.94807880660395,1.94485087062846,2.02692017053535,2.02906888695276,2.03590394415387,1.94107846352458,2.02747436436246,1.93948394093427,0,2.02317693152763,2.04273900135498,2.03312325231957,1.93493371793268,1.93428229711835,2.02162129973221,2.02018234032145,2.0013008594046,1.92646524734639,0,2.00517049349569,1.9256485406538,1.92314008438369,1.92414152235199,1.9241901358456,1.92325675676835,1.99807292342911,1.9977034608777,2.04813509914533,0,1.85846469248929,1.85671460671945,2.03982219173857,1.85120183654444,1.95182204561166,1.94695097355227,1.94652317480853,1.84478485538836,1.84242223959907,0,1.96888538186763,1.95407771171502,1.88775918373671,1.83709420069977,1.83618998971869,1.83664695655859,1.83512049285934,1.88372426376735,1.83375931503835,0,1.83321484390995,1.94921636235434,1.95035391810474,1.95025669111753,2.04585998764453,1.94884689980293,1.82800347739531,1.92445264871107,2.04456686871459,0,1.9460078717763,1.82816876327357,1.88393816313922,1.88282005278627,1.88156582465121
1.8908510019301,1.93628517305495,2.01005128825381,2.00949709442669,1.8847937606267,2.1638546593268,0,1.88185750561285,1.88082689954839,1.88012686524045,1.87725866911765,1.98490838936041,1.98587093653382,1.92431653092897,1.98512228873228,1.99907436139741,0,1.87417657362299,1.87480854903988,1.87129865480147,1.96715474149523,1.86980135919838,1.87220286578255,1.87369043868692,1.87201813450685,1.87110420082704,0,1.87170700814777,1.87188201672475,1.98750434991901,1.87129865480147,1.87074446097435,1.98134015892967,1.98411112806526,1.87068612478202,1.87077362907052,0,1.87255288293652,1.97081047621445,1.97444676553624,1.87358348900099,2.01142218877352,2.01281253469067,2.00944848093309,2.00624971305376,2.0050343757136,0,2.02747436436246,2.02662848957371,2.00467463586091,1.999297983468,2.02820356676656,2.02493673999619,2.11508560254052,1.99326018756204,1.91584806034268,0,1.98888497313744,1.98592927272615,1.98622095368779,2.02327415851484,1.90814768295537,1.97838445851838,1.90484196539012,1.90450167093487,2.01919062505188,0,1.97444676553624,1.9731536466063,1.89752077325294,1.96810756596992,2.10836721772407,1.9685061966175,2.10864917598699,1.96763115373257,2.01828641407079,0,1.89095795161603,2.0144653934733,1.96453933553919,1.96449072204558,1.96196282037803,1.96310037612843,1.96256562769875,1.96389763742358,1.96434488156476,0,1.89006346333367,1.96685333783487,1.96895344075868,1.89454562744421,1.97132577924669,2.0024870286486,2.07961719760505,1.90407387219113,2.1020960770488,0,2.08929128283279,2.00183560783427,2.04636556797804,2.04565581097138,2.04405156568236,2.04425574235551,1.96826312914946,2.04238898420101,2.0476684096067,0,1.96566716859086,1.96484073919955,1.96206977006396,1.96410181409672,2.03945272918716,2.03968607395648,1.96004744872992,1.96183642529465,1.96213782895501,0,2.05993845539304,2.061649650368,2.04606416431768,2.04824204883126,2.06198022212452,1.96160308052534,1.96096138240973,1.96109750019183,2.05669107402011,0,2.05239364118528,1.95860848931916,1.95906545615907,2.04238898420101,1.95841403534474,2.04176673148284,2.04585998764453,2.04791147707474,2.03490250618557,0,2.04551969318928,1.95414577060607,2.04916570520979,2.03886936726388,2.04226258911763,2.03888881266132,2.02652153988777,1.94863300043106,2.0448002134839,0,2.03047867826736,1.94743710848834,2.02940918140801,2.03082869542133,2.01771277484623,2.02507285777829,2.02305053644425,1.94073816906933,2.03081897272261,0,1.93871584773529,2.01962814649434,2.02553954731692,2.0287188697988,1.9335725401117,1.93167661386103,1.93086962986716,2.02423670568826,1.9267860964042,0,1.92560964985891,1.92480266586504,1.92399568187117,1.9268347098978,2.01392092234491,1.99954105093603,2.00982766618322,1.86354966392056,1.86224682229189,0,1.95414577060607,1.94151598496704,1.85456589030203,1.95515693127309,2.0417472860854,1.84820724533827,1.89479841761096,1.84221806292592,1.89097739701347,0,1.89076349764161,1.88927592473724,1.88761334325589,1.83745394055246,1.83798868898213,1.83636499829567,1.83494548428235,1.88241169943997,1.95008168254054,0,1.83198978387106,1.83388571012173,1.82828543565823,1.94981916967507,1.83003552142807,1.92718472705177,1.82707009831806,1.82688536704236,1.94871078202083,0,1.82988968094725,1.82774096452984,1.88357842328653,1.88136164797806,1.88142970686911
1.93704354355522,1.88500765999857,2.0115971973505,1.88402566742771,1.88070050446501,1.93190995863035,0,1.88161443814482,2.0752711512766,1.87788092183582,2.00444129109159,1.87867818313097,1.99221013610014,1.98457781760388,1.98579315494405,1.87403073314217,0,1.87342792582144,1.87516828889257,1.99739233451862,1.87089030145517,1.87321402644957,1.87209591609662,1.87133754559635,1.87173617624393,1.87285428659688,0,1.87291262278921,1.87098752844239,1.87045278001271,1.87219314308383,1.8721348068915,1.87175562164137,1.87159033576311,1.8741376828281,1.8700833174613,0,1.87212508419278,1.87150283147462,1.87379738837286,2.04457659141331,2.11014647159008,1.93764635087594,2.00871927852899,2.00839842947118,2.00613304066911,0,2.02658959877882,2.02565621970157,2.02652153988777,2.00218562498824,1.92174001576782,2.02363389836753,2.1100200765067,1.99097535336253,2.02329360391228,0,2.10984506792971,1.91314515009815,1.98517090222588,1.91402991568179,1.984538926809,1.98042622524987,1.98105820066675,1.97606073352398,2.10444897013937,0,1.97436898394647,1.97475789189532,2.01988093666109,1.97248278039453,1.89660683957314,1.96616302622565,1.96551160541132,1.89064682525695,1.96561855509725,0,1.96520047905224,1.96252673690387,1.96182670259593,1.96515186555863,1.96111694558927,1.9640434779044,1.96396569631463,1.96470462141745,2.00889428710597,0,2.00899151409318,1.96430599076987,1.96822423835458,1.89492481269434,1.9743398158503,1.97528291762627,1.97538986731221,2.00199117101381,2.08841623994787,0,2.00241896975755,2.04792119977346,2.04647251766398,1.97286196564466,2.0599190099956,2.06127046511787,2.06231079388105,2.04962267204969,2.04440158283633,0,1.96606579923844,1.96280869516679,1.96306148533354,1.96298370374377,1.96338233439135,1.96411153679545,2.05595214891729,2.06277748341967,1.96165169401895,0,2.05649662004568,1.96251701420515,1.96214755165373,2.05208251482619,2.05236447308911,2.03246210880651,2.05861616836694,2.05886895853369,2.03386217742239,0,2.04626834099083,1.95966826347979,1.95846264883834,2.05320062517915,1.95824874946647,1.95929880092838,2.05110052225534,2.04527662572125,2.05582575383391,0,1.95396103933036,1.95364019027256,2.04486827237495,2.03459137982649,2.04868929297244,1.95083033034209,1.94893440409142,2.04497522206089,1.94791352072568,0,2.03531085953187,2.03206347815894,2.03426080806996,2.03807210596873,2.04214591673298,2.02874803789496,2.03261767198606,1.94155487576192,2.02022123111634,0,2.02797994469597,2.02932167711952,2.02185464450153,2.02610346384275,1.93190995863035,1.9302959906426,2.01973509618027,1.92828339200728,2.00217590228952,0,1.92626107067324,1.92430680823025,1.92575549033973,1.92499711983947,1.92480266586504,2.01056659128604,1.92216781451156,1.99498110523572,1.86032172794507,0,1.86012727397064,1.90449194823615,1.9035585691589,1.85370057011583,1.89786106770819,1.89812358057367,1.89437061886723,1.92573604494229,1.8429375426313,0,1.84012768270083,1.83949570728394,1.97804416406314,1.88619382924257,1.83708447800105,1.83543161921842,1.83439129045524,1.83464408062199,1.95412632520862,0,2.02938973601057,1.95130674257943,1.95110256590628,1.83005496682552,1.95053864938045,1.83094945510788,1.82984106745365,1.94826353787965,2.04132921004038,0,1.82781874611961,1.82961744538305,1.9307043439889,1.88200334609367,1.8810602443177
1.89035514429531,2.01203471879297,1.88564935811418,1.88543545874231,1.88594103907582,1.88075884065734,0,1.93345586772704,1.88050605049058,1.93094741145693,1.87876568741946,1.88032131921488,1.99122814352928,1.9879127032653,1.87421546441787,1.87184312592986,0,2.08019083682961,1.87434185950125,2.07478501634054,1.99245320356817,1.87339875772528,1.87399184234728,2.07182931592925,1.8705402843012,1.87229037007105,0,1.99183095085001,1.91971769443378,1.92027188826089,1.92083580478673,1.92122471273559,1.92100109066499,1.87403073314217,1.87372932948181,1.87383627916774,0,1.98522923841821,1.92182752005631,1.92754446690446,1.92275117643484,1.9384922256647,2.00853454725328,2.10213496784369,2.01105272622211,2.01144163417096,0,2.00475241745068,2.00106751463529,2.00049387541073,1.92700971847479,1.99663396401835,1.99663396401835,1.99544779477435,1.9915101017922,1.91815233993964,0,1.98856412407963,2.02213660276444,1.98503478444378,1.98263327785961,1.90824490994259,1.97962896395472,1.98100958717315,1.97787887818487,1.90217794594047,0,1.97267723436895,1.97143272893262,1.97070352652852,1.97089798050295,2.10053072255466,1.9710146528876,2.09575687748248,1.96564772319342,2.01667244608305,0,1.96496713428292,1.9647726803085,1.88705914942877,1.96175864370488,1.96096138240973,1.96159335782662,1.8879828058073,2.01137357527991,1.96177808910232,0,1.89126907797512,1.96365456995554,1.96810756596992,1.9679617254891,1.97385368091424,1.97219109943289,1.9743398158503,2.00329401264247,1.98228326070564,0,2.09073024224355,2.04375988472072,2.07188765212158,2.06317611406725,2.07253907293591,2.04333208597698,2.05643828385336,1.96631858940519,1.96512269746247,0,1.96480184840466,1.96425737727627,1.96453933553919,1.96476295760978,1.9624975688077,2.04878651995966,2.05051716033206,2.05508682873109,1.96200171117291,0,2.0584606051874,2.0512658081336,2.04815454454277,2.04224314372019,2.03770264341732,2.03354132836458,1.9609030462174,2.03280240326176,2.05469792078224,0,2.06764855547907,2.0518588927556,1.958579321223,1.95752926976109,2.05636050226359,2.03893742615493,2.04051250334779,2.04296262342557,2.04785314088241,0,2.0430209596179,2.03748874404545,2.0375568029365,2.03895687155237,2.04616139130489,1.95048031318812,2.03175235179986,2.02747436436246,1.94861355503362,0,2.02323526771996,1.94663984719319,2.02706601101617,2.02856330661925,2.03288018485153,1.94150626226831,2.02780493611899,2.02034762619972,2.01956008760329,0,1.93763662817722,2.01862670852604,2.02534509334249,2.02133934146929,1.93315446406668,2.02220466165549,2.02855358392053,1.9292459391807,1.92527907810239,0,1.92439431251874,1.92427764013409,1.92389845488396,1.92444292601235,1.92334426105684,2.0026231464307,2.01438761188353,1.86416219394,2.05511599682725,0,1.85903833171385,2.06568457033736,1.85378807440432,1.90072926383099,1.89805552168262,1.89661656227186,1.89457479554037,1.89289276866158,1.84288892913769,0,1.95221095356052,2.03212181435127,1.94996501015589,1.94815658819372,1.9545735693498,1.84004017841234,1.83491631618619,1.94949832061726,1.83385654202556,0,1.83415794568592,1.83379820583323,1.88128386638829,1.88074911795862,1.88053521858675,1.88026298302255,1.83081333732578,2.03340521058249,1.82848961233138,0,1.83100779130021,1.94447168537833,1.8315522624286,1.92370400090953,1.83040498397948
1.89006346333367,1.88728277149936,2.00430517330949,2.1635824237626,1.88471597903693,1.99495193713956,0,1.8813324798819,2.00254536484093,1.92818616502007,1.92723334054538,1.88043799159954,1.87711282863683,1.98737795483563,1.87529468397594,1.87476965824499,0,1.87206674800046,1.87037499842294,1.87125004130786,1.87155144496822,1.87114309162193,2.17612470511314,1.86944161934569,1.87042361191655,1.87176534434009,0,1.86968468681373,1.87305846327003,1.87345709391761,1.92131221702408,1.87082224256412,1.87359321169971,1.87311679946236,2.04140699163015,1.98281800913532,0,1.98461670839877,2.03606923003213,1.96797144818782,1.97012016460524,2.0127347531009,2.03213153704999,1.93447675109278,2.10053072255466,2.02474228602177,0,2.00844704296479,2.02517980746423,2.0235755621752,1.9249193382497,1.92404429536478,1.99504916412677,1.99142259750371,1.99505888682549,1.99209346371548,0,2.1090186385384,1.91455494141274,1.91085059319991,1.9102088950843,1.90763237992314,1.90732125356406,2.10792969628161,1.97576905256234,2.01859754042987,0,2.01943369251991,2.08636475051766,2.09003020793561,1.96936179410497,1.97073269462468,2.01808223739764,1.9682825745469,1.96795200279038,1.96597829494995,0,1.89032597619914,2.01499041920425,1.88786613342264,1.96376151964148,2.10402117139563,1.88689386355051,1.89007318603239,2.08968019078164,1.96524909254584,0,1.96392680551974,1.96686306053359,1.96756309484152,1.96799089358526,1.96962430697045,1.97220082213161,1.97555515319047,1.97615796051119,2.09236365562873,0,2.08716201181281,2.10291278374139,2.05495071094899,2.05955927014291,2.05311312089066,2.04279733754731,2.05452291220525,1.9650449158727,1.9649574115842,0,1.96836035613667,1.96612413543077,1.96266285468597,1.96248784610898,1.96361567916066,1.96287675405784,2.05729388134083,2.0672985383251,1.95983354935805,0,2.06286498770817,2.04293345532941,2.04510161714427,2.0545909710963,1.95883211138975,2.05884951313625,2.04263205166904,2.03303574803107,2.04877679726093,0,2.04606416431768,1.95833625375497,2.04170839529052,2.04026943587976,1.95805429549205,2.03199541926789,1.95653755449152,2.04462520490692,2.03691510482089,0,2.04594749193302,2.03831517343677,2.03495111967918,2.03224820943465,2.03834434153293,2.04209730323937,1.94876911821316,2.03297741183875,2.03254961309501,0,2.02970086236965,2.03266628547966,2.03329826089655,2.02523814365655,2.0247131179256,2.03807210596873,2.03153845242799,1.93944505013939,2.01869476741709,0,2.03026477889549,1.93615877797157,2.02283663707238,2.01951147410968,2.01955036490457,2.0243922688678,2.02596734606066,2.01366813217815,1.9278361478661,0,1.92561937255763,1.92384984139035,1.92210947831923,1.92224559610133,1.92677637370547,1.9225081089668,2.01311393835103,1.86519280000446,2.0243922688678,0,1.85986476110517,2.02586039637472,1.85497424364833,1.85209632482681,1.8986388836059,1.84875171646667,2.0083595386763,1.84446400633055,1.95491386380505,0,1.84214028133615,1.94624121654561,1.94570646811594,1.94741766309089,1.83848454661692,1.83708447800105,1.94472447554508,1.928293114706,1.83494548428235,0,2.02515063936806,1.83205784276211,1.83297177644192,1.83298149914064,1.83267037278156,1.83049248826798,1.8325537003969,1.83081333732578,1.9405437150949,0,1.83025914349866,1.8314161446465,1.83083278272322,1.83093973240916,1.83028831159483
1.88796336040986,1.88540629064614,2.07694345545668,1.88536739985126,1.88383121345329,1.881468597664,0,2.15979057126127,2.07916023076514,1.98452920411027,1.92872091344974,1.87809482120769,1.87683087037392,1.87620861765575,1.87701560164962,1.87690865196369,0,1.92188585624864,1.92194419244096,1.87342792582144,1.87128893210275,1.87115281432065,1.87349598471249,1.8703555530255,2.07182931592925,1.87092919225006,0,1.87202785720557,1.87161950385927,1.87331125343679,1.87382655646902,1.9209135863765,2.039423561091,1.92162334338316,1.92172057037037,1.87401128774472,0,1.87356404360354,1.87335014423167,1.96720335498883,1.96773810341851,2.0112763482927,2.0144167799797,2.02542287493226,2.00547189715606,2.00398432425169,0,2.00484964443789,2.02506313507957,2.02306998184169,1.99937576505777,1.99942437855138,1.99416439854313,1.99344491883775,1.99300739739529,1.99087812637531,0,2.10275722056185,1.91345627645723,1.9852681292131,1.98642513036094,1.9835374888407,1.97963868665344,1.98075679700639,1.97545792620326,2.01953091950712,0,1.9003695239783,1.89839581613786,1.89900834615731,1.8950900985726,1.96742697705943,1.9649087980906,1.96467545332128,1.96544354652027,1.96640609369368,0,2.10075434462526,1.88951899220527,1.96191420688442,1.96112666828799,2.0120055506968,1.88713693101854,1.88767167944822,2.00803868961849,1.96203087926908,0,2.09360816106506,1.96592968145634,1.97156884671472,1.96775754881595,1.97329948708712,2.00287593659746,2.09274284087887,1.97819000454396,1.90730180816662,0,2.00147586798158,2.08827039946705,2.06446923299719,2.05967594252756,2.05238391848655,2.05202417863386,1.96420876378266,1.96454905823791,1.96489907539188,0,1.96259479579492,1.96182670259593,1.96267257738469,1.96208921546141,1.96173919830744,1.9619044841857,2.04910736901746,1.95980438126189,2.05155748909524,0,2.0525880951597,1.96083498732635,1.96116555908288,2.03440664855078,2.05190750624921,2.05831476470658,2.04945738617143,2.05826615121297,2.03154817512671,0,2.04656974465119,2.05990928729688,1.95784039612018,2.04567525636882,1.9565764452864,2.03613728892318,1.95437911537538,2.04816426724149,1.95263875230426,0,1.95215261736819,1.95248318912472,1.95226928975285,2.04514050793915,1.95100533891907,1.95056781747661,2.03726512197486,2.03884019916772,2.0410180836813,0,1.94581341780187,2.03940411569356,2.03123704876763,2.03111065368425,2.02275885548261,1.93901725139565,2.02553954731692,2.02767854103561,2.03414413568531,0,1.9350309449199,1.93486565904163,1.93445730569534,2.02066847525752,2.02897165996555,2.01638076512141,2.03069257763923,1.92515268301901,1.92709722276328,0,1.92518185111517,1.92431653092897,1.92261505865274,1.92108859495349,1.92289701691566,1.92300396660159,2.00923458156122,1.86373439519626,1.86361772281161,0,1.85854247407906,1.85766743119414,1.85379779710304,1.85373946091072,1.89780273151586,2.01449456156947,1.89466229982887,1.89128852337256,1.84324866899038,0,1.84168331449625,1.95390270313803,1.94538561905813,1.94396610504482,1.94079650526166,1.84013740539955,2.03444553934567,1.94957610220703,1.93118075622624,0,1.83547051001331,1.83472186221176,1.83413850028848,1.8344204585514,2.02145601385395,1.83278704516621,1.82972439506899,1.83352597026904,1.93412673393881,0,1.93149188258533,1.93162800036743,1.88009769714429,1.88004908365068,1.92928482997558
2.00593858669468,1.88426873489575,1.88378259995968,1.88412289441493,1.88215890927321,1.93132659670706,0,1.88152693385633,2.00445101379031,1.98393611948827,1.98789325786786,1.87785175373966,1.87781286294477,1.94741766309089,1.92377205980058,1.87441964109102,0,1.92103998145988,1.92076774589568,1.87252371484036,1.99333796915182,1.99281294342086,2.06900001060134,1.87044305731399,1.87034583032678,1.92082608208801,0,1.87100697383983,1.87233898356465,1.98132071353223,1.87282511850072,1.87191118482091,1.871629226558,1.92103998145988,1.94437445839111,1.87256260563524,0,1.87230009276977,1.87236815166082,1.87220286578255,1.92453043030084,2.01206388688913,2.01169442433772,2.00919569076633,1.93433091061196,2.02535481604121,0,1.92969318332188,1.99962855522453,1.99898685710892,2.10002514222115,1.92138999861385,1.99489360094723,1.99387271758149,2.0227977462775,2.09801254358584,0,1.91434104204087,1.98495700285401,1.98410140536654,1.98831133391288,2.01821835517974,1.97889003885189,1.97538986731221,1.975885724947,1.97496206856847,0,1.97204525895207,1.97117993876587,2.01835447296184,1.96884649107274,1.89409838330303,1.96425737727627,2.09213031085942,1.96467545332128,1.96432543616732,0,1.96386846932741,2.01188887831214,2.01207360958785,1.96148640814068,2.01016796063847,2.01120828940165,1.96282814056423,2.0925775550006,1.9639559736159,0,2.09261644579549,1.96494768888548,1.9659588495525,1.89448729125188,1.97223971292649,2.00509271190592,2.09272339548142,1.90473501570418,2.0011647416225,0,2.09016632571771,2.06821247200491,1.97179246878531,2.06964170871695,2.06308860977876,2.04705587958726,2.0439348932977,2.05496043364771,1.96403375520568,0,1.96313926692331,1.96215727435246,1.96172947560872,2.03589422145515,1.95919185124244,1.96096138240973,2.05134358972337,1.96127250876881,1.96201143387164,0,1.96053358366599,1.96045580207622,2.04797953596578,2.03251072230012,1.96074748303786,2.04818371263893,1.95923074203733,2.04665724893968,2.05636050226359,0,2.04271955595754,2.04270011056009,2.0458016514522,1.95636254591453,2.05219918721085,2.04890319234431,2.03888881266132,1.95451523315748,2.04735728324762,0,2.04318624549616,1.95195816339376,2.03013838381211,1.95189010450271,2.04125142845061,2.04576276065732,1.94870105932211,2.03182041069091,2.03268573087711,0,2.0268521116443,2.02632708591335,2.02977864395942,2.03198569656917,2.02529647984888,1.93972700840231,2.03495111967918,1.93928948695985,2.0216601905271,0,2.02542287493226,1.93412673393881,1.93398089345799,2.02214632546317,2.01875310360942,2.01968648268667,2.02077542494346,2.0127347531009,1.92393734567884,0,1.92454987569829,1.92421930394176,1.92258589055657,1.92149694829978,1.92087469558162,2.02056152557159,2.01870449011581,1.86219820879829,1.86101203955428,0,1.85995226539366,1.95499164539482,1.85323388057721,1.85082265129431,1.94096179113992,1.84781833738942,1.84503764555511,1.84324866899038,1.95148175115642,0,1.84165414640008,1.95127757448327,2.04291400993196,1.93965894951126,1.93792830913886,1.83764839452689,1.83695808291767,1.83680251973813,1.83690946942407,0,1.83475103030793,1.83408016409615,1.88401594472899,1.88321868343384,1.88118663940108,1.83166893481326,2.03220931863976,1.9476023943666,1.83388571012173,0,1.83143559004395,2.00125224591099,1.88084634494583,1.88026298302255,1.83179532989664
1.88712720831982,1.93483649094547,1.93378643948357,1.88451180236378,1.93197801752139,1.97063546763747,0,1.972152208638,1.88063244557396,2.00370236598877,2.0726265772244,1.8781434347013,1.87452659077696,1.92403457266605,1.92396651377501,2.0551840557183,0,1.87136671369252,1.92058301461998,1.87225147927616,1.87238759705826,2.06561651144631,1.86828461819785,1.87325291724446,1.92151639369723,1.87079307446796,0,1.87025832603828,1.87124031860914,2.06311777787492,1.87041388921783,1.97814139105035,1.92419985854432,1.87165839465416,1.96431571346859,1.97125772035564,0,1.87150283147462,1.87352515280866,1.87598499558516,1.87416685092427,2.01152913845946,1.93509900381095,2.00809702581082,2.00638583083586,2.10283500215162,0,2.10185300958077,2.00244813785372,2.10183356418332,2.09898481345797,1.99933687426289,2.0192489612442,2.0217088040207,1.99060589081112,1.98834050200904,0,2.11669957052826,1.9109380974884,1.98390695139211,1.98233187419925,1.98164156259003,1.98423752314863,2.01888922139151,1.98096097367954,1.97641075067795,0,1.972152208638,1.97316336930502,1.97335782327945,2.02084348383451,2.10650045956957,1.96780616230956,1.96544354652027,2.01278336659451,2.0125986353188,0,1.96180725719849,1.96185587069209,2.01362924138327,2.09202336117349,1.96167113941639,1.96222533324351,1.962312837532,1.96153502163429,1.96243923261537,0,1.96454905823791,1.96547271461643,1.96629914400775,1.96762143103385,1.96730058197605,2.00210784339847,2.00073694287876,1.99968689141685,1.98546258318752,0,1.98903081361826,1.97230777181754,2.06828053089596,2.07185848402541,2.04403212028492,2.04869901567116,1.9673686408671,2.04184451307261,1.96364484725682,0,1.96313926692331,1.96259479579492,1.96141834924963,1.9599891125376,1.95950297760153,1.96087387812124,2.04971989903691,1.96061136525576,1.96145724004452,0,1.96070859224298,1.9583070856588,2.03272462167199,2.03025505619677,2.0489420831392,2.04225286641891,2.04439186013761,2.03121760337018,2.04483910427879,0,2.03853879550736,2.03787765199431,2.04511133984299,2.05625355257765,2.05449374410909,2.05323951597403,2.03562198589095,2.04472243189413,2.03593311225004,0,1.95143313766281,2.04017220889254,1.95111228860501,1.95189982720143,2.03858740900096,2.03470805221115,1.94803991580906,1.94754405817427,2.03767347532116,0,2.0255784381118,2.02898138266427,2.03327881549911,2.02672571656092,2.03007032492106,2.03167457021009,2.02001705444319,1.93690742577312,1.93773385516443,0,1.93619766876646,2.01509736889019,2.02146573655267,2.03172318370369,2.02838829804227,2.00288565929618,2.01507792349275,2.01824752327591,1.92755418960318,0,1.92355816042871,1.92339287455045,1.92130249432536,1.92244977277447,1.92103025876116,2.00957487601646,2.0106832636707,1.86280101611901,1.86047729112461,0,1.90739903515383,1.95480691411912,1.95354296328534,1.85243661928206,1.8491309017168,1.84849892629991,1.96427682267371,1.93801581342735,1.8426166935735,0,1.84059437223946,1.95104422971396,1.84021518698932,1.84001101031617,1.83829981534122,2.02349778058543,1.90816712835282,1.88705914942877,1.94147709417215,0,1.83537328302609,1.92062190541486,1.88373398646607,1.9076129345257,1.83690946942407,1.83635527559695,1.83479964380153,2.01814057358997,1.83254397769818,0,1.8322814648327,1.88138109337551,1.82923826013292,1.88066161367013,1.83277732246749
1.93756856928617,1.88707859482621,1.88786613342264,1.8867091322748,1.93246415245746,1.88370481836991,0,2.00238980166139,2.00375097948238,1.87881430091307,1.88029215111871,1.99801458723678,2.07889771789967,1.87484743983476,1.87667530719437,2.05495071094899,0,1.87109447812832,1.87203757990429,1.94193406101205,1.87151255417334,1.87390433805879,2.07236406435892,2.07239323245509,1.92103025876116,1.86956801442907,0,1.8705402843012,1.97173413259298,1.87011248555746,1.87145421798101,1.87055972969865,1.87083196526284,2.05350202883951,1.87274733691095,1.8713569909938,0,1.962312837532,1.87197924371196,1.98067901541662,1.8716778400516,2.10235858991428,2.02780493611899,2.00621082225888,1.93329058184878,2.10337947328002,0,2.02249634261713,1.9275152988083,1.92480266586504,1.99800486453806,1.99520472730631,1.99580753462704,2.10807553676243,1.99130592511905,2.1169426379963,0,1.9860459451108,1.98583204573893,1.98224436991076,1.98309024469952,1.97917199711481,1.97854974439665,1.97680938132552,1.97539959001093,1.89852221122124,0,1.972152208638,1.97190914116997,1.96998404682314,2.11924691759326,1.96824368375202,1.96484073919955,1.8911718509879,1.8887120082114,1.96237117372433,0,1.96125306337137,2.10274749786313,2.01229723165844,2.01208333228657,1.95986271745422,1.95831680835752,1.96046552477494,1.88732166229425,1.88824531867278,0,2.00803868961849,2.00758172277859,1.96661999306555,1.9675047586492,2.00219534768696,2.00496631682255,1.97365922693981,2.00142725448798,2.00138836369309,0,1.99819931851249,1.92197336053713,1.97208414974695,2.04979768062668,2.06752216039569,2.04530579381741,2.04236953880357,2.03604006193597,2.03645813798099,0,1.96267257738469,1.96287675405784,1.96262396389108,1.96093221431357,1.96025162540307,1.96022245730691,2.06167881846416,2.05841199169379,2.06619987336959,0,1.95995994444143,1.95826819486392,2.04614194590745,2.02919528203614,2.03812071946234,2.04515995333659,2.04689059370899,2.0421556394317,2.04676419862562,0,2.0533172975638,2.04246676579078,2.04173756338668,2.03840267772526,2.03506779206384,2.03320103390934,2.03895687155237,2.0493990499791,2.03534002762803,0,2.02720212879827,2.02610346384275,2.03683732323112,2.04655029925375,2.03665259195542,2.02194214879002,2.01931702013525,2.01813085089125,2.04171811798924,0,2.025850673676,2.02483951300898,2.02200048498235,2.02305053644425,1.94180766592868,1.94106874082585,2.02555899271436,2.01608908415977,1.93702409815777,0,2.02274913278389,1.93368921249635,2.01848086804522,2.01267641690857,2.01996844094958,2.00893317790086,2.00150503607775,1.92647497004511,1.92759308039807,0,1.92310119358881,1.92198308323585,1.92373316900569,1.92234282308854,1.92182752005631,2.03132455305612,2.02157268623861,1.86421080743361,1.86187735974048,0,1.85709379196958,1.85671460671945,1.85368112471839,1.85200882053832,1.84959759125542,2.03964718316159,1.95650838639535,1.93811304041456,1.84285003834281,0,1.84170275989369,1.94625093924433,1.84023463238677,1.94538561905813,1.83845537852076,1.83945681648906,1.88702025863389,1.88566880351162,1.88475486983181,0,1.8345565763335,1.83348707947415,1.8377456215141,1.83559690509668,1.8837923226584,1.83579135907111,1.83722059578315,2.03660397846181,1.93372810329124,0,1.94475364364124,1.83353569296776,1.88020464683022,1.83274815437133,1.83153281703116
0,0,0,0,0,0,0,0,0,0,0,0,0,0,0,0,0,0,0,0,0,0,0,0,0,0,0,0,0,0,0,0,0,0,0,0,0,0,0,0,0,0,0,0,0,0,0,0,0,0,0,0,0,0,0,0,0,0,0,0,0,0,0,0,0,0,0,0,0,0,0,0,0,0,0,0,0,0,0,0,0,0,0,0,0,0,0,0,0,0,0,0,0,0,0,0,0,0,0,0,0,0,0,0,0,0,0,0,0,0,0,0,0,0,0,0,0,0,0,0,0,0,0,0,0,0,0,0,0,0,0,0,0,0,0,0,0,0,0,0,0,0,0,0,0,0,0,0,0,0,0,0,0,0,0,0,0,0,0,0,0,0,0,0,0,0,0,0,0,0,0,0,0,0,0,0,0,0,0,0,0,0,0,0,0,0,0,0,0,0,0,0,0,0,0,0,0,0,0,0,0,0,0,0,0,0,0,0,0,0,0,0
1.936353231946,1.93534207127898,1.88703970403133,1.88269365770289,1.93467120506721,1.88203251418984,0,1.88137137067678,2.00270092802047,2.00467463586091,1.87967962109927,2.06984588539009,1.99819931851249,1.87784203104094,1.92414152235199,1.92273173103739,0,1.92224559610133,1.87371960678308,2.05865505916182,1.98846689709242,2.06832914438956,1.87175562164137,1.87006387206386,1.92105942685732,1.97171468719554,0,1.87051111620504,1.8706764020833,1.87037499842294,1.87055000699993,1.87022915794212,1.87160005846183,1.874001565046,2.05813975612959,1.87079307446796,0,1.92209975562051,1.96842841502772,1.87686003847008,1.93075295748251,2.02638542210567,2.02561732890669,2.00518021619442,2.02468394982944,2.00139808639181,0,1.92799171104564,1.99958966442964,1.99949243744243,2.02171852671943,1.99274488452981,1.99279349802342,1.99365881820962,2.11043815255172,1.98956556204793,0,1.98905998171442,1.98789325786786,1.98359582503303,1.98217631101971,1.98145683131433,1.97855946709537,2.01753776626925,1.97493290047231,1.90131262575427,0,1.97186052767636,1.97047990445793,1.97093687129783,1.96862286900215,1.9665519341745,1.96774782611723,1.88987873205796,1.96454905823791,1.96319760311564,0,1.9614475173458,1.96046552477494,1.88810920089068,1.95878349789615,1.96078637383275,1.96094193701229,1.95875432979998,1.96015439841586,1.95950297760153,0,1.89014124492344,2.10299056533117,1.96465600792384,1.89200800307794,1.8943122826749,1.89620820892556,1.97281335215105,1.97565238017769,1.98252632817368,0,1.99804375533295,2.07582534510372,2.07658371560399,2.07172236624331,2.05907313520684,2.05256864976226,2.05274365833924,1.96433515886604,1.96223505594223,0,1.96182670259593,1.96110722289055,1.96026134810179,1.96030023889668,1.96108777749311,1.95969743157595,2.05583547653263,1.95869599360766,1.95715980720968,0,2.04066806652733,2.05500904714132,1.95863765741533,2.05656467893673,2.06219412149639,2.04940877267782,2.06082322097668,2.02800911279214,2.04685170291411,0,2.05195611974282,2.04060000763628,2.05515488762214,2.03947217458461,2.03199541926789,2.03511640555744,2.0360983981283,2.03392051361472,2.0271243472085,0,2.02588956447088,2.03438720315334,2.02864108820903,2.01270558500474,2.02565621970157,2.02217549355933,2.02867025630519,1.94583286319931,2.04541274350335,0,2.0267159938622,2.03058562795329,2.03125649416507,2.03805266057129,2.02169908132198,2.01794611961554,2.02848552502948,2.02449921855373,2.02476173141921,0,2.01110133971572,2.02137823226418,2.02244772912353,2.00796090802872,2.01696412704469,2.01218055927379,2.00814563930443,2.00847621106095,1.92445264871107,0,1.92384984139035,1.92223587340261,1.92050523303021,1.91951351776063,1.91879403805525,1.9197274171325,1.9942421801329,1.86393857186941,2.0463461225806,0,2.02101849241149,1.85676322021306,1.90271269437014,1.85263107325648,1.8502684574672,1.8478572281843,1.93790886374142,1.93723799752964,1.84262641627222,0,1.84381258551622,1.8432583916891,1.84021518698932,1.84131385194484,1.84074021272028,1.83978738824558,1.83759978103328,1.90156541592102,1.88527989556277,0,1.88430762569063,1.83799841168086,1.83670529275092,1.83515938365422,1.83741504975758,1.83623860321229,1.83515938365422,1.83541217382098,1.83368153344858,0,1.93637267734344,1.93630461845239,1.8323689691212,2.01980315507132,1.83234952372375
1.88814809168556,1.96447127664814,1.97254111658685,1.93254193404723,1.93177384084825,1.93172522735464,0,1.87777397214989,1.8772781145151,2.00543300636117,1.87724894641893,1.8749543895207,1.99515611381271,1.87576137351457,1.87441964109102,1.87517801159129,0,1.92110804035093,1.87176534434009,1.87291262278921,1.87253343753908,1.87217369768639,1.87089030145517,1.87079307446796,1.9199121484082,1.92051495572893,0,1.91849263439489,1.8715417222695,2.06631654575424,1.86845962677484,1.8706277885897,1.98113598225652,1.87492522142453,1.8724070424557,1.92413179965327,0,1.87165839465416,1.9692840125152,1.87399184234728,1.87690865196369,1.93474898665698,2.00903040488807,2.01107217161955,2.00536494747012,2.00547189715606,0,2.09968484776591,2.02261301500179,1.99813125962144,1.99650756893497,1.99498110523572,2.01681828656387,1.99200595942699,2.10705465339669,1.99044060493285,0,1.98673625672002,1.91129783734109,1.98270133675066,1.98113598225652,1.97819000454396,1.97799555056953,2.1129368861231,1.97665381814598,1.97384395821551,0,1.96940068489986,1.96921595362415,1.96880760027786,1.96825340645074,1.96738808626454,2.01354173709477,1.96291564485272,1.96584217716785,1.96155446703173,0,1.96240034182049,1.96151557623685,1.96420876378266,1.9604460793775,1.96125306337137,1.95902656536418,1.95914323774884,2.00560801493815,1.96092249161484,0,1.8876619567495,1.88850783153825,1.96653248877706,1.96790338929677,1.96805895247631,2.10240720340788,1.99960910982708,1.9014195754402,2.09248032801339,0,1.98201102514145,2.07424054521214,2.05259781785842,2.06334139994551,1.96935207140625,2.05775084818074,2.058509218681,2.05614660289172,1.9632267712118,0,1.96295453564761,1.96511297476375,1.96013495301842,1.96061136525576,1.95873488440254,2.06191216323347,2.03733318086591,1.95881266599231,1.95849181693451,0,2.05307423009577,2.0287674832924,2.06203855831685,2.06190244053475,1.95838486724857,2.05184917005688,2.0462100047985,2.05894674012346,2.05944259775825,0,2.05555351826971,2.03288018485153,2.03288990755025,2.02775632262538,2.05268532214692,2.02828134835634,2.02666738036859,2.04310846390639,2.02607429574659,0,2.02524786635528,2.03243294071035,2.02807717168319,1.94810797470011,2.02559788350924,2.0213879549629,2.0489906966328,1.94456891236554,2.02777576802283,0,2.025257589054,2.0346886068137,2.03051756906225,2.02929250902336,2.01827669137207,1.93890057901099,2.02862164281158,2.0385582409048,2.00669695719495,0,2.01554461303137,2.01703218593574,2.01497097380681,2.00346902121946,2.00945820363181,1.92713611355816,2.00493714872638,1.92538602778832,1.92512351492285,0,1.92381095059546,1.92221642800516,1.92094275447267,1.92046634223532,1.92037883794683,2.01970592808411,1.99338658264542,1.86174124195838,2.05232558229423,0,1.85774521278391,1.85557705096905,1.85090043288408,1.95399993012525,1.89731659657979,1.84877116186411,1.95442772886898,1.84428899775357,1.84314171930445,0,1.84682662211984,1.93384477567589,1.84299587882363,1.84187776847067,1.84028324588037,1.83965127046348,1.88702998133261,1.9420021199031,1.84016657349572,0,1.83710392339849,1.94654262020597,1.94191461561461,1.94048537890257,1.88391871774178,1.83763867182817,1.83564551859029,1.92770975278272,1.83495520698107,0,1.95977521316573,1.95792790040867,1.93476843205442,1.83373014694218,1.83493576158363
1.88728277149936,1.97065491303491,1.970966039394,1.96212810625629,1.93068489859146,1.93140437829684,0,1.88048660509314,1.88017547873406,1.88072967256118,1.99174344656151,1.99509777762038,1.99459219728687,2.06808607692153,1.87729755991254,1.87312652216108,0,1.87443908648846,1.87383627916774,1.87046250271143,1.98979890681724,1.87071529287819,1.86888742551858,1.98507367523867,2.06631654575424,2.1518762945021,0,1.87023888064084,1.87072501557691,2.05860644566822,1.98076651970511,1.87059862049353,1.87263066452629,1.8732237491483,1.94107846352458,1.92209003292179,0,1.87582943240562,1.95928907822966,1.87544052445676,1.87585860050178,2.0115485838569,2.0066775117975,2.09595133145691,1.93260999293828,2.00268148262303,0,1.99962855522453,1.99966744601941,1.99904519330125,2.01896700298129,1.99530195429353,1.99300739739529,1.9175884234138,2.09221781514791,1.99107258034974,0,2.01579740319813,1.98204991593633,1.91017972698814,1.98231242880181,2.01863643122476,1.97879281186468,1.97790804628104,1.9010987263824,1.97549681699814,0,1.97045073636176,1.97047990445793,2.09459987633464,1.89440950966211,2.01472790633878,1.9648212938021,1.89183299450095,1.96216699705118,1.9619044841857,0,1.96219616514734,1.96225450133967,1.96088360081996,2.01266669420985,1.95923074203733,1.88578547589628,1.962312837532,1.9617683664036,1.96034885239029,0,1.96337261169262,1.88733138499297,1.96506436127014,2.00287593659746,1.89322334041811,1.89575124208566,2.08544109413913,1.90090427240797,1.98123320924374,0,2.07902411298305,1.9209135863765,2.05740083102677,1.96844786042517,2.05191722894793,2.05190750624921,2.03838323232782,2.04663780354224,1.96202115657036,0,1.96166141671767,1.9639073601223,1.95965854078107,1.95982382665933,1.95808346358821,2.04860178868395,2.0493990499791,1.95781122802401,1.95760705135087,0,2.05638967035975,2.0654317801706,2.06935975045403,2.05568963605181,2.0495351677612,2.04704615688854,2.04598638272791,2.04432380124656,2.04525718032381,0,1.95391242583675,2.04968100824202,1.95559445271555,2.02688127974046,2.03876241757795,2.04244732039334,2.04152366401481,2.02491729459875,2.03598172574364,0,2.04613222320873,1.94881773170677,2.0645178464908,2.022117157367,2.04194174005983,2.03321075660806,2.04049305795035,2.04193201736111,1.94445223998088,0,2.04260288357288,2.02951613109395,2.01713913562167,2.01552516763393,2.0330454707298,2.02579233748367,2.02463533633583,2.02242828372608,2.03505806936511,0,2.02509230317573,2.01648771480734,2.01829613676951,2.02574372399006,2.00149531337903,2.02511174857318,2.00588997320107,2.02064902986008,1.92546380937809,0,1.92193446974224,1.91967880363889,1.92321786597346,1.92108859495349,2.02183519910408,2.02174769481559,1.92024272016473,1.85895082742536,1.86065229970159,0,1.86022450095786,1.85401169647491,1.8535936204299,1.93528373508665,1.84895589313981,1.84859615328712,2.04140699163015,1.84692384910705,1.84370563583029,0,1.84287920643897,1.95187065910527,2.03009949301723,1.84090549859854,1.84038047286759,1.8384748239182,1.9414090352811,1.9401353617486,2.03863602249457,0,1.83849426931564,1.8871174856211,1.94103957272969,1.93796719993374,1.88490071031263,1.93526428968921,1.84037075016886,1.83711364609721,1.88320896073512,0,1.95823902676775,1.83644277988544,1.83564551859029,1.83473158491048,1.83343846598054
1.88737999848658,1.88622299733874,1.88577575319755,1.88340341470955,1.9984326632818,1.87834761137445,0,1.94453974426938,1.88141998417039,1.87964073030438,1.99131564781777,1.87779341754733,1.87840594756677,1.87739478689975,1.87404045584089,1.99775207437131,0,2.06640405004274,1.8710847554296,1.99101424415741,1.86929577886487,1.87024860333956,1.86776931516562,1.8689457617109,1.86992775428176,1.86883881202497,0,1.8705402843012,1.87090002415389,1.97081047621445,1.92069968700463,1.92084552748545,1.97724690276799,1.87256260563524,1.87127920940403,1.96699917831569,0,1.92321786597346,1.92233310038982,1.87478910364243,2.01120828940165,2.00898179139446,2.00996378396532,2.09540686032851,2.09280117707119,2.00295371818723,0,1.92780697976994,1.99932715156416,1.99746039340967,2.01805306930148,2.01717802641656,2.01580712589685,1.99109202574718,1.98944888966328,1.91445771442553,0,1.98501533904634,1.90878938107098,1.90769071611547,1.97844279471071,2.08972880427525,1.97873447567235,2.09523185175153,2.01376535916536,1.97325087359351,0,2.01469873824261,1.96981876094488,1.97105354368249,2.0935789929689,2.01248196293415,2.01183054211982,2.01218055927379,2.0102749103244,1.88828420946766,0,1.96120444987776,1.88696192244156,1.95949325490281,1.95813207708182,1.95799595929972,1.9590362880629,1.95926963283222,1.88530906365893,1.96154474433301,0,1.96123361797393,1.95967798617851,2.00127169130843,1.89072460684672,1.89423450108513,1.97170496449682,1.97162718290705,1.97264806627279,1.99637145115288,0,1.99686730878766,2.06189271783603,1.96825340645074,1.96825340645074,2.05023520206914,2.04124170575189,2.03918049362297,2.03952078807821,2.03665259195542,0,1.9620406019678,1.96079609653147,1.95916268314628,1.95939602791559,1.95767511024191,1.95823902676775,2.05606882130195,1.95734453848539,1.95776261453041,0,2.03569976748072,1.95766538754319,2.06366224900332,2.06263164293885,1.95740287467772,1.95746121087005,2.03998747761684,2.05273393564052,2.03576782637177,0,1.95474857792679,1.95586668827974,1.95517637667053,2.0362345159104,2.03232599102442,2.03153845242799,1.95096644812419,2.0217963083092,2.03160651131904,0,2.04552941588801,2.03140233464589,2.03970551935392,2.03598172574364,2.05236447308911,1.94585230859676,2.0320440327615,2.03603033923725,1.94418972711541,0,1.94184655672356,1.94184655672356,2.04202924434832,2.0359622803462,2.00797063072744,2.02622985892613,2.03178151989602,2.02701739752256,2.03694427291706,0,2.02164074512966,1.93144326909172,1.92934316616791,1.93063628509785,2.01534043635822,2.00891373250341,1.92443320331363,2.00899151409318,1.92033022445322,0,1.92008715698519,1.92078719129312,1.92061218271614,1.92136083051768,1.92002882079286,1.91852180249105,2.01623492464059,1.86116760273383,1.86063285430415,0,1.85788133056601,1.85384641059665,1.91062697112932,1.94545367794918,1.84782806008814,1.84706968958787,1.95110256590628,1.93040294032854,1.89128852337256,0,1.94738849499473,1.84092494399598,2.02775632262538,2.0200656679368,1.83763867182817,2.02955502188883,1.94525922397475,1.83990406063024,1.8374247724563,0,1.83905818584148,1.94516199698754,1.83639416639183,1.94803019311034,1.83685113323174,1.83625804860974,1.94782601643719,1.94669818338551,1.83383709662812,0,1.91908571901689,1.92531796889727,1.8356066277954,1.83379820583323,1.94159376655681
1.88809947819196,1.99626450146694,1.88761334325589,1.99894796631403,1.88212001847833,1.87920320886192,0,1.92872091344974,1.92805976993669,1.98711544197015,1.98839883820137,1.87728783721382,1.87705449244451,1.87537246556571,2.06847498487038,1.87347653931505,0,2.06225245768872,1.98970167983003,1.87230009276977,1.86899437520451,1.86853740836461,1.98520979302077,2.06540261207444,1.86826517280041,2.05984122840583,0,2.06549011636293,1.91725785165728,1.91780232278567,1.9437327602755,1.92040800604299,1.98710571927143,1.87378766567413,1.92169140227421,1.96834091073923,0,1.87491549872581,1.92444292601235,1.87496411221942,1.8752752385785,2.01104300352339,1.93290167389992,2.0219810395849,2.09410401869985,2.00188422132788,0,2.01654605099967,2.01855864963499,1.99971605951302,1.99645895544137,1.9214580575049,1.99024615095843,2.10252387579254,2.10588792955013,2.01870449011581,0,2.01657521909583,1.98664875243153,1.98162211719259,1.90705874069858,2.01510709158891,2.09964595697102,2.01526265476845,1.97779137389638,1.97216193133672,0,2.01437788918481,1.97036323207327,1.9692840125152,1.96606579923844,2.0124625175367,1.96435460426348,2.09957789807997,1.96156418973045,2.01265697151113,0,1.96064053335193,2.09528046524514,1.95759732865214,1.95860848931916,1.95867654821021,2.00799979882361,2.00569551922665,1.95925991013349,1.95960992728746,0,1.88640772861444,1.88699109053772,1.89006346333367,2.00269120532175,1.89132741416744,1.97130633384924,1.96921595362415,1.99659507322347,1.99507833222294,0,2.00111612812889,2.08057002207974,2.05742027642421,1.96787422120061,1.96732002737349,2.03939439299484,2.04186395847006,2.04776563659391,2.03834434153293,0,2.0372845673723,1.95962937268491,1.95820013597287,1.95966826347979,1.95727647959434,1.95581807478614,1.95850153963323,1.9571209164148,2.05454235760269,0,2.0405611168414,2.04376960741944,1.95592502447207,1.95633337781837,2.05287005342262,2.03876241757795,2.0424278749959,1.9565278317928,1.95604169685673,0,2.04252510198311,1.95433050188177,2.03751791214161,2.04080418430943,2.04221397562403,1.95183176831039,2.03981246903985,1.95110256590628,2.03547614541013,0,2.03499001047407,2.04196118545727,2.04112503336724,2.04138754623271,1.94624121654561,2.02353667138032,1.94531756016708,1.94435501299367,2.03657481036564,0,2.030177274607,2.04004581380917,2.03946245188588,2.02558816081052,1.93799636802991,1.93752967849128,2.02535481604121,1.93464203697104,1.93436980140685,0,2.01665300068561,2.01816001898741,2.02778549072155,2.01552516763393,1.92807921533414,2.00770811786197,1.92462765728806,2.02387696583557,1.92181779735759,0,1.92256644515913,1.92449153950596,1.92056356922253,1.919046828222,1.91893015583735,1.91816206263836,1.91683977561226,2.01176248322877,1.85781327167496,0,1.85939807156654,1.85338944375675,2.04371127122711,1.84884894345388,1.94625093924433,1.94492865221823,1.8468071767224,1.89467202252759,1.89237746562935,0,2.02116433289231,1.94839965566175,1.83995267412385,1.84019574159188,1.83983600173919,1.84080827161133,1.83941792569417,1.83950542998266,1.83946653918778,0,1.83738588166141,2.03848045931503,1.94803019311034,1.94710653673181,1.94466613935275,1.83524688794272,1.83652056147521,1.83649139337905,2.02867997900391,0,2.0453446846123,1.88354925519037,1.83272870897389,1.94011591635116,1.93983395808824
1.88702025863389,1.88665079608248,1.88723415800576,1.99366854090834,1.88072967256118,1.99661451862091,0,1.88045743699698,1.92762224849423,2.00108696003273,1.98753351801517,1.87620861765575,1.92461793458934,1.8732237491483,1.87184312592986,1.95887100218464,0,1.98828216581671,1.87351543010994,1.91853152518977,1.98714461006632,2.0636525263046,1.86713733974873,1.95856959852428,1.87046250271143,1.86772070167201,0,1.92128304892791,1.87024860333956,1.86990830888432,1.8682165593068,1.97393146250401,1.98647374385454,1.87307790866748,1.8729515135841,1.92275117643484,0,1.95807374088949,1.95229845784901,1.95358185408023,2.01827669137207,2.01846142264778,2.01945313791735,2.01458206585796,2.09623328971983,2.09543602842468,0,2.00272037341791,1.9977034608777,1.99846183137796,1.99493249174212,1.99831599089714,1.99163649687558,2.01449456156947,1.98834050200904,1.98768908119471,0,1.98522923841821,2.10449758363297,2.01478624253111,1.90566839478143,1.90388914091542,2.10397255790202,1.97570099367129,1.97390229440784,1.89883333758032,0,2.11947053966385,1.96647415258473,1.96840896963028,1.96765059913002,2.01234584515205,1.89078294303905,1.96430599076987,1.96077665113402,1.96093221431357,0,1.88402566742771,1.95820013597287,1.95747093356877,1.95847237153707,2.00952626252286,1.95747093356877,2.09041911588446,1.95880294329359,1.95938630521687,0,1.95864738011405,1.88708831752494,2.00296344088595,2.00204950720614,1.96754364944408,1.89422477838641,1.9692840125152,1.90106955828623,1.99628394686438,0,1.99641034194776,2.06291360120177,2.04172784068796,2.05454235760269,2.05989956459816,2.05382287789731,2.0522672461019,2.04536413000974,1.96083498732635,0,1.95855987582556,1.95982382665933,1.95732509308795,1.95821958137031,1.95792790040867,1.9569847986327,2.06614153717726,2.04536413000974,2.04859206598523,0,2.03856796360352,2.05945232045697,2.03920966171913,1.9559833606644,2.04202924434832,2.04353626265013,2.04864067947884,2.04472243189413,2.04268066516265,0,2.03599144844236,2.04237926150229,2.05461041649374,1.95223039895796,2.04605444161896,2.04145560512376,2.03323992470422,1.94908996727097,2.03212181435127,0,1.94757322627044,2.03832489613549,2.02979808935687,2.02994392983769,2.04319596819488,2.02480062221409,2.03146067083822,1.94442307188472,2.02746464166374,0,2.03845129121886,2.02971058506837,2.03200514196661,2.04550024779184,1.9380838723184,2.02804800358702,2.02766881833689,2.03660397846181,1.931433546393,0,2.03517474174977,2.03459137982649,2.01471818364006,2.00804841231721,2.01304587945999,2.01030407842057,1.92400540456989,1.92401512726861,1.92262478135146,0,1.92174973846654,1.91980519872227,1.91971769443378,1.9199996526967,1.92021355206857,2.01217083657506,2.02255467880946,1.86161484687501,1.85563538716138,0,2.03573865827561,1.85539231969335,2.04818371263893,2.0531325662881,1.85012261698638,1.84995733110811,1.84692384910705,1.89754994134911,1.84524182222826,0,1.84284031564409,1.84306393771468,2.0561854936866,1.84296671072746,1.84190693656684,1.84011796000211,2.049262932197,1.94781629373847,1.83926236251463,0,1.83750255404607,1.83705530990489,1.88821615057661,1.83589830875705,1.83395376901278,1.93909503298542,1.83927208521335,1.8373372681678,1.83823175645017,0,1.83629693940462,1.83661778846242,1.83666640195603,1.88463819744716,1.83112446368486
1.94976083348274,1.88528961826149,1.88399649933155,1.88371454106863,1.99499082793444,1.88137137067678,0,1.92798198834692,1.92964456982827,1.8788726371054,1.9939213310751,1.97847196280688,1.87661697100205,1.87300984977643,1.87445853188591,1.87423490981532,0,1.92139972131257,1.87197924371196,1.87397239694984,1.98825299772055,2.06218439879767,1.86711789435129,1.98465559919365,1.98488894396296,1.86972357760861,0,1.92034966985066,1.86844990407611,1.8688971482173,1.8686249126531,1.97412591647843,1.87099725114111,1.91983436681843,1.92060246001742,1.87211536149406,0,2.04491688586856,1.8740890693345,1.8741376828281,2.03940411569356,2.00802896691977,2.00792201723384,2.00555940144455,2.02199076228362,2.00084389256469,0,2.00003690857082,1.99778124246747,1.99568113954366,1.99850072217285,2.01656549639711,1.99133509321522,1.98951694855433,1.98913776330419,2.01170414703644,0,1.98136932702584,1.90886716266075,1.90777822040396,1.98496672555274,2.01184998751726,1.97500095936336,1.97808305485802,1.90035980127958,1.9692353990216,0,2.01201527339552,2.0150098646017,2.01499041920425,2.01055686858732,2.0108193814528,1.96467545332128,1.96412125949417,1.88699109053772,1.88737999848658,0,1.95896822917185,1.95766538754319,1.95755843785726,1.95794734580611,1.95770427833808,1.95596391526696,2.0798213742782,2.09898481345797,1.96106833209566,0,1.96130167686498,1.96128223146753,1.96299342644249,1.96456850363535,2.00115501892378,1.99789791485213,1.99800486453806,1.97631352369074,1.99514639111399,0,2.06938891855019,1.96817562486097,1.96711585070034,2.06662767211333,2.04501411285577,2.03761513912883,2.03721650848125,2.03591366685259,1.96172947560872,0,1.95947380950536,1.958579321223,1.95763621944703,1.95765566484447,1.95720842070329,2.04991435301133,1.95562362081171,2.04162089100202,2.03851935010991,0,2.05238391848655,2.05487292935922,2.02659932147754,2.04543218890079,2.04250565658567,1.95453467855492,2.04910736901746,2.0317717971973,2.03894714885365,0,1.9531151645416,2.03334687439016,2.0349608423779,1.95250263452216,1.94986778316867,1.9497900015789,1.95005251444438,2.03405663139682,2.04270983325881,0,2.03366772344796,2.03107176288936,1.9446855847502,2.0320926462551,2.03873324948178,2.02868970170263,2.02802855818958,1.94231324626219,2.03313297501829,0,2.03012866111339,2.02532564794505,2.04579192875348,1.9388130747225,2.01828641407079,2.03148983893438,2.02560760620797,2.02592845526577,2.0159237982815,0,2.02809661708063,2.01761554785902,1.92846812328299,2.03508723746128,2.01778083373728,1.92646524734639,2.00832064788141,2.01156802925434,1.92266367214634,0,1.92344148804405,1.92115665384454,1.92187613354992,1.91993159380565,1.91802594485626,2.01434872108865,2.01837391835928,1.85815356613021,2.04554886128545,0,1.85698684228365,1.85444921791738,1.85295192231429,1.85336027566058,1.85027818016592,1.89702491561815,1.84691412640833,1.84620436940167,1.84417232536891,0,1.8438028628175,1.84191665926556,1.89225107054597,1.89133713686616,1.88941204251934,1.84192638196428,1.8400693465085,1.83884428646961,1.83795952088597,0,1.83969016125837,1.83969988395709,1.83903874044404,2.05883006773881,1.84004017841234,1.83877622757856,1.83996239682257,1.83808591596935,1.83717198228954,0,1.8344204585514,1.83599553574426,1.94717459562286,1.83668584735347,1.83531494683376
1.93486565904163,1.88468681094076,1.93331002724622,1.93182245434185,1.93439896950301,1.94302300326884,0,1.88093384923432,1.92876952694335,1.92793337485331,1.97484539618381,1.97575932986362,1.87717116482916,1.8772781145151,1.87358348900099,1.87272789151351,0,1.87079307446796,1.87177506703881,1.8710847554296,2.06564567954247,1.86677759989604,2.06322472756086,1.86739012991549,1.86711789435129,2.05352147423695,0,1.86891659361474,1.86909160219172,1.86988886348687,1.86881936662753,1.8698985861856,1.91838568470895,1.87093891494878,1.92069968700463,2.04363348963734,0,2.04345848106036,2.05239364118528,2.04656974465119,2.00844704296479,2.12384575408845,2.01999760904575,2.09207197466709,2.00609414987422,2.01641965591629,0,2.00936097664459,1.92457904379445,1.99777151976875,1.99491304634467,2.01294865247277,1.98887525043872,1.99112119384335,2.09606800384157,1.98876830075278,0,1.98405279187293,1.98255549626984,1.98154433560282,1.90617397511494,1.90248907229955,1.97470927840171,1.97884142535829,2.01376535916536,1.97167579640065,0,1.9685061966175,1.96868120519448,1.96687278323231,2.00880678281748,2.00855399265072,2.01194721450447,2.00912763187528,1.96242950991665,2.08462438744654,0,2.00832064788141,1.95855987582556,1.95948353220409,1.95781122802401,1.9574417654726,1.95849181693451,1.95833625375497,1.95765566484447,1.88502710539601,0,1.88614521574897,2.00360513900156,1.96199198847419,1.96277952707062,2.07301548517325,2.08666615417802,1.96999376952186,1.97432037045286,2.07206266069856,0,1.99356159122241,2.06292332390049,2.0559132581224,2.0561854936866,2.03790682009047,2.03656508766692,1.9619044841857,2.03420247187764,1.96050441556983,0,1.96077665113402,1.95949325490281,1.95734453848539,1.95494303190122,1.95633337781837,1.95546805763217,1.95670284036978,2.05054632842822,2.02796049929853,0,2.02868970170263,2.02850497042693,2.04797953596578,2.03091619970982,2.0253937068361,2.03208292355638,1.95387353504187,2.03311352962085,2.02663821227243,0,2.03433858965974,1.95207483577842,2.0625635840478,2.03495111967918,2.04490716316984,2.0440710110798,1.94858438693746,2.04035694016825,2.03275378976816,0,2.03147039353694,1.94558007303256,2.02824245756145,2.02576316938751,1.94496754301311,2.02883554218345,2.04117364686084,1.9411367997169,1.94146737147343,0,2.01918090235315,2.02873831519624,1.93719910673476,2.02994392983769,2.02358528487393,2.00941931283692,2.02402280631639,2.02140740036034,2.017790556436,0,2.02447005045757,2.01919062505188,2.01586546208918,2.02039623969332,2.01556405842881,1.92452070760212,1.92387900948651,1.92366511011464,1.92273173103739,0,1.9237817824993,1.91951351776063,1.91862875217699,1.91871625646548,1.91825928962557,1.91944545886958,2.00623999035504,1.85804661644427,1.90582395796097,0,1.90409331758857,1.85392419218642,1.95764594214575,1.85085181939048,1.89737493277212,1.9410881862233,1.84659327735053,1.94710653673181,1.84637937797866,0,1.84349173645842,1.8435306272533,1.8911718509879,2.02280746897622,1.83937903489929,1.88942176521806,1.83945681648906,1.83969988395709,1.84063326303434,0,1.83772617611666,1.83854288280925,1.94515227428882,1.83969988395709,2.02605485034915,1.83759005833456,1.83721087308443,1.8380178570783,1.88422012140214,0,1.83701641911,1.93796719993374,1.83693863752023,1.88542573604359,1.88517294587683
1.88471597903693,1.88397705393411,1.8843367937868,1.93110297463647,1.93841444407493,1.94021314333838,0,1.9410006819348,1.96742697705943,1.96950763458579,1.8778711991371,1.87770591325884,1.87441964109102,1.87440019569358,1.99225874959375,1.98829188851544,0,1.9877279719896,1.86998609047409,1.91696617069564,2.06499425872814,2.0612412970217,1.86709844895385,1.8682165593068,1.86768181087713,1.86843045867867,0,1.86733179372316,1.9169953387918,1.9526581977017,1.95372769456105,1.86786654215283,1.96870065059192,1.93704354355522,1.92094275447267,1.8712208732117,0,1.87476965824499,2.04932126838933,1.96780616230956,2.00799007612488,2.01793639691682,2.01739192578843,2.00237035626395,2.01313338374848,1.99927853807056,0,1.99986189999384,1.99827710010226,1.99492276904339,1.99609921558868,1.99558391255645,1.98846689709242,1.98919609949652,1.99301712009401,2.01172359243388,0,2.01180137402365,2.01174303783132,1.981991579744,1.90484196539012,1.97894837504422,1.97587600224828,1.97476761459404,1.97437870664519,1.96929373521392,0,1.9670964053029,1.96861314630343,1.97111187987482,2.01130551638886,1.96316843501948,1.96388791472486,2.10509066825498,2.01217083657506,1.96113639098671,0,1.88470625633821,1.88397705393411,1.88477431522926,1.95728620229306,1.95715980720968,1.95802512739588,1.95692646244037,1.95741259737644,1.95715008451096,0,1.95811263168438,1.95736398388283,1.95881266599231,1.88818698248045,1.89182327180223,2.09669997925845,1.96998404682314,1.97390229440784,1.99411578504952,0,1.97901643393527,2.07916023076514,2.03964718316159,2.06464424157417,2.04065834382861,2.03632202019889,2.04370154852839,2.05284088532646,1.9588515567872,0,1.95872516170382,1.95766538754319,1.95724731149818,1.95605141955545,1.95497219999738,2.05565074525693,2.05440623982059,1.95570140240148,2.05223807800573,0,1.95537083064496,2.02473256332304,2.04132921004038,2.03703177720555,2.03281212596048,2.03595255764748,2.04307929581023,2.02592845526577,2.03233571372314,0,2.0313148303574,2.04107641987363,2.05590353542368,1.9491969169569,2.05244225467888,2.04153338671353,2.04130004194422,1.94654262020597,2.03514557365361,0,1.9444619626796,2.01975454157771,2.02466450443199,1.94504532460288,2.03239404991547,2.02775632262538,2.03023561079933,1.94193406101205,2.0349608423779,0,2.04208758054065,1.93772413246571,2.02610346384275,2.02726046499059,2.02837857534355,2.00788312643895,2.01859754042987,1.93406839774648,2.01523348667229,0,2.01980315507132,1.92945011585384,2.01204444149169,2.00848593375967,1.92662081052593,2.01404731742828,2.01231667705588,2.00336207153352,1.92242060467831,0,1.92140944401129,1.92060246001742,1.91766620500357,1.91790927247161,1.91792871786905,2.01315282914592,2.00584135970747,1.90679622783311,1.90560033589038,0,1.90384052742182,1.90124456686322,1.85165880338435,1.85056986112756,1.94558007303256,1.8472641435623,1.84672939513263,1.84596130193364,1.84497930936278,0,1.84328755978527,1.84326811438783,1.84243196229779,1.84042908636119,1.8396123796686,1.90955747426997,1.90762265722442,1.84064298573306,1.83968043855965,0,1.83796924358469,1.83654972957138,2.02823273486273,1.83792063009109,1.83796924358469,1.95506942698459,1.8351496609555,1.83672473814836,1.83772617611666,0,1.83413850028848,2.02811606247807,1.88423956679958,1.88308256565174,1.83427461807058
0,0,0,0,0,0,0,0,0,0,0,0,0,0,0,0,0,0,0,0,0,0,0,0,0,0,0,0,0,0,0,0,0,0,0,0,0,0,0,0,0,0,0,0,0,0,0,0,0,0,0,0,0,0,0,0,0,0,0,0,0,0,0,0,0,0,0,0,0,0,0,0,0,0,0,0,0,0,0,0,0,0,0,0,0,0,0,0,0,0,0,0,0,0,0,0,0,0,0,0,0,0,0,0,0,0,0,0,0,0,0,0,0,0,0,0,0,0,0,0,0,0,0,0,0,0,0,0,0,0,0,0,0,0,0,0,0,0,0,0,0,0,0,0,0,0,0,0,0,0,0,0,0,0,0,0,0,0,0,0,0,0,0,0,0,0,0,0,0,0,0,0,0,0,0,0,0,0,0,0,0,0,0,0,0,0,0,0,0,0,0,0,0,0,0,0,0,0,0,0,0,0,0,0,0,0,0,0,0,0,0,0
1.88212001847833,1.88667024147992,2.16927992521331,1.88195473260006,1.88153665655505,1.87983518427881,0,1.88185750561285,1.99633256035799,1.99741177991606,1.87838650216933,1.9256971541474,1.92529852349983,1.87370988408436,1.87300984977643,1.87144449528229,0,1.87076390637179,1.98527785191182,1.96540465572539,1.87047222541015,1.86965551871756,1.91648975845829,1.86861518995438,2.04490716316984,1.96524909254584,0,1.86745818880654,1.9744273201388,1.86688454958198,1.86767208817841,1.86768181087713,1.95130674257943,1.95204566768225,1.87205702530173,1.87178478973754,0,1.87307790866748,1.8739529515524,1.87389461536007,2.01165553354283,2.00571496462409,2.01562239462114,2.01415426711422,1.92873063614847,1.9242387493392,0,2.0918483525965,2.01131523908759,2.0050343757136,1.99571030763982,2.01194721450447,1.98921554489396,1.98820438422694,2.01210277768401,2.09610689463645,0,1.98328469867394,1.98274022754555,2.00844704296479,1.97941506458285,1.9038308047231,1.90400581330008,1.97424258886309,1.8986874970995,1.96929373521392,0,1.96648387528346,1.96757281754025,1.96771865802107,1.89199828037922,2.01130551638886,2.00934153124715,1.96292536755144,1.95953214569769,1.95815152247926,0,2.00864149693922,2.0064927805218,1.96172947560872,1.96151557623685,1.88195473260006,1.95539999874112,1.95755843785726,1.95802512739588,1.95788900961378,0,1.96012523031969,1.96169058481383,1.99956049633348,2.08593695177392,1.96508380666758,1.89104545590452,1.96859370090599,1.97364950424109,1.99468942427408,0,2.07877132281629,2.03893742615493,2.03840267772526,2.05939398426465,2.05833421010402,2.05250059087121,2.05848977328356,1.96052386096727,1.96047524747366,0,1.95753899245982,1.96136973575603,1.95689729434421,1.95599308336312,1.95391242583675,1.9543888380741,2.05637022496231,1.95376658535593,1.95469996443318,0,1.95416521600351,1.95430133378561,1.95487497301017,2.025850673676,2.03206347815894,2.0389665942511,2.02591873256705,1.95399993012525,2.02510202587446,0,2.02326443581612,2.03902493044342,2.03342465597993,2.03265656278094,2.03835406423165,2.02674516195836,2.03748874404545,2.03268573087711,2.03561226319223,0,2.03965690586031,2.02516036206678,2.02893276917067,2.03845129121886,2.02500479888724,2.03171346100497,2.01470846094134,1.94029092492815,2.02968141697221,0,2.03234543642186,2.0261229092402,2.03635118829505,2.0158751847879,2.03125649416507,2.02274913278389,2.03593311225004,2.0217963083092,2.01231667705588,0,2.01493208301193,2.0156029492237,2.00924430425994,2.0173335895961,1.9249193382497,2.00603581368189,1.92394706837756,2.02300192295064,1.92413179965327,0,1.92017466127368,1.91840513010639,1.92082608208801,1.91953296315807,1.92014549317752,1.98917665409908,2.00755255468242,1.85827023851486,1.85676322021306,0,1.85473117618029,2.04102780638002,1.85382696519921,2.04190284926494,1.84834336312037,1.94777740294358,1.84621409210039,1.84570851176688,1.95056781747661,0,1.94928442124539,1.89133713686616,1.8901704130196,1.8898495639618,1.84124579305379,1.84115828876529,1.91906627361945,1.88868284011524,1.840156850797,0,1.8383387061361,1.84035130477142,1.83877622757856,1.83769700802049,1.8866605187812,1.88529934096021,1.83919430362358,1.83631638480206,1.83725948657803,0,1.83696780561639,1.83605387193659,1.89670406656035,1.88380204535712,1.88335480121594
1.88495904650496,1.88409372631876,1.88104079892026,1.99277405262598,1.99444635680605,1.8807880087535,0,1.88237280864508,1.88057410938163,1.98792242596402,1.96762143103385,1.98715433276504,1.98724183705353,1.9916462195743,1.98573481875172,1.97914282901865,0,1.93067517589273,2.05570908144926,1.97007155111163,1.97146189702878,1.91622724559281,1.91536192540661,1.8672151213385,1.914720227291,1.94800102501417,0,1.97830667692861,1.86701094466536,2.04996296650494,1.86706928085768,2.05241308658272,1.95022752302136,1.91811344914475,1.87425435521276,1.87200841180813,0,1.8735445982061,1.87335986693039,1.87658780290588,2.0059483093934,2.00633721734226,2.00624971305376,2.01190832370959,2.01466957014645,2.09619439892494,0,2.01306532485743,1.92399568187117,2.00936097664459,1.99518528190887,1.99084895827915,2.01185971021598,2.09220809244919,1.98869051916301,1.98313885819312,0,1.98505422984123,1.9809901417757,1.97928866949947,2.09277200897503,2.00878733742003,1.9753412538186,1.9744759336324,1.89740410086829,1.97044101366304,0,1.96947846648963,1.96979931554743,1.96766032182874,1.96358651106449,2.09832366994492,1.88780779723032,1.88729249419808,1.95908490155651,1.88417150790853,0,1.95736398388283,1.9558472428823,1.96100027320462,2.00531633397651,2.00551078795094,1.95560417541427,2.0020300618087,1.957986236601,1.95876405249871,0,2.08860097122357,1.88558129922313,1.96098082780717,1.96138918115347,1.96335316629518,1.96792283469421,1.96902149964973,1.99481581935746,1.9923754219784,0,1.99082951288171,2.04605444161896,2.04720172006808,2.05641883845591,2.06186354973987,2.03489278348685,2.05114913574894,2.05177138846711,1.96225450133967,0,1.96128223146753,1.95695563053654,1.95630420972221,1.95591530177335,1.95583752018358,2.04601555082407,1.95506942698459,2.02989531634408,1.95471940983063,0,2.03575810367305,2.05160610258885,1.95286237437485,2.03686649132728,2.0508574547873,2.02329360391228,1.95144286036153,2.05093523637707,2.03666231465414,0,2.0551354422247,2.0565938470329,2.04243759769462,2.04127087384805,2.03506779206384,2.02659932147754,2.02317693152763,2.03990969602707,1.94622177114817,0,1.94435501299367,1.94271187690976,2.03294824374258,2.03232599102442,2.02583122827856,2.03095509050471,2.02302136834809,2.02292414136087,2.01226806356228,0,2.02915639124126,2.02556871541308,2.03035228318398,2.02365334376497,2.02802855818958,2.02840774343971,2.02629791781718,2.01825724597463,2.01962814649434,0,2.01635159702524,2.00992489317043,2.01964759189178,2.01313338374848,2.01257918992136,2.00131058210332,2.00565662843176,1.9216427887806,1.92087469558162,0,1.91903710552328,1.9183176258179,1.91837596201023,1.91885237424758,1.91734535594577,1.98863218297068,2.01156802925434,1.85666599322584,1.85565483255882,0,2.03230654562697,1.85079348319815,1.85170741687796,1.8494517507746,1.84881005265899,1.89814302597111,1.8442112161638,1.89860971550973,1.89488592189946,0,1.89428311457873,1.89145380925082,1.8911718509879,1.8900342952375,1.8902579173081,1.88829393216638,1.84029296857909,1.88732166229425,1.83978738824558,0,1.84285003834281,1.83771645341794,2.03172318370369,1.92434569902514,1.83744421785374,1.88490071031263,1.88503682809473,1.83425517267314,1.83714281419338,0,1.8349649296798,1.93232803467536,1.83565524128901,1.83405099599999,1.83535383762865
