1.97038586096881,1.87217805334682,2.01330379055404,2.01293447865996,2.10182202032356,2.00531499116113,2.00623827089632,2.0272112989862,1.92719580683005,2.00086381096412,1.99848272112073,1.99787044087529,2.11273615866691,1.99312769865663,1.99077576501541,1.98747139543684,1.98601358532865,2.02210896360753,2.09531046850696,1.90997421008526,1.90577571697366,1.90360843927948,2.10769213569256,1.97544932141127,1.97363191814305,1.89696082518611,2.01498513154549,1.96618736785721,1.96800477112543,1.96766461543351,1.96527380685608,1.96403952763114,2.01355647763946,1.96372852814139,1.96026865881794,1.96177506259641,1.96224156183103,1.96211521828832,1.9640686838333,1.96685796050698,1.96708149139024,1.89516285938601,1.97093982880992,2.08936260326553,2.00376971244645,1.97675163177459,2.0719563505737,2.08930429086121,2.05841815403561,2.04707639139386,2.04449120813533,2.06231536639151,1.96788814631677,2.04797051492688,1.96617764912316,1.96459349547225,1.96471012028091,1.96234846790563,2.04057455831131,2.03814487479766,2.05835984163128,2.04829123315069,1.96101700134015,2.05869999732319,2.04399555269854,2.04559914381756,2.06123658691145,1.96129884462774,2.04362624080447,1.96105587627637,2.05665906317172,1.9582860370708,1.95781953783618,2.05483194116945,2.04228505550493,2.05549281508516,2.04467586408237,2.04199349348329,2.03288703967411,1.9537668257354,1.9532322953624,2.03543334799642,2.04025384008751,2.04813573340581,2.03143894829997,1.94813967871777,2.03480163028287,2.03347988245144,2.02282814992757,2.02434427244009,2.01700662822885,2.04238224284548,2.03394638168606,2.04080780792863,1.93975241122863,1.93736160265119,2.02246855676755,1.93375595231693,1.93257998549632,1.93166642449518,2.01562656799309,2.01199176145666,1.92593237140295,1.92689452607436,1.92454259243314,1.92227812739841,1.92367762510228,1.92394003092176,2.00893036022945,1.86300356839925,1.8603795102045,1.8590091687028,1.90417212585465,1.85298355358893,2.04182827500436,1.84699681341129,1.89610557658931,1.89295670675561,1.89027433615653,1.88940936882567,1.88848608909048,1.88654234227956,1.88568709368275,1.83554814469494,1.83651029936634,1.83611183127011,1.9483048971967,1.83270055561693,1.83256449334017,2.03479191154881,1.8292795612297,1.82807443820693,1.82735525188689,1.82992099767731,1.82827853162208,1.8287450308567,1.827909219728,1.88178016259279,1.88301444181773,1.88122619475168,1.87963232236672,1.82650972202414,1.82625703493872,1.82660690936468,1.8292795612297,1.82957112325134,1.8098323743864,1.70752326099336,1.70576417012947,1.7062501068322,1.70482145292617,1.75027597209965,1.84332313193864,1.74678694657404,1.74614551012644,1.86257594410085,1.69393647078499,1.69179834929297,1.74516391798692,1.69143875613295,1.69092366322806,1.84732725036914,1.6917497556227,1.75876042692934,1.68698757593593,1.85348892775978,1.68772619972408,1.68801776174572,1.68675432631862,1.68847454224629,1.68493692305041,1.68428576786875,1.83913435756109,1.84109754184013,1.6854520159553,1.68581160911532
1.87090489918566,1.92278350156925,1.93852785073775,2.00961067161328,2.008493017197,2.00708380075908,2.00509146027788,2.00459580484109,2.00101931070899,2.00319630713723,1.99755944138554,1.99713181708714,2.11579755989412,1.99045504679161,1.99091182729218,2.02559798913314,1.98522636787022,1.98435168180531,1.98341868333606,1.98052250058778,2.02082609071232,2.10079183451377,2.10169567678085,1.97408869864362,2.01860050061381,1.97297104422734,2.1064189815314,1.9705802356499,1.96596383697396,2.01714269050561,1.96546818153717,1.96461293294036,1.96320371650244,1.96202774968183,1.96156125044721,1.96058937704175,2.01053395134847,2.0085999232716,2.00885261035702,1.96486562002578,1.96654696101723,1.9670037415178,1.96763545923135,1.97361248067495,2.00250627701935,1.97501197837881,2.097273652786,2.07881777681627,2.04410245877314,1.97196029588566,2.05949693351567,2.04406358383692,2.04445233319911,1.96502111977066,1.96503083850471,2.04258633626062,1.96209578082021,1.96296074815108,1.96343696611975,1.96265946739538,1.96048247096715,1.96189168740507,2.07476506471549,1.96331062257704,2.05423909839212,2.06191689829527,1.96159040664937,1.96082262665906,2.04444261446506,2.03554025407102,2.03849474922362,1.95926762921032,2.05251888246445,2.06534761141655,1.95784869403834,1.95788756897456,2.04809685846959,2.044432895731,2.04315002283579,2.04078837046052,2.04407330257098,2.03284816473789,2.03909731073501,1.95098726779578,1.95032639388006,2.03071004324587,1.94731358632313,2.04545336280674,2.03393666295201,2.02536473951583,2.02492739648337,2.04749429695821,2.02780414176354,2.0205734036269,2.03086554299074,1.93679791607602,1.94060765982544,1.93367820244449,2.03148754197024,1.93069455108972,2.02254630663998,1.9280218992247,1.92637943316947,1.92523262255102,1.92340550054875,1.92316253219739,1.92354156282552,1.92406637446447,1.92268631422871,1.8636158486447,1.85968948008663,1.85990329223583,1.90305447143836,1.90065394412687,1.89948769604032,1.8968150441753,1.89429789205515,1.92497021673155,1.84234153979912,1.95132742348769,1.97187282727917,2.03405328776066,1.9553509793863,1.95338779510727,1.83458599002353,2.05138179058006,1.83320592978777,2.03532644192182,1.94982101970922,1.83099977715737,1.83247702473368,1.83093174601899,1.82949337337891,1.82907546781456,2.05058485438758,1.94509771495867,1.93135542500543,1.82729693948256,1.88144000690088,1.87981697831376,1.82950309211296,2.03128344855509,1.82774400124907,1.82804528200477,1.82827853162208,1.82826881288802,1.83036805944382,1.86365472358091,1.7063570129068,1.85674470366807,1.7511020644943,1.74968312932232,1.74758388276652,1.74708822732974,1.69273134776222,1.85981582362934,1.85748332745623,1.69116663157942,1.74352145193169,1.84282747650185,1.68799832427761,1.84443106762086,1.68645304556293,1.68895076021497,1.68687095112728,1.6866085453078,1.6861809210094,1.68557835949801,1.68246836460053,1.84474206711061,1.6832458633249,1.84609297114421,1.68316811345247,1.68285711396272,1.89356898700105,1.84351750661973
1.92130625399295,1.92453287369909,2.01088382577443,2.01375085232055,2.00747255012126,2.00805567416454,2.02553967672881,2.00282699524315,2.00120396665603,2.02439286611036,1.99608219380924,1.92104384817348,1.99259316828363,1.9895803607267,2.02402355421629,2.02092327805286,1.98440027547558,1.9837102453577,1.98371996409176,1.90657265316614,1.9785495975747,1.97776238011627,1.90180075474532,1.89971122692357,1.8992350089549,1.96999711160663,1.89617360772769,2.02138005855343,1.96877255111574,2.01681225354776,2.01527669356712,1.96433108965278,2.01479075686439,1.96688711670915,1.89077971032737,1.96101700134015,1.8893607751554,1.96399093396087,1.96209578082021,1.96449630813171,2.09530074977291,1.9676257404973,1.9743511044631,1.97370966801549,1.97721813100921,2.00081521729384,1.91029492830906,2.08746745012488,1.97363191814305,2.05636750115008,2.05239253892174,2.04921451288588,2.06177111728445,1.96565283748421,1.96554593140961,1.96465180787658,1.96480730762145,1.96302877928946,1.96462265167442,1.96454490180198,2.06257777221099,2.06446320661758,2.05930255883458,2.05511378445703,2.04298480435686,2.06088671248548,2.05828209175884,2.03488909888936,2.03225532196056,2.03260519638652,2.0307683556502,2.06842845011187,1.95874281757137,2.04931170022642,2.04422880231585,2.03797965631873,2.04500630104022,2.04216843069627,2.04273211727144,2.03599703457159,2.04776642151174,2.03804768745711,1.9504041437525,1.95079289311469,1.95067626830603,2.03157501057673,2.03031157514963,1.94700258683338,2.02461639699362,2.03133204222537,2.02476217800444,1.94214321980607,2.03782415657386,2.02052480995662,1.93758513353445,1.93638001051168,2.03872799884094,2.01982506110469,1.93364904624233,2.02303224334272,1.92841064858688,1.92828430504417,1.92618505848837,1.92439681142232,1.99486735205241,1.92566024684942,1.92365818763417,1.99880343934453,1.997996784418,1.86517084609344,2.02435399117414,1.85907719984119,1.85386795838791,1.85328483434463,1.89940022743383,1.89637770114284,1.89418126724649,1.89186820854149,1.95607016570635,1.84170010335151,1.94639030658794,1.94876167769727,1.9473621799934,1.83985354388114,1.8346345836938,1.83309902371317,2.0356082852094,1.83390567863971,1.8328366178937,1.83284633662775,1.87994332185647,1.83056243412491,1.83265196194666,1.8305235591887,2.0326732275249,1.83009593489029,1.82973634173027,1.82941562350647,1.94349412383966,1.83023199716706,1.83029030957138,1.92553390330671,1.82944477970863,1.876123859373,1.83010565362435,2.02527727090933,1.70922403945292,1.70607516961922,1.70367464230772,1.70265417523199,1.86080713450291,1.74880844325741,1.69498609406289,1.69379068977417,1.69331447180549,1.69212878625083,1.6901850394399,1.85707514062593,1.68929091590688,1.84239013346939,1.68799832427761,1.68554920329585,1.68311951978219,1.85606439228425,1.68464536102877,1.68428576786875,1.68484945444392,1.68369292509141,1.84893084148816,1.68507298532717,1.83900801401838,1.68366376888925,1.68185608435509,1.6810397106945,1.88959402477271,1.68120492917343
1.87280977106037,1.96765489669946,2.01119482526418,2.01338154042647,2.02722101772026,2.10449467218859,2.00531499116113,2.00416818054269,2.0008249360279,1.92666127645705,1.99781212847096,1.99491594572268,1.99286529283716,1.99225301259172,1.99135888905869,2.10243430056901,1.98618852254163,1.98711180227682,1.98037671957696,1.98246624739871,2.11178372272955,1.97613935152915,1.97389432396253,2.01885318769923,1.97479816622961,2.01709409683534,1.9703664235007,2.01512119382225,2.09935346187369,1.96644977367669,1.96515718204742,1.9641755899079,1.88780577770666,2.01388691459731,2.09246287942896,1.887689152898,1.88647431114117,2.00824033011158,1.96351471599219,1.89022574248626,1.89230555157395,1.97051220451152,1.96897664453089,2.00228274613609,2.00352674409508,1.99910472010023,2.00165102842254,1.99963925047323,2.06139208665632,2.05661046950145,2.05474447256296,2.07176197589261,1.96496280736633,1.96547790027122,1.96519605698364,1.96358274713057,1.96308709169379,1.96534183799446,1.96084206412717,1.96159040664937,1.96024922134984,2.05249944499634,1.95806250618755,1.96022978388173,1.960812907925,1.96084206412717,2.05880690339779,2.05855421631237,2.03780471910575,2.03335353890873,2.03177910399188,1.95846097428378,1.95886916111408,1.95810138112376,1.95730444493128,1.95555507280145,1.95430135610841,2.04136177576974,2.03791162518035,2.05200378955955,1.95219239081855,2.03193460373675,2.03892237352203,2.03725075126463,1.94758571087666,2.03233307183299,2.03398525662228,1.94705118050365,1.94445627851107,2.03364510093037,2.02611308203803,2.02567573900557,2.02809570378518,1.94046187881462,1.93828488238638,1.93562194925541,1.93490276293537,1.93434879509426,1.93214264246386,2.01748284619752,2.01736622138887,1.92601984000944,1.92428018661367,1.92492162306127,1.92325971953793,1.92619477722243,1.92294872004818,1.92589349646673,1.92347353168713,1.865627626594,1.86243016309003,1.85801785782923,1.85375133357925,1.85212830499213,1.85013596451093,1.89733985581425,1.89469636015139,1.84609297114421,1.84321622586404,1.84128219778717,1.94551562052302,1.94423274762781,1.93741991505552,1.9447284030646,1.94388287320185,2.03934999782043,2.03789218771224,1.8360049251955,1.8332642421921,1.83205911916933,1.8817996000609,1.83236039992502,1.8301153723584,1.83289493029802,1.9339114520618,1.88247991144472,1.87936019781319,1.87983641578186,1.83191333815851,1.82991127894325,1.83008621615624,1.82788006352584,1.82918237388916,2.02456780332335,1.83048468425248,1.82888109313346,1.70568642025703,1.70564754532081,1.85833857605303,1.70126439626218,1.70016617931401,1.69606487354295,1.69355744015686,1.69375181483795,1.90937164857387,1.6895436029923,1.68805663668194,1.68646276429698,1.68512157899744,1.85697795328539,1.85607411101831,1.73562012114528,1.7348231849528,1.8525850854927,1.75571846317024,1.68167142840805,1.84909605996708,1.85034977666013,1.68124380410965,1.84669553265559,1.68203102156807,1.68083561727936,1.67925146362845,1.83983410641303,1.72941956881843,1.6796693691928
1.87275145865604,1.96637202380425,2.1096747574397,2.01133088754095,2.0265698625386,2.00749198758937,2.02485936534499,1.93038355159997,2.0225851815762,1.99843412745046,1.99891034541914,1.92065509881129,1.99303051131609,1.99235991866632,1.91426017180335,1.91397832851576,1.98335065219768,1.98467240002911,1.98147493652514,1.98049334438562,2.01829921985811,1.97624625760375,2.02091355931881,1.97155210905536,1.97194085841755,1.96854902023249,2.01533500597145,1.89339404978807,1.96351471599219,1.96431165218467,1.96421446484412,1.96411727750358,2.01733706518671,1.96140575070234,2.09176313057703,1.88713518505689,2.01004801464574,2.09256006676951,1.88985643059218,1.96432137091872,2.0073559253126,1.89386054902269,1.96871423871141,2.08916822858444,2.08803113670005,2.00084437349601,2.00029040565489,2.07745715404862,1.97081348526721,1.97149379665104,2.05102219742004,2.0448410825613,2.05456953534998,1.96528352559013,1.9637479656095,1.96098784513799,1.96177506259641,1.96069628311635,1.9612210947553,2.04206152462167,2.04532701926403,1.96029781502011,2.05932199630269,2.07186888196721,2.04843701416151,2.06433686307487,2.06228621018935,2.05026413616378,2.0452687068597,2.04785389011823,2.04825235821447,2.05530815913813,2.03772696923331,1.95703232037775,1.95713922645236,1.95569113507822,2.04164361905732,2.05416134851968,2.03724103253058,2.04487023876346,1.95108445513632,2.05858337251454,2.04532701926403,2.04870913871504,2.04093415147134,1.94785783543019,2.02849417188142,2.04120627602487,2.03461697433583,2.02494683395148,1.94286240612611,2.0288829212436,1.9392664745259,1.93869306921668,2.0283483908706,2.02245883803349,2.01455750724708,1.93365876497638,2.02414017902494,2.02416933522711,2.01705522189912,2.02150640209614,1.9238234061131,1.92396918712392,1.9233957818147,1.92107300437564,1.92040241172587,1.92198656537678,1.92187965930217,1.86629821924377,1.8605738848856,1.85650173531671,1.85366386497276,1.85265311663108,1.85028174552175,1.84713287568805,1.84524744128145,1.84470319217439,1.95269776498939,1.95328088903267,1.95100670526389,1.94120050260277,1.93880969402533,1.83947451325301,2.03480163028287,1.95106501766821,1.83653945556851,1.83631592468525,1.83542180115223,1.83336142953265,1.83289493029802,1.8322146189142,2.05993427654813,1.94898520858052,1.83313789864939,1.88076941425111,1.93058764501512,1.88153719424142,1.89775776137859,2.02014577932849,1.83051384045464,1.83088315234872,1.83001818501786,1.82762737644042,1.8305235591887,1.82967802932594,1.70523935849052,1.70407311040396,1.69866949426959,1.69897077502529,1.75726374188493,1.69506384393533,1.69365462749741,1.69200244270812,1.68940754071553,1.86426700382636,1.86070994716236,1.86094319677967,1.85992272970394,1.85746388998812,1.6815548035994,1.68102027322639,1.85593804874154,1.68153536613129,1.68183664688698,1.6796693691928,1.67900849527709,1.84694821974101,1.67858087097868,1.67807549680784,1.67908624514952,1.67909596388358,1.6782990276911,1.67908624514952,1.83755020391019,1.67864890211706
1.87204199107006,1.87331514523121,2.01062141995496,2.10912078959859,2.00718098809962,2.00571345925737,2.1014721458976,2.09878005656447,2.10206498867493,2.00064028008086,2.09857596314932,2.09462043838909,1.99308882372041,1.99056195286621,1.98854045618285,1.98434196307125,2.01796878290026,1.98517777419995,1.98057109425806,1.98000740768289,2.0183672509965,1.97584778950751,1.97828719175522,1.97213523309864,1.9746718226869,1.96995823667041,1.96791730251893,2.10562204533892,1.96698430404969,2.01522809989685,1.96282468587431,2.11587530976655,1.96191112487318,2.01330379055404,2.09258922297167,1.96123081348935,2.10214273854737,1.96207634335211,1.96250396765051,1.9645837767382,1.96720783493295,1.96691627291131,1.96803392732759,2.09427056396312,1.89974038312574,1.9029184091616,1.98567342963674,1.99097985843056,2.06227649145529,2.05862224745075,2.05711584367229,1.97014289261744,2.04094387020539,1.96475871395118,1.96361190333274,1.96325231017271,1.96225128056509,1.95989934692387,1.96360218459868,1.96069628311635,2.04859251390638,1.96091009526555,1.96116278235097,1.96064768944608,2.06097418109197,2.03186657259837,2.0301463566707,2.05800024847126,2.05067232299407,2.05015723008918,1.95692541430315,2.03757146948844,2.05201350829361,2.04466614534831,2.04011777781075,2.04041905856644,2.03785331277602,2.06502689319275,2.02819289112572,1.95101642399794,2.03807684365928,1.95224098448882,2.03596787836942,2.03451006826123,1.94781896049397,1.94756627340855,2.02503430255797,2.02662817494293,2.03371313206875,2.02641436279373,2.02749314227379,2.02823176606194,2.02107877779774,1.93660354139493,2.02236165069295,2.03070032451182,2.02396524181196,2.02340155523679,2.02228390082051,2.02837754707276,2.01351760270324,2.01717184670778,1.92698199468085,1.92358043776173,1.92351240662335,1.92281265777142,1.92547559090239,2.01038817033765,2.00877486048458,1.86244960055814,1.85936876186282,1.9068156215175,1.95412641889542,1.9522895781591,1.84960143413793,1.84720090682643,1.95387373181,1.95331004523483,1.84109754184013,1.83980495021086,1.95115248627471,1.84059216766929,1.83901773275244,1.88708659138662,1.90855527491328,1.88693109164174,1.94001481704811,1.93873194415289,1.91997478742747,1.88302416055178,1.83289493029802,1.83273943055315,1.83503305179004,2.02518980230284,1.83251589966989,1.88019600894189,1.88170241272035,1.88092491399598,1.83068877766762,1.83138852651956,1.83575223811008,1.83117471437036,1.82980437286865,1.82948365464485,1.82916293642105,1.83152458879632,1.70362604863745,1.70118664638974,1.85950482413959,1.69589965506402,1.69304234725196,1.69277994143249,1.692692472826,1.86283834992033,1.68964079033285,1.68610317113696,1.85696823455133,1.68284739522866,1.83900801401838,1.85686132847673,1.85436361382469,1.85253649182242,1.67773534111593,1.67928061983062,1.85120502525694,1.77204593638201,1.67727856061536,1.67696756112561,1.67794915326513,1.77538918089681,1.67815324668028,1.72474485773815,1.67798802820135,1.77235693587176,1.67835734009543,1.67655937429532
1.87113814880298,1.98028925097047,2.01078663843389,2.02687114329429,2.00672420759905,1.93313395333743,2.10404761042207,2.02227418208645,2.00043618666571,1.99849243985479,1.99464382116915,1.99546019482974,1.9942064781367,1.99068829640892,1.99066885894081,2.11459243687134,1.98236906005816,1.98218440411113,1.9803475633748,1.9779275985952,1.97739306822219,1.97532297786856,1.97365135561116,1.9717367650024,2.01770637708078,1.9692098941482,1.96782011517839,1.96529324432419,1.89109070981712,1.88877765111212,1.96125025095746,1.96046303349904,1.96139603196828,2.01244854195723,1.95986047198765,1.95786813150645,1.95987019072171,1.88684362303525,1.96180421879858,2.00741423771693,2.00715183189746,1.96662471088967,2.09483425053829,1.96577918102692,1.9731945751106,2.0010387481771,1.98373940155987,1.99720956695958,1.97189226474728,1.97100785994831,2.07454153383223,2.04490911369968,2.03534587938993,1.9639617777587,2.04388864662394,1.96394234029059,1.96325231017271,1.96096840766988,1.95935509781681,1.96016175274334,2.0607117752725,1.96025894008389,2.0656586109063,1.95939397275303,1.95779038163402,2.04476333268886,2.0368717206365,2.04477305142291,2.04683342304249,2.04163390032327,2.0543071295305,2.05383091156182,2.04245027398386,2.0384364368193,1.95570085381227,2.03387835054768,2.02865939036034,2.04879660732153,2.03508347357045,2.02725989265648,2.02462611572767,2.03691059557272,2.03667734595541,2.02154527703236,2.01933912440196,2.03168191665133,2.03219700955623,2.02439286611036,2.02336268030057,2.0214286522237,2.02368339852438,1.94088950311302,2.02609364456992,2.0156460054612,1.93675904113981,2.02114680893612,1.93317282827365,2.01647209785584,2.01942659300845,1.9292853346518,2.00121368539008,1.9263502769673,1.92396918712392,1.92306534485684,1.92159781601459,1.92333746941037,1.92058706767291,1.9206745362794,2.03220672829028,1.86445165977339,1.8600587919807,1.85734726517946,1.95171617284987,1.85313905333381,1.84977637135091,1.84907662249898,1.9564006026642,1.93826544491827,1.8429246638424,1.94663327493931,1.83906632642271,1.94619593190685,1.94424246636187,1.83847348364538,1.88697968531201,1.8858911870979,1.88574540608708,1.83341002320292,1.83537320748195,1.8359854877274,1.8838988466167,1.88280062966853,1.83683101759015,2.0360359095078,1.93297845359256,1.83652973683445,1.88027375881432,1.88018629020783,1.94450487218134,1.94077287830437,1.9381099451734,1.83031946577355,1.82905603034645,1.83040693438004,1.83163149487092,1.83039721564599,1.86113757146077,1.86019485425747,1.69914571223827,1.69540399962724,1.8129812442201,1.69273134776222,1.6916428495481,1.69096253816427,1.8592035433839,1.68551032835963,1.73200475207696,1.73100372246933,1.72954591236114,1.77685670973905,1.68048574285339,1.67920286995818,1.67737574795591,1.67696756112561,1.85505364394257,1.67553890721958,1.85254621055648,1.84761881239078,1.67612203126286,1.67649134315694,1.67446984647358,1.67796859073324,1.67380897255786,1.67416856571788,1.84248732080994,1.83970776287032
1.96827689567896,1.87345120750798,1.93092780070703,2.02532586457961,2.01077691969983,2.02380974206709,2.00075690488951,1.92852727339554,1.99995996869704,2.02146752715992,2.02076777830799,1.99194201310197,1.99269035562418,2.10970391364187,2.1119878161447,1.98723814581953,1.98751027037306,1.98113478083323,1.98135831171648,1.97905497174554,2.01781328315538,1.97462322901663,1.9009260686804,1.97043445463908,1.97069686045856,1.96890861339251,1.96644977367669,1.96635258633614,2.01456722598114,1.96358274713057,1.96355359092841,1.96058937704175,2.08493086053663,1.95784869403834,1.96041443982876,1.96092953273366,1.95870394263515,1.9599576593282,1.96109475121259,1.88952599363433,2.00801679922832,1.96474899521713,1.89313164396859,1.89548357760981,1.97258229486516,1.97562425862425,1.98312712131442,2.09783733936117,2.06862282479296,2.07180085082883,2.06070205653844,2.06098389982603,2.05275213208176,1.96424362104629,1.96246509271429,1.96115306361692,1.96160984411748,1.95957862870007,1.95979244084927,2.04740682835172,1.95826659960269,1.95884000491192,1.95744050720805,2.04550195647701,1.95835406820918,2.04678482937222,2.06203352310393,2.04880632605558,2.0518871647509,2.05150813412277,2.02741539240135,2.03721187632841,2.05389894270021,2.0419060248768,2.03215813462001,2.03482106775098,2.03457809939961,2.04890351339613,1.95162870424338,2.03344100751522,2.02443174104658,2.05035160477027,2.0422267431006,2.03364510093037,2.0284552969452,2.04696948531926,2.02820260985978,2.02449977218496,2.03796993758468,2.03142922956591,2.02190487019238,2.01896981250788,2.02827064099816,2.02512177116446,2.0461045179884,1.93310479713527,2.02128287121288,2.02104962159557,2.01824090745379,2.01873656289057,2.00826948631374,1.92486331065694,1.92368734383633,1.92327915700604,1.92220037752598,1.91918756996904,1.92087862969455,2.00859020453754,1.99414816573237,1.86400459800688,2.02199233879887,2.02014577932849,1.85482039432526,1.85230324220511,1.85043724526662,1.84953340299954,1.84695793847507,1.93668129126737,2.03759090695654,1.84437275521654,2.04533673799808,1.83968832540221,1.83996044995574,1.83944535705084,1.83740442289937,1.90150919272368,1.88509425090542,1.8842195648405,1.83708370467557,1.83556758216305,1.83704482973935,1.83639367455769,1.83574251937603,1.83699623606908,1.83338086700076,1.93610788595815,1.93696313455495,1.83408061585269,2.02129258994694,1.83240899359529,1.83088315234872,1.82944477970863,1.93358101510394,2.02430539750387,1.93241476701739,1.93168586196329,1.70201273878438,1.69876668161014,1.78662403746395,1.69472368824341,1.85990329223583,1.69117635031348,1.68705560707432,1.78109407778687,1.68490776684824,1.68374151876169,1.68026221197013,1.89701913759044,1.85650173531671,1.67901821401114,1.67729799808347,1.77193903030741,1.67457675254818,1.94062709729355,1.67307034876971,1.85000962096822,1.67203044422586,1.79831567453167,1.79576936620936,1.6738867224303,1.67476140849521,1.67259413080103,1.84571394051608,1.84274972662941,1.6747419710271,1.67481972089954
1.87421898749829,1.8736164259869,2.11479653028649,2.00670477013094,2.0046152423092,2.00460552357515,2.00370168130807,1.93020861438699,1.92539784102995,1.92313337599522,1.92165612841892,2.01687056595208,1.99443972775401,2.01777440821916,1.99045504679161,2.09246287942896,1.91073227134152,1.98120281197161,2.10825582226773,1.97686825658324,1.97672247557243,1.97353473080251,1.97647950722106,2.01412988294868,1.97024979869205,2.01727875278238,2.09414422042041,2.01358563384162,1.96335921624732,2.01230276094641,2.01268179157454,1.96121137602124,1.96195971854345,1.96068656438229,1.95999653426442,1.88659093594983,1.95972440971089,1.96086150159528,1.96129884462774,1.88717405999311,1.96505027597282,1.96642061747452,1.96728558480538,1.96961808097849,1.99940600085592,1.90035266337118,1.9820191856322,1.92057734893885,1.96870451997736,2.05717415607661,1.96900580073305,2.05212041436821,2.05843759150372,1.96471012028091,1.96125996969152,1.96078375172284,1.96202774968183,2.03136119842753,1.95918016060383,1.95769319429347,1.9596563785725,1.95838322441135,2.05206210196388,2.06392867624458,2.02867882782845,2.04436486459262,1.9575571320167,2.03803796872306,2.04525898812564,2.05095416628165,2.05214957057037,2.05404472371103,1.95531210445009,2.02732792379486,2.0359290034332,2.02727933012459,2.02730848632675,2.03540419179425,2.04363595953852,2.03232335309894,1.94939339541082,2.02677395595375,2.024684428132,2.02907729592469,2.04756232809659,1.9452629334376,2.0250051463558,2.04031215249184,2.0283483908706,2.03006860679826,2.02970901363824,2.02481077167471,1.93837235099287,1.93774063327932,2.02469414686606,2.02506345876013,2.03275097739734,2.01599587988717,2.00825976757969,2.00818201770725,1.92637943316947,1.92477584205045,1.92412468686879,1.92227812739841,1.92028578691722,1.92053847400264,1.91979985021448,2.017745252017,1.9928555741031,1.86029204159801,1.8599518859061,1.85635595430589,1.90397775117355,1.95367935712891,1.9528241085321,1.89595007684443,1.84599578380366,1.84331341320458,1.84559731570742,1.84340088181107,1.94803277264317,1.84062132387145,1.84070879247794,1.83776401605939,1.94288184359422,1.94128797120926,1.94790642910046,1.94680821215229,1.94368849852075,1.9408506281768,1.83531489507763,1.83677270518582,1.83617014367443,1.92733186910682,1.83383764750132,1.9589080360503,1.94353299877588,2.04092443273728,1.8336918664905,2.0147032882579,1.83300183637263,1.83449852141704,1.83297268017046,1.83138852651956,1.83128162044496,1.82953224831512,1.69851399452472,1.69744493377871,1.86014626058719,1.86268285017545,1.80155201297186,1.79945276641606,1.68594767139209,1.68553948456179,1.68483001697581,1.68096196082207,1.68003868108688,1.67837677756353,1.90335575219406,1.85735698391352,1.67382841002597,1.67366319154704,1.6739936285049,1.84940705945683,1.67207903789614,1.84752162505024,1.66942582349922,1.7656024157038,1.72023536513681,1.67314809864215,1.84824081137028,1.67194297561937,1.84058244893523,1.67162225739557,1.67359516040866,1.67259413080103
1.92321112586766,1.87479239280751,2.01207923006315,2.01818259504946,1.93357129636989,2.09809974518064,2.01876571909274,1.99999884363325,1.92361931269795,1.99785100340718,1.99368166649775,2.0166956287391,1.91866275833009,2.09917852466071,1.98985248528022,1.98776295745848,1.98074603147104,1.90771946378459,2.01821175125162,1.90172300487288,1.97720841227516,1.97648922595511,2.01714269050561,1.89785494871914,1.89635826367473,1.96698430404969,1.96680936683671,1.89095464754036,1.96345640358786,1.88956486857055,1.96060881450986,1.96078375172284,2.00992167110303,1.96109475121259,1.8851622820438,1.9591218481995,1.9599576593282,1.96134743829801,1.96052134590336,1.96200831221372,1.88868046377157,1.96434080838683,2.09575753027348,1.89379251788431,2.07506634547118,1.9983175026418,1.99825919023748,2.07729193556969,2.05842787276966,1.96797561492326,2.05486109737161,2.05470559762674,2.05069176046218,2.04415105244342,2.03757146948844,1.95983131578549,1.96025894008389,1.95847069301784,1.95759600695292,1.95726556999507,2.05405444244508,2.04592958077541,1.95766403809131,2.04837870175718,1.95645891506853,1.95573972874849,1.95696428923937,1.95646863380259,2.03970959098045,2.04448148940127,2.03913618567123,2.04921451288588,2.04027327755562,2.03928196668205,2.03706609531759,2.02407214788656,1.95092895539145,1.95132742348769,2.04068146438592,2.0338297568774,2.05565803356409,1.94734274252529,1.94639030658794,2.02872742149873,2.03313972675953,2.02380974206709,1.94350384257372,2.03251772778003,2.01810484517702,2.01645266038773,1.93993706717567,2.02229361955456,1.93726441531065,2.03599703457159,2.02754173594406,2.02843585947709,2.02680311215591,2.01739537759103,2.0088137354208,2.02448033471686,2.00330321321183,2.01780356442133,1.92332775067631,1.92060650514102,1.9221517838557,1.92122850412051,1.92091750463077,2.02020409173282,2.01199176145666,1.86120560259915,1.85954369907581,1.9048038435682,1.85397486446251,1.90127594310637,1.85096205690557,1.84938762198872,1.9363314168414,1.84582084659068,1.84515025394091,1.84175841575584,2.02885376504144,1.83971748160437,1.83997988742385,1.83995073122168,1.83866785832647,1.8394550757849,1.8375696413783,1.93696313455495,1.88612443671521,1.91746735404137,1.88669784202443,1.83616042494038,1.8347414897684,1.83393483484187,1.83446936521487,1.95687682063288,1.8356842069717,1.83532461381168,1.83384736623538,1.94092837804924,1.83425555306567,1.83362383535212,1.83212715030771,1.87957400996239,1.82794809466422,1.83153430753038,1.6977462145344,1.86141941474835,1.69317840952873,1.86211916360028,1.85958257401203,1.78958825135061,1.68480086077364,1.86055444741749,1.68063152386421,1.67911540135169,1.67884327679816,1.67586934417744,1.67573328190068,1.85650173531671,1.90528978027093,1.67244834979021,1.84962087160603,1.84880449794545,1.85033033919202,1.67132097663988,1.71901080464592,1.66963963564843,1.73248097004563,1.84400344332246,1.67161253866152,1.67031994703225,1.67150563258691,1.72234433042666,1.76940244071916,1.71869008642212
1.87452026825398,1.87586145355352,2.00950376553868,2.02043734135013,2.0058786777363,1.9297129589502,2.09541737458157,2.00454721117082,2.00298249498802,1.9935844791572,1.99678194266117,1.99041617185539,2.10845991568287,1.98981361034401,2.01547106824822,1.98702433367033,1.98673277164869,1.90737930809267,2.08926541592499,1.97843297276604,1.97844269150009,2.10546654559405,1.89703857505855,2.09949924288451,1.97086207893749,1.96814083340219,2.08433801775929,1.96383543421599,1.96391318408843,1.88749477821691,1.96134743829801,1.96046303349904,1.96368965320517,1.95921903554005,1.88611471798115,1.95745994467616,1.95868450516704,1.95955919123196,1.96110446994664,1.88687277923741,2.0012525603263,1.8901965862841,1.96304821675757,2.00079577982573,1.97105645361858,1.97201860828999,1.9970540672147,2.09150072475755,2.05530815913813,2.05425853586023,2.0588263408659,2.04235308664331,2.03973874718262,2.04555055014728,2.03685228316839,1.95980215958332,1.96102672007421,1.95865534896488,1.95751825708049,1.96055050210553,1.95721697632479,2.05486109737161,1.95714894518641,2.06527958027817,1.95790700644267,1.9565949773453,1.95674075835612,1.95571057254633,2.04384977168772,1.95647835253664,1.95520519837549,2.03899040466041,2.04469530155048,1.95363076345864,2.05544422141489,2.03831009327659,1.95176476652015,2.04695004785115,2.04059399577942,2.04177968133409,2.05828209175884,2.03782415657386,2.03322719536602,2.03739653227545,2.02759032961433,2.02759032961433,1.94362046738237,2.03182769766215,2.03449063079312,2.03784359404197,2.02475245927038,2.02241024436322,2.01694831582452,1.93570941786191,2.03403385029255,2.02180768285183,2.02234221322484,1.9301211457805,2.02022352920093,2.01417847661895,2.00543161596979,1.9242510304115,1.92090778589671,1.9205676302048,1.92015944337451,1.9206745362794,1.91963463173556,1.91913897629877,1.91772975986085,1.86009766691692,1.85912579351146,1.85615186089074,1.85461630091011,1.85061218247961,1.85003877717038,1.84769656226322,1.94743992986584,1.84612212734637,1.84375075623704,1.84228322739479,1.84130163525528,1.84216660258614,1.84214716511803,1.83939676338057,1.8421957587883,1.83899829528433,1.83842488997511,1.84151544740448,1.94427162256403,1.94816883491994,1.94651665013065,1.88495818862865,2.02915504579713,1.83477064597057,1.83384736623538,1.83548011355655,1.8337987725651,2.03484050521909,1.94039384767624,1.93914984971724,1.83284633662775,1.83302127384073,1.92741933771331,1.87950597882401,1.88013769653756,1.83138852651956,1.69547203076562,1.69302290978386,1.69148734980322,1.85975751122501,1.68678348252079,1.73378328040895,1.68168114714211,1.67967908792685,1.79561386646448,1.72850600781729,1.67569440696446,1.67447956520763,1.67301203636538,1.67197213182154,2.03368397586659,1.85256564802459,1.85122446272505,1.67066010272416,1.66970766678681,1.66923144881813,1.84452825496141,1.66901763666893,1.84655947037883,1.84524744128145,1.66963963564843,1.66884269945595,1.66826929414672,1.66816238807212,1.66852198123214,1.66876494958351
1.96251368638456,1.87439392471127,2.01119482526418,2.01563628672715,2.02189515145832,2.09783733936117,2.0011456542517,2.0181728763154,1.99715125455525,1.99710266088498,1.99497425812701,1.91754510391381,1.99071745261109,2.01466441332168,2.01444088243843,1.98705348987249,1.98341868333606,1.98044475071535,2.01408128927841,1.97822887935089,2.10046139755592,1.97426363585661,2.01352732143729,1.97048304830936,1.96713008506051,1.96769377163568,1.96710092885835,1.96369937193923,1.96181393753263,1.88732955973798,1.88673671696065,1.95848041175189,2.09468846952747,1.95766403809131,1.95949116009357,1.88435562711727,2.09989771098075,2.00455692990487,2.00463467977731,1.95887887984813,2.00205921525283,1.9641755899079,1.96543902533501,1.96883086352007,1.96994851793635,1.90317109624702,1.99545047609569,1.99977531275,1.96950145616984,2.04198377474924,2.04142008817407,2.05622172013926,2.03827121834037,2.03743540721167,2.0364440963381,1.96029781502011,1.96110446994664,1.95756685075076,1.95738219480372,1.95856788035839,2.05853477884426,1.95675047709017,1.95688653936694,2.03874743630904,1.95655610240908,1.95500110496034,2.04565745622188,2.04738739088361,2.04237252411142,2.04857307643827,1.953339201437,2.04519095698726,1.95383485687378,1.95204660980773,2.06013836996328,1.95014173793303,1.95034583134817,2.04095358893945,2.03890293605392,2.04030243375778,2.03699806417921,2.02937857668039,2.02527727090933,1.94445627851107,1.94363018611643,2.03744512594573,2.03614281558241,2.03118626121455,2.02917448326524,2.04932141896048,1.93833347605666,2.02236165069295,2.0271043929116,2.03358678852604,1.93263829790064,1.93313395333743,2.02493711521742,2.01656928519639,2.01764806467645,2.00993138983708,2.00880401668674,2.00440143016,1.92201572157894,1.92237531473896,1.91974153781016,1.92015944337451,1.91885713301119,1.91980956894854,2.01938771807223,1.85652117278482,2.02297393093839,1.85441220749496,1.85272114776946,1.95655610240908,1.94542815191653,1.94363990485048,1.84737584403942,1.8960861391212,1.84389653724786,1.94789671036641,1.94695399316311,2.04462727041209,1.84055329273307,1.8431384759916,1.83987298134925,1.83968832540221,1.94458262205378,1.83646170569607,1.83669495531338,1.94654580633281,1.9448353091392,1.83554814469494,1.83745301656964,2.01893093757166,1.83501361432193,1.83642283075985,1.83455683382137,1.83124274550874,1.93774063327932,1.83355580421374,1.93322142194392,1.83263252447855,1.83407089711863,1.83225349385042,2.02775554809326,1.82925040502754,1.74257873472839,1.80375816560226,1.68931035337499,1.68834819870358,1.68449958001795,1.73187840853425,1.77838255098563,1.68017474336364,1.79441846217576,1.84538350355822,1.67141816398042,1.78869412781759,1.85558817431557,1.85306130346137,1.67021304095765,1.85224492980078,1.76590369645949,1.66914398021164,1.66346823952374,1.66749179542235,1.66551889240927,1.66472195621679,1.66422630078,1.66787082605048,1.84278860156563,1.66700585871962,1.66794857592292,1.71563840392897,1.66540226760061,1.84575281545229
1.87439392471127,2.04799967112905,2.00871654808025,2.00792933062183,2.00564542811899,2.01369253991622,2.00272008916855,2.00094156083655,2.01488794420494,1.9973747854385,1.99331235460367,1.91918756996904,1.9903287032489,1.99008573489754,1.91179161335347,1.98364221421932,1.9104795842561,1.90692252759211,1.90415268838654,2.09461071965503,2.01288588498969,1.90016800742414,1.96917101921198,1.97053164197963,1.96873367617952,1.96785899011461,1.96666358582589,1.96502111977066,1.96369937193923,1.96181393753263,2.01147666855177,1.95824716213458,1.95780981910212,2.10297854967606,1.95870394263515,1.95608960317446,1.96056993957364,2.00424593041512,1.96042415856282,2.08159733475589,2.0914910060235,2.0013594664009,1.96454490180198,1.89350095586267,1.99745253531094,2.07190775690343,2.07159675741368,2.08408533067387,2.06000230768651,2.0509444475476,2.06839929390971,2.03785331277602,2.06492970585221,2.04982679313132,1.96045331476498,1.9594425664233,1.95827631833675,1.95743078847399,1.95799447504916,2.05045851084487,1.95485532394952,1.95507885483277,2.02857192175385,2.02940773288255,2.05291735056069,2.0267836746878,2.0483106706188,2.03905843579879,1.95350441991593,2.04572548736027,2.03733821987112,2.03847531175552,2.03442259965474,1.95262001511695,2.04819404581014,2.03240110297137,1.94987933211355,2.03404356902661,2.03540419179425,1.94619593190685,1.94468952812838,2.04891323213018,2.04850504529989,2.02747370480568,1.94395090434023,2.03489881762341,2.03218729082217,2.03113766754427,2.03898068592636,2.03870856137283,1.93827516365233,2.03797965631873,2.03187629133242,2.02165218310696,2.03586097229482,1.93199686145304,2.02518008356879,2.01557797432282,2.0185810631457,2.01201119892477,1.92292928258007,1.92467865470991,1.9222586899303,1.92063566134318,1.92041213045993,1.92036353678965,1.91806019681871,1.91827400896791,2.01887262516734,1.91011999109608,2.02151612083019,1.85446080116524,1.85378048978141,2.05152757159088,1.8506996510861,1.84884337288166,1.89639713861095,1.84665665771937,1.84632622076152,2.04578379976459,1.8425164770121,1.8931510814367,1.8907311166571,1.84056301146712,1.84196250917099,1.83750161023992,1.84032004311576,1.83814304668752,1.83863870212431,1.83922182616759,1.84078654235038,1.93766288340689,2.01703578443101,1.83907604515677,1.83643254949391,1.83692820493069,1.93338664042285,1.9467207435458,1.83585914418468,1.88204256841226,1.83375989762889,1.92747765011764,1.83296296143641,1.83124274550874,1.83361411661807,1.69527765608453,1.86611356329673,1.69026278931234,1.688600885789,1.68609345240291,1.68377067496385,1.67794915326513,1.68054405525772,1.77740095884611,1.67481972089954,1.67197213182154,1.67260384953509,1.67257469333292,1.67158338245935,1.66944526096733,1.67051432171334,1.66656851568717,1.85291552245055,1.66786110731643,1.66760842023101,1.66693782758124,1.6654897362071,1.66494548710004,1.66502323697248,1.66448870659948,1.66656851568717,1.7866143187299,1.66561607974981,1.66618948505903,1.66224367903286,1.66193267954311
1.87511311103132,2.03945690389503,2.1223771428491,2.12560376255523,2.0919186303219,2.00693801974826,1.99961009427107,1.92493134179533,1.99843412745046,1.99633488089466,1.99704434848065,1.99194201310197,2.01460610091736,1.9876949263201,1.98804480074606,1.98730617695791,1.98252455980304,1.90530921773904,1.98040587577913,1.97419560471822,1.97532297786856,1.97393319889875,1.97035670476665,1.9686948012433,1.97023036122394,1.89275261334046,2.00815286150508,1.96478787015335,2.00929967212353,1.9607060018504,1.88673671696065,1.9586067552946,1.95846097428378,1.95945228515736,1.95682822696261,2.07822493403893,1.95809166238971,1.9568087894945,1.95873309883731,1.88601753064061,1.96144462563855,1.9638548716841,2.00197174664634,1.9674313658162,1.96999711160663,1.97428307332471,1.99728731683201,2.06245142866828,2.06261664714721,2.04020524641724,2.03885434238365,2.03613309684835,2.03501544243207,2.03390750674984,1.95988962818981,1.96024922134984,1.95765431935725,2.02774582935921,1.95527322951387,1.9555453540674,2.04436486459262,1.95610904064256,2.02836782833871,2.02763892328461,2.05770868644962,1.95599241583391,2.02474274053633,2.04130346336541,1.9541944500338,2.03360622599415,2.0417991188022,2.0344517558569,1.95178420398826,2.03338269511089,2.03691059557272,1.95013201919897,2.02874685896684,2.04186714994058,1.94705118050365,2.03141951083186,1.94513658989489,2.026997486837,2.02484964661093,2.02935913921228,2.03357706979198,1.94058822235733,2.04092443273728,1.93951916161132,2.02319746182164,2.03097244906534,2.02227418208645,2.02281843119351,2.01468385078979,2.02248799423566,2.01754115860185,2.02344043017301,2.01542247457794,2.0140618518103,1.92757483745818,2.01494625660927,1.92468837344396,1.92335690687848,1.92351240662335,1.92376509370877,1.91879882060686,1.91922644490526,1.91888628921335,1.91970266287394,2.00589811520441,1.90735987062456,1.85661836012536,1.85618101709291,1.85307102219543,1.89992503907278,1.85021371438337,1.90466778129143,1.84590831519717,1.94706089923771,1.95013201919897,1.84236097726723,1.84357581902406,1.88950655616622,1.8931510814367,1.88945796249594,1.84081569855254,1.84016454337088,2.02431511623793,1.83889138920973,1.83796810947454,1.83643254949391,1.94424246636187,1.83748217277181,1.93751710239607,1.93574829279812,1.88361700332911,1.83629648721714,1.8370545484734,1.88628965519414,1.88332544130748,1.88361700332911,1.88213003701876,1.83291436776613,1.83165093233903,1.83122330804063,1.82995987261353,1.74021708235312,1.69044744525938,1.86181788284459,1.68706532580837,1.85831913858492,1.68117577297127,1.86106954032238,1.85983526109745,1.67670515530614,1.6757721568369,1.67238031865183,1.85614214215669,1.67103913335229,1.7685569108564,1.66598539164389,1.66671429669798,1.66808463819969,1.66745292048614,1.71457906191701,1.66644217214445,1.72564870000523,1.66287539674641,1.66430405065244,1.66347795825779,1.84217632132019,1.66400276989674,1.83937732591246,1.66487745596166,1.82667494050306,1.66232142890529,1.66323498990643
1.96724670986917,1.87387883180638,2.00907614124027,2.01673450367532,2.00237021474258,2.10108339653541,1.9999891248992,1.99902697022779,2.01471300699196,1.99519778901027,1.99572260064922,1.99441057155184,1.98879314326827,1.99425507180697,2.01137948121122,1.98204834183436,2.01210838626532,1.98373940155987,1.980561375524,1.97662528823188,1.97482732243177,1.97393319889875,1.968996081999,1.96746052201837,1.97044417337314,2.08475592332364,1.9633203413111,1.96337865371542,2.10518470230646,1.96117250108502,2.09798312037199,2.09336672169604,1.9565949773453,1.95644919633448,2.09058716375642,1.9578584127724,1.95681850822855,1.95692541430315,1.95731416366534,1.95778066289996,1.95793616264484,1.96033668995633,1.89113930348739,2.09714730924329,1.96982217439364,1.97282526321652,1.99359419789126,1.99115479564354,2.05187744601684,1.96505999470687,2.05564831483004,2.06917679263408,1.96112390741475,1.96064768944608,1.96330090384299,1.95731416366534,1.95732388239939,1.9568087894945,1.95471926167275,2.05427797332834,2.05487081610567,1.95540929179063,2.06380233270187,1.95572029128038,2.02427624130171,2.0406425894497,2.03753259455222,2.03516122344289,2.04249886765413,2.04525898812564,2.03190544753459,1.95144404829634,2.04061343324753,1.95011258173086,2.03143894829997,2.03695918924299,2.04094387020539,1.94708033670582,2.03400469409039,1.94369821725481,2.02133146488316,1.94449515344729,2.03182769766215,2.02829979720032,2.03013663793665,1.94187109525254,2.03407272522877,2.0352875669856,2.01884346896517,2.02785273543381,2.02694889316673,2.00678252000338,2.01805625150675,1.93356157763583,2.02356677371572,1.93050989514268,2.01832837606028,2.01128229387067,2.0196306864236,2.01513091255631,2.01242910448912,2.00305052612641,1.92166584715297,1.92053847400264,1.9188765704793,1.91710776088135,1.9174187603711,1.91750622897759,2.00550936584223,1.90632968481477,1.90461918762116,1.90349181447082,1.90042069450956,1.85130221259748,1.84962087160603,2.049059013141,1.84613184608042,1.84620959595286,1.84477122331278,1.84247760207588,1.84404231825868,1.84047554286063,1.8395619818595,1.91053789666043,1.90724324581591,1.89623192013202,1.83952310692328,1.83681158012204,1.83627704974903,1.83790979707021,1.83677270518582,1.84038807425414,1.836626924175,1.83635479962147,1.83562589456737,1.83327396092615,1.83889138920973,1.88300472308367,1.83418752192729,2.0023021836042,1.88151775677332,1.83077624627412,1.83217574397798,1.83001818501786,2.01374113358649,1.68974769640745,1.73823446060597,1.68484945444392,1.68448986128389,1.68127296031181,1.6799900874166,1.67756040390295,1.67537368874066,1.67445040900547,1.76222029625279,1.6701158536171,1.85621017329507,1.66882326198784,1.66788054478454,1.85289608498244,1.71454990571485,1.66545086127088,1.83040693438004,1.71195500372227,1.66549945494116,1.76330879446691,1.66488717469571,1.6589781843905,1.662447772448,1.84574309671824,1.65991118285975,1.66120377448901,1.66443039419515,1.66186464840473,1.66266158459721,1.66288511548046
1.87401489408314,1.87313048928417,2.0066075827904,2.00593699014063,2.01275954144698,1.92738046277709,1.92347353168713,2.08496973547284,1.99480903964808,1.99549906976596,1.9967333489909,1.98989136021644,1.98985248528022,2.01127257513662,2.0109129819766,1.98393377624096,1.90732099568835,2.01043676400792,1.90298644029998,1.90374450155624,1.97408869864362,1.89883654085866,1.97069686045856,1.96575974355881,1.96818942707246,1.96521549445175,2.01078663843389,1.88974952451758,1.96155153171316,1.95908297326328,1.95757656948481,2.00702548835475,1.96134743829801,1.96170703145803,1.88207172461443,1.88183847499712,1.95582719735498,1.95730444493128,1.95724613252696,1.95934537908276,1.9604921897012,2.07812774669839,1.96407840256736,2.08787563695518,1.99488678952052,1.96861705137087,2.07801112188973,1.9970540672147,2.05211069563416,2.037493719616,2.06463814383057,2.05122629083518,2.057242187215,1.96011315907307,1.96062825197797,1.95765431935725,1.96016175274334,1.95563282267389,1.95435966851273,1.95469982420464,2.05553169002138,1.95357245105431,2.0437914592834,1.95331004523483,2.04166305652543,2.0258409574845,2.02542305192015,2.03422822497364,2.02581180128234,2.0245775220574,2.02429567876982,2.0414978380465,2.03814487479766,2.03829065580848,2.0446467078802,2.04819404581014,2.0440052714326,1.94470896559649,2.0337228508028,2.02696833063484,2.0261422382402,2.02942717035066,1.94183222031632,2.03190544753459,2.01461581965141,1.94006341071838,2.03082666805453,2.02518008356879,2.0199514046474,2.03578322242238,2.02539389571799,2.02185627652211,2.03305225815303,2.02261433777837,2.01264291663832,2.01485878800278,1.93038355159997,2.01684140974992,2.0214286522237,1.92523262255102,1.92386228104932,2.02246855676755,1.92196712790867,1.91985816261881,1.91828372770196,1.91976097527827,1.91970266287394,1.98871539339583,1.9876949263201,1.8578526393503,1.85623932949723,1.85454826977173,2.04134233830163,1.84883365414761,1.84929043464818,1.8483865923811,1.95005426932653,1.95046245615683,1.949782144773,1.84243872713967,1.89026461742248,1.88970093084731,1.8902160237522,1.84021313704116,1.88839862048399,1.88792240251531,1.83924126363569,1.83850263984754,1.83970776287032,1.83919266996542,1.88634796759846,1.8385123585816,1.83913435756109,1.83685045505826,1.83772514112317,1.83564533203548,1.8353634887479,1.89632910747256,1.88279091093447,1.88275203599825,1.88135253829439,1.83290464903208,1.83180643208391,1.83075680880601,1.83089287108277,1.73844827275517,1.73606718291179,1.68309036358003,1.68197270916375,1.67877524565977,1.67754096643484,1.67528622013416,1.77179324929659,1.85906748110713,1.67130153917177,1.66930919869057,1.66676289036826,1.66881354325378,1.66478026862111,1.85045668273473,1.6621270542242,1.6636043018005,1.8305429966568,1.66152449271281,1.71114834879573,1.70838822832422,1.75965455046237,1.65898790312456,1.66141758663821,1.77469915077893,1.65848252895372,1.77246384194636,1.66249636611828,1.6593863712208,1.66251580358639,1.66170914865985
1.87362614472096,2.01403269560813,2.00537330356546,2.01325519688376,2.09220047360949,2.0101840769225,2.00424593041512,1.99456607129672,2.00888176655918,2.00951348427273,1.99082435868569,1.99092154602623,1.99056195286621,1.98375883902797,1.98323402738902,1.98311740258037,1.9794048461715,2.00768636227046,2.00863879820782,1.97411785484579,2.09806087024442,1.89620276392985,1.97038586096881,1.89291783181939,2.09897443124556,1.9621638119586,1.88941908755973,1.88699912278012,1.88649374860928,1.96004512793469,2.00773495594074,1.95808194365565,1.88355869092479,2.00491652306489,2.00387661852105,1.95422360623597,1.95439854344895,1.95757656948481,1.95814025605998,1.99933796971754,1.95973412844494,1.96106559501042,1.96163900031965,1.964369964589,1.96843239542383,1.99400238472155,1.99421619687075,1.99031898451485,2.04456895800777,2.03820318720199,1.9634272473857,2.04224618056871,2.04816488960798,2.0514595404525,1.95980215958332,1.96026865881794,1.95876225503948,1.9553509793863,1.95698372670748,2.03829065580848,2.03816431226577,2.04176996260003,2.04188658740869,2.03558884774129,2.0495741060459,2.05822377935451,1.95235760929748,2.02707523670944,2.04142008817407,1.95157039183906,2.0551429406592,2.04229477423898,2.03210954094974,2.02730848632675,2.03450034952717,2.02373199219465,2.02195346386265,1.94481587167109,1.9443202162343,1.94178362664605,2.03174994778971,2.03269266499301,2.02944660781877,2.02954379515932,2.01538359964173,2.02784301669976,2.0201652167966,2.02124399627666,2.02400411674818,2.02243940056538,2.03175966652377,2.02820260985978,1.93415442041317,1.93231757967684,2.01442144497032,2.01125313766851,2.01668591000505,2.01190429285017,1.92518402888075,2.00970785895382,2.01014520198628,1.92103412943942,1.92106328564159,1.92251137701573,1.91666069911484,1.99758859758771,1.99459522749888,1.91675788645539,2.01160301209448,1.85670582873186,1.85620045456102,1.85446080116524,1.85436361382469,1.9444076848408,1.89739816821857,1.8968150441753,1.84930015338223,1.94512687116084,1.89354954953294,1.89179045866905,1.89085746019981,1.89014799261382,1.88975924325164,1.84042694919036,1.88835002681372,1.88647431114117,1.83788064086805,1.84081569855254,1.83796810947454,1.83801670314481,1.92303618865467,1.88542468786327,1.8372489231545,1.83425555306567,1.83409033458674,1.93324085941203,1.93064595741945,1.83426527179973,1.83607295633389,1.83586886291874,2.01695803455857,1.83187446322229,1.83316705485155,1.83175783841363,1.83042637184815,1.68576301544505,1.68314867598436,1.68181720941887,1.67969852539496,1.67709390466832,1.67908624514952,1.6733716295254,1.67176803840639,1.71972999096597,1.76883875414399,1.8472300630286,1.66375008281132,1.66480942482328,1.84946537186116,1.66313780256588,1.73446359179278,1.83254505587206,1.65980427678515,1.70886444629289,1.66084418132899,1.6584436540175,1.65631525125954,1.84304128865105,1.65800631098504,1.65841449781533,1.65636384492981,1.66076643145655,1.65685950036659,1.66062065044573,1.66142730537227,1.83834714010267
1.95155095437095,1.95273663992561,1.93074314475999,2.0023021836042,2.0861359835594,2.0851932663561,2.08838101112602,1.99624741228817,1.99356504168909,1.99352616675287,1.99404125965777,1.91633998089104,1.98807395694823,1.98869595592772,1.98714095847898,1.9816109988019,1.98257315347331,1.9780345046698,1.97757772416923,1.97466210395285,2.09133550627862,2.08815748024276,2.09760408974386,2.09160763083215,1.96706205392213,2.09753605860547,1.88924415034674,1.96115306361692,1.88665896708821,1.95834434947513,2.00516921015031,2.00487764812868,1.9578584127724,1.95805278745349,1.95388345054406,1.95345582624565,1.95729472619723,1.95479701154519,1.95669216468584,1.99837581504613,2.08600964001669,1.96101700134015,1.96166815652181,1.88998277413489,1.96750911568864,2.08068377375475,1.90045956944578,2.10834329087422,2.05406416117913,1.96367993447112,2.05474447256296,2.05450150421159,2.04864110757665,1.95938425401897,1.95765431935725,2.03187629133242,1.95709063278208,1.95457348066193,1.95399035661866,2.03873771757499,2.04111880741837,2.0311959799486,2.05219816424065,2.04816488960798,2.05522069053164,2.04280014840982,2.04508405091266,1.95173561031798,2.04115768235459,1.95153151690284,2.03759090695654,1.94969467616651,2.03568603508184,2.0394860600972,2.03223588449245,2.02865939036034,2.02728904885864,2.0277263918911,1.94355243624399,2.02230333828862,1.94312481194559,2.03227475942866,2.03170135411944,2.03373256953686,2.02294477473622,2.02636576912345,2.010806075902,2.01803681403864,2.0262491443148,2.02330436789625,2.02401383548223,2.02514120863257,2.01703578443101,2.02778470429543,2.00227302740204,2.00111649804954,2.01514063129036,2.01603475482339,2.01834781352839,2.00866795440998,2.00600502127901,2.00572317799143,1.91997478742747,1.91803104061654,1.91761313505219,1.99340954194422,1.99721928569363,2.01009660831601,2.01341069662864,1.85681273480646,1.856375391774,1.85303214725921,1.85310017839759,1.85208943005591,1.89716491860126,1.89637770114284,1.89475467255571,1.94411612281916,1.94373709219103,1.8433522881408,1.84385766231164,1.84022285577521,1.84257478941643,1.84014510590277,1.8409323233612,1.8392607011038,1.83912463882704,1.83890110794378,1.93731300898092,1.88587174962979,1.83813332795347,1.88604668684277,1.83628676848309,1.83607295633389,1.83610211253605,2.02705579924133,1.83408061585269,1.83582998798252,2.01285672878752,1.83288521156397,2.02492739648337,2.01541275584389,1.83288521156397,1.83065962146546,1.92353184409146,1.68358601901681,1.68235173979188,1.68094252335396,1.72894335084975,1.67449900267574,1.6745281588779,1.85966032388446,1.67176803840639,1.77177381182849,1.76982034628351,1.66708360859206,1.66575214202658,1.66488717469571,1.66429433191838,1.66340992711941,1.66123293069118,1.65783137377206,1.65813265452775,1.65860887249643,1.65875465350725,1.76720600682281,1.76312413851987,1.65880324717752,1.88633824886441,1.75292918649657,1.65565437734382,1.65885184084779,1.65541140899245,1.83625761228092,1.65875465350725,1.65829787300668
1.91997478742747,1.92053847400264,2.0957089366032,2.00706436329097,2.00215640259338,2.0024090896788,1.99889090795103,2.00686998860987,2.00773495594074,1.99356504168909,1.99243766853876,1.91428932800551,1.98910414275802,2.09833299479795,1.98608161646703,2.10516526483836,1.97916187782014,1.97910356541581,1.98016290742776,1.97335007485547,1.97231017031163,1.97294188802518,1.96819914580652,1.96756742809297,1.96713980379457,1.96667330455994,1.96219296816076,2.00750170632342,1.95765431935725,1.95789728770862,1.95804306871944,1.95822772466647,1.95706147657992,1.95465123053437,1.95320313916023,2.08784648075301,1.95577860368471,1.87974894717537,1.95571057254633,1.95545788546091,1.95710035151614,1.88624106152386,1.88649374860928,1.966683023294,1.96790758378488,1.99157270120789,1.97121195336345,2.09432887636745,2.05709640620418,2.04502573850833,2.06314145878615,2.04551167521106,2.0407494955243,2.04802882733121,1.96048247096715,1.95816941226215,1.9564006026642,1.95404866902298,1.95361132599053,2.03121541741671,2.03844615555335,1.95305735814941,2.04168249399354,2.04700836025548,2.05432656699861,1.95151207943473,1.95077345564658,2.0454825190089,2.03258575891841,2.03816431226577,2.04160474412111,2.04499658230617,2.01746340872942,2.01703578443101,2.02567573900557,1.94570027647006,2.02890235871171,2.02116624640423,2.0345586619315,1.9432705929564,1.94122965880493,2.03122513615076,2.02857192175385,1.93928591199401,1.93963578641998,2.03216785335406,2.02853304681763,2.03731878240302,2.02823176606194,2.01450891357681,2.01408128927841,1.93120964399461,2.01321632194754,1.93072370729188,2.01481991306656,2.0346655680061,2.01667619127099,2.0192224995933,2.00884289162296,2.01045620147603,2.00845414226078,1.92001366236369,1.91883769554308,1.91872107073442,1.91689394873215,1.99457579003077,1.99724844189579,1.99092154602623,1.91485301458068,2.03396581915417,1.85306130346137,1.85468433204849,1.85181730550238,1.84982496502118,1.89648460721744,1.8950365158433,1.84629706455935,1.84535434735605,1.8426233830867,1.84022285577521,1.8408254172866,2.04072033932213,1.83960085679572,1.84064076133956,1.83755992264424,1.83991185628546,1.83686017379231,1.83971748160437,1.83899829528433,1.83859010845403,1.88606612431088,1.88605640557683,1.88428759597888,1.88383081547832,1.8359854877274,1.8358980191209,1.83711286087773,1.83534405127979,1.92941167819451,2.02069002843555,1.8334780543413,1.82919209262321,2.01214726120154,1.92274462663304,1.92241418967518,1.68438295520929,1.86131250867375,1.85974779249095,1.67739518542402,1.67511128292118,1.67038797817063,1.67112660195878,1.67035882196847,1.66985344779763,1.71529824823706,1.66578129822874,1.66444983166326,1.66271017826748,1.8456653468458,1.65913368413538,1.7591977699618,1.65609172037628,1.65515872190703,1.65612087657844,1.65580015835464,1.65513928443893,1.65537253405624,1.65434234824645,1.65643187606819,1.83951338818922,1.6538175366075,1.65429375457617,1.65457559786376,1.65431319204428,1.75271537434736,1.83271999308504
1.91801160314843,1.9199456312253,2.01086438830632,2.01071860729551,1.92755539999008,2.01148638728582,2.01084495083822,2.00907614124027,1.9934775730826,1.99187398196359,1.99185454449548,1.99038701565323,1.98810311315039,1.9878018323947,1.98654811570165,1.98028925097047,1.98095984362024,1.97784012998871,1.97642119481673,2.00416818054269,2.00588839647036,2.00648123924769,1.96816998960436,1.96547790027122,1.96750911568864,1.96264974866133,1.88622162405575,1.96013259654118,2.09507721888965,1.95686710189883,1.95656582114313,1.95728500746317,1.95362104472458,1.95441798091706,1.99877428314237,1.87973922844132,1.88098322640031,1.88005022793107,1.95353357611809,2.00111649804954,1.95539957305658,1.99412872826426,1.95778066289996,1.96387430915221,1.96496280736633,1.96663442962372,1.98995939135483,2.08299683245975,1.96336893498137,1.96365077826895,2.05433628573266,2.03365481966442,2.03229419689677,2.04501601977428,2.03485994268719,2.03094329286318,2.02875657770089,1.95358216978836,1.95334892017105,1.95325173283051,2.03513206724072,2.02483020914282,2.03376172573902,2.04119655729081,2.03467528674016,1.95030695641195,1.95158011057311,2.03205122854541,2.03516122344289,2.05355878700829,2.03183741639621,2.03131260475726,1.94657496253498,2.0481162959377,1.94388287320185,2.03205122854541,2.03811571859549,2.04760120303281,2.02848445314736,2.03736737607329,2.03911674820312,2.03092385539507,2.02035959147769,2.0174245337932,2.02875657770089,2.03543334799642,2.01786187682566,2.00564542811899,2.01840612593271,2.01857134441164,2.00420705547891,2.00231190233825,1.93026692679132,2.02160358943669,2.01738565885698,2.02933970174417,1.9251937476148,1.9233083132082,2.00516921015031,2.0076572060683,2.00839582985645,1.92013028717234,1.91953744439501,1.91657323050835,1.9167773239235,1.99603360013897,1.91491132698501,1.99205863791062,1.91512513913421,1.85653089151887,1.85357639636627,1.85324595940841,1.89993475780683,1.89843807276242,1.89646516974933,1.84658862658099,1.84575281545229,1.84318706966187,1.94713864911015,1.9434649676375,1.84112669804229,1.9450491212884,1.84194307170288,1.84070879247794,1.94111303399628,1.83838601503889,1.83927041983786,2.02882460883927,1.83957170059355,1.92782752454361,1.83950366945517,1.9250868415402,1.83734611049504,1.8341000533208,2.0190086874441,1.93052933261079,1.83362383535212,1.83261308701044,1.83281718042559,1.83213686904176,2.00833751745212,1.8315731824666,1.83261308701044,2.01570431786553,1.92468837344396,1.68030108690635,1.86154575829106,1.67600540645421,1.72399651521595,1.72268448611857,1.71964252235947,1.66794857592292,1.66676289036826,1.66648104708067,1.66336133344914,1.76925665970834,1.66186464840473,1.66103855601008,1.65731628086716,1.84316763219376,1.65668456315361,1.8424095709375,1.65584875202491,1.65558634620544,1.65437150444861,1.65532394038596,1.65271931965932,1.65237916396741,1.74580535443453,1.65650962594063,1.65474081634269,1.6534093497772,1.65283594446798,1.65406050495886,1.6550809720346,1.65805490465531
1.87040924374888,1.96693571037942,2.00358505649941,2.00255487068962,2.09445521991016,2.00112621678359,1.99534357002109,2.00644236431147,2.00365308763779,2.00852217339916,1.91765200998841,1.9873936455644,1.98582892938161,2.00595642760874,1.98385602636852,1.98007543882127,1.97779153631843,2.00748226885532,2.09068435109696,1.900498444382,1.9696375184466,1.97082320400127,1.97352501206845,1.89024517995437,1.96609989925072,2.08507664154744,2.00484849192651,2.00442086762811,1.88452084559619,1.95861647402866,1.95696428923937,1.88075969551705,2.09843990087255,1.9525033903083,1.9564006026642,1.95374738826729,1.95361132599053,1.95242564043586,1.9540875439592,1.95676019582423,1.88307275422206,1.88121647601762,1.96119193855313,1.99318601106096,1.99247654347497,1.96667330455994,2.07491084572631,2.07242284980832,2.05427797332834,2.06044936945302,1.96062825197797,2.04166305652543,2.04503545724239,2.03198319740703,2.02929110807389,2.03106963640589,1.95378626320351,1.95405838775704,1.95791672517673,1.95135657968985,2.05068204172813,2.03205122854541,2.04789276505445,2.03470444294232,2.04145896311029,1.95032639388006,2.03080723058642,2.02223530715024,2.04457867674182,2.03419906877148,2.0290967333928,2.03829065580848,1.94698314936527,2.03061285590532,2.04018580894913,2.04664876709546,2.03621084672079,2.03869884263877,2.03145838576808,2.03021438780908,2.0341310376331,2.02431511623793,2.03834896821281,1.93848897580153,1.93757541480039,2.02475245927038,1.93488332546726,2.01204035512693,2.01672478494126,1.9340183581364,1.93334776548663,2.02270180638486,2.01211810499937,1.92804133669281,1.92677790126571,1.92705974455329,2.01885318769923,2.01391607079948,2.01757031480402,2.01119482526418,1.91982900641665,1.91869191453226,1.91971238160799,1.9181476654252,1.91548473229423,1.91523204520881,1.99001770375915,2.00108734184737,1.99129085792031,1.85439277002686,2.0509444475476,1.92606843367972,1.89884625959271,1.84951396553143,1.8490280288287,1.84672468885776,1.84609297114421,1.84606381494204,2.02388749193952,1.84214716511803,1.83973691907248,1.84133079145744,1.84206941524559,1.84122388538284,2.02427624130171,1.83962029426383,1.94072428463409,1.83952310692328,1.91050874045826,1.83745301656964,1.93599126114949,1.836626924175,1.83635479962147,2.02428596003576,1.83277830548937,1.83409033458674,1.8338862411716,1.83197165056283,1.8329435239683,1.832000806765,1.82792865719611,1.83274914928721,1.83036805944382,1.83037777817788,1.82751075163176,1.67620949986935,1.85703626568971,1.67286625535456,1.85568536165612,1.8543830512928,1.66896904299866,1.66811379440185,1.66501351823843,1.66321555243832,1.66214649169231,1.84511137900469,1.66219508536258,1.65978483931704,1.75668061784165,1.65483800368323,1.83987298134925,1.65597509556762,1.6564513135363,1.6525735386485,1.65425487963995,1.83893026414595,1.65407022369292,1.65223338295659,1.6513101032214,1.65279706953176,1.6529817254788,1.65105741613598,1.65163082144521,1.65470194140647,1.65147532170033,1.65523647177947
1.87037036881266,2.04431627092235,2.00774467467479,2.10405732915613,2.00802651796237,2.08426998662091,2.00479989825624,2.00747255012126,1.99182538829331,2.00784186201534,1.91533895128341,1.98683967772329,1.98717011468115,2.00616052102389,1.98343812080417,1.98083350007753,1.9770917874665,1.902811503087,1.97236848271595,1.97251426372677,1.96801448985948,2.08868229188171,2.0046152423092,2.09483425053829,1.96792702125299,1.96123081348935,1.96209578082021,1.9628052484062,1.95835406820918,1.88239244283823,1.95681850822855,1.95335863890511,1.87990444692025,1.95731416366534,1.95585635355714,1.99850215858884,1.99789959707745,1.95316426422401,1.99693744240605,1.95426248117219,1.88217863068903,1.95972440971089,1.88677559189687,1.9904356093235,1.88862215136725,1.9675382718908,1.97087179767154,1.98862792478934,1.96184309373479,2.04144924437623,2.03809628112739,2.04415105244342,2.04842729542745,2.03716328265814,1.95630341532366,2.03002973186205,1.95436938724679,1.95214379714828,1.95159954804122,1.95095811159361,2.03526812951749,2.0386502489685,2.03877659251121,2.03115710501238,1.95037498755034,1.94881027136754,2.04521039445537,2.02010690439227,2.04107993248216,2.03469472420827,1.94701230556744,1.94665271240741,1.94460205952189,1.94492277774569,2.04168249399354,2.04795107745878,2.03752287581816,2.03499600496396,2.02723073645431,2.02492739648337,2.04011777781075,2.02516064610068,2.0298256384469,2.02148696462803,1.93441682623264,1.93365876497638,2.0153252872374,2.01628744190881,2.02477189673849,2.02006802945606,2.00918304731487,2.0183866884646,2.01758003353807,1.92905208503449,2.01882403149706,1.92504796660398,2.01401325814002,1.92341521928281,1.92160753474864,2.00163159095443,2.0050428666076,1.99161157614411,1.91715635455163,1.91556248216667,1.91633998089104,1.91303561131247,1.91466835863364,1.91367704776007,1.99007601616348,1.85243930448188,1.94563224533168,1.85079683842664,1.84895999769032,1.84670525138965,1.84661778278316,1.84752162505024,1.84646228303828,2.03131260475726,1.89071167918899,1.94363990485048,1.94131712741143,1.84149600993637,1.84038807425414,1.8393481697103,1.84064076133956,1.83808473428319,1.83837629630483,1.93510685635052,1.93659382266088,1.93164698702707,1.83728779809071,1.83667551784527,2.02357649244977,1.83621873734471,1.8338862411716,1.83087343361466,2.00337124435021,1.83168980727525,2.004935960533,1.8795934474305,1.93550532444676,1.87681388949088,1.87689163936331,2.0155390993866,1.82704425239714,1.67975683779929,1.67385756622813,1.6743143467287,1.6682109817424,1.66752095162452,1.66591736050551,1.66262270966099,1.66087333753115,1.66249636611828,1.66202986688365,1.66207846055393,1.65828815427262,1.65896846565645,1.84110726057418,1.65536281532218,1.74391020129387,1.65428403584212,1.84127247905311,1.83959113806166,1.89648460721744,1.69968024261127,1.65027019867756,1.64997863665592,1.64980369944294,1.64907479438884,1.65084360398678,1.65013413640079,1.65007582399647,1.83172868221147,1.74704935239352,1.830222278433
1.86997190071642,1.87043839995104,2.00259374562584,2.0071421131634,2.00716155063151,1.99754000391743,1.9940995720621,1.99249598094308,1.99138804526086,1.99235019993226,1.98954148579048,1.91335632953627,2.00155384108199,1.98388518257068,2.00451805496865,1.9785690350428,1.97668360063621,1.97506057204909,1.89983757046628,2.00172877829498,1.96718839746484,1.96772292783784,1.96781039644433,1.8875822468234,1.96362162206679,1.95760572568698,1.9571295077183,1.95774178796374,1.87960316616455,1.9552440733117,2.00225358993393,1.9539806378846,1.95386401307595,2.07597990647231,1.95107473640227,1.87993360312241,1.95242564043586,1.87828141833312,1.87922413553642,1.95378626320351,1.95496223002412,1.95873309883731,1.96002569046658,1.960812907925,1.98903611161964,2.07896355782709,1.99074660881325,2.08041164920122,2.05810715454586,1.96084206412717,2.05075007286651,2.06475476863922,2.04073005805619,2.03107935513995,1.95406810649109,1.95359188852242,1.95477757407708,1.95349470118187,1.95227014069099,1.95116220500876,2.03867940517066,1.95114276754065,2.04075921425835,2.03812543732955,2.03199291614108,2.03196375993892,2.0428487420801,2.03232335309894,2.02003887325389,1.94722611771664,1.94654580633281,1.94726499265286,2.03293563334438,2.02967013870202,2.02764864201866,1.94108387779411,2.04098274514161,2.02228390082051,2.03277041486545,2.02722101772026,2.02777498556137,2.02714326784782,1.93416413914722,2.01549050571633,2.01807568897486,2.03380060067524,2.02490795901526,2.02376114839681,2.02082609071232,2.01882403149706,2.02396524181196,2.01803681403864,2.02040818514797,1.92695283847869,2.01335238422431,2.00713239442935,2.01049507641225,2.00169962209281,2.00315743220101,2.00179680943336,2.00092212336844,1.9935844791572,1.91755482264787,1.99123254551598,1.91456145255904,1.91411439079253,1.91267601815244,1.99732619176823,1.98719927088331,1.85720148416864,2.01560713052498,1.84933902831845,1.85006793337255,1.84921268477574,1.84573337798418,1.84615128354853,1.84611240861231,1.84537378482416,1.89125592829605,1.84227350866074,2.03478219281476,2.03208038474757,1.88924415034674,1.88756280935529,1.88689221670552,1.83882335807135,1.93509713761647,1.88717405999311,1.83898857655027,1.92965464654588,1.83617014367443,1.83802642187887,1.83419724066134,2.02482049040877,1.83319621105372,1.92324028206982,1.83437217787433,1.8312719017109,1.83134965158334,1.82809387567504,1.87737757606604,1.91164583234265,1.82568362962949,2.00740451898288,1.8737038945934,1.77293034118099,1.67078644626687,1.85722092163675,1.66840535642349,1.66587848556929,1.66458589394002,1.84982496502118,1.66182577346851,1.66237002257557,1.84321622586404,1.6600278076684,1.65664568821739,1.70517132735214,1.65357456825613,1.65473109760863,1.65479912874701,1.65383697407561,1.65514900317298,1.70309151826445,1.64994948045376,1.83963001299788,1.65104769740193,1.64849167034556,1.83387652243754,1.69914571223827,1.69809608896037,1.83456655255542,1.83313789864939,1.64998835538997,1.83144683892388,1.65024104247539
2.12973422452845,1.87013711919535,2.01141835614744,2.00697689468447,2.00011546844191,2.002622901828,2.08185974057536,1.9178269472014,1.99047448425972,1.98999826629104,1.91213176904539,1.98510974306157,2.00275896410477,1.98410871345394,1.98158184259974,1.97761659910545,1.90370562662002,1.97511888445341,1.9756145398902,1.97367079307927,1.97365135561116,1.97083292273532,2.07820549657082,2.0012525603263,2.0018745593058,1.955652260142,1.95643947760042,1.95709063278208,1.95756685075076,1.87996275932458,1.88055560210191,1.88049728969758,1.95204660980773,1.95050133109305,1.99717069202336,1.87650289000113,1.95042358122061,1.9520757660099,1.95346554497971,1.87942822895157,2.07920652617845,1.95801391251727,1.9599576593282,1.96221240562887,1.96467124534469,1.89112958475334,1.96740220961404,1.99079520248352,2.06296652157317,2.04971988705672,1.95800419378322,2.05159560272926,2.02882460883927,2.037493719616,1.95387373181,1.95317398295807,1.95387373181,1.95211464094611,1.9508317680509,1.95015145666708,1.95012230046492,1.9501903316033,2.03134176095942,2.02338211776868,2.02227418208645,2.02150640209614,2.03700778291327,2.03139035462969,2.03799909378684,2.02802767264679,2.03202207234324,2.03139035462969,2.017745252017,2.02994226325555,2.03446147459096,1.93882913149344,2.03674537709379,2.01351760270324,2.02351818004545,2.01831865732622,2.03386863181362,2.02737651746513,2.02988395085123,1.93364904624233,2.01866853175219,1.93493191913754,2.03400469409039,1.93139429994165,1.93072370729188,2.02125371501072,1.93016973945077,1.93036411413186,2.01205979259504,2.01985421730685,2.00542189723573,2.03139035462969,2.00861936073971,2.01898924997599,2.00886232909107,1.99288473030527,1.99166016981439,1.99402182218966,1.91490160825095,1.91267601815244,1.91354098548331,1.91408523459036,1.91207345664106,1.91150977006589,2.00568430305521,1.85609354848642,2.03796993758468,1.84886281034977,1.85026230805364,1.8486004045303,1.84464487977007,1.95133714222174,1.95003483185842,1.92744849391547,1.89076027285926,1.88977868071975,1.89020630501815,1.88840833921804,1.89624163886607,1.88643543620496,1.88675615442876,1.83786120339994,1.83596605025929,1.83611183127011,1.83703511100529,1.9317052994314,1.83569392570576,1.92426074914556,1.83592717532307,1.83348777307536,1.83328367966021,1.83282689915964,1.92434821775205,1.8307373713379,1.83046524678437,1.82914349895294,2.00763776860019,1.82546981748029,1.82300125903042,1.87380108193394,1.87314020801823,1.67138900777826,1.66978541665925,1.66969794805275,1.85150630601263,1.66247692865017,1.6645470190038,1.76915947236779,1.70947672653834,1.65982371425325,1.70720254276955,1.65458531659781,1.65544056519462,1.70444242229804,1.70334420534987,1.65306919408529,1.64984257437915,1.65023132374134,1.6499397617197,1.70230430080602,1.64748092200388,1.64960932476184,1.64812235845149,1.64807376478121,1.83933845097624,1.69784340187495,1.65123235334897,1.6457412686081,1.6479474212385,1.64831673313258,1.64845279540934,1.64811263971743
1.8662496255735,2.08428942408902,2.0013594664009,2.00605361494929,2.101899770196,2.0029241825837,1.92015944337451,1.99482847711619,1.99454663382861,1.9889583617472,1.98800592580985,1.99937684465376,2.00106790437926,1.91029492830906,2.08092674210612,2.08132521020236,2.00434311775567,1.97371938674955,1.97369023054738,2.0009318421025,1.97018176755366,1.96582777469719,2.0012525603263,1.96492393243011,2.07433744041708,1.88457915800052,1.95865534896488,1.88355869092479,1.95471926167275,1.88030291501649,2.00431396155351,1.95427219990624,1.95324201409645,1.95245479663803,1.95084148678496,1.95150236070067,1.95117192374282,1.87659035860762,1.95098726779578,1.95120107994498,1.9562936965896,1.87977810337754,2.07779730974053,1.99062998400459,1.88639656126874,1.96397149649276,1.98984276654617,2.08119886665965,2.048524482768,2.04488967623157,2.03447119332501,2.05103191615409,2.0434901785277,2.04515208205104,1.95337807637322,1.95158011057311,1.95122051741309,1.95383485687378,1.95090951792334,2.04341242865527,2.04181855627031,2.02449977218496,2.02880517137116,2.03748400088194,1.94571971393817,1.94726499265286,2.04111880741837,2.03461697433583,2.0370855327857,1.94460205952189,2.02184655778805,2.01843528213488,1.94196828259309,1.94139487728386,1.94152122082657,2.02664761241104,1.93865419428046,2.03667734595541,2.02723073645431,2.01786187682566,2.01715240923967,2.01183626171179,2.02915504579713,2.01238051081885,2.01869768795435,2.02344043017301,2.02502458382391,2.02203121373509,2.01664703506883,1.93050989514268,2.00825004884563,1.92975183388642,2.01423678902328,1.9267584637976,2.01688028468614,1.92413440560285,1.99865765833372,1.99724844189579,2.00719070683368,1.99919218870672,1.99727759809796,1.98774351999037,1.91449342142066,1.91548473229423,1.91242333106702,1.90952714831875,1.91143202019345,2.00150524741172,2.00415846180863,1.85328483434463,1.85165208702345,1.85078711969259,2.03186657259837,1.84630678329341,1.8936661743416,1.9496752386984,1.9484118032713,1.8902160237522,1.88919555667647,1.83995073122168,1.88913724427214,1.83939676338057,1.89956544591275,1.88623134278981,1.8858037184914,1.83608267506794,2.02167162057507,2.0215355582983,1.83230208752069,1.83417780319323,1.83386680370349,1.83310874244723,1.83289493029802,1.83239927486124,1.83020284096489,2.0081917364413,1.92728327543655,1.82995987261353,1.82698593999281,1.82688875265227,2.01689972215425,2.00119424792197,2.01485878800278,1.82329282105205,1.82043551323999,1.66952301083977,1.84963059034009,1.66757926402885,1.66532451772817,1.6636043018005,1.6615925238512,1.6577147489634,1.6582298418683,1.70707619922684,1.65664568821739,1.83823051529401,1.65367175559668,1.82889081186752,1.6499397617197,1.64897760704829,1.65142672803006,1.65118375967869,1.69822243250308,1.64942466881481,1.75587396291512,1.75194759435705,1.6447985514048,1.64618833037462,1.83696707986691,1.64813207718554,1.83488727077922,1.64870548249476,1.82923096755943,1.69634671683054,1.64799601490878,1.69602599860673
1.86704656176598,1.86826140352281,2.0073364878445,2.00404183699998,2.00212724639122,2.00070831121924,2.00308940106262,2.08187917804347,1.98861820605529,1.9134146419406,1.98913329896018,2.00094156083655,1.90942024224414,1.98369080788959,2.00113593551764,1.97717925607299,1.98028925097047,1.9755076338156,1.97061911058612,1.97087179767154,1.89463804774706,1.89330658118158,1.88769887163206,1.96398121522681,1.96074487678662,1.96048247096715,2.08209299019267,1.95686710189883,1.95505941736467,1.88031263375054,1.95027780020979,1.87599751583029,1.95114276754065,1.94957805135786,1.95048189362494,2.07925511984872,1.95141489209418,1.95409726269326,1.9921072315809,1.87788295023689,1.8797003535051,1.95645891506853,1.95720725759074,1.88483184508594,1.98708264607466,1.9912714204522,2.07120800805149,2.09042194527749,2.04375258434718,2.03460725560177,1.95468038673654,2.0479024837885,1.95388345054406,2.04340270992121,1.9511330488066,1.95036526881628,1.95069570577414,1.94988905084761,2.02612280077209,1.94971411363462,2.02199233879887,2.0222644633524,2.02401383548223,1.9476634607491,2.03354791358982,2.04729020354306,1.94745936733395,2.04923395035399,1.94448543471323,2.04823292074636,2.03499600496396,1.94323171802019,2.03534587938993,1.94120050260277,2.03230391563083,2.03067116830965,2.01780356442133,2.03126401108698,2.03105019893778,2.02556883293097,1.93381426472125,2.02432483497198,1.93362960877422,2.00748226885532,2.0379213439144,2.01151554348798,2.01084495083822,2.01431453889572,1.9305487700789,1.92967408401398,2.02378058586492,2.02753201721001,1.92719580683005,1.92497021673155,1.92345409421902,2.01407157054435,2.00488736686273,2.0102909829971,1.99710266088498,1.99219470018739,1.99784128467313,1.98743252050062,1.98609133520108,1.91072255260746,1.91008111615986,1.91088777108639,1.91133483285291,2.00420705547891,2.00054309274031,1.85237127334349,1.85103980677801,1.84941677819089,1.84621931468692,2.0347724740807,1.84480037951494,1.89068252298683,1.88973980578353,1.88973008704947,1.89860329124135,1.83986326261519,1.96023950261578,1.94654580633281,1.83417780319323,1.83583970671658,1.83677270518582,2.02085524691448,1.93143317487787,1.83424583433162,1.83250618093584,1.88255766131716,1.88319909776477,2.00519836635248,2.00462496104326,1.83055271539086,1.9236095939639,1.82884221819725,1.82899771794212,1.82630562860899,1.82776343871718,1.82547953621434,1.82437160053212,1.82322478991367,1.82173782360331,1.82036748210161,1.81921095274911,1.67007697868088,1.85332370928085,1.66634498480391,1.66383755141782,1.84612212734637,1.66060121297763,1.65654850087685,1.65455616039565,1.65364259939451,1.65271931965932,1.65329272496855,1.65236944523336,1.65197097713712,1.65095051006138,1.74949847337528,1.71611462189765,1.74934297363041,1.6489970445164,1.7520642191657,1.64530392557564,1.64538167544808,1.7621328276463,1.69525821861642,1.64344764737121,1.64351567850959,1.64273817978522,1.72406454635433,1.82791893846206,1.64594536202325,1.70461735951102,1.64454586431938
2.03529728571965,1.8668910620211,2.00239937094475,2.07807915302811,1.99752056644932,2.08203467778835,1.99527553888271,2.00105818564521,1.99500341432918,1.98907498655585,1.99703462974659,1.98849186251258,1.99931853224943,2.07580496925933,1.98101815602457,1.97643091355079,2.09326953435549,1.89813679200672,1.97066770425639,1.96851014529627,2.07530931382255,1.96699402278375,1.96429221471656,1.96524465065391,1.96051162716931,1.95838322441135,1.88413209623401,1.95819856846431,1.9536599196608,1.95378626320351,1.95422360623597,2.06965301060275,1.95136629842391,1.95154123563689,1.95375710700135,1.95020005033735,1.95074429944441,1.94880055263349,1.94965580123029,1.98905554908775,1.87827169959907,1.87912694819588,2.07921624491251,1.99029954704674,1.9905425153981,1.96306765422568,1.96530296305824,1.98427393193287,2.04396639649638,2.03223588449245,1.95469982420464,2.03249829031192,2.03748400088194,1.95327117029861,1.95193970373313,1.95033611261412,1.94902408351674,1.94811052251561,2.03113766754427,1.94710949290798,2.02124399627666,2.02161330817074,2.02784301669976,1.94688596202473,2.03554025407102,2.0456963311581,2.03602619077375,1.94493249647975,2.04807742100149,2.03669678342352,1.94469924686244,2.04620170532894,1.9401022856546,2.03583181609266,1.94044244134651,2.02243940056538,2.02382917953519,2.03989424692749,2.03174994778971,2.01337182169242,2.02553967672881,1.93241476701739,1.93166642449518,2.00362393143563,2.02160358943669,1.93276464144336,2.03227475942866,1.92965464654588,1.92978099008858,2.01447003864059,2.01559741179093,2.01269151030859,1.92625308962676,2.01055338881658,2.01117538779607,2.02377086713087,2.00969814021977,1.99234048119821,2.00342955675454,1.99873540820615,1.98936654857749,1.91342436067465,1.91305504878057,1.91157780120427,1.91083917741612,1.90995477261715,1.91064480273503,1.90914811769062,1.97754856796707,2.03489881762341,1.84923212224385,1.84673440759181,1.84537378482416,1.89454086040651,1.84334256940675,1.84008679349845,1.88965233717704,1.88857355769697,1.88699912278012,1.83797782820859,1.83874560819891,1.8357911130463,2.0319248850027,1.83281718042559,2.02249771296971,1.92615590228621,1.83419724066134,1.83218546271204,1.92387199978337,1.83254505587206,1.87996275932458,1.82948365464485,1.92546587216833,1.8293864673043,1.82699565872687,1.87643485886275,1.82672353417334,1.82553784861867,1.8245465377451,1.82474091242619,1.87283892726253,1.82271941574283,1.82219460410388,1.81856951630151,1.92086891096049,1.6680166070613,1.8500776521066,1.66152449271281,1.66000837020029,1.83971748160437,1.65834646667695,1.65797715478288,1.65515872190703,1.65292341307447,1.64881238856936,1.83303099257479,1.65094079132733,1.64947326248508,1.64727682858873,1.82969746679405,1.73408456116465,1.64780164022768,1.64539139418214,1.64746148453577,1.6459356432892,1.64270902358306,1.64294227320037,1.64270902358306,1.64099852638945,1.64503180102211,1.69246894194274,1.8291726551551,1.74665088429728,1.82269025954067,1.82270969700878,1.64276733598739
1.86518056482749,1.86901946477907,1.92605871494566,2.0046152423092,2.09525215610264,1.9976760661942,2.00014462464407,2.00050421780409,1.99844384618451,1.98762689518172,1.98464324382695,1.9968402550655,1.98052250058778,2.09088844451211,2.07530931382255,2.07569806318473,1.97703347506217,2.08796310556167,1.9708815164056,1.96704261645402,1.96707177265618,1.96610961798477,1.96439912079116,1.96147378184072,1.96080318919095,1.99837581504613,1.95761544442103,2.00066943628302,1.87818423099258,1.95116220500876,1.87956429122834,1.95163842297744,1.99394407231722,1.95055964349737,1.95098726779578,1.94755655467449,1.95368907586296,1.95020005033735,1.98974557920562,1.9511330488066,1.9501903316033,1.95304763941536,1.95389316927811,1.88205228714632,1.88486100128811,1.98546933622159,1.967217553667,2.10601079470111,2.02912588959497,2.0290967333928,2.03684256443434,2.03753259455222,2.0385433428939,1.95154123563689,1.94989876958166,1.94891717744214,1.94908239592107,1.9477703668237,1.94705118050365,2.02236165069295,2.0224782755016,2.02049565375446,2.02203121373509,2.02177852664967,1.94712893037609,1.94562252659762,1.94443684104296,2.03396581915417,2.03122513615076,1.9436787797867,2.02891207744576,2.02928138933984,2.02276011878919,2.03208038474757,2.03112794881022,2.02396524181196,2.02762920455055,2.01874628162463,2.0205734036269,2.01771609581484,2.02588955115478,2.02836782833871,2.02796936024247,2.02858164048791,2.02138005855343,2.02191458892643,2.02495655268553,2.01394522700164,2.03111823007616,2.01107820045553,2.00575233419359,2.00579120912981,2.01113651285985,1.92164640968486,2.00567458432115,1.92153950361026,2.00443058636216,2.01503372521576,2.01514063129036,2.00323518207344,1.98727702075575,1.98427393193287,1.91115017690587,1.91055733412854,1.91153892626805,1.91043099058583,1.90912868022251,1.90697112126238,2.0143825700341,1.85116615032072,1.85023315185148,1.84772571846538,1.89346208092645,1.89254851992531,1.84279832029969,1.83942591958273,1.84096147956336,1.83708370467557,1.8378903596021,1.8852691881184,1.83567448823765,2.02919392073335,2.02106905906368,1.83502333305599,2.02577292634612,1.92849811719337,1.92815796150146,1.83296296143641,1.92103412943942,1.83016396602867,1.82665550303495,2.01338154042647,1.92558249697699,1.82815218807937,1.82561559849111,1.82351635193531,1.82088257500651,1.82622787873655,1.82333169598827,1.82038691956972,1.82190304208224,1.81946363983453,1.81906517173829,1.81892910946153,1.81723804973602,1.84973749641469,1.84585000279284,1.66201042941555,1.84034919931792,1.65864774743265,1.65431319204428,1.6516113839771,1.65239860143552,1.64943438754886,1.6496190434959,1.72894335084975,1.64974538703861,1.6477336090893,1.64674229821573,1.64434177090424,1.6427867734555,1.64638270505571,1.64430289596802,1.64436120837235,1.64450698938317,1.83373074142672,1.64302974180686,1.64229111801871,1.64232999295493,1.64230083675277,1.64142615068785,1.64204814966735,1.64515814456483,1.6403668086759,1.64043483981428,1.64127065094298
1.8647918154653,1.91624279355049,2.00327405700966,1.99908528263212,2.00154412234794,1.99235019993226,1.99820087783315,1.99140748272896,1.99722900442769,2.00119424792197,1.9855956797643,1.98263146587764,1.98305909017604,1.98085293754564,1.97594497684806,1.99734562923634,1.97611991406104,2.07196606930775,2.08292880132137,1.997996784418,1.96425333978034,1.96437968332305,2.09523271863453,1.88759196555746,1.95915100440166,1.96099756387204,1.99750112898121,1.88052644589974,1.88028347754838,1.95288242093643,1.87686248316115,1.99480903964808,1.94837292833508,2.07799168442162,2.07546481356742,1.95038470628439,1.9511330488066,1.98980389160995,2.07242284980832,1.95105529893416,1.95194942246719,1.95309623308563,1.9536599196608,1.95580775988687,2.06379261396781,1.98367137042148,1.98312712131442,2.08061574261637,2.03471416167638,1.95505941736467,2.05542478394678,2.02577292634612,2.0471541412663,2.02515092736662,2.02623942558074,2.02549108305854,2.02649211266616,2.02727933012459,1.94640002532199,2.01833809479433,2.02070946590366,2.04693061038304,2.04419964611369,2.04803854606527,2.0364440963381,2.04269324233522,2.0232071805557,2.0307683556502,2.04142008817407,2.02168133930912,2.02925223313768,2.02487880281309,2.01790075176187,2.02757089214623,2.0363371902635,1.93468895078617,2.01408128927841,2.02730848632675,2.03101132400156,1.93331860928447,2.01338154042647,1.93093751944109,2.00742395645099,2.00741423771693,2.02466499066389,1.93004339590806,2.01404241434219,1.92815796150146,2.0145963821833,2.01120454399824,2.01355647763946,2.01485878800278,2.00857076706943,2.01747312746347,2.00549964710817,1.92048016159831,2.00174821576309,2.00180652816741,2.00130115399657,2.01550994318444,1.9882294566931,1.98425449446476,1.91133483285291,1.91287039283354,1.91064480273503,1.90945911718036,1.90851639997706,1.90706830860293,1.99213638778306,1.84981524628713,1.84918352857358,1.847123156954,1.89179045866905,1.84371188130082,1.84225407119263,1.84062132387145,1.83960085679572,1.83750161023992,2.02524811470717,1.83571336317387,1.88261597372149,1.8336918664905,1.83360439788401,1.82993071641136,1.92733186910682,1.92606843367972,1.82992099767731,1.82928927996376,1.82961971692162,1.82704425239714,1.82967802932594,1.8284243126329,1.8281230318772,1.91353126674925,1.82403144484021,1.82213629169955,1.82088257500651,1.82168922993304,1.82148513651789,1.91738960416894,1.81654801961814,1.81609123911758,1.81903601553613,1.81621758266029,1.81465286647749,1.66410967597134,1.66123293069118,1.75242381232573,1.65767587402718,1.65428403584212,1.65469222267241,1.65241803890363,1.65191266473279,1.7282047270616,1.64901648198451,1.64865688882449,1.6458481746827,1.64798629617472,1.64431261470207,1.64420570862747,1.64304917927497,1.6418440562522,1.64235914915709,1.87748448214065,1.64198011852896,1.64208702460356,1.69144847486701,1.68907710375768,1.64007524665426,1.64116374486837,1.63939493527043,1.64180518131598,1.64142615068785,1.63805374997089,1.63999749678182,1.64042512108022
1.8644710972415,2.00023209325056,1.92546587216833,1.99811340922666,1.99520750774432,1.99924078237699,1.99899781402563,1.99066885894081,1.99616966241573,1.9839240575069,1.98547905495564,1.98536243014699,1.90530921773904,1.97913272161797,1.98365193295337,1.90054703805227,1.89975982059385,1.9000902575517,1.99825919023748,1.96492393243011,1.96672189823022,1.96513774457931,1.96229987423536,1.96057965830769,1.95861647402866,1.95665328974962,1.95498166749223,1.95696428923937,1.99551850723407,1.95132742348769,1.94713864911015,1.94751767973828,1.94717752404636,1.94730386758907,1.94735246125935,1.94580718254466,1.87314992675228,1.94773149188748,1.94861589668645,1.98721870835142,1.98671333418058,1.98566371090268,1.9555453540674,1.95711978898425,1.95861647402866,1.97872453478768,1.89023546122031,2.07253947461698,1.95372795079918,2.03490853635747,2.03797965631873,2.02429567876982,2.04546308154079,2.04826207694852,2.02249771296971,2.02463583446173,1.94655552506687,1.94488390280947,2.02228390082051,1.94624452557712,2.03857249909606,1.94382456079752,2.03173051032161,2.04270296106928,1.94279437498773,2.01472272572601,2.02511205243041,2.02547164559043,2.02284758739568,2.03258575891841,2.02426652256765,2.01988337350902,2.03074891818209,2.02218671347996,2.02214783854375,2.01805625150675,2.01901840617816,2.00579120912981,1.93384342092342,2.01583066140824,2.03146810450213,1.93050989514268,1.93020861438699,1.92934364705613,1.92843980478905,2.02700720557106,1.93046130147241,2.01439228876815,2.02760004834839,2.01474216319412,1.92410524940068,2.01320660321349,2.01141835614744,2.00580092786386,2.00331293194588,2.00834723618618,2.01149610601988,2.01426594522544,2.01108791918958,1.99864793959966,1.9995615006008,1.99460494623294,1.90993533514904,1.91000336628742,1.90854555617923,1.90685449645372,1.90698083999643,1.90950771085064,1.99370110396586,1.84741471897563,1.84749246884807,1.84434359901437,1.84407147446084,1.84105866690391,1.84078654235038,1.83806529681509,2.0347724740807,1.83878448313513,1.8344207715446,1.83280746169153,1.88103182007058,1.88093463273004,1.83114555816819,1.92372621877255,1.82957112325134,1.9395871927497,1.93692425961873,1.82861868731399,1.82799668833449,1.92199628411083,1.92616562102026,1.92043156792804,1.82343860206287,1.82327338358394,1.82368157041424,1.82368157041424,2.01434369509788,1.81853064136529,1.81827795427987,1.8675130610006,1.81369071180608,2.0274056736673,1.8158288332981,1.81361296193365,1.81224262043195,1.66242833497989,1.65968765197649,1.65661653201523,1.83664636164311,1.65154335283871,1.64958016855968,1.65095051006138,1.64973566830455,1.64820982705798,1.64800573364283,1.69497637532884,1.72250954890559,1.72890447591353,1.64435148963829,1.82951281084701,1.64504151975617,1.82678184657767,1.64103740132566,1.82971690426216,1.639851715771,1.68985460248205,1.68945613438581,1.63769415681087,1.69038913285505,1.63968649729207,1.81641195734138,1.82190304208224,1.81969688945184,1.63799543756657,1.63636269024539,1.63662509606486
2.03096273033129,2.03446147459096,1.99604331887302,1.99614050621357,1.99363307282747,1.99858962719533,1.99035785945106,1.99900753275968,1.9857025858389,2.00027096818678,1.9837102453577,1.98243709119655,1.90319053371513,1.97973528312936,2.08596104634642,2.07799168442162,1.9703664235007,2.07851649606057,1.97062882932018,1.96583749343125,1.96422418357818,1.96349527852408,1.96043387729687,1.95750853834643,1.95725585126101,2.06800082581347,1.95367935712891,1.95414585636353,1.94948086401731,1.94769261695126,2.08091702337206,1.94806192884534,1.94713864911015,1.94773149188748,2.08147099121318,1.86999133818453,1.94575858887439,1.94356215497804,1.9472552739188,1.87317908295445,1.98362277675121,1.88005994666512,1.95357245105431,1.95368907586296,1.88267428612582,1.96093925146771,1.98016290742776,2.06845760631403,2.03709525151976,2.02848445314736,2.02566602027152,2.0502155424935,2.04559914381756,2.02260461904431,1.94686652455662,2.02471358433417,2.02080665324421,2.02065115349933,2.0175314398678,2.01898924997599,2.04168249399354,2.0181728763154,2.01722044037805,2.01519894369469,2.02842614074303,2.01509203762009,1.94099640918762,1.9404230038784,1.94011200438865,2.02759032961433,2.01092270071065,2.02857192175385,2.03475303661259,2.02796936024247,2.02256574410809,2.01980562363658,1.93311451586932,1.93321170320987,1.93194826778277,2.0185810631457,2.01408128927841,2.02349874257734,2.02347930510923,1.92788583694793,2.00656870785418,2.01466441332168,2.01457694471519,2.01572375533364,2.01446031990654,1.92419271800718,2.01435341383194,2.02204093246914,1.92276406410115,2.00507202280977,2.00235077727447,2.00420705547891,1.9999891248992,2.0006305613468,1.99828834643964,2.00457636737298,2.00113593551764,1.98386574510258,1.91133483285291,1.90935221110576,1.90817624428515,1.90691280885805,1.90654349696398,1.90697112126238,1.90468721875954,1.8498638399574,1.845344628622,1.84530575368578,1.84224435245857,2.00543161596979,1.83755992264424,1.83909548262488,1.8358980191209,1.83624789354687,1.83278802422342,2.02529670837744,1.94781896049397,1.94017031679298,1.931812205506,1.92805105542686,1.82699565872687,1.92462034230558,1.92723468176627,1.8249741620435,1.82350663320126,1.82358438307369,2.02418877269522,1.8243327255959,1.9193041947777,1.82242785372119,1.92063566134318,1.8167715505014,1.81691733151222,2.00479989825624,1.81606208291541,1.81493470976508,1.81393368015745,1.81343802472066,1.91493076445312,1.80940475008799,1.80955053109881,1.65839506034723,1.65751065554825,1.83701567353719,1.8364131120258,1.83421667812945,1.64979398070888,1.64863745135638,1.82937674857025,1.64510955089455,1.6443709271064,1.69295487864547,1.6415427754965,1.72348142231105,1.69170116195243,1.64028905880346,1.64011412159047,1.64163996283705,1.82866728098426,1.63917140438718,1.63903534211041,1.69870836920581,1.63815093731144,1.8071111288511,1.68809551161816,1.63805374997089,1.63787881275791,1.63829671832226,1.81693676898033,1.63495347380747,1.63559491025507,1.63623634670268
2.12618688659851,2.02878573390305,2.00045562413382,1.91875994567064,1.99564485077678,1.99811340922666,1.99205863791062,1.99522694521243,1.98558596103024,1.99803565935422,1.99970728161162,1.98164987373812,1.97672247557243,1.97743194315841,1.90204372309668,1.97328204371709,1.99385660371073,1.89489073483248,2.08993600857476,1.96540015039879,2.07126632045582,2.08407561193982,1.99660700544819,1.95781953783618,1.9553509793863,1.99513947660594,1.95340723257538,1.95086092425307,1.95125939234931,1.94707061797176,1.94743992986584,1.94906295845296,1.95039442501845,1.87233355309169,1.94712893037609,1.87284864599659,1.94505884002246,1.8713033672819,2.08006177477526,1.94820770985615,1.94775092935559,1.98462380635884,1.98311740258037,1.98418646332638,1.95644919633448,1.88319909776477,1.96101700134015,2.05492912851,2.02753201721001,2.03185685386432,2.0243637099082,2.02850389061547,2.03041848122423,2.02112737146801,2.02136062108532,2.02381946080114,1.9431636868818,1.94499080888407,1.94329003042451,2.0315166981724,2.05109022855842,1.9434649676375,2.03739653227545,2.04087583906701,1.94096725298546,1.9407437221022,2.02806654758301,2.02587011368667,2.02820260985978,1.94008284818649,1.93827516365233,2.02092327805286,2.01566544292931,2.03131260475726,2.03004916933016,2.01363422751189,2.01497541281143,1.93323114067798,1.93290070372012,2.02493711521742,2.01084495083822,2.02511205243041,1.92845924225716,1.92827458631012,2.03234279056705,2.01740509632509,2.01472272572601,2.00330321321183,1.92402749952825,1.9914852326014,1.92312365726117,1.92307506359089,1.92084947349238,1.92065509881129,2.00824033011158,2.01603475482339,1.99718041075741,1.91559163836883,1.91555276343261,1.98734505189413,1.99656813051197,2.00177737196525,1.90777777618891,1.90717521467753,1.9068156215175,1.90691280885805,1.9055521860904,1.90522174913255,1.99607247507519,1.89680532544124,1.84280803903374,1.8438673810457,1.88909836933592,1.84045610539252,1.8390468889546,1.8834712223183,1.83432358420405,1.83280746169153,2.02505374002608,1.83103865209359,1.82993071641136,1.82922124882538,1.82690819012037,1.82542122381002,1.94991820704977,1.94750796100422,1.82573222329977,2.01180710550962,2.01861021934786,1.82146569904978,2.00915389111271,2.00167046589065,1.92326943827199,1.82022170109079,1.81975520185617,1.81712142492737,1.81578023962783,1.91707860467919,1.81220374549573,1.81390452395529,1.91367704776007,1.80930756274745,1.80934643768367,1.80947278122638,1.85646286038049,1.65615975151466,1.65497406596,1.65525590924758,1.6525735386485,1.65121291588086,1.64797657744067,1.93432935762615,1.82446878787266,1.82320535244556,1.82957112325134,1.64061949576132,1.64241746156142,1.82763709517447,1.6392297167915,1.6882801675652,1.63860771781201,1.63714018896976,1.63646959631999,1.63641128391566,1.63815093731144,1.68800804301167,1.63523531709505,1.68691954479755,1.68885357287442,1.74905141160877,1.63440922470041,1.63310691433709,1.63477853659449,1.75497012064804,1.75275424928358,1.63466191178583
