1.97145189084807,2.08246876804733,2.00741892061793,2.0070318662217,2.00810594217124,2.00888005096371,1.96639115461733,1.96187229454132,1.96253996337483,1.9588339175309,2.07940136195719,1.95909517924836,1.95490531540915,1.95487628632943,1.95354094866243,2.09816382381454,2.00241624254663,1.9504832189322,2.00195177727115,1.94867373962981,1.94859632875057,1.99997779985037,1.99973589085273,1.99889404754092,1.94612885697459,1.94609015153496,1.94852859423122,1.94713519840479,1.94710616932507,1.94853827059113,1.94908982310576,1.94837377247273,1.95117991684541,1.99489771089983,1.95210884739637,1.8811037184076,1.95633741667521,1.88533228768644,1.95958867360356,1.8916122452653,1.96986496782352,1.97096807285278,1.97265175947639,2.08201397913176,2.04916273725156,2.04868859561617,2.04265054703495,2.05434926616107,1.95988864076064,1.95814689597759,2.04642432739822,2.03286774717019,1.95597939135869,1.95721796542663,1.95653094387332,1.95460534825207,1.95253460723223,1.95855330309364,1.95471178821103,2.0373962836061,1.95283457438931,2.04558248408641,2.0559071601059,1.95491499176905,2.04012501709954,2.040386278817,1.95270878171053,1.9519830547176,2.04913370817184,2.04776934142512,1.95170244028033,2.03887676667169,2.04303760143119,2.02518471740498,2.03154208586309,2.04579536400434,2.03128082414564,2.02636523331349,1.9483253906732,2.05651677077997,2.04358915394582,2.0363899421759,1.94530636638259,1.94578050801798,2.04481805165385,2.04078300957313,1.9448128720274,2.03216137289707,1.94403876323493,2.02890043960881,1.94036174647073,2.02964551932156,2.02708128394652,2.03929285014764,2.02282368558797,2.02614267703566,1.93901673244382,2.04217640539957,2.01901119978508,1.93837809269004,2.02943263940363,1.93579450459519,1.93537842111924,2.0268780803885,1.93379149809469,2.03301289256878,2.00898649092267,2.01280865308546,2.0048643616028,2.01857576358932,2.00961545431655,1.99862310946356,2.00100349400039,1.92764700955451,1.92715351519931,1.92706642796016,1.92637940640685,1.92675678444317,1.92465701434361,2.0197078976983,2.01958210501952,1.92526662501768,1.85027483574772,1.89707938861208,1.89515379299082,1.89287017205306,1.94713519840479,1.84169190451127,1.88624186551758,1.88486782241096,1.88467429521284,1.88296157950951,1.88175203452129,1.87983611525994,1.82829982240164,1.8282320878823,1.82837723328089,1.82763215356814,1.82528079811103,1.92908878718047,1.82478730375584,1.82447766023885,2.03898320663066,1.82280364997515,1.82116834515107,1.82243594829873,1.91922857643646,1.81994912380294,1.94901241222652,1.81490774029201,1.94980587373879,1.81635919427788,1.94925432122416,1.81870087337509,1.8175590629062,1.8157205545241,1.8182170553798,1.81769453194488,1.81552702732598,1.8786072175519,1.87751378888255,1.81624307795901,1.86537963356067,1.86351209609885,1.81636887063779,1.81796547002225,1.81617534343967,1.81794611730243,1.81761712106564,1.81494644573164,1.79924171360452,1.75005677620333,1.83525712517391,1.79408421377473,1.74401872762211,1.74140611044755,1.84996519223073,1.85200690417086,1.73719689388852,1.85171661337368,1.85142632257651,1.78195973481276,1.82164248678645,1.72726894862517,1.85180370061283,1.72962998044219,1.84576565203161,1.72576911283977,1.7231468193053,1.84783639305146,1.72763665030159,1.72584652371902,1.72529497120439
1.97011655318107,1.96943920798766,2.0917677499168,2.08417180739075,1.96814257576028,2.08270100068507,1.89148645258653,2.0065286955066,1.9596564081229,1.95896938656958,1.95888229933043,1.95770178342192,2.00654804822641,1.88287449227036,1.95524398800585,1.95333774510441,2.00547397227687,2.00488371432261,1.87766861064104,1.87630424389432,1.87642036021319,1.94738678376234,2.08630060657002,1.87491084806789,1.87365292128013,1.87477537902921,1.95094768420768,1.8757623677396,1.9468158785279,1.95203143651712,1.94922529214444,1.99714262639797,1.95058965889116,2.08572002497568,1.88020381693636,1.95512787168698,1.99488803453992,1.88469364793265,1.96098206942999,1.99517832533709,1.96335277760691,1.9896918292705,1.98900480771719,2.06492552753811,2.05244302325963,2.04981105336525,2.04874665377561,2.06221614676449,1.96185294182151,2.05345904104973,2.05585877830637,1.95968543720261,2.03167755490178,1.95691799826955,1.95559233696246,1.95481822817,1.95412153025678,1.958001750579,1.95608583131766,1.95502143172802,2.05283007765586,2.05384609544597,2.04375365206422,2.04108297673022,1.95293133798836,1.95243784363317,2.03629317857684,2.03640929489571,1.95242816727326,1.95171211664023,2.04914338453175,2.05020778412139,2.04253443071609,2.03041962811402,2.02334620902288,1.9488285613883,2.03865421039386,2.0392251156283,1.94880920866849,2.03258713273292,2.03395149947964,2.02624911699462,2.04076365685332,1.94490963562646,2.0397186099835,2.03949605370566,2.0332160961268,1.94508381010476,2.04186676188259,2.04919176633128,2.02665552411067,2.02423643413421,2.02349135442147,2.03181302394046,1.94060365546837,1.94053592094903,2.02238824939221,2.01542127026003,2.01789841839591,2.01873058534781,2.0153632121006,1.93539777383905,2.02880367600975,1.93398502529281,2.0158760591756,1.93173043343475,1.9314691717173,2.02143028976153,2.01622440813221,2.02775862913993,2.01227645329064,1.92810179847008,2.00224206806833,1.92732768967761,1.92799535851111,1.92684387168232,1.92670840264364,1.92684387168232,1.92556659217476,1.92626329008798,1.92491827606107,1.92495698150069,1.84919108343827,1.84866856000335,1.84765254221325,1.84497219051934,1.84469157608207,1.95512787168698,1.83969857437068,1.88521617136757,1.8370762808362,1.95267007627091,1.83271224251869,1.83012865442384,1.82903522575448,1.82769021172758,1.82817402972287,1.82437122027989,1.82528079811103,1.82497115459405,1.82231983197986,1.88296157950951,1.82351970060818,1.82269721001618,1.91520321071564,1.82114899243126,1.86790516349609,1.81932983676896,1.81871054973499,1.81744294658733,2.03979602086274,1.94852859423122,1.94829636159349,1.81561411456514,1.94740613648215,1.94559665717977,1.81517867836938,1.81808158634112,1.93155625895645,1.92977580873378,1.87729123260472,1.86277669274601,1.86478937560642,2.02188507867711,2.02326879814363,1.93958763767826,1.81510126749013,1.81573023088401,1.81499482753117,1.8624283437894,1.79864177929036,1.83329282411304,1.8607543335257,1.82350034788837,1.74128999412868,1.78813325243266,1.78687532564491,1.73773877004325,1.85120376629867,1.84844600372552,1.73423592775735,1.73190392502005,1.72972674404124,1.72853655177283,1.72892360616906,1.72587555279874,1.85338094727748,1.72558526200156,1.72759794486197,1.84537859763538,1.84304659489808,1.84920075979817,1.84766221857315
1.97188732704383,1.8989469260739,1.89653751245735,2.09187418987577,1.96473649707344,1.96584927846261,2.0088703746038,1.96192067634085,1.9618239127418,1.96089498219084,1.9598305826012,2.0071963643401,1.95658900203276,1.95581489324029,1.9561632421969,1.95557298424265,2.00568685219479,1.87786213783916,1.87828789767501,1.94917691034491,1.94928335030388,1.95180888023929,1.9483157143133,1.94711584568498,1.87361421584051,1.95180888023929,1.94920593942463,1.94993166641757,1.95011551725578,1.94991231369775,1.94895435406708,1.94911885218548,1.95226366915486,1.95239913819355,1.99606855044843,1.95585359867992,1.88353248474396,1.99243991548375,1.99160774853185,1.9930204970781,1.89129292538841,1.96894571363247,2.08585549401436,1.99117231233609,2.04546636776754,2.03676732021223,2.07596625419063,2.05916809339416,2.0519011471049,2.03290645260981,2.03226781285603,2.03185172938008,2.03036156995459,2.03557712794381,2.03289677624991,1.95595036227897,1.95760501982287,1.95704379094833,1.95576651144076,1.95469243549122,1.95407314845725,2.04127650392833,2.03940896646651,2.04982072972515,2.04423747005951,2.03513201538815,2.05261719773793,2.0360609459391,1.95193467291807,2.05046904583884,1.95308615974686,1.95246687271289,2.03749304720516,2.04835959937938,2.02685872766869,2.03914770474905,2.03301289256878,2.04017339889907,1.94884791410812,2.02915202496636,2.03286774717019,2.04486643345338,1.94625464965336,2.03250004549377,2.02956810844231,2.04484708073357,2.03025512999562,2.03174528942112,2.02767154190077,2.02761348374134,1.94232604753161,1.94209381489387,2.02198184227616,2.02305591822571,2.03531586622636,2.03117438418667,2.01926278514263,2.01741460040063,1.93862967804759,2.0197078976983,2.01584703009589,2.01538256482041,1.93604608995274,2.02276562742853,2.02352038350119,2.02533953916348,2.01872090898791,2.00571588127451,1.92992095413237,2.00410960553015,2.00173889735323,2.00764147689577,2.00378060929335,1.99608790316824,1.925644003054,1.92638908276675,1.99898113478007,1.92844047106678,1.92461830890399,2.00204854087021,2.00738989153821,2.01841126547092,1.90109507797299,1.94544183542127,1.84638493906559,1.84549471395425,1.84428516896603,1.9616594146234,1.8379084477881,1.92574076665306,1.92539241769645,1.92258627332377,1.95186693839873,1.83248000988095,1.83166719564886,1.95393767941857,1.82816435336296,1.82624843410161,1.82492277279452,1.82509694727282,1.82484536191527,1.82263915185675,1.8220488939025,1.8210522288322,1.81961045120623,1.81951368760718,1.94826733251377,1.86746972730033,1.81812029178074,1.94837377247273,1.81542058736702,1.90809108618488,1.81497547481135,1.94627400237317,1.9488188850284,1.94640947141185,1.91102302323634,1.81812029178074,1.81547864552646,1.81533350012787,1.81433683505757,1.86344436157951,1.86424749945169,1.81214997771886,1.81280797019245,1.81469486037409,1.81440456957691,1.81461744949484,1.93555259559755,1.81392075158162,1.74564435608629,1.74248018639709,1.86096721344363,1.74128999412868,1.73942245666686,1.78898477210437,1.73797100268099,1.84792348029061,1.73528097462717,1.73362631708328,1.84850406188496,1.73146848882429,1.73150719426391,1.72773341390065,1.8547453140242,1.9498155500987,1.72745279946338,1.72692059966856,1.84261115870232,1.84503024867877,1.72490791680815,1.72438539337324,1.72303070298643
0,0,0,0,0,0,0,0,0,0,0,0,0,0,0,0,0,0,0,0,0,0,0,0,0,0,0,0,0,0,0,0,0,0,0,0,0,0,0,0,0,0,0,0,0,0,0,0,0,0,0,0,0,0,0,0,0,0,0,0,0,0,0,0,0,0,0,0,0,0,0,0,0,0,0,0,0,0,0,0,0,0,0,0,0,0,0,0,0,0,0,0,0,0,0,0,0,0,0,0,0,0,0,0,0,0,0,0,0,0,0,0,0,0,0,0,0,0,0,0,0,0,0,0,0,0,0,0,0,0,0,0,0,0,0,0,0,0,0,0,0,0,0,0,0,0,0,0,0,0,0,0,0,0,0,0,0,0,0,0,0,0,0,0,0,0,0,0,0,0,0,0,0,0,0,0,0,0,0,0,0,0,0,0,0,0,0,0,0,0,0,0,0
1.97334845738961,2.01149266813827,2.01139590453922,1.89488285491346,1.96514290418949,1.96602345294091,1.96759102324565,1.88964794420442,1.96197873450029,1.96246255249558,1.95948223364459,1.95900809200921,1.95535042796481,1.95648256207379,1.95626968215587,2.00556105951602,2.00543526683724,2.08424921827,1.9489833831468,1.95030904445389,1.87642036021319,2.08563293773652,1.94825765615386,1.94921561578454,1.87254981625087,1.95029936809399,1.94989296097794,1.94878985594868,1.87462055727071,1.87606233489668,1.9484802124317,1.95144117856287,1.99594275776965,1.95196370199778,1.95390865033885,1.95587295139973,1.95653094387332,1.95830171773608,1.99305920251772,1.89020917307896,1.99568149605219,1.99559440881304,2.08523620698039,1.99046593806297,2.0615678306508,2.05859718815972,2.05504596407429,2.04449873177696,1.96163038554368,2.04194417276183,1.95972414264224,2.03585774238108,2.03597385869995,2.02960681388193,2.03626414949713,1.95625032943605,1.9574985798639,1.95864039033279,1.95422797021574,2.0490562972926,1.95472146457094,2.04040563153681,2.04250540163637,2.03817039239857,1.95367641770111,1.95358933046196,2.0490562972926,1.95337645054403,2.04345368490714,2.04213769995995,2.04851442113787,2.04891115189401,1.95242816727326,2.03880903215235,2.02514601196536,1.95057998253125,2.03337091788529,2.02484604480828,1.94857697603075,2.02605558979651,2.03629317857684,2.03628350221694,1.94713519840479,2.03153240950319,2.030216424556,1.94519025006372,2.02941328668382,2.02581368079886,2.03290645260981,2.02975195928052,1.94353559251983,1.94262601468869,2.02122708620351,2.02781668729936,2.03591580054052,2.01991110125632,2.01784036023648,2.02627814607434,2.02113032260445,2.02465251761016,1.93538809747915,2.01869187990819,1.93419790521073,2.02639426239321,2.02017236297378,1.93336573825883,1.93196266607249,2.01872090898791,2.0188757307464,2.00368384569429,2.00226142078814,2.00192274819144,2.00074223228293,2.00495144884195,2.0015260174353,1.92501503966013,1.92582785389221,1.92576979573278,1.92408610910917,1.92583753025212,2.01231515873027,2.01332150016047,1.90129828153101,2.02532986280357,1.84716872421796,1.84602691374907,1.84303691853818,1.84280468590044,1.84078232668013,1.83731818983385,1.8367279318796,1.8352377724541,1.95129603316428,1.83301220967577,1.83161881384933,1.93270774578524,1.82767085900777,2.04982072972515,1.8282320878823,1.8247195692365,1.82109093427182,1.82015232736096,1.82226177382042,1.82065549807606,1.81983300748407,1.82185536670438,1.82031682547936,1.81924274952981,1.81764615014536,1.94916723398501,1.94785124903782,1.81633016519817,1.81364981350426,1.81489806393211,1.81244026851603,1.81463680221465,1.81550767460617,1.81153069068489,1.81437554049719,1.94471610842834,1.94820927435433,1.94700940572601,1.81431748233776,1.94187125861603,2.03651573485468,1.90447212758011,1.92973710329416,1.90296261543481,1.92117352477752,1.91905440195815,1.74521859625043,1.89660524697669,1.74456060377684,1.74180284120368,1.74080617613339,1.73814517715929,1.84085006119947,1.73425528047716,1.94762869275999,1.85638061884828,1.72995897667898,1.85272295480389,1.73054923463324,1.73090725994975,1.72689157058884,1.72634969443412,1.72725927226526,1.72647548711289,1.72523691304495,1.84522377587689,1.83146399209084,1.72436604065343,1.84842665100571
2.08641672288889,1.89898563151352,1.96963273518578,1.96868445191501,2.01139590453922,1.96881992095369,2.08854552206817,1.96268510877341,2.00874458192503,1.96271413785313,2.00950901435759,2.10948516490433,1.95787595790023,1.88512908412841,1.95745987442428,1.95359900682186,1.9548279045299,2.08241070988789,1.87918779914625,1.95320227606573,1.87786213783916,2.00593843755234,1.87583977861884,1.94909949946567,2.00350967121599,1.94961234654067,1.9484898887916,1.94833506703311,1.87507534618629,1.87632359661413,1.87563657506082,1.9518185565992,2.07548243619534,1.99482030002058,1.95288295618884,1.95807916145825,1.95967576084271,1.88546775672512,1.96284960689181,1.89147677622662,1.99241088640403,1.99257538452243,2.06616410160605,2.09615114095413,2.06412238966593,1.96482358431259,2.03594482962023,2.03577065514193,2.04766290146616,2.06544805097302,2.05849074820075,1.96006281523894,1.96054663323423,2.03482237187116,1.95648256207379,1.95631806395539,1.95812754325778,1.95560201332237,1.95638579847474,2.0487273010558,2.04798222134305,2.03685440745138,2.03840262503631,2.04329886314864,1.95496337356858,2.04957882072751,2.0257072408399,2.03540295346551,1.95327968694497,1.95147020764259,2.02950037392297,2.03712534552874,2.03918641018868,2.04273763427411,1.95137344404353,2.04653076735718,2.0447212880548,1.9494865538619,2.04628885835954,2.02193346047663,1.94873179778925,1.94821895071424,2.03200655113857,1.94817056891471,2.03847035955565,2.04000890078067,1.94551924630052,2.04252475435618,2.02712966574605,2.02670390591019,2.02518471740498,1.94191964041556,1.94206478581415,2.02098517720587,1.93784589289522,2.02055941737001,2.02328815086345,1.93763301297729,2.02036589017189,1.9373040167405,2.02585238623848,2.02031750837237,2.02401387785638,2.01981433765726,2.01861446902894,2.0193789014615,1.93301738930223,2.01212163153215,2.00530947415847,2.01665016796807,2.00247430070607,2.0026968569839,2.00495144884195,2.005357855958,2.00278394422305,1.92399902187002,1.92432801810682,1.92451186894503,1.92490859970116,1.99822637870742,2.00230012622776,2.01581800101617,1.90114345977252,1.84802024388967,1.89638269069886,1.89502800031205,1.8439077909297,2.03613835681835,1.84331753297545,1.83772459694989,1.83726013167441,1.94570309713873,1.94460966846938,1.83325411867341,1.87841369035379,1.83122208309319,1.82923842931251,1.876439712933,1.8250679181931,1.82447766023885,2.04226349263872,1.82157475226711,1.82086837799399,1.82120705059069,1.81920404409019,1.82244562465863,1.82037488363879,1.81944595308783,1.81952336396708,1.92159928461338,2.04434391001847,1.81598181624156,1.94730937288309,1.81696880495195,1.81717200850997,1.9448128720274,1.94940914298265,1.8128757047118,1.8112210471679,1.81230479947735,1.90423989494237,1.81459809677503,1.81167583608348,1.81349499174577,1.81198547960046,1.81298214467076,1.8130498791901,1.81168551244338,1.81481097669296,1.81289505743161,1.74788927158443,1.89571502186536,1.84930719975714,1.89776641016539,1.73653890141493,1.73635505057672,1.73713883572909,1.85151340981566,1.73108143442806,1.85699022952234,1.85566456821525,1.85205528597038,1.72759794486197,1.83254774440029,1.84795250937033,1.72578846555958,1.72494662224778,1.7239886626171,1.83271224251869,1.84570759387218,1.72238238687274,1.72167601259962,1.84833956376656
1.97623201264153,2.09652851899046,1.97281625759479,2.01241192232933,2.01189907525432,2.01205389701281,1.891950917862,1.96343986484606,1.96360436296446,1.96263672697388,1.96196905814038,2.10369870168066,2.08907772186299,1.95775984158136,1.95520528256623,1.95477952273037,1.95469243549122,1.9561632421969,2.08470400718557,2.07772735169348,1.87872333387077,2.09540606124138,1.87467861543015,1.95154761852183,2.00206789359002,1.94864471055009,1.87779440331982,1.94876082686896,1.9488285613883,1.94844150699207,1.87731058532453,1.95005745909634,1.87988449705947,1.88090051484958,1.88139400920477,2.09584149743714,1.95891132841015,1.9589984156493,1.96475584979325,1.99514929625738,1.96540416590694,1.96702011801121,1.9758352818854,1.98986600374881,2.03808330515942,2.06651245056266,2.05627486178232,2.05163988538744,2.0527333140568,1.96037245875593,1.95964673176299,2.04468258261517,1.95937579368563,2.03148402770366,1.95778887066108,1.95678252923087,1.95814689597759,1.95648256207379,1.95502143172802,1.95577618780067,2.04650173827746,2.05549107662995,2.02527180464414,2.0352191026273,2.04175064556372,2.06203229592627,2.03360315052303,2.0220495767955,1.95505046080773,2.05828754464273,2.0415571183656,1.95213787647609,1.95273781079025,2.04864989017655,1.95207981831665,2.04349239034676,2.04558248408641,1.95117024048551,2.03578033150184,1.94812218711518,2.03565453882306,2.04621144748029,2.03870259219339,1.94854794695104,2.02932619944467,1.94550956994062,2.02593947347764,2.02628782243424,2.03282904173057,2.0272070766253,1.94218090213302,2.02883270508947,1.94136808790093,2.02449769585167,2.02258177659032,2.02611364795594,2.02795215633804,2.02932619944467,2.03120341326639,2.02511698288564,2.0285520906522,2.02162381695965,2.0150342158638,2.0185370581497,2.03209363837773,2.02030783201246,2.02152705336059,2.022717245629,2.00561911767545,2.00292908962164,2.00225174442823,2.00591908483253,1.92750186415592,2.00468051076459,1.92538274133655,1.92457960346437,1.9995230109348,1.92576011937287,1.92392161099077,2.001864690032,2.02181734415776,1.92310879675868,1.8535744744756,1.85161017341472,1.84821377108778,1.84761383677362,1.8455721248335,1.95034774989352,1.95161535304118,1.83899220009755,1.83646667016214,1.94523863186325,1.94505478102504,1.83443463458192,1.87842336671369,1.87780407967972,1.93759430753767,1.82738056821059,1.87437864827307,1.82788373892569,1.9519927310775,1.82158442862702,1.82111996335154,1.82113931607135,2.02158511152003,1.81997815288265,1.81597213988165,1.90811043890469,1.8192137204501,1.81583667084297,2.03792848340092,1.81692042315242,1.94603209337553,1.81524641288872,1.81460777313493,1.81570120180429,1.81400783882077,1.81313696642925,1.81285635199198,1.81457874405522,1.81411427877974,1.91131331403351,1.90843943514149,1.94142614606037,1.94154226237924,1.81196612688065,1.81358207898492,1.81514964928966,1.81441424593682,1.74854726405803,1.74675713747545,1.74502506905232,1.74207377928105,1.89802767188285,1.96924568078955,1.73458427671396,1.73457460035405,1.84872661816279,1.84514636499764,1.73112981622758,1.8519101405718,1.85119408993877,1.72859460993227,1.847575131334,1.72487888772844,1.72551752748222,1.7228178230685,1.85121344265858,1.84935558155667,1.72061161300998,1.72220821239444,1.85406796883079,1.72336937558313
2.08817782039175,1.97353230822782,1.97227438144006,2.01161846081705,2.01467619054728,2.09569635203856,1.96811354668057,1.89273470301437,1.9656751039843,1.96594604206167,2.10230530585422,2.10247948033253,2.08524588334029,1.95869844849222,1.95763404890258,2.00768985869529,1.9544989082931,1.95458599553226,2.00558041223583,1.95194434927797,1.87801695959765,1.95205078923694,1.94896403042699,2.00537720867781,1.87501728802685,1.94988328461804,1.87554948782167,1.94830603795339,1.94995101913738,1.87635262569385,1.95177985115957,1.95012519361568,1.95267975263081,1.95312486518648,1.88171332908167,2.08263326616573,1.95990799348045,1.96289798869134,1.88887383541196,1.9651719332692,1.99210124288705,1.99150130857289,1.99241088640403,1.91552253059254,2.05855848272009,2.06231291036354,2.03644800033534,2.03871226855329,2.06677371228012,2.05227852514123,2.0460663020817,2.05617809818327,1.95917259012761,1.95719861270682,1.9573340817455,1.95798239785919,1.95819527777712,1.95729537630588,1.95520528256623,1.95626968215587,2.04510834245103,1.95603744951813,2.02906493772721,1.95517625348651,2.03477399007163,2.02999386827817,1.95471178821103,1.95514722440679,2.04047336605615,2.03976699178303,1.95299907250771,2.05319777933228,2.05595554190543,1.95289263254874,1.95170244028033,2.04049271877596,2.04982072972515,2.04877568285533,2.03309030344802,1.949989724577,2.03460949195323,1.94812218711518,1.94689328940714,2.03644800033534,1.94550956994062,1.94567406805901,2.03527716078673,2.03274195449141,2.02551371364178,2.02858111973192,2.02861982517154,2.02664584775076,2.03185172938008,2.01856608722942,2.02058844644973,1.93908446696316,2.02733286930407,2.02948102120316,1.93846517992919,1.93867805984712,1.93592029727397,1.93504942488244,2.01965951589877,1.93506877760226,2.01518903762229,2.02857144337201,2.02931652308476,1.92978548509369,1.92943713613708,2.02913267224655,2.01993045397613,1.92840176562716,1.92768571499413,1.92583753025212,1.92669872628374,1.92525694865777,1.92354423295445,1.92434737082663,1.92307009131906,1.92284753504123,2.00633516830848,1.9017917758862,1.85265522028454,1.85126182445811,2.03243231097443,1.95428602837518,1.84115970471645,1.84392714364951,1.84241763150421,1.9569857327889,1.9559890677186,1.83534421241307,1.8343959291423,1.83467654357957,1.8802715514557,1.82985771634648,1.93825230001126,1.87531725518393,1.87425285559429,1.87381741939853,1.82313264621194,1.82149734138786,1.8235584060478,1.82159410498692,1.92467636706342,1.92342811663558,1.86749875638004,1.81818802630008,1.81892342965292,2.03375797228152,1.8147142130939,2.02798118541776,1.81452068589578,1.81292408651132,1.94230669481179,1.81568184908448,1.81574958360382,1.94625464965336,1.81332081726746,1.81193709780093,1.8142207187387,1.91208742282598,1.9096296274099,1.9076169445495,1.81248865031556,1.81228544675754,1.81286602835189,1.81268217751368,1.81126942896743,1.89466029863563,1.8926089103356,1.74005142006073,1.73894831503147,1.73986756922252,1.73825161711825,1.73751621376541,1.73303605912903,1.73147816518419,1.84767189493306,1.73068470367192,1.72800435197801,1.72772373754074,1.72770438482093,1.80448630067347,1.72490791680815,1.83541194693241,1.72142442724207,1.84839762192599,1.85005227946988,1.84859114912411,1.84810733112882,1.72192759795717,1.72170504167933
2.10574041362078,2.01263447860716,1.89896627879371,2.08589419945398,2.10564365002172,1.96849092471689,2.01191842797413,1.96414623911919,1.96427203179796,2.10589523537927,2.00871555284531,1.8886125736945,1.95843718677477,1.95728569994597,1.95741149262475,1.95356030138224,1.95552460244312,1.95389897397894,1.9518185565992,1.95273781079025,1.95296036706808,2.00588037939291,1.95101541872702,1.95142182584306,1.94969943377983,1.94883823774821,2.00242591890654,1.87702029452735,2.00232915530748,1.87622683301508,1.95137344404353,1.95484725724971,1.95303777794733,1.95505046080773,1.95476017001056,1.95633741667521,1.95856297945354,2.08231394628883,2.0777467044133,1.96514290418949,1.96845221927727,1.96872315735463,1.99382363495028,2.0865908973672,2.03934123194717,2.06611571980652,2.03576097878202,2.03824780327782,1.96192067634085,1.96123365478754,2.03943799554623,2.04017339889907,1.95912420832808,1.95652126751342,1.95581489324029,1.95808883781816,1.95786628154032,2.02932619944467,1.95521495892613,2.03961217002453,2.03160014402253,2.03067121347157,2.03196784569895,2.02734254566398,1.95536010432472,2.05952611871067,2.02686840402859,2.02470089940969,2.04321177590949,1.95507948988745,2.04386009202318,2.04265054703495,2.04621144748029,2.06044537290172,1.95240881455345,2.04482772801376,2.03977666814293,2.0365544402943,1.94971878649964,2.02911331952674,2.04546636776754,2.03675764385232,2.03349671056407,2.0265394077918,2.04341497946751,1.94529669002269,2.03190978753952,2.02899720320787,2.02608461887622,1.94202608037453,2.03837359595659,1.94239378205095,2.03815103967876,2.02625879335453,2.02901655592768,1.94003275023393,2.02382035065827,2.03325480156642,2.00635452102829,1.93719757678153,2.02373326341911,2.03952508278538,2.0283875925338,1.93530101023999,2.0362254440575,1.92893396542198,2.01906925794452,2.01952404686009,2.02723610570501,2.02291077282712,1.92624393736816,2.00171954463342,2.00101317036029,1.92715351519931,1.92690192984176,1.92519889049834,1.925131155979,1.92516986141862,2.00999283235288,1.92178313545159,2.00250332978578,2.03928317378774,1.90120151793195,1.95150891308221,1.84930719975714,1.84778801125193,1.84266921686176,1.89099295823133,1.88818681385865,1.95709217274786,1.94839312519254,1.83481201261825,1.83464751449985,1.83403790382578,1.83086405777668,1.8285610841191,1.87837498491416,1.93727498766078,1.82582267426576,1.87399159387684,1.90713312655421,1.82287138449449,1.91500000715762,1.82184569034447,1.86774066537769,1.86813739613383,1.86799225073524,1.9054494399306,1.90430762946171,1.81713330307035,1.81807190998121,2.04665656003596,1.94813186347509,1.81541091100712,1.81483032941277,1.81368851894388,1.81434651141748,1.81349499174577,1.81444327501653,1.86179938039553,1.81373690074341,1.8118790396415,1.81463680221465,1.81362078442454,1.81208224319952,1.80856972455371,1.81160810156414,1.81001150217968,1.81218868315848,1.81164680700376,1.74431869477919,1.74144481588717,1.79065878236808,1.73792262088146,1.73608411249936,1.82974160002761,1.73474877483235,1.78131141869907,1.77998575739198,1.83328314775313,1.83163816656914,1.72790758837895,1.84019206872587,1.83887608377868,1.72503370948693,1.72221788875434,1.84688810978069,1.72327261198407,1.82260044641713,1.72036970401233,1.72158892536046,1.72112446008499,1.82382934412516
1.97640618711984,1.97620298356182,1.97554499108822,2.09154519363897,1.97007784774144,2.01256674408782,2.01268286040669,1.89379910260401,1.96491067155175,1.96590733662204,2.00963480703636,1.88680309439212,1.95878553573137,1.95922097192714,1.95810819053797,1.95844686313467,1.95437311561433,1.95457631917235,1.95529236980538,1.95169276392042,1.95191532019826,1.9509863896473,2.09500933048525,1.95197337835769,1.94962202290058,1.95119926956523,1.95051224801191,1.87611071669621,1.94940914298265,1.95241849091336,1.95117024048551,2.0770887119397,1.9526507235511,2.00044226512585,1.88240035063498,1.88618380735815,2.07819181696896,2.08253650256667,1.88828357745771,1.89198962330163,1.89498929487243,1.99287535167951,1.97290334483394,2.082091390011,2.03927349742783,2.03952508278538,2.06184844508806,2.04999490420346,2.05921647519369,2.05502661135447,2.04625982927982,2.03261616181264,2.03216137289707,1.95753728530353,1.95787595790023,1.95964673176299,1.95811786689787,1.95746955078419,1.95692767462946,1.95869844849222,2.03407729215842,1.95625032943605,2.02839726889371,2.04040563153681,2.06319345911497,2.04532122236896,1.95597939135869,2.06138397981259,2.05395253540493,2.04048304241606,2.04093783133163,2.03107762058762,2.02659746595123,2.04808866130202,2.03949605370566,1.95147988400249,1.95164438212089,1.95078318608928,2.03211299109754,1.94925432122416,2.0432214522694,1.94980587373879,2.02177863871814,2.02043362469123,2.04828218850013,2.03349671056407,1.94611918061468,2.04245701983684,2.0283875925338,2.0292100831258,1.94222928393255,1.94225831301227,2.03716405096837,1.94236475297123,1.94153258601933,2.01946598870065,2.0283779161739,2.03300321620887,2.01964016317896,2.02292044918703,1.93576547551547,2.02894882140834,2.01882734894687,1.93386890897394,2.0177145675577,2.01683401880628,2.01740492404072,2.01856608722942,1.92965969241491,1.92839208926725,2.02598785527716,1.92690192984176,2.00138087203671,1.92673743172336,1.92656325724506,1.92478280702239,1.92506342145966,1.92395064007049,1.92502471602003,2.00891875640333,1.9923528282446,1.99170451213091,1.85298421652134,1.84852341460477,1.84784606941136,1.84539795035519,1.89243473585729,1.84248536602355,1.88848678101573,1.83965019257115,1.88553549124446,1.88387115734066,1.83274127159841,1.95827268865637,1.95236043275392,1.8279030916455,1.82766118264786,1.95122829864494,1.82825144060211,1.82574526338651,1.82400351860347,1.82383902048507,1.91622890486566,1.81885569513358,1.94793833627697,1.81633984155807,1.86927920660271,1.86812771977392,1.86662788398852,1.86567960071775,1.86394753229462,1.81499482753117,1.81449165681606,1.81480130033305,1.8142207187387,1.81431748233776,2.03531586622636,1.81151133796508,1.81144360344574,1.81262411935424,1.81162745428395,1.81191774508112,1.81281764655236,1.90221753572206,1.81182098148206,1.89824055180078,1.8967890978149,1.91350017137222,1.81144360344574,1.74454125105703,1.7441638730207,1.74062232529518,1.78882995034588,1.73798067904089,1.73522291646774,1.78358536327693,1.78154365133681,1.73320055724743,1.77887297600281,1.83828582582443,1.72808176285726,1.84451740160377,1.72576911283977,1.85151340981566,1.72138572180244,1.72138572180244,1.72275976490907,1.72263397223029,1.84458513612311,1.84888143992128,1.72119219460433,1.71866666466891,1.71862795922929
1.97685129967551,1.97365810090659,1.97342586826885,1.89951783130834,2.0860877266521,2.01231515873027,1.8957827563847,1.89236700133795,1.9646590861942,1.96431073723759,2.08913578002242,1.88846742829592,1.95837912861533,1.95924032464695,1.95674382379125,1.95670511835163,1.95655997295304,1.95447955557329,2.00622872834952,1.9514895603624,1.95289263254874,1.95289263254874,1.95147020764259,1.95290230890865,1.95203143651712,1.9501542226954,1.95207981831665,1.9519830547176,1.87613006941602,1.87528822610421,2.00211627538955,2.00208724630984,1.95390865033885,1.953995737578,1.95675350015116,1.9565019147936,1.95870812485213,1.88785781762185,1.96348824664559,1.96558801674515,1.89603434174225,1.97012622954097,2.08297193876243,2.07845307868642,2.05970029318898,2.04154744200569,2.04030886793775,2.04046368969624,2.05897456619604,2.03514169174805,2.05217208518226,2.0323839291749,2.03250972185368,2.03192914025933,1.95819527777712,1.95829204137618,1.95887262297053,1.95743084534456,1.95740181626484,2.05286878309548,2.03568356790278,2.04296019055194,1.95560201332237,1.95577618780067,2.05276234313652,2.04562118952604,2.02001754121529,2.05432023708135,1.95570845328133,1.95523431164595,2.03965087546416,2.0267135822701,1.95379253401998,2.02793280361823,2.01943695962094,2.05220111426198,1.95151858944212,2.04354077214629,2.0427279579142,2.01979498493745,2.03967022818397,2.04280536879345,2.02645232055264,2.020046570295,2.01931116694216,2.04207964180051,1.94626432601327,2.02565885904037,2.02970357748099,2.01293444576424,2.03323544884661,1.94219057849293,2.02951005028288,2.02903590864749,2.02702322578709,1.94070041906743,2.02910364316683,2.01474392506662,2.018711232628,2.02666520047057,2.02676196406963,1.93555259559755,2.02517504104508,2.03604159321929,1.93254324766684,2.01625343721193,2.01499551042417,2.01456007422841,1.93187557883334,2.02016268661387,1.9278115076729,2.00895746184295,1.92515050869881,1.92686322440214,1.92612782104929,1.92492795242098,1.9236409965535,1.9244731635054,1.92516018505871,2.002687180624,1.99524605985643,2.00992509783353,1.95825333593656,1.84982004683214,1.93768139477682,1.89456353503657,1.90069834721685,1.89872436979606,1.83918572729567,1.94524830822316,1.83544097601212,1.89217347413984,1.83208327912481,1.83300253331586,1.83052538517998,2.04629853471944,1.82657743033841,1.82797082616485,1.82511629999263,1.8250679181931,1.94260666196887,1.94166805505801,1.82281332633505,1.81885569513358,1.81879763697415,1.81639789971751,1.81992977108312,1.81843961165763,1.92239274612566,1.81841058257791,1.86423782309179,1.86454746660877,1.887944904861,1.88662891991381,1.81479162397314,1.81230479947735,1.81132748712687,1.9051204436938,1.81156939612451,1.94644817685148,2.0333805942452,1.81376592982313,1.8132240536684,1.81199515596037,1.81124039988771,1.89871469343616,1.80936318606599,1.92171540093225,1.8110565490495,1.81757841562601,1.74420257846032,1.74130934684849,1.73945148574657,1.737661359164,1.73445848403518,1.73430366227669,1.73095564174928,1.73129431434598,1.84595917922973,1.77841818708724,1.72689157058884,1.72744312310348,1.84721710601748,1.84521409951698,1.89636333797905,1.84448837252405,1.7211534891647,1.84763318949343,1.72117284188452,1.84559147755331,1.84842665100571,1.72135669272273,1.71789255587645
1.97738349947032,2.09689622066688,1.97618363084201,1.97178088708487,1.97090033833344,1.89481512039412,2.09002600513376,2.10626293705569,1.96621698013903,1.96490099519184,2.09717683510415,1.96498808243099,1.95847589221439,1.88800296302044,2.01216033697178,1.88540002220578,2.09585117379705,1.95691799826955,1.95301842522752,2.08218815361006,1.95308615974686,1.87767828700095,2.09712845330462,1.95178952751948,1.95227334551477,2.00543526683724,1.95246687271289,1.95162502940108,1.87724285080519,2.08293323332281,1.95244751999307,1.95288295618884,2.07514376359864,1.95367641770111,1.95901776836911,1.99925207285744,1.99833281866638,1.96196905814038,1.96474617343335,1.99521703077672,1.97203247244242,2.07580175607223,1.99377525315075,2.1059436171788,2.06026152206351,2.04220543447929,2.0553943130309,2.03801557064008,2.03728984364714,2.03635123673628,2.03587709510089,2.03328383064614,2.03113567874705,2.03590612418061,1.95967576084271,1.95757599074315,1.9573244053856,1.95608583131766,1.95541816248416,1.95455696645254,2.04221511083919,2.03996051898114,1.95608583131766,2.04140229660711,2.04636626923878,2.04604694936189,2.03947670098585,2.04449873177696,2.03407729215842,2.04608565480151,2.02601688435688,1.95277651622987,2.02545565548235,2.02602656071679,2.04925950085062,1.95285392710912,1.95156697124165,2.03269357269189,1.95091865512796,2.03074862435082,2.04577601128453,1.94878017958878,2.03601256413957,2.0355480988641,1.94658364589016,2.02610397159603,2.0282230944154,1.94504510466514,2.03663185117355,2.02829082893475,1.94310015632407,2.02318171090448,1.94229701845189,2.02916170132627,2.01699851692468,2.01963048681905,2.01899184706527,2.02249468935117,2.02312365274505,2.02291077282712,2.03343865240463,2.02724578206492,1.93473010500555,2.01681466608647,2.01597282277466,2.0123635405298,2.01923375606292,1.93028865580879,2.02207860587522,2.01579864829636,2.01382467087557,2.01539224118031,1.92676646080308,1.92448283986531,1.9246279852639,1.923795818312,1.92275077144217,1.92474410158277,1.92390225827096,1.92300235679972,2.0180338874346,1.92256692060396,1.95807916145825,1.84958781419441,1.95392800305866,1.8464139681453,1.95320227606573,1.84281436226034,1.84230151518534,1.83813100406594,1.83607961576591,1.83483136533806,1.83193813372622,1.95229269823458,2.04588245124349,2.03954443550519,1.95323130514544,1.95491499176905,1.95226366915486,1.94675782036846,2.0362254440575,1.94118423706272,1.82117802151097,1.82208759934212,1.81879763697415,1.82107158155201,1.81836220077838,1.8183815534982,1.81782032462366,1.81750100474677,1.81694945223214,1.81559476184533,1.81234350491698,1.92826629658848,1.86198323123374,1.86188646763468,1.8123822103566,2.02735222202388,1.81212094863914,1.81101784360988,1.81144360344574,1.809876033141,1.80989538586081,1.91798032600861,1.91568702871094,1.85846103622803,1.86083174440495,1.85964155213653,1.81044693837544,1.79162641835866,1.83024477074271,1.73892896231166,1.73845482067628,1.73643246145596,1.73506809470925,1.84812668384863,1.7318168377809,1.84247568966364,1.72817852645632,1.72891392980916,1.72743344674357,1.84543665579482,1.72453053877183,1.720814816568,1.72302102662652,1.72060193665007,1.72026326405337,1.83559579777062,1.72099866740621,1.84365620557215,1.71758291235946,1.71756355963965,1.83888576013859
1.97863174989817,1.90221753572206,1.97363874818678,1.97471282413632,2.11315250530862,2.11333635614683,2.09608340643479,1.89490220763327,2.12683487821543,1.96692335441215,1.96485261339231,2.01361179095765,1.96088530583093,1.88556452032418,1.88574837116239,2.01302153300339,1.9586694194125,1.88179073996091,1.88187782720006,2.00813497125096,1.87884912654955,1.95169276392042,1.95220561099543,2.006693193625,1.95222496371524,2.07829825692793,1.9524959017926,1.95184758567891,1.94978652101898,1.95156697124165,1.95169276392042,2.08958089257809,1.95555363152284,1.95529236980538,1.95694702734927,1.95838880497524,1.88746108686571,1.96171747278283,1.89028658395821,1.96560736946496,1.96659435817536,2.09966365959994,1.90243041563999,2.09240638967059,2.04579536400434,2.05294619397473,2.04029919157785,2.06050343106116,1.96362371568428,2.03552874614429,2.03366120868247,2.03915738110896,2.03251939821358,2.03428049571644,2.03485140095088,1.95774048886155,1.95823398321674,1.9576534016224,1.95717925998701,2.03912835202924,2.03041962811402,2.04968526068647,2.05579104378703,2.04566957132556,2.04861118473693,1.95596971499879,2.04313436503025,2.0528978121752,1.95602777315822,2.04932723536996,2.02590076803801,2.04719843619068,2.02497183748706,1.95283457438931,2.04828218850013,2.05616842182336,2.03459981559333,1.95060901161097,1.95011551725578,2.03781236708205,2.04492449161282,1.9483253906732,2.03479334279144,2.03463852103295,1.94585791889722,2.01812097467375,2.03549971706457,1.94539345362175,2.03653508757449,1.94304209816464,1.9434872107203,1.94240345841085,2.0207142391285,2.02492345568753,2.01709528052373,2.03997987170095,1.9383103581707,2.01912731610395,1.93775880565607,2.01855641086951,2.01764683303836,2.02008527573463,1.93521392300084,2.03136791138479,2.01891443618602,2.02790377453851,2.03369023776218,2.02060779916954,2.01497615770436,2.01483101230578,2.02291077282712,1.92589558841156,1.92627296644788,1.92515050869881,1.923795818312,1.92469571978324,1.92578914845259,1.92345714571529,1.92315717855821,2.00284200238249,2.00764147689577,2.01502453950389,1.85400023431145,1.84838794556609,1.84795250937033,1.84563018299293,1.84315303485705,1.95085092060862,1.93126596815928,1.83897284737774,1.83743430615272,1.83343796951162,1.83142528665122,1.95110250596617,1.83091243957621,1.82946098559034,1.82764182992805,2.03292580532962,2.0332160961268,1.8244002493596,1.82483568555537,1.82325843889072,1.87085645326736,1.90863296233961,1.8699275227164,1.86753746181967,1.81816867358027,1.81663013235525,1.81550767460617,1.81583667084297,1.94128100066178,1.81570120180429,1.81497547481135,1.81384334070238,2.0162050554124,1.86178002767572,1.86014472285164,2.040386278817,1.81189839236131,1.80992441494053,1.94292598184577,1.90521720729286,1.80947930238486,1.80840522643531,1.93530101023999,1.94030368831129,1.93872644164665,1.86101559524316,1.8580836581917,1.74292529895276,1.74129967048858,1.78884930306569,1.78684629656519,1.78418529759109,1.73400369511961,1.84534956855566,1.83128014125263,1.73042344195446,1.81917501501047,1.84233054426505,1.72750118126291,1.72443377517277,1.72457892057136,1.72260494315057,1.72395963353739,1.72186953979773,1.82836755692098,1.71884083914722,1.767348431355,1.76540348301393,1.71736035608163,1.84698487337975,1.71728294520238
0,0,0,0,0,0,0,0,0,0,0,0,0,0,0,0,0,0,0,0,0,0,0,0,0,0,0,0,0,0,0,0,0,0,0,0,0,0,0,0,0,0,0,0,0,0,0,0,0,0,0,0,0,0,0,0,0,0,0,0,0,0,0,0,0,0,0,0,0,0,0,0,0,0,0,0,0,0,0,0,0,0,0,0,0,0,0,0,0,0,0,0,0,0,0,0,0,0,0,0,0,0,0,0,0,0,0,0,0,0,0,0,0,0,0,0,0,0,0,0,0,0,0,0,0,0,0,0,0,0,0,0,0,0,0,0,0,0,0,0,0,0,0,0,0,0,0,0,0,0,0,0,0,0,0,0,0,0,0,0,0,0,0,0,0,0,0,0,0,0,0,0,0,0,0,0,0,0,0,0,0,0,0,0,0,0,0,0,0,0,0,0,0
1.97723835407174,2.01758877487893,1.97557402016794,1.97464508961698,1.97498376221369,1.89840504991917,1.96888765547303,2.01793712383554,1.96853930651642,2.09096461204462,1.89092522371199,1.96103045122952,1.89123486722897,1.9593274118861,1.88565160756333,1.95938547004553,1.87938132634437,2.08606837393229,1.88192620899959,1.95389897397894,1.95508916624736,1.88025219873589,1.87887815562927,1.95097671328739,1.94977684465907,2.00842526204814,1.95204111287703,2.00541591411743,1.95237010911383,1.95160567668127,1.95345386142328,1.87989417341938,1.9533183923846,1.99924239649753,1.95512787168698,2.08543941053841,1.99727809543665,1.96177553094227,1.96357533388475,1.9683361029584,1.97180023980468,1.97242920319855,1.99313661339697,1.9866824813398,2.05343968832992,2.06225485220411,2.06169362332957,2.03902191207028,2.03918641018868,2.05477502599692,2.05280104857614,1.96126268386726,2.03227748921594,2.03441596475512,2.03332253608576,1.95874683029175,1.95925967736676,1.9568309110304,1.95603744951813,2.03711566916884,2.04907565001241,2.04136359116748,2.03667055661317,1.9551569007667,2.04104427129059,2.04915306089165,1.95555363152284,1.9559890677186,1.95494402084877,2.04899823913316,2.04894018097373,2.04549539684726,2.02479766300875,2.0420506127208,2.04264087067505,2.03596418234005,2.03264519089236,2.03274195449141,2.02580400443895,1.95025098629446,2.02848435613286,1.94895435406708,2.03731887272686,2.03425146663672,1.94680620216799,1.94733840196281,1.94673846764865,2.02902623228759,2.02864885425126,2.0392154392684,1.94322594900285,2.03023577727581,2.01548900477937,2.02648134963236,2.02032718473227,2.03523845534711,2.02620073519509,2.01731783680157,1.93891029248486,2.02964551932156,2.01692110604543,2.02245598391155,2.02661681867104,2.01561479745815,2.01598249913457,2.024875073888,1.99973589085273,1.93199169515221,1.93132402631871,2.02194313683654,2.02199151863607,2.00163245739426,1.99933916009659,1.92445381078559,1.92437639990634,1.92456992710446,1.92281850596151,1.92275077144217,1.9239699927903,1.99942624733574,1.99708456823854,2.01955307593981,1.85161017341472,1.85089412278169,1.84592047379011,1.84483672148066,1.84501089595896,1.84065653400135,1.84054041768248,1.83794715322773,1.83646667016214,2.03726081456742,1.83220907180359,1.82930616383185,1.82858043683891,2.03240328189471,1.82799017888466,1.82667419393747,1.9549924026483,2.04860150837702,1.82174892674542,1.92124125929687,1.82234886105957,1.82159410498692,1.86791483985599,1.81876860789443,2.02940361032391,1.81629145975854,1.8160495507609,1.81567217272457,1.90453018573955,1.81552702732598,1.81433683505757,1.81443359865663,1.9389877033641,1.81155971976461,1.81024373481742,1.86128653332052,1.81112428356885,1.81180162876225,1.81153069068489,1.9081201152646,1.80958574234382,1.80806655383861,1.80818267015748,2.02489442660781,2.02382035065827,1.8107178764528,1.93775880565607,1.74323494246974,1.8360602630461,1.7384935261159,1.73701304305031,1.73410045871867,1.73227162669647,1.73250385933421,1.73041376559456,1.84461416520282,1.84375296917121,1.8424079551443,1.95974349536205,1.82717736465257,1.72325325926426,1.77111253535836,1.82781600440635,1.81600116896137,1.76805480562812,1.71766999959862,1.76789998386963,1.76525833761535,1.71457356442876,1.81297246831085,1.71473806254716
1.97847692813968,1.97711256139296,2.09395460725551,2.09344176018051,2.01701786964449,2.01540191754022,1.89751482480784,1.96796840128198,1.89431194967902,2.01266350768688,1.89297661201202,1.96226902529746,1.96335277760691,2.10055388471127,1.96070145499272,1.95863071397288,1.88520649500766,2.01109593738214,2.01006056687222,1.95462470097188,1.95442149741386,1.95372479950064,2.00794144405285,2.00620937562971,2.00607390659103,1.95071545156994,1.95464405369169,2.0048643616028,1.95290230890865,1.87852013031275,1.95477952273037,1.95213787647609,1.88262290691281,1.95236043275392,1.95823398321674,2.00188404275181,1.88529358224681,1.96017893155781,1.99899081113998,1.9940171621484,1.89519249843045,1.97036813853862,1.99482997638048,1.98814361168558,1.98773720456953,1.9676684341249,1.9653267550277,2.05030454772044,2.04741131610861,2.03902191207028,2.04900791549307,1.96198841086019,1.95979187716158,1.95946288092478,2.03350638692397,2.03306127436831,1.95826301229646,1.95715023090729,1.95846621585448,1.95902744472902,1.95808883781816,1.95700508550871,1.95697605642899,2.03945734826604,2.0397282863434,1.95492466812896,1.95541816248416,1.95502143172802,2.03619641497779,2.03387408860039,2.04901759185297,2.05002393328318,1.95295069070818,1.95321195242563,2.02432352137337,2.02195281319645,1.95250557815251,1.95243784363317,2.04536960416849,2.03930252650755,2.04894018097373,2.05212370338273,2.03301289256878,2.03666088025326,2.03563518610325,2.03149370406357,2.05033357680016,1.94639011869204,2.02285271466769,2.03978634450284,1.94235507661132,2.04183773280287,1.94056495002875,2.03566421518297,1.94132938246131,2.03947670098585,1.93856194352825,2.02263015838985,1.93734272218012,2.02913267224655,2.01597282277466,2.01993045397613,2.01830482551196,2.01599217549447,2.01799518199497,2.01882734894687,2.00353870029571,2.00298714778108,2.01697916420486,2.00941225075853,2.00530947415847,2.00205821723012,1.92584720661203,2.00398381285137,1.9223056588865,2.00167116283389,1.92309912039878,1.99975524357254,2.00499015428158,1.99614596132767,1.92237339340584,1.99584599417059,1.8997887693857,1.85079735918263,1.84627849910662,1.84454643068348,1.84445934344433,2.04020242797879,1.83845032394283,1.83576029588902,1.95154761852183,1.95726634722616,1.95478919909028,1.95610518403747,1.8290545784743,1.82836755692098,1.82593879058463,1.9218024881714,1.82544529622943,1.82308426441242,1.82185536670438,1.82424542760111,1.92850820558612,1.92716319155922,1.81694945223214,1.86757616725929,1.86638597499088,1.81500450389107,1.81526576560853,1.94620626785383,2.03876065035282,1.81494644573164,2.02047233013086,2.03313868524755,1.91792226784917,1.81264347207406,1.8135433735453,1.81178227604244,1.86065756992664,1.85846103622803,1.80816331743767,1.8060441946183,1.81095978545045,1.80886969171079,1.80765047036266,1.93945216863958,1.85796754187283,1.8579191600733,1.80869551723249,1.7409900269716,1.83531518333335,1.73579382170218,1.84110164655702,1.82761280084833,1.7823564655689,1.73457460035405,1.73033635471531,1.84622044094719,1.72585620007892,1.72663998523129,1.7244821569723,1.89200897602144,1.72310811386568,1.8295577491894,1.76975784497154,1.72095028560668,1.84789445121089,1.71772805775805,1.84883305812175,1.85116506085905,1.82085870163408,1.8477493058123,1.84692681522031
1.97825437186185,1.97901880429441,1.97657068523824,2.01650502256948,1.97165509440609,2.09040338317008,2.01548900477937,1.8957730800248,2.01528580122135,2.01223774785102,1.96543319498666,1.96557834038525,1.88847710465582,1.96161103282387,2.01017668319109,1.9573340817455,1.88504199688926,1.95812754325778,1.95811786689787,1.95528269344547,2.00949933799768,1.88062957677222,1.95096703692749,2.0073608624585,1.95209917103647,1.87941035542409,1.95188629111854,1.95197337835769,1.95250557815251,1.95314421790629,2.09116781560264,1.95404411937753,1.95366674134121,1.95539880976434,1.95786628154032,1.95884359389081,1.95894035748987,1.99793608791025,1.96956500066644,1.96815225212019,1.96899409543199,2.07711774101942,2.08958089257809,1.98989503282853,1.9893531566738,2.05329454293134,2.05953579507058,2.03970893362359,2.06199359048665,2.05571363290779,2.04534057508877,1.96219161441822,1.95984025896111,1.95896938656958,1.95872747757194,1.95804045601863,1.95551492608321,1.95430538109499,1.95689864554974,2.04202158364108,2.03939929010661,1.95451826101292,2.02902623228759,2.02922943584561,2.0285520906522,2.0425634597958,2.04203126000098,2.04431488093875,2.03611900409854,2.04147970748635,2.03950573006557,2.05262687409784,2.05158182722801,2.036380265816,2.02413967053516,2.03858647587452,2.0410539476505,1.95225399279496,2.03999922442077,2.02525245192432,2.04498254977225,2.04807898494211,2.03570292062259,1.94856729967085,2.02485572116819,2.02891011596872,2.02875529421022,2.0213722316021,1.94435808311182,1.94485157746702,2.02711031302624,2.0327129254117,2.01942728326103,1.94235507661132,1.93978116487638,1.93724595858106,2.02805859629701,2.03233554737537,2.03193881661923,2.03309030344802,2.02125611528323,2.01926278514263,1.93368505813573,2.02234954395258,2.01643728805014,2.01209260245243,2.01246030412885,2.0222140749139,2.02274627470872,2.00187436639191,1.99994877077065,1.99876825486215,2.00289038418202,2.00330646765797,1.99591372868993,2.00203886451031,2.0010325230801,1.92452154530493,1.92431834174691,1.92471507250305,1.99650398664419,2.01995948305585,2.0115313735779,1.8971180940517,1.84566888843256,1.84531086311604,1.84368523465187,1.83914702185605,1.83867288022066,1.94828668523358,1.94675782036846,1.83349602767106,1.83247033352104,1.83116402493376,1.87817178135614,1.82799017888466,1.94207446217406,1.93938443412024,1.82334552612987,1.87185311833765,1.87144671122161,1.87180473653813,1.82215533386146,1.82002653468218,1.81797514638215,1.81789773550291,1.81590440536231,1.81528511832834,1.94370009063823,1.81175324696272,1.944648373909,1.81380463526275,2.02923911220551,1.8132143773085,1.8125563848349,1.81256606119481,1.81013729485845,1.90182080496592,1.80901483710938,1.81134683984668,1.81025341117732,1.81095978545045,1.81033082205657,1.87883945018964,1.80814396471786,1.80756338312351,1.81057273105421,1.85654511696668,1.79791605229743,1.78827839783125,1.82521306359169,1.82625811046152,1.84234022062496,1.84065653400135,1.73039441287474,1.72942677688416,1.84301756581837,1.72752053398272,1.72575943647987,1.72412413165578,1.72306940842605,1.84120808651598,1.84175963903061,1.71912145358449,1.72082449292791,1.7184828138307,1.84294015493912,1.71529929142169,1.84958781419441,1.84512701227783,1.71555087677924,1.84585273927077,1.82135219598928
1.90603969788485,2.10588555901937,1.97833178274109,1.97297107935328,2.11570706432376,1.97002946594192,2.10390190523868,1.9723421159594,2.01554706293881,1.96559769310506,1.96819095755981,1.89283146661343,1.96184326546161,2.01394078719444,1.95969511356252,1.9594919100045,2.01206357337272,1.9559987440785,1.95573748236105,2.00940257439862,1.95596003863888,2.08160757201571,1.95247654907279,1.95517625348651,1.95473114093084,1.87928456274531,1.95138312040344,1.95313454154639,2.00165181011407,2.00467083440468,2.00213562810936,2.00614164111037,1.95503110808792,1.88200361987884,2.00225174442823,1.95962737904318,1.95987896440073,1.96044019327527,1.96606215838054,1.96786196132302,1.96960370610606,1.97229373415987,1.90126925245129,1.99476224186114,2.05663288709884,2.04953043892798,2.05712638145403,1.96510419874986,2.05371062640729,2.04608565480151,2.04886277009448,2.06372565890979,1.96057566231395,1.96235611253661,1.95930805916629,1.96067242591301,1.9598305826012,1.95444085013367,1.95394735577847,2.03166787854187,2.03288709989,2.03146467498385,1.95654062023323,1.95567942420161,2.02650070235217,2.05219143790208,2.04169258740428,2.03372894320181,2.04947238076854,1.95342483234356,2.04142164932692,2.0378801016014,1.95326033422516,2.03825747963772,2.03013901367675,2.03289677624991,1.9516637348407,1.9523314036742,2.0388961193915,2.04970461340628,1.94807380531565,2.04910467909212,2.03950573006557,2.03201622749848,2.03958314094482,1.94523863186325,2.03534489530607,2.03190011117961,2.02182702051767,1.94547086450099,2.01896281798555,2.03297418712915,2.02923911220551,2.04982072972515,2.01963048681905,2.01918537426339,2.01983369037708,2.02216569311437,1.93890061612495,2.03871226855329,1.93679116966549,1.93537842111924,2.01418269619209,2.02626846971443,2.01976595585773,2.00657707730613,2.00451601264619,2.01897249434546,2.00395478377165,2.03247101641405,1.9988650184612,1.99776191343194,2.00232915530748,2.00213562810936,1.92553756309504,1.92445381078559,1.9246376616238,1.99961009817395,1.92512147961909,2.00906390180192,1.99908757473904,1.89963394762721,1.85110700269962,1.89558922918659,2.03701890556978,2.04496319705244,1.95344418506337,1.95450858465301,1.83831485490415,1.83585705948807,1.83497651073665,1.95500207900821,1.83158978476962,1.95041548441286,1.82853205503938,1.87730090896462,1.87603330581696,1.9152902979548,1.92871140914414,1.927801831313,1.87115642042444,1.82158442862702,1.86866959592865,1.82056841083691,1.81851702253688,1.86615374235314,1.8650893427635,1.8822745579562,1.87553981146176,1.81387236978209,1.81498515117126,1.81297246831085,1.81060176013393,1.81218868315848,1.81202418504008,1.94195834585519,2.03282904173057,1.80646995445415,1.94224863665236,1.94007145567355,1.81109525448913,1.80922771702731,1.80856004819381,1.90564296712871,1.8083761973556,1.8070505360485,1.89598595994272,1.80831813919616,2.01365049639727,1.73836773343712,1.83479265989844,1.73260062293327,1.84188543170939,1.83828582582443,1.78100177518209,1.72739474130395,1.84462384156273,1.84343364929432,1.72526594212467,1.71896663182599,1.81150166160517,1.72125992912367,1.71976976969817,1.71911177722458,1.71691524352596,1.84537859763538,1.71841507931136,1.7179699667557,1.71629595649199,1.71112878030229,1.84362717649243,1.71556055313915,1.7133059612811
1.98145724699067,1.97963809132838,1.97928974237177,1.9785059572194,2.01919505062329,2.11907443757097,1.89781479196492,1.96778455044377,1.96835545567821,1.97028105129947,1.96643953641686,1.96524934414845,1.96408818095975,1.88792555214119,2.01293444576424,2.01297315120386,1.95645353299408,1.95513754804689,1.95504078444783,2.11170105132275,1.88179073996091,1.88139400920477,1.95606647859784,1.95510851896717,1.95358933046196,1.95310551246667,2.09354820013947,2.10022488847447,1.95385059217942,1.95506981352755,2.08939704173988,1.95514722440679,1.95473114093084,1.95655029659313,1.95746955078419,2.00017132704849,1.96087562947103,1.99811026238855,1.96768778684471,1.96660403453526,1.99560408517295,1.99677492472155,1.99615563768758,1.99261408996206,1.96831675023859,2.05684576701677,2.06244837940222,2.04753710878738,1.96268510877341,2.04831121757985,2.03993148990142,2.04396653198214,1.96167876734321,1.96231740709699,1.95856297945354,1.95919194284742,1.96185294182151,1.95902744472902,2.04567924768547,2.04582439308406,2.03245166369424,2.04669526547558,2.05176567806622,2.04487610981329,1.95528269344547,2.04117974032927,2.04899823913316,2.02863917789135,2.0332257724867,2.03235490009518,2.0465597964369,2.04465355353546,2.03876065035282,2.03746401812545,2.05045936947894,2.03193881661923,2.03244198733433,2.03815103967876,2.03250004549377,2.02901655592768,2.03920576290849,2.02915202496636,2.03952508278538,2.03570292062259,1.94825765615386,2.02857144337201,2.03919608654858,2.03967990454387,1.94479351930759,2.04301824871138,2.02268821654929,2.03206460929801,2.02098517720587,2.02186572595729,2.01766618575818,1.94057462638866,1.93972310671695,1.93892964520467,2.02041427197142,2.01639858261052,1.93652990794803,1.93532036295981,1.93529133388009,2.00688672082311,2.02280433286816,2.00781565137407,2.02919073040598,2.0167082261275,2.00295811870136,2.02206892951532,2.02232051487287,2.01277962400575,1.925131155979,1.92803406395074,1.99704586279891,1.9236409965535,1.92448283986531,1.99960042181404,1.99623304856683,2.00003585800981,1.99962945089376,1.85235525312746,1.89824055180078,1.84947169787554,1.84581403383114,1.95205078923694,1.84256277690279,1.88873836637328,1.83810197498622,1.83652472832157,1.95278619258978,1.95759534346296,1.83184137012717,1.83182201740735,1.8781040468368,1.82587105606529,1.87457217547119,1.87401094659665,1.92874043822386,1.82457442383791,1.82230047926005,1.82128446146994,1.8687663595277,1.82114899243126,1.81828478989914,1.81632048883826,1.86456681932859,1.88353248474396,1.81366916622407,1.81534317648777,1.81348531538586,1.88148109644393,1.81116298900847,1.80994376766034,1.81109525448913,1.81135651620658,1.81160810156414,1.81111460720894,1.80753435404379,1.80818267015748,2.01184101709488,1.80973088774241,1.80547328938386,1.80697312516926,1.94179384773679,1.80661509985274,1.80640221993481,1.93576547551547,1.80646027809425,1.73530032734699,1.73350052440451,1.83608929212581,1.84171125723108,1.73217486309741,1.77853430340611,1.82446798387895,1.72753988670253,1.72621422539544,1.72291458666756,1.84037591956408,1.83816003314565,1.72049549669111,1.7186376355892,1.84482704512075,1.8442367871665,1.84182737354995,1.71808608307456,1.71643142553067,1.80983732770137,1.83197683916585,1.84576565203161,1.83850838210226,1.71253185248864
1.90639772320137,1.97780925930618,1.9768416233156,1.97696741599438,1.9758352818854,2.10317617824574,2.09969268867965,1.89691489049368,1.96758134688575,1.96730073244848,1.96555898766544,1.8904414057167,1.96469779163382,1.89003499860066,1.96193035270076,1.9611562439083,1.95840815769505,1.95585359867992,1.95506981352755,2.10867235067224,1.88333895754584,2.0071963643401,1.88074569309109,1.95207014195675,1.95366674134121,1.95224431643505,1.9516540584808,1.95296036706808,1.95498272628839,2.00316132225938,2.00530947415847,2.00396446013156,1.9551665771266,1.88179073996091,1.95828236501627,1.95725667086626,2.08574905405539,1.96503646423052,1.96669112177441,1.8949409130729,2.08543941053841,1.89998229658382,2.08455886178698,2.07972068183408,2.05913906431444,2.0483886284591,1.96524934414845,2.04640497467841,2.05602327642477,2.0367286147726,2.03480301915135,2.03228716557584,1.96155297466443,1.96168844370311,1.96039181147574,1.96043051691536,1.95658900203276,1.95802110329882,1.95786628154032,2.06914442045704,2.03869291583348,2.04962720252704,2.02879399964985,2.02846500341305,2.05297522305445,2.04835959937938,2.0290455850074,2.0263845860333,1.95496337356858,1.95404411937753,2.0465694727968,1.95493434448887,1.9546537300516,2.03715437460846,2.04680170543454,2.0508948056747,2.0238784088177,2.03086474066969,2.03837359595659,2.03459981559333,2.03961217002453,2.03545133526504,1.94786092539772,1.9484802124317,2.0398927844618,2.03250004549377,2.03920576290849,2.04442132089772,1.94490963562646,1.94392264691606,2.02891011596872,2.03728984364714,2.0422247871991,2.01324408928122,2.02522342284461,1.93870708892684,2.02506860108611,2.01876929078744,2.03190978753952,1.93684922782492,2.01674693156712,2.01883702530678,2.01996915941576,2.0202110684134,2.02506860108611,2.02648134963236,2.02737157474369,2.02293980190684,2.00272588606362,2.01980466129736,1.99889404754092,2.02147867156106,1.92607943924977,1.92548918129551,1.92785988947243,1.9236313201936,1.92470539614314,1.92365067291341,1.9249763342205,2.01640825897042,1.99314628975688,1.99193674476865,1.84876532360241,1.84765254221325,1.84705260789909,1.94935108482322,1.84001789424757,1.83992113064851,1.88619348371805,1.88536131676615,1.8365634337612,1.83310897327483,1.94783189631801,1.83128014125263,1.93592997363387,1.82781600440635,2.03529651350655,1.82466151107706,1.823229409811,1.82433251484026,1.82327779161053,1.94639011869204,1.82085870163408,1.81962012756614,1.94968008106002,1.8182267317397,1.81496579845145,1.8157108781642,1.90509141461408,1.90484950561644,2.02560080088093,1.81395945702125,2.01539224118031,1.81152101432498,1.81141457436602,1.81101784360988,2.02470089940969,1.80792140844003,1.81041790929572,1.8088793680707,1.80800849567918,1.80886969171079,1.80610225277773,1.80684733249048,1.80896645530985,1.8065473653334,1.80766982308247,1.80601516553858,1.80718600508718,1.73670339953333,1.73571641082294,1.73229097941628,1.84099520659805,1.72950418776341,1.72838173001434,1.72597231639779,1.89682780325453,1.72488856408834,1.7239886626171,1.72185986343783,1.80865681179287,1.84632688090615,1.84598820830945,1.71657657092926,1.71561861129859,1.71603469477454,1.71498964790471,1.7148057970665,1.71209641629287,1.71257055792826,1.71489288430565,1.71212544537259,1.83154140297009
2.02198184227616,1.97832210638119,1.9791833024128,1.97744155762976,1.97581592916558,1.97320331199102,1.97238082139903,1.96907150631124,1.89468932771535,1.9690037717919,1.96457199895504,1.96555898766544,1.9636720974838,1.88870933729356,1.96212387989888,1.88772234858317,1.88584513476144,1.95836945225542,2.0925902405088,1.95612453675728,1.9551569007667,2.09319017482296,1.87975870438069,1.88151012552364,1.95189596747844,1.9548279045299,2.10274074204998,1.95327001058507,1.95302810158742,2.00843493840804,1.88175203452129,1.95405379573744,2.08104634314117,1.95587295139973,1.95825333593656,1.99922304377772,1.88868998457375,1.96222064349793,1.96541384226685,1.96647824185649,1.89535699654885,1.90122087065176,2.08497494526293,2.08501365070255,1.96828772115887,2.03960249366463,2.06473200033999,2.0417312928439,2.06237096852298,2.03775430892262,2.04326983406893,2.03329350700605,1.96215290897859,1.96191099998095,1.95856297945354,1.95961770268327,1.95743084534456,1.9573340817455,1.95919194284742,1.95705346730824,2.03190011117961,2.03181302394046,2.02933587580457,1.95790498697995,2.05409768080352,1.95643418027426,2.02866820697107,2.02828115257484,2.04063786417455,1.95576651144076,1.95604712587803,1.95519560620632,1.95479887545018,1.95419894113602,2.03662217481364,2.04953043892798,2.03634156037637,1.95208949467656,1.95096703692749,1.94876082686896,2.03980569722265,2.03349671056407,2.04374397570431,2.03920576290849,2.04053142421558,2.03968958090378,1.94616756241421,2.03900255935047,1.94509348646467,2.03365153232256,2.0297132538409,2.03409664487823,2.02343329626203,2.01615667361287,2.01978530857755,2.01980466129736,2.01222807149112,2.01147331541846,2.02034653745208,2.01849835271007,2.02365585253987,1.93506877760226,2.02185604959739,1.93535906839943,1.93503007216263,2.01862414538885,2.01917569790348,2.01230548237036,2.01605023365391,2.02292044918703,1.99784900067109,1.92684387168232,1.92511180325919,1.92635037732713,1.92506342145966,1.92520856685824,1.99899081113998,1.92316685491812,1.92186054633084,1.99616531404749,1.99271085356111,2.00593843755234,1.84976198867271,1.8479138039307,1.84256277690279,1.8412371155957,1.88971567872376,1.83910831641642,1.88622251279777,1.88555484396427,1.88473235337228,1.89196059422191,1.88095857300901,1.83212198456443,1.82988674542619,1.8280675897639,1.82565817614736,1.94878985594868,2.02092711904643,1.82267785729637,1.91493227263828,1.94839312519254,1.94813186347509,1.81901051689207,1.81639789971751,1.81686236499299,1.81482065305286,1.81327243546793,1.94702875844583,1.81424974781842,1.9453160427425,1.90981347824811,1.81126942896743,1.85914805778134,1.81128878168724,1.81118234172828,1.81057273105421,1.94438711219154,1.94220025485283,1.80769885216219,1.94291630548586,1.93977148851647,1.80622804545651,1.80467015151168,1.93933605232071,1.80773755760181,2.02257210023042,2.03492881183013,1.73825161711825,1.91274541529957,1.73434236771631,1.73317152816771,1.81958142212652,1.77687964586221,1.72766567938131,1.72534335300392,1.94684490760762,1.84003724696738,1.72020520589394,1.84431419804574,1.84313368213724,1.9471448747647,1.71766032323871,1.71522188054245,1.71559925857877,1.83880834925934,1.84219507522637,1.82149734138786,1.84013401056644,1.84688810978069,1.84638493906559,1.71036434786974,1.7615135863318
2.09595761375601,1.97941553505054,1.97978323672696,2.02092711904643,2.01985304309689,1.89992423842438,1.97359036638725,2.01964983953887,1.89417648064034,1.89508605847148,1.96525902050836,1.96522999142864,1.96569445670412,2.01634052445108,1.96069177863282,1.96012087339837,1.95823398321674,1.95806948509834,2.01259577316754,1.88459688433359,1.95386026853932,2.00880264008446,1.95423764657565,1.95328936330488,2.08202365549166,1.95369577042092,1.95420861749593,1.95397638485819,1.95368609406102,1.87918779914625,2.0030258532207,2.00247430070607,1.95571812964124,1.95736311082522,1.95892100477006,1.95835977589552,1.95934676460591,1.96239481797624,1.89018014399924,1.96961338246597,1.96857801195605,1.89968232942674,1.99596211048946,2.08204300821147,1.96924568078955,2.07768864625386,2.06236129216307,2.04181838008306,2.04169258740428,1.96304313408993,1.96267543241351,2.03432887751597,2.03708664008912,1.95803077965872,1.96179488366208,1.95840815769505,1.95838880497524,1.9568309110304,2.04446970269725,2.03368056140228,2.02891011596872,2.03563518610325,2.03977666814293,2.03202590385838,2.04309565959062,2.055897483746,2.05316875025256,2.03587709510089,2.04542766232792,1.9568309110304,2.05622647998279,2.05234625966057,2.05250108141906,2.04864989017655,1.9544989082931,2.03277098357113,2.04770160690578,2.04169258740428,2.04867891925627,2.04174096920381,2.04790481046381,2.03726081456742,2.03966055182406,2.04116038760946,2.03864453403395,1.9471545511246,2.02310430002524,2.03543198254523,2.03065186075176,1.94500639922551,2.03191946389942,2.03560615702353,2.03877032671273,2.03191946389942,2.021381907962,2.02878432328994,2.02819406533569,2.01998851213557,2.02013365753416,2.02052071193039,2.01313764932226,2.02819406533569,1.93501071944282,2.0157115610572,1.93277548030458,1.93190460791306,2.02383002701817,2.03515136810796,2.01290541668452,2.02431384501346,1.92793730035168,1.92699869344082,1.92515050869881,1.92425060722757,1.92545047585589,1.92382484739171,1.92412481454879,1.9246376616238,1.92488924698135,2.00200015907068,1.99654269208381,1.99756838623383,1.89660524697669,1.94844150699207,1.94824797979396,1.962830254172,1.84018239236597,1.88791587578129,1.88650312723504,1.88556452032418,2.02214634039456,1.88221649979677,1.8799425552189,1.87848142487313,1.82802888432428,1.95550524972331,1.93370441085554,1.82365516964686,2.0490659736525,2.04736293430908,1.81877828425433,1.81902019325198,1.8177138846647,1.81589472900241,2.01690175332562,1.81508191477032,1.81476259489343,1.81424974781842,1.9453160427425,1.8140465442604,1.81160810156414,1.86118009336156,1.86146070779882,1.85917708686105,1.81117266536837,1.81032114569666,1.80915030614806,1.81000182581977,1.80955671326411,1.8082116992372,1.80647963081406,1.80566681658197,1.80524105674612,1.93604608995274,1.807718204882,1.94140679334055,2.04266989975477,1.80748597224426,1.8062183690966,1.83426046010362,1.73231033213609,1.73139107794504,1.72962030408228,1.72594328731808,1.84338526749479,1.72493694588787,1.85610968077092,1.89204768146106,1.83481201261825,1.72049549669111,1.71719585796323,1.71782482135711,1.76528736669506,1.76341015287334,1.84534956855566,1.8432401220962,1.83964051621124,1.71348981211931,1.7104804641886,1.71098363490371,1.71166098009711,1.84420775808678,1.84244666058392
1.98521167463412,1.97964776768828,2.09567699931875,2.09614146459422,1.97344522098866,1.97593204548445,1.97342586826885,1.89799864280313,1.970842280174,1.96914891719049,1.96858768831595,1.96378821380267,2.01477295414634,1.96385594832201,1.96526869686826,1.96055630959414,2.08752950427806,1.95936611732572,1.9588339175309,1.95850492129411,1.95786628154032,1.95503110808792,1.95512787168698,1.95667608927191,2.0060255247915,1.95375382858036,1.88141336192459,1.95480855181009,1.95459567189216,1.88225520523639,2.00862846560616,2.08933898358045,1.95737278718513,1.95734375810541,1.95876618301156,2.00240656618673,1.9611659202682,1.99990038897112,1.96323666128804,1.96765875776499,1.96998108414239,1.97310654839196,2.07306334621889,1.98977891650966,1.96792969584236,2.06249676120175,2.08234297536855,2.0402314570585,2.05639097810119,1.96238514161633,2.03814136331885,2.03710599280893,2.03602224049948,1.96106915666914,1.95893068112996,1.95931773552619,1.95752760894362,1.95798239785919,2.05835527916207,2.03633188401647,2.03848003591555,2.03034221723478,2.04931755901005,2.02817471261588,2.02727481114464,2.05512337495353,2.0440536192213,2.04184740916277,2.04303760143119,2.03951540642548,1.95498272628839,2.04227316899863,1.95230237459449,2.04771128326569,2.04485675709348,1.95183790931901,2.04283439787317,2.03778333800234,2.05264622681765,1.94908014674586,1.9484802124317,2.02324944542382,2.02928749400504,2.02706193122671,2.04192482004202,2.02274627470872,2.0250395720064,2.03584806602118,2.02642329147293,2.022204398554,2.02274627470872,2.02887141052909,2.02908429044702,2.03495784090984,2.02553306636159,2.01381499451567,2.01250868592838,2.02735222202388,2.03232587101546,2.03558680430372,2.02031750837237,2.01176360621564,2.00697380806227,2.03896385391084,1.93294965478288,2.03284839445038,2.01629214265155,2.01628246629165,2.01855641086951,2.02630717515406,2.03564486246315,1.92644714092619,1.92479248338229,1.9239603164304,1.92326361851718,1.92540209405636,1.92394096371058,2.00141957747634,2.00187436639191,1.99671686656212,1.99593308140975,1.99613628496777,1.95537945704453,2.0283779161739,1.84385940913017,1.84201122438816,1.84044365408342,1.83761815699093,1.88638701091617,1.88541937492559,1.83477330717862,1.83288641699699,1.827235422812,1.88805134481997,1.88457753161378,1.82737089185069,2.02984872287958,2.04586309852368,1.94909949946567,1.90832331882262,1.93425596337017,1.8212167269506,1.81779129554394,1.81807190998121,1.90422054222256,1.81566249636467,1.9436517088387,1.81486903485239,1.81443359865663,1.86131556240024,1.86105430068278,1.8612575042408,1.80902451346929,1.85859650526671,1.85800624731245,1.80645060173434,1.94276148372737,1.80840522643531,1.93472042864565,1.8562548261695,1.8549194885025,1.85818042179076,1.85490013578269,1.80794076115984,1.80572487474141,1.93563000647679,2.03684473109147,1.80865681179287,1.80500882410838,1.83311864963473,1.73223292125685,1.72857525721245,1.72841075909405,1.72736571222423,1.72660127979167,1.72515950216571,1.8153818819274,1.83021574166299,1.72027294041328,1.80243491237344,1.76814189286728,1.71737970880144,1.82759344812852,1.76453261062241,1.82982868726676,1.82771924080729,1.71305437592355,1.84847503280524,1.89330560824882,1.80453468247299,1.70868066124613,1.90667833763863,1.84481736876085
0,0,0,0,0,0,0,0,0,0,0,0,0,0,0,0,0,0,0,0,0,0,0,0,0,0,0,0,0,0,0,0,0,0,0,0,0,0,0,0,0,0,0,0,0,0,0,0,0,0,0,0,0,0,0,0,0,0,0,0,0,0,0,0,0,0,0,0,0,0,0,0,0,0,0,0,0,0,0,0,0,0,0,0,0,0,0,0,0,0,0,0,0,0,0,0,0,0,0,0,0,0,0,0,0,0,0,0,0,0,0,0,0,0,0,0,0,0,0,0,0,0,0,0,0,0,0,0,0,0,0,0,0,0,0,0,0,0,0,0,0,0,0,0,0,0,0,0,0,0,0,0,0,0,0,0,0,0,0,0,0,0,0,0,0,0,0,0,0,0,0,0,0,0,0,0,0,0,0,0,0,0,0,0,0,0,0,0,0,0,0,0,0
1.98397310056618,1.98164109782888,2.01944663598084,1.97836081182081,2.10968836846235,1.97560304924766,2.09582214471733,1.97171315256552,1.8979405846437,2.11331700342702,2.01564382653786,1.96796840128198,1.96625568557865,1.96363339204418,2.01332150016047,1.96101109850971,1.88904800989026,2.08783914779505,1.95637612211483,1.95880488845119,1.95587295139973,1.95631806395539,1.95505046080773,1.95551492608321,1.88225520523639,2.10371805440047,1.95250557815251,1.95317324698601,1.9538215630997,1.9524959017926,1.88149077280383,1.95577618780067,1.88373568830198,1.96021763699743,2.08064961238504,1.96196905814038,1.96138847654603,1.89105101639076,2.08222685904968,1.89317013921014,1.99511059081775,1.99527508893615,1.97890268797554,2.08973571433658,1.96897474271218,2.05155279814829,2.05576201470732,2.04990781696431,2.0537299791271,2.05559751658892,1.96114656754839,2.03711566916884,2.03601256413957,1.96005313887903,1.9589984156493,1.95910485560827,2.03013901367675,1.95870812485213,2.03865421039386,2.03068088983148,2.02993581011873,2.03095182790884,1.95640515119455,2.03556745158391,2.04808866130202,2.03473528463201,1.95617291855681,2.04978202428553,1.95561168968227,2.03489978275041,2.04681138179445,2.0353932771056,2.0308840933895,2.03025512999562,2.03595450598014,2.05491049503561,2.02832953437437,2.03373861956171,1.94904144130623,1.9488285613883,1.94911885218548,2.03590612418061,1.95036710261333,1.95057030617135,2.03341929968482,2.02063682824926,1.94527733730288,2.03493848819003,2.02474928120922,2.03329350700605,2.03208396201782,2.02476863392903,1.94168740777782,2.02806827265691,2.02518471740498,2.02516536468517,2.03016804275647,2.02010462845444,2.02320106362429,2.01414399075246,2.03244198733433,2.02516536468517,1.93555259559755,1.93456560688715,2.03163884946215,1.93189493155315,1.93195298971259,1.9288081727432,2.01805324015441,2.01127011186044,2.01234418780999,1.92703739888044,1.927801831313,2.00220336262871,1.92451186894503,1.92369905471294,1.92290559320066,2.00160342831455,1.92277012416198,1.99700715735929,1.9961846667673,2.01901119978508,1.94954461202133,1.84689778614059,1.84348203109385,1.84272727502119,1.84115002835655,1.84000821788766,1.8390696109768,1.93874579436646,1.83411531470503,1.83207360276491,1.82942228015072,1.82830949876155,1.82792244436532,1.82769988808748,1.82563882342755,1.82350034788837,1.82201018846287,1.94569342077883,1.82101352339257,2.02578465171914,1.81812029178074,1.94841247791236,2.03584806602118,1.81549799824627,1.81560443820523,1.81346596266605,1.81229512311745,1.81324340638822,1.85978669753512,1.81117266536837,1.92792762399177,2.00908325452173,1.80734082684568,1.85838362534878,1.80741823772492,1.80726341596643,1.80485400234989,1.80450565339328,1.80681830341076,1.88774170130298,1.91568702871094,1.80517332222678,1.80453468247299,1.80464112243196,1.80520235130649,1.80585066742018,1.73530032734699,1.73353922984413,1.73152654698372,1.72946548232379,1.84166287543155,1.72460794965108,1.72538205844354,1.83798585866735,1.72171471803924,1.71974074061846,1.84008562876691,1.84043397772352,1.76583891920969,1.71508641150377,1.82811597156343,1.87495922986742,1.82767085900777,1.71268667424713,1.70907739200226,1.93832971089051,1.93970375399713,1.84538827399529,1.71031596607021,1.89508605847148,1.70756787985696
2.02522342284461,1.97893171705525,1.98035414196141,1.97929941873167,2.11556191892517,1.97545790384907,2.11336538522655,1.97035846217871,2.09211609887341,1.89599563630263,1.96907150631124,2.10214080773582,2.09012276873282,1.96329471944748,2.10245045125281,1.96256899245454,1.96343986484606,2.0145407215086,1.88523552408738,1.9551665771266,1.95789531062004,1.95870812485213,1.95812754325778,1.95655029659313,1.95461502461197,2.00840590932832,1.87805566503727,1.88003931881796,1.95326033422516,1.95501175536811,1.881268216526,1.95456664281245,1.95443117377376,1.95802110329882,1.95865006669269,1.88706435610957,2.00192274819144,1.89003499860066,1.89182512518323,1.96923600442964,1.89689553777387,1.97529340573067,2.08236232808836,1.99916498561828,1.91837705676475,2.05329454293134,2.05537496031108,1.9646590861942,2.0435601248661,2.04536960416849,2.04368591754488,2.04385041566327,2.03608029865892,1.96476552615316,1.95801142693891,1.95905647380874,1.95847589221439,2.05941967875171,2.06059051830031,2.03311933252774,2.04884341737467,1.9564922384337,2.04676299999492,2.03795751248064,1.95676317651106,2.05071095483649,1.95684058739031,2.03809298151932,2.04209899452032,1.95459567189216,1.95439246833414,2.03645767669524,1.95461502461197,1.95292166162846,2.03553842250419,1.9528152216695,2.03590612418061,2.0388864430316,1.95172179300014,2.03967990454387,2.03803492335989,2.0313775877447,2.02982937015977,2.02633620423377,2.03289677624991,2.03220007833669,2.02649102599227,2.04876600649542,2.03523845534711,2.02391711425732,1.94374847243776,2.03718340368818,1.94175514229716,2.0305454207928,2.02859079609183,2.0320549329381,1.93909414332307,2.02446866677195,2.02698452034746,1.93787492197494,2.02489442660781,2.03107762058762,2.02528148100404,2.00194210091125,2.02317203454458,2.01531483030107,1.93186590247343,1.92985321961303,1.92967904513472,2.01601152821428,1.92792762399177,2.01701786964449,1.9251408323389,1.92498601058041,1.92512147961909,1.92249918608462,1.92310879675868,1.92248950972471,1.92274109508226,1.99996812349047,2.00318067497919,1.84963619599393,1.84919108343827,1.84793315665051,1.84215636978675,1.95462470097188,1.84113067563674,1.8377342733098,1.88502264416945,1.95569877692142,1.9313143499588,2.02315268182477,1.82917069479316,1.82901587303467,1.95087027332843,1.87488181898817,1.82741927365021,1.95570845328133,1.95463437733179,1.82098449431286,1.86996622815602,1.86868894864846,1.82012329828124,1.94849956515151,2.02007559937472,1.95040580805295,1.94938979026284,1.81277894111274,1.81378528254294,1.81173389424291,1.81101784360988,1.85827718538982,1.92832435474791,2.00170986827351,2.00338387853721,1.80827943375654,1.80767949944238,1.80768917580229,1.80752467768389,1.8048733550697,1.80541523122442,1.80590872557962,1.80515396950697,1.80506688226781,1.80791173208012,1.85494851758222,1.80607322369802,2.03461916831314,1.7346616875932,1.73392628424036,1.732320008496,1.73075243819126,1.72499500404731,1.72527561848458,1.72460794965108,1.72387254629823,1.72202436155623,1.84594950286982,1.84122743923579,1.83849870574236,1.82681933933606,1.76465840330119,1.76441649430354,1.76294568759786,1.71049014054851,1.70952250455793,1.71022887883105,1.84311432941742,1.80259941049183,1.70961926815699,1.70892257024377,1.84415937628725,1.70454885556635
1.98379892608787,2.02281400922806,1.9805089637199,2.02339459082241,1.97681259423588,1.90147245600931,1.90072737629657,1.97290334483394,2.01906925794452,1.97210020696176,1.96932309166879,2.09238703695077,2.01712430960345,2.0890873982229,1.96285928325172,2.11579415156291,2.01345696919915,2.09917016524474,1.95935644096582,1.95807916145825,1.95774048886155,1.95226366915486,1.95534075160491,1.87949744266324,1.95545686792378,1.95339580326384,1.95343450870347,1.95528269344547,1.88196491443922,1.95835977589552,1.95789531062004,1.95633741667521,2.00243559526644,2.00246462434616,1.88489685149067,1.88743205778599,2.07495991276043,1.99922304377772,1.96569445670412,1.96844254291736,1.89493123671299,1.99575890693144,1.99391072218943,2.08126889941901,2.08204300821147,2.05895521347623,1.96698141257159,1.96670079813432,2.04571795312509,2.05851977728047,2.04657914915671,2.03925414470802,2.03930252650755,1.95926935372666,1.95988864076064,1.95773081250164,1.95820495413703,1.95813721961769,1.95879521209128,1.95590198047945,2.03085506430978,2.03359347416312,2.02947134484325,2.02910364316683,1.95829204137618,2.04261184159533,1.95619227127662,1.95422797021574,2.04883374101476,2.03641897125562,1.95488596268934,2.03812201059904,2.0418861146024,2.06570931269048,2.04285375059298,2.03754142900469,2.0453889568883,2.03268389633198,2.03395149947964,2.0488917991742,2.03136791138479,2.03374829592162,2.03632220765656,2.02853273793239,2.03026480635553,2.02608461887622,2.0230462418658,1.94426131951277,2.0282134180555,1.94536442454203,2.03329350700605,2.0273812511036,2.03230651829565,2.0255427427215,2.03258713273292,2.03668990933298,2.02361714710024,2.01554706293881,2.01686304788599,1.93596867907349,2.0285520906522,2.02136255524219,1.93308512382157,2.01856608722942,2.01745330584025,2.01542127026003,2.0190402288648,2.02616202975547,1.99930045465696,1.99865213854328,2.02246566027145,1.92470539614314,1.92524727229787,1.99722971363712,1.92303138587944,1.92262497876339,1.92331200031671,1.92336038211624,2.00299682414098,2.01475360142653,2.01049600306798,1.84937493427648,1.97056166573673,1.84612367734813,1.84196284258863,2.05017875504167,1.8882739010978,1.88666762535344,1.9084587878613,1.83545065237203,1.83463783813994,1.95261201811147,1.95543751520397,1.82838690964079,2.04116038760946,1.82736121549078,1.82490342007471,1.82444863115913,1.92701804616063,1.82101352339257,1.81881698969396,1.86655047310928,1.91223256822456,1.81617534343967,1.81736553570809,1.95260234175157,1.81464647857456,1.81458842041512,1.80975024046222,1.85948673037804,1.859080323262,1.85815139271104,1.8580836581917,1.81106622540941,1.85812236363132,1.85749340023745,1.80826008103673,1.80744726680464,2.01252803864819,1.93862967804759,1.80252199961259,2.03519974990749,1.93888126340514,1.80400248267818,1.80746661952445,1.80793108479993,1.80528943854565,1.80562811114235,1.73291994281016,1.73259094657336,1.83772459694989,1.7288171662101,1.72494662224778,1.72230497599349,1.72425960069447,1.72209209607557,1.72105672556565,1.71942142074157,1.71766032323871,1.84095650115843,1.71154486377824,1.83451204546117,1.77899876868158,1.71261893972779,1.70937735915934,1.84296918401884,1.71129327842069,1.71120619118154,1.83935990177397,1.84259180598251,1.70558422607627,1.70809040329187,1.84242730786411
2.02277530378844,2.02240760211202,1.97958970952885,1.90255620831876,1.97859304445855,1.97390968626414,1.97372583542593,1.97206150152213,1.97241952683865,2.09305470578427,1.89468932771535,1.96818128119991,1.96512355146967,2.10233433493394,1.96459135167486,1.96337213032672,1.96004346251913,2.00917034176088,2.01366984911708,1.95619227127662,1.95544719156387,1.95677285287097,1.95600842043841,1.95577618780067,1.87982643890004,1.95191532019826,1.9533280687445,2.00480630344337,1.95498272628839,1.9558245696002,2.00475792164384,1.95531172252519,2.08515879610114,1.95504078444783,1.95738246354503,1.9650074351508,1.89018014399924,1.89126389630869,1.96656532909564,1.96786196132302,1.96917794627021,1.99525573621634,1.97521599485143,2.07987550359257,2.04191514368211,2.04196352548164,2.04202158364108,2.03957346458491,2.03653508757449,2.03579968422165,2.03618673861788,2.04297954327175,1.96164973826349,1.95977252444177,1.95887262297053,1.95857265581345,2.02842629797343,2.03025512999562,1.95469243549122,1.949989724577,2.05851010092056,2.03583838966127,2.02934555216448,2.0385574467948,2.03676732021223,1.95619227127662,2.03833489051697,1.95509884260726,2.0280489199371,1.95619227127662,2.05182373622565,2.03893482483113,2.06565125453104,2.03623512041741,2.03732854908676,2.03285807081028,2.023539736221,2.02945199212344,2.02932619944467,2.03110664966733,2.03727049092733,1.94853827059113,1.94751257644112,2.04007663530001,2.03216137289707,2.02931652308476,2.03313868524755,2.03489978275041,2.0268780803885,2.03149370406357,2.02607494251632,2.03299353984897,2.0227075692691,2.02573626991961,2.02547500820216,1.93995533935468,1.93918123056222,2.00744794969765,2.00558041223583,1.93724595858106,2.01894346526574,2.0305454207928,1.93383987989422,2.01991110125632,2.0230365655059,2.02974228292062,1.93237874954844,1.9319820187923,2.02529115736395,2.03248069277396,2.02307527094552,1.925131155979,1.92438607626625,1.99597178684937,1.92155090281385,1.92270238964264,1.92519889049834,1.99790705883053,2.0095283670774,2.01321506020151,2.01092176290383,1.84721710601748,1.84688810978069,1.84578500475143,1.93510748304188,1.84365620557215,1.88785781762185,1.83916637457586,2.03424179027681,1.83453139818098,1.83476363081872,1.88151012552364,1.82770956444739,1.82874493495731,1.82837723328089,1.82788373892569,1.82475827467612,1.92489892334126,1.92721157335874,1.82146831230815,1.81949433488736,1.86603762603427,1.81790741186281,1.86440232121019,1.81668819051468,1.81516900200947,1.81251767939528,1.81386269342219,1.94854794695104,1.94687393668733,2.03303224528859,1.94443549399107,1.81067917101318,1.80995344402024,1.80610225277773,1.94192931677547,2.01903055250489,1.80587002014,1.80813428835795,1.80826975739663,1.80826975739663,1.80616998729707,1.80607322369802,1.80515396950697,1.80393474815883,1.93861032532778,1.80634416177538,1.88121015836656,1.83254774440029,1.88695791615061,1.82201018846287,1.72839140637424,1.72700768690771,1.72205339063594,1.83504424525599,1.83008994898422,1.72075675840857,1.71861828286938,1.71889889730665,1.71724423976276,1.7144768008297,1.84127582103532,1.7118061254957,1.70821619597065,1.70824522505036,1.81053402561459,1.70793558153338,1.70762593801639,1.84260148234242,1.70804202149234,1.84113067563674,1.81132748712687,1.80866648815277
1.98225070850294,1.98225070850294,2.02548468456206,1.97645456891937,1.97810922646326,1.97541919840945,1.89866631163663,1.97520631849152,1.97006817138154,1.97062940025608,2.09924757612399,1.96901344815181,2.0167082261275,2.01934019602188,2.01618570269259,1.96129171294698,2.01365049639727,1.95986928804082,1.95927903008657,1.95825333593656,1.95636644575492,1.95691799826955,1.95862103761298,1.9559890677186,2.00850267292738,1.9536570649813,1.88237132155526,1.88244873243451,1.95673414743134,1.95555363152284,1.95572780600114,1.95588262775963,2.00435151452779,1.8844323862152,1.95892100477006,1.96505581695033,1.96009184431866,1.99721036091731,1.9983618477461,1.96930373894898,1.99707489187863,1.97531275845048,1.99586534689041,2.08171401197467,1.96739749604754,2.04982072972515,2.04011534073964,2.03907029386981,2.04519542969018,2.03810265787923,2.04130553300805,2.03530618986645,1.96156265102434,1.96112721482858,1.95977252444177,1.96051760415451,1.95921129556723,1.95881456481109,1.95155729488174,1.95121862228504,2.04284407423307,2.07500829455996,2.04063786417455,2.02896817412815,2.04245701983684,1.95701476186861,2.03994116626133,1.95539880976434,2.06184844508806,2.03576097878202,2.02879399964985,2.04446970269725,2.04243766711703,1.95251525451242,2.02572659355971,2.03997019534105,2.02494280840734,2.02501054292668,2.02394614333704,2.02516536468517,2.03728016728724,2.03487075367069,2.01964983953887,2.01823709099262,2.01755974579921,2.03276130721123,2.02951972664278,2.04674364727511,2.03035189359468,1.94507413374485,2.0375511053646,1.9418228768165,1.94170676049763,2.02956810844231,1.94178417137688,2.03351606328388,2.02980034108005,2.03144532226404,1.93786524561503,2.02445899041205,2.01589541189541,2.01365049639727,2.0223688966724,1.93822327093155,1.93353023637723,2.02508795380593,2.02596850255735,2.01707592780392,2.01821773827281,2.01850802906998,2.00955739615711,1.92611814468939,1.92560529761438,1.92349585115492,1.92328297123699,1.92108643753837,1.92155090281385,1.92048650322421,1.92201536808933,1.92144446285489,2.0128667112449,1.93060797568568,1.92896299450169,1.84704293153918,1.84235957334477,1.9394811977193,1.83958245805181,1.83753106975178,1.83588608856779,2.04225381627882,1.83494748165693,1.92172507729216,1.87997158429862,1.89848246079842,1.87608168761649,1.874591528191,1.92154122645394,1.9209606448596,1.93553324287773,1.93802974373343,1.94984457917841,1.92968872149463,1.94847053607179,1.81796547002225,1.94649655865101,1.94549989358071,1.81440456957691,1.81159842520423,1.81132748712687,1.81141457436602,1.80934383334618,1.80834716827588,1.8097115350226,1.80945027330514,1.8083858737155,1.80816331743767,1.8075537067636,1.80662477621265,1.89822119908096,1.80484432598998,1.93925864144147,1.80606354733811,2.00851234928729,1.89469900407525,1.93346250185789,1.80274455589042,1.80291873036873,1.86598924423474,1.85513236842043,1.84409164176791,1.84397552544904,1.84380135097074,1.72484985864872,1.8364086120027,1.72279847034869,1.72109543100527,1.71900533726562,1.71774741047786,1.83335088227247,1.81902019325198,1.71460259350848,1.71396395375469,1.71399298283441,1.70979344263529,1.70795493425319,1.8427369513811,1.84478833968113,1.84368523465187,1.84470125244198,1.84171125723108,1.70391021581257,1.70417147753002,1.84004692332729
1.98424403864354,1.90827493702309,1.9795122986496,1.97912524425337,1.97911556789346,1.97477088229576,1.9744999442184,1.97422900614103,1.97197441428298,1.89653751245735,2.01968854497849,1.89306369925117,2.10599199897833,1.96579122030317,2.10675643141089,1.96187229454132,1.96152394558472,1.96193035270076,1.96070145499272,1.95920161920732,1.88512908412841,1.88188750355997,1.95674382379125,2.01242159868923,1.95341515598365,1.95492466812896,2.09351917105975,1.95200240743741,1.9546537300516,1.95473114093084,2.00237753710701,1.95608583131766,1.95623097671624,1.95690832190965,1.95970478992243,1.88763526134402,2.0819268918926,1.96453329351542,2.08623287205068,2.0001906797683,1.97030040401928,2.09274506226729,1.9765126270788,1.98012190932367,1.96941017890794,2.05861654087953,1.96718461612961,2.05680706157714,2.04875633013552,2.04528251692933,2.04669526547558,1.96163038554368,1.96074983679225,1.96158200374415,1.95985961168092,1.95880488845119,1.95969511356252,1.95857265581345,1.95384091581951,2.06091951453711,2.04253443071609,2.03025512999562,2.02933587580457,2.04613403660104,2.04588245124349,2.04342465582742,1.95801142693891,2.03618673861788,1.95497304992849,1.95607615495775,2.02533953916348,2.05246237597944,2.0265490841517,1.95363771226149,2.02403323057619,2.02500086656677,2.02425578685403,2.02484604480828,2.02512665924555,1.94939946662275,1.94861568147038,1.94910917582557,2.02029815565255,2.04209899452032,2.03767689804337,1.94769642727933,2.04867891925627,2.02880367600975,2.03082603523007,1.94318724356322,1.94192931677547,2.02406225965591,2.02467187032998,2.0357125969825,1.94139711698065,1.93926831780137,1.93906511424335,2.02640393875311,2.02159478787993,1.9364718497886,2.01688240060581,2.02240760211202,2.02294947826674,1.93340444369846,2.01891443618602,2.03069056619138,2.02157543516012,2.0148697177454,1.99977459629235,1.99940689461593,1.92595364657099,2.01671790248741,1.92438607626625,1.92182184089121,1.92235404068603,1.91974142351147,1.92287656412095,1.92140575741526,1.92115417205771,1.99520735441681,2.01293444576424,1.84959749055431,1.84765254221325,1.84801056752976,1.89209606326059,1.89109939819029,1.84058879948201,1.83839226578339,1.83810197498622,1.83477330717862,1.8811037184076,1.83119305401348,1.82974160002761,1.83168654836867,1.87572366229998,1.87434961919335,1.872433699932,1.87178538381831,1.93253357130694,1.93786524561503,1.93656861338765,1.86788581077628,1.94773513271895,1.81612696164014,1.95042516077276,1.81303052647029,1.86204128939317,1.86044469000871,1.81129845804715,1.94718358020432,2.03574162606221,1.9454805408609,1.80776658668153,2.03577065514193,1.80872454631221,1.80600548917868,1.94160032053867,1.94238410569104,1.94152290965942,1.80490238414941,1.80662477621265,1.93942313955987,1.80450565339328,1.80807623019852,1.80457338791262,1.92085420490063,1.855074310261,1.80597646009896,1.7798599647132,1.77788598729242,1.7775279619759,1.72499500404731,1.84162416999193,1.72451118605202,1.71936336258213,1.83162849020924,1.7174764724005,1.71502835334433,1.71393492467498,1.82557108890821,1.81794611730243,1.81598181624156,1.7106352859471,1.70886451208434,1.70735499993903,1.70681312378431,1.70778075977489,1.70547778611731,1.70467464824512,1.70534231707862,1.84432387440565,1.70536166979844,1.70491655724277
1.90976509644858,1.98169915598831,1.90656222131976,1.97915427333309,2.02126579164313,1.97340651554904,1.97353230822782,1.90139504513007,1.97270981763582,1.96990367326314,1.97114224733108,1.9664975945763,1.96819095755981,1.96642986005696,1.9688295973136,1.96231740709699,1.96358501024465,1.96545254770647,1.95951126272431,1.9584952449342,2.00946063255806,1.95672447107144,1.88322284122697,1.95506013716764,1.95536010432472,2.09961527780041,1.95388929761904,1.88209070711799,1.95489563904924,1.88191653263969,1.95562136604218,1.95791466333985,1.95838880497524,2.00565782311508,1.95895003384977,1.95895971020968,1.95909517924836,1.96255931609464,1.89217347413984,1.89512476391111,2.06764458467164,2.06725753027541,2.07054749264338,2.07911107116001,1.96870380463482,1.96702011801121,1.96826836843906,1.96671047449423,2.04713070167134,2.05269460861718,2.0467242945553,1.9623367598168,1.95991766984035,1.96072080771253,1.96118527298801,1.95874683029175,1.95943385184506,1.9588339175309,1.95775016522145,2.06182909236825,2.04318274682977,2.05257849229831,2.03589644782071,2.04045401333634,2.02312365274505,1.95546654428368,1.95496337356858,2.04226349263872,1.95485693360962,1.95536010432472,2.04199255456136,2.04702426171238,1.95377318130017,2.03913802838915,1.95300874886761,2.04015404617926,2.03936058466698,2.03607062229901,1.94954461202133,2.04262151795524,2.03699955284997,2.03383538316077,2.04002825350048,2.03248069277396,2.03537392438579,2.03211299109754,2.03236457645509,2.0238784088177,1.9443097013123,2.03578033150184,1.94202608037453,2.0238784088177,2.02141093704172,2.02238824939221,2.0285520906522,2.02746833834275,2.02681034586916,2.01627278993174,2.01659210980863,2.02352038350119,2.02194313683654,2.01672757884731,2.01959178137943,2.02044330105114,2.01897249434546,1.93257227674656,2.009363868959,2.01507292130342,1.99964880361357,1.99872954942252,2.00242591890654,1.92504406873984,1.92470539614314,1.92295397500019,1.92223792436716,1.92203472080914,1.92009944882798,1.92212180804829,2.00258074066503,1.99450098014369,2.01298282756377,2.01177328257554,1.96213355625878,2.02623944063472,1.84372394009149,1.84164352271174,1.83936957813388,2.0333902706051,1.83607961576591,1.83553773961118,1.83400887474607,1.83064150149885,2.02193346047663,2.0185370581497,1.9503283971737,1.94980587373879,1.87273366708908,1.82064582171615,1.82161345770673,1.82142960686852,1.81949433488736,1.81668819051468,1.8177138846647,1.89680845053472,1.81097913817026,1.86206064211298,1.9323110150291,1.86003828289267,1.80863745907305,1.94361300339908,1.94656429317035,1.80760208856313,1.94487093018683,2.03583838966127,1.8048733550697,1.80765047036266,1.89120583814926,1.80551199482348,1.80630545633576,1.80506688226781,1.80622804545651,1.80589904921971,1.80517332222678,1.80830846283626,1.80548296574376,1.80611192913764,1.80614095821736,1.80693441972963,1.78013090279056,1.77824401260893,1.77612488978956,1.72442409881286,1.7244821569723,1.72369837181993,1.72193727431707,1.71883116278731,1.7661775918064,1.71309308136317,1.71094492946408,1.93122726271965,1.71144810017919,1.83961148713152,1.83265418435925,1.70814846145131,1.70802266877253,1.83814068042584,1.70535199343853,1.7046359428055,1.70424888840927,1.70191688567197,1.70131695135781,1.70329092877859,1.70367798317483
