1.95817, 1.95868, 1.95888, 2.0771, 2.23681, 2.06259, 2.0739, 1.952, 1.95157, 1.94943, 1.94996, 1.94965, 1.99666, 1.99455, 1.99565, 1.94444, 1.99356, 1.93902, 1.94124, 2.04112, 1.93856, 1.98728, 2.04839, 1.98635, 2.12903, 1.98127, 1.98192, 1.93012, 1.92801, 1.92934, 1.92627, 1.92674, 2.04823, 1.92311, 1.92404, 1.92113, 1.92232, 1.92326, 1.97258, 2.03762, 1.97003, 1.92082, 1.9205, 1.92066, 2.02096, 2.03066, 2.10713, 1.92931, 1.92813, 2.06843, 2.06919, 2.17683, 2.06887, 2.09491, 1.98547, 2.0912, 1.98448, 2.0896, 1.97706, 2.05438, 2.05277, 2.04889, 2.08754, 1.9698, 2.04127, 2.04161, 1.96343, 1.96278, 2.03921, 2.17013, 2.08454, 2.034, 2.03286, 1.95599, 2.03031, 2.02818, 1.95207, 2.02714, 2.07933, 2.02151, 1.94612, 1.94617, 1.94503, 2.02156, 2.02282, 1.94541, 2.01976, 2.02038, 2.02166, 2.02164, 2.07168, 2.02784, 2.02739, 2.06521, 2.02968, 2.06572, 2.13918, 2.06248, 2.04397, 2.15808, 2.03129, 2.12692, 2.03186, 2.03083, 2.13309, 2.10672, 2.10364, 2.10655, 2.0272, 2.02621, 2.02476, 2.02316, 2.02358, 2.02385, 2.12108, 2.12855, 2.02022, 2.02331, 2.10757, 2.11338, 2.0216, 2.02029, 2.12042, 2.11457, 2.01978, 2.10667, 2.01836, 2.10733, 2.01657, 2.10248, 2.09876, 2.08933, 2.01355, 2.01427, 2.09353, 2.0137, 2.10418, 2.0102, 2.09401, 2.09102, 2.00812, 2.11113, 2.10268, 2.09407, 2.0071, 2.10017, 2.09585, 2.09115, 2.09306, 2.00061, 2.00016, 2.09684, 2.08386, 2.09584, 1.99454, 2.06247, 1.99258, 2.09795, 1.98972, 2.07, 2.06692, 1.98456, 1.98386, 1.98468, 1.98366, 1.98374, 1.98175, 1.98106, 2.06718, 2.06668, 1.91228, 2.01295, 1.9068, 1.95454, 1.90197, 2.00519, 1.8961, 1.89656, 1.89478, 1.89527, 1.88917, 1.88664, 2.10374, 1.8858, 1.88415, 1.88321, 1.88244, 1.87891, 1.97023, 1.87808, 1.87759, 1.87653, 2.00028, 1.8745, 1.8733, 1.87351, 1.87572, 1.9234, 1.92168, 1.87329, 2.095, 1.87219, 1.9995, 1.92338, 1.87223, 1.87345, 1.8727, 1.87019, 1.86757, 1.98981, 1.92353, 1.77645, 1.77637, 1.77576, 1.77034, 1.8236, 1.76601, 1.87218, 1.76429, 1.81353, 1.81217, 1.76197, 1.7615, 1.75743, 1.90613, 1.75446, 1.75486, 1.75434, 1.75256, 1.75125, 1.9034, 1.90239, 1.75045, 1.90011, 1.80029, 1.79872, 1.89549, 1.74959, 1.74758, 1.75013, 1.74743, 1.84569, 1.8996, 1.89481, 1.74818, 1.74867, 1.88936, 1.74906, 1.74855, 1.80373, 1.75062, 1.88612, 1.88639, 1.75218, 1.8473, 1.75271, 1.75308, 1.75258, 1.87863, 1.80426, 1.87858, 1.87314, 1.75634, 1.75456, 1.75852, 1.75749, 1.75703, 1.87875, 1.75875, 1.75923
2.25523, 1.95601, 2.04791, 1.95646, 1.95879, 1.95456, 1.95311, 1.95486, 1.95027, 1.94936, 1.95144, 1.9467, 1.94763, 2.14381, 1.99358, 1.99285, 1.99411, 1.94154, 1.94078, 2.13963, 2.06223, 2.05938, 1.93669, 1.98365, 1.9836, 1.93374, 1.93049, 2.05689, 1.92762, 1.92695, 1.92687, 2.05648, 1.92649, 1.92336, 1.92136, 1.92073, 2.24422, 1.92003, 1.92079, 1.92084, 1.97004, 1.92313, 1.92329, 1.92175, 1.92477, 1.92462, 1.92728, 2.02927, 2.10527, 2.07263, 2.17334, 2.06645, 2.06616, 2.06504, 2.06227, 2.09267, 2.0578, 2.05911, 2.05593, 1.97607, 2.05353, 2.05143, 2.05049, 2.17562, 2.17312, 2.04404, 2.17058, 2.03821, 2.03783, 2.03797, 2.17344, 2.03234, 2.03201, 2.03137, 2.02819, 1.95181, 2.02714, 2.02572, 2.02435, 2.07626, 1.94586, 2.07322, 2.02054, 2.02235, 2.01916, 2.01815, 2.02037, 2.02119, 2.15437, 2.07034, 2.02372, 2.0237, 2.02704, 2.06679, 1.95348, 2.0641, 2.15576, 2.06348, 2.06171, 2.06302, 2.14886, 2.03173, 2.11039, 2.10681, 2.10477, 2.10693, 2.10696, 2.02733, 2.02539, 2.02588, 2.02505, 2.02423, 2.02254, 2.10724, 2.12033, 2.02109, 2.12402, 2.0971, 2.10677, 2.09691, 2.11775, 2.10111, 2.11949, 2.11156, 2.11376, 2.01955, 2.10927, 2.10856, 2.01645, 2.12471, 2.09075, 2.08953, 2.01359, 2.09938, 2.11132, 2.08717, 2.09343, 2.0841, 2.09235, 2.09499, 2.09725, 2.10429, 2.10786, 2.10427, 2.09003, 2.09175, 2.10079, 2.10024, 2.08733, 2.00013, 1.99977, 1.99816, 2.08707, 1.99611, 2.09427, 1.99267, 2.08978, 2.07088, 2.06277, 1.98732, 1.98566, 1.98534, 1.98357, 1.98547, 1.98191, 1.9823, 1.98298, 1.98067, 2.06607, 1.91339, 1.91347, 1.91056, 1.90741, 1.95314, 1.9518, 2.00785, 1.94798, 2.00336, 2.00049, 1.89328, 2.10093, 2.01342, 2.01328, 1.88399, 2.00986, 2.00704, 1.87966, 1.87929, 1.8803, 2.10364, 1.87761, 1.87738, 1.87502, 1.87493, 1.87394, 2.10393, 1.87538, 1.8743, 1.87332, 2.11078, 2.00132, 1.95327, 1.95156, 1.92362, 1.97262, 1.87258, 1.87235, 1.99678, 1.87204, 1.87219, 1.87217, 1.7752, 1.77536, 1.77305, 1.9005, 1.90044, 1.76805, 1.76583, 1.89624, 1.90179, 1.76113, 1.90397, 1.75794, 1.89697, 1.9063, 1.75446, 1.75172, 1.7508, 1.9009, 1.74917, 1.89342, 1.7486, 1.74806, 1.89993, 1.79943, 1.74827, 1.74826, 1.74614, 1.89716, 1.74713, 1.89301, 1.74691, 1.74804, 1.89213, 1.74789, 1.74799, 1.74865, 1.74947, 1.74787, 1.74937, 1.88865, 1.88662, 1.9741, 1.97505, 1.97278, 1.75189, 1.88175, 1.75252, 1.75233, 1.75047, 1.86229, 1.80561, 1.75508, 1.75439, 1.75559, 1.87894, 1.75743, 1.88111, 1.98653, 1.87984
1.95735, 1.95846, 2.07945, 2.15013, 1.95285, 1.95667, 1.95532, 2.00428, 1.94862, 2.06162, 1.94816, 1.94934, 1.94921, 1.94562, 2.02922, 2.0309, 1.94128, 1.99092, 1.94085, 1.93573, 1.98946, 1.93406, 1.93533, 2.1446, 1.93477, 1.93058, 1.92919, 2.04064, 2.04155, 1.92663, 1.97599, 1.92292, 1.92253, 1.9238, 1.92123, 1.92379, 2.04784, 1.92041, 2.04322, 1.92048, 1.97583, 1.92221, 1.92143, 1.92319, 2.0314, 1.92423, 2.02942, 1.92861, 2.03078, 2.07247, 2.07014, 2.06841, 2.06654, 2.06628, 2.06299, 2.06566, 2.08937, 2.06076, 2.08622, 1.97619, 2.05188, 2.05127, 2.04861, 2.04973, 2.08588, 1.96803, 2.17063, 2.03943, 1.96238, 2.03809, 2.08224, 2.0341, 2.08091, 1.9547, 2.03088, 2.03066, 2.02812, 2.07707, 2.07615, 2.02482, 2.16106, 2.0246, 2.02205, 1.94589, 2.02032, 2.021, 2.02127, 2.02177, 2.02166, 2.02206, 2.02361, 2.02386, 2.02156, 1.94959, 2.03083, 1.95493, 2.03742, 2.14043, 2.15841, 2.15628, 2.10662, 2.10737, 2.10707, 2.1199, 2.10381, 2.10397, 2.10379, 2.1029, 2.02741, 2.02526, 2.02387, 2.02475, 2.02448, 2.0247, 2.11137, 2.11154, 2.1183, 2.11531, 2.09668, 2.09743, 2.09629, 2.1149, 2.02083, 2.1135, 2.1129, 2.0193, 2.11049, 2.10432, 2.10414, 2.01672, 2.01426, 2.01408, 2.09596, 2.09884, 2.10551, 2.01144, 2.09042, 2.08851, 2.08265, 2.00782, 2.09715, 2.09352, 2.09506, 2.10126, 2.00434, 2.08995, 2.07699, 2.07493, 2.10589, 2.09141, 1.99814, 1.99766, 2.08724, 2.07852, 2.09272, 2.07521, 2.0828, 2.06744, 2.09993, 2.08618, 1.98585, 1.98426, 1.98334, 1.98179, 1.98043, 2.05619, 1.98022, 1.98229, 1.97968, 1.91445, 1.91361, 1.96023, 1.95789, 1.95456, 1.99705, 2.00693, 2.01053, 2.00534, 1.99974, 1.99846, 1.94058, 1.93925, 1.88903, 2.01003, 1.88259, 1.9683, 1.88258, 1.9303, 1.88015, 1.87637, 2.10741, 2.1081, 2.01384, 1.87662, 1.87538, 1.87215, 2.0074, 1.87297, 2.08655, 1.87546, 1.87298, 1.87302, 1.95032, 1.92542, 1.92349, 1.99696, 1.99715, 2.10158, 2.08821, 1.99464, 1.87229, 1.77515, 1.77473, 1.77155, 1.908, 1.90427, 1.86609, 1.90631, 1.90444, 1.81173, 1.80996, 1.75843, 1.85515, 1.75526, 1.75546, 1.9063, 1.74997, 1.75146, 1.7503, 1.7511, 1.74787, 1.9027, 1.89998, 1.89925, 1.85574, 1.74509, 1.89719, 1.8993, 1.74605, 1.7454, 1.74575, 1.74573, 1.74779, 1.74736, 1.74782, 1.74749, 1.74591, 1.74706, 1.74708, 1.74932, 1.74809, 1.74824, 1.75071, 1.74891, 1.75137, 1.75164, 1.9703, 1.75367, 1.88242, 1.88126, 1.86166, 1.75482, 1.7556, 1.75356, 1.75271, 1.88003, 1.86951, 1.75507, 1.75446, 1.87811
1.95598, 1.95811, 2.07678, 2.01631, 1.95347, 2.00529, 2.05419, 2.01677, 2.00262, 2.00071, 2.00054, 1.94749, 1.94714, 1.94853, 1.94338, 1.99128, 1.99922, 1.98963, 1.93842, 1.94051, 1.93733, 2.06598, 1.93472, 1.93474, 2.06276, 1.93005, 2.05738, 2.04041, 2.04104, 2.0421, 1.92453, 1.92605, 1.92367, 1.92454, 1.92069, 1.92082, 1.92097, 1.92078, 1.92072, 2.14158, 1.9207, 2.04188, 1.97558, 1.97335, 2.13282, 1.9268, 1.92575, 2.10678, 1.93049, 1.99374, 1.99275, 2.06693, 2.06591, 2.06649, 2.06205, 2.06066, 2.05821, 2.05944, 2.05526, 1.97728, 1.97661, 2.08525, 2.04896, 2.04934, 2.04529, 2.083, 2.04114, 2.03919, 2.03658, 2.03757, 2.1701, 2.03856, 2.03379, 2.03248, 2.08058, 2.028, 2.02647, 2.02396, 2.02629, 2.1596, 1.94575, 2.02464, 2.0734, 2.15427, 2.16066, 2.1727, 2.02132, 2.02065, 2.02325, 2.02125, 2.02247, 2.06555, 1.9512, 2.02545, 2.03084, 2.03548, 2.06267, 2.06211, 1.96156, 2.17278, 2.04949, 2.1188, 2.12674, 2.10914, 2.10798, 2.10366, 2.10395, 2.1042, 2.10483, 2.10134, 2.02495, 2.02306, 2.0214, 2.02248, 2.12437, 2.10551, 2.11124, 2.11443, 2.02086, 2.02168, 2.11918, 2.09562, 2.02365, 2.02041, 2.11437, 2.11789, 2.1119, 2.01694, 2.10741, 2.10483, 2.12073, 2.10602, 2.09596, 2.01182, 2.10473, 2.09614, 2.09396, 2.0828, 2.09084, 2.09042, 2.082, 2.10032, 2.00737, 2.09659, 2.08318, 2.10276, 2.0026, 2.07324, 2.00021, 1.99952, 2.08968, 2.09009, 1.99519, 1.99769, 2.10342, 2.08031, 2.07351, 2.08043, 2.08954, 2.06491, 1.98618, 1.98352, 1.9845, 1.98285, 1.98409, 1.98286, 1.98383, 1.97893, 1.97887, 1.91423, 1.96163, 1.95979, 1.90766, 2.0095, 2.01008, 1.90088, 1.89906, 1.94735, 1.99977, 1.94208, 1.9408, 1.8891, 1.88687, 1.88549, 1.93518, 1.93428, 1.88146, 1.88211, 1.88123, 1.87875, 2.01226, 2.08937, 1.87889, 1.87733, 1.87609, 1.87543, 1.97359, 2.00592, 1.87425, 1.87265, 1.92423, 1.87597, 1.87582, 1.92379, 1.8756, 1.87241, 1.87318, 1.99595, 1.87209, 1.99425, 1.99594, 1.90797, 1.8735, 1.766, 1.76798, 1.76682, 1.76446, 1.90371, 1.76159, 1.81083, 1.75897, 1.84153, 1.75628, 1.75548, 1.75432, 1.75134, 1.74891, 1.90262, 1.74886, 1.74951, 1.90247, 1.9019, 1.74827, 1.7468, 1.7447, 1.74228, 1.74506, 1.89791, 1.747, 1.74564, 1.89506, 1.89306, 1.74701, 1.74457, 1.94427, 1.74583, 1.89305, 1.74594, 1.74572, 1.74798, 1.88922, 1.79883, 1.74687, 1.74545, 1.80135, 1.79925, 1.88434, 1.88429, 1.88264, 1.80312, 1.75133, 1.75439, 1.87333, 1.75196, 1.80387, 1.75225, 1.80448, 1.75432, 1.87038, 1.8033
2.00734, 1.95559, 1.95335, 1.95717, 2.00474, 2.0031, 2.00391, 2.06919, 1.94785, 1.94609, 2.00137, 1.94942, 2.06567, 1.94433, 1.94331, 2.14305, 1.94181, 1.9891, 1.9377, 1.9378, 1.93563, 1.93581, 1.93666, 2.06252, 2.13541, 1.93088, 2.05805, 1.92864, 1.92779, 2.0238, 2.02475, 2.12881, 1.92271, 1.92393, 1.92407, 1.92706, 1.92266, 1.92366, 1.92439, 1.92101, 1.92144, 2.04158, 2.0257, 2.03889, 2.03926, 1.97678, 1.97888, 1.92854, 1.93105, 2.17276, 2.06897, 2.09446, 2.06844, 2.09002, 2.06269, 2.06337, 2.0588, 2.05681, 2.06172, 2.05558, 2.05228, 2.05131, 2.1837, 2.16994, 2.04782, 2.04291, 2.04235, 2.03838, 2.15894, 2.03736, 2.17053, 2.15595, 2.03111, 2.02995, 2.02767, 2.02767, 2.02522, 2.07632, 2.07639, 1.94776, 1.94603, 2.02363, 2.02156, 2.02198, 2.07371, 2.01983, 2.0209, 1.94345, 2.16198, 2.02116, 2.02122, 2.02081, 2.02334, 2.06565, 2.02864, 1.95554, 2.03619, 2.14867, 1.96182, 2.15827, 2.10708, 2.031, 2.02995, 2.11487, 2.10585, 2.02719, 2.10381, 2.10357, 2.02448, 2.10096, 2.02381, 2.0234, 2.02283, 2.11636, 2.11467, 2.107, 2.11241, 2.12177, 2.11564, 2.11401, 2.10099, 2.11469, 2.11366, 2.01793, 2.01696, 2.11874, 2.11055, 2.11546, 2.11533, 2.10116, 2.11453, 2.10688, 2.10127, 2.1039, 2.10132, 2.09659, 2.01016, 2.09341, 2.08364, 2.08067, 2.08022, 2.10526, 2.00663, 2.10271, 2.09583, 2.00475, 2.08154, 2.08301, 2.00027, 2.08267, 2.08284, 2.08717, 1.99672, 1.99626, 2.08586, 1.99299, 1.99153, 2.06339, 2.08749, 2.08373, 2.07253, 1.98296, 1.98257, 1.98316, 1.98241, 1.98271, 1.97868, 1.97854, 1.9808, 1.91468, 1.91307, 2.11998, 1.90855, 1.90704, 2.00859, 1.90272, 1.89994, 1.966, 1.96483, 1.94167, 1.89247, 1.94052, 1.93775, 1.93768, 1.88465, 1.93382, 1.88224, 1.88318, 1.88075, 1.87873, 1.87883, 2.10106, 1.87803, 2.00838, 1.87589, 2.00623, 1.87674, 1.97585, 1.8751, 1.92656, 1.92512, 1.92525, 1.87631, 1.8751, 1.87371, 1.87567, 1.87298, 1.87248, 1.87573, 1.87535, 1.98224, 1.77281, 1.76928, 1.76562, 1.81675, 1.76566, 1.87641, 1.85464, 1.76064, 1.76017, 1.75807, 1.88095, 1.75482, 1.90491, 1.90296, 1.90249, 1.74931, 1.90324, 1.74923, 1.74845, 1.90009, 1.89992, 1.74634, 1.7471, 1.90011, 1.89443, 1.89345, 1.74345, 1.74183, 1.74447, 1.74377, 1.89345, 1.74322, 1.74569, 1.74422, 1.8912, 1.74172, 1.74763, 1.74747, 1.8889, 1.88715, 1.74751, 1.88277, 1.74901, 1.7465, 1.79915, 1.74764, 1.74756, 1.79981, 1.75167, 1.75027, 1.75031, 1.75254, 1.75276, 1.872, 1.75227, 1.75481, 1.87857, 1.80404, 1.85503
2.0082, 2.00769, 1.95491, 1.95533, 1.95479, 1.95298, 1.95496, 2.04745, 2.04854, 2.06998, 1.95128, 1.94828, 1.94334, 1.94546, 1.94523, 2.14445, 1.94052, 2.0703, 2.05273, 2.05484, 1.93261, 1.9338, 2.14531, 2.14169, 1.9303, 1.93097, 2.05785, 2.03751, 1.9275, 2.04458, 2.02085, 2.13783, 2.12966, 2.13083, 1.92224, 1.92151, 1.92131, 1.92268, 1.92447, 1.92232, 1.9221, 1.92255, 1.92418, 1.92079, 1.92388, 1.92476, 1.92873, 1.92899, 1.98102, 2.07127, 1.99103, 2.06684, 2.06591, 2.06653, 2.06301, 2.06, 2.05828, 2.05627, 2.05832, 2.05403, 2.05623, 2.16158, 2.0488, 2.04635, 2.04761, 2.04142, 2.04156, 1.96616, 2.03741, 2.03784, 2.03529, 2.0354, 2.02981, 2.03058, 2.16493, 2.02689, 2.1765, 2.02749, 2.02789, 2.02342, 2.02356, 2.07441, 2.022, 2.021, 2.0207, 2.07054, 1.94505, 1.94509, 1.94547, 2.02254, 2.0217, 2.02428, 2.15619, 2.02757, 2.03264, 1.9541, 2.06437, 2.03852, 2.15328, 2.06364, 2.10735, 2.10686, 2.03025, 2.11049, 2.10656, 2.02678, 2.02575, 2.02557, 2.02725, 2.02403, 2.02378, 2.02203, 2.10878, 2.09726, 2.11314, 2.02122, 2.09699, 2.11806, 2.0963, 2.09688, 2.02003, 2.02082, 2.02012, 2.11301, 2.1235, 2.11818, 2.12823, 2.11304, 2.12184, 2.11204, 2.01419, 2.01568, 2.01443, 2.10707, 2.10632, 2.10011, 2.11436, 2.11127, 2.09276, 2.09659, 2.00751, 2.08732, 2.10851, 2.00781, 2.1102, 2.09061, 2.00328, 2.09219, 2.09089, 1.99889, 2.08239, 2.0998, 2.08731, 2.08739, 2.08005, 2.08272, 2.08245, 2.08096, 2.06645, 2.06565, 2.0843, 2.06535, 1.98129, 1.98279, 1.9828, 1.9828, 1.97983, 1.97968, 2.06251, 1.91533, 2.10305, 1.91093, 1.90746, 2.01024, 2.00916, 1.90094, 1.89957, 1.89667, 1.9439, 1.94286, 1.94165, 1.93959, 1.8881, 1.88648, 2.09484, 2.10588, 1.88415, 1.88235, 1.87954, 1.88052, 1.93022, 1.87944, 1.8779, 2.00861, 1.9275, 1.87883, 1.87824, 1.87908, 1.87581, 1.9272, 1.92613, 1.87596, 1.87515, 1.87187, 1.87649, 1.87528, 1.87288, 1.87284, 1.92506, 1.92357, 1.87187, 1.77327, 1.76863, 1.76659, 1.76324, 1.76299, 1.95584, 2.02185, 1.9103, 1.75732, 1.75577, 1.90707, 1.75419, 1.75258, 1.75115, 1.85218, 1.7465, 1.74768, 1.74833, 1.74566, 1.9066, 2.1135, 1.84087, 1.90268, 1.74295, 1.74368, 1.74493, 1.89636, 1.88244, 1.89463, 1.89698, 1.74406, 1.74478, 1.99302, 1.7452, 1.84134, 1.74541, 1.74302, 1.7425, 1.88964, 1.7442, 1.88976, 1.8409, 1.88234, 1.88193, 1.74713, 1.74839, 1.75119, 1.75094, 1.74942, 1.75068, 1.75212, 1.75206, 1.87889, 1.75339, 1.75449, 1.99207, 1.87935, 1.87382, 1.80253
2.00632, 1.9561, 1.95917, 1.9551, 1.954, 2.0733, 1.95366, 1.95257, 1.95234, 1.9497, 1.9484, 1.94795, 1.94424, 1.94809, 1.94299, 1.94382, 1.94166, 1.93871, 2.14814, 1.93608, 1.93743, 1.93404, 1.98261, 1.93032, 1.92891, 2.05542, 1.92708, 1.9256, 1.92603, 2.04342, 2.04427, 2.04065, 2.02463, 1.92299, 1.92402, 1.92309, 1.9214, 1.92097, 1.92178, 1.92357, 1.97399, 1.97558, 1.9256, 1.92687, 1.92439, 1.92674, 2.03538, 1.98011, 1.98017, 2.07249, 2.18329, 2.06689, 2.09034, 2.06424, 2.06265, 2.06184, 2.05849, 1.9821, 1.9798, 2.05407, 2.17345, 2.16262, 2.16289, 2.08409, 2.04442, 2.0427, 2.04168, 1.9647, 2.15845, 2.03551, 2.03455, 2.03459, 2.03246, 2.03067, 2.03083, 1.95284, 2.02753, 1.94857, 1.94804, 2.02673, 2.02057, 2.02071, 1.94431, 2.02086, 1.94484, 2.06954, 2.02172, 2.022, 2.06923, 2.02257, 1.94585, 1.94643, 2.02709, 2.02813, 2.02614, 2.15581, 2.03632, 2.14922, 2.15107, 2.1518, 2.03402, 2.03168, 2.1076, 2.12063, 2.10408, 2.10318, 2.02558, 2.02479, 2.02371, 2.02299, 2.0202, 2.02287, 2.0225, 2.11089, 2.09767, 2.02032, 2.0214, 2.09534, 2.09429, 2.09851, 2.09809, 2.10417, 2.1083, 2.08916, 2.01857, 2.12205, 2.0177, 2.11455, 2.09877, 2.10772, 2.10029, 2.01486, 2.01324, 2.09349, 2.09742, 2.10027, 2.01113, 2.09671, 2.09732, 2.00745, 2.00696, 2.09742, 2.00653, 2.0071, 2.09393, 2.09328, 2.08432, 2.00324, 2.09406, 2.0878, 1.99921, 2.09391, 2.08257, 1.99343, 1.99366, 2.09047, 1.99331, 1.99088, 2.07556, 2.06522, 2.05817, 2.05869, 2.06137, 1.98355, 1.98101, 1.98175, 1.9809, 2.06319, 2.05483, 2.05326, 1.96537, 1.91144, 1.90778, 1.90494, 1.90394, 1.90305, 1.89681, 1.89953, 1.89616, 1.89407, 1.8925, 1.89247, 2.00886, 1.88778, 2.01066, 1.88483, 1.88391, 2.00653, 1.88025, 1.88018, 1.92994, 1.88073, 1.92766, 1.87841, 2.06391, 1.87734, 1.8757, 1.87751, 1.87736, 1.87577, 1.87878, 2.00196, 1.87495, 1.87615, 1.87489, 1.925, 1.92674, 1.92627, 1.92323, 1.8758, 1.92606, 1.77031, 1.81888, 1.81666, 1.76455, 1.87142, 1.75985, 1.76127, 1.75825, 1.75782, 1.80429, 1.75246, 1.75065, 1.87502, 1.75105, 1.74789, 1.74778, 1.74761, 1.74472, 1.8486, 1.74128, 1.74434, 1.74431, 1.74214, 1.74211, 1.9001, 1.8979, 1.84928, 1.7386, 1.7414, 1.74168, 1.73757, 1.89261, 1.89637, 1.74364, 1.74372, 1.793, 1.74289, 1.74465, 1.74437, 1.74304, 1.88665, 1.742, 1.9839, 1.7469, 1.7467, 1.7439, 1.79913, 1.75113, 1.75016, 1.7463, 1.86956, 1.74792, 1.74752, 1.87322, 1.87369, 1.75241, 1.80371, 1.7534, 1.75386
1.95314, 1.95632, 2.0896, 2.07337, 2.076, 1.95353, 1.95302, 2.07207, 2.07255, 1.94881, 2.00038, 2.06945, 2.07149, 1.94714, 1.94224, 1.94071, 1.94117, 1.94113, 1.9363, 1.93737, 1.93735, 1.93443, 1.93416, 1.9294, 2.14878, 2.0624, 1.92709, 1.92696, 1.92699, 2.04158, 2.04215, 2.03547, 1.97431, 1.92258, 1.92162, 1.92116, 1.97221, 1.98378, 1.97539, 1.92329, 1.97459, 1.9736, 1.92454, 1.97715, 1.97713, 1.97585, 1.92442, 1.92558, 1.92855, 2.17635, 2.17002, 1.9926, 1.99217, 2.06245, 2.06335, 2.05857, 1.98249, 2.05859, 2.05853, 2.05263, 2.05192, 1.9755, 2.04496, 2.08349, 2.17604, 2.17093, 2.04394, 2.03829, 2.03716, 2.17328, 2.0376, 2.03131, 2.03225, 2.15527, 2.02909, 2.03044, 2.02702, 2.02688, 2.02746, 2.02406, 2.02446, 2.02023, 2.02037, 2.02034, 2.01859, 1.94511, 2.0198, 2.02059, 2.06564, 2.02166, 2.02171, 2.06624, 2.02718, 1.95098, 2.03063, 2.15046, 2.0349, 2.13312, 2.15845, 2.15328, 2.14207, 2.03176, 2.12174, 2.12077, 2.11792, 2.11359, 2.13076, 2.02532, 2.0243, 2.02191, 2.02179, 2.02205, 2.02142, 2.10905, 2.11811, 2.10535, 2.02219, 2.10907, 2.12175, 2.10074, 2.09373, 2.1134, 2.10768, 2.10373, 2.10818, 2.10727, 2.10541, 2.12092, 2.09345, 2.09285, 2.11133, 2.01405, 2.10302, 2.10868, 2.09648, 2.10796, 2.00965, 2.09732, 2.09916, 2.00802, 2.00791, 2.09843, 2.08654, 2.00519, 2.00435, 2.0882, 2.08979, 2.00193, 2.08321, 2.09639, 2.0883, 1.99709, 1.99507, 1.99281, 1.99266, 2.09027, 2.08861, 1.98922, 2.07224, 1.98664, 2.06328, 1.98346, 1.98317, 1.98165, 1.98105, 1.98131, 1.98216, 1.97979, 1.98012, 2.05465, 1.91296, 1.96033, 1.90758, 1.90597, 1.9042, 1.90152, 2.10083, 1.89739, 2.10006, 1.89461, 1.99042, 1.89176, 1.88993, 1.88544, 1.88594, 2.10392, 1.8846, 2.00744, 1.88236, 1.98729, 1.9319, 1.93051, 1.87999, 1.98888, 2.08682, 1.92876, 1.87613, 1.98931, 1.87922, 1.99676, 1.88089, 1.92681, 1.87818, 1.87578, 2.00056, 1.92759, 1.92714, 1.92505, 1.87656, 1.8729, 1.92684, 1.76974, 1.8176, 1.76496, 1.76103, 1.91089, 1.75792, 1.75851, 1.9112, 1.80376, 1.8132, 1.80986, 1.74973, 1.74939, 1.74824, 1.74815, 1.74547, 1.74472, 1.74448, 1.90461, 1.90209, 1.74284, 1.74199, 1.74088, 1.90114, 1.89888, 1.74195, 1.74018, 1.73827, 1.74086, 1.73785, 1.86465, 1.86209, 1.8605, 1.74103, 1.73947, 1.74062, 1.893, 1.94493, 1.74293, 1.7408, 1.74316, 1.74289, 1.7442, 1.84292, 1.74639, 1.74691, 2.0663, 1.96927, 1.92761, 1.84743, 1.74838, 1.745, 1.75142, 1.74873, 1.87521, 1.74826, 1.87689, 1.75059, 1.75376
1.95644, 1.95503, 1.95541, 1.95819, 1.95426, 2.07178, 2.07271, 1.95156, 1.94929, 2.00022, 2.03211, 1.99685, 1.99512, 2.00058, 1.99251, 1.99114, 1.93928, 1.93534, 2.06892, 1.93513, 1.93444, 1.93406, 2.06172, 2.14533, 1.92857, 1.97903, 1.93058, 1.9266, 1.9252, 1.92665, 1.92724, 1.97294, 1.97354, 1.92322, 1.97319, 1.92234, 1.92361, 1.92487, 1.9226, 1.92333, 1.92393, 1.97539, 1.97583, 1.92535, 1.92689, 1.92621, 1.92644, 1.97898, 2.03748, 1.99405, 2.06905, 2.16709, 2.0671, 2.0619, 2.06134, 2.06287, 2.08561, 2.08697, 1.98157, 2.08666, 2.05549, 2.16195, 2.08331, 2.045, 2.08346, 2.16046, 2.16211, 2.08122, 2.03521, 2.03783, 2.08394, 2.08297, 2.03161, 2.03031, 2.02942, 2.02687, 2.07604, 2.07374, 2.16757, 2.02726, 2.02073, 2.02094, 2.02078, 2.07339, 2.02243, 2.01937, 2.02093, 2.02187, 2.02134, 2.02055, 2.02089, 2.02408, 1.949, 2.02649, 2.02947, 2.03042, 2.03532, 2.062, 1.96039, 2.14872, 2.13483, 2.12873, 2.12124, 2.12896, 2.11784, 2.11379, 2.12076, 2.0252, 2.02418, 2.02233, 2.02109, 2.02206, 2.02198, 2.02018, 2.02041, 2.01975, 2.11487, 2.10525, 2.12407, 2.10458, 2.11707, 2.11348, 2.1106, 2.01935, 2.01965, 2.10109, 2.01683, 2.10673, 2.09841, 2.10152, 2.10196, 2.0964, 2.01383, 2.01079, 2.01127, 2.0934, 2.08959, 2.00854, 2.00866, 2.09666, 2.10083, 2.09246, 2.09345, 2.00514, 2.10462, 2.00259, 2.08911, 2.07822, 2.09688, 1.99928, 1.99967, 2.0922, 2.08317, 1.99482, 1.99403, 2.08998, 2.08655, 1.98947, 2.07931, 2.0733, 2.06142, 2.06265, 1.9825, 1.98274, 1.97992, 1.98022, 1.9814, 1.98248, 1.97974, 2.0519, 1.91348, 1.91071, 1.90996, 2.09706, 1.90628, 1.89935, 2.09493, 1.89779, 1.89663, 1.8945, 1.89202, 1.89094, 1.89064, 1.89018, 1.88578, 1.93749, 1.88435, 1.96896, 1.97936, 1.93228, 1.95514, 1.95342, 1.88203, 1.88047, 1.87962, 1.93095, 1.93064, 1.87917, 1.87532, 1.8748, 1.87912, 1.877, 1.87388, 1.87645, 1.87874, 1.99864, 1.87859, 1.92904, 1.92713, 1.87531, 1.92867, 1.90248, 1.76602, 1.76335, 1.76137, 1.75948, 1.9146, 1.75655, 1.75284, 1.75404, 1.75068, 1.74883, 1.74891, 1.74839, 1.74704, 1.74744, 1.74612, 1.74497, 1.90219, 1.7437, 1.79271, 1.73923, 1.73891, 1.74176, 1.9014, 1.90244, 1.73933, 1.73883, 1.8964, 1.73667, 1.79019, 1.85992, 1.79019, 1.7891, 1.80269, 1.7385, 1.73779, 1.89326, 1.74066, 1.74131, 1.99352, 1.7436, 1.88768, 1.74367, 1.87977, 1.74472, 1.74536, 1.79473, 1.87888, 1.74771, 1.74947, 1.79724, 1.862, 1.75028, 1.74794, 1.87352, 1.87351, 1.7507, 1.7516, 1.75108
1.95507, 1.95516, 1.95433, 2.06954, 1.95291, 2.23887, 1.95239, 1.94888, 1.95385, 1.99943, 2.03097, 1.9955, 1.99609, 1.99335, 1.99045, 1.94086, 1.94197, 2.06212, 2.06162, 2.06256, 2.06594, 1.93254, 2.1348, 1.97923, 1.97977, 1.97894, 2.02346, 2.05517, 1.92587, 1.92483, 1.92588, 2.11038, 1.97441, 1.925, 1.92483, 1.92529, 2.02771, 1.92473, 1.92466, 1.92141, 2.13171, 1.92514, 1.9251, 1.92477, 1.92441, 2.11071, 2.11092, 1.92779, 2.21765, 1.99668, 2.06963, 2.06916, 2.08835, 2.06627, 1.98637, 2.06178, 1.98284, 2.08914, 2.09047, 2.05204, 2.05155, 2.08276, 2.16591, 2.05111, 2.08166, 2.04438, 2.04285, 2.15877, 1.96124, 2.03816, 2.07956, 2.0341, 1.95517, 2.03072, 2.02959, 2.02839, 2.16998, 2.02414, 1.94742, 2.02476, 2.02288, 2.0212, 2.02169, 1.94185, 2.02029, 2.02088, 2.01464, 2.02046, 2.02108, 1.94483, 2.01987, 2.02188, 2.06362, 2.02587, 2.02757, 2.03189, 1.95669, 2.03655, 2.03793, 2.13527, 1.97852, 2.03063, 2.1235, 2.02837, 2.02776, 2.11557, 2.02496, 2.0248, 2.02332, 2.02415, 2.02113, 2.02173, 2.02083, 2.02041, 2.02125, 2.01989, 2.02163, 2.02088, 2.02083, 2.11074, 2.12791, 2.12092, 2.01844, 2.01846, 2.10175, 2.10965, 2.10385, 2.10632, 2.09693, 2.0155, 2.01463, 2.10446, 2.09988, 2.01165, 2.01182, 2.01132, 2.0951, 2.00996, 2.10445, 2.09636, 2.00717, 2.09805, 2.09762, 2.10103, 2.09701, 2.08758, 2.09216, 2.08611, 2.10004, 1.99907, 1.99719, 2.08725, 1.99496, 1.9934, 2.08082, 1.99189, 1.99001, 2.06581, 2.06288, 1.98632, 2.06187, 1.98274, 1.9823, 1.98178, 1.9822, 1.9809, 1.97918, 1.97879, 2.0534, 2.05198, 1.91237, 1.91156, 1.91005, 1.90632, 1.90344, 2.01029, 2.00681, 2.01411, 1.89583, 2.01078, 1.89268, 1.89247, 1.89099, 1.98862, 1.88915, 2.08417, 2.08369, 1.88381, 1.88198, 1.88337, 1.88137, 1.93186, 1.93166, 1.93203, 1.88022, 1.8804, 1.8817, 2.00285, 1.88067, 1.94821, 1.94851, 1.9488, 1.87852, 1.87845, 1.87665, 1.99601, 1.9907, 1.8788, 1.87841, 1.87854, 1.87943, 1.76489, 1.89964, 1.76118, 1.76072, 1.75774, 1.75496, 1.75358, 1.80326, 1.74942, 1.80037, 1.74865, 1.74723, 1.74693, 1.74389, 1.74586, 1.74461, 1.74221, 1.74435, 1.74162, 1.74077, 1.7407, 1.74061, 1.8363, 1.90048, 1.7372, 1.74033, 1.73766, 1.89711, 1.90289, 1.90005, 1.78951, 1.78857, 1.73706, 1.7907, 1.73808, 1.74062, 1.74011, 1.8895, 1.74152, 1.88795, 1.74088, 1.74069, 1.88267, 1.74163, 1.74416, 1.74483, 1.79766, 1.79555, 1.74412, 1.74684, 1.75104, 1.86027, 1.79735, 1.74954, 1.75183, 1.74897, 1.74962, 1.75046, 1.74756
1.95461, 1.95477, 2.06737, 1.95226, 1.95067, 1.94946, 1.9498, 1.94875, 1.99787, 1.94923, 1.94691, 1.9472, 1.995, 1.93997, 2.067, 1.93818, 1.94199, 2.06655, 2.14264, 1.93499, 1.93322, 1.93437, 2.04179, 2.04262, 1.98041, 1.97996, 1.92849, 1.92491, 1.92555, 1.92565, 2.05808, 1.92756, 1.97421, 1.92442, 1.92575, 2.02966, 1.97322, 1.97278, 1.92371, 1.9235, 2.13149, 1.92576, 1.92684, 1.92529, 1.92233, 1.92791, 2.03475, 1.92796, 1.92898, 2.07203, 2.07176, 2.16639, 1.99, 2.08675, 2.06415, 2.08601, 1.98217, 1.98305, 2.0529, 2.05499, 2.08275, 2.04931, 2.0464, 2.04477, 2.0424, 2.0423, 2.04185, 2.03987, 1.96355, 2.03597, 1.95655, 2.03282, 2.03205, 2.07703, 2.02826, 2.02743, 2.16258, 2.02404, 1.94819, 2.02391, 2.02335, 2.02222, 2.02011, 1.94199, 2.07146, 2.02131, 2.01953, 2.01704, 2.01989, 2.01826, 2.15709, 2.06697, 1.94931, 1.95017, 2.02843, 2.02771, 2.15326, 1.95966, 2.14392, 2.14197, 1.97867, 2.12465, 2.11846, 2.11643, 2.12696, 2.12785, 2.11753, 2.02347, 2.02195, 2.02234, 2.02203, 2.02047, 2.02026, 2.02038, 2.12417, 2.02041, 2.09282, 2.1069, 2.02078, 2.11304, 2.11134, 2.01802, 2.11366, 2.11826, 2.017, 2.11501, 2.1068, 2.01579, 2.11028, 2.11444, 2.01439, 2.10016, 2.09669, 2.01351, 2.0998, 2.01056, 2.10073, 2.09017, 2.09663, 2.00806, 2.09478, 2.09768, 2.09, 2.0874, 2.11156, 2.07922, 2.00326, 2.09645, 2.09381, 2.07986, 2.09666, 1.997, 2.08389, 1.99406, 2.09823, 2.0904, 2.08162, 2.0804, 2.06226, 2.06188, 2.06697, 2.06187, 2.05966, 1.98205, 1.9819, 1.97929, 1.98006, 1.97794, 2.06618, 2.06391, 1.91149, 1.9111, 1.91033, 1.90668, 1.90625, 1.90177, 2.00458, 1.89842, 1.89565, 2.09813, 1.8918, 2.01275, 1.99672, 1.93922, 1.88955, 1.88834, 1.88934, 2.00994, 1.88471, 1.88567, 1.88417, 1.88116, 2.00753, 1.88058, 1.88283, 1.88146, 1.8805, 2.10387, 1.88191, 1.88015, 1.8801, 1.88152, 1.87985, 1.87643, 1.99688, 1.87848, 1.87494, 1.87886, 2.06878, 2.08445, 1.87819, 1.76311, 1.76091, 1.75934, 1.91644, 1.91438, 1.75317, 1.75239, 1.80101, 1.80144, 1.80003, 1.74686, 1.90952, 1.74763, 1.91063, 1.74475, 1.74108, 1.79641, 1.74128, 1.74034, 1.73995, 1.73519, 1.73823, 1.90256, 1.90007, 1.73703, 1.74133, 1.89879, 1.73626, 1.7369, 1.73577, 1.73531, 1.73475, 1.73694, 1.73294, 1.73577, 1.9473, 1.73708, 1.83382, 1.88724, 1.88671, 1.88267, 1.88481, 1.88147, 1.88219, 1.88261, 1.87974, 1.74437, 1.74322, 1.74407, 1.87206, 1.86845, 1.74499, 1.74934, 1.74691, 1.74501, 1.74556, 1.8761, 1.75102, 1.74786
1.95186, 1.95298, 1.95135, 2.05913, 1.95024, 1.95109, 1.95121, 1.94963, 1.94825, 1.94638, 1.94597, 2.06918, 1.94425, 1.9408, 2.0635, 2.06827, 2.06743, 1.93808, 1.93752, 1.93545, 1.93496, 2.04453, 2.04324, 2.04232, 1.97937, 1.92842, 1.92741, 1.97541, 1.97592, 1.97605, 1.92426, 2.13856, 1.92503, 1.92504, 1.97438, 1.92489, 1.92502, 1.92416, 1.92396, 1.92731, 1.9248, 1.9255, 1.92564, 2.11007, 2.0382, 1.92722, 1.92771, 1.92755, 1.92816, 2.07056, 2.06967, 2.06911, 2.16351, 2.06222, 2.08408, 1.98256, 2.0561, 1.98204, 2.05618, 1.97727, 2.15887, 2.0504, 2.16545, 2.08212, 2.04439, 2.04421, 2.1635, 1.96453, 2.03741, 2.03675, 2.035, 2.07644, 2.03143, 2.02809, 2.07662, 2.02799, 2.07593, 1.94767, 1.94781, 2.02316, 2.07567, 1.94459, 2.02042, 2.01997, 2.0729, 2.0203, 2.0205, 2.01886, 2.02011, 2.0205, 2.02171, 2.02563, 2.02394, 2.06604, 2.0289, 2.02963, 2.03125, 2.03641, 2.13398, 2.14045, 2.14186, 2.10647, 2.11772, 2.11961, 2.1179, 2.10424, 2.02379, 2.02254, 2.02393, 2.02088, 2.01979, 2.02041, 2.01909, 2.09768, 2.1267, 2.11146, 2.1062, 2.11255, 2.02026, 2.10547, 2.01815, 2.11514, 2.11193, 2.11258, 2.11114, 2.01687, 2.10128, 2.10298, 2.11392, 2.01415, 2.01368, 2.1041, 2.10205, 2.0865, 2.10208, 2.10006, 2.102, 2.10563, 2.00853, 2.10606, 2.10355, 2.10235, 2.00442, 2.09825, 2.0025, 2.00364, 2.00032, 2.08473, 2.08694, 2.09397, 1.99644, 2.0853, 1.9948, 2.08088, 2.101, 2.09111, 1.99012, 1.98945, 2.07928, 2.0778, 2.05838, 1.98141, 2.06236, 1.98057, 1.97799, 1.97902, 1.97907, 1.97811, 2.05506, 2.05468, 2.10655, 1.91147, 1.90967, 2.098, 1.904, 2.00749, 2.00248, 2.00204, 1.8974, 1.89497, 2.02504, 2.00981, 1.9416, 1.88949, 1.88856, 1.88903, 1.88746, 1.93745, 1.88606, 1.8855, 2.00481, 2.00598, 2.00588, 2.10421, 2.00443, 1.88014, 1.97934, 2.10288, 2.00151, 1.88031, 1.93767, 1.93652, 1.93523, 1.87741, 2.095, 1.88105, 1.87901, 2.08874, 1.87986, 1.8787, 1.87884, 1.76526, 1.75994, 1.75943, 1.90748, 1.8049, 1.89688, 1.80255, 1.89658, 1.74541, 1.74837, 1.74728, 1.91733, 1.74106, 1.74179, 1.79465, 1.74011, 1.796, 1.73783, 1.74109, 1.73776, 1.89987, 1.90015, 1.73529, 1.90331, 1.73466, 1.73606, 1.73483, 1.84095, 1.73439, 1.89466, 1.73374, 1.73206, 1.88865, 1.73596, 1.73522, 1.7354, 1.84738, 1.73395, 1.73692, 1.73771, 1.73362, 1.73804, 1.88678, 1.73991, 1.88167, 1.87865, 1.74179, 1.74524, 1.86839, 1.86626, 1.74526, 1.74494, 1.83302, 1.74478, 1.74794, 1.74701, 1.79596, 1.799, 1.79925
1.95454, 2.01481, 1.95133, 1.94864, 2.06615, 1.95321, 1.94887, 1.94764, 1.94924, 2.06848, 1.94497, 1.94503, 1.94478, 1.99151, 2.06738, 2.06681, 1.93855, 2.22557, 1.93553, 1.93447, 1.93375, 1.9308, 2.04152, 2.04251, 1.9792, 2.04174, 2.05609, 1.92763, 1.92828, 1.92467, 2.02326, 1.92313, 1.9256, 1.92713, 1.92541, 1.92447, 1.92509, 1.92527, 2.04419, 1.92467, 1.9241, 2.03785, 2.0407, 1.92404, 1.92413, 1.92596, 2.02702, 2.03076, 1.92702, 2.06879, 2.07022, 2.06676, 2.06347, 2.06222, 2.0853, 2.08443, 2.06185, 2.05632, 2.08605, 2.08269, 2.17541, 2.05011, 1.97049, 2.04561, 2.04257, 2.04287, 2.08098, 1.96257, 2.03481, 1.95917, 1.95882, 2.07678, 2.03076, 2.02943, 1.95164, 2.02424, 2.1685, 2.02465, 2.16879, 2.02375, 2.07585, 1.94489, 2.07192, 2.02057, 2.02052, 2.01792, 2.01909, 2.01854, 2.01991, 2.02037, 1.94397, 2.02295, 2.02511, 1.94858, 2.02755, 2.0596, 2.13893, 1.95838, 2.16205, 2.14888, 2.05893, 2.10473, 2.104, 2.10235, 2.10256, 2.0244, 2.10064, 2.10607, 2.02173, 2.02088, 2.01803, 2.02012, 2.09762, 2.09786, 2.01595, 2.01779, 2.0181, 2.11869, 2.12045, 2.10442, 2.10666, 2.12079, 2.01755, 2.01689, 2.01703, 2.11535, 2.11093, 2.01447, 2.01494, 2.10064, 2.01427, 2.1, 2.10421, 2.10632, 2.09294, 2.10386, 2.00988, 2.10761, 2.09702, 2.10051, 2.09704, 2.08432, 2.00421, 2.10312, 2.08839, 2.00298, 2.08729, 2.08875, 2.07526, 2.08283, 2.08075, 1.99609, 2.08874, 1.99401, 2.07723, 2.08331, 2.08658, 1.98872, 1.98677, 1.98594, 2.08197, 1.98174, 1.98053, 1.9797, 1.97887, 1.98179, 2.07136, 2.05657, 2.06715, 1.9167, 1.91536, 2.00988, 1.99689, 1.90746, 2.01092, 2.09998, 1.90092, 1.94884, 1.89476, 1.94491, 1.94469, 1.94316, 1.94145, 1.88986, 1.89041, 1.88874, 1.88728, 1.9361, 2.0057, 1.88424, 1.88619, 1.88043, 2.00543, 1.88223, 1.98215, 1.87918, 1.87899, 2.00429, 1.88208, 1.87987, 1.9373, 1.93502, 1.93509, 1.93572, 1.934, 1.87915, 1.87928, 1.88005, 1.88112, 1.88098, 1.8796, 1.86874, 1.75901, 1.75695, 1.91036, 1.75552, 1.80095, 1.89389, 1.89528, 1.89564, 1.74562, 1.91475, 1.91496, 1.74224, 1.79616, 1.74035, 1.74005, 1.7407, 1.73557, 1.73988, 1.80937, 1.73522, 1.90784, 1.73421, 1.7352, 1.73711, 1.73673, 1.73313, 1.73511, 1.73086, 1.73434, 1.73408, 1.73629, 1.73266, 1.73378, 1.73234, 1.89472, 1.73338, 1.73682, 1.73543, 1.73678, 1.88882, 1.73865, 1.73995, 1.74084, 1.74106, 1.74145, 1.74217, 1.85997, 1.79423, 1.79239, 1.79394, 1.74491, 1.74644, 1.74486, 1.84523, 1.79744, 1.79713, 1.79867, 1.79771
1.95352, 1.9527, 1.95334, 1.9531, 1.94933, 1.94859, 2.07174, 1.94625, 1.94776, 2.06542, 1.94517, 1.94282, 1.99229, 1.93877, 2.06897, 1.93776, 1.93434, 1.98701, 1.93528, 2.13446, 1.93144, 2.06161, 1.93226, 2.04903, 2.04118, 2.04243, 1.92748, 1.92686, 1.92865, 2.05436, 1.92425, 1.92664, 1.92549, 1.92471, 1.92512, 1.92627, 1.92633, 1.92435, 1.9238, 1.92559, 1.92553, 1.92514, 1.92497, 1.92759, 1.92342, 1.92552, 1.92488, 1.92724, 2.10289, 2.17033, 1.99291, 2.06601, 2.06568, 2.06335, 2.08439, 2.08343, 2.08432, 2.05929, 1.97655, 2.08135, 2.1702, 2.04776, 2.081, 2.17002, 1.96771, 2.04179, 1.96862, 2.04114, 2.03691, 2.03756, 2.03242, 2.16447, 2.03068, 2.03108, 2.07749, 2.02874, 1.9507, 2.02224, 2.02157, 1.94457, 2.02168, 2.02125, 2.0185, 2.01778, 2.0212, 2.01705, 2.02006, 2.01998, 2.02074, 2.06619, 2.06629, 2.02033, 2.02436, 1.94897, 2.03065, 2.03162, 2.03173, 2.05909, 2.14798, 2.05953, 2.10633, 2.10484, 2.02913, 2.11867, 2.12006, 2.12113, 2.10808, 2.10271, 2.02214, 2.01879, 2.01905, 2.01897, 2.01938, 2.02013, 2.11459, 2.12161, 2.0176, 2.11515, 2.01849, 2.01811, 2.11061, 2.1109, 2.09043, 2.11733, 2.11759, 2.09187, 2.10463, 2.01556, 2.01432, 2.11176, 2.0141, 2.01518, 2.1096, 2.10361, 2.11446, 2.00969, 2.00936, 2.10319, 2.09262, 2.10712, 2.00647, 2.00452, 2.1033, 2.00347, 2.09336, 2.09002, 2.09228, 2.0962, 2.10039, 2.08661, 2.09059, 1.99693, 2.07784, 2.08582, 2.0872, 2.07952, 2.08389, 1.98701, 1.98535, 2.07734, 1.98328, 2.05928, 1.9812, 1.97919, 1.98068, 1.9799, 1.9797, 2.06791, 1.97699, 2.05188, 1.91338, 1.91318, 1.95881, 1.95785, 1.90657, 1.95199, 1.95226, 1.9484, 1.98066, 1.8955, 1.89261, 1.89196, 2.03446, 1.93999, 1.88948, 1.88778, 1.88671, 1.88697, 2.00986, 2.08727, 2.00696, 2.00675, 1.88225, 2.00617, 1.88317, 1.88203, 2.00383, 2.09955, 1.87995, 1.8818, 1.98577, 1.93568, 1.93471, 1.8795, 1.88232, 1.87941, 1.87899, 1.88036, 1.87951, 1.88156, 1.87875, 1.86621, 1.92005, 1.91747, 1.91047, 1.75274, 1.80008, 1.89525, 1.89406, 1.79549, 1.74443, 1.74256, 1.74124, 1.74036, 1.79473, 1.73785, 1.73826, 1.73731, 1.73677, 1.99261, 1.73698, 1.7336, 1.73376, 1.73243, 1.7345, 1.73509, 1.73356, 1.89681, 1.732, 1.73046, 1.73131, 1.73225, 1.73557, 1.89617, 1.73308, 1.73204, 1.734, 1.85797, 1.85588, 1.73501, 1.73402, 1.73662, 1.73478, 1.87944, 1.73861, 1.82319, 1.79057, 1.85611, 1.8757, 1.79284, 1.74296, 1.79262, 1.74553, 1.74367, 1.746, 1.74488, 1.8752, 1.7456, 1.74746, 1.74552
1.95304, 1.95491, 1.95271, 1.94801, 1.94999, 1.94886, 1.94704, 2.06534, 1.94604, 1.94793, 1.94351, 1.99246, 1.94427, 2.06942, 1.93943, 1.93921, 1.93973, 1.9344, 1.9886, 1.93414, 1.98602, 1.93235, 1.93395, 2.04802, 2.04461, 1.92767, 1.92523, 2.13952, 1.9278, 2.13396, 2.04928, 1.92683, 1.92744, 2.13092, 1.92389, 1.92569, 2.04864, 1.97447, 1.97504, 1.97562, 1.97602, 1.97579, 1.92748, 1.92717, 1.92728, 2.04185, 1.97664, 1.98252, 1.97759, 1.99378, 2.06582, 2.16209, 2.06841, 2.06881, 2.06193, 2.05814, 2.05755, 1.98197, 2.05358, 2.05358, 2.05236, 2.04831, 1.97286, 2.04528, 2.07981, 2.04165, 2.03918, 1.96267, 2.03609, 2.03751, 2.03429, 1.95643, 2.02894, 2.02766, 2.02691, 2.02711, 2.16044, 2.02723, 2.15553, 2.02171, 2.07419, 2.02101, 2.02081, 1.94088, 2.01771, 2.01689, 2.01754, 1.94183, 2.06874, 2.01773, 1.94521, 2.01966, 2.02424, 2.02409, 2.03015, 2.02844, 2.03065, 2.06043, 2.03882, 2.15036, 2.10205, 2.13098, 2.12202, 2.13165, 2.10161, 2.11509, 2.0224, 2.02117, 2.02084, 2.02028, 2.02057, 2.0208, 2.01847, 2.10722, 2.109, 2.1137, 2.01796, 2.11717, 2.10977, 2.10657, 2.10049, 2.09582, 2.09154, 2.01683, 2.09078, 2.1133, 2.12662, 2.11038, 2.01444, 2.01336, 2.11501, 2.09709, 2.09871, 2.10123, 2.10626, 2.10129, 2.0956, 2.09567, 2.09711, 2.10452, 2.00611, 2.0897, 2.0853, 2.00419, 2.08094, 2.00216, 2.08488, 2.08642, 2.09086, 1.99688, 2.08564, 2.07797, 2.07716, 1.9929, 2.0762, 2.08311, 2.07899, 1.98829, 2.07988, 2.08641, 1.98427, 1.98019, 1.97928, 1.97916, 1.97877, 1.97933, 1.9782, 2.05974, 2.07184, 1.91733, 2.11373, 1.91206, 2.1246, 1.90666, 1.95494, 1.95219, 1.95071, 1.94861, 1.94688, 1.89545, 2.00789, 2.09008, 2.00558, 2.00372, 2.01032, 1.89252, 1.88725, 2.0051, 1.88616, 1.88647, 1.8861, 1.93494, 1.93439, 1.93417, 1.93389, 1.88303, 2.0914, 1.88064, 1.88323, 1.99993, 1.88379, 1.97857, 1.88261, 1.88183, 1.88066, 1.88013, 1.88165, 1.96413, 1.93606, 1.99028, 1.88039, 1.88197, 1.75488, 1.91669, 1.9097, 1.7456, 1.79937, 1.89935, 1.7435, 1.74205, 1.74228, 1.73925, 1.91087, 1.74027, 1.79204, 1.79211, 1.7351, 1.89569, 1.73423, 1.73263, 1.73397, 1.73203, 1.73194, 1.73092, 1.73239, 1.731, 1.73094, 1.89286, 1.73076, 1.73054, 1.731, 1.72917, 1.73078, 1.73074, 1.88997, 1.73146, 1.73164, 1.73294, 1.83405, 1.73335, 1.73514, 1.73757, 1.73662, 1.73578, 1.88064, 1.73839, 1.8002, 1.74097, 1.85822, 1.74076, 1.74062, 1.86999, 1.74142, 1.74303, 1.74407, 1.87321, 1.87053, 1.79708, 1.79544, 1.79604
1.9539, 2.0702, 2.06679, 1.95084, 1.95085, 1.9472, 1.947, 2.14596, 1.94751, 1.94548, 1.94676, 1.99345, 1.94397, 1.94111, 2.06147, 2.22529, 1.93847, 2.05185, 1.93499, 2.05966, 1.98318, 1.9822, 1.93407, 1.93065, 2.04406, 1.92878, 1.92824, 1.92546, 1.92372, 1.92462, 1.92493, 1.92451, 2.23819, 1.92276, 1.92377, 1.92515, 1.92301, 1.92648, 1.92689, 1.97611, 1.92418, 1.92703, 1.92654, 2.09963, 2.03937, 2.04122, 2.09414, 2.0241, 2.02631, 2.07014, 2.09009, 1.98965, 2.16044, 2.08249, 2.06573, 2.08294, 2.08129, 1.97982, 1.97892, 2.05195, 2.04822, 2.05196, 2.04891, 2.16917, 1.96916, 1.96535, 1.96469, 1.96204, 1.96172, 2.16805, 2.03212, 2.07617, 2.07703, 2.14587, 2.14964, 2.02553, 2.02694, 2.07564, 2.02442, 2.02408, 2.02205, 1.94424, 2.07246, 1.94171, 2.01977, 2.16403, 1.94071, 1.94398, 2.14928, 2.0213, 2.01994, 2.02296, 2.02368, 2.02412, 2.0258, 2.02845, 2.0319, 2.03252, 2.15204, 2.14669, 2.16289, 2.11356, 2.1183, 2.11167, 2.10106, 2.11312, 2.02109, 2.021, 2.0245, 2.0222, 2.01864, 2.01846, 2.01962, 2.01886, 2.11597, 2.12626, 2.01573, 2.1217, 2.1012, 2.10343, 2.11319, 2.0147, 2.11757, 2.10089, 2.09102, 2.10721, 2.10442, 2.01419, 2.09994, 2.09846, 2.0139, 2.08995, 2.01234, 2.10294, 2.09501, 2.1043, 2.09645, 2.09299, 2.09021, 2.09648, 2.10034, 2.00435, 2.09096, 2.09052, 2.08759, 2.09064, 2.09129, 2.083, 2.08246, 2.0962, 2.08948, 1.99476, 2.07627, 2.08817, 1.99138, 2.08053, 2.07711, 2.07715, 2.08213, 2.08375, 2.0711, 1.98282, 1.98054, 1.97872, 1.97693, 1.97707, 1.98173, 1.97734, 2.07053, 1.91839, 2.08213, 1.91291, 2.08364, 1.90788, 1.90492, 1.95279, 1.90148, 2.06564, 1.89707, 2.01067, 1.89468, 2.00175, 2.0012, 2.00296, 1.89092, 1.88948, 2.00019, 1.98329, 1.88728, 2.08291, 1.88431, 1.88525, 1.88526, 1.88494, 1.8827, 1.88482, 1.88303, 1.99589, 1.88246, 1.88365, 1.88305, 1.88316, 1.88249, 1.88336, 1.93277, 1.88047, 1.88321, 1.99312, 1.88039, 1.8829, 1.87991, 1.91294, 1.8527, 1.75022, 1.75041, 1.74918, 1.74682, 1.80602, 1.74151, 1.91289, 1.74069, 1.74092, 1.91042, 1.90972, 1.73497, 1.73323, 1.73406, 1.73133, 1.73102, 1.72978, 1.7335, 1.80698, 1.73075, 1.73023, 1.73079, 1.90221, 1.89985, 1.73139, 1.73187, 1.73001, 1.72992, 1.72863, 1.72672, 1.72914, 1.89269, 1.89239, 1.72814, 1.72724, 1.73106, 1.73316, 1.73305, 1.87985, 1.73308, 1.7333, 1.7363, 1.73472, 1.79636, 1.74068, 1.73845, 1.74005, 1.74098, 1.7404, 1.74007, 1.99062, 1.74076, 1.87236, 1.74503, 1.74514, 1.74485, 1.79506
2.06998, 2.0721, 2.06568, 1.95259, 1.94764, 1.94918, 1.9482, 1.94527, 1.94753, 1.94547, 1.94216, 1.99281, 1.94181, 1.93918, 2.13618, 1.93914, 1.93756, 1.93513, 2.22139, 2.13846, 2.04113, 1.98373, 1.93166, 1.93036, 1.92972, 1.93055, 1.93044, 1.9767, 1.97676, 1.92686, 1.92466, 1.92452, 1.92693, 1.9237, 2.13092, 1.92429, 1.92542, 1.925, 1.92674, 1.92727, 1.9757, 2.09759, 1.97643, 1.97653, 1.92746, 1.927, 1.92678, 2.02331, 2.02386, 2.06864, 2.07187, 2.08319, 2.06267, 2.06114, 2.06203, 2.08282, 2.08077, 2.0564, 2.05645, 2.05104, 2.0503, 2.04985, 2.04766, 2.16273, 1.96803, 2.04189, 2.04308, 2.04011, 2.0361, 2.03725, 2.0318, 2.07713, 1.95457, 1.95254, 1.95317, 1.94914, 2.02354, 2.02095, 2.02071, 2.0215, 2.02249, 2.16067, 1.94341, 2.01787, 2.01706, 2.06939, 1.94096, 1.94151, 2.06531, 2.01799, 2.15332, 2.022, 2.0278, 2.02388, 2.02958, 2.06, 2.15243, 2.03461, 1.9617, 2.05856, 2.14783, 2.12335, 2.11842, 2.11092, 2.11055, 2.02023, 2.02058, 2.02094, 2.01857, 2.01778, 2.01865, 2.01805, 2.01769, 2.01786, 2.10755, 2.0157, 2.11007, 2.11113, 2.01676, 2.0171, 2.09243, 2.11043, 2.11702, 2.10791, 2.11697, 2.08949, 2.10494, 2.11866, 2.01368, 2.10402, 2.01238, 2.09421, 2.01012, 2.10658, 2.00833, 2.00783, 2.00817, 2.00795, 2.10347, 2.00665, 2.0062, 2.09537, 2.09699, 2.09923, 2.00131, 2.09757, 2.08917, 2.08904, 2.08045, 1.99432, 2.08331, 2.08551, 2.09216, 1.99022, 1.99005, 1.98963, 2.0783, 2.08684, 2.07389, 2.08861, 1.98006, 1.98206, 1.98009, 1.9792, 1.97745, 1.97588, 1.97774, 1.97785, 2.06654, 1.91689, 1.91677, 1.91155, 1.91065, 1.90667, 1.90661, 1.95193, 2.07195, 1.9487, 1.94523, 1.89582, 1.89421, 2.00963, 2.00087, 1.99941, 1.99615, 1.89262, 2.09247, 2.00518, 1.98626, 1.88782, 1.88705, 1.88645, 1.88674, 2.07911, 1.88506, 1.88191, 1.88582, 1.98929, 1.98658, 1.98672, 1.93372, 1.93367, 1.98431, 2.08715, 1.88282, 1.88272, 1.88236, 1.99592, 1.8823, 1.88123, 1.88271, 1.7531, 1.75258, 1.74806, 1.91293, 1.74808, 1.74462, 1.74301, 1.74129, 1.90979, 1.7402, 1.73751, 1.73659, 1.84633, 1.73401, 1.7339, 1.91003, 1.9081, 1.78423, 1.91016, 1.73181, 1.78186, 1.72968, 1.72911, 1.90278, 1.90087, 1.72732, 1.89962, 1.72894, 1.72819, 1.72653, 1.72781, 1.72629, 1.77838, 1.72708, 1.78719, 1.72816, 1.72787, 1.72889, 1.72965, 1.87307, 1.72905, 1.8522, 1.73395, 1.886, 1.78601, 1.78596, 1.73722, 1.87902, 1.87631, 1.74062, 1.74108, 1.73949, 1.7409, 1.74137, 1.87282, 1.74422, 1.74295, 1.74456, 1.74433
1.94899, 2.07277, 2.06538, 1.94525, 1.94858, 1.94825, 1.94785, 1.94686, 1.94821, 1.99419, 2.06637, 1.94193, 2.06315, 1.93801, 1.93751, 1.93786, 1.93584, 1.98641, 1.93519, 2.06162, 2.04052, 2.04459, 1.93141, 1.93137, 2.00296, 1.97864, 1.92788, 1.97583, 1.97555, 1.92593, 2.05019, 2.04965, 2.12801, 1.92379, 1.92369, 1.97561, 1.92437, 1.92574, 2.03783, 1.92624, 1.9253, 1.92501, 1.97583, 1.99983, 1.92597, 1.9257, 1.92577, 1.9256, 1.97942, 2.06945, 2.06907, 2.0665, 1.9895, 2.08312, 1.98473, 2.05666, 2.056, 2.15992, 1.97619, 2.05179, 2.05074, 2.08049, 2.15785, 1.96894, 2.04157, 2.04069, 2.04502, 2.07578, 2.03533, 2.03173, 2.03224, 2.03129, 2.02829, 2.0274, 2.07592, 2.025, 1.94812, 2.02028, 2.1518, 2.02071, 2.02035, 2.01988, 2.06927, 2.06946, 2.01743, 2.0675, 2.06857, 2.01881, 2.15226, 2.01997, 2.1523, 2.02099, 2.02203, 1.94852, 2.02849, 2.06228, 2.15241, 1.95906, 2.05824, 2.14978, 2.1272, 2.02803, 2.12867, 2.12193, 2.10544, 2.10223, 2.11357, 2.02005, 2.01913, 2.01812, 2.01768, 2.09396, 2.01507, 2.01689, 2.10985, 2.01721, 2.01797, 2.01645, 2.01637, 2.10639, 2.09048, 2.01667, 2.1066, 2.01511, 2.10503, 2.11501, 2.10098, 2.10096, 2.10415, 2.01216, 2.11073, 2.10734, 2.09704, 2.01026, 2.10575, 2.10146, 2.00763, 2.08804, 2.00756, 2.09947, 2.10411, 2.00428, 2.08977, 2.09066, 2.08466, 2.08412, 2.08767, 2.08994, 2.08306, 1.99505, 2.09299, 1.9946, 2.07932, 2.08319, 1.98929, 1.98914, 2.07982, 2.07633, 2.07729, 2.07841, 2.07014, 1.97881, 1.97944, 1.9791, 1.97742, 1.9763, 1.97566, 2.07819, 2.07628, 1.91531, 1.91409, 1.913, 2.01075, 1.90609, 1.90361, 1.99632, 1.90052, 1.89766, 1.89582, 2.00714, 1.89418, 2.00693, 2.10118, 1.99498, 1.9932, 1.89006, 1.88935, 1.88919, 1.8893, 1.88708, 1.88639, 1.93775, 1.93693, 1.93484, 1.88391, 2.09017, 2.00315, 1.88619, 1.88367, 2.05833, 1.93449, 1.93389, 1.88404, 2.07725, 1.88427, 1.88337, 1.88303, 1.88555, 1.88327, 1.97174, 1.88219, 1.87917, 1.75041, 1.74621, 1.74845, 1.80705, 1.7438, 1.74253, 1.74121, 1.83755, 1.73712, 1.91683, 1.73444, 1.91382, 1.91169, 1.73082, 1.9104, 1.72841, 1.90991, 2.10375, 1.72995, 1.72796, 1.72886, 1.72729, 1.72927, 1.89908, 1.90094, 1.82553, 1.72761, 1.72551, 1.72595, 1.89736, 1.89011, 1.72785, 1.78846, 1.78719, 1.7303, 1.88954, 1.72747, 1.72672, 1.72939, 1.73087, 1.73051, 1.73057, 1.73438, 1.83351, 1.73474, 1.73411, 1.87725, 1.87708, 1.73823, 1.87331, 1.87506, 1.87295, 1.87294, 1.87329, 1.87308, 1.86843, 1.74278, 1.74136
1.95155, 1.95191, 1.94915, 1.95076, 1.9505, 1.9517, 1.94621, 1.94855, 2.13896, 1.94434, 1.94463, 1.99118, 1.94095, 1.99002, 1.98894, 1.93826, 1.98708, 2.02684, 2.0284, 1.93427, 2.06085, 2.13174, 1.93171, 1.92799, 1.97891, 1.97884, 2.1138, 1.92474, 1.97536, 1.92565, 1.92579, 2.12453, 1.92157, 1.92668, 1.97632, 1.92415, 1.9236, 1.92461, 2.12196, 1.92376, 2.03456, 1.97908, 1.92504, 2.02034, 2.02748, 1.92488, 1.92696, 1.92949, 1.92762, 2.0689, 1.99029, 2.06537, 2.06361, 2.16281, 2.1618, 2.05956, 2.16178, 2.15885, 2.05636, 2.07684, 2.07937, 2.04738, 2.04505, 2.17707, 1.96544, 2.04049, 2.03887, 2.03816, 2.04083, 2.07647, 2.03746, 2.03278, 2.0284, 2.02944, 2.02964, 2.07848, 2.16658, 2.02393, 2.0215, 2.07019, 2.07, 2.01776, 2.01781, 2.07106, 2.15169, 2.01762, 2.01819, 2.01828, 2.01748, 2.01841, 2.02058, 2.02153, 2.02238, 2.02374, 2.02341, 2.05921, 2.0578, 2.05672, 2.04209, 2.04576, 2.02856, 2.12727, 2.13095, 2.10233, 2.10713, 2.02348, 2.10008, 2.01965, 2.01913, 2.01857, 2.01736, 2.01589, 2.01539, 2.0168, 2.10818, 2.01653, 2.0174, 2.01663, 2.01416, 2.0907, 2.08816, 2.10738, 2.1005, 2.1027, 2.08915, 2.10316, 2.09668, 2.096, 2.10344, 2.1149, 2.11309, 2.1118, 2.09368, 2.10304, 2.094, 2.00709, 2.09836, 2.00676, 2.00757, 2.09673, 2.09274, 2.0036, 2.00309, 2.09579, 2.08335, 2.08685, 2.09127, 2.08453, 2.08797, 2.08962, 2.07763, 1.99215, 1.993, 1.99142, 2.07257, 2.07912, 2.08967, 2.08624, 2.06001, 2.07255, 2.07581, 1.98253, 1.97842, 1.97825, 1.9761, 1.97728, 1.97582, 2.06689, 2.06803, 1.91593, 1.91354, 1.9618, 2.01056, 2.00926, 1.90527, 1.90187, 1.90122, 2.0203, 1.99329, 1.89517, 1.89309, 2.00669, 1.8927, 1.89249, 1.89073, 2.08121, 1.96259, 1.94088, 1.99685, 1.88772, 1.9754, 1.93746, 1.96202, 1.8893, 1.88873, 1.88713, 2.0757, 1.88481, 1.88454, 1.93504, 1.88141, 1.9343, 1.88505, 1.88554, 1.88432, 1.88262, 1.88194, 1.88246, 1.88372, 1.88432, 1.88327, 1.75166, 1.75088, 1.74794, 1.74413, 1.74206, 1.7407, 1.74208, 1.74081, 1.73863, 1.73471, 1.73416, 1.91003, 1.7319, 1.78218, 1.72933, 1.90835, 1.90657, 1.90655, 1.72704, 1.72704, 1.7264, 1.82284, 1.90558, 1.72506, 1.77545, 1.72476, 1.72708, 1.77493, 1.7224, 1.72697, 1.82301, 1.89653, 1.72467, 1.72452, 1.72377, 1.894, 1.72448, 1.72548, 1.72593, 1.72409, 1.88913, 1.88593, 1.73007, 1.88161, 1.72965, 1.88182, 1.73417, 1.87986, 1.87671, 1.83513, 1.8722, 1.87861, 1.73786, 1.87307, 1.87205, 1.87461, 1.87043, 1.8695, 1.83686
1.95161, 2.08941, 2.06498, 2.0457, 1.94967, 1.94867, 1.94207, 1.94495, 1.94343, 1.94724, 2.06255, 2.03727, 1.99283, 1.9409, 1.94171, 1.94052, 1.98758, 1.93743, 2.0595, 2.0609, 1.9324, 1.93392, 2.055, 2.13819, 1.92832, 1.9302, 2.11356, 1.92446, 1.92543, 1.99732, 1.92489, 1.92735, 2.13147, 2.1315, 1.97582, 1.92289, 1.92389, 2.02797, 1.92345, 1.92483, 1.92391, 1.92419, 2.11207, 1.92616, 1.92473, 2.01828, 1.92537, 2.03717, 1.92506, 2.16232, 2.08564, 2.06343, 1.98843, 2.16337, 2.08018, 1.98249, 1.9797, 2.05499, 2.05211, 2.05273, 2.1682, 2.0481, 2.17732, 2.04269, 2.04247, 2.03878, 2.03965, 2.03562, 2.03498, 2.03319, 2.03174, 1.95267, 2.0284, 2.02815, 2.02617, 2.17969, 2.02438, 2.02088, 1.94511, 1.94258, 2.01834, 2.01719, 2.16272, 2.06969, 2.06947, 2.01576, 2.01417, 2.01638, 1.94115, 1.9421, 2.06531, 2.06484, 2.02271, 2.02362, 2.0593, 2.06215, 2.02995, 2.05851, 2.05847, 2.05519, 1.97679, 2.02833, 2.10826, 2.12649, 2.10364, 2.10062, 2.09411, 2.09454, 2.01865, 2.01886, 2.0186, 2.01686, 2.01616, 2.01613, 2.12048, 2.11712, 2.12513, 2.01586, 2.01412, 2.1045, 2.08707, 2.09625, 2.10349, 2.10527, 2.1004, 2.10514, 2.11188, 2.10072, 2.09997, 2.09654, 2.09311, 2.09119, 2.09711, 2.10785, 2.09339, 2.08502, 2.08389, 2.09493, 2.10492, 2.09474, 2.07961, 2.07691, 2.07569, 2.09995, 2.08363, 2.08259, 2.07967, 2.08075, 1.99719, 1.99643, 2.08333, 2.07359, 1.99227, 2.08044, 1.98884, 2.07605, 2.07008, 2.07758, 2.06623, 2.05859, 1.98142, 1.98257, 1.97795, 1.9768, 1.9786, 1.97717, 1.97664, 2.08926, 2.07923, 1.91738, 1.91498, 1.91006, 1.90967, 1.90655, 1.90483, 1.90235, 2.09782, 2.01231, 1.99339, 1.89541, 1.89423, 2.00176, 1.89272, 2.00087, 1.89089, 1.89192, 1.94084, 1.93945, 1.93851, 1.88688, 1.88578, 1.89016, 1.88795, 1.93752, 1.88815, 1.88962, 2.09469, 1.98888, 2.00022, 1.88583, 1.93383, 1.88502, 1.88377, 1.99687, 1.88284, 1.88077, 1.88128, 2.08064, 1.88281, 1.88453, 1.88217, 1.91388, 1.74749, 1.74786, 1.9127, 1.86499, 1.74112, 1.91262, 2.09315, 1.73547, 1.91354, 1.73298, 1.78187, 1.78055, 1.77953, 1.72776, 1.72874, 1.72811, 1.72636, 1.72508, 1.72494, 1.90793, 1.9059, 1.90521, 1.72137, 1.72402, 1.72398, 1.72431, 1.89774, 1.72189, 1.72232, 1.72222, 1.89496, 1.89244, 1.72435, 1.89266, 1.72305, 1.7246, 1.72308, 1.72429, 1.88798, 1.72678, 1.83512, 1.72898, 1.88078, 1.7281, 1.73263, 1.73075, 1.73048, 1.73373, 1.73339, 1.73746, 1.87362, 1.87117, 1.73879, 1.86909, 1.87063, 1.86846, 1.8417, 1.83838
1.95086, 2.08415, 2.06474, 2.06581, 2.04447, 1.94704, 1.94762, 1.94659, 1.94373, 1.94309, 1.94226, 1.99148, 1.99158, 1.99054, 1.94086, 1.93639, 1.98985, 1.93571, 1.93503, 2.05982, 2.06185, 1.93329, 2.12888, 2.05519, 1.9314, 1.97902, 1.97757, 1.97707, 1.92716, 2.11737, 2.04518, 2.12732, 1.92514, 1.9234, 1.97585, 2.02795, 1.92386, 1.92403, 1.92372, 1.9239, 1.92357, 1.92498, 1.92745, 2.11684, 1.92415, 1.97692, 2.02457, 1.93039, 1.98582, 2.08418, 2.08339, 2.06237, 2.08243, 2.05848, 1.98298, 2.05662, 2.05652, 2.07938, 2.04958, 2.04963, 2.05052, 2.17063, 2.04631, 2.04579, 2.04459, 2.04017, 2.03871, 2.03797, 2.03499, 2.07508, 2.03126, 1.95554, 2.0281, 2.02668, 2.02715, 2.02477, 2.02264, 2.02387, 1.94378, 2.02058, 2.01919, 2.01739, 2.01638, 1.94196, 2.01465, 2.01671, 2.01687, 2.01462, 2.01606, 2.01539, 1.94405, 2.16297, 2.02069, 1.94597, 1.94834, 1.95029, 2.02908, 2.032, 2.03907, 2.05503, 2.13503, 2.13581, 2.13081, 2.1178, 2.11111, 2.11129, 2.02036, 2.0182, 2.01778, 2.01704, 2.01617, 2.01621, 2.01702, 2.01559, 2.11447, 2.01456, 2.01298, 2.09887, 2.11362, 2.0145, 2.11522, 2.12101, 2.10786, 2.1196, 2.08585, 2.10523, 2.11048, 2.0988, 2.11377, 2.09764, 2.08995, 2.09316, 2.09417, 2.09193, 2.08494, 2.08367, 2.09241, 2.0865, 2.07011, 2.08343, 2.07985, 2.08653, 2.00133, 2.10375, 2.08452, 2.0885, 2.08919, 2.09618, 2.07936, 2.0755, 2.08634, 2.08224, 2.08251, 2.06846, 2.07903, 2.08013, 2.06523, 2.07449, 2.06957, 2.06542, 2.06576, 1.97934, 1.97872, 1.97706, 1.97528, 1.97426, 1.97352, 1.97448, 2.05112, 1.9171, 2.10471, 2.07866, 1.90972, 1.95698, 1.90547, 1.90304, 1.90056, 1.99318, 1.99249, 1.89518, 1.8964, 1.89583, 1.8927, 1.89383, 1.89324, 1.89226, 1.89001, 1.9558, 1.93905, 1.93805, 1.89042, 1.88909, 1.8875, 1.88982, 1.88861, 1.8875, 1.88776, 1.88598, 1.9916, 1.99153, 1.88463, 2.07741, 1.88461, 1.88399, 1.88335, 1.88186, 1.98951, 1.88434, 1.98869, 1.98773, 1.98647, 1.74952, 1.74596, 1.83777, 1.74192, 1.91427, 1.9125, 1.73647, 1.73411, 1.73382, 1.73317, 1.73155, 1.72895, 1.72799, 1.90339, 1.72719, 1.72655, 1.72374, 1.82184, 1.72245, 1.82733, 1.72087, 1.72203, 1.72026, 1.72211, 1.84791, 1.72258, 1.72278, 1.72082, 1.7206, 1.72195, 1.896, 1.72252, 1.72328, 1.889, 1.72148, 1.72099, 1.7239, 1.89326, 1.89021, 1.7206, 1.88788, 1.72539, 1.72382, 1.72571, 1.72953, 1.72794, 1.73215, 1.73145, 1.82977, 1.87326, 1.73361, 1.87872, 1.87467, 1.87173, 1.86914, 1.86734, 1.87064, 1.86912, 1.86638
1.95059, 1.95115, 1.94817, 1.94903, 1.94829, 1.95056, 2.05827, 2.0586, 2.05905, 2.06162, 2.06183, 1.94155, 1.942, 2.0205, 2.0288, 1.98766, 1.98687, 1.98682, 1.93133, 1.93082, 2.06263, 1.93079, 1.92843, 2.05206, 1.92926, 1.92788, 1.92866, 1.9759, 1.92515, 1.92633, 1.92594, 1.92557, 1.92425, 1.92415, 1.97467, 1.97529, 1.97321, 1.92492, 2.12525, 1.92175, 1.92398, 2.03764, 1.9284, 1.92581, 1.97901, 1.92504, 2.02545, 1.92744, 1.93044, 1.98993, 2.06633, 2.06843, 2.06256, 2.06267, 2.15957, 2.0803, 2.05512, 2.05345, 2.05188, 2.07434, 2.04882, 2.16715, 2.04721, 2.0434, 1.96581, 2.03925, 2.03764, 2.03461, 2.03441, 2.1732, 2.03303, 2.03014, 2.02557, 2.02538, 2.02496, 2.02439, 2.0235, 2.07097, 2.0189, 2.02191, 2.0175, 2.01837, 2.01746, 2.02023, 2.01636, 2.01719, 2.0149, 2.01502, 2.06281, 2.01685, 1.9415, 1.94237, 2.02262, 2.02403, 2.02419, 2.16237, 2.05664, 1.95565, 2.15216, 2.03854, 2.1334, 2.11114, 2.12219, 2.02552, 2.11644, 2.11722, 2.11479, 2.01922, 2.01894, 2.02116, 2.01604, 2.01653, 2.0146, 2.12072, 2.09544, 2.01468, 2.01435, 2.11163, 2.08663, 2.12085, 2.12071, 2.01424, 2.11037, 2.10457, 2.11767, 2.11818, 2.11418, 2.09086, 2.09087, 2.08559, 2.11123, 2.08613, 2.08447, 2.10138, 2.08386, 2.08301, 2.0904, 2.08592, 2.00367, 2.08337, 2.07904, 2.10743, 2.00003, 2.08561, 2.08302, 2.09272, 2.08843, 2.08717, 2.07584, 1.9942, 2.08648, 2.0967, 2.06393, 2.07303, 2.07456, 2.07244, 2.06061, 2.06677, 1.9821, 2.06212, 1.9803, 1.98003, 1.97868, 1.97704, 1.97573, 1.97524, 1.97515, 2.07731, 2.05024, 1.91484, 2.11086, 1.91073, 1.9085, 1.90369, 2.00973, 1.95143, 1.9015, 2.01017, 1.89689, 1.89571, 1.8995, 1.989, 1.89556, 1.89441, 1.89277, 1.89212, 1.94085, 1.99739, 1.89265, 1.8895, 2.00206, 1.9973, 1.99583, 1.93765, 1.89005, 1.888, 1.98269, 1.88729, 2.01567, 2.01377, 1.98995, 1.88603, 1.88727, 2.081, 2.08779, 1.88661, 1.99095, 1.88331, 1.8828, 1.8833, 1.88238, 1.74758, 1.74578, 1.9139, 1.9152, 1.85411, 1.85182, 1.73698, 1.78407, 1.733, 1.73123, 1.73031, 1.72765, 1.72732, 1.95834, 1.91128, 1.72149, 1.72299, 1.72096, 1.72205, 1.72233, 2.01253, 1.89987, 1.7177, 1.71904, 1.72047, 1.77005, 1.72032, 1.7185, 1.71855, 1.72016, 1.72051, 1.72125, 1.71953, 1.88803, 1.99527, 1.98994, 1.88574, 1.72081, 1.89118, 1.72437, 1.88638, 1.83395, 1.72452, 1.83204, 1.88177, 1.72834, 1.73052, 1.7315, 1.73028, 1.8503, 1.87911, 1.83429, 1.87267, 1.83727, 1.86917, 1.86725, 1.86933, 1.84403, 1.73904
1.95009, 1.95018, 1.95161, 1.94818, 2.04891, 1.94387, 1.94481, 1.94504, 1.94298, 1.94501, 1.99178, 1.99329, 1.94111, 2.02686, 2.02718, 2.01809, 1.98575, 1.98649, 1.93412, 1.9338, 1.93437, 2.04855, 2.052, 2.05148, 2.12707, 1.93084, 1.92655, 1.9279, 1.92728, 1.92381, 2.04655, 1.92407, 1.92219, 2.04169, 2.12525, 2.21325, 1.92358, 1.92408, 2.11732, 2.03726, 1.92395, 1.92604, 1.92665, 1.99644, 1.97691, 1.92933, 2.01517, 1.92893, 1.92936, 2.06892, 2.06391, 2.15573, 1.98773, 2.0598, 2.05666, 2.0567, 2.05606, 2.07655, 2.05221, 2.04985, 1.97228, 2.15189, 2.04786, 2.07329, 2.03858, 1.96466, 2.03885, 2.07621, 2.03523, 2.03432, 1.95532, 2.03184, 2.02665, 2.02668, 2.15434, 1.94844, 2.07219, 2.02086, 1.94579, 2.01813, 2.01786, 2.01816, 2.01822, 2.01681, 2.07007, 2.01511, 1.93957, 2.01828, 2.01772, 2.01626, 2.01937, 1.94116, 2.02111, 2.06, 1.94722, 1.94982, 2.14492, 1.95512, 2.03774, 2.13832, 1.9757, 2.11608, 2.02459, 2.11044, 2.11043, 2.09652, 2.10501, 2.01798, 2.01761, 2.01992, 2.01555, 2.01572, 2.01393, 2.10703, 2.10785, 2.01365, 2.01344, 2.11504, 2.12434, 2.12838, 2.11432, 2.10799, 2.10543, 2.10434, 2.10263, 2.10359, 2.00964, 2.10814, 2.01137, 2.08469, 2.09691, 2.1007, 2.09975, 2.08267, 2.09405, 2.10449, 2.0044, 2.1234, 2.07979, 2.10018, 2.0912, 2.09869, 2.10017, 1.99991, 2.10086, 2.0874, 2.07467, 2.07301, 2.09103, 2.08357, 2.08238, 2.08011, 2.0931, 2.08285, 2.074, 2.07586, 2.08352, 2.05858, 2.08287, 2.0631, 2.07828, 1.98038, 1.97675, 1.97443, 1.97807, 1.97588, 2.0795, 2.07941, 1.97501, 1.91197, 1.91372, 1.91328, 1.90689, 1.90646, 1.99048, 1.90169, 1.90132, 2.09963, 1.8996, 1.89629, 1.89544, 2.00754, 2.088, 1.89341, 1.89287, 1.89091, 1.99678, 1.99547, 2.09678, 1.89093, 1.94094, 1.9964, 1.99324, 1.93866, 1.99046, 1.89286, 1.88951, 1.93692, 2.01409, 1.88882, 1.888, 1.88706, 1.88573, 1.88503, 1.88564, 1.88543, 2.05981, 1.8839, 2.08962, 1.8833, 1.88174, 1.74771, 1.91472, 1.91401, 1.91725, 1.85262, 1.85064, 1.85778, 1.73109, 1.91267, 1.72873, 1.82315, 1.72702, 1.7251, 1.91401, 1.90944, 1.72298, 1.72191, 1.72085, 1.72188, 1.8211, 1.90183, 1.71939, 1.76937, 1.71661, 1.71956, 1.76825, 1.7191, 1.71745, 1.7195, 1.71773, 1.71786, 1.82068, 1.76893, 1.71992, 1.71768, 1.71994, 1.72026, 1.71991, 1.7169, 1.88606, 1.88723, 1.88621, 1.88304, 1.72664, 1.88161, 1.72646, 1.72793, 1.87855, 1.87639, 1.72949, 1.73376, 1.73411, 1.7309, 1.86987, 1.86659, 1.86646, 1.7382, 1.73434, 1.73932
1.95106, 1.94985, 2.06316, 1.94801, 1.94754, 1.94869, 2.06098, 1.94311, 2.05875, 1.94801, 1.94169, 1.94485, 1.94121, 1.94002, 1.93956, 1.93712, 2.05543, 1.93192, 2, 1.93508, 1.93325, 2.04811, 1.93135, 1.93198, 1.93094, 1.92749, 2.05473, 2.12534, 1.92445, 2.0478, 1.92261, 1.92359, 1.92104, 1.92225, 1.92326, 1.92214, 1.92389, 1.92426, 2.02702, 1.97548, 1.97563, 2.03364, 1.92597, 1.92465, 2.0231, 1.97807, 1.97716, 1.92826, 2.06857, 2.06628, 2.06729, 2.15517, 2.15249, 2.06008, 1.98279, 2.05635, 2.05443, 2.07561, 2.07471, 2.0733, 2.04788, 2.04619, 1.96906, 2.04163, 1.96323, 1.9621, 2.03487, 2.14933, 2.03517, 2.15499, 2.0712, 2.02953, 2.07216, 2.026, 2.02727, 2.15329, 2.06988, 2.06921, 2.06957, 2.06761, 1.94214, 2.01714, 1.94078, 2.01538, 2.01398, 2.01384, 2.01491, 2.01515, 1.93908, 2.01749, 2.01717, 2.01557, 2.05835, 1.94465, 1.94826, 2.02794, 2.02786, 2.02891, 2.05331, 2.05382, 2.1207, 2.02439, 2.02439, 2.10871, 2.09946, 2.09734, 2.09769, 2.09474, 2.018, 2.01672, 2.01504, 2.01528, 2.01351, 2.01409, 2.11471, 2.01317, 2.0136, 2.09376, 2.0135, 2.12252, 2.12146, 2.01323, 2.01329, 2.09817, 2.11128, 2.09383, 2.0105, 2.01165, 2.01094, 2.09431, 2.09029, 2.08948, 2.00661, 2.07946, 2.08955, 2.10387, 2.08934, 2.09788, 2.09405, 2.1109, 2.00135, 2.09, 2.0941, 1.99964, 1.99723, 1.99723, 2.10027, 2.09403, 2.06524, 2.08402, 2.08973, 2.08483, 2.09504, 2.0793, 1.98653, 1.98437, 1.9857, 2.07282, 2.06621, 1.97932, 2.06629, 1.9751, 1.97485, 1.97557, 1.97539, 1.97616, 1.97479, 1.97324, 2.07374, 1.91425, 1.9137, 1.91087, 1.90672, 1.96512, 2.00094, 1.90053, 1.89975, 2.00675, 1.98546, 1.94523, 2.00293, 1.89343, 2.08559, 2.07768, 1.89005, 2.08744, 2.00074, 1.89238, 1.88983, 1.89151, 2.00064, 1.88877, 2.00359, 1.88924, 1.88863, 2.00338, 2.00222, 1.88614, 1.97382, 1.98023, 1.88796, 1.8861, 1.99697, 1.8866, 1.88675, 1.88535, 1.88385, 1.93362, 1.88261, 1.88501, 1.88231, 1.74462, 1.74303, 1.91685, 1.9153, 1.91399, 1.84014, 1.73123, 1.73077, 1.73003, 1.72723, 1.91322, 1.72658, 1.72153, 1.7224, 1.7206, 1.71829, 1.71683, 1.90652, 1.90343, 1.90062, 1.71896, 1.7181, 1.71671, 1.83026, 1.71845, 1.89984, 1.71709, 1.89951, 1.71735, 1.7166, 1.76936, 1.76772, 1.71762, 1.7174, 1.88957, 1.71754, 1.82325, 1.71907, 1.88604, 1.72163, 1.88697, 1.72126, 1.72004, 1.88912, 1.72411, 1.88051, 1.88043, 1.87596, 1.72954, 1.87675, 1.73042, 1.85608, 1.73269, 1.73381, 1.86745, 1.73642, 1.73671, 1.73684, 1.86611
2.05514, 1.94952, 1.99994, 1.94737, 1.94714, 2.05531, 1.94566, 1.94435, 2.05865, 1.99276, 1.99347, 1.94, 1.94195, 2.0532, 1.94145, 2.05596, 1.9358, 1.9328, 1.98373, 1.98305, 2.04379, 2.04511, 1.93083, 1.93059, 1.92886, 2.12747, 1.92691, 2.12107, 2.04645, 1.9257, 1.9223, 1.92183, 2.04183, 2.12431, 1.92155, 2.11859, 2.1244, 1.97194, 1.9725, 1.99917, 1.97518, 2.04378, 1.92723, 1.9765, 2.02448, 1.92839, 1.97933, 1.92844, 1.92876, 2.0684, 1.98803, 2.07965, 2.15383, 2.05898, 2.07406, 2.07613, 2.05675, 2.0534, 1.97626, 2.04701, 2.16249, 2.16595, 2.07628, 2.07409, 2.04331, 2.03814, 1.96145, 2.07258, 2.15953, 2.07274, 2.0342, 2.02841, 2.07183, 2.02656, 2.02545, 2.02214, 2.06986, 2.02038, 2.15946, 2.01751, 2.07006, 2.01656, 2.15504, 2.01343, 2.01447, 2.01454, 2.06527, 2.0629, 2.01514, 2.0155, 1.94021, 1.94081, 1.94397, 2.05981, 1.94527, 2.02753, 2.02538, 2.05354, 2.05198, 2.05819, 2.13991, 2.1161, 2.024, 2.02343, 2.09756, 2.1001, 2.10617, 2.09648, 2.09539, 2.01552, 2.01405, 2.01556, 2.0131, 2.0116, 2.01436, 2.01294, 2.11314, 2.09876, 2.10206, 2.01171, 2.01213, 2.11142, 2.09691, 2.10068, 2.01233, 2.01183, 2.10078, 2.01007, 2.09563, 2.09901, 2.10046, 2.0075, 2.09799, 2.00675, 2.09353, 2.09303, 2.1002, 2.09934, 2.09961, 2.00175, 2.08125, 2.0008, 1.99981, 2.09466, 2.08808, 2.09823, 2.09763, 2.08336, 1.99327, 1.99279, 2.08312, 1.98982, 1.98954, 2.07417, 2.07572, 2.08562, 2.07301, 1.98307, 2.06497, 1.97952, 2.0816, 1.97663, 1.9774, 1.97938, 1.97534, 1.97378, 1.97366, 1.97287, 1.97151, 2.06914, 1.9108, 1.91243, 1.90625, 2.102, 1.90158, 2.00176, 2.0004, 1.89948, 1.94871, 1.94635, 2.07881, 2.00397, 1.89243, 1.89268, 1.89231, 1.89331, 1.89188, 1.89197, 1.89193, 1.88979, 2.09662, 2.00359, 2.00264, 2.00013, 1.88759, 1.8889, 1.88887, 2.08654, 2.10368, 1.93727, 1.885, 1.99545, 1.99516, 1.88629, 1.93403, 1.94051, 1.88362, 1.88287, 1.9358, 2.06032, 1.74488, 1.74219, 1.83419, 1.73919, 1.73726, 1.95774, 1.78272, 1.78141, 1.77954, 1.84772, 1.84616, 1.72492, 1.72681, 1.72102, 1.71968, 1.72041, 1.71941, 1.71952, 1.90472, 1.71655, 1.71797, 1.71707, 1.71727, 1.89652, 1.71491, 1.71293, 1.71652, 1.71677, 1.71604, 1.71704, 1.82409, 1.76686, 1.83392, 1.71284, 1.71612, 1.71468, 1.71457, 1.71605, 1.82445, 1.88916, 1.88589, 1.71856, 1.83569, 1.71996, 1.72057, 1.88229, 1.72497, 1.72439, 1.72424, 1.72735, 1.87648, 1.87055, 1.73238, 1.73123, 1.87165, 1.86806, 1.86844, 1.73729, 1.7386, 1.73602
1.94871, 1.94841, 2.0651, 1.94661, 1.94535, 1.94588, 1.94321, 1.94395, 2.029, 1.94417, 1.94441, 1.94101, 1.94084, 1.94046, 1.94106, 2.05053, 1.93437, 2.05356, 1.93409, 1.9826, 2.05816, 2.04422, 1.92972, 1.97951, 1.92665, 1.92523, 2.01474, 2.04499, 1.92695, 1.97325, 2.04382, 2.12251, 1.92039, 2.01443, 1.92381, 1.92099, 1.97608, 1.92359, 1.92324, 1.9215, 2.03023, 2.04313, 1.9265, 1.92637, 1.97759, 2.01392, 2.00798, 2.0093, 2.07584, 2.07603, 2.07705, 2.07204, 2.15602, 2.1552, 2.05984, 2.05468, 2.05546, 2.05183, 2.05531, 2.04844, 2.07195, 2.04505, 2.04438, 2.04185, 2.16452, 2.07225, 1.96002, 1.95819, 2.16398, 2.03205, 2.0302, 1.95299, 2.17992, 2.02256, 2.02455, 2.02377, 2.06974, 1.94471, 2.02033, 2.0167, 2.01686, 1.93776, 2.01405, 2.0133, 2.01433, 2.06684, 2.0133, 2.15004, 2.01467, 2.01527, 2.01451, 1.94091, 2.06009, 2.05915, 2.02366, 1.94825, 2.02545, 1.95529, 2.05322, 2.05335, 2.12175, 2.09996, 2.11314, 2.11865, 2.1124, 2.1108, 2.1037, 2.01676, 2.01442, 2.01572, 2.01315, 2.01407, 2.01377, 2.0128, 2.12507, 2.1037, 2.10702, 2.09671, 2.11819, 2.09737, 2.01177, 2.10027, 2.10182, 2.10707, 2.10304, 2.10094, 2.09406, 2.10063, 2.11321, 2.00791, 2.10441, 2.09968, 2.09123, 2.00468, 2.09008, 2.00312, 2.09646, 2.08769, 2.08784, 2.10147, 2.08255, 2.0894, 1.99988, 2.08529, 2.09659, 2.0876, 2.08996, 2.10384, 1.99336, 2.08589, 2.0855, 2.09469, 1.98652, 2.09322, 2.09262, 2.07218, 2.06532, 2.07046, 2.06764, 1.97888, 1.97889, 1.97746, 1.97656, 1.97456, 1.97447, 1.97476, 1.97498, 2.06956, 2.08024, 1.91471, 1.90856, 2.0938, 1.90831, 2.1066, 2.11169, 1.90289, 1.90272, 1.8996, 1.95167, 1.89787, 1.8954, 1.89563, 2.11483, 1.89553, 1.89444, 1.8926, 2.10771, 2.00337, 1.89172, 1.88991, 1.88945, 1.94207, 1.88826, 1.88626, 1.9944, 1.89173, 1.88974, 1.89066, 1.88867, 1.889, 1.88905, 1.93839, 1.88335, 1.98936, 1.98806, 1.99057, 1.88479, 1.88531, 1.88276, 2.08611, 1.79343, 1.74145, 1.85444, 1.78655, 1.73542, 1.78325, 1.78193, 1.83029, 1.8505, 1.72555, 1.72416, 1.72494, 1.77347, 1.83893, 1.90799, 1.90595, 1.71965, 1.71756, 1.71532, 1.90524, 1.81674, 1.71697, 1.71415, 1.71431, 1.71184, 1.71342, 1.7145, 1.71347, 1.7129, 1.71448, 1.71343, 1.77196, 1.71632, 1.89966, 1.89632, 1.71102, 1.71598, 1.71463, 1.71654, 1.71747, 1.88884, 1.88604, 1.88911, 1.71687, 1.72102, 1.8798, 1.72296, 1.72341, 1.87621, 1.7254, 1.72594, 1.72629, 1.73053, 1.72621, 1.73077, 1.7326, 1.73078, 1.73422, 1.86395, 1.86855
1.95094, 1.9476, 1.94811, 1.94928, 2.04898, 1.94807, 2.04416, 2.05612, 1.94468, 2.04261, 2.04452, 2.00338, 2.00537, 1.93906, 1.93773, 1.93744, 2.05189, 1.93503, 1.98297, 1.98468, 1.93246, 2.05079, 2.0349, 1.93014, 1.92643, 1.92792, 1.92769, 1.9762, 1.92537, 1.92742, 2.04496, 2.121, 1.92037, 2.04126, 2.0415, 1.92305, 1.97512, 1.92174, 1.9222, 1.92192, 2.03043, 1.92436, 1.97459, 1.97538, 1.92551, 2.10324, 1.92754, 1.92759, 2.09757, 2.0653, 2.06519, 2.06276, 2.07966, 2.05791, 2.05708, 2.05476, 2.0526, 2.0555, 2.07408, 2.04813, 2.04626, 2.04587, 2.06908, 2.03788, 1.96331, 1.96219, 2.04158, 2.06923, 2.03133, 2.0345, 1.95456, 2.0254, 2.0694, 2.07248, 2.07246, 2.0679, 2.06817, 2.02071, 2.02014, 1.94081, 1.94121, 2.01484, 2.0135, 2.01339, 2.01379, 2.01354, 2.01175, 2.13914, 2.15885, 2.017, 2.01724, 2.01722, 2.01898, 2.0206, 2.05823, 2.05488, 2.05499, 2.03268, 2.05205, 2.12841, 2.02431, 2.02322, 2.12557, 2.10334, 2.09573, 2.09532, 2.09398, 2.01768, 2.01536, 2.01444, 2.01347, 2.01349, 2.01303, 2.10838, 2.0114, 2.09985, 2.09666, 2.11092, 2.11348, 2.0844, 2.10377, 2.10076, 2.01028, 2.10755, 2.08972, 2.0971, 2.00882, 2.09134, 2.093, 2.00819, 2.00548, 2.0054, 2.00567, 2.09207, 2.10097, 2.09167, 2.089, 2.00015, 2.09005, 2.09688, 2.08655, 2.08587, 1.99771, 2.09112, 2.08803, 2.08309, 2.10414, 1.99411, 2.07585, 2.08943, 2.08338, 2.08371, 2.07342, 2.08594, 2.07516, 1.98347, 2.09313, 2.07533, 1.98141, 2.0656, 2.06894, 1.9775, 1.9783, 1.97595, 1.97669, 1.97469, 1.97273, 2.0718, 2.07594, 1.91115, 2.10389, 1.90995, 1.90734, 1.9058, 1.90622, 1.90305, 1.95113, 1.89959, 1.89886, 1.89677, 1.89639, 1.89445, 1.94622, 1.94528, 1.9433, 1.89446, 1.89255, 1.89129, 1.89038, 1.89216, 1.89217, 1.89149, 2.11755, 1.89252, 1.89122, 1.89244, 1.89051, 1.88957, 1.88674, 1.88836, 2.00271, 1.88907, 1.88766, 1.93745, 1.88597, 2.07682, 1.98574, 1.88651, 1.88518, 1.88507, 1.7427, 1.91755, 1.73752, 1.73605, 1.73487, 1.73144, 1.91415, 1.72551, 1.72667, 1.82703, 1.72148, 1.9107, 1.90925, 1.72008, 1.71755, 1.71541, 1.71717, 1.7149, 1.71593, 1.90683, 1.7136, 1.71509, 1.76863, 1.71354, 1.71362, 1.71291, 1.71379, 1.71444, 1.71433, 1.71292, 1.77715, 1.71302, 1.71079, 1.71134, 1.71195, 1.71378, 1.88715, 1.82137, 1.71498, 1.71582, 1.71413, 1.71765, 1.71674, 1.71928, 1.78247, 1.71897, 1.71833, 1.72275, 1.72047, 1.72306, 1.7274, 1.72789, 1.87227, 1.86957, 1.72757, 1.734, 1.73084, 1.78378, 1.7849, 1.86768
1.94961, 2.05862, 2.04906, 2.05115, 1.99843, 1.94606, 1.94536, 1.94287, 1.94321, 2.04999, 2.04323, 2.00343, 1.99005, 1.93844, 1.98845, 1.98692, 1.98957, 1.99844, 1.93458, 1.98378, 1.98292, 2.03117, 2.03211, 1.93071, 1.93082, 1.92702, 1.92614, 1.92415, 1.92516, 1.92445, 2.12456, 1.92002, 2.12207, 1.92065, 1.92037, 2.11209, 1.92222, 1.9224, 1.92322, 1.92212, 1.92323, 1.9731, 1.9243, 1.97548, 2.10192, 2.10174, 2.11093, 2.10494, 2.06573, 2.18442, 2.07761, 2.15174, 2.06331, 2.07393, 2.06667, 1.97947, 2.05475, 2.05181, 2.07036, 2.0456, 2.04791, 2.15585, 2.04549, 2.04064, 2.0391, 2.03806, 1.96054, 1.95675, 2.03103, 2.03528, 2.0712, 2.02791, 2.02465, 2.02483, 2.02297, 2.0661, 2.06584, 2.06933, 2.06643, 2.0184, 2.14408, 2.0656, 2.01442, 2.01537, 2.01365, 2.01327, 2.01435, 2.01419, 2.01349, 1.93879, 1.93994, 2.06075, 2.01795, 2.01876, 2.13214, 2.14618, 2.02618, 2.03063, 2.13116, 2.05042, 2.12176, 2.11455, 2.11483, 2.09603, 2.09465, 2.01786, 2.09222, 2.01642, 2.0167, 2.01538, 2.01317, 2.0107, 2.01213, 2.01124, 2.01251, 2.10903, 2.0858, 2.08655, 2.08636, 2.10639, 2.08884, 2.08316, 2.09004, 2.0096, 2.0911, 2.08444, 2.09236, 2.00775, 2.12139, 2.09299, 2.10323, 2.10237, 2.00416, 2.09855, 2.09073, 2.08941, 2.00107, 2.08609, 2.08354, 2.00044, 2.0867, 2.09939, 1.9965, 1.99684, 2.07677, 2.0866, 1.99245, 2.08784, 2.0813, 2.06673, 2.08175, 2.07906, 2.07534, 2.08221, 2.07678, 2.07336, 2.07802, 2.07305, 1.97941, 1.97875, 1.97853, 1.97757, 1.97865, 1.97426, 1.97335, 1.97344, 1.97297, 1.97419, 2.06346, 1.91104, 1.96018, 1.9584, 1.9068, 2.01348, 1.90364, 1.95149, 1.99645, 1.89926, 2.00264, 1.89904, 1.89607, 1.89611, 1.94511, 2.0805, 1.89184, 1.94331, 1.89192, 1.89217, 1.89313, 1.89014, 1.89098, 2.00063, 1.89217, 2.08384, 1.89, 1.88961, 1.89044, 1.93796, 1.88941, 1.99324, 1.88933, 1.9392, 1.93894, 1.93741, 1.93493, 1.88501, 1.88507, 2.07452, 1.88254, 1.88281, 1.7398, 1.7379, 1.91498, 1.73398, 1.91025, 1.72913, 1.91554, 1.91367, 1.72257, 1.72644, 1.72175, 1.91029, 1.90834, 1.71649, 1.71923, 1.71383, 1.71386, 1.7139, 1.76441, 1.88525, 1.76326, 1.7152, 1.71169, 1.71156, 1.71108, 1.71135, 1.89591, 1.71144, 1.82795, 1.89204, 1.71297, 1.77431, 1.71015, 1.71085, 1.71025, 1.71094, 1.71084, 1.88659, 1.71477, 1.76532, 1.76288, 1.83545, 1.83289, 1.71977, 1.76847, 1.91089, 1.92109, 1.72319, 1.72288, 1.87865, 1.87509, 1.87174, 1.92423, 1.72762, 1.73035, 1.85828, 1.77981, 1.80108, 1.78278, 1.7336
1.95038, 1.94814, 2.04906, 1.94736, 2.05849, 2.05411, 1.94507, 1.94221, 2.04438, 2.04874, 2.05016, 2.05273, 1.93847, 1.93771, 1.93808, 1.98618, 1.9937, 1.99555, 1.99636, 2.02354, 2.02568, 1.93143, 1.93126, 1.92788, 1.92786, 2.04908, 2.045, 2.04442, 1.92332, 1.97164, 2.12389, 2.12003, 1.92035, 1.9215, 1.92095, 1.92172, 1.92059, 1.97167, 2.00835, 2.00945, 1.92114, 2.02485, 1.99229, 1.97573, 1.92459, 1.92824, 2.10777, 2.02393, 2.06526, 2.07549, 2.07493, 2.05948, 2.07055, 2.0563, 2.0569, 2.05527, 2.05182, 2.05303, 2.0525, 2.04518, 2.04593, 2.04986, 2.0691, 2.06918, 2.06912, 2.03852, 1.95917, 2.03539, 2.03223, 2.03109, 2.03069, 2.02546, 2.0232, 2.02476, 2.02733, 2.06867, 2.01916, 2.0199, 2.16513, 2.06956, 2.01707, 1.93846, 1.93771, 1.93853, 2.01311, 2.01298, 2.01387, 2.01274, 2.01324, 2.01297, 2.01396, 2.01319, 2.01468, 1.94204, 1.94578, 2.1565, 2.02617, 2.0302, 2.05099, 2.03546, 2.13846, 2.09782, 2.12353, 2.09886, 2.0944, 2.10199, 2.11139, 2.01472, 2.01459, 2.0135, 2.01307, 2.01184, 2.01073, 2.11428, 2.113, 2.01148, 2.11077, 2.01114, 2.08248, 2.09955, 2.09513, 2.09079, 2.09402, 2.10135, 2.08371, 2.0903, 2.08925, 2.09929, 2.11454, 2.00479, 2.11098, 2.09976, 2.09952, 2.00206, 2.09319, 1.99992, 2.07736, 2.08241, 2.00052, 2.09036, 2.08559, 2.08814, 1.99732, 2.093, 2.10033, 1.99299, 2.08389, 2.08508, 2.08623, 2.06515, 2.07617, 1.98923, 2.07271, 2.07741, 1.98448, 2.06943, 2.06577, 1.98157, 2.07149, 2.06971, 2.0605, 1.97725, 1.97621, 1.97538, 1.97236, 1.97261, 1.97263, 2.07057, 2.06305, 1.96118, 1.95995, 1.95814, 1.95547, 1.90447, 1.90335, 2.00107, 1.89995, 1.8994, 1.89861, 1.8976, 1.89586, 1.89584, 1.89498, 1.89292, 1.89208, 1.96402, 1.96203, 1.89314, 1.89215, 1.89039, 1.88893, 2.08608, 1.89034, 1.89039, 2.01083, 1.88749, 1.88911, 1.89014, 1.88645, 2.08596, 1.93798, 1.93679, 1.88659, 1.93715, 1.93494, 1.93446, 1.88429, 1.88302, 1.98272, 2.0725, 1.78869, 1.73649, 1.73336, 1.73284, 1.72889, 1.728, 1.72708, 1.72404, 1.72275, 1.90646, 1.81102, 1.71769, 1.91003, 1.71531, 1.71496, 1.90687, 1.76271, 1.76288, 1.71316, 1.8829, 1.70962, 1.71374, 1.81389, 1.70881, 1.70636, 1.70879, 1.71048, 1.8984, 1.70871, 1.70653, 1.71164, 1.7097, 1.7104, 1.88899, 1.71118, 1.88851, 1.88651, 1.88694, 1.71345, 1.76446, 1.86557, 1.86277, 1.76504, 1.78243, 1.76589, 1.71727, 1.91983, 1.71761, 1.77159, 1.72269, 1.72122, 1.72356, 1.72471, 1.72474, 1.72885, 1.72681, 1.72688, 1.72917, 1.73191, 1.73136
1.9495, 1.94767, 2.07516, 2.0769, 2.07842, 1.9934, 1.99429, 2.05102, 1.94179, 1.94448, 1.93971, 1.94075, 1.9358, 1.94048, 2.23115, 1.93563, 1.9352, 1.93345, 1.93553, 2.05327, 2.05438, 1.93196, 1.98062, 1.98021, 1.92715, 1.92643, 1.92482, 1.92412, 2.0419, 2.02146, 1.92382, 1.92298, 1.97115, 1.92191, 2.10323, 2.0213, 1.92072, 2.03074, 1.92013, 1.92094, 1.92095, 2.00696, 2.00772, 1.92545, 1.92517, 1.9265, 1.9274, 1.92734, 2.06903, 2.06292, 2.07311, 2.0716, 1.98374, 1.97912, 2.15151, 2.06868, 2.06222, 2.05263, 2.06933, 2.04595, 2.04491, 2.06949, 2.15589, 2.03985, 2.03929, 2.06573, 2.03587, 1.95813, 1.95831, 2.03055, 1.95284, 2.02546, 2.02257, 2.02369, 2.02384, 1.94596, 2.06867, 2.06665, 2.01891, 2.01542, 2.014, 2.06593, 2.06372, 2.01768, 2.01746, 1.93563, 2.01117, 2.01339, 2.01387, 2.01373, 2.01603, 2.01764, 2.05659, 2.14543, 2.02113, 1.94498, 2.02474, 2.02994, 2.05158, 2.13806, 2.09709, 2.09654, 2.11813, 2.11704, 2.11104, 2.1172, 2.01644, 2.01639, 2.01337, 2.01731, 2.01271, 2.01178, 2.00964, 2.01013, 2.11502, 2.00949, 2.01045, 2.0099, 2.01004, 2.01063, 2.08363, 2.09002, 2.09712, 2.0837, 2.00973, 2.08286, 2.08097, 2.09718, 2.09142, 2.09063, 2.09649, 2.08455, 2.0956, 2.09066, 2.09367, 2.09783, 2.08292, 2.0868, 2.09659, 2.08276, 2.08966, 2.07217, 1.99563, 2.08757, 2.09031, 2.08391, 2.09443, 2.07337, 2.08919, 2.08044, 2.094, 2.07946, 2.06971, 2.0724, 2.07309, 2.06655, 2.07487, 1.97982, 2.06325, 1.97882, 2.0807, 1.97901, 1.97494, 1.97312, 1.97561, 1.97428, 1.97491, 2.04591, 2.06481, 1.91127, 1.90972, 1.90763, 2.09924, 1.9067, 2.10014, 1.90106, 2.00333, 1.89887, 1.89835, 2.0062, 2.00488, 1.94528, 1.94408, 1.94375, 1.89376, 1.89367, 1.9738, 1.94255, 1.89264, 1.89077, 1.89284, 1.89122, 1.89011, 1.94047, 1.93907, 1.89165, 1.88869, 1.88966, 1.88936, 1.88842, 1.9508, 1.93753, 1.93707, 1.93697, 1.93466, 1.98964, 1.88548, 1.88307, 1.88297, 1.88478, 1.78718, 1.78545, 1.73236, 1.73072, 1.72734, 1.72512, 1.72317, 1.9106, 1.82096, 1.91036, 1.71823, 1.71712, 1.71358, 1.717, 1.71326, 1.95278, 1.76341, 1.70854, 1.71145, 1.70955, 1.75975, 1.76004, 1.75753, 1.81073, 1.70535, 1.77648, 1.89221, 1.70634, 1.70602, 1.82356, 1.71008, 1.70763, 1.7105, 1.70834, 1.71017, 1.71038, 1.8869, 1.8864, 1.88539, 1.71134, 1.76281, 1.71045, 1.7824, 1.76326, 1.76403, 1.76629, 1.76788, 1.76653, 1.82619, 1.72223, 1.82498, 1.86707, 1.86456, 1.72195, 1.72629, 1.82905, 1.72802, 1.72842, 1.9098, 1.7292
1.94831, 1.94478, 1.94566, 2.0754, 1.94478, 2.05953, 1.94498, 2.05214, 1.94049, 1.93955, 2.05367, 2.05042, 1.93872, 1.93783, 1.93469, 2.04961, 2.05133, 1.93443, 1.93606, 1.93421, 2.04462, 2.02374, 2.04383, 2.04392, 2.04845, 2.04237, 2.03559, 1.98574, 2.11434, 2.02626, 2.02769, 1.97088, 1.96999, 1.92047, 1.96933, 2.00356, 2.03473, 1.92026, 2.10843, 1.92032, 2.11095, 2.00585, 1.97282, 1.92771, 1.9254, 1.92698, 1.92679, 1.93011, 2.06316, 2.06356, 2.06347, 2.06929, 2.07213, 2.15598, 2.07048, 1.97887, 2.06667, 2.05209, 2.04763, 2.06924, 2.15188, 2.04541, 2.0397, 2.04167, 2.03749, 2.03574, 2.15246, 2.06608, 2.03168, 2.03079, 1.95152, 2.02664, 2.02565, 2.02598, 2.02378, 2.01959, 2.15817, 1.94165, 1.94112, 2.01496, 1.93791, 2.01319, 2.01163, 2.01693, 2.06251, 2.06271, 2.01138, 2.05913, 2.01383, 2.01463, 2.14817, 1.93936, 2.01691, 2.01733, 2.01935, 2.02405, 2.02518, 2.05171, 2.0492, 2.04761, 2.10441, 2.10559, 2.11507, 2.12067, 2.09293, 2.10965, 2.11029, 2.01822, 2.01722, 2.01277, 2.0121, 2.0117, 2.01162, 2.10437, 2.01083, 2.08779, 2.01047, 2.09382, 2.11012, 2.00856, 2.09496, 2.10935, 2.081, 2.0071, 2.10943, 2.09475, 2.11375, 2.11525, 2.10069, 2.09949, 2.09311, 2.0844, 2.08088, 2.09809, 2.00173, 1.99981, 1.99812, 2.09093, 2.09029, 2.08361, 2.08888, 2.08072, 2.08062, 2.06966, 2.08703, 2.08334, 2.08826, 2.08137, 2.08587, 2.08626, 2.08409, 2.07582, 2.07723, 2.07386, 2.06725, 2.07725, 2.07055, 2.06998, 2.05839, 2.06286, 1.97645, 1.97566, 1.97377, 1.97303, 1.97309, 1.97358, 1.97203, 2.04535, 2.06894, 1.90962, 1.90858, 2.09027, 1.90358, 1.90452, 1.9022, 1.90154, 1.95228, 1.89681, 1.95276, 1.94893, 1.94831, 1.9454, 1.94511, 1.94394, 1.94417, 1.94215, 1.89278, 1.94115, 1.89226, 1.89541, 1.89013, 2.08967, 1.97923, 1.88985, 1.93866, 1.9388, 1.88657, 1.88954, 1.8873, 1.98744, 1.88801, 1.88636, 1.8877, 2.07316, 1.88777, 2.07601, 1.88241, 1.88429, 1.8835, 1.88286, 1.84101, 1.73123, 1.73232, 1.72851, 1.72797, 1.9072, 1.72225, 1.72033, 1.71983, 1.71937, 1.71688, 1.71458, 1.71269, 1.71354, 1.90308, 1.77144, 1.78554, 1.78325, 1.70905, 1.70767, 1.70978, 1.70927, 1.70632, 1.7028, 1.89678, 1.70597, 1.70992, 1.70629, 1.70633, 1.82104, 1.70877, 1.70588, 1.80776, 1.89268, 1.89068, 1.81917, 1.70775, 1.70557, 1.88674, 1.71118, 1.71288, 1.71247, 1.71161, 1.71339, 1.76462, 1.76563, 1.7811, 1.71676, 1.82658, 1.71504, 1.99333, 1.86508, 1.86503, 1.86657, 1.866, 1.86144, 1.72443, 1.82563, 1.85456, 1.72707
2.05324, 2.05349, 1.94226, 2.04153, 2.05313, 2.0535, 1.94454, 2.0436, 1.941, 1.94381, 1.93991, 1.93806, 1.93705, 2.05725, 1.93467, 1.93551, 1.93517, 1.93377, 1.93135, 1.93134, 1.93036, 2.0206, 2.04074, 1.92695, 1.92809, 1.92619, 1.99674, 1.92415, 1.92687, 1.92389, 2.02532, 1.96948, 1.97011, 1.97035, 1.96883, 2.0027, 1.96967, 1.97172, 2.00535, 1.91961, 1.92122, 1.97105, 1.97207, 1.9236, 2.02661, 2.0106, 1.92725, 2.01095, 2.06951, 1.98772, 2.06927, 2.06988, 2.14646, 2.14912, 2.05246, 2.05114, 2.05219, 1.97296, 2.04842, 2.04708, 2.04576, 2.04532, 2.04281, 2.03845, 1.96211, 2.03527, 2.03285, 2.03417, 1.95515, 2.03229, 1.95147, 2.02501, 2.15206, 2.06608, 2.159, 2.01712, 2.02003, 2.14816, 2.01508, 2.0143, 2.01417, 2.01355, 2.01393, 1.93544, 2.01235, 2.06026, 2.06058, 2.00923, 2.06264, 2.01301, 2.013, 2.01396, 1.93824, 2.01632, 2.05518, 2.02447, 2.02419, 2.04963, 2.05016, 2.0556, 2.10333, 2.11125, 2.11226, 2.10498, 2.11022, 2.01539, 2.10681, 2.0145, 2.01441, 2.01438, 2.01095, 2.01103, 2.01064, 2.10045, 2.09582, 2.00999, 2.10529, 2.10396, 2.10408, 2.09276, 2.10776, 2.10011, 2.00744, 2.12037, 2.00802, 2.00709, 2.09522, 2.09116, 2.08924, 2.08646, 2.09099, 2.07875, 2.07689, 2.08534, 1.99975, 2.07368, 2.08577, 2.10037, 2.08848, 2.08729, 2.08975, 2.08611, 2.09354, 2.08126, 2.08083, 2.08123, 2.07975, 1.99245, 2.10046, 2.06989, 2.07372, 1.98723, 2.0646, 2.05898, 2.05662, 2.06973, 2.06338, 1.97899, 1.97868, 2.06544, 1.97602, 1.97601, 1.97394, 1.97316, 2.05486, 1.97167, 2.04678, 2.06436, 2.04814, 1.91028, 1.90746, 1.90665, 1.90652, 1.90448, 2.1178, 1.95183, 1.95089, 1.94981, 2.00007, 1.99918, 2.01499, 2.09057, 1.89531, 1.89178, 1.89035, 1.89427, 1.89399, 1.89301, 1.89276, 1.89298, 1.99285, 1.88737, 1.94109, 1.9398, 1.89025, 1.89007, 1.93879, 1.9454, 1.8889, 1.9847, 2.09296, 2.07075, 1.88852, 1.88493, 1.88558, 1.88363, 2.08474, 1.88533, 1.8836, 1.88064, 1.73119, 1.83137, 1.8239, 1.72662, 1.90675, 1.72321, 1.91292, 1.72286, 1.71891, 1.82333, 1.8202, 1.82503, 1.81545, 1.71313, 1.80477, 1.71084, 1.70936, 1.70951, 1.75875, 1.75747, 1.70708, 1.7073, 1.81888, 1.81441, 1.70529, 1.70695, 1.9421, 1.70559, 1.70414, 1.70599, 1.7036, 1.7058, 1.70955, 1.70733, 1.70789, 1.70801, 1.70608, 1.70607, 1.70469, 1.70928, 1.88189, 1.71006, 1.71164, 1.8798, 1.71093, 1.71385, 1.87585, 1.8756, 1.87286, 1.86906, 1.86641, 1.71809, 1.86602, 1.86211, 1.72607, 1.85951, 1.72489, 1.72749, 1.72752, 1.72794
1.94817, 1.94906, 1.94167, 1.94263, 2.05111, 2.05322, 2.05169, 1.94092, 1.94062, 1.93939, 1.93762, 2.03436, 1.93747, 1.93433, 1.93459, 1.93366, 1.93377, 1.93142, 1.93104, 2.04386, 1.9291, 1.92738, 1.92946, 1.92997, 1.92703, 1.97414, 1.9271, 1.97275, 1.97353, 2.11463, 2.04142, 1.92195, 1.96863, 1.9188, 1.91991, 1.9698, 1.9689, 1.96937, 1.96988, 1.97012, 2.02396, 1.97184, 1.97156, 1.92382, 1.92263, 1.9243, 1.97377, 1.97608, 2.00712, 2.06567, 1.9856, 2.1553, 2.06743, 2.14543, 2.05613, 2.04985, 2.06587, 2.06883, 2.06806, 2.06482, 2.06523, 2.15987, 2.0432, 2.0396, 1.96156, 2.03645, 2.04137, 2.03176, 1.9545, 2.02812, 2.02869, 1.94501, 1.94813, 1.94815, 2.02361, 2.02095, 2.06412, 1.94138, 2.01762, 2.01397, 1.93832, 1.93772, 2.01304, 2.01337, 2.0104, 1.9347, 2.01155, 2.01417, 1.93465, 2.01294, 2.01146, 2.05463, 2.01768, 1.94203, 1.94171, 2.14524, 2.02118, 2.02751, 2.0281, 2.14851, 2.11349, 2.11418, 2.12242, 2.10755, 2.11054, 2.10022, 2.10679, 2.0124, 2.01454, 2.01302, 2.01307, 2.00907, 2.01292, 2.01007, 2.08746, 2.09745, 2.10058, 2.10044, 2.09737, 2.09821, 2.00815, 2.10728, 2.11364, 2.10693, 2.00559, 2.09482, 2.10181, 2.00426, 2.07469, 2.00265, 2.09689, 2.07941, 2.09338, 2.00038, 2.08649, 2.0961, 1.99612, 1.99674, 2.09571, 1.99438, 1.99462, 1.9954, 2.069, 2.06618, 1.99288, 2.07346, 2.07577, 2.08119, 2.0804, 2.08304, 1.98665, 2.07265, 2.07905, 2.07675, 2.07154, 2.06148, 1.98117, 1.97916, 1.97874, 1.97699, 1.97478, 1.97589, 1.97333, 1.97156, 1.97143, 1.97149, 1.97239, 2.06552, 2.07028, 1.99959, 1.90733, 2.09797, 1.90481, 1.90497, 1.90294, 1.9507, 1.9497, 1.94871, 1.94782, 1.89709, 1.89382, 1.89345, 1.89293, 2.09232, 1.89296, 1.89339, 1.89195, 1.99309, 1.89013, 1.89064, 1.89228, 1.89095, 1.94051, 1.94082, 1.89061, 1.93904, 1.93924, 1.88932, 1.88715, 2.07899, 2.08379, 2.08036, 2.08243, 2.07982, 1.88639, 1.8833, 1.88214, 2.08187, 1.97914, 1.87931, 1.73005, 1.91482, 1.91455, 1.7272, 1.72375, 1.72091, 1.91099, 1.71835, 1.7183, 1.82053, 1.71422, 1.71296, 1.71015, 1.90224, 1.89959, 1.70762, 1.70671, 1.70531, 1.70443, 1.805, 1.80153, 1.7055, 1.70403, 1.81041, 1.89575, 1.89376, 1.70332, 1.89288, 1.94712, 1.70264, 1.70151, 1.80633, 1.88648, 1.70486, 1.70359, 1.70582, 1.88607, 1.88564, 1.88239, 1.88642, 1.70815, 1.70629, 1.70989, 1.70942, 1.87555, 1.71009, 1.87486, 1.71443, 1.71644, 1.71635, 1.87159, 1.71955, 1.71817, 1.86201, 1.7204, 1.85601, 1.85413, 1.85312, 1.727, 1.72561
2.04336, 1.94678, 1.94216, 1.94568, 1.94319, 2.23068, 1.94133, 1.9399, 1.93876, 1.93745, 1.93807, 2.03284, 1.98638, 1.98727, 1.93566, 2.04082, 2.04227, 1.98186, 1.98316, 1.98118, 2.01434, 1.92708, 1.92732, 1.92742, 1.92691, 1.92723, 1.97227, 2.02558, 1.91832, 1.92048, 1.91829, 1.91984, 1.9207, 2.0208, 1.91951, 1.92063, 1.92079, 1.91575, 1.96732, 1.96859, 1.91955, 2.01083, 2.01169, 1.92149, 1.92242, 2.10509, 1.97286, 1.92633, 1.92731, 2.06306, 2.06298, 1.98296, 2.05843, 2.0549, 2.06333, 2.06362, 2.05199, 2.05015, 2.04637, 2.15467, 2.04875, 1.96605, 2.03972, 2.03797, 2.03434, 2.04153, 2.03437, 2.03326, 2.0286, 2.02795, 1.94974, 2.02692, 2.02361, 2.06233, 2.15606, 2.01833, 2.06273, 2.01558, 2.1496, 2.01385, 2.01222, 2.01204, 2.00994, 2.0114, 2.00995, 2.14634, 2.01002, 1.93599, 2.00963, 2.0109, 2.01187, 2.01072, 2.01219, 2.01407, 2.01455, 2.05177, 2.023, 2.02379, 2.04744, 2.04785, 1.97169, 2.01962, 2.09447, 2.12907, 2.09297, 2.10622, 2.09135, 2.01317, 2.0134, 2.01097, 2.01147, 2.01347, 2.01033, 2.00853, 2.10495, 2.10093, 2.1004, 2.11006, 2.11548, 2.00896, 2.00709, 2.10491, 2.09664, 2.11034, 2.10705, 2.0925, 2.00517, 2.09572, 2.00308, 2.09791, 2.09144, 2.08478, 2.09659, 2.09825, 2.10023, 2.0968, 1.99777, 2.0786, 2.07303, 1.99317, 2.08323, 2.08331, 2.08247, 2.06945, 2.07927, 2.08658, 2.08359, 2.06377, 1.98691, 1.9873, 1.98682, 2.06503, 2.08427, 2.07236, 2.06899, 2.07721, 1.97927, 2.06597, 2.06915, 1.97506, 1.97449, 1.97369, 1.97216, 1.97157, 1.97055, 2.05422, 2.04864, 2.04752, 2.06548, 2.09111, 1.90784, 1.90734, 1.90631, 1.95477, 2.00384, 1.95861, 1.94897, 1.89887, 1.89648, 2.00352, 1.89396, 1.89388, 1.89346, 1.89413, 1.89702, 1.89258, 1.88802, 1.89267, 1.89016, 2.06209, 1.89136, 1.89237, 1.89407, 1.89228, 1.89094, 1.8896, 1.93816, 1.88621, 1.888, 1.88763, 1.88715, 1.8857, 1.88561, 1.88354, 2.07613, 1.8845, 1.88225, 1.97891, 1.8788, 1.73018, 1.91553, 1.72729, 1.72548, 1.85243, 1.77308, 1.71841, 1.71959, 1.71644, 1.90274, 1.90023, 1.76264, 1.82089, 1.70894, 1.70994, 1.70724, 1.89667, 1.70621, 1.80743, 1.80607, 1.80697, 1.89501, 1.70061, 1.70434, 1.7021, 1.70069, 1.69987, 1.79642, 1.70192, 1.70274, 1.7022, 1.80981, 1.7005, 1.70399, 1.88653, 1.88574, 1.70608, 1.70523, 1.88244, 1.88537, 1.70806, 1.70642, 1.70413, 1.70667, 1.85837, 1.70935, 1.70798, 1.71147, 1.71024, 1.86903, 1.71652, 1.86851, 1.81728, 1.71957, 1.7171, 1.85833, 1.8555, 1.8587, 1.85673, 1.85172, 1.72425
2.05013, 1.94561, 2.04937, 1.94182, 1.94389, 1.94175, 1.94099, 1.94338, 1.94012, 1.9383, 1.93675, 1.98597, 1.93492, 1.93452, 1.98325, 1.93465, 2.03981, 1.93429, 1.98256, 1.98166, 1.98024, 2.00031, 2.04449, 1.92679, 1.97794, 1.92499, 1.97287, 2.02588, 1.97041, 2.03048, 2.03096, 1.9207, 2.0353, 1.91679, 2.03423, 2.03298, 1.91809, 2.03158, 2.03252, 1.91832, 2.10568, 1.91837, 1.96924, 1.92039, 1.92193, 1.9211, 2.0173, 2.02433, 2.06661, 2.06709, 2.05823, 2.05967, 2.0587, 2.05972, 1.97636, 1.97703, 2.05842, 2.04683, 2.0459, 2.04464, 2.04308, 2.04283, 2.03872, 1.96188, 1.95973, 2.03481, 2.03515, 2.03087, 2.02871, 2.06264, 2.15268, 2.15031, 2.06247, 2.02139, 2.01749, 2.01813, 2.01687, 1.94007, 2.01775, 2.0633, 2.0114, 2.00987, 2.00838, 2.00817, 2.01008, 1.93209, 1.9327, 2.00902, 2.0106, 2.01164, 2.01202, 2.01304, 2.01698, 2.01246, 1.94149, 1.94175, 2.05215, 2.02265, 1.95162, 2.13379, 2.12774, 2.01808, 2.0178, 2.10142, 2.09233, 2.09648, 2.09142, 2.08806, 2.08945, 2.08969, 2.00983, 2.01413, 2.00918, 2.00752, 2.10023, 2.09406, 2.09715, 2.097, 2.09309, 2.00727, 2.11716, 2.09765, 2.09233, 2.09307, 2.09338, 2.09146, 2.00232, 2.10291, 2.00103, 2.08869, 2.09771, 2.092, 1.99952, 2.08256, 2.08386, 2.08346, 2.09621, 2.0909, 1.99391, 1.99435, 2.07643, 2.09102, 2.08371, 2.07933, 2.06287, 2.07335, 2.06329, 2.06229, 2.05998, 2.05931, 2.07359, 2.07972, 2.084, 1.9831, 2.05556, 2.08676, 2.0664, 1.97948, 2.06657, 2.06833, 1.9742, 1.97217, 1.9721, 1.9711, 1.96968, 2.04821, 1.96913, 2.04412, 2.0843, 1.9976, 1.90689, 1.98296, 1.98227, 1.95274, 1.89954, 1.9008, 2.1007, 1.89789, 1.89725, 1.89704, 1.99951, 1.89355, 1.89329, 1.89613, 1.89536, 1.89556, 2.08271, 1.89238, 1.99643, 2.08935, 1.89195, 1.98255, 1.89116, 1.98196, 1.98319, 1.88903, 1.98724, 2.08, 1.88614, 1.98444, 1.88532, 1.88488, 1.88559, 1.88404, 1.88542, 1.88496, 1.88193, 1.88255, 2.06227, 1.97753, 1.83077, 1.72424, 1.72476, 1.72056, 1.71992, 1.76888, 1.71739, 1.71465, 1.71328, 1.71238, 1.71132, 1.76163, 1.7092, 1.89927, 1.89457, 1.70678, 1.70452, 1.81311, 1.70306, 1.70233, 1.70038, 1.70154, 1.70221, 1.70322, 1.70091, 1.70244, 1.70192, 1.70121, 1.70061, 1.69932, 1.70068, 1.88417, 1.69969, 1.70245, 1.70351, 1.88523, 1.70549, 1.70315, 1.70624, 1.70504, 1.70534, 1.70595, 1.70503, 1.7607, 1.75821, 1.70572, 1.76065, 1.85129, 1.71359, 1.71305, 1.71398, 1.71648, 1.81982, 1.86155, 1.71982, 1.71932, 1.71806, 1.97269, 1.84786, 1.84542
2.04583, 1.94591, 1.94692, 1.94064, 1.94397, 2.04588, 1.93706, 1.93984, 2.0461, 1.93864, 1.93879, 1.9353, 1.93723, 1.93577, 1.98355, 1.9848, 1.93264, 1.93245, 1.93004, 1.98068, 1.92812, 1.92823, 1.92699, 1.92734, 1.97327, 1.97386, 1.92196, 1.97187, 1.98725, 1.92028, 1.91964, 2.03669, 2.03796, 1.92007, 2.03352, 2.19181, 1.91337, 2.03795, 1.9157, 2.10754, 2.02721, 1.96871, 1.96852, 1.96968, 1.9185, 2.10357, 1.92466, 2.02238, 2.02364, 2.07255, 2.06653, 2.14609, 2.05956, 2.05201, 1.97672, 2.05085, 1.97193, 2.04928, 2.04487, 2.06329, 2.04551, 2.06252, 2.04017, 2.0395, 2.06245, 2.03462, 1.95589, 1.95417, 2.14504, 2.02511, 2.02501, 2.15563, 2.02723, 1.94382, 2.15195, 2.13762, 2.1453, 2.0145, 2.01385, 2.01351, 2.0132, 1.93426, 2.01096, 2.00983, 2.00766, 2.01131, 2.01071, 2.00783, 2.01017, 2.00944, 2.14687, 2.0135, 1.93499, 2.05205, 2.05167, 2.04864, 2.04885, 2.02253, 2.02596, 2.13365, 2.08688, 2.11776, 2.09545, 2.01645, 2.08957, 2.09728, 2.10856, 2.08671, 2.09024, 2.01075, 2.00982, 2.01085, 2.00725, 2.0066, 2.08701, 2.10309, 2.09949, 2.09288, 2.00619, 2.00731, 2.102, 2.08105, 2.07922, 2.09352, 2.08808, 2.09783, 2.00665, 2.0019, 2.00165, 2.08285, 2.09588, 2.09624, 1.99895, 2.09031, 2.08488, 2.10151, 2.07965, 1.99498, 2.08064, 1.99276, 1.99263, 2.09365, 2.08024, 1.99024, 2.07238, 2.07663, 2.08428, 1.98938, 2.0823, 2.0851, 2.076, 2.07998, 2.09088, 1.9822, 2.08021, 2.06894, 2.06271, 2.07232, 2.06245, 1.97391, 1.97312, 1.97256, 1.97181, 1.97121, 1.97194, 1.97011, 1.96969, 2.05595, 2.0483, 1.90792, 2.10922, 1.90972, 1.90363, 1.95244, 2.00009, 1.90019, 1.89906, 1.89885, 1.89819, 1.89775, 1.89602, 1.89389, 1.8929, 1.89438, 1.8939, 1.8932, 1.89226, 1.89278, 2.08638, 1.98971, 1.96526, 1.98981, 1.9933, 1.98942, 1.98669, 1.88955, 2.07702, 1.8855, 1.88491, 1.88534, 1.88685, 1.88878, 1.88642, 1.88213, 1.99476, 1.88284, 1.88282, 1.88224, 1.88187, 1.726, 1.72466, 1.72106, 1.72044, 1.71849, 1.85199, 1.71966, 1.71623, 1.71316, 1.71065, 1.71137, 1.70849, 1.7093, 1.89441, 1.70776, 1.80712, 1.89576, 1.89283, 1.70416, 1.70308, 1.70183, 1.70192, 1.69979, 1.89211, 1.7013, 1.70093, 1.69893, 1.69846, 1.69867, 1.69956, 1.6961, 1.69899, 1.70021, 1.69974, 1.70217, 1.70141, 1.70157, 1.70251, 1.7018, 1.78919, 1.70323, 1.75441, 1.90879, 1.85756, 1.85427, 1.85485, 1.75891, 1.75908, 1.70889, 1.76188, 1.71187, 1.7115, 1.71434, 1.81787, 1.8609, 1.8572, 1.71928, 1.85293, 1.71781, 1.84538, 1.8275
1.94368, 1.9924, 1.99171, 1.99558, 1.93923, 1.94111, 2.05216, 1.93787, 1.94228, 2.04757, 2.0321, 1.93211, 1.93729, 2.04418, 2.05878, 2.0605, 1.93088, 1.92922, 1.9308, 1.92766, 1.92742, 2.04486, 1.92445, 1.92721, 1.92634, 1.97234, 1.92051, 1.96906, 1.92125, 2.02846, 1.91448, 1.91454, 2.21768, 1.91653, 1.9169, 1.91679, 1.91619, 1.91698, 1.96574, 1.96677, 1.91605, 1.91764, 1.96796, 2.08306, 2.00763, 1.92038, 1.9213, 2.10046, 2.06801, 2.06645, 2.06379, 2.05981, 2.14545, 2.06151, 2.05282, 2.0517, 1.96983, 1.97034, 2.06231, 2.04539, 2.04374, 2.06191, 2.06274, 2.03828, 2.03516, 2.06184, 1.95741, 2.02785, 2.02707, 2.0263, 2.02445, 2.02456, 2.15589, 2.0246, 2.02072, 2.01764, 2.13678, 2.01684, 2.01418, 1.93581, 2.01333, 2.00978, 2.00807, 1.93194, 2.01104, 2.01054, 2.05627, 2.05461, 2.00808, 2.01042, 2.01012, 1.93534, 2.01357, 2.01463, 1.94101, 2.01754, 1.94278, 2.02527, 2.02737, 2.13193, 2.0184, 2.01758, 2.09977, 2.09737, 2.10328, 2.09833, 2.09033, 2.01128, 2.01259, 2.01035, 2.01017, 2.00796, 2.00762, 2.00638, 2.0074, 2.00746, 2.00802, 2.09031, 2.09671, 2.00511, 2.00492, 2.08567, 2.10277, 2.09067, 2.09312, 2.09703, 2.0027, 2.00023, 1.99951, 2.00047, 1.99917, 2.08467, 1.99732, 2.09118, 2.08665, 2.08346, 2.08352, 2.08419, 2.11127, 2.08197, 2.07013, 1.98987, 1.98887, 2.08454, 2.07482, 1.98915, 2.07329, 1.98814, 2.06856, 2.05295, 2.07542, 1.98314, 2.06293, 2.08347, 2.07236, 2.06449, 1.97828, 2.0699, 2.05926, 2.06042, 2.0486, 1.97256, 1.97019, 1.97049, 1.97055, 1.96947, 1.96895, 2.05265, 2.07292, 1.90596, 2.07641, 2.00314, 1.90262, 1.90043, 1.99876, 1.8994, 1.90017, 1.89943, 1.89749, 1.94639, 1.99871, 1.99719, 1.89498, 1.89387, 1.94299, 1.97923, 1.94143, 1.9407, 2.0831, 1.89093, 2.0973, 1.98842, 1.89035, 1.88918, 1.88915, 1.98032, 1.88755, 1.8885, 1.8833, 2.07004, 2.05917, 2.05684, 1.93424, 1.93306, 1.87969, 1.93079, 1.93071, 2.0738, 1.87879, 1.87769, 1.9108, 1.91018, 1.72065, 1.85231, 1.71555, 1.7161, 1.71117, 1.70831, 1.70817, 1.71045, 1.90001, 1.70949, 1.70683, 1.70583, 1.70372, 1.70239, 1.70309, 1.70051, 1.8952, 1.89292, 1.70034, 1.70065, 1.69901, 1.69751, 1.69926, 1.69692, 1.6967, 1.6988, 1.69753, 1.88692, 1.69642, 1.88324, 1.79708, 1.88323, 1.88131, 1.81093, 1.70096, 1.70028, 1.7027, 1.76494, 1.75098, 1.85776, 1.7041, 1.75432, 1.70666, 1.85098, 1.70741, 1.70775, 1.7104, 1.75955, 1.86305, 1.71338, 1.71215, 1.71426, 1.71367, 1.71479, 1.71996, 1.84957, 1.71904, 1.84951
1.94455, 1.94208, 1.93897, 1.94126, 1.94136, 2.03828, 1.9413, 1.93926, 1.93719, 1.98491, 1.98656, 1.98633, 1.93473, 2.04329, 1.9341, 2.0589, 1.93141, 1.9302, 1.92807, 1.92743, 1.9306, 2.19648, 1.92746, 1.92439, 2.04092, 2.04148, 1.92046, 1.92055, 2.03544, 2.02704, 1.91732, 2.03853, 1.91611, 1.91635, 1.91746, 1.91531, 1.96488, 1.96405, 1.91776, 1.91678, 2.11009, 1.91759, 1.96749, 1.91921, 1.9182, 1.92111, 1.92364, 1.92347, 2.05876, 2.06012, 2.056, 2.06518, 2.05512, 2.05303, 2.05023, 2.04822, 2.04957, 2.04785, 2.04666, 1.96751, 2.05965, 2.04142, 2.06073, 2.03506, 2.03409, 2.03229, 1.95463, 2.1585, 2.02166, 2.02356, 2.02527, 2.02365, 2.13904, 2.01949, 2.02113, 2.01336, 2.13425, 2.01408, 1.93333, 2.01191, 2.05981, 2.00941, 1.93247, 1.93357, 2.00753, 2.00737, 2.01015, 2.00779, 1.93159, 1.93261, 2.00964, 2.00976, 2.01134, 2.04872, 2.01526, 2.01754, 2.04547, 2.13875, 2.0461, 2.04547, 2.11993, 2.11551, 2.11111, 2.1085, 2.10028, 2.09961, 2.08852, 2.0102, 2.00987, 2.00971, 2.01116, 2.00984, 2.0077, 2.08234, 2.0975, 2.00701, 2.09976, 2.09813, 2.00357, 2.09007, 2.00461, 2.11483, 2.09116, 2.07706, 2.00318, 2.00207, 2.08719, 2.00245, 1.99806, 2.0874, 1.99752, 1.99627, 2.09961, 2.08269, 2.08146, 2.08318, 2.08669, 1.99314, 2.08331, 1.98953, 2.07322, 2.07611, 2.09151, 2.08239, 2.07709, 2.09274, 2.07648, 2.0787, 2.08269, 2.07571, 2.07889, 1.9821, 1.98201, 2.07191, 2.06935, 1.97811, 2.05905, 2.06072, 2.05855, 2.0566, 2.05106, 2.04508, 1.96962, 1.96943, 1.97068, 1.96748, 1.96829, 2.04553, 2.04307, 1.91033, 2.07307, 2.07314, 1.90165, 1.90264, 1.90251, 1.89872, 1.89942, 1.89818, 1.89761, 1.94552, 1.89526, 1.89484, 1.89407, 1.98073, 1.94242, 1.94112, 1.94079, 1.89089, 1.99141, 1.98754, 1.89204, 1.98325, 1.98411, 1.88839, 1.88958, 1.98148, 2.08257, 1.88568, 1.97799, 1.88697, 1.88525, 1.97915, 1.88271, 1.96441, 1.93078, 1.96635, 1.96489, 1.87541, 1.96647, 1.92618, 1.8231, 1.71844, 1.71988, 1.71615, 1.71358, 1.80686, 1.90207, 1.70925, 1.70935, 1.80164, 1.70566, 1.70716, 1.75532, 1.75404, 1.70123, 1.70224, 1.70362, 1.70085, 1.89018, 1.75606, 1.75129, 1.69675, 1.69431, 1.69932, 1.69553, 1.88688, 1.88665, 1.74734, 1.88744, 1.88697, 1.88584, 1.6969, 1.88399, 1.69743, 1.88009, 1.88048, 1.697, 1.87571, 1.70277, 1.70023, 1.75106, 1.69916, 1.70294, 1.70176, 1.69989, 1.75468, 1.70443, 1.75749, 1.75735, 1.75891, 1.86188, 1.86128, 1.81493, 1.86062, 1.71441, 1.85253, 1.71429, 1.71693, 1.71601, 1.72316
1.94171, 1.94182, 1.94484, 1.93944, 1.93808, 1.93879, 1.98775, 1.98644, 1.98702, 1.99676, 1.9861, 1.98309, 1.93229, 2.03934, 1.93359, 1.93281, 2.04127, 1.93028, 1.92669, 1.92813, 1.92526, 1.92434, 1.92658, 1.92375, 1.92157, 1.92038, 1.92098, 1.92059, 2.0348, 2.02897, 1.91664, 1.91763, 2.03731, 2.03895, 1.91456, 1.91513, 1.91343, 2.01055, 1.91579, 1.9165, 1.9166, 1.9665, 2.09338, 2.08436, 1.96819, 1.9187, 2.19034, 1.92116, 2.06137, 2.06907, 2.05569, 1.97963, 2.05988, 2.06171, 2.14233, 2.06013, 2.04654, 2.04769, 2.06194, 2.04213, 2.0602, 2.04119, 2.03881, 2.03727, 2.03449, 2.14873, 2.0317, 2.05821, 2.02856, 2.02326, 2.02549, 2.13742, 2.0188, 1.9444, 2.01134, 2.01145, 2.01368, 2.01319, 2.01424, 2.01142, 1.93441, 1.93431, 2.14249, 2.00658, 2.05518, 2.01033, 2.0069, 2.00701, 2.00839, 1.93074, 1.93232, 2.00974, 1.93503, 2.01538, 2.01708, 2.01804, 2.01857, 1.94585, 2.02464, 2.1444, 1.96893, 2.10628, 2.01391, 2.10801, 2.08736, 2.08696, 2.08405, 2.01009, 2.01008, 2.01152, 2.00942, 2.00851, 2.00589, 2.00662, 2.00638, 2.00655, 2.08353, 2.08167, 2.08051, 2.0911, 2.08894, 2.09156, 2.09662, 2.09699, 2.08618, 2.0895, 2.08962, 2.07503, 2.08269, 2.08966, 2.0942, 1.99393, 2.08344, 2.07142, 2.08045, 2.07955, 2.09482, 2.09008, 1.99261, 2.08957, 1.98929, 2.07694, 1.99085, 2.08759, 1.98696, 1.98603, 2.08205, 1.98604, 1.98502, 1.98664, 2.07304, 2.0631, 2.06326, 2.09024, 2.06663, 2.07971, 2.05889, 2.06618, 2.05048, 2.04868, 2.05113, 1.96966, 1.9683, 1.96711, 1.9722, 1.96661, 1.96902, 1.96821, 2.06332, 1.90932, 2.09003, 2.09539, 2.08688, 1.90124, 1.89693, 1.89782, 2.00687, 2.00609, 1.89452, 1.94484, 1.94412, 1.89238, 1.89017, 1.95165, 1.95032, 1.94051, 1.9401, 1.93989, 1.89259, 1.88745, 1.89021, 1.88911, 1.88724, 1.88779, 1.97906, 1.88801, 1.8865, 1.88549, 1.88565, 1.8827, 1.88264, 1.88265, 1.88187, 2.07263, 2.06645, 1.87819, 2.07437, 1.92743, 1.92714, 1.72044, 1.71839, 1.71781, 1.71717, 1.90377, 1.71225, 1.71287, 1.82064, 1.75965, 1.89416, 1.70717, 1.70293, 1.70112, 1.70317, 1.75267, 1.75252, 1.70213, 1.6997, 1.69618, 1.69747, 1.69894, 1.75053, 1.69737, 1.6986, 1.69561, 1.69566, 1.69443, 1.88825, 1.74528, 1.69367, 1.69501, 1.69584, 1.69628, 1.88187, 1.69504, 1.6963, 1.80022, 1.79737, 1.75701, 1.69834, 1.87582, 1.69994, 1.85573, 1.85468, 1.95443, 1.85167, 1.85211, 1.75476, 1.70379, 1.84649, 1.70863, 1.86148, 1.81483, 1.85559, 1.85762, 1.85468, 1.71767, 1.71464, 1.71454, 1.84821, 1.84528
