2.11629129313206,2.11026270200291,2.0644066780354,2.05131966003845,2.07116655102934,2.03625125275573,2.02490888744756,2.02413192394201,2.02367049417748,2.03883110012488,2.09994916569317,2.10554886328011,2.11291922728703,2.11353640142336,2.1014904786766,2.11033549069882,2.10425881205235,2.07382877670568,2.09636943520519,2.09700068700193,2.09975742428124,2.07067441782113,2.09489844180924,2.11067477800405,2.10376989832874,2.0792743612617,2.0946865712868,2.10017701420437,2.08484968505669,2.0530779877176,2.05176345217566,2.06535092736533,2.03841004536733,2.07823610050377,2.09198265314461,2.09540448762354,2.09070603210774,2.08727087660186,2.09134358424784,2.084441968789,2.0539054607966,2.07348792896837,2.09068301494988,2.08698479606062,2.09758471536045,2.08777097632503,2.08339933169342,2.0850102392061,2.08140227721767,2.06716659759355,2.03563721385379,2.06295730712424,2.06789063920467,2.06739086380712,2.04369624043989,2.07355350345588,2.07495860820571,2.06931518959909,2.05751224623471,2.02877771223945,2.06532683458978,2.05477981745042,2.00102297329404,1.98750367169515,1.98683990460737,1.98657207029297,1.98543672709121,1.98447856106367,1.99372453878899,2.03480849111025,2.06142525570642,2.0602296921481,1.99928369253927,1.94308074509514,1.94590424974608,1.94359018849371,1.92821499425404,1.93494884775589,1.93434096752503,1.92035345175878,1.91238948906204,1.89878996763253,1.90388592636705,1.92218884431531,1.9258820696617,1.91415992075594,1.92988911362371,1.91168650599833,1.90792640955066,1.94871165417342,1.96526791253107,2.01781804672415,1.97644752641246,1.89819089291622,1.89040129314911,1.87930809368969,1.88015739978379,1.896703560097,1.88893450467669,1.90764758009227,1.90719097537777,1.87788249869265,1.87126570043788,1.88875050238882,1.94922143009094,1.90502045687818,1.89573719973389,1.95148493720879,1.95554806932479,1.97125422768345,1.9642304295294,1.89789590804495,1.91459396260148,1.89213279200878,1.89748939867762,1.87923521290784,1.87499121821157,1.89648295493271,1.90060784624818,1.89538909424546,1.88025475018824,1.86377770976352,1.8399321810309,1.83298193497906,1.80767416295322,1.82320827217578,1.88222811354627,1.93435555962242,1.90229954862802,1.91483607629947,1.89578482649839,1.80701971234356,1.82718734494044,1.7866409328877,1.79642253029078,1.79409100992001,1.78495714719744,1.77926276464705,1.76720104072958,1.77562931642946,1.76297324131067,1.76203393909127,1.79181084661681,1.85219747751308,1.83829898527588,1.83653728189181,1.79132665525901,1.7751887625053,1.76781914406109,1.79084117261191,1.79285746946215,1.80018563189258,1.82125646094868,1.78054307148868,1.77344273137701,1.78073335032466,1.8401738036627,1.81333238502646,1.84135788158515,1.7998018239334,1.79939700077999,1.79529498187203,1.76600357717375,1.75900399163503,1.77692901422158,1.83683572290559,1.79701223793321,1.78391972154928,1.77032197674316,1.7678664291434,1.77277965671341,1.82233576844436,1.86761794051295,1.81683331583031,1.8140479134072,1.81320101091079
2.11575356764319,2.10986531452265,2.09666087830826,2.08676909437827,2.05722065215468,2.04035964311719,2.03527628049018,2.02666503282281,2.02415078704091,2.03750105858842,2.09351155895282,2.10472788024548,2.10653037486615,2.11529423482051,2.11280284314239,2.10969688686571,2.09387945876194,2.09766160156987,2.10036848106257,2.10194494731657,2.11526300804863,2.10480238603558,2.11069606159801,2.11249762241453,2.10075726988116,2.06575162602761,2.09946669131958,2.10035075992637,2.09132609950627,2.0891880721247,2.08522508341355,2.04797199037728,2.03030596921957,2.03144446959843,2.05158319159321,2.09215582771391,2.09918360852264,2.08959638950508,2.08951091177223,2.09294851833753,2.07634624982346,2.05480748026772,2.0766242396118,2.05574810798051,2.08666761973952,2.08463469916909,2.08116164712852,2.08144567750427,2.07817788580912,2.07637512744635,2.06726883790103,2.03824798201338,2.0382803514575,2.06795502829616,2.06657554637172,2.07565909027623,2.06645870668239,2.03776162507302,2.04740079107406,2.02814268522861,2.06552382884166,2.05650472189596,2.00882898653306,1.98965817093737,1.98681289170783,1.98578271967143,1.98458140540249,1.9836635661479,1.98725154052448,2.00772288120217,2.05396240901436,2.0504759613184,1.99510895407046,1.95015627067318,1.93912615856247,1.96015418766675,1.98664521642034,2.03607476933435,2.03469481443906,1.92881983808316,1.91030217676626,1.90895454430685,1.90403192627705,1.9114625670493,1.92402713676515,1.91400494424828,1.91356979616558,1.91220873868254,1.93198211582441,1.96407475562729,1.9528107580283,1.97607886105145,1.91836809646507,1.90264075509395,1.91166865672731,1.9088672489349,1.89979994571918,1.90120888069697,1.89334750582289,1.90452131076206,1.96775432267016,1.89400929180856,1.87053067716917,1.89224707221971,1.97904576128016,1.96832555707186,1.90717227839331,1.9374296854147,1.9564851469762,1.99754789456733,2.01352620735033,1.92744396090812,1.97374074936859,1.91966836324753,1.88605158791325,1.89846550413442,1.90324069459599,1.90394916546065,1.88065481536396,1.86199897684529,1.82530176680542,1.8429929975967,1.81590244187484,1.84704820031491,1.82288934932784,1.86248632458783,1.88202149583419,1.89386292428283,1.87215648221829,1.82167644954771,1.81279176151455,1.77844123217863,1.77842993260004,1.76957115267891,1.79965947622934,1.86051697095297,1.86268149558361,1.85504291375943,1.7830577709466,1.77552980242881,1.76250097926174,1.75888563205098,1.78554336956701,1.90228642659808,1.9334200971898,1.80902325302665,1.78114665381777,1.83478135271444,1.78258075284765,1.78940745970219,1.78842956401788,1.78630350259117,1.78808558019116,1.79064802736481,1.76958428074848,1.76512297095656,1.79199646030491,1.7990485476065,1.853987857243,1.86173892459435,1.84953516736038,1.82997157642662,1.77141719353521,1.75704292545954,1.76102193427542,1.77353548051348,1.78020410976002,1.83274671735589,1.78931928718092,1.76441248833844,1.797507947908,1.91718914393543,1.83277813004109,1.78065561729088,1.78623956258141,1.77637846084215
2.10469230223924,2.11388365959674,2.10804026127869,2.10429992774579,2.09437506563803,2.08956053457976,2.07997830083726,2.04543588967813,2.03728345603517,2.0487328451405,2.09623546867899,2.1022193058296,2.0992628271188,2.11296723835412,2.11291478563604,2.09766640727154,2.06686278808296,2.09033858988296,2.09501501803943,2.09880432903564,2.10865069043083,2.10316903012451,2.10360289857628,2.10186389196674,2.10286773335475,2.07790965727054,2.08295590058923,2.0919513340022,2.09906668300211,2.09563755780625,2.09718882977665,2.07718542791628,2.0737607609384,2.05028844790567,2.08437405798692,2.10072869922553,2.09859726157464,2.09569332856943,2.09634025708401,2.09953112766577,2.09396871019936,2.08384502898422,2.08758046181953,2.07785470502043,2.08924066741866,2.08637012649649,2.08144366251728,2.08417916072856,2.08299098806693,2.08123401488433,2.08856340580212,2.0810276921598,2.07600287463628,2.07766827020937,2.07864631926231,2.08457813853387,2.0706796000385,2.05185816366305,2.03072872882484,2.05225133982417,2.07810758882727,2.0673961475972,2.03414524050848,1.9952828348166,1.98598705895751,1.98462138069184,1.98364257284952,1.98323627890136,1.98680293498711,2.00787399574761,2.05036801560948,2.05766921962964,2.0312575863293,1.94834778789133,1.96328693411244,1.97918001572668,1.96820724407985,1.96155221185041,1.98675092483788,1.94199918782145,1.96463609049446,1.95850778698409,1.93906475164076,1.93135447170593,1.93027131980972,1.96356525015324,1.98511475013361,1.97920493936374,1.95330775955906,1.98836278620761,2.00111510117656,1.94257883888739,1.92398903821704,1.9894989809619,2.02460661694114,2.0134369550009,1.97560162772397,1.96971830802732,1.96704770852222,1.91174900206435,1.90561000448885,1.90139273601615,1.88025358450733,1.90702647337462,1.98387568543046,1.98024455266113,1.92412031859631,1.89590747941719,1.90208407826726,1.96526467403591,1.97441035951794,1.91597184272293,1.89803216164886,1.88579385267829,1.91837372832216,1.99610375401613,2.02188066083544,1.99107870606779,1.88096319872719,1.8090700841263,1.78750575229045,1.79110222822761,1.79032408488487,1.83004273394905,1.87394194301533,1.88028856363999,1.82908033152217,1.81278666203733,1.79871990225361,1.79358314039102,1.82952934010442,1.77996207171648,1.76456456849283,1.78011124663592,1.83693962921145,1.86913501842778,1.81895226216968,1.84413828185643,1.7948311006083,1.82422205145607,1.77838053264773,1.77872022691716,1.81013962125461,1.9295029858767,1.93467795836039,1.79793419181718,1.79371483762837,1.8389689685064,1.77646192411272,1.77854886171333,1.84091491910745,1.83476901572504,1.79953610638495,1.79636199926501,1.79072605300442,1.78153985963368,1.85233080836175,1.85870591771498,1.81956940398748,1.83168476320204,1.80098502712741,1.77843256400145,1.76947931626085,1.77223795345143,1.76085817005742,1.75801526697841,1.77573962541347,1.84405053291026,1.83285041630906,1.77347666548547,1.77169300969736,1.82084734135998,1.82802395444727,1.78910187058962,1.81786739024673,1.7811586097301
2.11585463149857,2.11127733556852,2.10680736082523,2.10645971530271,2.10501029121206,2.10092146771355,2.09812985056785,2.09037227540514,2.08813636635192,2.09148642146159,2.10645170105376,2.09836528107603,2.0708938371069,2.10318376452161,2.09921697743349,2.0692650898257,2.08795135869133,2.08880032111313,2.06518050958628,2.08836254017958,2.0960524556451,2.09356516284441,2.05654716832843,2.04853554218496,2.07793408726534,2.04508834159157,2.04224156131282,2.05356822338333,2.07685927973372,2.05088283460859,2.03492318021227,2.03917953846369,2.08050580660958,2.09574874408809,2.10475082581934,2.10516856318853,2.10185535072535,2.09299948611728,2.09151540973266,2.09351363205101,2.10014962602268,2.09965455749619,2.09461872714938,2.08746815622051,2.09290742345393,2.0877315473895,2.08038295373491,2.08509810722903,2.0949837304134,2.08734929388363,2.09492117336173,2.09740946591614,2.09159045826466,2.07973917157409,2.07601358084556,2.07314451518269,2.07022055819534,2.05963556733681,2.04927697866283,2.02702626968778,2.06719378814834,2.05942080010821,2.01211867736075,1.99797483104908,1.988016674529,1.98491538392424,1.98392415543148,1.98342158781722,1.99459672619714,2.03794255000446,2.04947183639485,2.05361298184557,2.01492725572222,1.93210196289377,1.92667653629075,1.95753792207665,1.96621810272728,1.94095940834128,1.93244938175142,1.96625124662178,1.96691759867684,1.92808759303136,1.9368306471111,1.9448541900145,1.97056305840317,1.93604519178048,1.9792951420372,1.98203919821147,1.94775360937333,1.96538926157589,1.92885218146265,1.91336972705054,1.96815010080463,2.00567378158501,1.93680187837574,1.9168230745269,1.90571394949608,1.92560176896355,1.96675571119903,1.96054734200669,1.93761604047166,1.98014191658534,1.92501091871372,1.9529412157885,1.96966051297467,1.93759876381502,1.9245468893729,1.91114305933821,1.8917592788389,1.91259188109696,1.8932783163295,1.87703028365451,1.86920167954075,1.8988906354346,2.00137669226405,1.94356855984796,1.96099454800514,1.91065618282994,1.86450731690774,1.8204376945152,1.78658966942868,1.77863784923433,1.7831019912952,1.81903867486037,1.86959034668367,1.87960372927098,1.88045249530399,1.86807068467223,1.8200122286492,1.80508160907957,1.80798166491942,1.7737024744969,1.76959544052391,1.79286492516099,1.80006793986277,1.8431867831779,1.79843968379676,1.79794902161776,1.78926768759343,1.79780293672242,1.79759447308535,1.84673596710745,1.86076370150288,1.81236402881895,1.79547241647811,1.79902740350334,1.8455712458445,1.79154358591831,1.75908698859379,1.77314171335101,1.83356827186767,1.79036347261481,1.77218325602155,1.77064837806948,1.76529328770271,1.78030147077801,1.87076288524058,1.88443280797074,1.84678698307724,1.81446160048122,1.80671443486478,1.77770622961041,1.79447219243225,1.8202999470207,1.77068195788925,1.757004230356,1.759682263303,1.77542641561059,1.77508653359207,1.76569649384732,1.78398401485444,1.81273853309067,1.80655253392853,1.78726534426766,1.78632697775785,1.79240615402935
2.11752126004104,2.10596141881332,2.10600222122212,2.10680160283741,2.10638104669947,2.10567435715836,2.10485562372815,2.10119035790675,2.10042596456222,2.1040263420775,2.1144985621116,2.10273146085912,2.09444658706105,2.11089530538916,2.10743906534592,2.09756011143566,2.10536249590432,2.10025998941268,2.09063774340489,2.08556458601109,2.05489060917533,2.07922760929361,2.07462129791819,2.05364764513685,2.08243320109073,2.05389392048507,2.07743308861763,2.08026148044448,2.05957416976714,2.07098502514387,2.03843305566418,2.02246819573993,2.04919203020141,2.08863210638733,2.08940718992048,2.09864268078328,2.09461915452794,2.09561381134888,2.09548818785883,2.08841449758586,2.09867237073811,2.10229234672057,2.09022227652081,2.08656094707412,2.09425032960271,2.08681760793818,2.0812903437047,2.09266757031066,2.09469824471656,2.08608607005707,2.09283350069115,2.09637871660752,2.08031046098468,2.03021624312414,2.02701922371355,2.03671346738439,2.06509526707742,2.04237395068411,2.05655281340496,2.02784864655348,2.05756400492079,2.05382160569478,2.01058424339226,2.02202004836005,1.99463689157367,1.98504054531351,1.98502397961602,1.98459506390619,1.98600318246315,1.99859217141037,2.01836996488796,2.05925220496352,2.03087498353364,1.93836029421557,1.9163243902288,1.94174505382326,1.92515860484808,1.91154866764321,1.90501688195627,1.91954523575806,1.93325068900037,1.91049182738413,1.92243087828008,1.92456585234218,1.97507602946501,1.92387480279983,1.96369974763905,1.96161665928362,1.91990405348726,1.93404663467261,1.93180190015118,1.92424237174623,1.90793716881202,1.91089665746748,1.89734896349911,1.90853602935405,1.90589311791548,1.95137540215045,1.91640545026998,1.94351564383522,1.9873497774315,1.93391102159931,1.94353322806469,1.91673111916021,1.8944339760051,1.8877263208377,1.90967946135653,1.91372070174486,1.92837982673263,1.99369852174463,1.9118731025875,1.87241857288738,1.86703402336436,1.89750753893557,1.99171985243145,1.91093069532996,1.89821083747456,1.87508939193787,1.88074427289346,1.90907462303553,1.80887427681747,1.77850205169859,1.79543164231147,1.85990177357026,1.82892329668971,1.83029979220362,1.88360015541472,1.87388667907192,1.8290568255269,1.78700554984598,1.78761118456741,1.76866531642753,1.77216371908302,1.80429533090763,1.78565705750919,1.83056482970483,1.83787502926161,1.8513565284604,1.85424995009433,1.85781071967623,1.85819372858924,1.82735382476994,1.84475000942208,1.77514041935824,1.77490145281016,1.8542630760323,1.85950802994293,1.79004852229116,1.75788393130451,1.76282148209618,1.79497425409756,1.7902470769778,1.79365019209924,1.78915570465729,1.76540622717461,1.78904954266519,1.85487597123034,1.8581523560507,1.80518975583386,1.77104647716107,1.77587685145724,1.79512547411554,1.77340098779615,1.77167180665057,1.76180679976147,1.7718547142499,1.76940171508558,1.76031298574423,1.76128321909661,1.78906097209206,1.83722093897622,1.82327971189462,1.87232350973,1.84784136775446,1.80957447413884,1.81914182139775
2.09856460340062,2.0649369838737,2.09546259867858,2.09704518659884,2.10071466983685,2.09646364518091,2.10087435184821,2.09166934309917,2.09237995872911,2.10381699126191,2.11205671373286,2.10299228800279,2.10147169527705,2.10334421738149,2.10120572540379,2.10136621839012,2.1022471151174,2.10263943520993,2.10622075006185,2.0954758232215,2.05089426526542,2.05515277051438,2.08698571875095,2.09745362063294,2.10813045020447,2.09394973853702,2.09873432870616,2.09976130213645,2.090442981632,2.0848001984635,2.07337361667461,2.0366221011425,2.06866762006507,2.07508233010506,2.05087880885038,2.08826414231979,2.06151595936119,2.0810282981281,2.08049981925213,2.05310456894705,2.07885824051329,2.09921123690335,2.09062556165046,2.08969725058963,2.08871963270152,2.09107414245972,2.08355044418346,2.08893127782664,2.07024432655161,2.03901265920414,2.07401912604128,2.08244927889589,2.07870245608921,2.0346999629833,2.0552597521323,2.07500223253728,2.08609227049579,2.07601719830838,2.07181343482131,2.06832806779859,2.06716478814178,2.05573702375423,2.01247975425666,1.9975206801982,1.9870777838374,1.98441561610859,1.98387381810304,1.98310353355891,1.98275799707602,1.99615601006725,2.04500479281929,2.04528967982591,1.97606359216509,1.94988220482768,1.92259125896357,1.93930314710206,1.93321328303019,1.90836313998421,1.9008726558959,1.92229908862639,1.9885748274875,1.91838761411195,1.89824545595305,1.90946600374645,1.96173855854432,1.92661703048875,1.93368526547579,1.91842978254348,1.91786278821121,1.92772114209166,1.94672767416171,1.94070260521438,1.9073958387501,1.91706503585117,1.92601454945521,1.92549887373446,1.92297166584551,1.94367975501659,1.92719032194195,1.99575995987608,1.9245981245025,1.88192320485144,1.89859925500076,1.92263749897388,1.88232854436932,1.87148242534788,1.8808712441275,1.89296583257882,1.90090689710246,1.96961362261197,1.95494105638053,1.90821807065958,1.87403305695466,1.87499056327362,1.90455588616327,1.91750375379942,1.9384218716515,1.89687887138023,1.87618446640858,1.87392107734593,1.80536349622662,1.80674971192357,1.8040013484508,1.82358610692052,1.85809411308135,1.86341876196479,1.86087508436846,1.816960767611,1.83521024084899,1.80051061749547,1.84505619333775,1.80207341520166,1.80800838656078,1.8521626099583,1.78377883847884,1.77278368489795,1.77529823303602,1.77842463085439,1.78270973770488,1.80964013892357,1.85270115219111,1.84163494105812,1.79514092131315,1.79786060923497,1.80242368996568,1.85784568500491,1.81339468592414,1.83882488565964,1.77395432773785,1.75508102860537,1.78006312962964,1.84809079409286,1.81472463516198,1.78958281850463,1.778370489356,1.83819491976857,1.81128363629532,1.81229159864336,1.83874573669429,1.77631027848936,1.78166766201916,1.81650279862399,1.76927387261677,1.75905120755822,1.78676291041827,1.8446288743581,1.83260051113257,1.78813807813089,1.7909017045485,1.84723844195778,1.86209969186667,1.86451031399842,1.86010821915695,1.81410797823641,1.77803679827466,1.78800465175699
2.06698805728626,2.0565371912166,2.08626932888323,2.06005006569345,2.0735803929031,2.05626655506384,2.07318786515551,2.04674292112921,2.04849245573758,2.0913318187772,2.10426792294802,2.10381061389169,2.10108810351974,2.06358882687112,2.06277723506215,2.10319551060018,2.10514488996936,2.07002529204936,2.08964596744802,2.10703228791122,2.08977605359096,2.08388064770007,2.08979941767152,2.09332705165978,2.08759935193497,2.098314272124,2.10547259703182,2.10552527346291,2.09348961008288,2.05067285599989,2.03247160537785,2.03000342733486,2.03708307105685,2.02890745724757,2.040002392458,2.08929962512424,2.0801171935437,2.09061902438364,2.09069973054474,2.06189470031088,2.03972873924273,2.07191241153655,2.08682429912438,2.09903528733053,2.0585094686589,2.0750727926302,2.08597701059408,2.08386603977569,2.03783548984782,2.01253814582071,2.02936727336598,2.04159264371877,2.07802206147006,2.06954843800251,2.04357951345474,2.06535471593395,2.0744763801665,2.0854534492736,2.08296009034608,2.07074514405655,2.06227428143491,2.05550154324789,2.03710365658417,1.99556811458355,1.98392065008021,1.98394728323454,1.98323299370307,1.9816936561235,1.98133862316667,1.99766828158134,2.05766075572666,2.0524210721858,1.98852533419463,1.9679744878865,1.93493604870752,1.948854598537,2.00135178346392,1.93912458571304,1.91590085034501,1.9105514432226,1.93020292947891,1.90274943011028,1.8929834635541,1.89815218435429,1.93127776050757,1.96690994999732,1.94956683347749,1.92853489686523,1.91257375440013,1.89657025551147,1.89601342938526,1.90307934312126,1.93068737633917,1.92775993435252,1.93765319903698,1.92436626924595,1.91400146363718,1.90316596114059,1.933829137066,1.95281996611547,1.90288090624021,1.88285090871361,1.88356083591188,1.89153982346499,1.88199967943351,1.87921631483439,1.89584036001605,1.95139628675824,1.89382091524357,1.89462299821054,1.94245948752605,2.00853201732237,1.92769710002839,1.89402285944441,1.90075154819818,1.90505940301191,1.90447829361973,1.92949186504002,1.88329753268905,1.81166128941615,1.80719806726008,1.89136234180944,1.87023692314043,1.85559428959023,1.84005762293879,1.81261790844721,1.78915159712709,1.77367723776312,1.7863382093202,1.81879918528928,1.87862250667887,1.86852911000191,1.8872587468247,1.88287050857552,1.79905048674327,1.76552401783222,1.77838253477976,1.79430342787204,1.80625747037603,1.84750132935516,1.85361942339833,1.78964761768548,1.79360704318802,1.91988217550554,1.89428461389707,1.87258574260285,1.81183808714906,1.85819209148277,1.79755821469939,1.77740369281546,1.7822517766034,1.80408638628467,1.79174493762781,1.76501246352176,1.77661187619215,1.86593097124959,1.87047726872496,1.86160113347141,1.87537854625714,1.80019184449594,1.8075651979804,1.77982406359994,1.76191008768373,1.78387184392591,1.83425118770495,1.86130693276589,1.86881509534168,1.8540460131973,1.86930865496592,1.84940924873522,1.80816213914517,1.84824800599954,1.79343592391374,1.76579998284915,1.77195084669227,1.82581628487068
2.10138406858648,2.10214657186918,2.09596481408228,2.05175375170856,2.03788594210742,2.0307149739518,2.03339766037052,2.02792280237636,2.02783824457059,2.05077160190719,2.10359148401404,2.11413622789791,2.10929308617895,2.08943313680869,2.0964189168514,2.11497714573976,2.11146044926122,2.08885435654977,2.06714808848624,2.09153471346602,2.05843587754976,2.03777087944742,2.03737648746393,2.04416244202393,2.04638186109466,2.09479412794821,2.10782895552371,2.10669842535912,2.1016967904231,2.0695597444309,2.04525059974633,2.07190134571777,2.0656514569223,2.04036826090193,2.06825712359726,2.09053249075477,2.06190610810303,2.08770080613275,2.07339314056761,2.0299378559841,2.0157292788793,2.033585193779,2.04899942686604,2.09119692916402,2.0775156356147,2.05359921330162,2.08397083493219,2.09226711051139,2.07174750149928,2.03622967418562,2.06238079110714,2.07489528861272,2.07667284657833,2.08273074651747,2.05998604447371,2.03212758647031,2.03672020453227,2.0741199457059,2.06996344865356,2.02097125588005,2.01528576641719,2.01503552743446,2.00993307061647,1.98961592986154,1.98550598878122,1.99172420700194,1.98493102602731,1.98195700306573,1.98102989516095,1.99506328501183,2.04727242535204,2.02978290552095,1.94791253906547,1.93796809792597,1.9797155501668,1.97986752033737,1.97915298232886,1.9949425352069,1.96739000083371,1.92100805403228,1.94434076943397,1.92762015743954,1.8984461527167,1.90348753829594,1.957557062455,1.98837551379005,1.96781115873733,1.94370623932018,1.95631604856317,1.89946848281132,1.88153992809206,1.88248714612466,1.89645639396282,1.9125706045367,1.8967678287616,1.90868486018806,1.97186811153287,1.90106141212976,1.8908648705389,1.91487048211111,1.94729741249763,1.91660480621102,1.90564230445033,1.90608712964723,1.91021863331662,1.90650012054753,1.92572443231623,1.98657024870022,1.89900752959918,1.89590295852036,2.00214767037388,2.05840818154707,2.0341958202832,1.97246923800115,1.9076390474043,1.8923411157661,1.87786369609587,1.89619831598531,1.91176097861835,1.80803918019863,1.78737660627667,1.81991195265054,1.81984777237993,1.84965985852148,1.85983501150567,1.83711588411518,1.78715979536275,1.7909325406578,1.80179667553876,1.91175235585289,1.88081637008294,1.82124837663966,1.82846748506534,1.8838941254668,1.85655263972002,1.79218774329475,1.85593945969363,1.92872024762287,1.90853364036943,1.83999800702943,1.84716135050561,1.78838842303933,1.76435552415161,1.81256189653757,1.87867200656109,1.86814435240178,1.83648257638823,1.86495989021305,1.86852736195363,1.8553546086656,1.84782617877989,1.77823756875644,1.75877731210301,1.75724582238214,1.78677757676725,1.85735188397399,1.87356097158157,1.84242771044626,1.91109362471208,1.83167105554066,1.77474756301383,1.75720673405413,1.77356247945182,1.83515839508726,1.79435613724315,1.79981195415339,1.8386255373695,1.8368195629884,1.9145921319548,1.80952209270132,1.78982781412098,1.82990992527697,1.7769630866341,1.77256508951907,1.77997482939448,1.79113935841941
2.12065718957796,2.11862199250074,2.10351236484799,2.07493788561514,2.03482867520585,2.02590960382845,2.02525161576125,2.02529275686984,2.02497035091389,2.04029703283471,2.10049583744668,2.10672753618683,2.10497884652647,2.07423358015424,2.10352188901701,2.11747916663426,2.10957886173349,2.10395935255558,2.09844999484588,2.1042538317981,2.08488461652184,2.03334271982805,2.03336934358819,2.07282302027272,2.05525490160549,2.09133380671841,2.09464403260719,2.10195178838141,2.09450036849533,2.06278231306515,2.08826737276445,2.08283815935467,2.04526457725108,2.05654256546908,2.05540244513802,2.0879734170275,2.09015217979866,2.08772332486696,2.04311431370971,2.01401785574118,2.02169500545348,2.07398827915902,2.08467610472986,2.09375573324368,2.08211213925542,2.07416148512807,2.08912377605198,2.09120655180268,2.08919387653763,2.07007940600844,2.04855224604048,2.06646503382667,2.04903863209897,2.06897806841887,2.03232511268032,2.04939154695374,2.06884852862687,2.0847090317212,2.0627973559394,2.02311880035883,2.04007549061562,2.05332066052457,2.04315074254904,1.9962689722303,1.99186577243442,2.01662218793031,1.99156248046871,1.98277515402058,1.98203826409818,1.98684656129655,2.00830982801035,1.99771819542417,1.94891184500304,1.94297197228404,1.98223699552285,1.95947706969663,2.02772589541923,2.03480397741873,1.94943212400741,1.90635118033965,1.92964825427453,1.98995347096858,1.91821264293646,1.90489897656176,1.91983833291924,1.96158835991228,1.93933047887025,1.91649253997374,1.94945637075737,1.89939128703416,1.88262794528703,1.88421375006976,1.91417965092353,1.98338023382166,1.92586065424027,1.89051574927966,1.89997814524959,1.88409611787309,1.90050684752219,1.94668158127038,1.96226533256251,1.89929171420773,1.88074900669533,1.88560814893801,1.90901429480398,1.91369387786051,1.90538976410799,1.91822379990503,1.89498059043346,1.8817291120873,1.9166957084859,1.97935731877806,1.99468152327954,1.98795799457576,1.95359358204149,1.94939197989098,1.88795313074209,1.87970836273496,1.87461622084682,1.79874732945234,1.79332534026385,1.85302471699967,1.83797052362797,1.81079930172595,1.84689754558136,1.81020062766617,1.79890834922651,1.86945598321975,1.81658076576027,1.85998902877826,1.81575216762169,1.84811899704582,1.8805342138253,1.89117108806875,1.84117814536331,1.78203092374313,1.82353478014692,1.8661715918173,1.8263507147774,1.85645390529031,1.82728226748621,1.84208849673955,1.77463350540098,1.78850201846594,1.84776866448809,1.80102032120883,1.78690527105361,1.79324868149284,1.8428619286542,1.82162838368293,1.83991883430548,1.78822651480903,1.76888143122325,1.78900944503128,1.83765033453491,1.80536465355297,1.85374828551569,1.87523066745724,1.87781684561084,1.78752866124543,1.75529567131033,1.75736607470791,1.78123093408065,1.86741454365629,1.80920929736973,1.81468939350302,1.80515339376767,1.85126844756985,1.90388130030398,1.80167215434617,1.81838394998387,1.79888824845198,1.78527997286636,1.84003183116567,1.85049223505901,1.82731799660498
2.12270626918611,2.11991980839175,2.09594112075569,2.04805681294116,2.02800408465952,2.0256479224801,2.02502970670241,2.02384856711351,2.0233974967031,2.03858557486091,2.08994201935251,2.07382131957873,2.0996652758973,2.10814333384427,2.10805524224792,2.10644893706894,2.09575862585819,2.10215029213781,2.10952917683981,2.11117148059448,2.09876380275668,2.03906739991549,2.04410012282877,2.08834929400089,2.0908956356061,2.08358943474338,2.06391853282913,2.09414604558971,2.10099754604457,2.08957119488334,2.085225388635,2.04991625928789,2.03098158299429,2.03659941338764,2.07543751074786,2.09597817657684,2.09855475520464,2.09644061792942,2.07331432593327,2.03267592705293,2.03660531770711,2.08763312304148,2.09270141519623,2.08513469531375,2.04575302195853,2.0450629419298,2.08422795965801,2.09222087473906,2.08913732225938,2.08359357749582,2.05986399089776,2.03528959308851,2.06933073977922,2.06873459374106,2.01615723863555,2.01882015421644,2.02736957795956,2.06734777814746,2.04042565627587,2.05066331181896,2.03004799723941,2.0481722204475,2.04167972618479,1.99573596123312,1.98584702834221,1.99206177958562,1.98534504843296,1.98293436109011,1.98207170778273,1.99470744791324,2.04809282687896,2.04844455763873,2.0139629076746,1.98234337844063,1.97584866892037,1.93373538372047,1.96659907200687,1.97881956671537,1.97419856286542,1.92399209364826,1.90851146469688,1.93382192963245,1.92535383412767,1.94296591603571,1.93026032153781,1.9467683907663,2.0032650443966,1.92983038560617,1.94953980029192,1.8995976689292,1.88255997454041,1.89080529431926,1.92658229539973,1.94355719359193,2.01064372658762,1.93209014497108,1.88367002120631,1.88985951884316,1.93639069076039,1.93049965172542,1.94877766753464,1.91564585048146,1.88613356965862,1.87680254426148,1.91008130394329,2.01541564391775,1.98558032365534,1.96301868272861,1.9531135507946,1.8978547203599,1.89023439844557,1.89383307663492,1.90891510412287,1.95296295854534,1.93063927120196,1.94704770687785,1.89470673312686,1.90050301918599,1.88842008230072,1.80344036939069,1.80687454238139,1.86685836597603,1.86814150353664,1.80434483861115,1.83806548190856,1.83168026140385,1.80206990318081,1.81770881517946,1.81799453575724,1.80201579215946,1.77154313732064,1.79879916000467,1.87868289851141,1.86556925400509,1.7879335362389,1.7862431662447,1.87632900631912,1.81439881928095,1.76603352863156,1.78982881562115,1.84368705151744,1.85090985106773,1.78741891605956,1.82673320715587,1.81597881196603,1.80264758407701,1.83619825709899,1.77896126468035,1.79891129196941,1.82871410840631,1.80667831189682,1.82999685417376,1.82407481113077,1.84902627250291,1.86163484855271,1.77745400269646,1.78476970877249,1.85004408735971,1.846570479397,1.76957125797927,1.75598157429852,1.77724463623568,1.79500945175201,1.87073447066546,1.87840628291954,1.8659085602962,1.84103322649812,1.78975554500618,1.78667551256593,1.77605645482797,1.78817207730206,1.83299775962987,1.81323156440817,1.85547369572429,1.84246596966221,1.785610048206
2.1048382271724,2.0998987157047,2.09084653959651,2.0477363799067,2.02785292379892,2.02541471161874,2.02489497425733,2.02406310975211,2.02358785041826,2.03620627869335,2.08876489299011,2.09434346271961,2.07396598557414,2.10607344206714,2.10504102686069,2.09484865022445,2.06805795114913,2.09974983464923,2.10821118816865,2.11454357817264,2.09985940904034,2.04910225669556,2.07842961961274,2.06783768958,2.08797186785359,2.06536393915645,2.09082107261992,2.10763884375145,2.10940605861851,2.07943167419587,2.05654424782111,2.0775102390238,2.07619349279217,2.04787727156743,2.07938005616034,2.09025082795815,2.092618987131,2.09146271553988,2.07976099520041,2.07161718318453,2.0835452387969,2.09782528428932,2.09758132782491,2.078879352172,2.06691646214837,2.07578021381262,2.08450464210457,2.08164595545083,2.07773204730961,2.07861693251688,2.03598905071598,2.01739635364798,2.06287092890772,2.07106339759977,2.03120697923022,2.04360364827081,2.0291718683285,2.06933908148831,2.06723851036544,2.07329064213768,2.04980355073135,2.01892616345268,1.99946770995246,1.98688114469107,1.98395188219773,1.9843006397999,1.98245374828062,1.98175546999009,1.9817629721195,1.99531212887172,2.04955492923415,2.03792442406805,1.9562615530407,1.93115942697359,1.93106136329441,1.92530316187743,1.94722626887485,1.9617530183539,1.99406224330437,1.97807901645613,1.93914155660824,1.97293715029047,1.97328875752256,1.95414597134786,2.00985317496344,1.9936340358086,1.98791916770534,1.93244818564003,1.90410481602435,1.88710619974346,1.88159039093872,1.88255085217199,1.89033987012847,1.91331770779606,2.02547636041284,2.01024677753514,1.93009506126289,1.90113498276046,1.91006611713353,1.9530969805782,1.93308154571033,2.00230272924858,1.9433888635312,1.90401491662377,1.93288998895785,2.03474361702757,2.01802290740086,1.92920329269024,1.94204259568764,1.93180187378821,1.93618338849168,1.89337670220829,1.90463233255503,1.91998148327967,1.94306022422094,1.92594483784947,1.89684630816664,1.88513694001813,1.87344118976684,1.81038502910704,1.8367587940681,1.81923910680882,1.84569397083483,1.79203739423284,1.79709720130514,1.81719290566431,1.86173083240328,1.86745002368331,1.86904569848298,1.84223412149398,1.77759046976859,1.7884024592837,1.841261474352,1.79462113534206,1.77527181008569,1.76406188390777,1.79684486576946,1.82468247895227,1.7667753162216,1.75420452261228,1.77463143124966,1.79051410907243,1.78157298009333,1.79437965010031,1.79806213255216,1.78829696977108,1.85344728874713,1.80930411318466,1.8389516459655,1.81049302024212,1.80230059348473,1.77972614490926,1.77854132613153,1.78988837745243,1.83206916892209,1.77074707794506,1.76262323018341,1.77330644088017,1.77917220752652,1.75529735225348,1.75062438942185,1.77028702022619,1.83090978416675,1.86888998378841,1.91645868186404,1.94011746372871,1.89336680974563,1.77988228338877,1.76690240937957,1.81286401026044,1.80184874114101,1.84265785290061,1.79711317454945,1.83131537702846,1.78441502535396,1.75844690981863
2.08880466295814,2.07009248862756,2.09269682480249,2.08155522780857,2.03626332769809,2.0251910618532,2.02453795448843,2.02425284608734,2.02413692435766,2.02907726565207,2.06041077795983,2.10064207580221,2.09734864833037,2.11282616015502,2.10954306628519,2.09135173286148,2.09283992909421,2.10314129240081,2.10994232675344,2.10836204631623,2.09076882633191,2.0610002860746,2.10096850715983,2.09499404460957,2.09318730680946,2.09425229936104,2.10823187769169,2.1103105397282,2.09723006165279,2.05910587982551,2.0760450422138,2.08784149004312,2.09552009709064,2.08138839013772,2.08973237905788,2.09314726503352,2.08992913685086,2.08186200521243,2.04672010572683,2.04366085485672,2.07194399735544,2.08342089576346,2.08325038033658,2.03490340056665,2.0384220900503,2.06748038286508,2.0622264521937,2.03660694299641,2.03772995952512,2.07284502939399,2.06550287306782,2.02649839928753,2.03466371885217,2.06390705900131,2.0602939525429,2.03845234023715,2.05689377942353,2.06788373925148,2.07215264979032,2.07863803208386,2.06599654083056,2.0410252129189,1.99633030268427,1.9850807147241,1.98359571875111,1.98277612210097,1.98163328571381,1.98047052974295,1.9804695010199,1.98615311472337,2.00514894748456,1.98505531789717,1.92797205698858,1.92031563041765,1.94353907709528,1.94362141459597,1.945516264961,1.95278435821616,1.98201858984642,1.98808964306392,1.98994868830941,1.99851547926879,1.99450456355637,1.97492177041577,1.96487965668143,1.94709450555104,1.93575340639942,1.98473890419334,1.91708213576401,1.89212320707539,1.88857731299325,1.88447381073517,1.8864223276555,1.88833834724074,1.91799754400395,1.95404498995067,2.02721746250831,1.96896026912756,1.90965413590166,1.94706841677886,1.9139960215128,1.97860980232415,1.98525902483774,1.97449316875612,1.98908315285476,1.93182063307994,1.91261746435144,1.89771058154053,1.9256506495307,1.92329278035593,1.92172899929646,1.90871192519172,1.98417992443956,1.95544349313016,1.92305502118997,1.98461007399693,1.96652371367004,1.89102337417983,1.8155872818515,1.79986129890392,1.80179401713919,1.7810520302919,1.78364774002912,1.78199417946925,1.82991075023624,1.87313590988119,1.87302838452028,1.84733237562879,1.8301204699902,1.78882053626868,1.77361222321901,1.80408756015131,1.78230558927368,1.77546755097078,1.82014580718071,1.77177261364705,1.77225473653751,1.77078611971168,1.75429009030508,1.75349376000382,1.78308334419432,1.837547964012,1.84876745614705,1.84441602938085,1.81739746881906,1.78071150222774,1.84939188520549,1.86041171906297,1.84783563954304,1.83708544914326,1.7940824743,1.78046300859557,1.7986020247749,1.77966322466855,1.77335504468062,1.7838524050481,1.79839877736266,1.78445080783015,1.79577231228533,1.7589314512998,1.74946485436749,1.75389609197194,1.7726707000057,1.77565807082874,1.80931613527853,1.88769779519978,1.81353691648439,1.76883666337926,1.77534647318915,1.80302497923514,1.8516924318211,1.85919801806131,1.80113645090409,1.81589322558496,1.77184072622737,1.76795464084507
2.10830730149857,2.09706273226889,2.10199604860764,2.09146794945072,2.03843533327721,2.02522556465646,2.02483764740194,2.02465539042383,2.02391411791402,2.03593857827728,2.091918405509,2.1075777865323,2.07565179322369,2.11023701482671,2.10819224299903,2.07161874214454,2.10239336279288,2.11178942590224,2.10808423818289,2.09883665240821,2.06864904249314,2.09027803083493,2.09189468063775,2.08445081870242,2.066081723632,2.09680199255548,2.10556415433212,2.09966669178137,2.09035000696024,2.08815316116383,2.08709159266444,2.06648600629986,2.08528498738809,2.06250902257473,2.08483384697757,2.08479207255258,2.08782338749902,2.08546981878961,2.08331744982431,2.07204212466024,2.04404578464468,2.04556883363881,2.0616099425647,2.03019296703165,2.06095866030171,2.04202286165043,2.03688556603672,2.05427138445052,2.04577906980141,2.03176452954126,2.06275412822986,2.07138097078859,2.06346666679304,2.04248515368115,2.07035527655306,2.07135795591567,2.05568872179838,2.02602874873254,2.05640180066151,2.07309746166013,2.05828103811876,2.02201483116947,2.0004241405294,1.98689019495498,1.98334909070657,1.98282955225017,1.98317567966858,1.9815126376622,1.9806375001935,1.99092811011759,2.02385454246904,1.98199551384079,1.93449888581931,1.92140780500657,1.93841988207133,1.92436536223454,1.92614702607768,1.91708814804537,1.91859505681951,1.92959387169285,1.97589347598381,1.9921502517081,1.98241769552111,1.95164942782216,1.94635425712787,1.93366745493481,1.9089157157573,1.92724591673274,1.94278320459067,1.92878245391852,1.91832809993408,1.91640245033729,1.91375381920963,1.89255868942365,1.91617441321592,1.97791491067699,2.04008323176027,1.93469910084059,1.9078744966894,1.89643014210297,1.88320542364505,1.90876857390577,1.95813756372305,1.928351995368,1.91197506565044,1.89403483433655,1.9105531268039,1.91082168066856,1.89199938093092,1.88963589174344,1.9030791519111,1.88945955798461,1.91306105268853,1.89892755382889,1.90092988880526,1.93782081067213,1.96394927112782,1.93251575846449,1.84258761522567,1.84944276288082,1.83041497080907,1.78153921895508,1.7763479927248,1.78573983527083,1.81218234383306,1.86341194018517,1.8279496198836,1.85183582857947,1.84347945786375,1.79414142485766,1.77898435274213,1.77575368144315,1.76347173101384,1.77360125177148,1.77232747971628,1.77503068803318,1.83419612106154,1.77008845311504,1.75000472378011,1.76969744098145,1.84129870174652,1.80701848449706,1.78122603137018,1.78673124056317,1.76957699333471,1.76779889270465,1.78379409080568,1.82560087425657,1.78178616282103,1.78886559228842,1.83849200955918,1.85126761365185,1.81314647406308,1.83033083187891,1.79059421232794,1.85672793529968,1.8145146718802,1.82029396458515,1.77299094386215,1.75310983301799,1.76651176017261,1.77292283770495,1.77511809699267,1.75478084482232,1.75596286505888,1.78096619003965,1.78583709661455,1.80185623898047,1.84599446994884,1.84646488012942,1.85749174888735,1.85958181834766,1.82394646218448,1.77865762204734,1.78006383076366,1.8091810632118
2.12565796097006,2.10853563390518,2.10344105074572,2.09236350602956,2.04680546795171,2.02927695302613,2.03334942666427,2.02637611615471,2.02557759720118,2.04744862784114,2.101095984845,2.11184451990879,2.10136675116715,2.11493960958516,2.10696662191807,2.08076975510137,2.05882938940569,2.09509518543226,2.10151732381319,2.09552004048752,2.09134609053784,2.09913235869968,2.04625948859691,2.04340479016875,2.08796497544926,2.1050581607906,2.10560849076685,2.09384138042285,2.06559055104232,2.09415541773506,2.10478525732151,2.10669759773515,2.10283061160606,2.09610133601738,2.08309898007944,2.05679099690773,2.08315553298231,2.08897780067357,2.09555628922207,2.09482090475257,2.08644635684373,2.07881723772229,2.03352762829635,2.03113905715,2.07014193918941,2.07794256342206,2.06896013696527,2.06436603602263,2.02128776963235,2.00722511903671,2.03303022295672,2.06263698881823,2.03597098989658,2.06386140563961,2.08247693618923,2.07392135550657,2.01865417526995,1.9994809880522,2.02328147716323,2.05333227563286,2.03377751852223,2.0563572418649,2.0448243424712,1.9966623092464,1.98358128705903,1.98218366229788,1.98221667443865,1.98095541291101,1.98015117011375,1.98327332907321,1.99189046635212,1.98518353176474,1.97942541179802,1.92789505113591,1.91594170738524,1.92396587406836,1.96653038692185,1.9297838803891,1.90566640307645,1.90361570781013,1.92294898781726,1.95784251796705,1.94392376341899,1.92661342701659,1.95848157108003,1.94243136616592,1.92450224003623,1.92697690789102,1.95117216830361,1.9559248802568,1.94876146969462,1.98372904433065,1.93039879366282,1.88891087989394,1.89025832067944,1.93155115785324,2.01241936091543,1.93692818992929,1.98682914108608,1.91750062221633,1.88048236836001,1.89340553819335,1.95830719912802,1.95551577365107,1.91984080984136,1.91844716803501,1.92958816350571,1.91819659445065,1.8834271363773,1.87646609810544,1.87946840519087,1.8920179315674,1.94359356668935,1.90429694700661,1.9516618879269,1.98563022767251,1.91951047587118,1.90056972805759,1.89931248359041,1.8146617427886,1.78449229633945,1.77557419687165,1.8038242132874,1.84531043934811,1.84279938487985,1.84288417127651,1.82534885069724,1.79043010825944,1.79321898108644,1.84005793360779,1.83595281386793,1.81078132509561,1.80104098631876,1.83972818591506,1.77224297039339,1.77523819778124,1.84992684759534,1.77238887016448,1.74746708316077,1.7687045876222,1.85220888967945,1.85244378378275,1.78447115135604,1.81808827075215,1.8000012923737,1.83246453252417,1.78512366357097,1.82435448749412,1.77620766967671,1.78502481541417,1.80961559502814,1.86792389526761,1.85340119324089,1.83617152082354,1.78552539302671,1.84868266446471,1.8361733561365,1.77830911390078,1.75004145658422,1.76537034699124,1.84376907302994,1.84923637733935,1.78989073275201,1.76577992601854,1.76275283820632,1.7576193209914,1.77699851430762,1.8059582315394,1.83488983518894,1.78545453130719,1.77891092698498,1.80698055888934,1.77598262016433,1.76454751518804,1.79806026142948,1.77981829592697
2.11020915733522,2.09389130196679,2.08950228564144,2.08628594358285,2.07068053907361,2.04188097240045,2.05924440063368,2.03223427438542,2.0325326792642,2.07538201605331,2.09958304061807,2.09847535867157,2.10764622924231,2.11274222489275,2.09160832806296,2.04650732806783,2.04573234522221,2.09357437862781,2.10225090505382,2.05992409033985,2.06015424104551,2.08372659869331,2.04513004618676,2.04326538968232,2.08797390309574,2.11153621433203,2.113242777057,2.10873926212724,2.10201736049852,2.10235498475053,2.09589281116545,2.10480804582737,2.10164241550303,2.10256614679149,2.09283150483616,2.08645443614979,2.09372736955704,2.09564795250316,2.09585433445201,2.09605679819789,2.0881556402291,2.07607903837368,2.04348870177897,2.06298940922127,2.04280307224065,2.0719987768143,2.05153434414695,2.06673119031906,2.01595566707828,2.00992563078829,2.05385391737371,2.06938362100413,2.03736080243411,2.07104128479702,2.07638219629146,2.07355557272012,2.02374014900564,2.01899284485067,2.05697406776661,2.0785355456148,2.06831955424752,2.0811298559033,2.05449982715634,2.00591590920532,1.99242267167088,1.98497847557899,1.98192952615235,1.98080632243912,1.98058996568526,1.98372252611633,1.99266769793242,1.99945654409663,2.00845881364153,1.95143627171339,1.91550812702023,1.9253262554521,1.98615920991601,1.96763546836715,1.91384710795324,1.90024880561778,1.91140007250309,1.94864709964496,1.91859178665882,1.92499997360035,1.93737759643648,1.93103191905594,1.91788401591769,1.91552699464283,1.94815692766297,2.02448213041377,2.02708399461259,1.93679870911274,1.90953778909079,1.90204248054307,1.90449134879321,1.92373567077067,1.94080811719545,1.91886479443506,1.98079810336155,1.96171775061668,1.89486579605095,1.886830364346,1.89598958446833,1.89762231330642,1.8998988699132,1.92726275211563,1.95048999029793,1.91809484266011,1.88215151200767,1.87503797623983,1.8746484722321,1.90151412613965,1.9828115725038,1.9103910996519,1.90636752682642,1.92983044143281,1.91272762421878,1.88459338462758,1.87251880288773,1.79245269833145,1.77438904050326,1.76972623641362,1.78625680699553,1.83149363904981,1.79300219600333,1.78216655895307,1.79064751439635,1.7651447508922,1.76143855229183,1.77483483977441,1.78959372637901,1.84719855774331,1.87070973169294,1.8542315568523,1.77156479095187,1.77093810966082,1.83251936517998,1.76857512949827,1.75435313957395,1.77871215320932,1.7906001420967,1.8342963206108,1.77044155319766,1.77891985789837,1.83810957303128,1.85089040159884,1.79643487532995,1.80864433704303,1.79194120138226,1.81284376154171,1.84744554850627,1.8689557269355,1.82456286586639,1.84869385730317,1.78894745516809,1.77029060128535,1.76506050804303,1.75052904463146,1.74962472007137,1.76487561284172,1.84781844691091,1.87400493290927,1.84116295044538,1.81373917697984,1.80555380156988,1.79863829423655,1.82351023825046,1.81303495819745,1.79206766184118,1.77013996734949,1.76616099466154,1.81041630624004,1.76571690473362,1.75374459120531,1.76204906831444,1.76771592906659
2.09446885934448,2.05063166282639,2.03883466977946,2.03800202946585,2.03595049346504,2.02807611386256,2.03202609842315,2.02437703340384,2.02647267041901,2.05617406370221,2.08708915039564,2.06658172490011,2.09290790675563,2.10162613776654,2.09122826974181,2.05254340914043,2.07066596795,2.09767989727562,2.10856716051062,2.09125023938624,2.08732936865435,2.06430434488818,2.0857876789088,2.07460431748676,2.06439472989385,2.10319974217423,2.10201477175945,2.10446062068895,2.10766769973604,2.09144910012321,2.06131631102955,2.08194356659608,2.09477014532147,2.10476776269599,2.09356569912234,2.09038642080059,2.10251805119493,2.10101303571608,2.08828222502067,2.08316706830183,2.03812398064418,2.04136815650339,2.0746654316257,2.07829247034126,2.04534861901209,2.07908404870289,2.07273091175929,2.06509241579525,2.02701530267627,2.01532908148639,2.02643202453537,2.0710180059759,2.07388134841052,2.06774917273203,2.04427995490851,2.0732767513623,2.07684245146407,2.07254131871008,2.07462351468239,2.07176975010379,2.07742978565202,2.06432135816151,2.0485202825229,2.04025881770723,2.02572812028185,1.99239578001075,1.98238172017207,1.98159568155612,1.98124944858912,1.99326993263697,2.03993134730879,2.03254717164923,1.98053082325177,2.00510578458362,1.93188280037006,1.92170011849118,1.96597602864286,1.93626921023939,1.91217170523921,1.90592998697438,1.93401454255836,1.96039192747935,1.91152217043737,1.90315901324387,1.9112252824757,1.91399950708734,1.955015204708,1.97137681639373,2.01724360303347,1.95833168058054,1.97058864144394,1.91685225033586,1.95074496508207,1.96211419848237,1.96235896115512,1.93681170290739,1.92702321907556,1.91859236329972,1.93507089859778,1.94426206674781,1.89839419479941,1.90127668068223,1.88856493277177,1.88465737761558,1.90702386261705,1.91847434743882,1.9182746085281,1.889911588658,1.87637394620776,1.87465602855597,1.87548864457741,1.88797274934086,1.93294631193276,1.92222530857153,1.91150423771191,1.89504413477146,1.90533991815556,1.88991797612848,1.87457222484761,1.7977268278693,1.79571691237073,1.77776982407073,1.79409531830119,1.80845683217893,1.79169282894828,1.7828002288103,1.82589621340584,1.77563793336442,1.7633879781076,1.76185324815665,1.7589324995236,1.78916429172811,1.84155511850462,1.78744945901469,1.75339529509902,1.75247292173731,1.76532586595569,1.75798475204933,1.80033037731511,1.87454268207111,1.7840791484402,1.76234551485041,1.74846383294319,1.74811750163968,1.76534047177436,1.78782410996618,1.87040232874352,1.91574808205779,1.80371927796294,1.82150199042706,1.80295707550804,1.86812241532527,1.87167752663369,1.86870237920957,1.84875066644112,1.76529919269285,1.74341244282074,1.74891628256195,1.76470864683815,1.75341347035902,1.77978561732235,1.83008616291348,1.78134795672495,1.76006508474666,1.78196119929687,1.85719525219781,1.80421018988057,1.83090300288794,1.83760172238019,1.82057383319676,1.76735496487918,1.76808340314678,1.7704184330941,1.76946536845433,1.7655957055911,1.75587541931372
2.08877926522705,2.0506860938169,2.02858337873814,2.02530103599901,2.02520192454604,2.02284729515727,2.02253918555614,2.02254119230463,2.03159165016099,2.07582220861192,2.08636819912562,2.0877000327454,2.09178233897496,2.08815613959055,2.09721742919484,2.0860995728819,2.06042803415733,2.08216507192833,2.10520682093264,2.09395821495878,2.0836311651938,2.08423090283507,2.0867376199906,2.06226745918629,2.08904993501863,2.10162378003579,2.06619746036761,2.08719571635698,2.09292972907356,2.05255712681732,2.06389199806608,2.05627257579246,2.08671800808037,2.09081294372343,2.05419284976488,2.05202468316812,2.0935194823128,2.09343980328279,2.04800213099405,2.0621601913332,2.04067579589013,2.06794231872722,2.08522820003392,2.08068708371499,2.0824839341568,2.0861379545501,2.07723490802336,2.04932328356592,2.0687795742951,2.06136508528757,2.02630216694473,2.06858928784572,2.06088774330608,2.03091161340487,2.06407294802839,2.08132973032876,2.08815415520248,2.08444760304743,2.05985487924192,2.02704320943736,2.05447503599678,2.02495147797748,2.01795089131277,2.03676525145182,2.00292013133762,1.98451987109553,1.98098383391088,1.98073312155352,1.98360226544096,2.00629126965382,2.05287507696327,2.03141940833184,1.97174211346235,1.97226877459503,1.92404237619094,1.91071898664227,1.92206394845923,1.93790369895519,1.94215038769091,1.93037853061395,1.99020124614814,1.93170136086791,1.89930227938801,1.90475132213844,1.94166935975762,1.92836479333502,1.91216977299752,1.93332607341306,2.01823932541336,1.92183933080274,1.90216877363536,1.90503762552723,1.9084981520417,1.91133891782855,1.93972458226219,1.93010041439615,1.92612092977735,1.90453194419624,1.92750382287145,1.99778086659806,1.92808958254701,1.8950439198922,1.90538771676894,1.89121161285517,1.88594633363995,1.88442923960735,1.88298779517199,1.87716124426586,1.87535227965307,1.8754023148204,1.8793622123945,1.89714029826253,1.91629435892633,1.92285966413904,1.91635920847667,1.90787274198195,1.91194365036864,1.89910039535284,1.84502773741803,1.78857933815639,1.79503347075233,1.79349714444099,1.87239628756397,1.89675810256493,1.88701312097588,1.79451471271106,1.7931400428663,1.77658676243168,1.7912941239516,1.79601684613541,1.77575295290431,1.77378352310776,1.82720625346414,1.78111872684538,1.7630868298841,1.75540905745584,1.75264863443904,1.79036120582626,1.88183338355535,1.86737822616752,1.78981430573724,1.75476906424138,1.7493727417561,1.76505504947488,1.77017023823465,1.78718822969204,1.84149690001886,1.80433443220381,1.77153777012148,1.76178701362111,1.76764647607609,1.85269776510826,1.86205821535868,1.80632456404762,1.84309404807351,1.76590252025624,1.74084575102525,1.74719762183186,1.76988836254942,1.77556487068226,1.77385807633409,1.76396614576675,1.74738074524323,1.74365360957429,1.7523641370434,1.78603291769766,1.77790440026124,1.78729277844732,1.78660880663781,1.76842640476127,1.75762190956389,1.78301944110035,1.82232521921171,1.83178256555144,1.82066963502925,1.78065395679528
2.11384741270304,2.09429795427795,2.03836100204738,2.02465244913605,2.02354837970769,2.02294913995294,2.0224428601359,2.02192539224336,2.02379583923035,2.03642707260444,2.05311461904445,2.07377458805273,2.0470267950302,2.05590802217463,2.09847870689483,2.10427549011528,2.0857594944467,2.06637189843854,2.09335510750553,2.04809914673345,2.04465500832925,2.08641198492885,2.05488921288129,2.07139827088814,2.09990010143321,2.09528872251106,2.0874589433172,2.08207726880604,2.08187336260238,2.04233439862736,2.04789817534309,2.08054902126343,2.09738373472841,2.09368782800132,2.09262114415746,2.08447837380037,2.08485128814624,2.08136476037349,2.03502049615374,2.03283231448705,2.0734949657325,2.08675754406202,2.07658766967163,2.04418626514188,2.08447356832338,2.09227446966916,2.08995588635548,2.08210306113448,2.08979944591901,2.07805775300399,2.02685086474124,2.05139669841179,2.02947896108567,2.02068090364881,2.05825199017274,2.07239784701404,2.08183178262333,2.06347015456051,2.01710242814384,2.01616153757371,2.05817030072416,2.05880918085634,2.05138984332563,2.04569238162457,1.99619685155438,1.9812651425941,1.9805189558496,1.98075358977019,1.99063475463073,2.03523518313939,2.04375755716996,1.9989702606366,1.94722834388405,1.9633012939219,1.92629124010328,1.92210918837405,1.92115852275287,1.92419259401411,1.95510413651403,1.92995946005934,1.92342563432187,1.90266589641262,1.89610306449053,1.8974564907503,1.9262597392223,1.98946955648089,1.93654880048026,1.91652060143327,1.97336060357326,1.91390788059011,1.90545960404609,1.94785739185952,1.93189650672012,1.91418271155287,1.94075565170805,1.92015279365653,1.9362224916711,1.92621577257239,1.96170742101117,2.02363492976262,1.99993045100109,1.90866928907745,1.89111610207116,1.90138560425334,1.88260255377432,1.87673417705992,1.87827160708784,1.8777067359919,1.8764169652196,1.87610413189466,1.89381068342642,1.94916660999733,1.91987971679135,1.91681445706368,1.9169082078762,1.98341055792211,1.98631184042085,1.90496691057503,1.84779723697304,1.78964343256424,1.77280658875997,1.77020780900151,1.79372347929793,1.83183869659078,1.87643301089961,1.8055533129522,1.8468153112709,1.80371254697922,1.79365544934443,1.80682360591091,1.82332268383466,1.79143109549284,1.86668237589325,1.84401408845094,1.81050050933175,1.77865348021597,1.76754917111241,1.83697794585998,1.87476321631481,1.85130123866737,1.77952782070825,1.76695102235713,1.76506784543698,1.83503925461189,1.8698840712792,1.85699968500643,1.78164982027017,1.76717161180681,1.83055546185897,1.77973852555386,1.75590914387808,1.80427180236321,1.83488859261904,1.78348821750459,1.81131803094276,1.75812428533553,1.74055356426295,1.76217272185423,1.84899395088597,1.87474316562381,1.85367935140717,1.76531998694173,1.7416393800133,1.74576755753001,1.76985826537781,1.81133621300478,1.84994590052356,1.85346401953506,1.82322067301872,1.76055261116769,1.76960487557991,1.84460433808891,1.78886465734689,1.77152016607267,1.79332513191775,1.844410439292
2.11133036156119,2.08956148122471,2.03735929700694,2.02417103746157,2.02303836145841,2.02228878250873,2.02190870163472,2.02156907080606,2.02120957462723,2.03124081546674,2.06261615565955,2.03989542039597,2.03284157258706,2.06291615025591,2.05731005580151,2.09385989490686,2.11099862689086,2.10122697686685,2.09824464303189,2.04696686498832,2.03860079825847,2.08797466603461,2.05051848390735,2.05487509987645,2.08971277224425,2.06647202953596,2.08194283947694,2.05073735842377,2.03991353895272,2.06673412426199,2.08650182970485,2.09804278271334,2.07874377788357,2.04664901076063,2.07592428424975,2.08380913556693,2.05834520969705,2.07998529712141,2.06261623462851,2.03946449177114,2.07313893176704,2.08808096662967,2.0761025074018,2.03486368287909,2.08341119667837,2.09931289320423,2.09443543149901,2.08785411361361,2.09732974312697,2.07753927424073,2.0169011955722,2.01928180206977,2.05435063537539,2.04602738244617,2.02740939591802,2.07001417475298,2.07567527739249,2.03099680233791,2.01881168845804,2.05457786273305,2.07115452163323,2.06955566418749,2.06044497206743,2.04026005352279,1.99365787022144,1.98135479213168,1.98014487135632,1.97975352030437,1.98214741179529,1.99599147661439,2.01096534466927,2.0163273737694,1.94784703632639,1.92625491279686,1.92478181147203,1.96522710498937,1.96359006800792,1.91863381771428,1.92820681019786,1.9675264165866,1.92937097771462,1.91314330428547,1.90274202394503,1.90732331627949,1.90140481422927,1.93990732484675,2.00334547990529,1.92584849193293,1.93030689081905,1.92916152116884,1.93872817674256,1.91960338493466,1.94097346232892,1.94460730296376,1.93571792310562,1.9342089486035,1.93626194283693,1.90262386275756,1.90657188933089,1.92455836754897,1.94193215272244,1.91464053830236,1.88990073160565,1.8975256972728,1.88686728367766,1.89404852223223,1.89164289585029,1.88723209121479,1.87808082887814,1.87513061302626,1.89679562763505,1.97437615508029,1.96946792089964,1.92744001198929,1.92249835244563,1.93171008555619,1.91613014790125,1.89085622063393,1.81359945535684,1.80534909562001,1.77260881391991,1.76226552546773,1.78353581033034,1.86853053586795,1.87051777767556,1.8169732857261,1.85046986606344,1.7819400034906,1.76401492377887,1.76240041050821,1.76698575016824,1.78060658850375,1.87767238526399,1.85474700866137,1.77761955111071,1.7529898488565,1.74930328434401,1.7655763806675,1.77458584393117,1.78839311274592,1.77884949466747,1.77165546717792,1.76554504341026,1.80585063051814,1.87882485522985,1.85558615129329,1.76283615941634,1.76611691429741,1.86524714506151,1.85698687172075,1.78668169624679,1.78949468323656,1.82318420435482,1.78183169981018,1.75764401144065,1.74247467431762,1.74026575137169,1.76129766645899,1.83431359001305,1.80917875904216,1.78922797365946,1.75541648293913,1.75818093621414,1.76172306789057,1.8127634872367,1.80489025216477,1.84438317887478,1.84193316962001,1.77861448383032,1.75053620618988,1.7747638456257,1.84407097206285,1.78470999010114,1.75795537839097,1.7908457312245,1.83731708425995
2.09641984015285,2.06207517826591,2.03994695160108,2.02633363011456,2.02328576865798,2.02323728113191,2.02185622893246,2.02073144080519,2.02061129090253,2.02664995134598,2.04403645830414,2.03379571361265,2.02691637917261,2.04077714462633,2.04049203998193,2.06041879265625,2.10217373374059,2.11111225423151,2.1134547961881,2.08455464111176,2.05538910880855,2.08592634848524,2.09532649450793,2.09578059938119,2.09858671404394,2.08339842465255,2.08913492414111,2.08164985353474,2.03086838524707,2.03754117973033,2.08393081626402,2.08695407687243,2.03909875945184,2.02636652029098,2.0367884542734,2.08032114853464,2.08281988537858,2.08103210136842,2.04174862658598,2.05488470278159,2.05256214856105,2.08254614538634,2.0824046067284,2.04457727784278,2.08401355798823,2.09098177797407,2.09180418287815,2.08809876784333,2.08854101126816,2.07162775717976,2.02000695708177,2.0121414388819,2.05244714430304,2.02672965028367,2.01344123079094,2.06656601196606,2.07884550290251,2.06904415387312,2.0680580966011,2.06831574369246,2.07374855063546,2.06670222690668,2.05227183165383,2.01499963630255,1.99521278968945,1.9839133547944,1.98087658641282,1.98236631801243,1.98782441485421,1.99041489730217,2.02604378826176,2.03644937642932,1.97678222566011,1.92271758361031,1.91916410040726,1.94481089441119,1.92707403366549,1.90799954289963,1.9210496950278,1.98814234833179,1.99194504860704,1.97042538893572,1.94804436039141,1.96714390987674,1.92323098867813,1.93025903839074,1.98334927798081,1.918646253886,1.89758554057664,1.91815681732883,1.98061787330568,1.91605122219403,1.92025097997547,1.92457265205494,1.97672593805018,1.92000236020824,1.91753915809139,1.90832685877697,1.91277393551475,1.9159495208516,1.91577813946567,1.89716850774632,1.91418959031342,1.96176832363677,1.91279345798478,1.94065803820293,1.93056930941167,1.91769551877035,1.88634771461562,1.88061095098382,1.90804932471441,1.97659129540949,1.96927055657431,1.92792256221835,1.91995202369399,1.91872334906623,1.91073274600885,1.87457203249624,1.80937683451067,1.81152670731898,1.77197767779086,1.76444138041147,1.80236193340339,1.87095847979318,1.81670600893954,1.83967469412066,1.81651371680483,1.77449241657629,1.77920406743308,1.75574268259898,1.75271156878932,1.77057892343897,1.78318168875066,1.78729188555458,1.75425259475136,1.74579368855309,1.74955411789039,1.74527154764396,1.76076472078883,1.82385585200299,1.81239749456213,1.83191735645234,1.82369901812767,1.86691039157442,1.87284103593327,1.78259510242338,1.74380259949596,1.76446296402148,1.86535490621581,1.86979789543123,1.83772092536005,1.78790249215899,1.78065557207756,1.7504612919159,1.73834604526623,1.73752409548444,1.74438078045514,1.76696777950677,1.78141229417786,1.83944300014036,1.83949322805411,1.79616178090336,1.82997044333763,1.7846970573262,1.79605829316013,1.83162065454167,1.78075115350234,1.76477206123804,1.76348136590694,1.75446725620821,1.78916537993843,1.85195182430163,1.82892379700551,1.78087460703875,1.78700990704989,1.82081287989699
2.11237307815347,2.10002077882607,2.07788785108332,2.03334143626731,2.02217256146267,2.02214888113873,2.02179862987034,2.02071824065679,2.02260158900571,2.04298388216702,2.08792267773916,2.07866102567037,2.04911172298737,2.06698737373883,2.08627775904669,2.08800635962667,2.0944471117077,2.0984839077182,2.09923755571126,2.07033590369238,2.08741122180551,2.06608998766909,2.08946839231118,2.09836740372221,2.09357366348116,2.054849929245,2.0571492155981,2.08873571224275,2.03473547693839,2.03140397231047,2.05156839635309,2.07706091877621,2.04769542929526,2.06600041094705,2.0477511975499,2.07463164864715,2.04914725442761,2.06866865367017,2.03615513820706,2.04171548794748,2.07048680190953,2.07628975600966,2.0736074342143,2.06711795150208,2.08167118568243,2.07552354117633,2.08685756649225,2.08703477756633,2.08942487954858,2.08446852157307,2.05449656948984,2.01258527554074,2.02704934090574,2.0420340664282,2.0284486170193,2.07183835754508,2.08535652579254,2.08030772330341,2.0685082231382,2.06345212255828,2.05698075472955,2.06235943676345,2.05526658097173,2.03865954804636,2.02567854843835,1.99049317855612,1.98117061017117,1.98810762254745,2.01231504745006,1.99185191191139,2.01163498880867,2.03398008118028,1.97012382910346,1.94049344879039,1.93771507257854,2.00090083464924,1.94987481131571,1.91152368892276,1.92116920395213,1.98756485860108,1.99026829263269,1.9514024871837,2.00979363677868,1.99652873822124,1.98292156793,1.98855303836232,1.98025726212721,1.93386963589628,1.89634945698866,1.89428720770782,1.91083896733995,1.92240257483115,2.00450980647264,1.92057338796905,1.91051114215779,1.90736947388776,1.91854563669479,1.94952976166165,1.92954977638955,1.90896710536926,1.89504302035115,1.91268360288578,1.98492506911559,2.01079932639329,1.91222636988915,1.89812266814686,1.90477063895771,1.90062628994071,1.89096971694991,1.90252775294579,1.96728756485276,1.9877905566933,1.93698238222356,1.98010774126261,1.95123546067676,1.99385439468875,1.99446312937777,1.89530904966901,1.84220248081064,1.81276289878958,1.77003030872078,1.78085581600587,1.86694432417496,1.87398049853919,1.79896997359381,1.79101925476919,1.80684097212977,1.79431904771218,1.79852291147883,1.76329908856527,1.78277501884764,1.82200602467924,1.78218897243704,1.81977734094428,1.76807957065557,1.75127415992728,1.77357249947265,1.75519526514866,1.74749579240469,1.79247478093297,1.88444706689356,1.79842495976626,1.79459923159943,1.86171829492295,1.86765193716309,1.76396263215897,1.7364840101366,1.75769188211896,1.83218977101424,1.79285413930273,1.78350789737412,1.82964110396337,1.76307376576794,1.73672270974582,1.73588943099175,1.73618224775136,1.76005398007943,1.83341462470883,1.78808657679117,1.81434263638607,1.82730237029278,1.84357667461961,1.8691798061848,1.84343285446302,1.84264761909873,1.84999333404827,1.76964510800766,1.7747473128053,1.82178526962674,1.76394643198732,1.77051881468658,1.83593635010808,1.81024768575082,1.83544226918699,1.820825374484,1.77611361981732
2.09084121843189,2.08743006186638,2.05658242433589,2.03623774764855,2.02392208165475,2.021274194268,2.02015556643714,2.02014152672243,2.03103498902112,2.07696990131765,2.09899479482635,2.09156376993841,2.07658704004042,2.05967325468689,2.07338402846538,2.0443155000369,2.0372590117978,2.05643964117617,2.09657323215627,2.09213352116912,2.10422484224508,2.09025034373695,2.0562044915337,2.05418283290823,2.07814069718695,2.0747527114898,2.07757401125285,2.08344083997378,2.04290249612874,2.08273787653495,2.09231757888367,2.095809400519,2.08441831962779,2.09012338336361,2.08824032959974,2.08341340501233,2.03679456102675,2.03493756806735,2.07132069649853,2.07469835094642,2.04589990091432,2.03309946767821,2.0208640761473,2.02023734753279,2.02936649633228,2.03117294133354,2.0722861038826,2.07451899880709,2.07781561026777,2.0841726347734,2.07137305707279,2.02405148092812,2.05051907933294,2.03524903082302,2.05370717795255,2.0855291645778,2.08535055862721,2.07562331474194,2.03747613033481,2.04423506333113,2.01997918575101,2.05143388275586,2.04918111736418,2.0060414340785,1.99449029850538,1.98387381464171,1.97923565772595,1.98089208671944,1.98713433866602,1.99397219337543,2.04524835067662,2.05164128105462,2.02956947548208,2.01598140719132,1.93812192382217,1.9517420728428,1.99911838572094,1.93958703749373,1.93204671452875,1.97454459335565,1.97060194897168,1.91737843203651,1.92412358795233,1.93735593790184,1.98832292011189,1.9856235760733,1.9556739175654,1.93281184502252,1.89737447582243,1.88874606212869,1.89090783878218,1.92423223556753,2.01506067940803,1.93341837975871,1.91762242117284,1.9604944823834,1.95522736985409,1.93422883433485,1.99894630018797,1.97362169217298,1.923693053681,1.96935367029293,2.01000734550339,1.93281506391293,1.88730864158408,1.89233352080047,1.93410238914254,1.92319445597556,1.91860304418621,1.94395124912923,2.0264905418362,2.0266764043242,1.94144091547539,1.95377371893126,1.98846022533538,1.92942316243176,1.90793552283988,1.86811504155579,1.79858419627211,1.78286037256151,1.76890693516638,1.80032763203415,1.87147082058035,1.8366071431278,1.84180831300023,1.82913365496957,1.84901526029451,1.79727137662864,1.8201539710402,1.78289786775276,1.82507873835808,1.77977314624677,1.75332122514641,1.77517537047093,1.78309329315623,1.75709218869847,1.77723590823061,1.77297533163336,1.7492408114774,1.7744966626449,1.84904719374337,1.781557946404,1.81363471486434,1.79503178078495,1.83240894350748,1.75857469227246,1.73570123220786,1.73982111378086,1.7647701679719,1.78659353298416,1.77243793065009,1.83963198687766,1.75989792277898,1.73327062281391,1.73468994379104,1.74229608797185,1.77050732953154,1.77889420926402,1.79418171541257,1.76174285374895,1.75396615859757,1.7815298644518,1.8450216167558,1.7840360451718,1.78174954743868,1.83620760774654,1.77891017898421,1.82193544337602,1.83262986649291,1.76114476329583,1.76331966274088,1.84035524188562,1.84499805334229,1.84552654583023,1.78465092919807,1.75985058062785
2.05226691199144,2.05659992983166,2.07325761953827,2.0681510497898,2.03087905129561,2.02081430196669,2.01906598698142,2.02108709295272,2.03874665843243,2.07990960791076,2.09304613833714,2.04798936499577,2.05492173188178,2.08062439156732,2.04434782135503,2.03271989496413,2.0311890864417,2.07165977111517,2.09384674505087,2.06902435608586,2.10076555041144,2.10705270007041,2.09311140647868,2.07927931222321,2.04762608601921,2.0310646820574,2.03199912560614,2.03965922507311,2.03502258615227,2.08840651141931,2.09704817994827,2.1022220206169,2.09235954507202,2.06024944716206,2.07870849917795,2.08295293075676,2.07081943040807,2.04507632669858,2.08249248253045,2.08090396784369,2.07199411318983,2.06672105485534,2.0177400963791,2.01643349249571,2.05569855165822,2.0408095740733,2.06914682881122,2.04726282898609,2.0690336302143,2.08031808128667,2.07166700949426,2.03636178539471,2.06750207315888,2.04804661370208,2.02774812534697,2.07097802073082,2.07863350271774,2.07065142230217,2.05457559609045,2.02035112784501,2.0063511539943,2.05340717947837,2.03895705707636,1.99257612890823,1.98164413530636,1.98040043447062,1.97941522039899,1.97901707213498,1.97857664602828,1.99216386651674,2.04528386150435,2.03344611035598,1.96023334853685,1.93979720748262,1.91809486499924,1.92057936193804,1.9454012965513,1.96716064797801,1.97005472812978,1.93513009660991,1.92265402356013,1.91177705088738,1.91199590114177,1.928196357435,1.9392941461757,1.92267197896565,1.93659614069419,1.93367089441873,1.90538197471084,1.89559868512683,1.894752788803,1.91895221438862,1.94405210398764,1.9672836488952,1.98287583212379,1.94797163006913,1.91898229400937,1.89515615830159,1.92119954733339,1.96040478964214,1.97352418166725,1.9806045304455,1.93124425443597,1.91240028600437,1.89081191644158,1.90373983410421,1.93400816494425,1.91002256703369,1.89958036142411,1.93188617650636,1.95786806738218,1.97525683223442,2.00927356624302,2.02110183476497,1.93177297700966,1.88706123342813,1.88015706850873,1.8600853943714,1.79229136066213,1.80841692724672,1.8035230307416,1.85333220838366,1.87047230175871,1.79431851683035,1.81819075828418,1.870556935803,1.87416373757939,1.8045022694658,1.77430268086755,1.75919884182099,1.78064422451799,1.75229459414793,1.75069642539655,1.78563333601716,1.80297003797556,1.75537157471465,1.7476300997141,1.7463865556682,1.7488207484302,1.7821548579962,1.79446228531778,1.75172318650121,1.75302494125625,1.74452230029775,1.7538117996799,1.74070620670256,1.73967856162872,1.75219454174424,1.74223765289283,1.74623050237188,1.75867121111793,1.82151251310756,1.75470022870186,1.7336799168774,1.7338973960545,1.76369152223507,1.85654582764389,1.78886089283914,1.76932473044658,1.74740182748116,1.75745732150437,1.77964779070858,1.82888395763344,1.77232370482258,1.76192458594831,1.81936139935903,1.7678433324686,1.77544921939542,1.76407055148885,1.74812547593349,1.7735011373545,1.83433649573233,1.82025813309179,1.82685474758533,1.78878325513121,1.75795616698897
2.09698840887853,2.08592010364401,2.05341968156428,2.0353654248906,2.02432015333999,2.01978041615296,2.01913196241541,2.02748774840623,2.05679732271083,2.05088931738804,2.07663590607543,2.05493870484295,2.08960012176844,2.09771650075673,2.04650080881148,2.0683819577858,2.04659293485776,2.0567911099305,2.0934645539092,2.08506932387674,2.09759540632612,2.10958207950219,2.10374577116217,2.09878857357818,2.07705233854884,2.02698077483578,2.02826634961905,2.07100000309973,2.05396937129874,2.07811401130564,2.06315408307808,2.09260589485622,2.10002826143965,2.08145527653801,2.04715374920411,2.04948933092438,2.08675619435555,2.08454764735354,2.08046647425907,2.04595219260472,2.04648395264258,2.07349109866633,2.03279739496621,2.02936417165271,2.06624837395562,2.07297159720956,2.08281189791114,2.06926763405717,2.08183636786109,2.09150290284163,2.09011459659566,2.07720838089534,2.07124638229493,2.02870839567608,2.01954895088819,2.06107509337639,2.07030049863142,2.03725700032101,2.05049679462534,2.04413649460147,2.021276317363,2.0480283005279,2.00535269344296,1.98313123643055,1.98041915218493,1.98011680359122,1.979863425344,1.9790537838397,1.97884905329631,1.99363971910389,2.04150267930069,1.99987958679315,1.92999875694324,1.91470220067037,1.91778000925494,1.93677648220111,1.93800152671208,1.93091298156522,1.95227636963925,1.94627872171078,1.94561473261022,1.95647893436759,1.94472010663927,1.91081165406733,1.90135643765964,1.9067863736449,1.95200742297737,1.95243586221338,1.94458580958435,1.93262999430154,1.89748480059324,1.9081791522393,1.96382828988318,1.9645604638693,1.99955522083634,1.93209006137057,1.94704452260058,1.90751568434875,1.90182603916374,1.9138641980493,1.96691655995784,1.96574740834885,1.92320257328184,1.98197830675553,1.93000840993594,1.94772596251619,1.97247878328657,1.95562584492315,1.90757987757849,1.91983596086794,1.93236595660179,1.95116025105468,1.94226842446085,1.99278645972753,1.90841096567912,1.88474708071096,1.89511323069912,1.8785510743286,1.80338806503536,1.80785194342914,1.83886113927865,1.80977556556753,1.83989486855435,1.78497303721982,1.80125196978917,1.86237640081761,1.85837124300019,1.8052909063691,1.77577021153651,1.77263842531224,1.84149028354608,1.78827936638528,1.77325909482967,1.78816419890364,1.77911211965521,1.75187708685235,1.73917314476005,1.73672977647671,1.7388072219144,1.74551582434296,1.74522125214015,1.73701380966104,1.73451945223088,1.73446475855315,1.73473199298905,1.73525954111551,1.75700451340207,1.82838540374598,1.77818759611728,1.75513798308617,1.74188419868215,1.75022591112516,1.74227790086647,1.76103525784753,1.75981854139659,1.76054674913173,1.80101411107603,1.83419729515336,1.82990941850709,1.78104369301144,1.82670019654922,1.85113358186003,1.79084448557381,1.79397991240931,1.75496867410939,1.7591887496643,1.77394919927301,1.80555504197179,1.75609224817633,1.75569335923162,1.81911717838766,1.83452871928923,1.79630539818388,1.77519050939838,1.78840464306472,1.7728528504021
2.11181434412783,2.10062080251877,2.06919238285664,2.0302069523291,2.02140738907922,2.02046596051873,2.02018414120864,2.02224611283144,2.02853820179087,2.0251437140489,2.0444254145191,2.0949681153996,2.11319590862664,2.10366244706573,2.04911460331375,2.04484532006472,2.07994392493223,2.09729249267688,2.0915784559714,2.06505913107304,2.09824214394255,2.10861442675556,2.09716477591555,2.09559650443668,2.08413539235728,2.04161330936043,2.0430314199705,2.09387996437485,2.09523106430651,2.06259625910565,2.08395098749358,2.09769518954248,2.09325576316459,2.09609555388313,2.08354073813433,2.08770014853567,2.09689049830372,2.0929656038951,2.08059350083061,2.07944297462818,2.0748443700185,2.08850570429355,2.0839534883367,2.07253370724915,2.04092775049538,2.0423205535365,2.07174692228301,2.04744519516436,2.06992334263076,2.08852740224109,2.08460929335835,2.08256840202386,2.07503758154965,2.05250621698369,2.05700823953784,2.06642529194851,2.0753482718542,2.05802163100403,2.02545464057165,2.0254064145453,2.05267430646748,2.04696933531577,2.00425683102284,1.98335414651991,1.97981459007791,1.97921272747466,1.97896867347575,1.97855477039882,1.98115873049209,2.00374012636513,2.05399604133059,2.0241788875403,1.93661648947535,1.9146938252932,1.9186282419468,1.93754023878413,1.92054143427169,1.91553389708595,1.94995331189806,1.96441002927641,1.95453107867829,1.95120681659055,1.92380258209527,1.9158087479104,1.91886674184024,1.92629935779117,2.01759123614183,2.0038743985351,1.99334437926719,1.96512973756358,1.90257522329844,1.9037411854032,1.98162075028921,2.02920862684083,1.96156401280132,1.90653344718886,1.92655134693411,1.93015407250477,1.94938387458466,1.90208879674679,1.89971008647683,1.89822228146988,1.89666116759157,1.94221993843202,1.94903458506739,1.92319225848855,1.96253694589652,1.95827761136338,1.92032101619973,1.89529964149926,1.89246921894049,1.89790617952083,1.90011607290151,1.90642262650641,1.8916657387347,1.89381907282479,1.94635769379236,1.95612121790018,1.87121860785736,1.85675344572935,1.79372712146164,1.77927054622704,1.84322158322949,1.81275116716475,1.77590993625617,1.79829840165402,1.77970011704714,1.77772218110904,1.7553978947921,1.76650441032132,1.85862875927612,1.87824162742321,1.85536643170988,1.80746066944491,1.82120041600196,1.77870097308841,1.74166498520432,1.73457599621498,1.73426343035313,1.7338385020845,1.73426638327984,1.73499563129487,1.73332771602298,1.73381888452971,1.73817362860038,1.75633091889529,1.77921238680965,1.84626083275629,1.84421863908786,1.8230115297001,1.75466757739808,1.74969681714966,1.75912452985739,1.84935274455325,1.85717821544458,1.82009820366904,1.8411381808411,1.80003696154606,1.79270958183192,1.79318793461393,1.79181653704547,1.8631703690397,1.77075445456178,1.75098007817285,1.74073520719357,1.75328682987697,1.80442848743962,1.77137421876246,1.74863059915256,1.75564098635469,1.80741194814083,1.79710070564114,1.78047964212425,1.77478112164007,1.80746815492488,1.78334262569042
2.11738962546482,2.10609599546769,2.05633335131323,2.02638504739456,2.02085517552285,2.02040818811053,2.02001120384578,2.01908213623744,2.01963208625906,2.02056339365934,2.03424769659274,2.0906690709377,2.10480082058088,2.0986319966542,2.07727305484918,2.04612148284136,2.0570786927659,2.09917153024468,2.09592995979802,2.08801969687797,2.09351866700546,2.09507418108063,2.09131435686955,2.08027614387696,2.04917759073148,2.07181926696587,2.08197852564131,2.10088813373914,2.10276179009524,2.09037844393869,2.10041208042552,2.09224033332549,2.06117881017672,2.08742016490664,2.08737463635423,2.10077628265096,2.10465375054083,2.09295440463213,2.05721293641067,2.07947218559659,2.05453280190485,2.07319320665815,2.08851781985041,2.08779338446689,2.07633338764202,2.0625466512924,2.06661775661361,2.06250269209835,2.03723715811916,2.0687151955745,2.05146342639154,2.08140217251398,2.07075446449274,2.02812173302826,2.04459114582236,2.02770635582194,2.06433198958849,2.07438568277052,2.06664933710346,2.0664631362343,2.06387153924001,2.0306142999423,2.03612822482951,1.99274474566885,1.97953914015649,1.97888927896582,1.97920809699652,1.97899044347004,1.98807369861225,2.02973569088001,2.05379805729329,2.02340461740067,1.94059143502669,1.92633342054663,1.94117676660718,2.02034059612829,1.95391000501149,1.91944881448601,1.95669610686177,1.99694629337315,1.96404532714441,1.95901040220694,1.94322057603135,1.97379396691575,1.99753174204361,1.94822471516838,1.9974328384925,2.0049293988272,1.99002482358794,1.9373762932557,1.91077438395092,1.91293143269467,1.96099296895935,2.05669006974481,2.01660485748118,1.91166706216624,1.89311265220174,1.90151366791714,1.92688977940831,1.89535483924061,1.88393676701332,1.88333986492434,1.90891589553374,1.98978883461931,1.92297666218774,1.89801868482312,1.91197846495141,1.90660502156844,1.89908572696201,1.90625277634129,1.88786572391356,1.89252415202323,1.92483222006741,1.90368134411299,1.92563342572944,1.89567189874204,1.91868344569965,1.96775167704803,1.83195321988621,1.8253498754394,1.79090214518921,1.77898347811337,1.79232850735267,1.83721003295019,1.79392585766326,1.78299463061391,1.75357450003431,1.75463605890264,1.76758631702078,1.75611819099276,1.80098226613546,1.85747531177923,1.82388628823572,1.76248145983767,1.76057195237366,1.76561279048598,1.74247157598571,1.74155878684612,1.74402491165205,1.73727843862886,1.74085674894894,1.7341386642444,1.73503055541215,1.7551626071015,1.7745695994356,1.8333088423818,1.84549401454795,1.79562755807535,1.7634548484625,1.75455951977258,1.75328143188616,1.80294612849354,1.75356357245747,1.77633864074957,1.82906048647567,1.78961788691236,1.86259761023718,1.84768269263721,1.7608608597676,1.74950670777315,1.75925287981444,1.76340127504084,1.74677816538149,1.76403948709208,1.75458343093891,1.74661667535483,1.76864009615185,1.75213484216659,1.75999460636105,1.74761027915229,1.75612282115604,1.76547157974394,1.76208085585818,1.78846558551813,1.76618106547003,1.77625353154315
2.11378263827257,2.11306671578021,2.08068263256546,2.03189900693252,2.0203457164515,2.02026158827973,2.0209804940247,2.01867233697142,2.01824799849426,2.02126806553562,2.03113335977308,2.04685881258505,2.08658654685926,2.05909976893735,2.05506026902701,2.08182045248355,2.09151951847824,2.09612129785039,2.06674469176711,2.0979878118956,2.09858877038722,2.09702335210455,2.09373111147406,2.07982918985856,2.03047051958719,2.0285595504908,2.0416373128129,2.08724522841319,2.10176613964106,2.09675643026601,2.09682470784327,2.0891586677229,2.0864189359889,2.08272133552657,2.0480972570645,2.08469469828369,2.09672561566397,2.09826394531081,2.08261443486368,2.08142233188126,2.07530730585128,2.05164504477618,2.0811270062134,2.08982022807958,2.0788297499091,2.02793137652885,2.0250473016034,2.06002085905102,2.03854866598613,2.07369091273598,2.07399415611055,2.08935436856923,2.06887098889656,2.0217829387812,2.01369060368752,1.99873455389399,2.01379094189766,2.05174094789292,2.07017438760798,2.07514971188027,2.07174084078794,2.06315579201531,2.05305083021538,1.99496319472989,1.97950815648201,1.97838109838821,1.9797073200497,1.97804012670137,1.97978921152227,2.00214501836227,2.04674383257607,2.00226590603188,1.9431403403197,1.95585866245179,1.94643247119121,2.03222074510731,2.0312413402614,1.93896205486105,1.94416716898398,1.94474800722848,1.93818515012204,1.92436471037472,1.91924062546128,1.93301224105618,1.94996073437199,1.98046506665492,1.99832448582928,2.00079313915477,1.99119848825823,1.96955105939271,1.96700439406318,1.99080792759754,2.03797810106046,2.03783930257313,1.9511797510562,1.90234479423313,1.90802079726394,1.89857103124121,1.91857415640666,1.89289357350819,1.88701085202313,1.89695438711949,1.90813632536263,1.96762440326326,1.92285798824624,1.93213492473996,1.94886241500707,1.93112419599401,1.92196458982842,1.97337462985241,1.90463667112668,1.88465907592174,1.89274460126806,1.90909457804019,1.97862655587258,1.90519696389766,1.88778332676432,1.88284558190954,1.78518488089149,1.78421617118341,1.84357557206962,1.8386946958527,1.7726380806245,1.79042239788163,1.84510041305444,1.77451451956044,1.74978931699047,1.790074253593,1.86209098266293,1.78742633283658,1.82227662267449,1.79228224453459,1.7710999609863,1.76025603278158,1.7581262656739,1.81156494036013,1.75800397829054,1.76724055444304,1.78230836833657,1.75330540798772,1.77177403573788,1.74581896803181,1.75051884419599,1.82949656487833,1.85359199441549,1.80842007760738,1.82807736176369,1.84013978486376,1.75712223924986,1.74222328784828,1.73597801900533,1.74526645319375,1.73269776317729,1.73412954959838,1.75434511713385,1.7656271906525,1.84971903547824,1.84187639213052,1.75133164183326,1.7474345458132,1.80140609154336,1.75193166914756,1.77512911031627,1.86457743803323,1.82669259135191,1.77167204229605,1.81878098979776,1.75884740752635,1.74816704758373,1.74588488744122,1.75416402017554,1.80237762503404,1.76854173786047,1.75364445493428,1.74376983671968,1.7533894403285
2.10709043691212,2.09112901813024,2.04522662690676,2.02298256267424,2.01909183783423,2.01933737736444,2.0187454971914,2.01840525179341,2.02040729205843,2.03722773903282,2.06322597302508,2.05094214653398,2.08454188093074,2.09646094607906,2.07713412189422,2.05457552128518,2.09341916829592,2.09607777319479,2.09181776368166,2.10847472589667,2.09921033982035,2.1082195508428,2.10394599976436,2.09071984477114,2.04008843694514,2.02823618892698,2.03708667721072,2.07421827353477,2.09901508767043,2.10233547344616,2.09087286784533,2.0607092487327,2.08870013900099,2.08739020934559,2.04662755852002,2.06034331680196,2.04642126444382,2.08798814524451,2.08845819631936,2.05722401448992,2.08372887987769,2.07599830912622,2.08819025684444,2.08960643906142,2.07953527384442,2.02938850942137,2.02779678280521,2.07328344059488,2.07486620677569,2.07687834909133,2.04844275206419,2.06498897068054,2.03350051782461,2.05872375587579,2.05353509386858,2.0050796222782,2.00225768955613,2.0146339721967,2.06346105109729,2.07785854818663,2.07479902647941,2.07345893467955,2.05882199443174,1.99631704991498,1.9800745580473,1.97830994945057,1.97745094969866,1.97668683042375,1.97633192160989,1.99264481518915,2.05463239072716,2.03643316065998,1.94773044860018,1.92586247754901,1.91933275370778,1.95787619642623,2.02993438155883,1.95177582068268,1.94686170803549,1.96444151816159,1.93381577178232,1.93290602757354,1.95504055212696,1.99096874643782,1.98298791156041,1.99981872016811,1.99909211324454,1.9876004484961,1.98139347827108,1.9353639046238,1.92691097336428,1.98333031598245,1.98841783256581,1.9435073863917,1.94248100856684,1.92335076862985,1.97939124063087,1.9174599463692,1.92024733359642,1.89809385196494,1.90198145735534,1.9545294777091,1.92870251349361,1.9567991269196,1.9570953577434,1.96251071685663,1.95701216668307,1.96402175434566,1.94162878656909,1.91970766889626,1.89018041184818,1.88269040553735,1.88348106885652,1.88931848515795,1.90494221110017,1.88907327870989,1.89284045626639,1.87173835651381,1.79095930659356,1.76148284087015,1.77138502111898,1.76956447842175,1.7555392903059,1.78316188104181,1.85016975364094,1.76980785320529,1.76406626355135,1.85059739599189,1.86344223136028,1.79216810727902,1.79278922730921,1.80647136342273,1.81615151390189,1.83053530553242,1.76350234254145,1.77014944421796,1.74560103587854,1.75906666896285,1.74774474608773,1.74142236961128,1.76636060059536,1.75957657794835,1.73985905363212,1.77684880102959,1.87210042770596,1.86373556503704,1.81983670462522,1.8438379584389,1.76675653864437,1.77542574903475,1.7434665603458,1.74605453703395,1.73264291779325,1.73243358312127,1.75786424345599,1.77843186975548,1.79165507293692,1.76385130232284,1.75493333044502,1.7554180418584,1.75159513354247,1.74926524865586,1.80479315952446,1.81112243856221,1.81025417091973,1.77459322569048,1.83413876353571,1.7638556428991,1.76192687848242,1.76318756538533,1.74944624231066,1.78232884857277,1.80799374894665,1.76885695720772,1.76132547523996,1.77398600722901
2.08890840007995,2.05489715027007,2.02690430253232,2.02022304867307,2.0194287933419,2.01870206930849,2.01768687201182,2.01773175434935,2.0261274170034,2.05786264761394,2.04760907314693,2.06902259925176,2.06323979749804,2.08376351056734,2.04233380283812,2.03596307402418,2.09592540166808,2.10037940802277,2.10704583965541,2.09088972684701,2.05376766328979,2.08630206732295,2.09583900120637,2.09697739682733,2.08393777481612,2.08281147330033,2.07928017997941,2.05637307815575,2.08236292800551,2.10163089088422,2.09764968057072,2.09136620130091,2.09530430866766,2.09381805266155,2.0799444956654,2.04128323579409,2.03760408051401,2.08397947620885,2.09450568964379,2.0853577217462,2.07524583405981,2.04193055614029,2.07603327354772,2.08775000799465,2.08455160741087,2.07909837538178,2.07737893167465,2.08285866430788,2.07996844446971,2.08541782920658,2.07877434810297,2.06751978574892,2.0231510661062,2.06522218374729,2.06970090641196,2.02658162446766,2.03410507235834,2.0229734397276,2.06066309903387,2.07692845358717,2.07641148117119,2.07385034694328,2.0551265303067,1.9946983325451,1.979762259505,1.97850877376179,1.97713119181012,1.97657446695717,1.97602813195029,1.99127444869695,2.05310432518786,2.04750968747679,1.96331607568832,1.91969699311888,1.9147120469819,1.93989581093068,2.00162046692048,1.98158802333498,1.93591144261869,1.97145109635732,1.97947590335243,1.93343024432996,1.97829738715076,2.0163518812198,1.94925520468947,1.97688617728777,1.98012424231233,1.95823488967678,1.97182671609572,1.96475830105674,1.92366139360588,1.94913652216134,1.92426129448881,1.90910725806184,1.90539854827241,1.91094355256114,1.93463128364068,1.91108445667102,1.92577396796367,1.91595910531808,1.9126275286904,1.9902127912658,1.9837473684441,1.91828542329197,1.90810462781877,1.93817953762312,1.95853787521155,1.96659240598734,1.94832198859186,1.92704525477038,1.89224160041434,1.88295054072915,1.88260990688984,1.88220395271239,1.88279526630682,1.89245224840895,1.92693424830818,1.90577798453559,1.83599701297878,1.7658612007334,1.74910217457248,1.74812515348533,1.75717394286894,1.80038588429089,1.81254493559594,1.75763756699477,1.75716032384206,1.80633733412851,1.79170080551737,1.84509908906916,1.85680432100981,1.77376581329463,1.75943738133934,1.7827426612687,1.76268307356899,1.81444124266883,1.79058477241,1.82953903703295,1.77009576137718,1.73532547193888,1.74047483073102,1.75676939934171,1.74946255172053,1.77583200011643,1.8602598143029,1.88432934700606,1.88731289473694,1.82008132513923,1.74575110278035,1.73795297193186,1.74968838024067,1.81182815430759,1.75132364650623,1.746352972849,1.74293499847097,1.7644420675453,1.77203944518471,1.77283505200024,1.82123550398141,1.82284560790028,1.76907173172489,1.73934090636047,1.76049114013813,1.76250660126501,1.7485606877477,1.75898896094606,1.83171880565206,1.75725549851072,1.73836385463773,1.74475927013221,1.772716545775,1.83953598234665,1.85534802189687,1.82137802879958,1.8415401059369,1.83542521255974
2.06694548902003,2.07654053473348,2.04269208077121,2.0296100604949,2.02042895243837,2.01818751475702,2.01775858856471,2.0173625852403,2.01820082494008,2.02594829785802,2.02488334674856,2.05207165029015,2.08002695039191,2.05373063401372,2.02510767705574,2.04412424603687,2.10458234105153,2.10391761232559,2.0878418955043,2.0519764069828,2.04456826196242,2.08567960591915,2.09337434297893,2.09829388194844,2.09944540437519,2.09787848359258,2.09902657693339,2.08060936201164,2.04896260342525,2.08588794503525,2.09816646587104,2.10063886704387,2.09614300764154,2.09062483775813,2.08938658391807,2.07789493641667,2.08721260398395,2.09107143847266,2.07926709333578,2.07445199367159,2.03905048108154,2.0221059092487,2.03990363456832,2.07454223686523,2.07484379452429,2.08381745929812,2.08720039994994,2.08817535352311,2.08589682329159,2.08760819819433,2.08624342867363,2.0687993974009,2.02127546444606,2.03101324140923,2.07230791063918,2.06912629710773,2.03605427883381,2.05122502767606,2.03514795495472,2.06025891947005,2.07053847021545,2.07004275384747,2.04779620362296,1.99307086843073,1.97882739223615,1.97726858085877,1.97643910655757,1.97682181387393,1.97606956692263,1.9914831311707,2.05447291785284,2.04544038160673,1.94761919003311,1.91573626464276,1.92381346302541,1.97599894511389,2.00140295393424,1.9793175277113,1.92049626108487,1.94039639020997,2.01645647089417,1.93574697029381,1.93680234022475,1.92647285086712,1.9065639964038,1.921906305429,1.93810351732268,2.00833359886308,1.95741213606384,1.96762272968908,1.94074066619881,1.94821520125743,1.94156115805355,1.94900379502461,1.91089049814104,1.92770935313857,1.90873751726274,1.91941127752258,1.92835471464405,1.90726921972703,1.91450431459171,2.01181646595562,2.0241603745221,1.91751409800584,1.90566218408297,1.91976665639273,1.91512933593,1.93447408820693,1.96194182684604,1.96396329126625,1.91252925669225,1.88617378579017,1.8820529490939,1.88699758437689,1.90384085630933,1.89119105817764,1.89442789265844,1.87681401077657,1.81146532598795,1.77638729706852,1.75363204233122,1.75004665079378,1.76348495018659,1.77099718318664,1.76214415573725,1.77150928557279,1.78610193037202,1.75884264308249,1.74368385392766,1.77915645936435,1.84293561344854,1.76592903842747,1.74664734595019,1.76830839115357,1.75379633292501,1.77046544435427,1.8278045738604,1.83158370791826,1.8222138308237,1.75082464213013,1.76361298511711,1.83791222119466,1.81728023254881,1.85035263624221,1.82206858969533,1.78989346181721,1.76804549683343,1.74409706211498,1.72718923048671,1.72429315423109,1.74059768057499,1.79249412264527,1.78334254065834,1.82854330233708,1.76760062785492,1.74139508729498,1.76958223565008,1.80989050420608,1.77031686120105,1.7899601059843,1.82995429194357,1.76066404244933,1.79011196421138,1.81023082537686,1.7464889943868,1.75486950049862,1.82983154152029,1.75847603777976,1.74687207729919,1.7525939506798,1.81768246635093,1.84804430507784,1.83549649558727,1.78511609368457,1.83607767486896,1.84779315336328
2.09183646958336,2.08515001719141,2.0810598440942,2.06262634170295,2.0266954762422,2.01818616892937,2.01824220135387,2.01695466761661,2.01581542704398,2.01886219434618,2.03745582402935,2.07962603552495,2.09964948435491,2.08175409464319,2.04849865938932,2.07455594771474,2.09347144088383,2.10147221804143,2.09745153342187,2.08849163336138,2.08400030489768,2.09378174568707,2.09549870218649,2.09569846581241,2.10450190235883,2.10101419266804,2.09958719294663,2.08593497034498,2.04878445146768,2.08070928014761,2.09159490947519,2.09672468056034,2.09199124876075,2.08223638458305,2.0855100045717,2.08804139824492,2.09428933483595,2.0860233154928,2.05245869152308,2.07156082762383,2.06877219851022,2.06362789167987,2.06273847379011,2.0649883754403,2.04546779289196,2.07422181881908,2.08282939777699,2.08344099891867,2.08293836180716,2.08166063408507,2.0839726869338,2.08207313260361,2.06443862728493,2.06140910184574,2.07039477184652,2.08758824147706,2.06939729992716,2.06783185064551,2.05492847149909,2.031605402583,2.05502043466008,2.05578530375485,2.01504227949141,1.98473461128042,1.97802786341085,1.97689949246556,1.97655667315422,1.97694237322049,1.97650225197084,1.99305646204952,2.06094583709515,2.04995465206995,1.94892024155166,1.9400905580946,1.94439536941292,1.96740678169818,1.98049315966187,1.93267681973739,1.90670070311533,1.91968083072711,1.97437150403736,1.94856230200048,1.98914899983642,1.92334799870199,1.9284789604667,1.94698655863794,1.92253025006963,1.97595128018358,1.96108802361485,1.91845131031045,1.90929044480009,1.93585454202908,1.94238598243762,1.93772899759458,1.9051545772775,1.89882967366964,1.89283180248876,1.90054824714146,1.9223716964025,1.91680173063575,1.89913430177518,1.9272599005932,1.96456260466598,1.91986785496249,1.95535397815897,1.92580662238202,1.91787116795203,1.9003237244546,1.91426091633052,1.96259793895615,1.949604262101,1.89553647982493,1.88503491140249,1.91493754746582,1.97535853246954,1.91934121108145,1.90128646301427,1.89784914561845,1.88391684748033,1.84865403908859,1.78725002718152,1.77898524909191,1.83580623172314,1.8341013126816,1.79675786049022,1.85923968815678,1.91334941858542,1.77569504001924,1.73462093643454,1.74403900944311,1.78426578866807,1.78816520542966,1.7693010171453,1.77362349735361,1.77980372545188,1.74437680473646,1.75290224012714,1.76362230171131,1.77853526223801,1.78138565717787,1.82284421697663,1.84346724972829,1.78413316155955,1.84675034787276,1.83703299958012,1.76450642321893,1.73213085287826,1.73501119764385,1.72522573618912,1.72201583343236,1.73059175778722,1.77680749605864,1.84960065927768,1.86462108436996,1.84467380758611,1.78441735729562,1.80757683677379,1.76071302494001,1.74723956160913,1.80946463531673,1.78518638004189,1.74385553496839,1.77013198520603,1.7709512139296,1.74042007144141,1.7696193188156,1.82857021031247,1.76832534950597,1.79453330851339,1.75150323149608,1.75148810790571,1.75874194191884,1.76778028398686,1.76039723752357,1.77827143842469,1.84969539085159
2.09945704409001,2.06723471167307,2.0835927670505,2.04138018463005,2.02027336901881,2.01739730635857,2.01690440200011,2.01602621911043,2.01560881234575,2.02760915742657,2.0683572826693,2.05875225866976,2.06985703639117,2.04787629550844,2.0624286282727,2.04862967058928,2.05402869457106,2.10053389651043,2.11156005145397,2.09510638280524,2.06706570064642,2.09767470403662,2.09663196127381,2.10108729703046,2.10476137494544,2.09828901008093,2.09588567158429,2.0944379350285,2.08496874842954,2.08741694502154,2.08920133062198,2.09658689285483,2.08350515419843,2.05428320189407,2.08305651287936,2.09380641252409,2.08264271082318,2.08059330179866,2.08333578057424,2.08544218278668,2.08260357366402,2.07061612958769,2.0377601592744,2.03625182775695,2.06549345526462,2.08543362380958,2.08925511507886,2.08540186052273,2.07534609419764,2.07524577338418,2.0695373579646,2.08070125330839,2.07707354682,2.06469657912546,2.03734117683355,2.06719090250057,2.06356669093418,2.0571178352647,2.06451695421322,2.06100468854726,2.06346850316546,2.06273424727002,2.03295544082953,1.98887846301286,1.98019401372073,1.98464497759133,1.97733943228709,1.97475666598907,1.9775755096689,2.00064701472553,2.0515809543538,2.05068116582341,1.98700457893184,2.04598777169497,2.03650979835549,1.96946419410397,1.95593991952159,1.92733212948237,1.9085639464275,1.91092330615157,1.92456263646743,1.94865883646243,1.93271350740859,1.93526071917588,1.98957385365159,1.92899391447776,1.90033969725583,1.91354518624662,1.92969087971815,1.90216760919578,1.90535401853177,1.9339605585918,1.93988569138994,1.93131285912896,1.92065847203267,1.91066391924246,1.90744156366033,1.90594607910784,1.90426111735646,1.89679990551736,1.89075352088581,1.89892248304709,1.91140200035399,1.91016617941682,1.97516870338261,1.97414568327445,1.94444003189558,1.91744056332085,1.90028497124744,1.92934961108718,1.93387264129079,1.91789777300423,1.91469413240912,1.95009605770155,1.93493748081409,1.95874952200982,1.95502646431279,1.94073998335228,1.87949427779121,1.81186989712704,1.85864369582263,1.85348180145633,1.88971344814556,1.89105006998294,1.85851463179612,1.78983672008274,1.78484566181861,1.74574804510883,1.73333444162489,1.73420373766801,1.76290531228315,1.83742802886935,1.76194559093891,1.74396320179988,1.76015285188806,1.73439969891427,1.73931642007764,1.80423084984098,1.8691971981519,1.89204412598306,1.84996005760753,1.76653746124299,1.73212347752918,1.7462265931993,1.76356918645291,1.79788536866,1.75605152928146,1.77249548317489,1.75192149425417,1.7301861440795,1.76013277029013,1.82760321515027,1.84164942932246,1.78979535023066,1.84310964445805,1.84199824171891,1.77098050065421,1.75718776938897,1.73548151017235,1.76568854898155,1.82132774747359,1.77469040919804,1.85960348794649,1.84694239245237,1.78403709246703,1.81807790893895,1.81318504179372,1.76391433736232,1.74928373316674,1.73480077555479,1.73539044427071,1.7588561601095,1.79815387325413,1.82296645545357,1.78882656965204,1.83915364379445
