0.938236,0.936225,0.939755,0.941021,0.942966,0.952229,0.954074,0.959837,0.96102,0.962877,0.962952,0.969616,0.969569,0.9708,0.978005,0.978155,0.987915,0.991999,0.993645,0.991495,0.995611,0.997325,1.00223,1.0065,1.00709,1.00604,1.00853,1.01226,1.01224,1.01436,1.01496,1.02036,1.01847,1.01408,1.01288,1.01413,1.01767,1.01826,1.01884,1.01928,1.02071,1.0188,1.01804,1.01882,1.01952,1.02232,1.02024,1.02096,1.02215,1.02148,1.0286,1.0294,1.03273,1.03366,1.03303,1.03663,1.03546,1.03971,1.03974,1.04069,1.04204,1.04532,1.04752,1.04712,1.04846,1.05045,1.06431,1.18914,1.07637,1.07854,1.08365,1.09155,1.09266,1.09738,1.10058,1.10204,1.10826,1.10992,1.10994,1.11377,1.11739,1.11895,1.12014,1.12102,1.12306,1.12509,1.12867,1.12864,1.12832,1.12686,1.12585,1.1197,1.12074,1.11682,1.11319,1.10963,1.10578,1.09616,1.08411,1.08402,1.08489,1.07485,1.07701,1.21526,1.22107,1.15468,1.15605,1.1662,1.16727,1.17607,1.17683,1.19614,1.19672,1.2066,1.14958,1.18106,1.17678,1.1441,1.14517,1.15635,1.18256,1.18566,1.21275,1.19892,1.22578,1.21663,1.21513,1.21229,1.20643,1.21887,1.22248,1.22998,1.25033,1.22647,1.26396,1.26416,1.24341,1.26266,1.26115,1.28445,1.30473,1.29555,1.31337,1.32525,1.34065,1.31735,1.32224,1.32556,1.3054,1.31194,1.32757,1.3277,1.34188,1.29171,1.27099,1.26897,1.34,1.27805,1.28038,1.28255,1.28909,1.26749,1.27835,1.27642,1.24739,1.27432,1.27718,1.26432,1.25817,1.29277,1.27748,1.27687,1.2564,1.2757,1.27431,1.26337,1.26075,1.2644,1.36857,1.27799,1.27486,1.27029,1.28812,1.2702,1.28995,1.30608,1.29136,1.29297,1.29691,1.32068,1.45695,1.31189,1.30134,1.28886,1.38515,1.36487,1.36706,1.43161,1.43995,1.40926,1.40888,1.40879,1.59997,1.60054,1.65868,1.62759,0.00388822,1.74547,0.00391744,1.57248,0.00373812,1.5039,1.50366,1.50549,1.50406,1.51092,1.5225,1.51683,1.52083,1.52105,1.52363,1.73023,1.53578,1.54206,1.54502,1.55154,1.55158,1.5519,1.55173,1.55235,1.55081,1.5563,1.55998,1.56143,1.56111,1.56329,1.57526,1.57881,1.57799,1.58498,1.58636,1.58819,1.59196,1.58883,1.59736,1.60123,1.60561,1.60255,1.61101,1.61518,1.6148,1.61907,1.62345,1.62883,1.62912,1.63345,1.6362,1.63424,1.63752,1.63843,1.65174,1.65903,1.65737,1.65786,1.65483,1.65411,1.67166,1.66841,1.67837,1.6835,1.68348,1.68478,1.69777,1.69447,1.69378,1.70415,1.70275,1.70889,1.70768,1.71318,1.71303,1.71704,1.7166,1.71774,1.72643,1.73268,1.73394,1.74204,1.75718,1.75213,1.74958,1.95775,1.76812,1.7665,1.76509,1.86684,1.86526,1.8127,1.80935,1.81496
0.942413,0.943808,0.946278,0.947646,0.94436,0.945713,0.958434,0.961953,0.964318,0.964191,0.967422,0.97313,0.984043,0.99006,0.995135,0.99666,1.00098,1.00114,1.0036,1.00803,1.01094,1.01288,1.01143,1.01098,1.01038,1.00971,1.01161,1.01263,1.0137,1.00828,1.00763,1.0078,1.00847,1.01038,1.01116,1.01395,1.01776,1.01948,1.02027,1.02281,1.02303,1.02677,1.02656,1.02579,1.02654,1.02905,1.0293,1.02823,1.02826,1.03082,1.03204,1.03862,1.04072,1.03997,1.04105,1.03949,1.04031,1.04643,1.05014,1.05152,1.05407,1.0569,1.06027,1.06092,1.06177,1.07031,1.07316,1.07539,1.51591,1.08642,1.09126,1.10056,1.10429,1.10556,1.10753,1.10858,1.11468,1.12102,1.12217,1.12439,1.12517,1.12753,1.13335,1.13365,1.13117,1.13591,1.13997,1.1392,1.13665,1.1363,1.13654,1.13239,1.13829,1.13773,1.13653,1.14638,1.18746,1.1224,1.11458,1.12243,1.09377,1.09422,1.10312,1.09788,1.09248,1.07672,1.09452,1.11663,1.15055,1.13138,1.13495,1.14252,1.11851,1.16151,1.15771,1.15695,1.16931,1.19117,1.20174,1.17513,1.17481,1.17394,1.17336,1.23193,1.23402,1.25405,1.21877,1.26573,1.25757,1.28941,1.2432,1.26125,1.28481,1.27664,1.29554,1.28944,1.31538,1.31296,1.30963,1.34102,1.34314,1.34735,1.3509,1.38154,1.38219,1.38168,1.37664,1.38075,1.35678,1.37791,1.44257,1.44313,1.35488,1.31182,1.32283,1.27566,1.33081,1.29711,1.30305,1.29633,1.29595,1.25179,1.28294,1.27672,1.27878,1.30478,1.30404,1.30926,1.32517,1.27734,1.28436,1.27952,1.27389,1.2719,1.27355,1.27863,1.26745,1.26965,1.27085,1.27029,1.27496,1.27841,1.30447,1.30157,1.3094,1.26129,1.25635,1.28374,1.30198,1.2841,1.27774,1.27087,1.27779,1.29022,1.29804,1.29781,1.32676,1.36398,1.3923,1.40156,1.41841,1.41566,1.41591,1.44033,1.45767,1.45806,1.46569,0.00358098,0.00387918,0.00363887,1.51368,0.00364905,1.51821,1.51981,1.51622,1.51815,1.52011,1.51832,1.52188,1.52835,1.52987,1.5353,1.5383,1.54394,1.54242,1.55273,1.55103,1.55052,1.54877,1.5498,1.55425,1.55472,1.56557,1.56735,1.56623,1.57453,1.57422,1.57604,1.58016,1.58014,1.58617,1.58906,1.58994,1.59106,1.59302,1.59596,1.60175,1.60074,1.61051,1.6139,1.61481,1.61655,1.61607,1.62334,1.62462,1.62986,1.64042,1.64294,1.64169,1.64825,1.65481,1.65235,1.65714,1.6563,1.65418,1.65313,1.66166,1.66978,1.67647,1.6756,1.68207,1.68348,1.6817,1.69155,1.69629,1.69373,1.69898,1.70731,1.71729,1.71407,1.72104,1.7262,1.72447,1.72104,1.72159,1.73186,1.75142,1.75465,1.76228,1.75929,1.94666,1.78493,1.78083,1.77873,1.88272,1.80154,1.80017,1.81456,1.81502,1.81283
0.938149,0.939582,0.940749,0.952335,0.953906,0.953662,0.954021,0.960679,0.963679,0.965414,0.967363,0.980824,0.980291,0.982164,0.987425,1.00003,1.00204,1.00205,1.00194,1.00338,1.00524,1.00524,1.00666,1.00629,1.00767,1.0075,1.0063,1.00783,1.00907,1.00905,1.00926,1.01079,1.01122,1.01248,1.01507,1.01882,1.02015,1.02089,1.02205,1.02439,1.02525,1.02637,1.02843,1.02812,1.02813,1.02827,1.02909,1.03113,1.03227,1.03245,1.03318,1.03218,1.03461,1.03668,1.04,1.04116,1.046,1.05241,1.05294,1.05665,1.05834,1.0627,1.06364,1.06713,1.0711,1.07584,1.07985,1.08456,1.08763,1.28201,1.09761,1.10702,1.11182,1.11406,1.11529,1.11804,1.12508,1.12382,1.12716,1.13217,1.13438,1.13831,1.1414,1.14312,1.14358,1.14455,1.1441,1.14912,1.15022,1.15289,1.14886,1.14623,1.14637,1.14699,1.14826,1.17202,1.17396,1.1636,1.13305,1.12622,1.10943,1.10122,1.10967,1.07655,1.0739,1.07585,1.07774,1.11226,1.11599,1.10946,1.14667,1.10208,1.16481,1.11567,1.11696,1.11477,1.1822,1.18417,1.18178,1.18137,1.2206,1.22166,1.2274,1.27529,1.28139,1.27661,1.29159,1.29327,1.29043,1.28619,1.31536,1.31341,1.31144,1.31464,1.30992,1.32795,1.3266,1.32886,1.36969,1.36962,1.37126,1.3678,1.37429,1.37932,1.39566,1.39069,1.39325,1.40613,1.40217,1.40449,1.43768,1.44159,1.44015,1.43919,1.33275,1.31488,1.31618,1.31051,1.311,1.33418,1.30117,1.31914,1.31335,1.33912,1.35029,1.3448,1.35519,1.35503,1.28126,1.26035,1.25705,1.26437,1.28521,1.28461,1.27804,1.27388,1.29046,1.26436,1.27156,1.27118,1.2744,1.28024,1.27769,1.27779,1.27618,1.2583,1.24236,1.24102,1.2407,1.46454,1.28987,1.29035,1.28909,1.28012,1.28248,1.3129,1.37152,1.36805,1.3698,1.42282,0.00357596,1.51838,1.46864,1.46745,1.52573,1.49563,1.49279,1.47448,1.47731,1.496,0.00367196,1.51562,1.5123,1.5132,1.51568,1.51331,1.51671,1.52157,1.53006,1.53891,1.53705,1.53569,1.53132,1.53787,1.54597,1.54192,1.53669,1.53491,1.53739,1.54754,1.54682,1.55262,1.55653,1.55385,1.55823,1.57365,1.57659,1.57802,1.57868,1.58147,1.57804,1.58854,1.58692,1.5877,1.59371,1.59594,1.60274,1.60295,1.60865,1.60731,1.61212,1.61338,1.61586,1.61843,1.61756,1.62397,1.63458,1.64135,1.63994,1.64758,1.64702,1.64394,1.64425,1.65628,1.65802,1.67184,0.00352633,1.67775,1.68379,1.67562,1.69133,1.68917,1.68647,1.68761,1.70788,1.70601,1.70693,1.70741,1.70665,1.71832,1.71523,1.7137,1.73141,1.73033,1.72894,1.73278,1.75228,1.75173,1.7664,1.77919,1.77485,1.78201,1.77957,1.78482,1.78745,0.00352652,1.80482,1.81558,1.81319,1.81158
0.937216,0.938695,0.940056,0.945821,0.946736,0.953001,0.953784,0.957727,0.957074,0.956468,0.959382,0.967304,0.966269,0.968864,0.96925,0.972549,0.977768,0.982028,0.988478,0.990527,0.99082,0.99451,0.997866,1.00106,1.00372,1.00048,0.997255,0.996978,1.0042,1.00447,1.00657,1.0079,1.0106,1.01156,1.01343,1.01371,1.01482,1.01682,1.01607,1.01631,1.01653,1.01839,1.02248,1.02667,1.02762,1.02805,1.02656,1.02892,1.02956,1.03157,1.03385,1.0322,1.03257,1.03546,1.04412,1.04444,1.05965,1.06276,1.06194,1.06335,1.06443,1.06527,1.06636,1.06992,1.08361,1.08893,1.09288,1.09558,1.10069,1.10104,1.10519,1.10741,1.11092,1.11052,1.11174,1.11712,1.11447,1.11607,1.12277,1.12622,1.12895,1.13062,1.14715,1.14779,1.15585,1.15624,1.1552,1.15672,1.15723,1.14966,1.14472,1.14686,1.14754,1.1496,1.17326,1.17514,1.15725,1.15825,1.12514,1.11237,1.11168,1.09868,1.09609,1.09881,1.08819,1.07039,1.08278,1.05051,1.10884,1.10699,1.1091,1.15145,1.15182,1.12011,1.12233,1.12649,1.17594,1.17891,1.18311,1.21599,1.21318,1.22412,1.26514,1.29835,1.2989,1.29309,1.30919,1.32671,1.42636,1.37597,1.37827,1.34595,1.34271,1.32664,1.32952,1.35676,1.35627,1.37993,1.388,1.37033,1.38688,1.38952,1.39941,1.39241,1.3837,1.3892,1.39352,1.38714,1.3924,1.39153,1.39245,1.41658,1.41586,1.33047,1.33016,1.33001,1.32036,1.32645,1.32112,1.33139,1.32135,1.35098,1.32226,1.34738,1.33667,1.29851,1.35192,1.35797,1.31657,1.31728,1.31184,1.2771,1.27793,1.27993,1.27585,1.27677,1.27772,1.26838,1.27119,1.27408,1.27959,1.27895,1.27233,1.2789,1.268,1.29271,1.30415,1.31698,1.31771,1.33075,1.3235,1.32008,1.31943,1.31549,1.31618,1.32109,1.3306,1.40991,1.40719,1.51115,1.46979,1.46418,1.4818,1.52225,1.51964,1.47484,1.47023,1.46872,1.4692,1.48226,1.49919,0.00389038,1.51118,1.51232,1.51383,1.52013,1.52345,1.52267,1.53002,1.53675,1.53753,1.5355,1.53574,1.53571,1.5465,1.54495,1.55049,1.54726,1.53964,1.53767,1.54782,1.55213,1.55106,1.55475,1.5651,1.64265,1.58314,1.58132,1.58312,1.58404,1.58998,1.59239,1.59198,1.59213,1.58949,1.59616,1.59767,1.59517,1.60427,1.60999,1.61308,1.61258,1.61294,1.62608,1.62396,1.63736,1.63855,1.63833,1.64751,1.64517,1.64654,1.66001,1.66102,1.66773,1.66445,1.66417,1.66457,1.68015,1.6779,1.68191,1.68681,1.68595,1.68609,1.68837,1.69635,1.70443,1.7081,1.70693,1.71703,1.7232,1.73215,1.73356,1.73371,1.73298,1.72791,0.00388127,1.75832,1.75528,1.75644,1.76879,1.76992,1.77561,1.79008,1.78957,1.79428,1.79417,1.80389,1.81654,1.81355,1.81136
0.932912,0.93381,0.936938,0.944644,0.947383,0.949021,0.94981,0.94946,0.950361,0.952168,0.955098,0.962089,0.965571,0.964808,0.966292,0.966447,0.967733,0.97822,0.9847,0.987788,0.989972,0.987382,0.995061,1.00109,1.00231,1.00394,0.998295,0.996691,0.999953,1.00322,1.00388,1.00439,1.0043,1.00662,1.01485,1.01576,1.01713,1.01386,1.01484,1.01718,1.01843,1.01794,1.02057,1.02561,1.02691,1.02842,1.03308,1.03455,1.03648,1.03736,1.03939,1.03657,1.03546,1.0367,1.03926,1.04698,1.05431,1.06138,1.06503,1.06597,1.06465,1.06483,1.06619,1.21969,1.08762,1.09246,1.09731,1.10137,1.10278,1.10577,1.1059,1.10495,1.10605,1.10801,1.11128,1.10711,1.10836,1.11906,1.12855,1.12694,1.13804,1.13811,1.1388,1.15527,1.15651,1.17137,1.16787,1.16326,1.16895,1.1703,1.16187,1.16388,1.15914,1.16045,1.16116,1.16454,1.14926,1.14874,1.13912,1.11804,1.11825,1.11596,1.15093,1.09021,1.09212,1.07483,1.05663,1.05631,1.08139,1.10063,1.13724,1.14221,1.14344,1.21046,1.18131,1.20713,1.1914,1.23884,1.22129,1.2199,1.25767,1.27488,1.28255,1.32064,1.30992,1.31497,1.32362,1.35415,1.3533,1.38942,1.35881,1.34728,1.3581,1.38158,1.36238,1.3777,1.37822,1.39234,1.39513,1.40386,1.40772,1.41729,1.4189,1.40541,1.42029,1.4274,1.4197,1.42238,1.42439,1.40673,1.3803,1.3796,1.37536,1.35645,1.35719,1.34972,1.33706,1.33765,1.34108,1.35098,1.31921,1.32425,1.34981,1.33774,1.33971,1.29108,1.29128,1.34329,1.32739,1.3451,1.30871,1.30407,1.30482,1.31615,1.26831,1.26831,1.2648,1.29456,1.28134,1.27817,1.28101,1.27591,1.28985,1.27641,1.2785,1.26837,1.27408,1.30252,1.27975,1.30769,1.3095,1.30227,1.30086,1.29221,1.29241,1.31002,1.34819,1.4415,1.40382,1.40592,1.40868,1.40292,1.45451,1.43373,1.4651,1.43332,1.44294,1.46223,0.00371989,0.00369075,1.50219,1.50969,1.51217,1.51388,1.52031,1.51947,1.52401,1.52422,1.53131,1.53512,1.54336,1.54169,1.54595,1.54622,1.54568,1.55082,1.55121,1.55209,1.55124,1.7432,0.00396952,1.56409,1.56481,1.56176,1.57245,1.57454,1.58342,1.58306,1.58519,1.58454,1.58267,1.58296,1.5887,1.59367,1.59218,1.59647,1.59648,1.59459,1.5922,1.71015,1.61007,1.61091,1.6175,1.61937,1.61814,1.62775,1.6385,1.63825,1.64946,1.65039,1.65074,1.65819,1.65842,1.66485,1.6647,1.6715,1.67894,1.6823,1.68191,1.67954,1.67826,1.68241,1.69548,1.6935,1.70451,1.70943,1.70766,1.70665,1.93804,1.73716,1.73514,1.73219,1.73312,1.73395,1.74088,1.74699,1.74897,1.74722,1.76292,1.76192,1.77247,1.77179,1.78711,1.78643,0.00364212,1.80037,1.81037,1.8052,1.80999,1.81521
0.933275,0.928261,0.932409,0.933174,0.935961,0.939844,0.939188,0.943621,0.948962,0.94951,0.960338,0.961447,0.964513,0.965969,0.968974,0.972233,0.975427,0.980636,0.987071,0.986831,0.98712,0.989856,1.00357,1.00468,1.00044,0.999761,1.00085,0.999622,1.00043,1.00016,0.996264,0.997552,1.01083,1.00646,1.01514,1.01508,1.01629,1.01788,1.01782,1.02073,1.02242,1.02835,1.0293,1.03029,1.03263,1.03523,1.03693,1.04269,1.04161,1.03964,1.04051,1.03921,1.0407,1.04353,1.04723,1.05188,1.05251,1.06706,1.07407,1.0751,1.19787,0.00344866,1.08986,1.09475,1.09483,1.09465,1.09764,1.10346,1.10593,1.10716,1.10845,1.10976,1.10939,1.11185,1.11418,1.11694,1.11526,1.12755,1.12957,1.12911,1.12388,1.13008,1.13308,1.14771,1.14976,1.15334,1.15906,1.16403,1.18427,1.16623,1.11157,1.10917,1.12009,1.12653,1.12647,1.11507,1.11532,1.11692,1.1207,1.10964,1.10719,1.10845,1.06487,1.06481,1.05721,1.05885,1.06363,1.08856,1.08819,1.14028,1.13766,1.13984,1.13263,1.16758,1.17721,1.20943,1.19874,1.29671,1.3104,1.28147,1.29538,1.31669,1.31896,1.34053,1.35108,1.41899,1.42723,1.3898,1.38518,1.40951,1.41046,1.3963,1.39849,1.40696,1.39537,1.41721,1.41339,1.42363,1.41398,1.4188,1.41842,1.39641,1.39523,1.44455,1.44375,1.52987,1.5323,1.41901,1.41223,1.39561,1.38581,1.38747,1.37007,1.36522,1.3719,1.36994,1.35902,1.3502,1.34855,1.33515,1.32639,1.31573,1.33373,1.31357,1.31366,1.32312,1.32705,1.32595,1.31956,1.31373,1.31311,1.30363,1.3093,1.29364,1.24207,1.25016,1.24994,1.3132,1.30878,1.29628,1.30781,1.28641,1.28017,1.30071,1.30237,1.30017,1.3083,1.30028,1.30026,1.32318,1.32276,1.34793,1.35127,1.33005,1.40131,1.37763,1.40524,1.45313,1.44757,1.49717,1.38698,1.38658,1.40992,1.48259,1.43115,1.4307,1.45829,1.52965,1.52885,1.53309,1.53317,1.53308,1.51816,1.51795,1.5274,1.5277,1.53385,1.53384,1.53672,1.53812,1.545,1.54365,1.54539,1.54913,1.55506,1.55229,1.55106,1.55605,1.55841,1.55731,1.55919,1.56054,1.56004,1.56193,1.56777,1.57493,1.57506,1.57633,1.58081,1.58049,1.57991,1.58499,1.58503,1.58365,1.59029,1.59549,1.59486,1.59487,1.59978,1.60658,1.61482,1.61393,1.61884,1.6171,1.62673,1.62713,1.6394,1.63779,1.65115,1.65448,1.65157,1.65707,1.66117,1.65368,1.65259,1.79494,1.67871,1.68508,1.68216,1.67859,1.67608,1.78342,1.70003,1.69815,1.70455,1.7132,1.71649,1.72423,1.73374,1.73555,1.73405,1.73406,1.73297,1.73844,1.7467,1.75169,1.75089,1.75236,1.76318,0.00359926,1.78568,1.78204,1.79349,1.7959,1.79407,1.80888,1.80564,1.81605,1.81475,1.82112
0.92863,0.928046,0.929004,0.929398,0.932051,0.933855,0.934805,0.93378,0.939372,0.949625,0.956557,0.957275,0.963056,0.962931,0.975433,0.982841,0.984456,0.985874,0.987477,0.990716,0.996483,0.998742,0.995228,0.999279,1.00022,1.00059,0.999658,1.00087,1.00167,1.00496,1.00545,1.01242,1.01458,1.01487,1.01662,1.02029,1.02286,1.02623,1.02976,1.03081,1.03098,1.02998,1.03436,1.03831,1.03923,1.03983,1.04064,1.04267,1.0421,1.04222,1.04465,1.04563,1.04841,1.05119,1.05427,1.05883,1.06727,1.06979,1.07771,1.08306,1.08539,1.0884,1.09292,1.0946,1.09761,1.09977,1.10706,1.11098,1.11379,1.11123,1.10994,1.11475,1.10773,1.11881,1.11845,1.12174,1.12328,1.12659,1.13103,1.13146,1.12456,1.12392,1.12667,1.12423,1.12387,1.20329,1.18379,1.21673,1.18539,1.2049,1.09148,1.0933,1.09552,1.10754,1.09949,1.10066,1.09602,1.13521,1.1257,1.12582,1.16775,1.06885,1.07003,1.07065,1.10608,1.11462,1.07979,1.07934,1.08853,1.12619,1.12184,1.12243,1.16726,1.17545,1.1851,1.23328,1.29781,1.30839,1.30931,1.31348,1.31282,1.33,1.36116,1.36037,1.40994,1.38979,1.39652,1.4077,1.41586,1.42561,1.42068,1.42238,1.4136,1.40276,1.40145,1.44765,1.44132,1.44885,1.44482,1.4466,1.44233,1.45472,1.46118,1.47657,1.44981,1.45741,1.45809,1.43545,1.41435,1.48904,1.41189,1.40658,1.39711,1.37912,1.38148,1.37906,1.36667,1.36582,1.36053,1.36509,1.34698,1.34688,1.34162,1.33723,1.33519,1.3415,1.32039,1.31758,1.31857,1.31635,1.32465,1.30989,1.30939,1.31162,1.31351,1.3067,1.30937,1.31202,1.30733,1.31237,1.29216,1.30874,1.28966,1.31429,1.31282,1.31881,1.31974,1.31896,1.30873,1.31304,1.32438,1.34339,1.32605,1.3536,1.37454,1.37188,1.37237,1.39215,1.38644,1.41317,1.38828,1.38425,1.44075,1.41981,1.42333,1.42765,1.42907,1.4726,1.49445,1.49434,1.49339,1.49866,1.51525,1.51721,1.52358,1.5237,1.5263,1.5345,1.53795,1.5444,1.54493,1.54564,1.54317,1.54843,1.55251,1.55124,1.54923,1.55328,1.55369,1.55172,1.55729,1.55935,1.56114,1.5617,1.56394,1.56293,1.56146,1.56814,1.5732,1.57045,1.56998,1.58438,1.58363,1.58723,1.58754,1.59208,1.59151,1.59665,1.60125,1.604,1.61036,1.61653,1.61818,1.61445,1.61959,1.62334,1.63434,1.63387,1.65046,1.65119,1.65895,1.65907,1.65843,1.66135,1.66744,1.67259,1.67915,1.68588,1.6878,1.69521,1.69622,1.69328,1.69286,1.69979,1.69938,1.69984,1.70782,1.71694,1.72398,1.72625,1.72547,2.01709,2.01815,0.00335748,1.75383,1.75098,1.75557,1.75455,1.76276,1.75907,1.77929,1.78527,1.78133,1.80076,1.80052,1.8039,1.80926,1.81224,1.81306,1.83142
0.918342,0.92025,0.921768,0.923482,0.927559,0.929001,0.93162,0.932505,0.933333,0.941776,0.941788,0.947023,0.948511,1.31252,0.967948,0.967669,0.974496,0.97771,0.978699,0.979702,0.990354,0.9891,0.995304,0.995679,0.997318,1.00171,1.00504,0.996622,1.00652,1.01039,1.00995,1.00924,1.01828,1.02316,1.0153,1.01594,1.01444,1.01514,1.03214,1.03398,1.0347,1.03669,1.03868,1.04011,1.0416,1.04386,1.04551,1.04702,1.04656,1.0469,1.04754,1.04334,1.04369,1.04997,1.05874,1.06682,1.07195,1.07757,1.08118,1.08639,1.08876,1.09304,1.09524,1.09817,1.10101,1.11305,1.1155,1.11907,1.12064,1.12007,1.12216,1.12296,1.12446,1.12684,1.12643,1.13535,1.14033,1.14347,1.13691,1.13973,1.14084,1.17493,1.17554,1.14312,1.16719,1.16709,1.16415,1.16258,1.1055,1.10589,1.08812,1.09564,1.09792,1.09872,1.06661,1.06803,1.09078,1.09148,1.12629,1.11316,1.13096,1.12149,1.07962,1.10797,1.09859,1.09735,1.11088,1.07177,1.07095,1.10823,1.10785,1.15552,1.15413,1.15904,1.26629,1.26607,1.27939,1.30622,1.31904,1.31667,1.33735,1.36969,1.40384,1.40205,1.41196,1.41395,1.44681,1.41376,1.41303,1.43617,1.46942,1.43692,1.45051,1.48163,1.44975,1.44688,1.44446,1.44977,1.4775,1.47989,1.47928,1.49682,1.4914,1.48233,1.47587,1.46525,1.44726,1.43464,1.44718,1.48733,1.43018,1.41082,1.41628,1.40326,1.38921,1.38488,1.37694,1.37758,1.37814,1.36119,1.34731,1.34943,1.35505,1.35774,1.35754,1.34503,1.33498,1.34128,1.31477,1.32407,1.32895,1.35327,1.32233,1.39874,1.31329,1.32331,1.33406,1.28851,1.28794,1.29009,1.29514,1.31513,1.30705,1.31677,1.32104,1.41718,1.41904,1.35583,1.35821,1.33732,1.34454,1.31665,1.31639,1.32243,1.3677,1.38044,1.37912,1.3736,1.37773,1.37626,1.38166,1.4138,1.40525,1.49531,1.42081,1.44472,1.44566,1.447,1.49085,1.48068,1.49957,1.49692,1.50955,1.51576,1.51681,1.52295,1.52335,1.53338,1.53787,1.52344,1.53611,1.55251,1.5527,1.55422,1.55402,1.55431,1.54813,1.5502,1.5487,1.55021,1.55233,1.55173,1.56458,1.56547,1.56431,1.5627,1.56459,1.56753,1.57281,1.57422,1.57666,1.58727,1.58916,1.5878,1.58465,1.5942,1.59402,1.59544,1.59523,1.60904,1.60656,1.62008,1.61981,1.61642,1.62259,0.00332988,1.64308,1.6415,1.63913,1.65452,1.6536,1.66137,1.66118,1.66816,1.67854,1.68182,1.68419,1.68411,1.68973,1.69668,1.69291,1.69339,1.69793,1.69693,1.69627,1.70334,1.71131,1.71643,1.71945,1.87717,1.73713,1.74432,1.74177,1.75483,1.7612,1.75584,1.75804,1.76869,1.76404,1.78404,1.7816,1.79265,1.80032,1.79967,1.8067,1.80395,1.82739,1.81877,1.81823,1.83746
0.918218,0.918428,0.926137,0.927423,0.928509,0.930209,0.930057,0.931139,0.933896,0.940092,0.946204,0.94947,0.956976,0.961335,0.962981,1.07929,0.979081,0.983937,0.983258,0.984115,0.993092,0.99347,0.993884,0.995317,1.00253,1.00561,1.01064,1.01256,1.01492,1.01608,1.02044,1.0278,1.02785,1.03491,1.03539,1.03542,1.03544,1.03445,1.0431,1.04329,1.04354,1.04454,1.04574,1.04517,1.04601,1.04681,1.05032,1.05268,1.05399,1.05402,1.05486,1.05735,0.00366133,1.06699,1.07706,1.07998,1.08276,1.08864,1.08909,1.09409,1.09756,1.09936,1.39453,1.10846,1.1113,1.12216,1.12249,1.132,1.13069,1.137,1.13733,1.15198,1.15127,1.14838,1.14945,1.14449,1.14331,1.1621,1.14608,1.14623,1.16143,1.1649,1.1644,1.16374,1.16438,1.12474,1.12547,1.11898,1.0916,1.09197,1.06719,1.07534,1.0774,1.06855,1.07072,1.09566,1.07746,1.07819,1.09859,1.14024,1.15336,1.1432,1.11849,1.09854,1.09973,1.0905,1.09137,1.09399,1.11684,1.12997,1.1809,1.17914,1.20255,1.22444,1.26326,1.31173,1.31425,1.3122,1.36462,1.36318,1.36319,1.41671,1.40614,1.43557,1.43164,1.44117,1.44371,1.47749,1.46824,1.49005,1.48664,1.48777,1.49286,1.4845,1.46262,1.56443,1.56448,1.56433,1.49922,1.49009,1.57137,1.50369,1.51737,1.51942,1.51866,1.51357,1.50568,1.46704,1.46608,1.45753,1.45734,1.44174,1.42212,1.43279,1.42684,1.39513,1.39543,1.39838,1.399,1.38726,1.38115,1.38144,1.37184,1.36757,1.36559,1.35599,1.34799,1.34484,1.32828,1.32897,1.34875,1.33622,1.33622,1.34943,1.35074,1.34188,1.29133,1.29662,1.29408,1.29286,1.2943,1.30292,1.30281,1.31862,1.33974,1.35041,1.35139,1.3378,1.3127,1.31205,1.32917,1.32433,1.32607,1.32494,1.37094,1.37042,1.36987,1.42182,1.43084,1.38891,1.38785,1.41315,1.41741,1.4179,1.45166,1.45731,1.45389,1.46268,1.46968,1.47779,1.4835,1.49348,1.50722,1.51514,1.52056,1.52267,1.52649,1.53729,1.53798,1.54516,1.5538,1.55253,1.55577,1.55663,1.55719,1.55384,1.55407,1.55259,1.55807,1.55628,1.5606,1.55842,1.56184,1.56098,1.56824,1.56523,1.56985,1.57321,1.57476,1.57868,1.58369,1.58756,1.5879,1.59641,1.59512,1.59347,1.60103,1.60511,1.60911,1.61289,1.6138,1.61973,1.61942,1.61988,1.6406,1.6405,1.64236,1.64064,1.65045,1.65483,1.65481,1.67734,1.68267,1.6807,1.67923,1.68435,1.69206,1.69024,1.69385,1.69859,1.70266,1.70045,1.70346,1.70928,1.71785,1.71498,1.71429,1.72647,1.73076,1.74092,1.74642,1.74576,1.76315,1.76029,1.76361,1.77536,1.77346,1.77496,1.7904,1.78412,1.7808,1.80564,1.80284,1.80344,1.80952,1.82147,1.82291,1.8316,1.83055,1.83732
0.92157,0.922117,0.924919,0.92563,0.924484,0.928576,0.931392,0.935339,0.938809,0.946254,0.948391,0.970366,0.984457,0.986564,0.987901,0.979626,0.979594,0.979805,0.993966,0.994189,0.99393,0.988378,0.989548,1.00247,1.011,1.01452,1.01643,1.01983,1.02014,1.02496,1.03189,1.03894,1.03766,1.03423,1.0331,1.03465,1.17496,1.04064,1.0424,1.04232,1.04244,1.04393,1.0488,1.04856,1.05003,1.05288,1.05378,1.05912,1.05195,1.05283,1.06449,1.06988,1.07547,1.07583,1.07731,1.08696,1.08858,1.09185,1.09544,1.09744,0.00382805,1.10698,1.52669,1.11912,1.12047,1.12708,1.13172,1.13375,1.13767,1.14012,1.15057,1.15318,1.14713,1.14812,1.14824,1.1423,1.14225,1.14021,1.14337,1.17602,1.15106,1.1462,1.13952,1.13881,1.16885,1.11516,1.14973,1.07959,1.05827,1.04923,1.06733,1.0604,1.0787,1.08812,1.08536,1.13506,1.12402,1.12556,1.12518,1.10303,1.10485,1.09521,1.0983,1.10076,1.102,1.09543,1.15336,1.12898,1.12597,1.17695,1.17767,1.18745,1.25499,1.25376,1.30288,1.31558,1.31535,1.37472,1.37209,1.38269,1.42586,1.45574,1.45047,1.46448,1.45953,1.48904,1.48629,1.4847,1.51405,1.50978,1.52851,1.52387,1.51506,1.51351,1.53984,1.52935,1.50566,1.54605,1.53776,1.54359,1.53633,1.50886,1.50791,1.53939,1.50858,1.49964,1.48817,1.48785,1.48268,1.50072,1.49942,1.46972,1.45505,1.44303,1.444,1.43599,1.4271,1.43856,1.42406,1.40615,1.42087,1.39432,1.3685,1.36333,1.36292,1.37828,1.3781,1.35687,1.36483,1.37954,1.36095,1.34751,1.38017,1.38085,1.34065,1.34254,1.33019,1.34151,1.30595,1.30204,1.29294,1.31625,1.30948,1.35706,1.33033,1.33211,1.33707,1.33707,1.34464,1.34519,1.33731,1.32905,1.33032,1.31897,1.3392,1.33809,1.33926,1.41199,1.45064,1.41492,1.41478,1.40945,1.4253,1.4256,1.44066,1.43979,1.44373,1.48807,1.46079,1.47649,1.47724,1.4969,1.50196,1.50241,1.51542,1.512,1.51849,1.51996,1.52824,1.52918,1.5445,1.54184,1.54484,1.5461,1.55767,1.55683,1.55737,1.55716,1.55351,1.55488,1.55779,1.55686,1.55813,1.55932,1.56118,1.56763,1.56724,1.56105,0.00343648,0.00358186,1.83465,1.91837,1.59409,1.59447,1.59262,1.59227,1.59534,1.60574,1.60393,1.60511,1.60936,1.61968,1.62393,1.63401,1.63461,1.64438,1.6445,1.65266,1.65517,0.00349688,1.66742,1.67589,1.68017,1.68062,1.68872,1.68412,1.69108,1.70411,1.70341,1.70337,1.70075,1.70041,1.71108,1.71323,1.71488,1.72659,1.7336,1.73309,1.7362,1.73443,1.73323,1.75397,1.75046,1.76862,1.77659,1.77751,1.78025,1.79261,1.79071,1.78826,1.79318,0.00388997,1.81266,1.81744,1.8185,1.81586,1.82052,1.81916,1.81497,1.82056
0.918469,0.91754,0.91304,0.92274,0.924427,0.925047,0.927391,0.932383,0.938674,0.9455,0.945621,1.18572,0.00371721,0.985684,0.987347,0.988221,0.982887,0.980014,0.981291,0.999725,0.997613,0.999818,1.00422,1.00509,1.01181,1.01268,1.01368,1.01926,1.02048,1.02218,1.02849,1.03516,1.03677,1.03775,1.01723,1.01943,1.02071,1.25803,1.04092,1.0435,1.04559,1.03794,1.04846,1.04784,1.0476,1.04908,1.04958,1.18181,1.05977,1.06055,1.06079,1.06378,1.06902,1.07444,1.08028,1.08351,1.09089,1.09575,1.09592,1.09887,0.00361184,1.11277,1.11766,1.12629,1.12845,1.13372,1.13667,1.13911,1.14107,1.14227,1.14157,1.14258,1.14138,1.14267,1.13958,1.13632,1.13215,1.13191,1.13604,1.13647,1.12921,1.12094,1.12235,1.14004,1.16009,1.10178,1.1015,1.12332,1.12627,1.06299,1.05343,1.07611,1.0708,1.09527,1.10332,1.14012,1.15264,1.15166,1.10764,1.07845,1.08426,1.10023,1.12341,1.10711,1.10845,1.11161,1.12691,1.1393,1.13376,1.14951,1.20078,1.20118,1.24004,1.25817,1.2587,1.28781,1.34466,1.36728,1.36165,1.4161,1.49918,1.43397,1.4451,1.47929,1.48122,1.51311,1.51486,1.53975,1.53354,1.52723,1.52118,1.52761,1.53389,1.53465,1.53675,1.54679,1.56538,1.58395,1.55492,1.55569,1.54007,1.55133,1.53523,1.55911,1.57113,1.50813,1.51263,1.53278,1.50112,1.52367,1.48601,1.49982,1.47809,1.47736,1.516,1.4632,1.46136,1.44543,1.46262,1.44659,1.45436,1.45507,1.40055,1.38494,1.37941,1.37759,1.39274,1.38525,1.39082,1.39421,1.38837,1.36918,1.3668,1.35091,1.33834,1.33583,1.33723,1.3201,1.32384,1.32171,1.31228,1.30576,1.31225,1.3117,1.33051,1.32881,1.33629,1.33705,1.34593,1.34632,1.36445,1.36705,1.37136,1.36935,1.33939,1.34619,1.35936,1.35896,1.4058,1.41726,1.51186,1.41082,1.39313,1.39045,1.42785,1.42772,1.41993,1.44184,1.44999,1.47578,1.47998,1.48766,1.48972,1.49135,1.52433,1.50122,1.51052,1.50944,1.51798,1.5266,1.5446,1.54684,1.54479,1.54891,1.54653,1.54439,1.55047,1.55205,1.54923,1.55022,1.55438,1.55381,1.56139,1.56026,1.56513,1.56795,1.56678,1.56231,1.56019,1.56585,0.00342825,1.5857,1.5901,1.59047,1.59014,1.59013,1.5996,1.60597,1.6064,1.61387,1.6238,1.62444,1.62683,1.63171,1.64503,1.64671,1.65164,1.6613,1.66991,1.67289,1.67154,1.67904,1.68846,1.68834,1.69024,1.70273,1.70447,1.70571,1.71194,1.71215,1.71352,1.70579,0.00358254,1.72954,1.72665,1.73062,1.7356,1.73331,1.74147,1.74198,1.76136,1.76253,1.75943,1.7703,1.77416,1.77527,1.79058,1.7886,1.78818,1.7886,1.78457,1.91293,1.91297,1.82019,1.81849,1.82379,1.83005,1.82787,1.82835,1.83957
0.921842,0.922911,0.924631,0.924266,0.924048,0.926257,0.935121,0.935926,0.942428,0.955414,0.971343,0.973421,0.976577,0.977585,0.987568,0.988992,0.986302,0.989541,0.992104,0.992955,1.00068,1.00079,1.003,1.00805,1.01118,1.01646,1.0171,1.0182,1.02233,1.02485,1.03226,1.03318,1.03681,1.0437,1.04416,1.04552,1.04609,1.04675,1.045,1.04588,1.04717,1.04889,1.05577,1.05843,1.06635,1.06716,1.06902,1.06542,1.06707,1.06818,1.06875,1.07,1.07428,1.07624,1.08233,1.08793,1.09075,1.09133,1.09843,1.10205,1.24234,0.00348563,1.12939,1.12957,1.13367,1.13858,1.13872,1.13905,1.13956,1.13812,1.13813,1.13949,1.12933,1.13421,1.13336,1.12947,1.12375,1.12343,1.11919,1.11832,1.13199,1.12649,1.16802,1.11172,1.08208,1.08913,1.09737,1.10531,1.15045,1.07185,1.08624,1.08923,1.09421,1.09549,1.10048,1.10198,1.17648,1.14626,1.06017,1.06246,1.08808,1.13165,1.14057,1.13496,1.1343,1.13614,1.1746,1.17485,1.16523,1.18707,1.18931,1.22889,1.27102,1.2632,1.31041,1.3269,1.35027,1.39586,1.43738,1.43873,1.45298,1.49354,1.50149,1.55203,1.56079,1.55012,1.56795,1.56948,1.5626,1.55115,1.55346,1.55562,1.54416,1.57781,1.56034,1.56798,1.57767,1.57126,1.58504,1.56699,1.57148,1.58527,1.5608,1.58844,1.57975,1.57087,1.70419,1.70418,1.63453,0.00370814,1.5237,1.52255,1.54093,1.52605,1.53457,1.56102,1.5588,1.55744,1.45126,1.47224,1.43153,1.43968,1.4433,1.42329,1.42574,1.40141,1.41253,1.40153,1.385,1.38008,1.38142,1.37805,1.37453,1.37816,1.37728,1.35549,1.3507,1.37165,1.36443,1.33851,1.31244,1.35535,1.33197,1.33489,1.35913,1.35927,1.34108,1.34122,1.34186,1.35778,1.3782,1.36861,1.35642,1.33815,1.33946,1.37788,1.37595,1.36926,1.37872,1.38284,1.40282,1.40116,1.39994,1.3961,1.39109,1.39124,1.39553,1.45865,1.4695,1.47783,1.47686,1.507,1.50881,1.51872,1.53141,1.52207,1.53467,1.52239,1.51042,1.50873,1.53402,1.54485,1.5449,1.54465,1.54915,1.54745,1.55094,1.54764,1.54842,1.55547,1.55821,1.55825,1.562,1.56171,1.56681,1.56863,1.56829,1.5693,1.85814,1.85972,1.58831,1.59085,1.59318,1.59247,1.59028,1.59538,1.60679,1.61104,1.61972,1.62346,1.62184,1.63125,1.64946,1.649,1.65385,1.65144,1.65973,1.67251,1.67032,1.67436,1.67911,0.00405635,1.85324,1.8562,1.70384,1.70239,1.71638,1.71503,1.71622,1.72506,1.72404,1.72349,1.72703,1.73122,1.73209,1.7315,1.73324,1.74153,1.75858,1.75672,1.7572,1.75503,1.75296,0.00338939,1.91168,1.97857,1.80134,1.79737,1.79399,1.80658,1.80463,1.81767,1.83133,1.82657,1.82375,1.83221,1.83399,1.83121,1.84732,1.84407
0.92517,0.926235,0.92738,0.930511,0.932045,0.936222,0.941184,0.944164,0.949404,0.961717,0.973312,0.975363,0.977836,0.979719,0.982102,0.98926,0.992781,0.995368,1.00097,1.00205,0.995709,1.00187,1.00592,1.00489,1.02225,1.02279,1.02222,1.02387,1.02945,1.0323,1.04179,1.04327,1.04696,1.05151,1.05247,1.05362,1.05688,1.04665,1.04443,1.04524,1.21949,1.06495,1.06773,1.21614,1.07822,1.08169,1.08196,1.08318,1.08571,1.08229,1.08405,1.08522,1.08724,1.09602,1.09846,1.10124,1.1067,1.10817,1.20474,1.11904,1.12143,1.12272,1.13267,1.13443,1.13818,1.13675,1.13925,1.13231,1.13327,1.13269,1.12741,1.128,1.12725,1.13294,1.12329,1.12206,1.12175,1.11792,1.13329,1.11173,1.11075,1.11279,1.11242,1.07463,1.0782,1.09438,1.09551,1.09626,1.14093,1.1418,1.13292,1.13566,1.10222,1.12223,1.11268,1.11629,1.11705,1.07044,1.12576,1.16478,1.04897,1.09039,1.09172,1.11623,1.11576,1.16161,1.17173,1.17675,1.17707,1.22382,1.22963,1.24971,1.23996,1.26283,1.31325,1.34842,1.36231,1.38779,1.44565,1.45377,1.50519,1.53687,1.53979,1.53579,1.58465,1.56575,1.58526,1.5787,1.59229,1.59221,1.58862,1.62156,1.62274,1.61712,1.61461,1.60821,1.6068,1.61095,1.61649,1.64122,1.6407,1.64006,1.63866,1.61566,1.60244,1.62042,1.59647,1.59335,1.5896,1.54563,1.55857,1.58539,1.55505,1.55626,1.59906,1.54909,1.53374,1.53393,1.50442,1.47807,1.47241,1.46795,1.4652,1.44683,1.43244,1.44209,1.4078,1.4053,1.41272,1.40799,1.40851,1.40739,1.41238,1.3998,1.39812,1.3987,1.40049,1.40188,1.39799,1.3606,1.36419,1.36585,1.34679,1.35792,1.35808,1.36227,1.34675,1.34733,1.34541,1.34578,1.34718,1.39129,1.39191,1.35854,1.33377,1.35535,1.37465,1.35534,1.35773,1.39195,1.3853,1.38451,1.43736,1.3985,1.42051,1.41695,1.49231,1.45734,1.46169,1.46799,1.46763,1.49278,1.49287,1.56581,1.56735,1.53205,1.54469,1.54362,1.52468,1.52836,1.54417,1.54449,1.54405,1.55138,1.54739,1.55158,1.55099,1.55787,1.55838,1.55607,1.56167,1.56175,1.55966,1.56174,1.56831,1.57277,1.5722,1.58128,1.57927,1.58761,1.58881,1.59535,1.59988,1.59852,1.59868,0.00425465,0.00374516,1.62516,1.62479,1.62993,1.62689,1.6483,1.64821,1.64892,1.64847,1.65781,1.67265,1.67173,1.66945,1.66774,1.67488,2.05868,0.00383239,1.90288,0.00333435,0.00372165,1.7201,1.71801,1.71713,1.72496,1.72489,1.72297,1.73028,1.74028,1.73863,1.7371,1.73492,1.89393,1.75811,1.75881,1.76062,1.75644,1.75265,2.10994,2.111,2.10626,1.80352,1.80163,1.7988,1.81321,1.81542,1.82299,1.83174,1.83742,1.83518,1.84129,1.84163,1.84055,1.85332,1.85135
0.929131,0.930812,0.931712,0.939163,0.93523,0.939109,0.940124,0.940992,0.959412,0.96977,0.970504,0.973563,0.978444,0.980904,0.986946,0.987895,0.995127,1.00153,1.00352,1.00865,1.00529,1.00949,1.01123,1.02209,1.02403,1.0322,1.03172,1.03719,1.03913,1.0389,1.04022,1.02119,1.05019,1.05122,1.05678,1.06041,1.05947,1.05997,1.05954,1.06445,1.06965,1.07237,1.07374,1.07579,1.08264,1.08215,1.08499,1.08834,1.33103,1.08507,1.08725,1.08633,1.20233,0.00367571,1.10668,1.11201,1.11527,1.1157,1.11699,1.12042,1.121,1.12502,1.31961,1.33793,1.12249,1.12396,1.12524,1.12519,1.12542,1.12553,1.12211,1.33311,1.11545,1.11764,1.12303,1.12286,1.1227,1.12363,1.10709,1.0991,1.10093,1.09641,1.11613,1.09764,1.06806,1.06859,1.11665,1.1164,1.11676,1.13148,1.14335,1.12789,1.13029,1.15119,1.13595,1.17957,1.13372,1.06294,1.06263,1.06129,1.08814,1.08823,1.11874,1.12047,1.15861,1.15977,1.19695,1.19688,1.23156,1.23006,1.22846,1.24035,1.26642,1.27828,1.30346,1.34304,1.37151,1.38427,1.42765,1.46938,1.52516,1.54796,1.54661,1.55115,1.62201,1.63426,1.63319,1.63335,1.63692,1.66823,1.65094,1.62529,1.62376,1.62402,1.62166,1.61959,1.64899,1.65157,1.64791,1.63313,1.71365,1.71264,1.74006,1.63697,1.62468,1.6203,1.62904,1.62916,1.58264,1.59804,1.61603,1.63931,1.63933,1.5737,1.54595,1.53432,1.54019,1.52221,1.51872,1.51606,1.48856,1.48657,1.48619,1.47781,1.48684,1.45674,1.44632,1.44452,1.43615,1.43482,1.4476,1.44757,1.41593,1.41579,1.41905,1.40599,1.40141,1.42392,1.413,1.37491,1.36059,1.36157,1.36518,1.355,1.36939,1.34824,1.36405,1.35713,1.35686,1.35789,1.36436,1.32997,1.3301,1.32567,1.34479,1.37993,1.34377,1.35313,1.40607,1.4061,1.36151,1.39902,1.39896,1.40071,1.4597,1.45889,1.44964,1.45296,1.49152,1.46235,1.4665,1.48925,1.46905,1.51119,1.50924,1.56429,1.56579,1.56732,1.52791,1.53001,1.53984,1.54872,1.55554,1.55575,1.55426,1.56189,1.55935,1.55941,1.56255,1.56356,1.56218,1.56963,1.56773,1.57376,1.57353,1.58223,1.58136,1.58255,1.58612,1.59529,1.60149,1.60175,1.60134,1.59323,1.59117,0.00349894,0.00358645,0.00345374,0.00364842,0.00379016,0.00346082,0.00391833,1.65083,1.65796,1.66525,1.66446,1.67276,1.67894,1.68829,1.6861,0.00383295,0.0034832,0.00378187,0.00394164,0.00346458,1.72777,1.72681,1.72944,1.72893,1.73093,1.72803,1.7348,1.7409,1.73464,1.74243,0.00319814,1.77027,1.77227,1.77575,1.77659,1.77515,0.00364202,2.10155,0.003489,0.00381919,1.80378,1.80883,1.80699,1.81511,1.82017,1.81213,1.8095,0.00406017,0.00335993,1.93843,0.00342965,0.00415541,0.00347017,0.00377899,0.00350135
0.936374,0.938715,0.941769,0.940657,0.942457,0.941902,1.01896,0.95135,0.962149,0.967301,0.983769,0.985085,0.983642,0.985951,0.986596,0.97433,0.973847,1.12593,1.23307,1.00989,1.01326,1.02324,1.02335,1.02172,1.03207,1.03297,1.03898,1.04188,1.03234,1.03218,1.03478,1.05309,1.05167,1.05531,1.06862,1.07637,1.0792,1.07914,1.08023,1.07885,1.09269,1.09574,1.09658,1.09036,1.08896,1.08881,1.08082,1.07887,1.08225,1.31601,0.00340986,1.09621,1.0984,1.10296,1.1093,1.26153,1.10269,1.10562,1.30873,1.30541,1.10978,1.1113,1.11047,1.15865,1.16045,1.17074,1.1723,1.11649,1.15089,1.15258,1.47186,1.65284,1.11324,1.1144,1.11692,1.11712,1.09864,1.09908,1.09932,1.10324,1.10451,1.18456,1.1916,1.10908,1.06183,1.06145,1.07441,1.07737,1.09047,1.10119,1.10205,1.09914,1.10095,1.10197,1.10244,1.08737,1.04903,1.03911,1.0384,1.03667,1.06413,1.12897,1.12887,1.12976,1.17321,1.17118,1.17187,1.19656,1.20029,1.24785,1.25647,1.29579,1.30303,1.31207,1.36728,1.35162,1.44015,1.43052,1.565,1.5611,1.54404,1.62806,1.63339,1.64472,1.65972,1.69372,1.66974,1.69358,1.70149,1.68614,1.68478,1.68414,1.66627,1.67811,1.67665,1.63467,1.69906,1.68114,1.67218,1.6742,1.67479,1.71607,1.7141,1.65896,1.64513,1.64272,1.62012,1.61876,1.66243,1.66196,1.66056,1.61259,1.62326,1.57635,1.59036,1.59309,1.58771,1.58871,1.51991,1.51363,1.51716,1.48551,1.48441,1.47693,1.48347,1.45244,1.45046,1.44783,1.44619,1.442,1.4435,1.4444,1.42755,1.4353,1.41373,1.4129,1.40015,1.38113,1.39479,1.38681,1.36511,1.36482,1.37851,1.37743,1.38087,1.36339,1.36324,1.35443,1.3574,1.35128,1.3255,1.3357,1.33993,1.34282,1.34562,1.35318,1.40984,1.41012,1.37408,1.38227,1.38176,1.38485,1.42356,1.46743,1.43678,1.4634,1.45675,1.4611,1.4598,1.46173,1.50648,1.47097,1.50894,1.49678,1.51726,1.50543,1.51412,1.52519,1.53401,1.54457,1.5536,1.56448,1.56503,1.56414,1.56456,1.5659,1.56521,1.5679,1.56658,1.57138,1.56875,1.56605,1.56885,2.21453,1.58387,1.58368,1.58495,1.59576,1.59667,1.6087,1.6069,1.60601,1.59981,1.59561,1.59371,2.30648,2.28548,2.28649,1.6172,2.29788,0.00349487,0.00345099,0.00340313,1.66959,1.66984,1.67448,1.68854,1.68631,1.69308,1.69882,1.70651,1.71063,1.71243,1.72732,1.7272,1.73046,1.73806,1.73855,1.73869,1.74412,1.74577,1.75239,1.75424,1.75364,1.75368,1.76888,1.77513,1.87723,1.79294,1.8025,1.8071,1.80658,1.80484,1.80101,1.80179,1.80913,1.80393,1.81762,1.82018,1.81751,1.81361,1.80913,0.00346753,0.00370964,0.00383095,1.8491,1.84775,0.00383399,0.00342246,1.87296
0.94334,0.944798,0.945599,0.929473,0.930654,0.932108,0.963123,0.964439,0.978192,0.983354,0.981871,0.995409,0.99698,1.22246,1.28062,1.22865,1.22865,1.26675,1.23304,1.23208,1.0195,1.02022,1.02834,1.03501,1.03558,1.04196,1.04734,1.04894,1.03669,1.0369,1.04574,1.06307,0.00373567,1.09087,1.08873,1.08078,1.09589,1.09683,1.10021,1.09989,1.09822,1.09984,1.10082,1.09677,1.08437,1.08152,1.09221,1.09152,1.09235,1.09289,1.08611,0.00375595,1.08184,1.08005,1.08298,1.08441,1.19018,1.09493,1.09641,1.09853,1.10039,1.10218,1.10479,1.13541,1.13687,1.13548,1.13912,1.13807,1.10689,1.11107,1.10978,1.11096,1.10676,1.10446,1.10601,1.10436,1.09982,1.10101,1.12065,1.12535,1.16259,1.12428,1.10915,1.06904,1.06973,1.07626,1.07754,1.09511,1.08709,1.1198,1.11069,1.15811,1.10585,1.10978,1.09592,1.04033,1.03979,1.05378,1.08313,1.05392,1.07412,1.10532,1.13551,1.14988,1.14779,1.17699,1.20905,1.20763,1.23012,1.2652,1.26759,1.32718,1.33446,1.39051,1.388,1.4247,1.45541,1.48291,1.63516,1.61647,1.63779,1.65168,1.69326,1.71367,1.73455,1.72013,1.7168,1.72684,1.73056,1.70704,1.74611,1.72036,1.72921,1.72985,1.7262,1.72217,1.7263,1.71285,1.73051,1.74592,1.73204,1.69405,1.68561,1.68319,1.65422,1.66444,1.66191,1.63828,1.63904,1.65187,1.63797,1.63622,1.60336,1.60352,1.62187,1.60314,1.56058,1.56452,1.51956,1.51808,1.56398,1.55894,1.52394,1.51094,1.50422,1.49189,1.45699,1.46064,1.46495,1.44434,1.44658,1.46971,1.45756,1.42744,1.4156,1.4133,1.39456,1.39901,1.38785,1.38764,1.38257,1.38916,1.38827,1.49798,1.49726,1.43337,1.35752,1.37939,1.38891,1.38083,1.3717,1.37251,1.40094,1.36999,1.37274,1.38149,1.34339,1.34527,1.41009,1.40282,1.41263,1.45153,1.45272,1.47853,1.48658,1.48457,1.46272,1.43523,1.4487,1.49867,1.49983,1.48551,1.52068,1.51457,1.51165,1.54333,1.54448,1.54936,1.55668,1.55234,1.5589,1.5648,1.5679,1.56884,1.56923,1.5784,1.57862,1.57643,1.58161,1.58383,1.58793,1.58804,1.58754,1.59038,1.5909,1.58815,1.59604,1.60672,1.60764,1.61015,1.61082,1.61666,2.26235,0.00345447,2.33288,0.00378583,0.00390808,0.00351055,0.00342041,0.00350229,0.00321696,2.28708,1.67846,1.67691,1.68656,1.68681,1.69688,1.6965,1.70113,1.70346,1.7037,1.71703,1.71851,0.00374876,1.73018,0.00374068,0.00344332,1.75761,1.7614,1.75627,1.76203,1.75895,1.77338,1.78047,1.79388,1.79071,1.80187,1.80185,1.80844,1.80753,1.8024,1.81146,1.81064,1.81391,1.81403,1.81322,1.81634,1.8166,1.82864,1.84014,1.8383,1.83733,1.85165,1.8487,1.84729,1.85255,1.84844,0.00364681,1.87944,1.88363
0.949749,0.950551,0.951935,0.952425,0.959755,0.962938,0.97094,0.976157,0.978567,0.991807,1.00091,1.0063,1.00754,1.0127,1.01341,1.24367,1.23555,1.02233,1.02382,1.02584,1.02497,1.02862,1.03546,1.05718,1.05717,1.05721,1.05437,1.05421,1.05389,1.05468,0.00340788,0.00336158,1.07371,1.07399,0.00319344,1.18435,0.00350543,1.07072,1.07224,1.07328,1.07405,1.07753,1.07677,1.07569,1.07622,1.07666,1.0723,1.07488,1.07741,1.07852,1.06966,1.07349,1.07625,1.07888,1.07828,1.07901,1.07909,1.08526,1.09163,1.09296,1.2036,1.10128,1.10192,1.10382,1.10973,1.11154,1.11456,1.10751,1.10908,1.108,1.10802,1.10492,1.10507,1.1039,1.09836,1.11617,1.12282,1.12414,1.09434,1.10259,1.11621,1.11257,1.12744,1.13005,1.11536,1.09761,1.08886,1.09146,1.09719,1.1057,1.09369,1.0929,1.11117,1.07059,1.05663,1.04132,1.0491,1.06669,1.0503,1.08873,1.08895,1.13181,1.12843,1.12818,1.18449,1.2092,1.19485,1.21928,1.22496,1.26047,1.25811,1.32964,1.39466,1.42696,1.41654,1.56106,1.55735,1.54081,1.62245,1.73616,1.74564,1.76882,1.73893,1.70569,1.75065,1.73829,1.74185,1.74031,1.74988,1.75432,1.7709,1.74717,1.74619,1.74517,1.74124,1.7309,1.74272,1.73062,1.72661,1.72315,1.71171,1.71134,1.69616,1.69444,1.70505,1.70424,1.67971,1.63235,1.66877,1.66777,1.66883,1.64103,1.6725,1.62116,1.61429,1.61678,1.56997,1.56162,1.56076,1.545,1.54803,1.55149,1.5504,1.54724,1.53176,1.52961,1.50248,1.4802,1.46711,1.45381,1.4348,1.43356,1.42087,1.41987,1.42382,1.41557,1.41005,1.40857,1.39455,1.39444,1.42283,1.40026,1.38383,1.38428,1.45193,1.45802,1.45783,1.38518,1.38764,1.39437,1.38547,1.40882,1.37835,1.39276,1.39887,1.39746,1.41759,1.41139,1.38243,1.38011,1.38474,1.42408,1.45152,1.43248,1.42738,1.45849,1.42371,1.45206,1.45672,1.48728,1.47413,1.47516,1.47539,1.50008,1.51198,1.51019,1.51009,1.60122,1.59544,1.59534,1.57426,1.57176,1.56616,1.57176,1.57956,1.57759,1.57758,1.57542,0.00337637,0.00385752,1.59574,1.59513,1.59341,1.59521,1.58981,1.58944,1.66836,1.61223,1.61153,1.61701,1.62375,1.62084,1.63062,1.6353,1.63397,1.6449,1.6511,1.64724,1.64787,0.00350271,0.00360888,1.68468,1.67986,1.68636,1.69363,1.69671,1.70122,1.69869,1.70662,1.7129,1.72229,1.71989,1.71976,1.76064,1.75821,1.76609,0.00358092,2.2895,0.0038416,0.00396957,0.00354924,1.78726,1.79018,1.78495,1.88036,1.81429,1.8108,1.82074,1.81777,1.82353,1.81996,1.81924,1.82982,1.82594,0.00347977,1.8374,1.83739,1.85246,1.85136,1.85297,1.85063,0.00358248,1.8794,1.88108,0.00352886,1.88697,1.89063,0.0033932,1.91395,1.90775
0.959644,0.947093,0.949001,1.04588,1.04421,1.05201,0.976699,0.983779,0.987453,1.15828,1.00608,1.00773,1.00933,1.01192,1.01354,1.01959,1.02441,1.02569,1.02719,1.02837,1.04227,1.04619,1.0512,1.05651,1.05974,1.05265,1.05001,1.05023,1.04775,1.04775,1.04804,0.0033842,1.05514,1.05524,1.05319,1.0367,1.03871,1.04591,1.04726,1.05624,1.05618,1.05816,1.05521,1.05768,1.05772,1.05827,1.06192,1.06348,1.06743,1.06986,1.07124,1.0737,1.07451,1.07771,1.07611,1.07776,1.07964,1.08117,1.08547,1.0889,1.09074,1.09562,1.09858,1.10089,1.10313,1.10202,1.10459,1.10454,1.1043,1.10456,1.10583,1.10804,1.10415,1.09875,1.09961,1.10926,1.11049,1.10229,1.09553,1.09653,1.18751,1.11979,1.05643,1.04684,1.02925,1.04988,1.05043,1.05994,1.04253,1.05966,1.05882,1.04448,1.04872,1.09356,1.09404,1.06505,1.0607,1.03986,1.06893,1.10396,1.10631,1.14233,1.12648,1.17555,1.1893,1.1818,1.1962,1.19569,1.24413,1.22012,1.3105,1.36635,1.36615,1.40054,1.40883,1.55852,1.54694,1.64153,1.62119,1.72219,1.71068,1.71108,1.71763,1.75098,1.74861,1.76608,1.77257,1.76847,1.76368,1.76722,1.7807,1.80132,1.7914,1.76216,1.77312,1.75833,1.74952,1.75567,1.74617,1.74458,1.74349,1.75334,1.75424,1.72734,1.71784,1.72944,1.69174,1.72406,1.71431,1.66623,1.70896,1.69136,1.69227,1.69144,1.62108,1.62111,1.62285,0.00366946,1.62811,1.70288,1.66249,1.58896,1.55486,1.55414,1.52973,1.52765,1.49966,1.49758,1.45002,1.4485,1.46753,1.42951,1.43756,1.4174,1.42307,1.41074,1.40982,1.39399,1.3945,1.39381,1.40406,1.40643,1.43088,1.40945,1.40891,1.38554,1.38842,1.40619,1.38821,1.37497,1.38114,1.48175,1.38288,1.38759,1.39133,1.39013,1.37848,1.37351,1.39923,1.3498,1.39092,1.44404,1.43998,1.45186,1.4508,1.44275,1.43092,1.4634,1.50277,1.45697,1.50131,1.47433,1.46983,1.57176,0.00336261,0.00363877,1.49266,0.00346172,1.54557,1.54486,1.56787,1.56596,1.56576,1.57851,1.58751,1.58833,1.59146,1.58986,2.23083,0.00345089,1.59513,1.59344,1.59841,1.60056,1.59935,1.60229,2.25056,0.00376099,1.62719,1.62591,1.62389,1.62976,1.64162,1.63852,1.64473,1.65309,1.65157,1.65715,1.67135,1.67223,1.67463,1.67944,1.68718,1.68634,1.69507,1.69217,1.69736,1.69372,1.71092,1.72291,1.72283,1.71799,1.71547,1.71864,0.00369688,0.00372509,0.00371748,0.00357135,2.28586,0.00348648,0.00406484,0.00366918,1.80302,1.80182,1.81394,1.8131,1.80808,1.8057,1.83239,1.83082,1.83334,1.82954,1.82827,1.8349,1.84464,0.00359933,1.8555,1.85174,1.84783,1.84493,1.84883,0.00358823,0.00354715,0.00389999,0.0041075,1.91297,1.90968,1.92028,1.91586,1.90991
0.954512,0.964641,0.966022,0.969333,0.970193,1.3845,0.99312,0.994884,0.995732,0.997501,1.01271,1.01232,1.00877,1.00964,1.01454,1.01359,1.02584,1.03224,1.03444,1.03356,1.03442,1.17081,1.05466,1.05481,1.05431,1.05428,1.05571,1.0569,1.04297,1.04462,1.04631,1.03598,1.03259,1.03553,1.03453,1.03548,1.03528,1.03544,1.03837,1.04465,1.04639,1.04859,1.05168,1.0575,1.0573,1.05844,1.05924,1.06109,1.06427,1.06681,1.07205,1.07496,1.07827,1.07747,1.07854,1.07726,1.07849,1.07946,1.08294,1.08452,1.08769,1.09115,1.0942,1.09449,1.09688,1.09948,1.10146,1.10259,1.10496,1.11898,1.11945,1.10478,1.10934,1.10892,1.13174,1.06543,1.12048,1.10511,1.10501,1.10529,1.06068,1.06365,1.06383,1.05819,1.068,1.06889,1.01858,1.06173,1.03701,1.03783,1.05961,1.05998,1.08034,1.04183,1.01701,1.01736,1.01904,1.02585,1.05054,1.11509,1.11488,1.11669,1.1578,1.18545,1.20826,1.20827,1.2286,1.21233,1.25745,1.2645,1.35331,1.35459,1.38101,1.38979,1.44939,1.52285,1.60597,1.65074,1.64446,1.68892,1.68583,1.67907,1.74463,1.7403,1.75734,1.74257,1.78939,1.81451,1.81467,1.81295,1.82922,1.83047,1.79824,1.79173,1.7809,1.79975,1.78496,1.77524,1.74865,1.74981,1.7559,1.75004,1.74891,1.75452,1.74166,1.7614,1.72041,1.71919,1.79742,1.69331,1.71922,1.71618,1.71641,1.71587,1.64753,1.64513,1.69402,1.69158,1.62822,1.61449,1.64814,1.64592,1.56954,1.55821,1.55694,1.51006,1.49861,1.49871,1.45068,1.45028,1.45836,1.43631,1.45445,1.41879,1.40188,1.40471,1.40687,1.4103,1.38593,1.4435,1.38889,1.38604,1.38133,1.49559,1.39121,1.38995,1.41539,1.39573,1.38108,1.41139,1.38045,1.38152,1.38734,1.38799,1.42629,1.41376,1.38001,1.38893,1.37868,1.38723,1.42225,1.43544,1.43077,1.44127,1.4443,1.42873,1.44758,1.45462,1.45226,1.46299,1.45904,1.45897,1.44964,1.4593,1.58222,0.00352551,0.00357224,0.00348361,1.54668,1.54956,1.5652,1.5645,1.57608,1.57742,1.58714,1.58583,1.58924,1.59191,1.60177,1.60023,1.59366,1.59675,1.59667,1.60276,2.19758,2.01254,0.00352936,1.61256,1.62369,1.62624,1.62775,1.63559,1.63756,1.63825,1.64967,1.64843,0.00300508,0.00357917,1.66936,1.67387,1.67355,1.67832,1.68296,1.69571,1.69408,1.69633,1.71154,1.71327,1.70991,1.71357,1.71484,1.71414,1.7117,0.00362653,0.00373551,0.0105375,0.00343594,0.00342312,0.00364094,0.00352142,1.79196,1.78892,1.80095,1.80097,1.79941,1.81379,1.8171,1.82486,1.82288,1.82907,1.82764,1.8356,1.83482,1.84498,1.84833,1.86024,1.8618,1.85514,1.854,1.85245,1.88667,1.89251,0.00369187,0.00337409,0.00329207,0.0037777,1.91775,1.91789,0.00366236,0.010823
0.968349,0.963049,0.967138,0.967957,0.991305,0.991771,0.993122,0.993696,0.995792,0.998317,1.00776,1.00894,1.01015,1.01101,1.01868,1.0205,1.02688,1.02984,1.0301,1.03484,1.03905,1.03644,1.03728,1.03564,1.0324,1.0318,1.03088,1.03063,1.0302,1.03037,1.02983,1.02976,1.03,1.02963,1.02827,1.02864,1.02999,1.03134,1.0348,1.03629,1.03847,1.0395,1.04504,1.05616,1.05769,1.05579,1.05894,1.06059,1.08194,1.07087,1.06996,1.07049,1.07708,1.0762,1.07686,1.07413,1.07738,1.07845,1.08068,1.08346,1.08528,1.08735,1.08962,1.09387,1.09499,1.09917,1.10161,1.10317,1.10789,1.1082,1.10637,1.1039,1.10168,0.0034149,1.05946,1.12715,1.12754,1.12803,1.02594,0.00350233,1.05811,1.05493,1.05249,1.06174,1.06308,1.00874,1.00713,0.991635,1.0014,1.03086,1.06034,1.06499,1.02596,1.04609,1.0267,1.00826,1.01282,1.01331,1.01011,1.06332,1.07613,1.13303,1.1421,1.19549,1.19669,1.19345,1.20572,1.21868,1.21747,1.26641,1.3736,1.3848,1.3854,1.40621,1.44858,1.49662,1.62802,1.63701,1.65053,1.71499,1.72989,1.76895,1.76113,1.81778,1.81646,1.77992,1.79542,1.82865,1.82785,1.81977,1.81113,1.8242,1.81468,1.81307,1.79648,1.78777,1.84741,1.79562,1.77839,1.78505,1.75146,1.74582,1.74233,1.75619,1.77978,1.77002,1.71764,1.71599,1.80494,1.74185,1.69227,1.69285,1.72045,1.68347,1.67151,1.63122,1.6624,1.60678,1.60326,1.60016,1.63043,0.0036793,1.6313,1.54662,1.51472,1.56485,1.48197,1.47841,1.48997,1.4902,1.44824,1.43369,1.42513,1.41571,1.41495,1.41423,1.42006,1.40707,1.38707,1.39001,1.3899,1.38728,1.38944,1.38871,1.36564,1.36248,1.4031,1.38911,1.36747,1.37531,1.388,1.38908,1.42071,1.39921,1.41412,1.41275,1.41322,1.38195,1.37249,1.41629,1.41367,1.43155,1.44294,1.44687,1.43707,1.43283,1.47587,1.47633,1.45324,1.45262,1.46818,1.44675,1.44666,1.447,1.4584,1.59156,1.59627,1.59538,1.54043,1.60876,1.61543,1.61433,1.57618,1.58585,1.59433,1.59657,1.59534,1.59939,1.59919,1.60101,1.60933,1.60732,1.60337,1.60644,1.6077,1.60616,1.60423,0.00343249,1.62166,1.62818,1.63026,1.63581,1.64096,1.63981,1.6444,1.63893,0.0165782,1.65994,1.66739,1.67222,1.68026,1.68114,1.68854,1.70252,1.69387,1.69343,1.70546,1.71928,1.71519,1.71306,1.70601,1.70672,0.00378076,0.00345751,0.0038381,0.00367874,2.27696,0.00363466,1.77964,1.77694,1.78626,1.79511,1.79188,1.79826,1.79808,1.80957,1.81011,1.81824,1.81731,1.81794,1.82742,1.8393,1.84057,0.00370857,1.85667,2.00065,1.87922,1.87863,1.87891,1.87546,1.88295,1.88987,0.00380279,1.90818,0.00379954,0.00360421,0.00351331,0.00362047,1.93479,0.0036279
0.970495,0.971237,0.964284,0.974745,0.982451,0.986312,0.986702,0.98677,0.988767,0.991678,0.989009,0.990979,0.993294,0.996111,1.00495,1.00914,1.00553,1.00487,1.01207,1.02033,1.02358,1.02496,1.02652,1.01548,1.01181,1.01197,1.01889,1.02534,1.02648,1.02569,1.02703,1.02701,1.02524,1.02335,1.02212,1.0218,1.02145,1.02155,1.02321,1.0242,1.02534,1.03659,1.0366,1.0503,1.0547,1.05689,1.05905,1.05821,1.05991,1.06152,1.06696,1.07291,1.07315,1.07332,1.07364,1.07077,1.0716,1.074,1.07583,1.07771,1.07972,1.08524,1.0879,1.09082,1.09594,1.09548,1.09295,1.09299,1.10321,1.09987,1.09956,1.0985,1.09612,0.00355951,0.00362781,0.00364518,1.01759,1.01937,1.01163,0.997974,0.992446,1.03598,1.03721,1.04735,1.0569,0.986901,0.989104,1.00935,1.01117,1.04973,1.00094,1.00113,1.00874,1.0646,1.07538,1.07729,1.01618,1.00933,1.01244,1.07349,1.07462,1.11903,1.11681,1.21953,1.22497,1.23445,1.21379,1.20266,1.246,1.26382,1.34496,1.37713,1.39224,1.39296,1.45844,1.59848,1.59557,1.64143,1.69129,1.69895,1.69785,1.75782,1.75971,1.77378,1.76949,1.83354,1.85336,1.83008,1.83238,1.83112,1.83339,1.82472,1.8155,1.83101,1.83124,1.81755,1.87399,1.87196,1.86773,0.00349174,1.76699,1.76415,1.75725,1.74811,1.75316,1.76258,1.755,1.72739,1.73615,1.77011,1.76953,1.67485,1.66025,1.65488,1.68211,1.63669,1.62125,1.61637,1.60355,1.60189,1.60114,1.7446,0.00357295,1.54553,1.50746,1.5036,1.48542,1.50009,1.46613,1.46229,1.46968,1.47776,1.46422,1.45852,1.45722,1.42263,1.41647,1.40004,1.3985,1.40843,1.41549,1.38255,1.38406,1.39675,1.34791,1.3483,1.34732,1.36408,1.36264,1.36986,1.37786,1.37752,1.37892,1.40255,1.39421,1.39484,1.4025,1.37403,1.38711,1.39463,1.44672,1.4478,1.45163,1.45037,1.49745,1.49329,1.49352,1.49058,1.4602,1.50846,1.5069,1.57791,1.44733,1.44736,1.45067,1.44884,1.47836,1.58747,0.00357867,1.51603,1.60112,1.6017,1.57943,1.59719,1.59595,1.59695,1.60102,1.6003,1.60124,1.60586,1.60317,1.60605,1.61576,1.61603,1.60611,1.60544,1.60022,1.60852,1.61086,2.23477,0.00384358,1.63733,1.63764,1.63679,1.63702,1.63391,1.63292,1.63478,0.00361628,1.67272,1.68549,1.69013,1.69365,1.70008,1.70128,1.7003,0.00344971,0.0108675,0.00381212,0.0036358,0.00382762,0.00328072,0.0036254,0.00379118,0.00381748,1.97756,1.77076,1.77013,1.78008,1.78638,1.78461,1.7845,1.78934,1.78971,1.79726,1.80303,1.81263,1.81457,1.81545,1.81298,1.83057,1.83716,1.85117,1.85523,1.85919,1.87205,1.8715,1.86888,1.87261,1.88626,0.00349804,0.00400357,0.00340511,0.0107588,0.00358613,0.00421374,0.00382739,1.94538,1.95093,1.94743
0.969927,0.972648,0.975061,0.975701,0.98179,0.983951,0.982959,0.983647,0.984624,0.986582,0.986768,0.987665,0.977156,0.978026,0.990743,0.989934,0.985269,0.98632,1.00441,1.00552,1.00246,1.00256,1.00012,1.00118,1.00732,1.00567,1.01424,1.01672,1.01771,1.01308,1.01303,1.01108,1.01074,1.01178,1.01296,1.01434,1.00357,1.0042,1.01524,1.01659,1.02509,1.02878,1.03277,1.03725,1.04747,1.05063,1.05403,1.0541,1.05639,1.05797,1.06035,1.06258,1.07238,1.07256,1.07026,1.07025,1.06884,1.06953,1.06967,1.07233,1.07838,1.08202,1.08572,1.09175,1.09219,1.09376,1.09382,1.09507,1.09677,1.10114,0.00365438,0.00360342,0.00348211,0.00333467,1.01555,1.01501,1.01837,1.00972,0.988225,0.989338,0.992403,0.996767,0.997656,0.986427,0.986371,0.994644,0.995962,1.00033,1.02829,1.08127,1.05407,1.03265,1.01259,1.01463,1.03968,1.05398,1.07537,1.02249,1.01315,1.01346,1.01695,1.11822,1.11178,1.10373,1.16215,1.2025,1.20542,1.23342,1.22918,1.22967,1.30999,1.34391,1.35488,1.38144,1.47608,1.47489,1.59968,1.64861,1.66624,1.66552,1.7035,1.73914,1.75719,1.77539,1.8136,1.81643,1.85427,1.85175,1.85133,1.85517,1.8365,1.82535,1.83548,1.82285,1.82009,1.81676,1.8149,1.83757,1.83625,1.84395,1.84879,1.78705,1.78551,1.79248,1.77262,1.789,1.74274,1.74454,1.74721,1.72648,1.7232,1.70147,1.6836,1.67914,1.67497,1.63874,1.63415,0.00324864,1.61975,0.00338195,1.61783,1.59839,1.59696,1.52875,1.51479,1.51477,1.49178,1.48923,1.48937,1.50541,1.47096,1.49158,1.48604,1.48622,1.52193,1.52087,1.5237,1.52789,1.40537,1.40464,1.40636,1.4129,1.57911,1.3704,1.35096,1.34466,1.36432,1.3637,1.37923,1.38543,1.38544,1.38356,1.53679,1.53621,1.41886,1.36394,1.35518,1.38586,1.38046,1.37936,1.4111,1.42609,1.42406,1.43049,1.42933,1.50529,1.47252,1.46857,1.46865,1.48493,1.48384,1.48536,1.47808,1.461,1.46026,1.47818,1.48162,0.00354045,0.00377914,0.00325664,1.56181,0.00352656,1.59262,1.5914,1.59321,1.59688,1.59939,1.60852,1.60558,1.60685,1.60773,1.60724,1.61215,1.61153,1.60964,1.61321,1.62047,1.62099,1.63019,1.63746,1.64038,1.63993,1.64282,1.64108,0.003626,1.63127,1.6273,1.66812,1.66927,1.6714,0.00358726,0.00364175,1.69503,1.70075,1.71139,1.71396,1.71162,0.00391246,1.73464,0.00380959,0.00349163,0.00369392,0.00350554,0.003371,1.77653,1.77477,1.76923,1.7764,1.7804,1.78798,1.7859,1.79266,1.79184,1.79417,1.79601,1.79239,1.99349,0.00325286,1.82301,0.00393704,0.00387039,0.00364883,0.00378926,0.00335738,1.88111,1.87857,0.00353176,0.00386925,0.00340822,0.00390063,0.00416527,0.00384223,2.20258,0.003659,0.00354308,0.00350625,0.00447622,0.00349681,0.00351169,1.96025
0.967758,0.96596,0.969997,0.971415,0.97459,0.978119,0.980511,0.979165,0.980117,0.979399,0.981754,0.980906,0.980853,0.978017,0.981365,0.981616,0.983923,0.985452,0.993296,0.995517,0.994889,1.00058,1.00386,1.00551,1.00227,1.00433,1.00513,1.0107,1.00456,1.00626,1.00767,1.00763,1.00829,1.00835,1.00926,1.01028,1.00779,1.00881,1.01376,1.01362,1.0224,1.02337,1.02287,1.02308,0.00360328,1.04425,1.04635,1.04727,1.0498,1.05265,1.05508,1.06523,1.06834,1.52815,1.06848,1.07042,1.06918,1.07038,1.07049,1.07948,1.08077,1.08223,1.08394,1.08658,1.09046,1.08885,1.09087,1.08603,1.08664,1.08036,0.00354549,1.03952,1.03846,1.12333,1.12309,1.12574,1.03539,1.07631,1.1334,1.12956,1.12615,1.12606,1.12912,0.982541,0.985797,0.986946,1.00462,1.00532,1.02015,1.03059,1.03586,1.03251,1.04054,1.04295,1.0385,1.03323,1.03381,1.05658,1.02438,1.02588,1.04192,1.04934,1.12601,1.09972,1.10251,1.13503,1.16197,1.25927,1.22299,1.23875,1.30314,1.30682,1.32879,1.32607,1.48027,1.46263,1.63039,1.64507,1.6574,1.68788,1.7305,1.74512,1.78905,1.83041,1.83013,1.80972,1.8118,1.84837,1.84777,1.84289,1.85905,1.85622,1.85454,1.83904,1.83771,1.84288,1.8423,1.83464,1.83039,1.83223,1.83428,1.80191,1.79942,1.77704,1.77418,1.77431,1.7793,1.77674,1.72745,1.7346,1.73391,1.68237,1.67561,1.67676,0.00334434,1.711,1.73769,1.64365,0.00353978,0.00393239,1.5789,1.57538,1.5738,1.52908,1.52203,1.51413,1.50776,1.52832,1.55852,1.48831,1.48706,1.48134,1.48004,1.51419,1.48859,1.4867,0.00352531,1.42781,1.42654,1.43274,1.39645,1.3971,1.37296,1.37986,1.37133,1.34773,1.34695,1.35833,1.37913,1.39812,1.39811,1.40131,1.41007,1.4026,1.40544,1.3648,1.37358,1.39527,1.39655,1.38211,1.41461,1.43666,1.43134,1.43414,1.43873,1.45407,1.45328,1.55473,1.46843,1.58538,1.52086,1.51991,1.46748,1.4676,1.46868,1.47754,0.00334459,0.00378404,0.00358287,1.58427,1.58248,1.5879,0.00347695,1.6082,1.60952,1.61245,1.61443,1.61113,1.61104,1.60969,1.61523,1.61913,1.61977,1.62157,1.62431,1.63194,1.6367,1.63631,1.63362,1.64204,1.6414,1.64149,0.00329095,1.6543,1.66281,1.66068,1.66964,1.67812,1.68644,1.68492,1.69176,0.00384687,1.70913,1.71853,0.00332795,1.72971,1.72889,1.75159,1.74997,0.00364934,0.00358234,1.77927,1.78571,1.78923,1.78887,1.78972,0.00350159,0.00351709,0.00375148,0.00348468,0.00343677,0.00350844,1.83687,1.83399,0.003594,0.00407003,0.00391061,0.00364211,0.00326989,0.00345547,0.00347267,1.89804,1.89902,1.90415,1.90281,1.91051,1.90498,1.90355,2.1449,0.00385528,0.00351588,0.00415522,0.00380854,2.19759,0.00355909,0.00328879,0.00358131,1.97896,1.98646,1.98082
0.974763,0.97615,0.97351,0.972864,0.975256,0.975706,0.963425,0.965306,0.965121,0.975887,0.97796,0.974461,0.97601,0.975669,0.973918,0.977503,0.979652,0.981828,1.16561,0.994645,0.99614,0.999921,0.998857,1.00166,1.00402,1.00135,0.998403,1.00327,1.00358,1.00474,1.00355,1.00925,1.01265,1.01141,1.01193,1.01452,1.01562,1.01587,1.01742,1.02186,1.02738,1.02836,1.03336,1.03447,1.03896,1.04169,1.04487,1.04675,1.05121,1.06054,1.06095,1.06655,1.06475,1.06411,1.06545,1.06599,1.06413,1.06775,1.06809,1.07088,1.07186,1.07282,1.07449,1.07649,1.07839,0.00351209,1.07861,1.08174,1.08147,1.05255,1.04713,1.08528,1.04808,1.05372,1.08691,1.08796,1.0689,1.03268,1.07029,1.10166,1.1004,1.06441,1.06618,1.06701,1.05943,1.0475,1.04946,1.03635,1.04941,1.04573,1.04341,1.04633,1.05025,1.0114,1.05223,1.04716,1.04723,1.03282,1.03062,1.03903,1.08204,1.03692,1.07796,1.14008,1.12231,1.12649,1.18634,1.20273,1.21208,1.2305,1.28993,1.29809,1.32394,1.40658,1.47272,1.48345,1.53206,1.68237,1.69506,1.73259,1.74728,1.75612,1.75663,1.82174,1.81096,1.8253,1.82759,1.83856,1.84251,1.84128,1.87174,1.89425,1.89255,1.89471,1.8741,1.88764,1.8828,1.88398,1.84313,1.83511,1.83246,1.82789,1.80518,1.79415,1.78468,1.81414,1.77213,1.77143,1.76102,1.83817,1.83792,1.70098,1.74056,1.70879,1.72068,1.69257,1.68976,1.69551,1.69645,1.60588,1.66473,1.61526,1.62763,1.55764,0.00350655,1.54762,1.53334,1.55668,1.50996,1.50969,1.4916,1.50296,1.48011,1.46887,1.46663,1.46714,1.44784,1.44678,1.43597,1.43604,1.43456,1.40035,1.40022,1.40513,1.37132,1.35882,1.358,1.35885,1.37308,1.3748,1.40792,1.43839,1.43678,1.42182,1.40123,1.41356,1.40622,1.38775,1.39999,1.39821,1.4201,1.43391,1.4446,1.51029,1.51303,1.5381,1.53554,1.5281,1.52488,1.4914,1.49092,1.52288,1.48042,1.48229,1.58043,0.00334565,1.58723,1.58372,1.58433,1.60034,1.61034,1.61125,1.6196,1.61934,1.61935,1.62397,1.62501,1.62295,1.62459,1.62735,1.6305,1.62851,1.62945,1.63046,1.63364,1.63778,0.00366675,1.6462,1.65175,1.64603,0.00374714,0.00344345,0.00330019,0.00322655,1.67261,1.67004,1.68155,0.00355246,0.00370533,0.00349711,0.00297161,0.00353001,0.0036831,0.00351988,1.75053,1.75104,1.74274,0.00352664,0.00365212,0.00374926,1.79888,1.79702,1.80536,1.80284,1.80207,1.80498,0.00357871,2.083,2.08014,1.85031,1.84745,0.00346264,1.86788,1.87186,1.87677,0.00346645,2.08874,0.00326194,1.89484,1.89351,0.0035978,1.91653,1.91391,1.92032,1.9164,1.9148,1.93022,1.92584,0.00343135,0.0035864,0.00374593,0.00348971,0.0038895,0.00327066,0.00362065,1.97414,1.99336,1.99034,2.00356,1.9991
0.983793,0.984441,0.97107,0.973271,0.962516,0.961428,0.962962,0.964086,0.96558,0.966466,0.97699,0.978349,0.980008,0.977373,0.972851,0.973971,0.981424,0.981174,0.981308,0.987315,1.00171,1.00166,0.999074,0.998189,0.998401,0.998688,0.997546,1.00496,1.0063,1.00843,1.01559,1.0152,1.01485,1.01741,1.01837,1.02141,1.02063,1.0188,1.01895,1.02133,1.02278,1.02452,1.02141,1.02181,1.02797,1.03591,1.03535,1.04176,1.04295,1.04994,1.05507,1.06017,1.0566,1.05721,1.05216,1.05334,1.23666,1.06072,1.06122,1.06178,1.06282,1.06385,1.06564,1.06689,1.06929,1.07098,1.07357,1.07526,1.07538,1.05837,1.05196,1.05029,1.08206,1.082,1.08285,1.08074,1.0659,1.0677,1.05305,1.05511,1.05706,1.04954,1.04984,1.05502,1.05549,1.05491,1.06503,1.06713,1.08492,1.04772,1.04352,1.07696,1.07811,1.03204,1.10042,1.07679,1.03996,1.04437,1.09056,1.0745,1.07574,1.06902,1.07546,1.07729,1.14109,1.15206,1.15327,1.16581,1.20887,1.26439,1.30958,1.30255,1.37198,1.42354,1.47058,1.51292,1.57248,1.70811,1.71651,1.7562,1.77035,1.80499,1.80435,1.84019,1.82963,1.83887,1.84816,1.84796,1.84203,1.89764,1.89959,1.89676,1.9555,1.87081,1.86679,1.86493,1.85913,1.8584,1.85729,1.86822,1.86478,0.00330932,1.82308,1.81968,1.79795,1.79551,1.78621,1.7817,1.77984,1.74261,1.77879,1.74311,1.74196,1.67416,1.66586,1.66474,1.65867,1.62317,1.61609,1.61237,1.61988,1.58703,1.58553,1.56847,1.56795,1.56227,0.00356102,1.52821,0.00354744,1.53999,1.53928,1.52116,1.52949,1.46537,1.46394,1.49875,1.49298,1.44668,1.44759,1.43455,1.44287,1.43416,1.43397,1.39214,1.37554,1.36653,1.36642,1.38234,1.38883,1.42962,1.43127,1.42618,1.40709,1.4233,1.4332,1.43135,1.43564,1.41904,1.42311,1.42145,1.44406,1.49789,1.52815,1.49194,1.49147,1.49045,1.50168,1.5037,1.50256,1.51263,1.4971,1.56201,1.51473,1.51387,0.0037404,1.58426,1.59555,1.5942,1.60546,1.6192,1.61975,1.62021,1.63417,1.63261,1.63296,1.63029,1.63372,1.63291,1.63074,1.63183,1.63768,1.64399,1.64405,1.64594,1.64543,1.6622,1.66242,1.66325,1.66185,1.66319,1.66606,1.66459,1.67958,1.68061,0.00369018,1.69786,0.00377248,0.00356194,1.73524,0.00374187,0.00394823,1.75551,1.75309,1.75676,1.75803,0.00327894,0.00336633,0.0035544,1.80921,1.80536,1.80266,1.81437,1.81285,1.81103,0.00381609,2.03955,2.03917,0.00383936,0.00372458,0.00348425,0.0037697,2.04836,1.89041,1.89333,1.89802,1.8982,1.89697,1.90322,1.91136,1.91296,1.9144,1.92371,1.93209,1.93191,1.93791,1.93672,1.93399,1.94926,0.00367811,0.00354461,0.00363907,0.00377271,0.00390743,0.00370827,0.00346576,0.00354441,2.00851,2.00645,2.00447,2.01606
0.965325,0.96519,0.966505,0.961317,0.963366,0.963694,0.964303,0.966227,0.967763,0.970282,0.971453,0.972998,0.975142,0.980902,0.982073,0.981901,0.983639,0.985701,0.987239,0.992349,0.994609,0.998933,1.00099,1.00267,1.00301,1.00561,1.00895,1.01135,1.01262,1.01396,1.01531,1.01805,1.01821,1.02144,1.02259,1.02386,1.02383,1.02152,1.01196,1.0096,1.01232,1.01252,1.01861,1.02823,1.03176,1.03724,1.04352,1.04562,1.04585,1.04704,1.04926,1.04738,1.05386,1.05536,1.0555,1.05316,1.05585,1.05706,1.05941,1.06115,1.06408,1.06586,1.06908,1.06991,1.06409,1.08853,1.09015,1.07693,1.07837,0.00330357,1.34186,1.06008,1.06073,1.07476,1.07643,1.06563,1.11577,1.07804,1.06599,1.09073,1.15339,1.07266,1.15706,1.05049,1.06073,1.0612,1.09981,1.07279,1.0845,1.09465,1.07752,1.07071,1.07037,1.08358,1.09398,1.06896,1.04309,1.01476,1.03864,1.06395,1.05758,1.06912,1.12437,1.13297,1.13549,1.13309,1.15134,1.16349,1.16863,1.34038,1.34052,1.37083,1.41613,1.41757,1.55292,1.57671,1.61075,1.68018,1.69237,1.74572,1.77311,1.7695,1.8319,1.8197,1.8446,1.84084,1.84867,1.86245,1.86952,1.86831,1.87486,1.87991,1.87999,1.87959,1.87903,1.87347,1.88169,1.89036,1.87915,1.87545,1.84088,1.83671,1.831,1.82968,1.81122,1.80984,1.82092,1.7632,1.76132,1.7391,1.74066,1.72715,1.74862,1.7258,1.77146,1.64212,1.63795,1.66267,1.66407,1.65545,1.59235,1.5921,1.59306,1.56574,1.56431,1.54233,1.52995,1.57867,1.51502,1.51552,1.52319,1.49784,1.47621,1.45834,1.45596,1.4522,1.44536,1.44787,1.43783,1.45061,1.45063,1.44083,1.42132,1.3838,1.38404,1.38946,1.40127,1.45011,1.44741,1.44739,1.42445,1.42632,1.41548,1.42422,1.43868,1.43452,1.45339,1.45505,1.44636,1.48182,1.46259,1.50671,1.48399,1.47855,1.49956,1.51769,1.52056,1.57101,1.56972,1.53778,1.55529,1.54771,1.55381,1.61821,1.59485,1.59542,1.61137,1.60939,1.62306,1.62561,1.63416,1.64074,1.6435,1.6444,1.64312,1.63803,1.63816,1.64804,1.65779,1.65409,1.65089,1.65175,1.65857,1.6615,1.67846,1.67546,1.67904,0.00330694,1.68591,1.68731,1.69487,1.69676,0.003791,0.00389473,0.00392312,0.00344376,0.00324772,0.00354623,1.74821,0.00372113,1.75831,0.00331018,1.78302,1.77962,1.77791,2.00404,1.79792,0.00344667,0.00355974,1.8303,1.83538,0.00372327,0.00375975,0.00381612,0.00361063,0.003156,0.0036098,0.00369805,0.0034408,1.88857,1.89145,1.89576,1.89334,1.89708,1.9031,1.90524,1.9078,1.90828,1.92088,1.92138,1.92176,1.94007,1.9365,1.93953,1.94118,1.9512,1.95941,1.95963,1.96064,1.96642,1.97518,1.97033,1.97944,1.99112,1.99088,1.99973,2.00532,2.01697,2.02062,2.03128
0.965392,0.96321,0.962587,0.963683,0.964564,0.966868,0.967083,0.972945,0.972122,0.972903,0.974266,0.976508,0.976565,0.979182,0.983669,0.984203,0.991498,0.993387,0.9974,1.00277,1.00546,1.0066,1.20399,1.20577,1.31613,1.20636,1.01298,1.01806,1.01897,1.01899,1.02103,1.02151,1.02671,1.18095,1.19856,1.19903,1.20087,1.19958,1.01869,1.01628,1.01493,1.01623,1.0274,1.03212,1.03554,1.03873,1.03875,1.0407,1.0492,1.05101,1.04542,1.04537,1.04669,1.04926,1.05068,1.05452,1.0565,1.21482,0.00329203,1.06682,1.06777,1.06854,1.07351,1.05981,1.05394,1.06208,1.09241,1.08818,1.08927,1.08738,0.00350883,1.08818,1.0896,1.09155,1.09127,1.08512,1.0812,1.08353,1.06799,1.15142,1.08783,1.07243,1.07352,1.05166,1.04787,1.06162,1.06193,1.08437,1.08358,1.07773,1.07432,1.08403,1.06589,1.04217,1.03854,1.0229,1.02122,1.03296,1.01107,1.03316,1.03912,1.07601,1.14612,1.13541,1.13574,1.13934,1.18497,1.17042,1.25853,1.2604,1.33665,1.37498,1.37294,1.36708,1.50305,1.56192,1.60719,1.65892,1.65681,1.76888,1.76594,1.81079,1.86275,1.83802,1.85464,1.8724,1.87221,1.87089,1.8688,1.87184,1.87151,1.89727,1.89167,1.8863,1.90305,1.90151,1.90072,1.85398,1.85146,1.84868,1.83367,1.83026,1.82148,1.83065,0.00372559,1.81387,1.81253,1.75081,1.75832,1.76995,1.81479,1.73892,1.7375,1.74449,1.74249,1.67534,0.0036105,0.00391697,1.64843,1.59389,1.5926,1.58684,1.55858,1.55653,1.58363,1.58431,1.5721,1.58591,1.50365,1.49562,1.50373,1.48164,1.46554,1.46618,1.47437,1.45452,1.45407,1.44212,1.44445,1.44245,1.43664,1.43597,1.42592,1.42401,1.42456,1.44698,1.4272,1.44528,1.43673,1.43727,1.44012,1.42743,1.41775,1.41011,1.42574,1.45594,1.44221,1.45645,1.47379,1.48584,1.47896,1.4839,1.54318,1.49894,1.54876,1.54861,1.57322,1.54159,1.54105,1.53897,1.55353,1.55278,1.56403,1.56854,1.57237,1.6024,1.60756,1.61357,1.62637,1.62927,0.00365751,1.64397,1.64695,1.64706,1.64531,1.6453,1.64276,1.65632,1.65812,1.65599,1.65276,1.94888,1.97139,0.00382397,1.68253,1.67744,1.67868,1.92808,0.00333943,0.00345483,0.00332236,0.00340865,0.00364618,0.00387794,0.00333643,0.00358533,0.0036045,0.0032917,0.00384769,1.77983,1.77631,1.78292,1.78479,1.78368,0.00341981,1.82111,0.00338824,0.00367513,0.00327308,1.84077,1.84778,1.85778,1.852,0.00365242,0.00337308,1.8834,1.88184,1.87915,1.89335,1.88989,1.89902,1.90357,1.90114,1.90309,1.90943,1.91372,1.91269,1.9112,1.91997,1.92434,1.93071,1.93504,1.93811,1.94548,1.94389,1.96087,1.9591,1.96596,1.9633,1.96679,1.97303,1.97955,1.98034,1.99091,1.98937,0.00352051,2.01424,2.0249,2.02174,2.01842
0.96064,0.961252,0.963705,0.965859,0.966369,0.96324,0.965054,0.966592,0.974384,0.975691,0.976363,0.977725,0.979279,0.981691,0.986627,0.989219,0.992321,0.993006,0.998027,1.00463,1.00466,0.00343569,0.982463,0.983647,1.2157,1.21544,1.21881,1.22149,1.01562,1.01821,1.01855,1.02122,1.02171,1.22774,0.99789,0.999805,1.21484,1.19578,1.02583,1.02847,1.02556,1.02487,1.0261,1.02872,1.03005,1.03208,1.03885,1.03955,1.03969,1.04235,1.04609,1.04785,1.04773,1.04805,1.05251,1.05299,1.05125,1.05146,1.28753,1.28795,1.06872,1.07222,1.07778,1.07958,1.0818,1.08818,1.08962,1.09361,1.09169,1.09125,1.09157,1.12311,1.09603,1.09084,1.09782,1.07409,1.0759,1.08706,1.15455,1.07474,1.08055,1.07079,1.10997,1.11073,1.06233,1.06244,1.05815,1.06142,1.0886,1.0769,1.07721,1.09417,1.08186,1.08261,1.03746,1.01882,1.02645,1.01156,1.0341,1.0295,1.03289,1.03527,1.08454,1.12756,1.12821,1.1451,1.14527,1.19797,1.23266,1.29577,1.35949,1.35808,1.34403,1.37838,1.53701,1.53591,1.57918,1.62453,1.66162,1.76993,1.77611,1.77589,1.83231,1.85927,1.8579,1.85913,1.87379,1.87934,1.90242,1.87388,1.87333,1.88329,1.88197,1.88247,1.87812,1.87593,1.89305,1.89706,1.85848,1.85241,1.86344,1.8368,1.82266,0.0033997,1.80995,1.78511,1.74678,1.74405,1.77677,1.72122,1.72136,1.72302,1.73405,1.64829,1.64961,1.65155,1.70898,0.00358191,1.63963,1.59301,1.59604,1.55563,1.55334,1.547,1.53679,1.53051,1.53395,1.50423,1.5065,1.50628,1.50744,1.53149,1.46968,1.44242,1.45108,1.44975,1.44522,1.43979,1.43823,1.43785,1.42909,1.43028,1.43405,1.43341,1.44987,1.60694,1.43815,1.49878,1.44728,1.44336,1.44994,1.42414,1.4407,1.43721,1.42939,1.45433,1.45548,1.45931,1.47588,1.49588,1.49763,1.50277,1.58265,1.54171,1.55714,1.55676,1.55587,1.58034,1.57875,1.55655,1.5555,1.5464,1.57073,1.65524,1.65337,1.651,1.67988,0.00369754,1.63981,1.63719,1.63439,1.64082,1.64526,1.64596,1.64637,1.64519,1.65083,1.65484,0.00364209,1.66911,0.0036083,0.00334328,0.00363684,1.68477,1.69252,1.68967,0.00363931,0.00338926,1.71933,0.00363579,1.93202,0.00370003,0.00364118,1.92978,0.00360146,0.00376949,1.93908,1.90826,1.7799,1.79075,1.78686,1.97644,0.00360911,0.00356238,1.82146,1.82514,1.94383,0.00354093,0.00352399,1.8427,1.85017,1.85445,0.0033419,0.00383549,0.00387065,1.88244,1.88472,1.88178,1.89058,1.88783,1.89802,1.90601,1.90184,1.90607,1.91052,1.91123,1.90845,1.90791,1.92029,1.9202,1.93069,1.93454,1.9309,1.94712,1.95512,1.95794,1.9638,1.95882,1.97294,1.96777,1.97711,2.13879,1.99141,0.00345388,1.99813,0.00359768,2.01947,2.01567,2.02318,0.00342962
0.959413,0.958657,0.961342,0.942467,0.963314,0.964339,0.965534,0.972907,0.973014,0.976238,0.976471,0.975633,0.975769,0.97599,0.983475,0.988897,0.99072,0.992025,0.999868,0.999946,1.17442,0.981181,0.979051,0.981001,1.22024,1.19605,1.00501,1.00946,1.01021,1.01259,1.01854,1.0188,1.01892,1.01895,1.01931,1.1934,1.02516,1.0252,1.02722,1.02586,1.02512,1.0228,1.02297,1.02717,1.0254,1.0268,1.02909,1.02722,1.03263,1.03732,1.04222,1.04452,1.04575,1.04851,1.0525,1.0561,1.05744,1.05981,1.06286,1.06688,1.07185,1.07367,0.00329907,1.08212,1.08332,1.08724,1.08915,1.09066,1.09089,1.09,1.09123,1.09118,1.09091,1.08091,1.08184,1.10676,1.10953,1.11023,1.0834,1.10958,1.07678,1.07391,1.0745,1.07448,1.10117,1.07548,1.07483,1.04455,1.08899,1.0871,1.07966,1.10174,1.07258,1.07211,1.05386,1.02442,1.03354,1.00929,1.00891,1.00991,1.07904,1.06358,1.05922,1.09914,1.12555,1.12729,1.20968,1.20911,1.20542,1.25472,1.27245,1.27272,1.36174,1.4114,1.41197,1.43675,1.58251,1.59013,1.6316,1.74952,1.78411,1.7826,1.82163,1.82806,1.82646,1.87951,1.81655,1.93202,1.85159,1.84748,1.84546,1.85246,1.86115,1.85935,1.85071,1.87196,1.86294,1.84756,1.82759,1.82758,1.83513,1.81693,1.78213,1.76206,1.7599,1.74449,1.74411,1.72753,1.74554,1.7158,1.70636,1.67212,1.69283,1.63401,1.63221,1.62157,1.62165,0.00364319,0.00361084,1.58273,1.56319,1.55736,1.55045,1.77213,1.54269,1.54094,1.55355,1.5168,1.50447,1.5024,1.4758,1.47581,1.5107,1.44458,1.4452,1.45006,1.44866,1.44111,1.42976,1.42461,1.42546,1.46499,1.43309,1.45651,1.44217,1.44532,1.44443,1.44176,1.44139,1.44081,1.44207,1.43551,1.43292,1.42914,1.42109,1.42074,1.42306,1.43701,1.44324,1.4459,1.45991,1.4611,1.54917,1.5508,1.55116,1.54274,1.5674,1.55826,1.56388,1.56112,1.56012,1.64016,1.6405,1.65079,1.64863,0.00363359,0.00335944,1.63568,1.6442,1.62083,1.61858,1.63077,1.65392,1.64711,1.64661,1.65048,0.00356099,1.6718,0.00332958,0.00353451,0.00318538,0.00351882,0.00362531,1.89391,1.88415,1.88349,0.00358564,1.71948,1.71015,0.00381999,0.00357304,0.0034222,0.00368497,1.90086,1.77137,1.91604,1.7807,1.79709,1.79513,1.79281,1.79151,1.7904,0.00365045,1.8219,1.82728,0.00366852,0.00355565,1.85306,1.84974,1.84791,1.85776,1.85835,1.85501,0.00376858,0.00350504,1.88626,1.88316,1.88062,1.89087,1.88779,1.90229,1.9026,1.90304,1.91148,1.91176,1.91019,1.92017,1.9186,1.91766,1.92686,1.92408,1.93226,1.94083,1.93659,2.18132,0.00321095,1.96521,1.96825,1.97724,1.9756,1.97055,0.00360476,0.00350787,2.0022,0.00364151,2.20498,0.00348744,2.02302,2.02134,2.04812
0.962748,0.963599,0.962362,0.963837,0.965273,0.967878,0.969181,0.968118,0.96898,0.970776,0.973889,0.973274,0.974754,0.975315,0.979296,0.985738,0.974259,0.993502,0.9939,0.992556,0.988655,0.9888,0.987805,0.987473,0.990896,0.997404,0.999055,1.00102,1.00318,1.00475,1.0047,1.00238,1.00299,1.00506,1.01582,1.01582,1.01566,1.01604,1.01472,1.01555,1.01192,1.01303,1.01952,1.02052,1.02241,1.02258,1.02885,1.02952,1.03054,1.03798,1.04191,1.04219,1.04263,1.04293,1.04782,1.05142,1.05448,1.05968,1.06472,1.06962,1.07035,1.07307,1.07349,1.35076,1.07927,1.08252,1.08295,1.08373,1.08169,1.08215,1.08789,1.09026,1.08969,1.0901,1.0916,1.0917,1.09298,1.09438,1.09498,1.09763,1.08014,1.08768,1.07744,1.07773,1.07223,1.04933,1.0358,1.03904,1.03056,1.03272,1.043,1.08371,1.08381,1.0848,1.08184,1.08423,1.07039,1.01974,1.02277,1.02299,1.10967,1.1026,1.09454,1.06197,1.06336,1.12605,1.14949,1.1653,1.20873,1.2093,1.24696,1.27419,1.28822,1.35768,1.35705,1.44657,1.47694,1.48569,1.54683,1.58706,1.67603,1.70987,1.74227,1.79314,1.79161,1.81096,1.81788,1.8155,1.82104,1.8302,1.84594,1.86319,1.85702,1.85517,1.83321,1.82944,1.86192,1.83287,1.81806,1.81716,1.83774,1.85217,1.81679,1.78482,1.76198,1.75641,1.75431,1.71606,1.71422,1.71698,0.00358618,1.65773,1.65522,1.76778,1.68269,1.6387,1.63972,1.63058,1.60846,1.63056,1.56587,1.56205,1.56216,1.54837,1.54016,1.54058,1.53839,1.53169,1.50069,1.49226,1.49049,1.48154,1.48052,1.47137,1.47178,1.45171,1.44858,1.45354,1.50772,1.47645,1.43581,1.4341,1.43745,1.43732,1.44364,1.44486,1.44439,1.44537,1.44425,1.43842,1.44792,1.43904,1.43597,1.41423,1.4145,1.42147,1.4165,1.43642,1.48527,1.44883,1.50843,1.50675,1.52551,1.54443,1.54923,1.54842,1.55371,0.00358368,1.60254,1.60044,1.5979,1.59379,1.63659,1.60371,1.6344,0.00365876,1.6404,1.63811,1.64466,1.64771,1.64743,1.65743,1.65714,1.66024,1.65782,1.66638,1.67145,0.0037425,1.87166,0.00344406,0.00421953,0.00344178,0.00375224,0.00367685,1.83205,0.003554,1.87779,1.86512,1.86243,1.85966,1.88976,0.00314102,0.00378049,1.7785,1.77645,1.77979,1.77996,1.79191,1.7962,1.79232,1.79036,1.91195,1.92822,1.93447,1.8345,1.83386,1.83256,0.00347392,1.84959,1.85084,1.8456,1.85864,1.86525,1.85891,1.87497,1.87971,0.00364377,0.00352065,1.89251,1.88838,1.88668,1.90582,1.90691,1.90177,1.90704,1.91483,1.91818,1.91591,1.92472,1.93208,1.93787,0.00331748,1.94448,1.9346,1.95638,1.95412,1.96545,0.00354127,1.97404,1.9762,1.97272,1.96847,0.00370693,2.0094,2.01472,2.01351,2.014,2.02402,2.03486,2.02953
0.948925,0.962507,0.962194,0.962507,0.966697,0.970111,0.970144,0.970523,0.971523,0.974782,0.978638,0.976935,0.978855,0.980986,0.983739,0.985049,0.985962,0.990518,0.988234,0.98714,0.9861,0.984378,0.985016,0.985412,0.98761,0.987255,0.984492,0.985004,0.98246,0.985401,0.996262,0.997205,0.998682,0.999356,1.00482,1.00484,1.00514,1.00515,1.00286,1.00452,1.00498,1.01173,1.01393,1.01487,1.01732,1.02235,1.02478,1.02403,1.02624,1.14678,1.04249,1.04298,1.04259,1.03871,1.03934,1.25926,1.2554,1.28246,1.06397,1.06678,1.07109,1.07186,1.07382,1.07404,1.07399,1.0809,1.08239,1.08683,1.08725,1.34443,1.10473,1.1238,1.54461,0.00375875,1.10134,1.10495,1.10763,1.10776,1.10561,1.10582,1.10009,1.10096,1.09065,1.08907,1.07958,1.08268,1.0597,1.06011,1.04273,1.032,1.04359,1.04534,1.07826,1.07905,1.08947,1.10215,1.05874,1.04173,1.03571,1.02276,1.02454,1.0252,1.11808,1.1154,1.07533,1.0842,1.09608,1.11143,1.12007,1.15009,1.24572,1.27154,1.32604,1.32766,1.3957,1.39588,1.43936,1.43538,1.49185,1.56502,1.56488,1.58663,1.69115,1.75261,1.77779,1.76661,1.76532,1.7852,1.78679,1.80316,1.82712,1.82071,1.83835,1.83981,1.83129,1.82617,1.82765,1.85146,1.79249,1.81283,1.76905,1.77463,1.77023,1.76396,1.76109,1.73112,1.71962,1.72307,1.73039,1.72808,1.67131,1.65905,1.65838,1.6628,1.64398,1.62474,1.64526,1.61622,1.59022,1.58955,1.58909,1.57552,1.55582,1.54858,1.54145,1.53067,1.54295,1.51523,1.51413,1.49956,1.4982,1.4948,1.49412,1.48572,1.47867,1.47997,1.50597,1.48877,1.49992,1.49832,1.43646,1.47461,1.46932,1.47943,1.43996,1.43894,1.44271,1.44464,1.42548,1.42509,1.4291,1.43067,1.49674,1.42645,1.42424,1.44276,1.44214,1.45366,1.45367,1.45186,1.63382,1.48855,1.507,1.61676,1.56109,1.56028,1.56038,1.60199,1.5508,1.61598,1.61979,1.61972,1.61888,1.5972,1.64425,1.63877,1.64097,1.65322,1.6518,1.65135,1.65147,0.00349965,1.67161,1.67527,0.00366155,0.00360077,0.00351543,1.7002,0.00351681,1.717,1.71606,1.72459,0.00362351,1.73006,1.73006,1.73633,1.73558,1.74361,0.00351961,0.00367037,0.00310454,1.77083,1.84403,1.7752,1.77246,1.79049,1.79415,1.79403,1.79429,1.79564,1.79239,1.82064,1.81883,1.83162,1.83037,1.84185,1.84399,1.84772,1.85101,1.85863,1.85762,1.86283,1.86249,1.87629,1.8735,1.87966,1.88023,1.88402,1.89296,1.9006,1.90512,1.90138,1.90847,1.90781,1.91766,1.92495,1.92653,1.92877,1.92982,1.94464,1.94433,0.00337739,0.00341021,1.96453,1.95976,1.95877,0.00349522,0.0035714,1.97789,0.0035224,0.00364057,0.00363308,0.00344768,2.0183,2.01517,2.0137,2.00969,0.0038678,2.038,0.0038395
0.962759,0.959367,0.959936,0.961339,0.96404,0.968588,0.970033,0.971818,0.974631,0.973576,0.974252,0.967849,0.967256,0.963251,0.981104,0.977666,0.980718,0.980156,0.967151,0.983342,0.982683,0.982661,0.984245,0.985221,0.979257,0.978801,0.971784,0.97187,0.975114,0.980119,0.99025,0.992449,0.997241,0.997802,0.998447,1.00134,1.00131,1.00237,1.00429,0.999536,1.00732,1.00929,1.01205,1.02009,1.02273,1.02618,1.02703,1.03276,1.03465,1.03743,1.04033,1.04014,1.04542,1.04623,1.04801,1.05119,1.05407,1.05595,1.06002,1.06457,1.06804,1.0717,1.07393,1.07665,1.07839,1.0807,1.08476,1.08741,1.0897,1.09125,1.09865,1.09841,1.1059,1.10666,1.10803,1.11039,1.1142,1.11181,1.11507,1.11299,1.11257,1.12989,1.1301,1.11427,1.07509,1.07677,1.06968,1.05834,1.06796,1.06371,1.05025,1.05491,1.06191,1.08497,1.14354,1.12724,1.08229,1.07886,1.06386,1.04442,1.0453,1.09482,1.10634,1.10885,1.11569,1.11169,1.10616,1.12237,1.12369,1.13359,1.1778,1.22978,1.31306,1.27354,1.31025,0.00334731,1.39549,1.45365,1.39029,1.44869,1.44957,1.53346,1.6005,1.67668,1.70307,1.74973,1.71527,1.75983,1.81925,1.82064,1.8078,1.76889,1.84542,1.8574,1.85995,1.8168,1.78785,1.78895,1.77885,1.77681,1.78663,1.74906,1.74553,1.73394,1.73269,1.71816,1.71473,1.67625,1.67374,1.67259,1.67507,1.6502,1.65496,1.65383,1.62003,1.65087,1.59174,1.60352,1.58879,1.6128,1.56723,1.56693,1.56387,1.56195,1.52181,1.51983,1.51849,1.51297,1.49698,1.53131,1.48846,1.48681,1.48643,1.48687,1.46709,1.46562,1.45062,1.4501,1.44764,1.46948,1.48154,1.46226,1.45814,1.47228,1.49966,1.45429,1.43466,1.4279,1.42992,1.43776,1.44052,1.43684,1.46803,1.46758,1.45044,1.44932,1.45006,1.53913,1.48216,1.465,1.59195,1.49161,1.5151,1.51269,1.53429,1.54067,1.55167,1.53095,1.59407,1.57585,1.58789,1.58716,0.00348554,0.003385,1.64596,1.66461,1.66266,1.66301,1.67156,1.66568,0.00378555,0.00347192,1.67825,0.00341131,1.69638,1.70054,1.69961,1.69886,1.71638,1.72004,1.7228,0.00336669,1.73425,1.74185,1.74101,1.73891,1.73882,1.7314,1.7412,0.00353937,1.77087,1.76715,0.00371755,0.00350621,1.79309,1.7926,1.79673,1.79372,1.79027,0.00349481,0.00345348,1.81987,1.828,0.0032757,1.84135,1.84145,1.84861,1.84623,1.85765,1.86134,1.86847,1.86612,1.86649,1.87273,1.87912,1.88187,1.88938,2.09832,1.89196,2.11717,1.91069,1.90707,1.9039,1.9262,1.92463,1.92349,1.92708,2.07031,1.94462,1.95205,1.96246,1.95883,1.96652,1.96274,1.96927,1.97625,1.97284,0.00339116,1.98457,1.99225,1.98684,1.99973,2.01011,0.00362096,2.02303,0.00340315,0.00357241,2.03722,0.00350435,2.05271
0.961265,0.961531,0.964204,0.964588,0.960977,0.961353,0.961225,0.963958,0.966391,0.966402,0.96724,0.961409,0.945611,0.947686,0.946461,0.948991,0.956134,0.956536,0.952374,0.952687,0.954783,0.963318,0.967012,0.966481,0.968603,0.968802,0.970321,0.972014,0.980644,0.984103,0.985423,0.987639,0.987926,0.989692,0.990339,0.991706,0.997229,1.00129,1.00457,1.00473,1.00809,1.01075,1.01428,1.02191,1.0209,1.02519,1.02767,1.03148,1.03567,1.03844,1.04197,1.04189,1.04205,1.04474,1.04731,1.04958,1.05153,1.05436,1.05608,1.06142,1.06508,1.0684,1.07436,1.07596,1.08477,1.08778,1.08964,1.09058,1.08969,1.08993,1.35154,1.35246,1.10905,1.10961,1.11338,1.45039,1.1206,1.12153,1.12198,1.12188,1.11866,1.1143,1.11637,1.10439,1.10465,1.11176,1.09401,1.07151,1.07112,1.08544,1.1189,1.11464,1.08503,1.07992,1.0746,1.1426,1.14076,1.14165,1.14304,1.14318,1.10716,1.0644,1.06773,1.073,1.07339,1.09511,1.09364,1.09333,1.12961,1.1331,1.18124,1.18131,1.21163,1.24326,1.26411,1.27098,1.34255,1.35673,1.35844,1.41565,1.47275,1.48913,1.50941,1.61468,1.61228,1.65298,1.70408,1.68627,1.70687,1.7026,1.71981,1.74239,1.76498,1.76864,1.73089,1.76823,1.75861,1.75154,1.74406,1.74217,1.79501,1.72687,1.79988,1.71792,1.70407,1.7028,1.70006,1.69788,1.69423,1.69154,1.69168,0.00343263,1.62625,1.62703,1.62627,1.60406,1.59843,1.58035,1.58326,1.56911,1.56692,1.56246,1.58166,1.52519,1.51809,1.5185,1.50187,1.57152,1.49159,1.49055,1.48145,1.46057,1.45504,1.46009,0.00339032,0.0032936,1.42254,1.42444,1.42366,1.45714,1.50083,1.46791,1.4608,1.45639,1.45192,1.44966,1.43929,1.45077,1.4602,1.44006,1.43372,1.43964,1.43948,1.43081,1.43749,1.48835,1.46761,1.46643,1.46859,1.47158,1.48223,1.495,1.49233,1.48742,1.55283,1.55184,0.00373671,1.5591,0.00361488,1.6013,1.59959,0.00350541,0.00346028,1.65269,0.00314395,1.66532,1.66529,1.67616,0.00353339,0.00385349,1.67908,1.68322,1.68979,1.68866,1.80005,1.70219,1.70571,1.71618,0.00383807,1.79901,1.73031,1.73096,1.73811,1.74154,1.7403,1.73855,0.00363877,0.00385243,0.00349651,1.76965,1.7768,1.78565,1.783,1.78298,1.78605,1.78925,1.78786,1.79352,0.00355602,0.00321188,0.00375844,1.82711,0.00343049,1.83752,1.83343,1.84338,1.84835,1.85183,1.85608,1.86583,1.86764,1.86782,1.97031,1.97298,1.88177,1.88848,1.88891,1.88998,1.90018,0.00351012,0.00375325,2.05738,1.92404,1.92107,1.92857,1.92949,0.00355406,1.95188,1.95163,1.95827,1.96007,1.95327,0.00378031,2.18111,1.98257,1.97957,1.98519,1.99903,1.9959,2.0034,2.00731,2.01101,2.01611,2.01498,0.00382637,2.04137,2.04058,2.04533,2.0437,2.04394
0.966561,0.961735,0.937115,0.938628,0.954903,0.955519,0.9525,0.951524,0.951991,0.946154,0.947481,0.946378,0.946089,0.945396,0.946512,0.947186,0.94244,0.943573,0.955769,0.951917,0.948708,0.948072,0.962025,0.968585,0.969844,0.969752,0.948207,0.949244,0.949655,0.981433,0.982107,0.983633,0.987626,0.98732,0.986133,0.997737,1.00097,1.00128,1.00358,1.00448,1.00775,1.01143,1.0153,1.02117,1.02401,1.0268,1.02745,1.03069,0.00366615,0.00322265,1.03945,1.04539,1.04428,1.04604,1.04818,1.04172,1.04934,1.05391,1.06411,1.0648,1.06568,1.06698,1.3637,1.28505,1.42277,1.09352,1.09404,1.09556,0.00373124,0.0033866,1.35672,1.28745,1.11064,1.11517,1.11663,1.12093,1.12209,1.12339,1.12485,1.12347,1.1206,1.1101,1.11049,1.10956,1.10924,1.10869,1.111,1.1112,1.13231,1.14082,1.11506,1.11476,1.09908,1.10149,1.14698,1.12816,1.13725,1.14419,1.14282,1.14674,1.10364,1.10522,1.12556,1.15011,1.14187,1.18318,1.14356,1.17058,1.1718,1.17135,1.16614,0.00364782,1.20465,1.20459,1.21756,1.26865,1.28847,1.34651,1.34622,1.34477,1.44303,1.43479,1.44688,1.50314,1.62223,1.60647,1.59968,1.63706,1.6369,1.67705,1.67085,1.67877,1.68757,1.71114,1.69715,1.67221,1.67111,1.71332,1.69747,1.69812,1.71012,1.76369,1.71332,1.71238,1.66796,1.68965,1.70049,1.6923,1.70724,1.71101,1.69498,0.00347086,1.62198,1.62152,1.57961,1.62641,1.5724,1.56971,1.56303,1.54781,1.53847,1.53002,1.52699,1.53444,1.53026,1.50818,1.50324,1.49008,1.50326,1.51863,1.47224,1.45182,1.43637,1.43294,1.42787,1.41738,1.41731,1.43161,1.43093,1.45351,1.46146,1.45869,1.45537,1.45489,1.45665,1.45447,1.4605,1.44017,1.43703,1.42586,1.44873,1.44689,1.44678,1.44796,1.47942,1.46499,1.47007,1.47351,1.47422,1.47913,1.50126,1.50884,1.50933,1.51056,1.53416,1.54199,0.00352509,1.63025,1.62952,0.00362359,1.63554,1.63397,0.00337644,0.00326879,1.68591,1.68214,1.68942,0.00340824,1.70162,1.69861,1.70013,1.6994,1.69758,1.70072,1.70938,1.70673,1.71383,1.7146,1.71536,1.72831,1.73984,1.74051,1.74215,1.73971,1.74736,0.00366401,0.00366017,1.77357,0.0039878,0.00373203,1.78687,1.78486,0.00379601,1.79591,1.79414,1.79121,1.80087,0.0032134,1.82413,1.82312,1.82741,1.83554,1.83395,1.84827,1.84523,1.85133,1.85826,1.85934,1.86526,1.87096,1.87942,1.88318,1.87989,1.88265,0.00358116,2.06972,1.9058,1.89859,1.90357,1.91001,1.91753,0.00340477,1.92771,0.00375809,0.00364014,0.00352909,1.9533,1.96586,1.96701,1.96914,0.00367521,0.00323157,0.00373345,0.00357637,2.00404,1.99868,1.99659,2.0001,1.99839,2.01028,2.00998,2.01509,2.02128,2.02161,2.03267,2.04084,2.03626,2.05532,2.05118,2.04844
0.958498,0.956849,0.949389,0.949086,0.948708,0.946634,0.945494,0.945589,0.946321,0.945657,0.94546,0.946074,0.945612,0.946766,0.946001,0.946045,0.946852,0.945497,0.94711,0.949129,0.949864,0.952732,0.955188,0.961027,0.96235,0.962199,0.96307,0.967928,0.97166,0.97727,0.98046,0.985634,0.9893,0.991532,0.994603,0.996049,0.997313,1.00896,1.00971,1.01036,1.01592,1.02015,1.0254,1.02846,1.03022,1.03293,1.02227,1.02327,1.02626,1.20486,1.04448,1.0458,1.05014,1.05196,1.05763,1.06127,1.06138,1.0669,1.07039,1.07579,0.00318203,1.41709,1.17466,1.44082,1.09584,1.09679,1.10185,1.10373,1.10514,1.10652,1.11154,1.11479,1.11667,1.12354,1.12509,1.13158,1.12953,1.12921,1.12953,1.12883,1.11825,1.12311,1.11636,1.13199,1.13203,1.20079,1.16036,1.15375,1.15558,1.17378,1.17455,1.16819,1.16878,1.17552,1.1378,1.14607,1.1404,1.14321,1.14312,1.17496,1.13917,1.13979,1.14764,1.11809,1.1401,1.14083,1.19798,1.15726,1.18796,1.17172,1.17166,1.20382,1.24486,1.24674,1.25502,1.30648,1.29164,1.34839,1.41793,1.40843,1.34413,1.43294,1.42086,1.45288,1.49361,1.49261,1.51139,1.53883,1.53735,1.63638,1.57276,1.59318,1.59874,1.67504,1.70635,1.70206,1.69426,1.69101,1.67194,1.65903,1.65398,1.64544,1.65886,1.64801,1.63836,1.63352,1.66068,1.64147,1.61924,1.63118,1.60922,1.60758,1.59746,1.5968,1.58341,1.57887,1.57926,1.57334,1.56372,1.55928,1.52771,1.52914,1.52827,1.52388,1.5298,1.50891,1.50488,0.003452,1.52497,1.46985,1.46871,1.42912,1.43287,1.43309,1.42729,1.42122,1.44351,1.43742,1.45747,1.45746,1.45231,1.44971,1.44599,1.44624,1.44659,1.44611,1.44067,1.44015,1.44148,1.44399,1.45015,1.45027,1.45615,1.45845,1.46779,1.46698,1.46094,1.48277,1.48614,1.61249,1.59565,1.59526,1.5599,1.56481,0.003851,0.00373693,0.00371257,0.00350913,0.00338102,0.00348673,0.00331434,0.00355285,1.68547,1.68594,1.68897,1.68759,1.69351,1.69904,1.70102,1.70087,1.70253,1.7075,0.00336148,1.71591,1.71289,1.71713,1.72061,0.00364516,0.00337208,0.00318745,1.75098,1.75046,1.76195,1.75562,0.00357604,1.77168,0.00326318,0.00359097,0.00371251,0.00349834,0.00313913,1.80454,1.8093,1.81105,1.81355,1.81261,0.00326114,1.82003,1.83863,1.83966,1.83938,1.83557,1.85265,1.85151,0.00354434,0.0036415,1.87212,1.8718,1.86942,1.97962,0.00315466,1.8862,1.90086,1.90407,1.90479,1.90601,1.91106,1.91991,1.91837,1.92374,1.92391,0.00373956,0.00342099,1.94591,0.00352723,1.96601,1.96991,1.96995,1.97714,1.97415,1.98359,1.99157,1.99095,1.99387,1.99558,1.99407,2.00019,2.0005,1.99789,2.00791,2.0137,2.02022,2.01728,2.02506,0.0035765,0.00329084,2.04886,2.05467,2.0507,2.05942
0.940656,0.941042,0.941958,0.940884,0.933201,0.938774,0.941491,0.940635,0.94232,0.942452,0.93613,0.944403,0.944942,0.944916,0.939042,0.940959,0.943525,0.9439,0.942943,0.941437,0.941124,0.944377,0.951787,0.955097,0.9597,0.962716,0.968644,0.970179,0.973534,0.975853,0.979263,0.984571,0.990782,0.00349116,1.00277,1.00868,1.01109,1.01232,1.00531,1.19187,1.02185,1.02513,1.02863,1.02871,1.03229,1.03574,1.03809,1.02566,1.02653,1.17215,1.18692,1.23781,1.0535,1.06107,1.06837,1.069,1.07043,1.06991,1.07198,1.08103,1.49218,1.08932,1.0902,1.09188,1.10138,1.10663,1.10557,1.10408,1.11192,1.11574,1.11775,1.2603,1.13026,1.12959,1.13222,1.13643,1.13679,1.15005,1.1384,1.13925,1.24009,1.13519,1.12964,1.15151,1.15263,1.14033,1.1401,1.13589,1.14283,1.14505,1.13846,1.13911,1.14854,1.14633,1.14161,1.12921,1.15945,1.12189,1.17164,1.13093,1.14439,1.17838,1.14728,1.13124,1.11541,1.13687,1.12958,1.12425,1.12524,1.16298,1.19735,1.19776,1.2156,1.21907,1.23708,1.27601,1.26531,1.33216,1.30529,1.32439,1.36263,1.34625,1.37135,1.43029,1.46312,1.44585,1.51682,1.50588,1.50984,1.53785,1.58891,1.57099,1.57146,1.58532,1.58976,1.61364,1.60309,1.60235,1.58394,1.58287,1.59521,1.60416,1.60382,1.60698,1.60867,1.60154,1.60004,1.65888,1.57957,1.6138,1.59806,1.60434,1.64174,0.0033454,1.59567,1.56664,1.57961,1.5264,1.51982,1.53331,1.53328,1.52752,1.53869,1.53325,1.52806,1.51115,1.5138,1.52513,1.52337,1.62345,1.47119,1.43675,1.44012,1.43174,1.43083,1.45007,1.45099,1.44747,1.51825,1.455,1.45291,1.44986,1.45071,1.62546,1.46741,1.51409,1.51341,1.43951,1.43979,1.45922,1.46292,1.46393,1.47821,1.46606,1.46617,1.46672,1.46672,0.00347672,0.00376262,0.00380877,0.00358316,0.00347902,0.00356633,0.00355803,0.00404925,0.00350187,0.00404368,0.00339665,0.0035756,1.64996,0.00334461,1.68678,1.6847,1.68344,1.68988,1.78715,1.69946,1.69878,1.78874,1.78951,1.71368,1.71651,1.71989,1.71817,1.71368,1.71234,0.00365319,0.0036265,0.00329011,1.75491,0.00365956,1.76293,1.76287,1.7615,1.77355,1.77112,1.7814,0.00358267,0.00366236,0.00341004,0.00396679,1.81223,1.80967,1.8138,1.81183,1.82869,1.82834,1.84013,1.83862,1.84012,1.85429,1.85699,0.00352098,1.87113,1.86802,1.86792,1.88294,1.87958,1.87802,1.8877,0.00355164,1.90697,1.90696,1.90611,1.90891,1.90562,1.91303,0.00346701,2.07929,1.93623,1.9347,1.94181,1.95055,1.94722,0.00360879,0.00357844,1.97481,1.97893,1.98245,1.99237,1.99135,1.99151,1.99369,1.99073,1.98974,2.00698,2.00407,1.99986,1.99885,0.00343915,2.01406,2.02891,2.02695,2.02544,2.04753,2.04621,2.05831,2.0572,2.06488,2.06168
0.930937,0.930737,0.931894,0.933253,0.934777,0.929978,0.930733,0.931561,0.933056,0.933912,0.934205,0.933324,0.931756,0.938862,0.937064,0.941437,0.945285,0.945166,0.944302,0.950269,0.951166,0.952326,0.954089,0.957285,0.959413,0.966331,0.968124,0.970434,0.971284,0.98035,0.984158,0.988961,0.992387,0.990435,0.990557,1.00892,1.00897,1.20366,1.02497,1.0266,1.03085,1.03375,1.03501,1.0342,1.03652,1.03704,1.03833,1.27108,0.0031704,1.02179,1.34707,1.27462,1.27113,1.06721,1.06826,1.07265,1.07815,1.08002,1.08421,1.08508,1.09082,1.09431,1.09948,1.10041,1.10016,1.10125,1.11023,1.11202,1.11501,1.11939,1.12249,1.27861,1.13446,1.13451,1.13785,1.14205,1.14383,1.14596,1.15135,1.15684,1.15334,1.15528,1.15378,1.15634,1.14783,1.15739,1.14667,1.14749,1.14306,1.15389,1.15398,1.13648,1.13828,1.13978,1.15805,1.18438,1.13524,1.13653,1.1558,1.17782,1.18009,1.17241,1.15532,1.14759,1.15093,1.12929,1.12744,1.14368,1.14277,1.16513,1.19818,1.19845,1.41506,1.41162,1.412,1.25787,1.26708,1.26261,1.27196,1.33968,1.33045,1.33025,1.37037,1.40663,1.44004,1.43403,1.43402,1.43072,1.48513,1.476,1.47371,1.52744,1.54145,1.53406,1.52113,1.58922,1.58735,1.5523,1.56748,1.56995,1.55428,1.55293,1.58326,1.58036,1.5979,1.6122,1.60944,1.60383,1.5741,1.57162,1.5748,1.57386,1.57649,1.57544,1.55771,1.55861,1.55765,1.55689,1.60985,1.53323,1.53121,1.5374,1.53854,1.53905,1.51695,1.50687,0.00344952,1.47169,1.47089,1.46924,1.46258,1.46413,1.4645,1.45795,1.451,1.45016,1.45536,1.45788,1.45899,1.46042,1.45381,1.45153,1.46685,1.46528,1.44256,1.43335,1.43273,1.49413,1.46696,1.47593,1.58112,1.47946,1.48185,1.4807,1.47764,1.59237,0.00367036,0.00374824,0.00352652,0.00341499,0.00356359,0.00422942,0.00326798,0.00389751,1.61046,1.78967,0.00357542,0.00367004,1.66283,1.65955,1.67456,1.67255,1.67131,1.67355,1.68336,0.00376502,1.70593,0.00363157,0.00360655,1.72243,1.72114,1.72104,1.71889,1.72769,1.71581,1.73264,0.0037013,1.74506,1.75068,1.75527,1.7627,1.76307,1.76285,1.77235,1.77304,1.77894,1.78022,1.78956,1.78938,1.80278,1.80421,1.80994,1.8071,1.81264,1.80995,0.00371755,1.82755,1.83715,1.83497,1.83233,1.85442,1.85866,1.85814,1.86106,1.86015,1.87244,1.86981,1.87587,0.00322984,1.89406,1.89595,1.90391,1.90345,1.90659,1.9063,1.90597,1.91146,1.91764,2.22592,1.9348,1.93471,1.94399,1.94898,1.95835,1.96285,1.97585,1.97475,1.97177,1.98466,1.98067,1.98817,1.98602,1.98956,1.99849,1.99588,2.00631,2.00468,2.00555,2.00226,2.01507,2.02736,2.03171,2.02823,2.04228,2.04834,2.04583,2.04724,2.05433,2.05252,2.05601
0.927873,0.927573,0.929289,0.931924,0.928109,0.928135,0.928776,0.929612,0.930965,0.931084,0.932956,0.935295,0.93561,0.937779,0.939193,0.941831,0.943492,0.945016,0.946679,0.952378,0.953325,0.954032,0.94158,1.11655,1.11573,0.961968,0.966003,0.967175,0.974079,0.980667,0.982453,0.982831,0.99846,1.0014,1.00646,1.00795,1.01553,1.01984,1.02139,1.02563,1.02967,1.03108,1.03365,1.03581,1.03663,1.13442,1.56989,1.01658,1.01672,1.26827,1.34732,1.29473,1.29566,1.31431,1.07525,1.07519,1.07954,1.08185,1.08819,1.08887,1.09209,1.09418,1.09435,1.09635,1.09984,1.1029,1.11484,1.1177,1.11978,1.12326,1.12844,1.12936,1.24315,1.14284,1.14342,1.14742,1.14983,0.00316231,1.16236,1.16314,1.16555,1.16728,1.16651,1.16506,1.17932,1.17568,1.15807,1.16658,1.16632,1.16881,1.15622,1.15711,1.19461,1.21986,1.1742,1.15363,1.15721,1.14687,1.15644,1.15731,1.18337,1.17821,1.17747,1.15381,1.1431,1.14283,1.17516,1.14242,1.13634,1.16567,1.19445,1.19675,1.2157,1.21627,1.21948,1.22714,1.24376,1.24427,1.31202,1.31157,1.33717,1.33712,1.3292,1.33299,1.37889,1.37863,1.41147,1.41012,1.42222,1.44029,1.43979,1.41475,1.48001,1.49597,1.50275,1.48828,1.48773,1.55564,1.51813,1.6014,1.60366,1.53043,1.53007,1.55407,1.53871,1.53156,1.54749,1.55021,1.56667,1.5838,1.57314,1.5752,1.57149,1.55957,1.55729,1.55389,1.602,1.59919,1.56384,1.56503,1.58948,0.00369483,1.50717,1.50646,1.53433,1.53264,1.53478,1.54077,1.47138,1.60715,1.46162,1.46065,1.46087,1.45789,1.456,1.4558,1.45394,1.45558,1.45742,0.00343501,0.00393368,1.44958,1.46783,1.46806,1.47119,1.58088,1.51139,1.46437,1.47939,1.6242,1.5704,0.00330361,0.0035802,0.00341403,1.53225,1.56911,1.53042,1.52886,1.56898,0.00347296,1.74541,1.60282,1.78674,1.77123,1.78289,1.77919,0.00402014,1.74996,1.67415,1.66668,1.67256,1.67307,1.67263,0.00338991,1.7098,1.71175,1.71063,1.72049,1.70838,1.72076,1.71992,1.72632,1.72464,1.73222,1.73236,1.74071,1.74421,1.74208,1.75284,1.7526,1.7594,1.75854,1.76666,1.76824,1.77485,1.77994,1.77826,1.78724,1.79516,1.79083,1.81046,1.80737,1.81309,1.80852,1.80802,1.81265,1.83231,1.83182,1.83059,1.83792,1.83694,1.85409,1.85048,0.00366022,0.00342855,1.8619,1.87895,1.87564,1.88972,0.00316284,1.9038,1.9038,1.90646,1.90388,1.90415,1.91379,1.91194,0.00348211,2.11889,1.9388,1.93954,1.94831,1.94702,1.96306,1.96622,1.97919,1.97606,1.98593,1.9823,1.99266,1.99035,1.99656,1.99464,1.99185,2.29037,2.00497,2.0046,2.01452,2.01893,2.01717,2.03101,2.02886,2.02697,2.039,2.03555,2.04781,2.04488,2.05251,2.0598,2.05585
