1.2905441828256,1.29163917849683,1.28498348713664,1.28746103463615,1.27827974452433,1.27568318873625,1.27492520396242,1.27598180476759,1.28536309397559,1.29268246651228,1.29479630814367,1.29496548524744,1.29530387412165,1.29387077269802,1.29935215108712,1.33714917703177,1.33500453815783,1.33665046384527,1.31600715632527,1.29456905280226,1.29650908310431,1.29855512867313,1.29931345511715,1.29903492475658,1.30172692955246,1.29970767988208,1.3011044374273,1.34587000051509,1.09385586289129,0.00330095001987849,0.110557430651143,0.00361194001978691,0.107164696438766,0.00332352001887506,0.0771028992926048,0.00292218568104797,0.0019536246831165,0.00291714340043993,0.934240247660337,1.35950880217411,1.35896845439383,1.43534000006117,1.41761594958661,1.43758106055,1.37441945565246,1.3323499999038,1.44920248407523,1.46196806385243,1.4328514236025,1.43004322469709,1.20445101686375,0.00328621001988284,0.138861950464816,0.00329252001988099,0.131188522163174,0.00348969001982292,0.136771934540022,0.00346493001983022,1.07148785595555,1.42477000032079,1.40416535371301,1.45408000128402,1.40186372088938,1.37639918928898,1.37534382623677,1.3742936572788,1.35587334691392,1.37302000001994,1.3558733743663,1.37114107983316,1.36757183227671,1.3692483979344,1.36827011577977,1.36995263072807,1.37011086885573,1.489560000024,1.39714959357075,1.4162204437183,1.39909718457137,1.46413000008385,1.42858985384227,1.46240000008214,1.37386304208351,1.37513585645026,1.37721048594296,1.37755620827721,1.38497649910656,1.38305869747704,1.38731155230741,1.38211324263149,1.3580774360221,1.38267000001995,1.35438985139896,1.40639000001995,1.29609794497533,1.40513000001995,0.645901968415867,0.00319200001840335,0.081054902795529,0.0033965011025306,0.00350847788239586,0.00352071374872516,0.210338035276542,1.39863140638669,1.39845031899626,1.39863650338784,1.39889574552685,1.39922820805522,1.39898636308281,1.45523001735207,1.45089007753851,1.45466728927411,1.44861168153725,1.4528416265399,1.44538414688444,1.45064570477921,1.445421914591,1.47867000082537,1.43124936472518,1.43227018735759,0.179340808903714,0.00328372001988358,0.163201386283013,1.59867000001994,0.506149820556782,0.00313198841175671,0.00313365487683504,0.00350572489442794,0.120251421174552,0.00356312001980129,1.03953071322287,1.44121000001995,1.01796525709451,0.00321627168549205,0.205199810322175,1.47609000001994,0.198980805835012,0.00318538441211385,0.668874718797717,1.472159999513,1.49161832072088,1.63038000001994,1.55930657915948,1.53394011520499,1.35936191140947,0.00357033001979915,0.0951948162126075,0.003516590019815,1.02807561704378,1.62107000004535,1.51663988508613,1.49874375922737,1.49817014589558,1.49818199803596,1.5213423330062,1.63589000004738,1.52931730793819,1.50900805260544,1.51063651199491,1.51071614376838,1.51380277788494,1.51522016575082,1.5173172279323,1.51904573522245,1.51928074916358,1.51957874502427,1.52086155329227,1.52155312758713,1.52263530701141,1.52332302853425,1.52494975444152,1.53017085099299,1.52761583353461
1.06841739870921,1.28694303473923,1.28267816288932,1.27971126845413,1.27711415520383,1.27421024793189,1.27334929521403,1.27290562031048,1.27144571384321,1.27131650501694,1.27196557157517,1.27316835770877,1.27419358766839,1.27522099123412,1.27606252989878,1.27671014887633,0.857275635246374,0.857274230474519,0.857273362280422,0.857274230473637,0.857275635244949,1.29937552767889,1.30058489290424,1.30160044920883,1.30227113138014,1.30208234745101,1.30220188366622,1.32936173025123,1.0938544510714,0.297781749678162,0.258899280581713,0.220917837402685,0.183755455661204,0.147292709946476,0.111377477061222,0.0017926278177094,0,0.15540345527246,0.933880200574304,1.35778453201535,1.35811156152498,1.3770269720104,1.39125262285866,1.43983965889481,1.4429289497256,1.44640942798632,1.44788864539635,1.44806191144145,1.43563288043844,1.43285141483997,1.20441473087796,0.647190312795508,0.647336248417125,0.64751821539665,0.647599167594436,0.647518119972576,0.647336076514847,0.647190098482811,1.07148785595522,1.38909315504497,1.38878179253445,1.38825556691503,1.38771208998053,1.38169156153643,1.07739015244579,1.03769421119386,1.03769322934996,1.03769184123874,1.03769085999669,1.36451602903265,1.36586498772117,1.36702056516425,1.36935563808237,1.37114094144513,1.37163544348337,1.37790475579243,1.37990987779329,1.38400266349396,1.37963953778864,1.37777085325599,1.37618901545147,1.37454879106067,1.37290272558768,1.37337004240959,1.37538272839518,1.37654169563094,1.3795782358513,1.37977453946158,1.38111495524401,1.37941752504778,1.05988844136888,1.05988844097362,1.05988844084369,1.05988844105518,0.655607011922432,0.643772389588777,0.644344203662361,0.159179944824568,0.119572256611202,0.00348066504557903,0.00358890446772492,0.00363252443428383,0.17113889793373,1.39809686037801,1.39778966563694,1.39756659172606,1.39761644794858,1.39761798930712,1.39740610798734,1.42664097074566,1.4309625853854,1.43428187199921,1.43634783718648,1.43713070663364,1.43858307011144,1.43715532996631,1.43685511583915,1.43678681309188,1.37562545514578,0.179340808904974,0.139515964155698,0.0833525427429889,0.123177214528244,0.163001862025587,0.504503457750892,0.503633570379611,0.503240688545316,0.503293659420318,0.503577545196926,0.503814227480076,1.03950566886986,1.03948796008392,1.01795532935113,0.00206046599973812,0,0,0,0.00207853691515852,0.669234344371542,1.49708949375802,1.51223873045122,1.57804287618504,1.57053862160569,1.55918546002403,1.35936191140924,1.07170007260051,1.07169766549246,1.07169426177676,1.07169185530342,1.56252433238414,1.53032270854108,1.49633394918126,1.49597345901999,1.49678469705857,1.53833843918954,1.5798031867146,1.5423104357519,1.51060929628878,1.51124308553459,1.51207515704847,1.51426374773927,1.51612286965858,1.5173446174509,1.51827451973004,1.51889090992947,1.51946150889682,1.52049899057123,1.52153459001262,1.5221298559213,1.52296212463468,1.52469975591093,1.52706584010843,1.52666552725126
1.06841739840552,1.4152600000222,1.27960493271579,1.26639982134412,1.26898212785436,1.27104788097327,1.27172780028656,1.27131404985998,1.27133974667559,1.27160975306742,1.2723121556819,1.27389349517186,1.27447420850769,1.27554196827949,1.27632206436912,1.27738989186443,0.1941070084166,0.00330850360762766,0.00315919039966402,0.00314514495899026,0.191600436130297,1.3160935578233,1.30242931341816,1.30466891274782,1.30366075601364,1.30405915935159,1.30322549723392,1.41778000001995,1.09385345307288,1.41771000141675,1.40177185635304,1.69661000001995,1.42053041766397,1.42174016838445,0.149932139158562,0.00246929166867627,0,1.42778000001995,0.933658958253675,1.35552166491204,1.35727035538182,1.35799087423329,1.3773276661207,1.44416256282677,1.44335860879596,1.4490479005813,1.44840364025506,1.44851521661567,1.4413651975218,1.45848003632118,1.20439855543227,1.45902000004396,1.36228839168966,1.34482060510263,1.34452084864208,1.34453714744525,1.07990162936291,1.46605000001995,1.07148785625837,1.38915255096783,1.38870282989363,1.38799655559811,1.38686911736549,1.38695271866396,1.07739114640677,0.00342566001950273,0.0828820303330708,0.00360307001876709,0.856700594146324,1.36348919662384,1.36497063358654,1.36377610031695,1.37094790218159,1.37342748972345,1.37337366883634,1.37630810636886,1.37797837038738,1.3929387074655,1.37799696780599,1.36318830279235,1.36626005561614,1.36112399433626,1.3696220176486,1.36621384701833,1.37424035524059,1.37316401320786,1.37597175285079,1.37429368978388,1.37667741895807,1.37402488563837,0.687599190875358,0.00341219001984572,0.225724494334653,1.54465000001995,0.655721443993925,0.00326085001989035,0.643775892312108,1.50013000001995,0.158509728306896,0.00337414532570176,0.00353284700454448,0.00370536582938325,0.132559932576695,1.39811715956002,1.39742087543513,1.39662043522791,1.3969104900615,1.39691593854324,1.39668626370603,1.42196460554901,0.886949047010481,0.00365834001977325,1.43355414812936,1.43574044347923,1.43595367623812,1.43515041495636,1.43548792240841,1.43533879870197,1.37562545514601,0.00351481001981548,0.0996911184084058,0.00370328001975882,0.0833525427427999,0.00336327001986015,0.504028538697015,1.56787000005505,1.54186463626077,1.53849685395372,1.54595549716915,1.56271437931979,1.55845920330592,1.55856167494416,1.01794128979088,0.00294875118509459,0.00178882078654628,0.0024305191354762,0.00181695251273195,0.00303372907562394,0.670042673452357,1.60786000001995,1.53291585985904,1.60224000006638,1.57858880882701,1.60092061811788,1.60189265624817,1.61339884440905,1.61126487783497,1.61315562805097,1.61198149942301,1.63131000006982,1.54662992684976,1.49205801344853,1.4929978217594,1.49129972453268,1.55582616946695,1.6372200000706,1.55748099643298,1.51161107753043,1.51165857964852,1.51215088599317,1.51499469976586,1.51774869486463,1.51750437764255,1.51789163122574,1.51834831839821,1.51894209388982,1.51997991364259,1.52199578746383,1.5212502237647,1.5215660889211,1.52362382670134,1.52660308970148,1.52552053078291
1.06841739840507,1.33752389837342,1.27668677024501,1.2691065774126,1.2698139717005,1.27090498994554,1.27140818511324,1.27135689099306,1.0691275679745,1.06912756767078,1.06912756767028,1.06912756797331,0.261102360682702,0.22127744172247,0.181447886549826,0.141617563301626,0.10179259215885,0.00301644689895315,0.00284428285643447,0.00287026673910449,0.0859991139290396,0.118226404752423,0.150956313977822,0.184407878294446,0.21883512162462,0.25444298578322,0.291368360075546,0.329714517263272,1.05415803398576,1.35197731354966,1.39976561633316,1.41906159561019,1.41931935252046,1.41922244714823,0.188892354149864,0.00182071479239006,0,0.150876362707407,0.190701227136617,0.230526091565826,0.862095723074495,0.901100766177666,0.901089811363658,0.632001151010637,0.632147141411803,0.632329207174632,0.632410282627202,0.632329358260115,0.632147413585664,0.632001490333156,1.20441464793339,1.39966312265256,1.3757045258792,1.35153508770062,1.34919197294558,1.34682793931074,1.07990170997972,1.02018386554238,1.02018366801296,1.02018338909262,1.02018319216906,1.38374419223038,1.38452214238381,1.38378590902452,1.07739255251668,0.16197678977543,0.122390010770136,0.0828981503330708,0.856699190619817,1.36524710832589,1.36687609511173,1.36760430911721,1.36983995244715,1.37101548172404,1.37196930943521,1.37288498047493,1.37339455921849,1.37503256532957,1.37739124445169,1.37752826152216,1.37753655075142,1.37706194310334,1.37620685098956,1.37577014201374,1.3759494864437,1.37538054156674,1.37619765256126,1.37586974562224,1.3763812013906,1.37560912897849,0.686266361073047,0.085559101274783,0.125383952442063,0.165208803609343,0.655921485032638,0.656496155617659,0.656968339046666,0.657231388231318,0.197708457864711,0.00355992498244772,0.00363083665044784,0.00361669288531495,0.0945888309486571,0.123027637100724,0.152381536455758,0.18295654822152,0.215025882183604,0.248820571785832,0.284521422525665,0.322252653103982,0.886960965485018,0.88694904701048,1.43220540576769,1.4341425550742,1.43429100036826,1.43411664916323,1.4339450363763,1.43353767946493,1.37562545514578,0.736227806797286,0.73624626276478,0.736264711685003,0.736264692418609,0.736246210127983,0.736227734894038,1.50013281244043,1.54601508883047,1.54922559446041,1.55242669197788,1.55421548111577,1.55565435576762,1.55571485504252,1.01793136259464,0.688056450051678,0.686525119402662,0.683660522612042,0.679840870031884,0.675573537362784,0.671402518409434,0.67004272863469,0.669234443780092,0.668874842731585,1.38673421816446,1.60173789217172,1.60247279175441,1.60784392566236,1.60745053805477,1.60397301486268,1.60130520957721,1.599216140365,1.59937009457731,1.60009031297703,1.60080283900229,1.60184177916298,1.60271417986536,1.60302222216889,1.57262756816297,1.55991904372798,1.54598136716261,1.53210134010695,1.51584068631,1.51656513161061,1.51706089663007,1.51741762889877,1.51769451951645,1.51778537110445,1.51851911377346,1.5190639366022,1.51932476215641,1.51959726230129,1.52149711819173,1.52323200579932,1.52357810971921
1.06841739870813,1.42422000001992,1.27408136747844,1.27141185110843,1.27082699233318,1.27163261551917,1.27159387371293,1.44781000001995,0.774364853087881,0.00297237867693214,0.184535601492962,1.44523000001995,0.190217429531681,0.00262832362539665,0.0016973721470891,0.00246644803601689,0.00178349580707605,0.00278215858000884,0.00201730408581506,0.00251584701267208,0.00189645636911929,0.00303993664731914,0.00324896216010979,0.00339092781104881,0.00340357455936759,0.00330922703191416,0.108294182886331,0.00317469001991569,1.05415704817571,1.32419999799511,1.39490770690546,1.41880247136459,1.41846751612117,1.4172544985467,0.228279755306522,0.00300527732231778,0.00202890066249863,0.00306239076310761,0.0820217991577697,0.00348748001788569,0.862103867997707,1.36277000001994,0.901073503185436,0.00326768001988831,0.0945002208514369,0.00330725001978398,0.0829021631845399,0.00326413001986779,0.106175176810567,0.0033905400198521,1.20445086742224,1.47187000004779,1.38925303641494,1.35379629611427,1.35415529171061,1.35415618557315,1.07990182441732,0.00340115001984899,0.0920716710416502,0.00345653001909049,0.180071038916091,1.3827338307509,1.38341084073104,1.38276314111363,1.0773935470956,1.38283000001994,0.161974429198894,0.00348208001941967,0.856698324440737,1.37193401673315,1.36962478104721,1.36962681554054,1.36943846388379,1.36857704601458,1.37058676417889,1.36989715382384,1.37253008586585,0.00328938001988191,1.37948920605121,1.45506000171033,1.41826525217735,1.50933000002206,1.38352521024172,1.38231803928192,1.37878983040282,1.37622645806901,1.37714499885011,1.40073833542761,1.40149215038961,1.40119751086331,0.683775313423338,0.00342545001984184,0.0848956412267327,0.00332446001987157,0.65558752851126,1.50468000003195,1.45024535092996,1.49486000004075,0.237209601491254,0.00357232697970588,0.00356131787475223,0.00341115966468428,0.0685902448745216,0.00343741002014129,0.0834222899009434,0.00335045001986392,0.103241029543422,0.00374531001974763,0.137076347506732,0.00339759001985005,0.886990537532135,1.42894072960315,1.42972658217928,1.43459875051103,1.43310034547897,1.43294744249717,1.43221022972375,1.43095896274759,1.43039482913785,1.42994661819061,1.46126060160233,1.57284000003621,1.47245164014391,1.46337715777565,1.46443907338669,1.46493099256311,1.54760694672122,1.57054031374446,1.55362981246668,1.55424466482291,1.55389681800001,1.55269331597549,1.55112302461927,1.56727030631991,1.56042976865137,1.56705015339678,1.55625362256718,1.5653300069954,0.670514128381562,0.00356771001979998,0.0970961136225043,0.00323294001989851,1.38673421816469,1.60159167292854,1.60223594069771,1.61001929773942,1.56895784956993,1.48706999995818,1.56920857386058,1.59742601069009,1.59895714482695,1.60018452763521,1.60047761230614,1.61270382755187,1.60302200503435,1.60308278005247,1.58478474107028,1.6388500000606,1.58110376312393,1.64889000003367,1.51584156308017,1.51557676417841,1.51654940579131,1.5169855336867,1.51700337620537,1.51597196382187,1.51713918963754,1.51642028194118,1.51740336072302,1.51597096764264,1.51960719550806,1.521188449986,1.52219765836512
0.484214155979986,0.483397858637064,0.483400556614207,0.484149933998013,0.485199740458532,0.485940683264919,0.758577443042248,0.774360665806,0.774373105914099,0.00203289277910754,0,0,0,0.00125937039371119,0,0,0,0.00149791171323572,0,0,0,0.00240605176042576,0.00317008748271896,0.00330087873885782,0.00343662669189347,0.00340680365540429,0.148119028181409,0.189224142722384,1.0541556544555,1.35667414187724,1.37475393909586,1.37551244384575,1.37587344730193,1.37632761025388,0.276590943321465,0.237199311213186,0.198207633540677,0.159551919819887,0.121142314772087,0.0823144886634002,0.862118439226142,0.901050825957342,0.901058946610087,0.186392478027585,0.134325064601437,0.0830073069719285,0.122683958112885,0.162340615803905,0.202040607090268,0.241799008246426,1.20447992140624,1.43304387036613,1.41222315270472,1.39394386005883,1.37598980578708,1.36584454913342,1.0799019056396,0.171721370460881,0.131896520751266,0.0746736167685685,0.0925732122761571,0.114415731347265,0.134080032917342,0.152425652007781,0.170437709360679,0.188782978137831,0.207606759936918,0.242787744604832,0.856699194648969,1.37109580961469,1.36990937451225,1.36935782657939,1.36946523805973,1.37000972242034,1.37185986624714,1.37296944230846,1.37449781936953,1.37603506543236,1.38130343356974,1.38441704355032,1.38465914202196,1.38461238114684,1.38405890289305,1.38291480900484,1.38085900417789,1.37924284498522,1.37878215793734,1.4015892203621,1.40262241187569,1.40285286160162,0.680437757978174,0.0848308878910592,0.124720484976735,0.196578021438335,0.655390332119518,1.41576943339903,1.41561717239811,1.41557128200103,0.426993240021899,0.428384244437145,0.430094202652562,0.431153271191851,0.431278856420592,0.431027689853782,0.431007950194814,0.431160854625176,0.430936821546271,0.43000218378955,0.428570854597412,0.427515596879375,0.887010502535749,1.42747680287111,1.42840574096349,1.43002156473953,1.43064748770581,1.43095739054401,1.43084524770225,1.43045166420764,1.43020078466997,1.4644990427224,1.4872656047858,1.50704879578088,1.49306008632173,1.48050624724344,1.48915047498329,1.51288269603162,1.54978796533309,1.55457545042743,1.55389793899847,1.55352276043856,1.55285744785035,1.55170315124181,1.54973080338467,1.54745553462471,1.54364592424233,1.54096784196457,1.53064500289606,1.52448564553237,1.05335246091491,1.05335246061201,1.05335246061267,1.05335246091652,1.38673421816446,1.51917179417691,1.51892608380425,1.5183649296955,1.51850005166222,1.51762149655837,1.51717542484893,1.51610792988848,1.51581891342453,1.51624540137211,1.51719562093593,1.51843516400436,1.51966817450115,1.52057299429854,1.52089262964181,1.52051322844282,1.51947524263389,1.51791307961649,1.51600912778757,1.51607345486699,1.51643463193035,1.51697820071194,1.51723280947455,1.5169896446473,1.51761501203068,1.51764428807699,1.51787815547089,1.51797822270475,1.51971336507693,1.52116181730286,1.52193775532335
0.000728916366567134,0.00216350486392675,0.00105280664349743,0.00228906849304617,0.000743003002385433,0.00262506725734458,0.758772912163219,1.64520000001994,0.774401448790585,0.0031282444885363,0.00189835688605864,0.00252360680093345,0.00185186975291195,0.00237463334145669,0,1.37418000001995,0.129236743299077,0.00313796531074458,0.171101819288849,1.63805000001994,0.190007923206387,0.0033697266725029,0.00332495429290174,0.00326452285550353,0.0034007185863898,0.00342816137213807,0.187943873476486,1.37140000001995,1.05415466924728,1.37327819124883,1.37472482323206,1.37656796703565,1.37645352029819,1.37735926426032,0.47144113370593,1.37815000001994,0.470856642101832,1.37873000001995,0.160818301264222,0.00336877001868281,0.862134731626327,1.39349471561974,1.39403122976822,1.39425835380832,0.186594114687663,0.00356075001946359,0.200389827614625,1.37904000001994,1.36162432751195,1.37925999772282,1.39858596428622,1.45137025679885,1.43955000382929,1.43949272541715,1.44140701108593,1.45076360984283,1.44324715471272,1.44217925909384,0.190923601253641,0.00330502002023596,0.0747406881971399,0.00369128001873121,0.0877385115911414,0.00314274001853177,0.0807292981807545,0.00370350001798598,0.226413437982497,1.45797000001995,0.856700600665629,1.38432023078354,1.36918837793034,1.36822721504353,1.36890201431496,1.43080000006193,1.37392901367658,1.3754614604602,1.37628789531298,1.37725349730946,1.38259396365635,1.38388328589126,1.38450702484789,1.38453957243682,1.3844401907486,1.38412822769237,1.38222649609329,1.38099218702534,1.38001767248029,1.40647930910399,1.40462194656245,1.40473562729794,0.676647168639714,0.00342814001984105,0.191649739156538,1.4519700000616,1.41522965122392,1.4162226967751,1.41581700780484,1.41578145496717,1.41623724794976,1.41552382253545,1.41810044229341,1.4199640833423,1.41911987138256,1.41881607031327,1.41419029991429,1.41142024806653,1.41172470339652,1.41334249354324,1.41698309364762,1.42074333166866,1.42267856387078,1.42505864841799,1.42649106693808,1.42706711079572,1.42862008466841,1.42943656129714,1.42968337680804,1.42971301250716,1.42966374255612,1.57585000002915,1.53973973885546,1.55575000008255,1.50476152919989,1.46852656069154,1.50352521716195,1.56486555949768,1.55259190575293,1.55624469821776,1.55415910286027,1.55336130885936,1.5523912740614,1.5517633349718,1.54885346899039,1.54921107560052,1.54046077991955,1.51419165724465,1.51515047923795,1.51469016672788,1.51583349864741,1.51609754698,1.51774700825695,1.51836902368396,1.51949337543986,1.51933299748279,1.51917570809837,1.51762291547879,1.51961242404896,1.6236500000436,1.51838135544069,1.5066052038907,1.50997079568979,1.50765289071181,1.51012620445497,1.50887285591978,1.51031433219992,0.00348240001982506,1.50600891481807,1.50366141212362,1.50414205084225,1.5020745547452,1.51416804309672,1.64894000001992,1.51578833575293,0.00327600001988585,1.51762401836155,1.66840000001995,1.51867221742175,1.51864637550354,1.5186570247591,1.51831412930517,1.52030980108569,1.52179671326655,1.52237258947305
0,0,0,0,0,0.001264736990598,0.759049091724132,0.774446718400795,0.774429256828573,0.19358106131088,0.122461937848921,0.00283849838846547,0.00251810122214642,0.00199253078931597,0,0.129236176794942,0.16906422796614,0.208896327148016,0.248726069264183,0.527785266754252,0.52754993788399,0.527273238801127,0.527238256235105,0.527660499466577,0.528565397342998,0.530234698727345,0.531722183763831,0.881859437832346,0.881858033015093,0.881857164747544,0.881858032867305,0.88185943759322,0.472627498409236,0.472231746303281,0.471624366912808,0.471261582100877,0.471065094824876,0.471275857131854,0.471653089425319,0.471464984533534,0.862145661474611,1.39394822528554,1.39418418961189,1.39433004444208,0.865116117646976,0.865096152806972,0.865066581002193,0.865054662625325,1.36162432751221,1.40158035103936,1.41544727804639,1.43685950211454,1.44023190456155,1.44204787022838,1.44367234145997,1.44595245697725,1.44445602895613,1.44325046647306,0.33085390139304,0.292438850849405,0.255369496281907,0.219520562111777,0.184711297460083,0.15071370084389,0.117262889397248,0.080777886752183,0.250240365205106,0.654689753021929,0.654835557433226,0.65501728780274,0.655097944775351,0.655016601928317,0.65483432186058,0.654688212618225,1.37825320663801,1.37680788319149,1.37760133420063,1.37907481119356,1.38193468194884,1.38358884116584,1.38447678336023,1.38472430214546,1.38454231193164,1.38392107472443,1.38275474096306,1.38191253078541,1.38399618259595,0.669880031401117,0.670385487562865,0.671380280340695,0.672828221249259,0.671231528650599,0.670339851512569,1.4135503920285,1.41440209140865,1.41543011178467,1.41581300720255,1.41630730918449,1.41731049465736,1.41787687035604,1.4187435304934,1.41939747770525,1.41917640542558,1.41798269665276,1.41434209532282,1.41174573171306,1.41240242017196,1.41377545337149,1.41768221629814,1.42037936711661,1.42255798520251,1.42422761041966,1.42548796927226,1.42621835146723,1.4274045394427,1.42817829001096,1.42867591780123,1.42884665902338,1.42901255264183,1.54075758617179,1.53792958018561,1.53269200897576,1.52755523022276,1.52585303332606,1.52178427237381,1.54900595198981,1.5515561688513,1.55552631838464,1.55350373263033,1.55256216292344,1.5519070910678,1.55156246427984,1.54488747991208,1.5411807851462,1.53779830532252,1.53044369289541,1.51681352648914,1.5160194635451,1.51663630309363,1.51702294597947,1.51869580130602,1.5200156276456,1.52074788089642,1.52100830735288,1.52074551899772,1.52028620968312,1.52061307965959,1.52053038114196,1.51998609910033,1.51792847443223,1.51583001243694,1.5162928185586,1.51395886866131,1.51242379959488,1.51152094620804,1.51025122031474,1.50816180661931,1.50678397388302,1.50651660883241,1.50669798713444,1.51266159953008,1.51338966690536,1.51476698452455,1.51558007594627,1.51751310830827,1.52028372249198,1.51986899350825,1.51974686886053,1.51981483100811,1.52027297437696,1.52144078208751,1.52273273164615,1.52372205303234
0.142869954373021,1.34761000001995,0.945139205533356,1.61445000001995,0.143768837072797,0.00292373970626104,0.759231715005463,1.64159000001995,0.944799381609161,1.37551000001994,0.190929162749442,0.00336988022366006,0.00302230216171975,0.00305965899038985,0.00216791436471568,0.00339519385605977,0.20943659539193,1.37456970900096,1.37453323606207,1.37348739030851,1.37466842560056,1.37627399290008,1.37562364984145,1.37602420177028,0.528098784905215,1.38114000001995,0.532592458638562,1.38751000001995,0.217224081958652,0.00310022258717587,0.200165821660713,1.44059000001995,0.200764856502453,0.00302064068703586,0.0808461496870999,0.00333079001823337,0.123210236864716,0.00367133001976942,0.47227952329902,1.41968756030063,1.42025334365779,1.42013646199896,1.42216415958453,1.42366278631769,1.42386557330478,1.42373883804679,0.865054662625325,0.00356613001980041,1.36162432751201,1.43582691601092,1.43486541290142,1.43398993047038,1.44291478789331,1.44510829001731,1.44521832833534,1.44505642848213,1.44560074550233,1.44722208345917,1.44949945415603,1.45131070274827,1.45108445176299,1.45072502819923,1.4489683845224,1.44730657041734,0.1793741811097,0.0033128000182715,0.27618575311865,1.46074000001995,0.182776413196756,0.00334342001986599,0.0838196224325438,0.00340919001984664,0.14230192116384,0.00338111001985489,1.37843472229007,1.39842000023378,1.43875858213425,1.50882244052313,1.50923879614926,1.5086623238243,1.43787847540058,0.00334338001986601,1.4354826627049,1.5010173049185,1.50041440446926,1.50099224366352,1.38413141137819,0.00330070001987862,0.093925905007161,0.0035440800198069,0.672442194127861,1.44789000001994,0.712900516585665,1.41281651531045,1.41355039331865,1.45555007027389,1.44349050276454,1.52789000001994,1.41865836686524,1.41977820047092,1.41951252451688,1.41988613315294,1.42097907328207,1.42108413752261,1.4163182727687,0.00326268001988978,1.41540348987059,1.42149963583315,1.42085141346445,1.42117725924265,1.42339152348701,1.4240450973648,1.42514398790806,1.42497063497911,1.4266390692869,1.42717624933671,1.42794635456731,1.42793925899426,1.42848684149803,1.56965000002672,0.906742029772008,0.00332697001987084,1.52343004600324,1.55345999910515,1.54203793556518,1.54627927664505,1.54900622541633,1.56110677477582,1.55189170990119,1.55180813737664,1.55160073430025,1.56422512765453,1.54102639805151,1.5071599934347,1.53251618283764,1.56869000201639,1.51962440516702,1.51613923585247,1.5177904946782,1.51655227643333,1.51996254852091,1.52220449294612,1.52239655965001,1.52317543403966,1.52247493801287,1.5220601075838,1.52190505809264,1.52087999758536,1.5211111436696,1.52014350707733,1.51916818726695,1.5189916543948,1.5169269814723,1.51523817544387,1.51292348583766,1.51086767162621,1.50941748639323,1.5085350670302,1.50807870766948,1.50882932965098,1.51152215137916,1.51289464517492,1.51421722621771,1.51414427996573,1.51655409137823,1.5232015548612,1.52104010146116,1.52085361833633,1.52090368498953,1.52161519729672,1.52264477912436,1.52388361440318,1.52596085144966
0.182697479733696,0.945139205533356,0.944899310846227,0.75603705239146,0.756518668464759,0.75783662952846,0.759165827027247,0.759636771716936,0.94457303315142,0.944799381609161,0.598741243971013,0.598570482237356,0.598326505181402,0.598147547711324,0.598132207088732,0.598282683820043,0.598504613325858,1.37501918319808,1.37575334817808,1.37448152880503,1.37458714086542,1.3751003934578,1.37507571609153,1.37519524072512,0.259936719070806,0.220449953167729,0.181278086015026,0.142376401218288,0.1036817918965,0.00181083846820612,0,0,0,0.0018648430655596,0.119071575072528,0.158192253932089,0.197528199074724,0.237102645720054,0.472687137270257,1.42034083645992,1.42071334821363,1.42120609604133,1.42241554605108,1.4234640616213,1.42391943103081,1.42401085067772,1.40144938354459,1.40144938354479,1.40144938354453,1.43789841371623,1.4399022322487,1.44180004769286,1.44346091132428,1.44517170845737,1.44676459549956,1.44915091710362,1.45106563495806,1.45202711361357,1.45286933873972,1.45294618207816,1.45137666348323,1.45027269813505,1.44902511225857,1.44808264887836,0.375375481734842,0.338529806183024,0.304581723773219,0.171536137128863,0.131711245670935,0.08381962285347,0.123644934771079,0.163471031493719,0.203297037380725,0.243122574889659,1.37843472228984,1.43509699815972,1.46780476666462,1.50946307474834,1.51040138925344,1.5093828590704,1.48339823166296,1.48151110480071,1.48362658684764,1.5001088944328,1.49926492913221,1.49942430823287,1.38413141137796,0.7142900046248,0.713978473913425,0.713397835554425,0.712632914791836,0.712663742247342,0.712496149185258,1.07050625544269,1.07050625525523,1.07050625541915,1.07050625583843,1.2430211033974,1.24251967260725,1.24259795682995,1.24226842920408,1.42211542710186,1.42418919003501,1.42633687221655,1.43066739695338,1.42901698413567,1.42875216676811,1.42427407415206,1.42432976353792,1.42352131153893,1.42638983062722,1.42609229492529,1.42604517873824,1.42665817488468,1.42690463818979,1.42713235513356,0.91464584625117,0.913693837056598,0.911919477668539,0.909574944288165,0.907080780935627,0.906742029772008,1.51856478982575,1.52576592835815,1.53256876851679,1.5392849781694,1.5409906499259,1.55666051476238,1.55007395153526,1.54791035550718,1.54303912632901,1.53673595327903,1.53004957040346,1.52628407881491,1.52766611968374,1.52565305265534,1.52320650244592,1.52371563018644,1.52209534910654,1.52198636719519,1.52251735083256,1.52347197035012,1.52345951541593,1.52394540847072,1.52391817919444,1.52433796773251,1.52396444666215,1.52394118783753,1.52334298075638,1.52271158625094,1.52171466788094,1.52112055025115,1.51946680265057,1.51777082207557,1.51389458648012,1.51170378930365,1.50994430438745,1.50853200767113,1.50822611526534,1.50851786566074,1.51177067648072,1.51382548617083,1.51503579341409,1.51601282612358,1.51776705772545,1.52032467868618,1.52048716519794,1.52093483081527,1.5215409406653,1.52277024502868,1.52374475684933,1.52562346015419,1.52721346791097
0.222526115853883,1.35612000001995,0.944179007149247,0.00343851001983799,0.756037052391465,1.37549000001995,0.759636771716941,0.00316670001991806,0.943892868499905,1.37238292985083,1.37567298122294,1.37817103694638,0.765822214178898,1.38140000001994,0.764818318068354,1.38002000001994,0.598663308056559,1.38292078900323,1.37926067950546,1.39975015014663,1.39126801207944,1.39870903311504,1.39162761808265,1.3983551381019,0.169034758663907,0.00336894498201792,0.00311488550563177,0.00299884624575988,0.00179899634638923,0.00233505921724421,0.00110475891819819,0.00206214472955268,0.00115998127428245,0.00258398099139471,0.158182858539044,1.46430016760943,1.4454933635683,1.43852169420828,1.4388059526765,1.43932544781678,1.4511917242736,1.46435347137694,1.45631585291498,1.44424806541507,1.44486833628813,1.44538587974285,1.45047247104708,1.4545578690741,1.45473950390141,1.45469670365189,1.45458341059085,1.45408059516888,1.45472096747675,1.45455917302602,1.45825149881333,1.45924503001995,1.45958409027529,1.45797046017418,1.45713357820569,1.4572135526932,1.45977078290544,1.46272718709548,1.46364603808165,1.46567085762726,1.46579502663326,1.46703327427456,0.34159552091219,0.00330568001987711,0.0918863542130068,0.00336007001986109,0.191246717494319,1.48403592393181,1.48599921913854,1.50997266778054,1.50851207473459,1.53692023733348,1.52521242380414,1.54365000066653,1.51355714767793,1.51648292387575,1.48551149478722,1.4777577745978,1.48627510835279,1.51667034390587,1.49714080155536,1.49802752673542,1.49599955939776,1.51553035070272,1.50003481292761,1.50503014787892,0.711770859087945,0.00325219001989287,0.711674352457888,1.50222000001995,0.232412232798914,0.00326127001989019,0.546722099442477,1.55942000001995,1.24158172393389,0.00332850001987039,1.24161646990981,1.43019611624747,1.42731147930354,1.43022748696284,1.43669513460859,1.57912000001975,1.43518350394802,1.43782090883782,1.43033296068055,0.00340903001984667,1.4337084547392,1.44238075472222,1.45457609812994,1.57942000002129,1.50067707445076,1.58186000002012,0.219052860917295,0.00362461001978318,0.0985653327462764,0.00342305001984254,0.905517788493447,1.50829385869777,1.51270809926368,1.51081139290001,1.5106237438489,1.50950769188583,1.53615134018944,1.57102003059638,1.53972048527725,1.5312221430807,1.52795604726981,1.52396358969749,1.52561823028154,1.52482404135884,1.52630408673556,1.52643043310321,1.52442579078156,1.52633374494097,1.52526275896512,1.52871399855716,1.52500452567389,1.52599731881378,1.52396474014405,1.52529215178461,1.52482710313683,1.52742075188913,1.52550024893065,1.52749035334472,1.52549005254955,1.52553204023062,1.5238434814141,1.52418818830155,1.52203030552083,1.522358801046,1.51301785047783,1.51196132537367,1.50997744372353,1.50729087115093,1.50762575317306,1.50516345741192,1.51339845890597,1.51565436709449,1.5160566511717,1.51707279755962,1.51822668076351,1.52007509511579,1.52010380111331,1.52124881369444,1.52191293399497,1.52431630871481,1.52407324020289,1.52794614021548,1.52745169761996
0.262353641214558,0.943540139224152,0.943232171683095,0.94181906843151,0.940543335077897,0.940258538448617,0.940458249494374,0.941655963452656,0.942997720999616,1.37439706487205,1.37646380753445,1.37729773384571,0.765626344165469,0.7652996773971,0.764949114827119,0.764818318068354,0.350842726728749,0.312987911351891,0.277046609875018,0.242907812888408,0.210410683393217,0.179352577542986,0.149499170987608,0.1205948605038,0.0923752670195653,0.00320679422850222,0.00298798995188633,0.00229865033689004,8.6883377399459e-05,0,0,0,0,0.00182809887189863,0.197511269161452,1.455176241131,1.45566314933149,1.45620504345626,1.45922938620164,1.46165816459107,1.46387776596193,1.4649160842455,1.46547775316743,1.46558904602951,1.46523405538103,1.46451822454071,1.46373283525882,1.46170536595712,1.45870097417631,1.45679092386617,1.45701061099613,1.45865503985226,1.45914825608196,1.46006997161191,1.46033931419044,1.46131008918422,1.46155864171409,1.46184189479545,1.46175481001111,1.46157429870141,1.46160022203804,1.46205980088747,1.4630754595381,1.46435842701662,1.46511363612497,1.46583731040169,0.871524723219365,0.871523317448989,0.871522447639253,0.871523314216828,0.871524717989619,1.47971757586486,1.48813014187528,1.50773906428034,1.5074907942819,1.51489525952887,1.509160431798,1.50666047966427,1.50423044622448,1.49820695996513,1.48797815917475,1.48936283252849,1.48949069652568,1.49186649749811,1.49414185694971,1.49462941719095,1.49407670858144,1.49333274930936,1.49490217626177,1.4937457557402,0.71110066259721,0.710781472812488,0.710814576105236,0.19641736882912,0.156592512779168,0.116767662856033,0.546640078310651,1.24020638749273,1.2405853498247,1.24060014491508,1.24084459778067,1.24064950454747,1.40780998630096,1.43843984443475,1.44141596191498,1.44185257377889,1.44046025500709,1.44131941234221,1.4439355168815,1.44611611405427,1.44705994419226,1.45023147732094,1.45471208491299,1.4886504519975,0.846864800434464,0.205066035960388,0.165241192210388,0.0985653326486276,0.13839092806791,0.216080666544473,0.904636411502294,1.51058951019207,1.51185436362731,1.51148421788114,1.5114194775408,1.51560316760258,1.52551047149193,1.52542265549639,1.52531168384282,1.52586545773101,1.52612113867874,1.52606941622995,1.52614411182361,1.52579019843464,1.52626070245377,1.52640486228174,1.5222052266865,1.52410445503367,1.52409553432167,1.52343165191115,1.52323459356844,1.52181593433929,1.5214536721653,1.52174754291437,1.52271779711062,1.52317037034037,1.52297091082914,1.5213296501856,1.37910463495941,0.745244809695525,0.745263242661548,0.74528165174214,0.745281586472945,0.745263064342693,0.745244566107282,1.51158021672469,1.51057806100524,1.50953587956199,1.50965962303536,1.51124631950961,1.51321583124104,1.51497361497154,1.51656593674021,1.51776541855973,1.51837677951324,1.51911324171044,1.51925692073215,1.5202396332305,1.52078456508831,1.52083897721674,1.5209358388026,1.52136064078933,1.52354883054441
1.37141266354742,1.48173000001718,1.40132428617432,1.41029017174901,0.939979218285096,1.37998000001995,0.939890537453427,1.38208000001995,0.94329561128552,1.3806942023049,1.37859614099577,1.3944003258182,0.201107988810596,0.00306776533747095,0.160915074857467,1.40444000001994,0.170786336997496,0.00309648049753216,0.00329127751530762,0.00351281924557244,0.00359630377813014,0.00332017684885885,0.00349299543058377,0.00334527203422668,0.0645762333553398,0.00326789417642724,0.00315437184096571,0.00320888036436652,0.19885555111843,1.44684372031287,1.44713076588989,1.4470473558188,0.234256262939686,0.00288485902099085,0.237081534463513,1.45420891566265,1.45553927914365,1.45345932165704,1.45974621577028,1.46249955140372,1.46476607131732,1.46566712513834,1.46887118245264,1.47078038933768,1.46875834186085,1.46574573785641,1.46525883788931,1.46416644561539,1.46635794191037,1.46648811600252,1.46410446456619,1.46122841191109,1.46036032339608,1.46107293098294,1.46164350501772,1.4637106678249,1.46293389169501,1.463324689082,1.47130750927806,1.47638881863678,1.47754171831635,1.47677249165213,1.47958013532283,1.48050471518097,1.48097935433008,1.47930422628424,1.47840269809179,1.47803364944683,1.47662818414936,1.47534952589855,1.4753842339563,1.47537348182169,1.49060973550526,1.50598574671502,1.50654928091785,1.52099103887161,1.50632678657226,1.49887533679179,1.50173274891498,1.48860360585427,1.48904374051773,1.49097021135987,1.49081446548826,1.49210553055112,1.49306017105552,1.49250802232578,1.49266143581482,1.49144798544822,1.49291100957817,1.4931467218717,1.49286838183206,1.49307328612369,0.710205199773401,0.00330647001987685,0.116767662902352,0.00335196001986348,0.546464363783675,1.45663000001995,1.24020638749273,1.45794000001994,1.2406471500737,0.00320837001990578,1.4078099863012,1.44607959100661,1.44463439832767,1.44325942876933,1.44391507192731,1.50415000007863,1.44814599224842,1.44867778847277,1.44705271883367,1.46592913722941,1.46019447336746,1.58895000001995,0.847299040712697,0.003365857436557,0.00324433991113117,0.00331817167985073,0.178217782501001,1.51318000001994,0.910995722590705,1.51101386431628,1.51163422659503,1.51140322190114,1.51157903904877,1.52656403625478,1.5258005380278,1.52547579964934,1.52433279465324,1.52264891720705,1.52462290641202,1.52806340685388,1.52706481645191,1.55771013724605,1.54666182411465,1.5552801996014,1.51721759783582,1.51294597894603,1.51340836722454,1.51439963415006,1.5145687531282,1.51480741796152,1.51768617217118,1.51782831610906,1.52095393193149,1.52185020168397,1.52144457591605,1.51924864834976,1.37910463495965,0.00340204001984869,0.11200916649051,0.00368803001976452,0.120859637525506,0.00332762001987065,0.584890642383925,1.51209590300073,1.51107973200156,1.51045709317108,1.5101815890118,1.53622017067668,1.52339504313668,1.5324442667258,1.51785929178056,1.5194586044049,1.51891044135822,1.51921393511142,1.51550054322807,0.00350541001981829,1.51102173251177,1.51794919324315,1.51857571210983,1.5175988146974,1.51769611360498
1.37442604043224,1.38513851726332,1.38547794636587,1.3860115441355,0.350757858263639,0.3128446318271,0.276783785853947,0.242461029333981,0.209704763951151,0.178301828100336,0.148012898066227,0.118565069950879,0.0896861204662961,0.001909910881376,0,0,9.35932131270379e-05,0.00236803291631065,0.00315896860059552,0.00349136080742855,0.00369074633700644,0.00354079080928587,0.0036430664126812,0.00354846118268323,0.108152827927776,0.147984790553774,0.187821120399969,0.227657410089895,0.267489307741685,1.44720906721867,1.44731391457917,1.44731088529778,1.37327552126022,1.37327552126045,1.37327552126022,1.45726561264825,1.45858300814164,1.46104745223971,1.46239237462008,1.4638523370977,1.46693004555084,1.4685015016508,1.47003235785644,1.47088181862546,1.46970029329238,1.46807200876054,1.46750197048356,1.46724086974869,1.4683749951415,1.46780132960397,1.46871597516105,1.47035399377788,1.47189883733,1.47246395688785,1.47320006561313,1.47368419285612,1.47512547782237,1.47643763487906,1.47761536351327,1.47819305542556,1.47898034069871,1.47931419936054,1.48088455645431,1.4818949374323,1.4828806858554,1.48374439371469,1.48653873375973,1.48842248671394,1.49008634489148,1.49130420589526,1.49257233659868,1.49408463149142,1.49359156965234,1.50709428996052,1.50637539110193,1.50481053916661,1.50407654270724,1.50177480090486,1.50189593339943,1.5012817831497,1.5002971407504,1.49945365607015,1.49707735767435,1.49529823797082,1.49381944531919,1.49336480206496,1.4928786351537,1.4927413537921,1.49267724421734,1.49266384050434,1.49264810743558,1.49274084719044,0.709884745967566,0.546722752757494,0.546640600578537,0.546464652477189,0.546211439681155,0.545704069390987,0.545384188463661,1.24675369959094,1.24653159929562,1.24675369959094,1.40780998630097,1.44673253507287,1.44714898522148,1.446857548582,1.44836345719927,1.45142064434031,1.45107279167581,1.45169230054568,1.06668891695419,1.06668891663533,1.06668891661343,1.06668891690131,0.848027730222676,0.00328332127218575,0.0032708664668737,0.00329563479732477,0.218044491167404,0.910564303975952,0.910441077604502,0.908031536627098,0.906021759359365,0.904885684132841,1.37744388137058,1.52665255803933,1.5260201184113,1.52513870289968,1.5236505477683,1.52180096327699,1.52009517823157,1.51720692703918,1.5149382831732,1.51354747702404,1.51293826339774,1.51302746721813,1.5134746920627,1.51311751219148,0.890423395427501,0.890401609355649,0.890367789795276,0.890335739096119,0.890316815108751,1.51959390015658,1.52138691344197,1.52233392513082,1.51303734961689,1.5070891747394,1.37910463495941,0.585105397918592,0.58504027731545,0.584952570081195,0.58491893014822,0.585023727772392,0.585312090661293,0.563351762536074,0.563690896059887,0.564281161910759,0.564979125358172,0.56563405645183,0.566127629198033,0.566389220981096,1.37532610925752,1.50425168225917,1.51096643204431,1.5135414630023,1.51072957520241,1.50171923354961,1.50590007960044,1.51106349826923,1.36868595303942,1.36868595303965,1.36868595303942
1.38299757366866,1.38520140999961,1.38578208133637,1.38689995130867,0.294974564362918,0.00349623001980689,0.0831375793011941,0.00286772416018245,0.00178518973581199,0.00252475859066263,0.00163448670969692,0.00245391182338973,0.00150036358510303,0.00266999081467816,0.00184088787188521,0.00242869574390188,0.0020917864531209,0.00310117793944252,0.00329057456100389,0.0034958536374187,0.00363659356139101,0.00345631050755032,0.00357997752446066,0.00347054456548101,0.204166514482457,1.4518726083372,1.45324263877619,1.46876538072538,1.46407759481198,1.4641828340936,1.46307181730847,1.46311314429106,1.46148183636849,1.46032531260821,1.45969582352648,1.45890302465203,1.46020914940376,1.46238513045007,1.46456149708641,1.47207358013612,1.47062329140218,1.47124762653032,1.47174573638732,1.4728470650696,1.47111445900452,1.46931591385257,1.4695003666292,1.46890198560802,1.47201891190037,1.47649199526493,1.47601233126197,1.47488546326117,1.47419211605845,1.47262499689214,1.47408513541437,1.47454602842751,1.47615445138877,1.476975748908,1.4784743000165,1.47957242599461,1.48066652483397,1.48001999106868,1.48237244860811,1.48257537354331,1.48444635418288,1.48501879710298,1.48670069276571,1.48787591448275,1.49101792067049,1.5116347843577,1.49832037315371,1.49637444331417,1.49646431346498,1.51288611524982,1.50707735333018,1.50420199614099,1.50371063525031,1.50235032332208,1.50297767259804,1.50231490411809,1.50127582680197,1.50162881753122,1.50823026874022,1.53015796274916,1.51196490044881,1.50764610648785,1.50766004436664,1.50699354368906,1.50844444612826,1.50963066769839,1.50980470760347,1.5075301037808,1.50713619624673,1.50667423092068,1.06377493381121,1.49847000001994,0.16280693897367,0.00328396001988351,0.18603168700687,1.45666000001995,1.24591570757503,1.45439722154136,1.45394273144918,1.45303151369633,1.45007306923704,1.44858979690174,1.45147384607482,1.45538630373594,1.4540192182508,1.45616847930097,0.181075079506581,0.00344751001983534,0.838580061525347,1.49133000001994,0.848828580947745,0.00343520251418646,0.00333461021045775,0.0035198558036655,0.257870448213351,1.50919000001994,0.911996421852255,0.00353936001980829,0.108139163636541,0.00331461001987448,1.37744388137081,1.5274299161347,1.52626574236273,1.52527291183642,1.52320249090798,1.52072625393402,1.51846521882554,1.51457217712953,1.51337746246508,1.5131679285172,1.50914183214805,1.50693881619116,1.50994232559395,1.54705000189306,0.852348216175803,0.003422098434083,0.00333268193660086,0.00346488659902198,0.183936074709426,1.53266620626155,1.52256083810582,1.52372006697809,1.507110567681,1.4990316710698,1.4948184698982,1.50442018927914,1.47945788881735,1.4857751860209,1.47979275332492,1.48596370985165,0.586163444948611,0.00341732001984423,0.117564707272905,0.00345017001966769,0.0830003150947767,0.0033519100198586,0.0996326099471917,0.00322163001990189,1.37532610925775,1.49368401909672,1.50231859126144,1.72399000001994,1.50495407821811,1.49934109598653,1.5017684713167,1.68505000001994,0.24049501002388,0.0032201300199023,0.232913550487207
1.38299161397414,1.38409885528008,0.663125103673683,0.294974564323868,0.256424029160121,0.162779271607782,0.122957256174189,0.00209614247387006,0,0,0,0,0,0.00195614213444964,0.00231844002004794,0.00261264307376256,0.00277094772021686,0.00309861015027053,0.0797304880700053,0.11704811416525,0.15452674295423,0.192315290758074,0.230521376726467,0.269182844015426,0.308398839676266,1.45389373893013,1.4544304038246,1.45939468298241,1.46118654669282,1.46200666608215,1.46196207330973,1.46187514347542,1.46115750122825,1.46051610896081,1.45998222412236,1.45979125588133,1.46078215416143,1.4632165921333,1.46623391820019,1.47021705412646,1.47210071300789,1.47263116848229,1.47267004085615,1.47292768655685,1.47243313745397,1.4723055841544,1.47226038946878,1.47283867887981,1.47447990785566,1.4766461764598,1.47670678456731,1.47631209735395,1.47613659912663,1.47522037301072,1.47655702432535,1.47633565711766,1.47815237978372,1.47833029541617,1.4802320570904,1.48124971072158,1.48425322195195,1.48628211206925,1.48599386202072,1.48656715579809,1.48817343759473,1.49153149404627,1.49363978380177,1.49497011114418,1.49494390936364,1.50574309479106,1.50037091543337,1.49837355044721,1.49949821758041,1.50243255010564,1.50458379167286,1.50428615538376,1.50442155344842,1.50435157136196,1.50586196388657,1.50964552435433,1.51361220423135,1.51574490061299,1.51741083653161,1.51866365507235,1.51812953309043,1.51763003939094,1.51759039315808,1.51708825030563,1.51531286392996,1.51268024179781,1.51215003647854,1.50891996197499,1.5071037292492,1.50658710544119,1.06377493350776,0.194689002047108,0.12298433869724,0.0829574778929946,0.123135102231125,0.193845376965645,1.24526763665698,1.4552439289378,1.45438732791394,1.45321877481294,1.45140144163075,1.4507615741444,1.4536447755682,1.45442359094153,1.37341394012308,0.181075079527516,0.141250234157938,0.101425387189717,0.838594670750486,0.849904431527021,0.849480415620198,0.849409317102145,0.849118751554607,0.848768348314136,0.848535174128116,0.913672309963325,0.913245229456286,0.108139163231003,0.147964010280969,0.187788857124873,1.37744388137058,1.50291432174386,1.50524572377311,1.51409291876806,1.51222810998916,1.51161096429775,1.51181033519222,1.51212803065523,1.50986863666575,1.50821843855092,1.50721914833951,1.50608146685864,1.5038736018677,1.50310106288712,0.852367193834446,0.00334394551447519,0.00331840540809964,0.00331994412284651,0.123639255830113,0.163470709249716,0.203302162084742,0.243131090181635,1.37865719037507,1.47713666429569,1.47536805354956,1.47461189672659,1.47424632951902,1.47221430208861,1.47183579363914,1.47129746267163,0.586734805599132,0.241814408472157,0.202066500513711,0.162386248604663,0.122756222125017,0.0830840105824899,0.139457465822602,0.179282315627493,1.37532610925752,1.48852361704734,1.48763827837773,1.48651357750212,1.48546507893715,1.48567527935548,1.48577019916765,1.48646769343682,0.200818749731031,0.126393193128539,0.193479974015858
1.39095656496534,1.3930724450872,0.66327098626266,0.00369533001976234,0.220362138712898,1.40783000001994,0.206222840766249,0.00330849102709543,0.236833378007629,1.41768000001995,1.07282546138571,1.41647000001995,0.164719644482842,0.00301982143308072,0.00277368007633798,0.00299004209904354,0.00305217034287859,0.00332075887507873,0.194695241952726,1.44904262998662,1.4484170875823,1.44966000350219,1.45025037427182,1.45243346294981,1.45329996766191,1.45529163158826,1.45605806707212,1.45811927663153,1.45950752114053,1.46102447807588,1.46072908629211,1.461672352233,1.46056762446553,1.46100165488065,1.45976094273858,1.45970191684571,1.45966981455085,1.48045787956091,1.47890184388332,1.47908022326605,1.47501612179242,1.47445008963309,1.47335352965085,1.47355322564377,1.4734764145164,1.47504299001132,1.47453353998101,1.47567640416786,1.47652001237083,1.47898997991093,1.47781476389761,1.47780035265618,1.47899631915889,1.4830121450638,1.48136395873551,1.48459492791279,1.48178917471437,1.48763475609181,1.48372050729816,1.49063939491499,1.48909024007084,1.48907530773213,1.49091223298197,1.49374916557617,1.49317910440607,1.49341194271498,1.49546475781456,1.49758228027499,1.49657079865583,1.51531796115334,1.49952002423751,1.49747567155767,1.50082496888272,1.50321702850334,1.50460284171467,1.50398952799081,1.50541551665157,1.50519776620323,1.50699851961486,1.516366367017,1.51559448237454,1.51763634063111,1.51829180516792,1.52067008734826,1.52077410545191,1.52252981809103,1.5223150428442,1.52156193328493,1.52071111826207,1.5191317796972,1.51688747042486,1.51639730095584,1.5058938361196,1.50601640965031,1.06377493350766,0.00352052001980264,0.0831635934530151,0.00324271001989565,0.0833102517950837,0.0036605500197726,1.24473344754522,1.45693576708397,1.45516628128031,1.45403346389339,1.45162524764247,1.44952007247142,1.45785256836028,1.46128223511046,1.37341394012332,0.00353620001980922,0.0952339832139433,0.0035291400198113,0.838619409182786,1.50060038889721,1.49963038724408,1.49896855079409,1.50000708606987,1.50144984975864,1.50110105541183,1.50135053322978,0.913672525450991,0.00332461001987153,0.187788857131461,1.49543985326896,1.49497855572575,1.49903301240939,1.50288230092801,1.51655405465803,1.5112285437106,1.50741137679164,1.50654425434264,1.50616969102707,1.50778717657111,1.50714070410283,1.5050661081686,1.50073624363203,1.50229773662598,1.50223593349994,0.852399278835819,0.00349870392484637,0.00333120770072082,0.00338385322594485,0.0838103267873562,0.0036181600197851,0.135709190782965,0.00340186001984871,1.37865719037531,1.47910772504236,1.4747430689047,1.47002822899546,1.47058858410234,1.46988715701061,1.47012696956826,1.4701332299217,1.47180796917483,1.47483816592131,1.4740886875909,1.47520915643982,0.199344626099335,0.00364589001942405,0.179282315643122,1.48896093039103,1.48491105104238,1.4889820166554,1.48796650358161,1.48730027896007,1.48569635770063,1.48698973842966,1.48666672275902,1.48821933551082,0.161280052967102,0.00350707001809027,0.154424388276527
1.39079155009118,1.39160583195648,0.66345285760908,0.107870199916104,0.185337496300556,0.943704230135485,0.944037101846361,0.943207729945594,0.942763254226431,1.07282546138571,1.07282546139568,0.539748160936769,0.53929938681964,0.538099299701488,0.536962452900285,0.536154686827785,0.535745165710566,0.535628850573132,0.535632226729146,1.44602082224027,1.4465297959505,1.44767548636237,1.44864579465911,1.45012845144212,1.45197495214102,1.45490802256447,1.456404801171,1.45775932608186,1.45831753521796,1.45871787689508,1.4588140504454,1.45902789818425,1.45912722696827,1.45911812765023,1.45889806023095,1.45877337959883,1.45865481581851,1.47882405181373,1.4772679533418,1.47604687828265,1.47450066778301,1.47346734021156,1.4725513180502,1.47249175116777,1.47265343233825,1.47372108043012,1.4748903686192,1.47629383709147,1.47692218887438,1.47769424943473,1.4778224560705,1.47818352554404,1.47925218636906,1.48085808034398,1.48175217604254,1.48309808515569,1.37505127192447,1.3750512719247,1.37505127192447,1.49184555669059,1.49233763262594,1.49279430027189,1.49356272873252,1.4950225332373,1.49495144346199,1.49522201280692,1.49760526261619,1.49836683244469,1.49825840252285,1.49904281113757,1.49990006117044,1.50116109948407,1.50325477778286,1.50539410243752,1.5064960778289,1.50622278481547,1.50805749314222,1.50900056768773,1.51020650009173,1.51345520375244,1.51476746049565,1.51615573825023,1.51763676761414,1.52103702082588,1.52220783281563,1.52319052196469,1.52281423621717,1.52269879610672,1.52115432342608,1.52046428996071,1.51947045640254,1.51900230154126,1.50470605501154,1.50444900813775,1.06377493381096,0.844701688389719,0.844700283627418,0.84469941544878,0.844700283657454,0.844701688438319,1.24443282897821,1.45613078880748,1.45537803635298,1.4550853555571,1.45555211428538,1.45681070288646,1.45861747089372,1.45993002678759,1.37341394012308,0.175560329425442,0.13573548255453,0.095910632573609,0.838645506186321,1.49929462126952,1.49911033349444,1.49887147056964,1.4993887929147,1.50009675542831,1.50055601923389,1.50113568032765,1.37731823731085,1.37731823731108,1.37731823731085,1.49326034297738,1.49420044669091,1.49639817841082,1.00234685279272,0.838310592019621,0.83830918806272,0.838308321187248,0.838309190699087,0.838310596285353,1.20457325913353,1.50075998362703,1.49595080585572,1.49075886330173,1.48640305731932,1.482836638981,0.852433067750598,0.609826437735158,0.609888038728855,0.60983043298501,0.609650235829354,0.609325712657542,0.608955862788701,0.608707718418634,1.37865719037507,1.46679807935801,1.46713255318105,1.46789499965841,1.46820280932418,1.46802365455754,1.46855424216089,1.46922081266447,1.47035791770234,1.47191050342145,1.47236562841602,1.47322231256098,1.37228433211176,1.37228433211199,1.37228433211176,1.4795214194017,1.48121768620929,1.48181017610728,1.48241286077725,1.48435363077939,1.48396359047881,1.48302276325931,1.374272916765,0.187124210653034,0.121857694373414,0.0801419916483215,0.115720285470168
1.40666024899834,1.4361600262774,0.663533690482714,0.00335783001819688,0.151124221152029,1.46175000001995,0.945470927819485,1.41824406472683,1.41838931881265,1.41843255062012,1.07282546138571,0.0033585100198616,0.539748160936769,1.45483337448975,1.43852209157425,1.43863057746399,1.44006860918764,1.44206868154418,1.44138482762697,1.44247875377663,1.44393891433447,1.44587548013629,1.44633640941276,1.44722014574048,1.44917790958765,1.45530795243402,1.45672023631331,1.45840492129968,1.45760618040504,1.45705957234931,1.45668253859839,1.45735108054567,1.45735478798249,1.45830328210068,1.45763520815164,1.45837174507603,1.45752360122253,1.57038000002037,1.47526492945538,1.47347011834318,1.47346032529937,1.472466495016,1.47096253680102,1.47099674390764,1.47095999290683,1.47191524737778,1.47478492626834,1.47741304087602,1.47716906207065,1.47706773479075,1.47757409333967,1.47783496141839,1.47882467363138,1.47930046796401,1.48130322125023,1.48263734916249,0.219695771793956,0.00357557001979764,0.195921892915738,1.49709827372505,1.49523126120251,1.49596673380744,1.49578420746402,1.49798924921312,1.49666634073788,1.50814378454894,1.50190656099612,1.5004145698553,1.49991741923801,1.49951822475083,1.50069416705217,1.52222041252031,1.50602601373158,1.5087173575981,1.50967243367472,1.5138337760757,1.51148638956667,1.51275608609713,1.51154576141824,1.51284443199379,1.51347636813189,1.51487441655548,1.51521061030933,1.52428834591791,1.52388281600252,1.52523861998121,1.52294591770664,1.5250713913591,1.5202742226886,1.52158229079801,1.52062305246832,1.52037729495048,1.50400287277478,1.50291512513945,1.48770578902406,1.48630404188251,1.48771133652007,1.48752980223144,1.48542014529268,1.48280086707455,1.48133936494311,1.47899843625625,1.47811657629999,1.4758207487273,1.46887512509904,1.46881544238675,1.46721029950346,1.46761057644874,1.46613488015027,1.46450407210328,0.175560329414538,0.0033328600198691,0.838662314983903,1.49796841655371,1.49835404402399,1.49776132226394,1.49839938890199,1.49893679639564,1.4999487122405,1.50168602289769,1.4928312511533,1.50044276485299,1.4878676738364,1.48999623844699,1.49223318135265,1.50579686969767,1.00235978147663,0.00352760001947904,0.083061252819184,0.00342683001981414,0.111716975032379,0.00316332001991903,1.20454418852286,1.62683000001951,1.49175416085117,1.48382840461296,1.48151996729795,1.47915831342718,0.852454802411091,1.47393000001994,0.609988653262232,1.46615000001994,1.06587895529335,1.46236665831413,1.46352097825727,1.4642474118816,1.46543392421776,1.46613796621487,1.4664127331039,1.46613250136338,1.46628132586836,1.46534742314769,1.46670171595871,1.46766747087196,1.46854983694053,1.47022172135661,1.47030434198642,1.47215509077407,1.46953632712362,1.47031481727785,1.4679796836288,1.47774636506405,1.47846257698883,1.47652707671779,1.48099245331108,1.48398730609305,1.48340279198181,1.48255818586048,1.37427291676523,0.00354863001867747,0.0825218149363952,0.00344289001850629,0.0801950087911786
1.41006863291308,1.42888904051059,0.663452523536755,0.0808242839523873,0.117458281698456,0.179035881455097,0.946960860955432,1.41851854638842,1.4183980369382,1.41840636819877,1.27115911818984,1.27177578782891,1.27281345501194,1.44638442933431,1.43862159035256,1.43868209320946,1.43932795224582,1.43980198090999,1.43954255965641,1.43995008643865,1.44089251431703,1.44200866799389,1.44347793085453,1.44539036366997,1.44788327567806,1.44856552308515,1.44929906273803,1.44991172969207,1.45058065219259,1.45241122346738,1.45389245560975,1.45511348712072,1.45564940338668,1.45580435557983,1.4558358508038,1.45565249786407,1.45605636891994,1.45777746228691,1.46004685606457,1.4625990398367,1.46485981968934,1.46680557492548,1.46781179775868,1.46811650649148,1.46800497907328,1.46760442201141,1.46541416732353,1.46439778728212,1.37409069546748,0.654019910829208,0.654166071917779,0.654348445479179,0.654429904980955,0.654349364663074,0.654167727787192,0.654021975222089,0.179870924853442,0.0914884515865073,0.131313295336508,0.195918242129133,1.19811682397348,1.4952012628315,1.4955712388716,1.49638999622104,1.4968733872292,1.50520720905068,1.50339501487541,1.50240957161835,1.50183422541664,1.50185070428382,1.50305034876756,1.50549862739079,1.50650955316654,1.50811318044157,1.50970770329281,1.51170533730076,1.51129250507706,1.511241894271,1.51067535103338,1.5107859074598,1.51169866524962,1.51239476884341,1.51328380335189,1.51380129338791,1.51569552891312,1.51730436893733,1.51862209306371,1.51757372476003,1.51525078547691,1.51199365607906,1.50896794956479,1.50620394206644,1.50448348609101,1.50342294226798,1.48966403987718,1.49027102344416,1.48948550930923,1.48857966457437,1.48588444833558,1.48399092820148,1.48219929020753,1.48051716513662,1.47945619661542,1.47853097128055,1.46833437915323,1.46796702545119,1.46660207058905,1.466832930487,1.46627026349045,1.46564210278219,1.37552317835481,1.37552317835504,1.37552317835481,1.48048602507195,1.48727847607995,1.49751781491282,1.49723492160767,1.49613607627568,1.49320466532225,1.4906120350206,1.48897532028493,1.4874175279497,1.48578279641551,1.48240830700862,1.47952096600712,1.47880199013722,1.00237806576885,0.0830535682154325,0.122807057905325,0.16250038309557,0.202227953310561,0.242001137923928,1.20450793906288,1.20449180917744,1.20450794723881,0.609453399177418,0.60966068709988,0.609950150232496,0.610157987643223,0.610191026850873,0.610079589037409,0.610029231460358,1.06587895499046,1.46368798387304,1.4648353156324,1.46544976279716,1.46629226350492,1.46630220325286,1.4660407625665,1.46584205828712,1.46531869210971,1.46483259034964,1.46514341167148,1.46565398612943,1.46598792885103,1.46635855136037,1.46630640967314,1.46503779534697,1.46596265804125,1.46628325446365,1.46602721045087,1.46533806785878,1.46473544913583,1.46493925488208,1.46575474742816,1.46697164821404,1.46763003193613,1.46805258651372,1.374272916765,0.343416517721905,0.305645020167606,0.269854697112712,0.235903682267142
1.41359314201475,1.43462251856588,0.66327038444604,0.00350768001822937,0.0808590753809588,0.00347960001801054,0.948291735991306,1.41881153014117,1.41813861458135,1.41827144032691,1.41802060907148,1.44545000007228,1.27396557706583,1.69709000001995,1.43827919331309,1.43814520843867,1.43859484319365,1.43813475690005,1.43693353700772,1.43691376620168,1.43755265035161,1.43778461084529,1.4397504329856,1.44263820617002,1.4387159514883,0.00335798001986171,1.44063611866763,1.4434530624586,1.44608289349744,1.44888646418204,1.45114580093818,1.45425086331386,1.45388026129762,1.45448112160545,1.45388455492483,1.45321842105372,1.45356592304261,1.45244446839515,1.4596355231231,1.46215731214799,1.4605813310147,0.00325235001989281,1.4651577537525,1.46548612036547,1.46536204950838,1.46495869732161,1.46403527238583,1.46350878453524,1.37409069546772,0.00334275001986614,0.088618924663034,0.00327594819161941,0.00308542873582805,0.00317376672129679,0.185867760945446,1.47889000001994,0.140046077912927,0.00313079190006287,0.0832213281722182,0.00357150001979883,1.19808777985943,1.49412354364087,1.49489771511572,1.49496878949119,1.49615500542662,1.50558130224263,1.50437004306905,1.50423537959158,1.50338763621159,1.50329615116889,1.50454744292746,1.50739756579232,1.50688005594631,1.5079693986737,1.50948470884372,1.51220111083642,1.51065294162839,1.51052618470509,1.50915823102453,1.50810258623658,1.50999369819913,1.51009727740936,1.51186850702046,1.51230099645169,1.5124385302552,1.5120076194365,1.51644198920982,1.51874118044845,1.51136718310652,1.50784016940046,1.50680727204434,1.50524300629648,1.50420254366259,1.50267002015438,1.49164964423833,1.49424629970544,1.49158533181098,1.49147257225453,1.48550561578833,1.48503297791939,1.48290144901716,1.48141546224521,1.48053086631847,1.48012882748759,1.46739792932863,1.45771735183942,1.46419401502408,1.46680884143795,1.46641036570082,1.46600215370454,1.46479047459491,1.46403134842702,1.46300173679862,1.47227516749278,1.48051719078838,1.49734169415136,1.49657275318007,1.49485162547719,1.49102961849975,1.48632632462539,1.48139572251852,1.47623366624466,1.47594827460062,1.47602490755036,1.47791983742824,1.47860169728839,1.00239099498296,0.00333115001986963,0.21339363499468,1.46607736462741,1.46328571070634,1.46315879198048,1.46101468136446,1.46016352125246,1.20454420325347,0.00342646001984155,0.12451355130736,0.00342307001984256,0.113381578686143,0.00338347001985418,0.0918902176507279,0.00331187001987526,1.06587895499115,1.46568950871882,1.46934427257883,1.46856070037838,1.46966619073512,1.46727515333703,1.46559136150606,1.46567662527501,1.46424004450706,1.46343841237665,1.4634196879486,1.46378242838782,1.46341532154741,1.46280335795437,1.46331182699954,1.46284602053496,1.46309041487249,1.46296251489491,1.46500549109817,1.46608337271791,1.4653808519061,1.46469376334564,1.46618228978432,1.46753166850945,1.46790158936263,1.46884979389157,1.46506679255544,1.4672796543727,1.46654800825722,1.46730523300507,1.46739656861622
1.4174823470947,1.42866572874024,0.663124353381458,0.196769618974823,0.1311389288493,0.0913140791451427,0.949283344569459,1.41659982999887,1.41693070193076,1.41743131151955,1.41752629314051,1.41767432764457,1.27505811578605,1.2760991705901,1.27631295053225,1.27633032622415,1.38992648400976,1.43156503873992,1.43336354821997,1.43414048236054,1.43483602928266,1.43550778551108,1.43549664049397,1.43420339065293,1.43519205352222,1.43550199640895,1.43810398991271,1.44075892945953,1.44322453981877,1.44561559988228,1.44789479203233,1.45009307769594,1.45187722202881,1.45274656681778,1.45295143325875,1.45274556338072,1.4530657685659,1.45375503761455,1.45704589878517,1.45924906849861,1.45949881500427,1.4601469908454,1.46206093618314,1.4626575920137,1.46277092349429,1.46229640651778,1.46220558916437,1.4618503761179,1.37409069546748,0.174374511541871,0.128443770287875,0.00313206768664921,0.00288884996694363,0.00222873261393039,0,0,0,0.00196861472981782,0.123046237716889,0.192664273959619,1.19805157816209,1.1980355078531,1.19805170549092,1.19808800926822,1.19811711001175,1.50475181787193,1.50453642256529,1.50451161215426,1.50433305355761,1.50424130831428,1.50479471807775,1.50551444572884,1.50607400852929,1.50677186358948,1.50834713417697,1.50967344160166,1.50887272617108,1.50773219202645,1.50754100990451,1.50743015615024,1.50625306441491,1.50441534237733,1.50182152139042,1.49942057218851,1.49742656428306,1.49570877979342,1.4942426315623,1.49333294250689,1.49289064184554,1.4929428058073,1.49318825034677,1.49361613120502,1.37441686724315,1.37441686724338,1.37441686724315,1.49388016240584,1.49133457876227,1.49034865040675,1.3717497035913,1.37174970359153,1.3717497035913,1.48125077330441,1.48092523653416,1.48059360522663,1.46661666296567,1.46642394666935,1.46582755081137,1.46643597294259,1.4663310958271,1.46582370243528,1.46443958334402,1.46310659697624,1.46195885644546,1.46109169998728,1.46117858287165,1.46194326978286,1.44586883978394,1.44586862323607,1.44586840668751,1.46947699653638,1.47007181212689,1.47069142554199,1.08149489596543,1.08149491827393,1.08149495025199,1.0814949731673,1.06043086258798,1.06045757542513,1.06047646445492,1.45926041531254,1.46071701130629,1.46090281509981,1.46032882452451,1.45971042451161,1.20457327750038,0.641746305959699,0.641892227512778,0.642074169122689,0.6421550896661,0.642074010389895,0.641891941562621,0.641745949462102,1.06587895529501,1.48029904686851,1.48355879263082,1.48437985052417,1.48057133058613,1.46806128105903,1.46428795686194,1.46312000372262,1.46237383027749,1.46144552535003,1.46127139215685,1.4609702691039,1.46101446021426,1.46070459707858,1.46098689528596,1.46061602012395,1.46050921439037,1.46080773927286,1.45958264134551,1.45929087646691,1.45942257845136,1.4591339632717,1.45848013686344,1.45743701831828,1.45727509986721,1.4584711362772,1.46165362841739,1.46354343481109,1.46497932721157,1.46626256827319,1.46735446178082
1.42185050457989,1.43473746123225,1.40161971390571,1.40401518527009,0.170963778553458,0.00352945001981124,0.94981060272095,1.41394000591407,1.4153720573534,1.41681597653921,1.41673333363264,1.4175906499421,1.27528504323479,0.00351024001981686,0.0857301737370251,0.00317653001991511,1.38992648401,1.43029888343276,1.43115550636427,1.43182655240779,1.43224447150302,1.43418579636657,1.43282198967103,1.43231470135084,1.43284905730427,1.43373171587781,1.43585530537544,1.43831783736576,1.44048873635595,1.44273660413024,1.44457064424483,1.44744246596312,1.45032747358783,1.45251324653265,1.45198556195494,1.45253688791727,1.45223135857096,1.45256071781635,1.45540656016892,1.45844958941798,1.45836201101941,1.45896872459343,1.4601308032823,1.46009681463646,1.46060701779201,1.45900467792163,1.46052860462558,1.45964612598442,1.4608027080327,1.46082507037879,0.183984459231078,0.00333531410392645,0.00301176182059752,0.00285145755804652,0.00175406222464084,0.00244549110967285,0.00174065953054019,0.00277006999974648,0.191254971234171,1.48537570851811,1.48395059894559,1.48412292265623,0.565710536392428,0.0034089300198467,0.215742097040887,1.50424263749853,1.50459544218859,1.50501756717562,1.50508528165106,1.50472492513888,1.50486572620285,1.50408412400954,1.50517974872239,1.50492113486022,1.50752246461602,1.50940441865377,1.50748590873039,1.50416421761514,1.49981978470614,1.4957132286471,1.49437035429469,1.49339659816338,1.49324946525143,1.49420423536006,1.49399060986941,1.49474061931924,1.49441769569517,1.49405194263565,1.49357772690193,1.49353631177579,1.49365178842861,1.49456182327549,0.200018802544445,0.00353415001775743,0.561978905480422,1.49620517064557,1.48974174421964,1.48838280838999,0.19524948944635,0.00325094001989323,0.217035749947505,1.48118736143964,1.4809810602313,1.48054114552915,1.46648699251107,1.46724225936761,1.46651458621301,1.46675561345562,1.4665752787323,1.46658263645124,1.46424049059637,1.46210247249198,1.46076688477134,1.46023458740017,1.46066681516987,1.46288912374532,1.41051520219811,0.00344615001983578,0.803404657021554,1.4689485426406,1.47011390114126,1.47136466801398,0.174573630700457,0.00326172001973609,0.177605764515022,1.46634000001995,1.06041197396752,1.45772000001995,1.10331008332716,1.4575768087138,1.45920051982208,1.45914009764771,1.45935787101962,1.45839265027086,1.4463392885796,1.44765358324242,1.44646767261814,1.44651810706738,1.44521121320492,1.44468398315894,1.44445254291185,1.44480810208908,1.44591780041862,1.46899407937916,1.48066817294738,0.00336874001985856,1.47884305221631,1.46461922895356,1.46264741690236,1.4608186808829,1.46059514168261,1.45857362290597,1.45921299027297,1.45770502766521,1.45885199555764,1.45775291537327,1.45894939498464,1.4579189495837,1.45739416071977,1.45385970128474,1.4517477608953,1.45186722709487,1.4511226554831,1.45277772782929,1.45231475919442,1.45419540752261,1.45479332192452,1.45726415118933,1.45968641398918,1.46024408830165,1.46353214829281,1.46534610611302,1.46654444281431
1.39356101953586,1.3957832292266,1.39909404421408,1.40161971314556,1.37674383959898,1.37674383959921,1.37674383959898,1.41325069372147,1.4136998533826,1.41438827983872,1.41482840537675,1.4151650636658,1.27516999112361,1.27469596851885,1.27412374418231,1.27374530289788,1.38992648400976,1.42111449667866,1.42378568228659,1.42608111243658,1.42787714425572,1.42783043940432,1.42941504609808,1.43004246098666,1.43067362526022,1.43156674730211,1.43357038594675,1.43582150332346,1.437986672819,1.44034042542393,1.44073800466007,1.44877994227084,1.44986260947794,1.45034714081119,1.45063151808007,1.45095257670211,1.45135266943397,1.45197688988123,1.45370181221492,1.45518260477878,1.45673333299828,1.45795131135356,1.45926989189642,1.46002555271548,1.46035613650203,1.46027808286596,1.46104603542168,1.46151514388756,1.46182184982168,1.46199586676994,0.272838336795276,0.23352116738403,0.194684191713075,0.15627397961015,0.118214107779758,0.0804093469924481,0.12583909393804,0.190795397132195,0.231977120282861,1.4849537856356,1.48415357953402,1.48453560336179,0.56548675938109,0.11799672090384,0.158233083630549,0.215736105923555,1.06510842190945,1.50644867374409,1.50635061120463,1.50623185915216,1.50604764378156,1.50576589085742,1.50584249744192,1.50578242068266,1.39011021196237,1.3901102119626,1.39011021196237,1.49812816909558,1.49773063638238,1.49567875205981,1.49410841879461,1.49298463161404,1.49240790853306,1.49193591458954,1.49088000175908,1.48995168856908,0.905284088181012,0.308391271021588,0.269393437448842,0.231172334523549,0.193630484948394,0.156629175916857,0.119996918574931,0.0818850297218703,0.561612678127106,0.561865870920747,0.561704629707921,0.198407879176053,0.125283266905515,0.0832232430840505,0.122965772025272,0.162650101475296,0.202372739665144,0.242143847927174,1.36909657918996,1.45222187534238,1.45189533147707,1.45209598110434,1.45321334905371,1.45520539889179,1.45738773926027,1.45884504120642,1.45869469613624,1.45797234325384,1.45775253976079,1.45682226194696,1.41051576267848,0.803404657021554,0.803646217691088,0.241666258876461,0.201909509013738,0.162213289496898,0.122563346947944,0.0828204624295362,0.137780920765018,0.187201351393044,0.246735304665659,1.10331035723639,1.10331026594255,1.1033103572364,1.39419636964915,1.44358189291615,1.44372030712956,1.44418914035839,1.44504490255846,1.44543768852496,1.44517870420684,1.44475424495553,1.44436427182273,1.44400034765585,1.44407508583451,1.44503986573172,1.44829410193737,1.45744135295603,1.47058091625394,1.46965311503434,1.47051671710421,1.45860866739924,1.452704427046,1.45094593941793,1.4514562195964,1.45265572188292,1.45373674866455,1.45438600172264,1.4546799875304,1.45438602728547,1.45401000671021,1.45318029043622,1.45233163067045,1.45181760597147,1.44969675973067,1.4489552104645,1.44897788639638,1.44979481367647,1.45023169775235,1.45156536356833,1.45303138755887,1.45404938321853,1.45331036818632,1.4526931194976,1.06212720799556,0.4890089215318,0.488674646737262
1.39285384236037,1.39452949513285,1.39722776509636,1.42744999968856,1.4032226819732,1.40496336853523,1.40449862978183,1.4119877080595,1.41168276037856,1.41211404053961,1.41286169664693,1.41294596609055,1.4126980439424,1.412194311206,1.41450686463462,1.41643708315528,1.41742401241766,1.41796546944984,1.4219843585692,1.42348673285985,1.42493582796208,1.42500455923413,1.42670652082755,1.42785454823323,1.42819812947598,1.42845103802917,1.43104708387678,1.43363923606455,1.43541813806528,1.43488387036916,1.43753586022775,1.49895000008349,1.44937754734491,1.44875058568185,1.44886276631639,1.44979048557609,1.44999486316463,1.4506113111382,1.45201457631996,1.45194002972134,1.45523501069542,1.45679680475471,1.45873795887238,1.46025992018099,1.46034141189496,1.46053544514893,1.46170260702651,1.46339991828502,1.46285702602164,1.46326032226092,0.726491319774003,1.47752000001995,0.890570840193706,1.47626000001995,0.222052535679497,0.00347495001809213,0.190979482041158,1.48952996474819,1.48803174595323,1.48710700371617,1.4855387900518,1.48713069446505,0.565205694975164,0.00356587001980048,0.118221198430468,0.00318241001991341,1.06510842160566,1.50795763423518,1.50747992802824,1.50788040199337,1.50715850437572,1.50719315298081,1.50655218437463,1.50662270422701,0.856881255164481,0.00315677001992096,1.08597406588882,1.4982595729974,1.49715002483304,1.49526423487034,1.49383775943203,1.49243160201432,1.49170368151236,1.49035733217512,1.49007529365991,1.48894773454056,0.905264123364722,0.0032500000198935,0.129883306000968,0.00337270001985737,0.105688367320029,0.00333076001806871,0.0818269182932989,0.00338080001811967,0.560724929853751,1.46143000001994,0.561155094159547,0.00346085001983141,0.0854584231555114,0.00372182001934202,0.0832232391941131,0.00336192001986045,0.118999365820546,0.00323783001989709,1.3690965791902,1.45292784396215,1.45204863727107,1.45151955162686,1.44523542508126,0.00333437001986866,1.44916578478422,1.4569727840058,1.45697022447837,1.45513512084615,1.45626569950271,1.45587180673492,1.41051632315826,1.45636000001995,0.804304901143719,0.00338270001985443,0.133789742431672,0.00337939001956998,0.0828584195584114,0.003501080017847,0.0816693959293271,0.00318241001845548,0.206910453307304,1.44450000001995,0.91623933007225,0.00341698001984434,1.39419636964939,1.44392477694135,1.44380601400206,1.44409170555922,1.44431367820167,1.443866814094,1.44399392723935,1.4428902631538,1.44341107027988,1.44292620173559,1.44313711273471,1.44343760723144,1.44606617859819,1.45071360154231,1.4621305811628,1.45445162385711,1.46196559258981,1.45056723807443,1.45074233406886,1.4502987009896,1.44244354424125,1.4352128919043,1.43460450847377,1.42705531545518,1.43921853070813,1.4458168841094,1.4445087204451,1.44385267017277,1.44437211560885,1.44541231007447,1.44639300614686,1.44555688589825,1.44660081171444,1.44587626115665,1.44776435849474,1.4489691342963,1.45153342040763,1.45225257102823,1.45245870227088,1.45160123161465,1.06212720769225,0.00339067425717969,0.00240366324970838
1.39327088783925,1.39529172368325,1.39750680735406,1.39946502197359,1.40157680636947,1.40287541534687,1.40415328288289,1.40658789652002,1.40873719416795,1.41009705292921,1.41145795827461,1.41235833930483,1.41285519184347,1.41315134216299,1.41482868357159,1.41622811642712,1.41783335098768,1.41919505959801,1.42108088299789,1.42196505044261,1.42304904171084,1.42333163303965,1.42441192180822,1.42514565427022,1.42592189280864,1.42648424201993,1.42861776998524,1.43111518758314,1.37120940733782,1.37120940733805,1.37120940733782,1.44091762001884,1.44268249188484,1.44534786328661,1.44662195531494,1.44731359087681,1.44858207230103,1.45058034681903,1.45195918148234,1.45299147382881,1.45547788486968,1.45718362856648,1.45857153278952,1.45928482291444,1.46011911639434,1.46049009919744,0.742115662345486,0.727164454186349,0.727032808118216,0.72681363045363,0.72657885137296,0.726491319773999,0.890569434832156,1.0763167499578,1.07631674978509,1.07631674996987,1.07631675040391,1.48884383356594,1.48802696179816,1.48743506244983,1.06830493317268,0.564413256047919,0.565113754774741,0.566104369167012,0.567181765779202,0.567586456340139,1.06510842160508,1.50756790244936,1.50771810173843,1.50793002553071,1.50753705642152,1.50722899485184,0.856942708605079,0.856922744278709,0.856893173234724,0.856881255164479,1.08597406589879,1.08597406588882,0.649986498990012,0.650132593831853,0.650314847931373,0.650396158377212,0.650315469003522,0.65013371266605,0.649987893854448,0.905222633232357,0.905234551595068,0.556451829683168,0.556124711431243,0.555529483232198,0.554777893006129,0.554017395156249,0.553402151560948,0.553058982274027,0.559899795645391,0.560013266634391,0.560422730650651,0.555580813875631,0.555923924093129,0.556539398569606,0.557300780503305,0.558053900455492,0.558650810284761,0.558979032876425,1.36909657918996,1.43897342710444,1.43913037337078,1.43961925557937,1.43959248012525,1.43925370818153,1.43873472373541,1.43864905020985,1.43936792930723,1.44029400661327,1.37989961858232,1.3793363037847,1.37836864531916,1.37850194198838,0.804964850208406,0.307215539295087,0.26828073808774,0.230181887342031,0.192814112498392,0.156028157700466,0.119639474203341,0.0815846632629242,0.167085601948948,0.211340853844112,0.916686184954687,0.91623933007225,1.39419636964916,1.42697060675335,1.4267551677413,1.42704900268463,1.15278800531509,1.15249300905844,1.15238548647422,1.15250091027285,1.15280326637736,1.44256631265844,1.44217397513184,1.44183321578384,1.44200505761115,1.44035925766665,1.02999705673278,1.02999747401975,1.02999806458011,1.02999848247174,1.06976848476789,1.43585031159833,1.43547441004533,1.43481315184369,1.4335679483904,1.43102584156475,1.40119805380044,1.40119805380065,1.40119805380039,1.43767605055993,1.44023535253588,1.44287546503558,1.44485172863065,1.44593063095102,1.44623947571445,1.44612141142315,1.44607404152864,1.44776524125807,1.44753685644016,1.44621235913049,1.44437150001555,1.44423800879994,1.06212720769235,0.166602246495742,0.000804058991343999
1.39384836062424,1.39575658357011,1.39802874338874,1.39928494478819,1.40079428392031,1.40081957788748,1.40272130680888,1.40353525510881,1.40645903148576,1.4079600288725,1.4104056802176,1.4120638433118,1.41317268793943,1.4126841443697,1.41544700940689,1.41564359820385,1.41840368195195,1.41984183462984,1.4211968719191,1.4202784972897,1.42212681861262,1.42082829516463,1.42244264851501,1.42238077148105,1.42378055277624,1.42300483430584,1.42580471451628,1.54659000001995,0.207889986989077,0.00369248001754148,0.208949464690482,1.43922185017507,1.44179113661813,1.44353571323089,1.44486574878168,1.44455466482424,1.44645344953974,1.45141330190941,1.45232050677287,1.4525999318329,1.45633810350946,1.45788902582955,1.4589473145933,1.45820614291958,1.4603008278057,1.46075895540981,0.742934082580456,0.00324347592687301,0.00322210892761492,0.00351554036437427,0.120432866431054,0.00317595001991531,0.890568565683915,1.48772111977841,1.48947887383421,1.48926722778339,1.4899263839114,1.48921486205752,1.48832490189778,1.48772705927156,1.06830493286916,0.00347479001982731,0.322431641694608,1.51318000001994,0.567586456340139,1.51167000001995,1.06510842190803,1.50696858589023,1.50776929818817,1.50855732219803,1.50769236601533,1.50692076530882,0.20902058011583,0.00348781339053629,0.1871740374053,1.49325000001994,1.08597406588882,1.49124000001994,0.202337052077309,0.00308494655143674,0.0808591628050876,0.00354682001790862,0.0944095912959386,0.00317155001991661,0.635779768519403,1.45973000001995,0.905222633232357,1.45727000001994,1.07619079299776,1.54842000003539,1.48162508548321,1.54821000004482,1.48099114551103,1.55158000003087,0.559320794978589,0.00347364001982766,0.560218836822176,1.4511887315798,1.45733754009573,1.45059342607571,1.45145441893423,1.44584403660148,1.43103468920153,1.43948853412361,1.43741671751694,1.43944629856654,1.43960703789416,1.44047661497993,1.43915459206568,1.4397781268901,1.43874815261422,1.43854027951812,1.43970728874063,1.44162832288652,1.379875318071,0.00334378001986589,1.37717816458701,1.42132000001995,0.805471470096742,1.42195000001995,0.805665458243041,1.42780000001994,0.919787009627818,1.42928000001995,0.211248306231844,0.00319807001830612,0.119043711272423,0.00347518001982719,0.917952021448241,1.42946160615591,1.42826830307746,1.42758152147021,1.42676035865418,1.42773434074039,1.15317528847554,0.00317851001991456,0.0904130661371606,0.00360082001979019,1.15319680230211,1.51594000002207,1.4411077133191,1.43992437730667,1.44024778565838,1.43902815942778,0.193252121708061,0.00299649768065026,0.00200639974864582,0.00302012804200109,1.0697689074807,1.43640767027968,1.43561727036241,1.43491068218337,1.43366031620687,1.43239045161189,0.868451407023415,0.0034880900198234,1.36137300636943,1.43545782699127,1.43438660937141,1.4335126849649,1.43919307901588,1.526710000061,1.49467221962731,1.52671000006096,1.44228034296502,1.4383355404816,1.43832901359395,1.4386004551914,1.442387956258,1.44448348665112,1.06212720799579,1.44421000001995,0
1.39536072605462,1.39727325665268,1.39941470289239,1.40078881335533,1.40148069483649,1.4015510129097,1.40234485247133,1.40327347815512,1.40548883900107,1.40753396914605,1.4100574726104,1.41388846998034,1.41510942452773,1.41693170284961,1.41846892191026,1.41963882749533,1.41994797568299,1.4212007555693,1.4238216879937,1.42529009613125,1.42482476498382,1.42308755032515,1.42241684286659,1.42223332171953,1.37888276112519,0.242031552531129,0.202244272272951,0.162491765751981,0.122768662175063,0.0817720979808341,0.119605942562694,0.155770716004052,0.19235867448983,0.229566395757052,0.26755284164096,0.306429689710376,0.738884917447499,1.45215347209317,1.453624215434,1.45625224781072,1.45940718829504,1.4595723835313,1.46142888614573,1.46062365117904,1.46237715729119,1.46140486957477,0.744490733638335,0.00313425358307686,0.00312197114595119,0.00328963544758246,0.162003741838914,0.211727862563315,0.890569432922986,1.48966110807836,1.49101873106758,1.49137113791437,1.49099765507529,1.48963523555205,1.4886557954923,1.48802071413017,1.06830493286896,0.322431584340162,0.285708480591423,0.255120478599275,0.227358316812052,0.202143660650815,0.179153448847499,0.160480191888072,0.141726456672668,0.123032507452204,0.104067345607507,0.0841214532535432,0.0623036328586731,0.0031578317157892,0.00266011851811223,0.00190466775311761,0,0.000266624646370735,0,0.00193491401521263,0.118994989088475,0.15743010697153,0.196267330828381,0.235579391924791,0.636280176657423,0.637613432250234,0.638851509897668,0.639591440293616,1.07619079269453,1.43299445974247,1.43254318733989,1.43103142636187,1.42896645255482,1.42626515238188,1.35172524161502,1.35172524161525,1.35172524161502,1.46306549629631,1.4605461630297,1.45767364387904,1.44821949774512,1.43716601202826,1.43230106542507,1.43338274812797,1.43518536643791,1.4351440227751,1.43509121726866,1.43485274487713,1.4368643710484,1.4379218945301,1.43833290036953,1.43873217493632,1.43958258627417,1.44055023917582,1.37927155913765,1.37771717808763,1.37628551771262,1.3754169478317,0.805742514342802,0.80579092121463,0.805709112521475,0.80566545824256,0.920047233325531,0.920912709010125,0.921566797545583,0.921811151150935,0.921485441332582,0.920622453148054,0.919360396208178,1.4286425699357,1.42787410806221,1.4267973351349,1.42501038514093,1.42336743728416,1.1535310055449,1.02649308571548,1.02649308572546,1.02649308571548,1.15355709977302,1.42118836674053,1.42393739889733,1.43057120078052,0.893448703511353,0.191495403895655,0.132315244784441,0.00182968493981606,2.73105415057595e-05,0.158378291013973,1.06976950571924,1.43617141420254,1.43576164259718,1.43539576673029,0.86851286201757,0.868492897186498,0.86846332539495,0.868451407023415,1.36137300636963,1.41944661731046,1.41947686819616,1.42042830332225,1.421510015862,1.42486273007125,0.356940290185306,0.319294372347574,0.283775650179551,0.250268046975752,0.218592722940199,0.188531607703105,0.1598357401367,0.132242156806342,0.105516819113584,0.0794767146814767,0
1.39691983542803,1.39855216847709,1.40137551304238,1.40283178338214,1.40272618615932,1.40161603635023,1.40185920570716,1.40169860231714,1.40460339939066,1.4065716567601,1.40835689319836,1.4183720286962,1.41659629318671,1.42224772285489,1.42274705089976,1.431975476978,1.43128778359883,1.43049613737377,1.42817683530364,1.42964562962067,1.42977145330529,1.43293719818255,1.43252552812347,1.4332194881144,1.37888276112542,0.00343714001983846,0.129847290138861,0.00358871001950863,0.083067410555231,0.00339278001814323,0.0816511036951198,0.00326900001818961,0.0914515791555274,0.00312376001928904,0.0764044420657247,0.00340286001960985,0.738487201592239,1.46675287476355,1.468239060369,1.46805013683662,1.46546165012282,1.46902281742698,1.46680388993738,1.47011450062896,1.46743226114706,1.46996811480084,0.746649138928261,0.00325178196277423,0.00320179344715556,0.00344624029294366,0.201828585588914,1.49538000001995,0.890570837104603,1.4939622090743,1.4930612672012,1.49377183473852,1.4926498778588,1.50878481158865,1.50100762194,1.508247487764,1.06830493317218,1.50920000001995,0.132591463563578,0.00339862769404507,0.00349057044863344,0.00364035880067058,0.00351634534776546,0.0033723675515106,0.00338972817503977,0.00333767413183934,0.00332745491851556,0.00331230977702801,0.00338542699944182,0.00338428007976525,0.00313071668387752,0.0031218566253034,0.00223186889167825,0.0027048139027496,0.00182264657501633,0.00271957229868526,0.180789060526138,1.54564000001994,0.771906287577042,1.48935000001995,0.635784290270361,0.00317861001991451,0.101877993584009,0.00340612001984754,1.07619079269473,1.43303365634273,1.43297573319416,1.41749994051423,1.42079067939757,1.42338886194733,1.40885688709441,1.41018965258605,1.40994371057192,1.51522000001995,1.4486247245653,0.00325007001989348,1.43507595775312,1.42528366296948,1.42537911642103,1.41950107668155,1.41646065820164,0.0033916200198518,1.42306721326741,1.43247486619914,1.43537531701499,1.43678636194151,1.43111913027116,1.41928158564123,1.43041648054988,1.45537005588262,1.37983932374437,1.46488000001994,1.3754169478317,1.44880000001995,0.240608239113943,0.0029555727488018,0.00201308280090647,0.00306480202650197,0.919568406655305,1.41622330908047,1.41515826107046,1.41694643288914,1.02424982763659,1.41655000001994,1.02839306594983,1.46217000095052,1.45332163856467,1.47186000010084,1.42311922074721,1.42117706770936,1.15374222196152,1.41934000001994,1.02649308571548,1.41576000001995,1.15377074577391,1.41583755728987,1.42118830601404,1.48727000003797,0.893428738630748,0.00329837001987926,0.0898661867169439,0.00250097377718911,0.000812148956867673,1.51503000001995,1.06976992904357,1.5132400000495,1.46158402364468,1.54502000001994,0.205877702025897,0.00313365620862502,0.20388912195157,1.41943000001995,1.36137300636938,1.41958438640252,1.41872634412961,1.41718037092646,1.41935309424214,1.42817120159089,0.191565355969746,0.00348046826263899,0.00345682024088231,0.00332808382518039,0.00337762794040662,0.00332144138779199,0.00343146922380841,0.00343721302572309,0.00322273881055673,0.00304030991166802,0.00131819533559967
1.3983915174531,1.40259078886303,1.40451606628613,1.40432851138858,1.40492968510843,1.40318260838687,0.869214431066762,0.723755178552734,0.72377363058655,0.723792072693455,0.723792045559725,0.723773556455782,0.723755077288157,1.42566220910444,1.42647265085287,1.43139157824717,1.43192413763371,1.43165151876823,1.4295336170237,1.43016987882641,1.4323662386738,1.43221706344261,1.43208649099824,1.43228864594379,1.37888276112519,0.357019475940926,0.320063835189559,0.285908890543963,0.254419700804423,0.225398892745776,0.198592327209551,0.173696077450872,0.150364332105941,0.12821785305947,0.106852684877196,0.0764723106371532,0.737668022435459,1.46938475631997,1.46976851147152,1.46997863939205,1.40075404715503,1.40124000879314,1.40143506287195,1.40190926156553,1.36814323149708,0.748948480169987,0.749242052365155,0.752654571183256,0.755966352211466,0.758829580951837,0.760936410500674,0.762052424750198,0.359596424940457,0.322163725473953,0.28706782896036,0.25419404527305,0.223377656388574,0.194429536481395,0.167116912190572,0.14112169457469,0.116146985769279,0.0919385719391064,0.0680359474767465,0.00332439622079825,0.00336435565470344,0.00346276248329732,0.00343957603766043,0.0033936000037449,0.00336612668498754,0.00336568133365972,0.00326874124073538,0.00333418840792734,0.00339768811347554,0.00341836763396436,0.00334653278481237,0.00325661038804372,0.00310732446044921,0.00309577963237832,0.16001557211847,0.19984043022153,0.23966528832459,0.771906287577042,0.772037117139729,0.642203724602976,0.642629597820066,0.642952545981425,0.643338020765369,0.643595037180083,1.07619079299825,1.43304714207918,1.43308840358426,1.42334769221141,1.41237728535163,1.40924453631716,1.40827931355249,1.40845807526229,1.40903948876128,1.41338262289575,1.42478956469329,1.42085409345004,1.42462331447533,1.42520587877109,1.42385126542094,1.42131391606773,1.41402003474206,1.4118855030751,1.40750981707944,1.40538374963443,1.40441425379869,1.40457376342282,1.40577480231252,1.40740452473458,1.40795240125336,1.40810500799206,1.3587529395569,1.32009732244794,1.32009747527186,1.32009762809549,0.200897969549998,0.00180931964717793,0,0.209569526942232,0.919298097805198,1.41008762605569,1.41168383750381,1.41099477364391,1.02505843250485,1.02648996066129,1.02822665096068,1.41232586900727,1.41041327884273,1.40829339392078,1.40740725806436,1.40687356343902,0.655995102578898,0.656141008724854,0.656322922551294,0.656403808428479,0.656322694486068,0.656140597875366,0.655994590367759,0.893387248364729,0.893399166765834,0.219190498580174,0.129691030466949,0.0021643279714451,0.00100511979906533,0,0,0,0,0,0,0.0019749799688131,0.122413819268444,0.16217085934049,0.201950694629877,0.241753115181043,0.78990148634965,0.790097354684,0.269459059854754,0.189168165088173,0.149343321338173,0.00346324565896727,0.00347076571408535,0.00341308546060338,0.00342553727710044,0.0034192535188317,0.00344175238701441,0.00335289391529195,0.00299543490661809,0.00207989569165625,0
1.41158124844285,1.40802436983197,1.40934852926724,1.41130380032516,1.40942886829092,1.41177550475015,0.869194466974904,0.00321498001948441,0.0744078685072455,0.00324929810819409,0.00325224309875453,0.00328092309238562,0.187426245701442,1.42853030913107,1.42733966314742,1.43520565429656,1.43403450221759,1.43558297429971,1.37036807315108,0.00315734001992083,1.4380961506306,1.44960803273895,1.44949673199607,1.45107834827172,1.45171276878881,1.45086817533463,1.45369190683904,1.46029653356702,1.46069435504882,1.46125174688666,1.46111182379834,1.46050171615254,1.46263019062762,1.46422497194141,0.171333900491472,0.00336130001892547,0.736452121745571,1.47111035346992,1.47090582460966,1.47158900998906,1.40010794499836,0.00358672001979432,1.40082859581588,1.49387000001994,1.3681431885233,0.00364546001977697,0.748948480169987,1.49360083954697,1.49399263020568,1.49269063478947,1.49312001360131,1.4919170824079,0.221506451977119,0.00350124630675463,0.00351051653517736,0.00342319070995886,0.00351423091820495,0.00358299732704882,0.00353045858111298,0.0033914638024908,0.00350868488880063,0.00345475312407739,0.00319269763326807,0.00314546482837195,0.00317220214194929,0.00330557105281886,0.00330152286118607,0.00325163243524788,0.0032920722074898,0.00333768470968957,0.00297374426862681,0.00324880329433665,0.00341606548403756,0.00349438882623462,0.00345565893975441,0.00342093056506221,0.00334754847747543,0.00334204466321281,0.211209430634257,1.40385008667241,1.39660204305947,1.41034000006263,0.772387767481474,0.00341806001984397,0.642952598215221,1.39899776825258,1.39485303331607,1.63134000001994,1.50271100494537,1.63144000001994,1.47842487640135,1.53327000004908,1.40074488972729,1.39862584958508,1.39896547563029,1.40002768457042,1.40368289187306,1.40421704704768,1.41178157798656,1.40990527352578,1.41474056147978,1.55890000001976,1.45385285445737,1.51102000004741,1.41425078551471,1.41465725452906,1.40611749148932,1.40257743386947,1.40282502256577,1.40347813481978,1.40600960997566,1.4086964855339,1.40827811695536,1.40814274907403,1.3587530740127,0.00329892001987919,0.760914629521457,1.46978000001995,0.16129377058204,0.00248423450512857,0,1.40908000001995,1.00659936947809,1.40780807301911,1.40987439115955,1.40952226366251,0.994821747102381,0.00320378001990712,1.02974167961944,1.41417888687172,1.4105270259603,1.40692874746665,1.40687256837869,1.40616041480383,0.213981834727641,0.0028571573756549,0.00192290081338529,0.00257362261853878,0.00180444183643467,0.00283186337780353,0.207388605204726,1.40609000001995,0.893387248364729,1.45375000001995,0.17577326395194,0.00304528712119489,0.00213664800772415,0.00237619266261077,0.00160119478841335,0.00242983301402504,0.00116400341684895,0.00216234822722321,0.00167371182137166,0.00269766818008448,0.0826794180323401,0.00343876001915797,0.138005499298868,0.00334525001986545,0.789574822392687,1.40553000001994,0.229629861156249,0.00342465466232189,0.00345730779702572,0.00333407454287334,0.00343365680535369,0.0033300533710447,0.00341999198980184,0.00341612748078544,0.00342584704789253,0.00341537387226491,0.00315560380521489,1.40623000001995,0.245834794972632
1.41458178104682,1.41418747766323,1.41316277303027,1.41282726300428,1.38273077305549,0.869152978348029,0.869164896278277,0.19355552057541,0.107834290284015,0.00328069584979461,0.00332466331257044,0.00335822509702654,0.146003170167803,0.185828013917804,1.33751098815551,1.37097077684997,1.37119769641518,1.37082358737467,1.37065532408574,1.37036807315108,1.44344257095734,1.44711935090705,1.44857569264412,1.45089301581324,1.45371603944907,1.45494958834798,1.45661795508218,1.45927602398179,1.46036497011142,1.46101992230341,1.46147100701019,1.46200415476975,1.46307566307255,1.46408389317054,0.734633448298299,0.73476815039826,0.734987243443166,0.734768149189252,0.734633446342083,1.39919241492981,1.39949173468529,1.39969653426512,1.40010360069479,1.39989936931962,1.3681431455491,1.32878323936326,1.328783297289,1.49574477488325,1.4952944432356,1.49456321413759,1.49436160463366,1.49403549328417,0.181681217236155,0.00348317008651938,0.00349615976421347,0.0034219010877217,0.00347269937341515,0.00351522688823528,0.00352065264298318,0.00349404620085651,0.00353792543208348,0.00333671748629203,0.00305823581399354,0.00298994766776775,0.00289201612784402,0.00305534321279706,0.00310228289014458,0.00315269047428839,0.0030107636929344,0.00276213020999563,0.00193032807819375,0.0795949633955063,0.1129537008482,0.146860582430138,0.181336944493873,0.216547217663969,0.252677248720904,0.289892189715967,0.328359701827999,1.37205071607093,1.3716886468505,1.37171692365858,0.772714515697293,0.0992687084103164,0.643338114862258,1.38882651272935,1.39062653568868,1.39030539629283,1.38983767046071,1.39018585396414,1.39136589564513,1.39363594548506,1.39557224672884,1.39714200309216,1.39793329938476,1.39868356161916,1.40090218468625,1.4023753542248,1.40587345336145,1.40641054550948,1.40731867688096,1.40341854153794,1.40147195395931,1.40002960993133,1.39841594277279,1.39801025906616,1.398915762615,1.40038047859586,1.39971077586664,1.39761493221809,1.3951311873173,1.39300576936253,1.39158896137609,1.39124541124989,1.35875320846818,0.760914629521457,0.76104540603504,0.194233247638333,0.12177926768074,0.0018347957332652,0,0.176565816882115,1.00689387973801,1.00728330643445,1.00765515044284,0.994822239768605,0.994821910062772,0.994821743259534,1.0310040315719,1.03143962857259,0.262042015820701,0.222210809989093,0.182375652237416,0.142540469841757,0.10270922413535,0.00187435822430669,0.000374761200939115,0.000516994811779636,0,0.00208493884063033,0.130391276900635,0.200201651990102,0.307983436443542,0.345918676671441,0.280472008487803,0.242423870270904,0.205176454327944,0.168629325088863,0.132655992521845,0.0971175453149627,0,0.00153956278387172,0.00189873797350018,0.00245883960032302,0.1222903397652,0.161938881487936,0.201638169672346,0.241397738856282,0.789224262852414,0.789093467225976,0.18979796714701,0.0034719697712003,0.00351219411351153,0.00349585657178345,0.00347276196274884,0.00339535382807314,0.00341951287530646,0.00341203191894765,0.00335846271334894,0.00321865692676408,0.00279456575240476,0.00179627794447521,0
