1.22641345140592,1.22248282877707,1.22989219760858,1.22525614694222,1.24087156261425,1.36011,1.2414526851928,1.24090498317161,1.24140841104584,1.24120182093759,1.24169455276296,1.24119521590134,1.24367393623067,1.24605862049414,1.24680613631146,1.24836704490267,1.24977450663125,1.25117396210307,1.25244614334255,1.25296201439108,1.25526189373528,1.25801941915766,1.25716152341575,1.25677328726758,1.25578455253141,1.25406086043904,1.25517382185114,1.2550292897524,1.25529789501828,1.25395209995852,1.25700964183322,1.25883075123976,1.26008234402302,1.26098272175062,1.26242144558249,1.26347789625622,1.26444841890143,1.26461377029611,1.26562334465444,1.26583179517137,1.26784043810003,1.27000491728183,1.27078196091128,1.27232986190914,1.27283279249303,1.27376306248494,1.27412327079503,1.27476575666283,1.27572502632802,1.27756743935457,1.27709403989522,1.27767653535922,1.27734863596271,1.27729703762767,1.27762124923912,1.27722162910357,1.27873438777535,1.27822788976471,1.28026703819223,1.27992100087433,1.28212601985794,1.2824272718484,1.28540399387211,1.2871783109896,1.28817228180452,1.28791601239536,1.29102776510112,1.29231129724142,1.29876113264311,1.30126484867021,1.29998473712869,1.29838596658984,1.30274119990331,1.31150865889924,1.30861744869413,1.30934361597029,1.30867682474739,1.43073,1.30723748186677,1.28675375576122,1.28739711506203,1.28648209463166,1.28675354285029,1.28622572463385,1.29520899204015,1.29103966354512,1.4338853848684,1.43564868990158,1.42944417301526,1.43468205700677,1.36056411547989,1.32305774558442,1.32479769736908,1.32770230521194,1.32808955682365,1.33103642774888,1.32890440392114,1.32809565088128,1.3293170053844,1.33031463159535,1.33297615471857,1.33534790054804,1.33665957243576,1.33822946935276,1.34027168118114,1.33943117846819,1.34218502551387,1.34149432977924,1.34867872298217,1.34932281254291,1.34960203919001,1.3487799542987,1.35227138588946,1.35576503955764,1.35631979122125,1.35866072631548,1.35838738101529,1.35981123800391,1.35861499886391,1.35747743552786,1.35908130595614,1.35937705904507,1.36123198145818,1.36185504926344,1.36446163763068,1.36614300534941,1.36901217661844,1.37494803287539,1.37524771269628,1.37736396689379,1.37702626169818,1.3779113731748,1.37754554476611,1.37731799856121,1.37732513322995,1.37488632312346,1.37833435709631,1.38053771207676,1.37942831582037,1.37921983522426,1.37886693802868,1.37900853129191,1.37867932650424,1.37845637045661,1.37954847658628,1.3812339275863,1.38066084754691,1.38092547850814,1.38274703725891,1.38491174707128,1.38435717347105,1.38522118371871,1.38495832554615,1.38663868544353,1.38738022880889,1.388119245653,1.38972628563645,1.39092204012419,1.39368510311505,1.39694046455864,1.39741567274594,1.39874145168422,1.40037719989734,1.40207395624385,1.40315051736947,1.40375340354329,1.40670407123908,1.4102880388059,1.41102459448481,1.41460571856094,1.41389072355057,1.41642992625933,1.41582844862437,1.4157812540138,1.41755288934165
1.23154297021872,1.23368102774276,1.23376540380913,1.23554024413688,1.24118069429016,1.24211788794192,1.24157677420888,1.24088358048656,1.24067865713012,1.24022924441537,1.24072874474223,1.24103335106872,1.24234203792366,1.24356416120141,1.24474862171362,1.24587862507612,1.24836319160039,1.25015097960223,1.25309147532979,1.25532148966902,1.25680444699359,1.25808118781224,1.25778670465516,1.25717401153941,1.25643693020135,1.25554297258141,1.25621038836756,1.25664972399536,1.25703349482761,1.257242782267,1.25903567082764,1.26075122518944,1.26197970237703,1.26305149818807,1.26440646014273,1.26557045992062,1.2662623291294,1.26659362029552,1.26742428690468,1.26812019512091,1.26921038203944,1.27025035205259,1.27202153266822,1.27363916734811,1.27473680092626,1.27559098618189,1.27581985255079,1.27592698337261,1.27672545248465,1.27744492878651,1.27792960019656,1.27825645008827,1.27859681827614,1.2788282386659,1.27898990286839,1.2791606564099,1.28040546449634,1.28122593092281,1.28253449737755,1.28330649633494,1.28417283908285,1.2849591296806,1.28659319216506,1.28802842488564,1.28936792276272,1.29047560927455,1.29229158258445,1.29413987085295,1.29734659694567,1.29956056638138,1.30061245745157,1.30187470993554,1.30445844173442,1.30815468769595,1.30867349742558,1.30953465859091,1.30998403536773,1.31065784496654,1.3077489191898,1.3049452556118,1.3015728189611,1.29761885769352,1.31655620596484,1.34001763850575,1.36350713573194,1.38576895443817,1.43373848234953,1.4344378461944,1.38935199591159,1.36757005835119,1.34610252880857,1.32455624884606,1.32587105656301,1.32705619519523,1.32857485752461,1.32934761551356,1.3298725724427,1.32951443771995,1.33129271281368,1.33245849062621,1.33527194053462,1.33750505537519,1.33942299449076,1.3411628884757,1.34242739681544,1.34314415670808,1.34447681245858,1.34555638340541,1.34822677557172,1.34926457530501,1.35006831620695,1.35061248462295,1.3525122235907,1.354428618661,1.3560043188113,1.3574029750848,1.35858215951089,1.35957128111795,1.35997017230732,1.36026716554264,1.36095650166132,1.36160110326634,1.3628716641686,1.36418507585471,1.36664563422147,1.36918177512152,1.37167466758887,1.37461113698213,1.37642145456695,1.377952630157,1.37847477078421,1.3787202320863,1.37927375206103,1.37952956431114,1.38057715133205,1.38211842912066,1.38187604108404,1.38207004062139,1.38168817944275,1.3810233980331,1.38081379435015,1.38054972571926,1.38067993722103,1.38079329858343,1.38175790104934,1.38260859192024,1.38326140653703,1.38361567267449,1.38480011197558,1.38521200478615,1.38493670632596,1.38431196524894,1.38463355337859,1.38603152791816,1.38955335784009,1.39116278947678,1.39236321209397,1.39365887189717,1.39546935311857,1.39749595613522,1.39906141965869,1.40097932117881,1.40247426618781,1.40384767587729,1.40479488684196,1.40553047031211,1.40742453752895,1.40920890142253,1.41123990157537,1.4134342580056,1.41455903023912,1.41601187521738,1.41669314780371,1.41751542219631,1.41819265744593
1.23374859934994,1.23496916351966,1.23534787697219,1.23704142793237,1.24023852329629,1.24339646614965,1.2417435672553,1.24042138063931,1.24014613790593,1.23828848440938,1.23997275415928,1.23967052114518,1.241202562538,1.24075287415617,1.242911710986,1.24181231984217,1.24797088282911,1.24785196088036,1.25420890871725,1.25831222200334,1.25858277202997,1.25984329552232,1.25880421514717,1.25786389817603,1.25714798207361,1.2556900605995,1.25728841983858,1.25864812357509,1.25871225562982,1.25929571937739,1.26091034364764,1.26344005051378,1.26386975396267,1.26496659841468,1.26647280488539,1.26801073279747,1.26844585949966,1.26770743022272,1.26951839963946,1.26968247872792,1.27080293493058,1.26955756923532,1.27349970904125,1.27544913888319,1.27681630067652,1.27824015078412,1.27745041293408,1.27669771222985,1.27758993425432,1.27784096323106,1.2787661335148,1.27896137898801,1.27991227956762,1.28037474449702,1.28039814456817,1.27977322844735,1.28256877833564,1.28605810472177,1.28538872972715,1.28644916395126,1.28629734486201,1.28667630382567,1.28788563712569,1.2890906535397,1.29063672344957,1.29246037724949,1.29339821803595,1.29477256629247,1.29703065670609,1.29928261913972,1.30113887927233,1.30416953071124,1.30521546818479,1.30790111588679,1.30839161806878,1.30995303974041,1.31096088943256,1.31394752193485,1.3144047236339,1.34760730745013,1.3211126254394,1.29326106605192,1.32357401962937,1.43118,1.38938973983503,1.43354864016987,1.43377650411259,1.43454134548095,1.36873463040512,1.32268435190651,1.32558228038592,1.32501870204839,1.32667393980541,1.32715079121972,1.32888892073519,1.32969066280879,1.33055049965851,1.33065639528085,1.33277603713382,1.3345631938323,1.33739619725372,1.34061095438519,1.34218664384024,1.34436518297018,1.34510883588103,1.34567510661713,1.34697441877201,1.34733596759325,1.34916580167364,1.34874612383286,1.35069736908439,1.35077138414771,1.35270037023875,1.35354393747492,1.35577998839282,1.35676050502808,1.35885648358784,1.36045132850101,1.36132747062955,1.36312350008545,1.36284826977274,1.3635342806423,1.36449605561711,1.36566023038251,1.36866599544899,1.37264417306781,1.37352763301115,1.37597417982766,1.3774699946151,1.3804112562346,1.37974109297852,1.38028810619867,1.38072614273569,1.38203595790616,1.38265570471514,1.38454484077962,1.3843364243851,1.38521620237136,1.38375895258295,1.38309778165711,1.38256724470499,1.38232446578486,1.38242233925481,1.38314979229674,1.38357651060362,1.38549229648557,1.3853466127608,1.38682890751131,1.38666663565555,1.38755165464416,1.38527339169566,1.38302078355206,1.38353382937688,1.38354442057246,1.39359297370447,1.39466208052723,1.39497665602592,1.39597881847473,1.39718314908106,1.3985685399703,1.40057479792011,1.40367163455025,1.4048346459804,1.4060294922273,1.40672103753605,1.40615158530199,1.40822523723562,1.40804979786334,1.41127479128115,1.41365877410873,1.41500122699223,1.41665196487525,1.41759528074864,1.41971886116553,1.42555230406168
1.23332398556994,1.23429063898111,1.23522792410213,1.23671928470748,1.23916962079173,1.24150762453077,1.24159238825192,1.24146015664858,1.24121683267375,1.2408813544101,1.24107270863077,1.24111038668724,1.24170491216135,1.24217419922705,1.24390792026956,1.24558231622104,1.24821280388091,1.25032652054625,1.25409178114889,1.25846446102266,1.2594095873538,1.26002596733525,1.25987631409563,1.25954423224665,1.25883872217062,1.2580594357109,1.25895809823566,1.25972311402597,1.26026787565989,1.26078029673253,1.26221709020943,1.26397425658329,1.26533958055035,1.2666862860341,1.26851920763428,1.2695864679994,1.27152686408925,1.272510951437,1.27295399130758,1.2735764342432,1.27460033353138,1.27661700078539,1.27697821096367,1.27808399763433,1.27903009573851,1.27958767026064,1.27935745464333,1.2787562843006,1.27939660054815,1.27967379840528,1.28052095844655,1.28111125213048,1.28173540368161,1.28210157023055,1.2823022745095,1.28234893038283,1.28375445678344,1.28505469503269,1.28632893668799,1.28736405460622,1.28791625613886,1.28834844105169,1.28929581497107,1.2901969602321,1.29178345745145,1.2930886523319,1.29415776532164,1.29503894122403,1.2968772082769,1.29825637006241,1.30058784853121,1.30266887430966,1.30433425975966,1.30589446434027,1.30686072667686,1.30787826929491,1.30968384678883,1.31257998626922,1.31465462177561,1.34686513066972,1.34550629057989,1.34325358002426,1.34020990830138,1.33893536318463,1.33869594131942,1.33940490196992,1.33873597276461,1.33837915746412,1.33752814171779,1.33069878947886,1.32915754705329,1.32854218005358,1.32933124099361,1.33002926742991,1.33155361613658,1.33257009551804,1.33379050613921,1.33465843467244,1.33597167400261,1.33729760791665,1.3398008510686,1.34236219148472,1.3443123006082,1.34640900019899,1.34748334910515,1.34882713243216,1.3497001285291,1.3508869199567,1.35152785540713,1.35131721287799,1.35260977293252,1.35291853524473,1.35382664769083,1.35497475738445,1.3569840434041,1.35873177896449,1.36004194862087,1.36118701777754,1.3621975905729,1.36331653998211,1.36409014667604,1.3651352102455,1.36613372845696,1.36761967361141,1.37001620528427,1.37269902731301,1.3743661842106,1.37579905168768,1.37800750275987,1.37974146796443,1.38097528356043,1.38173927418697,1.38263154962779,1.38296624878112,1.38475875423162,1.38595092025686,1.3871821587366,1.38692710908867,1.38628436757294,1.38510419826118,1.38497536914746,1.38473862990892,1.38447996864488,1.38400913934175,1.38526447237545,1.38676149976953,1.38749864713199,1.38806610140127,1.38924568767657,1.39049905698306,1.39277350666732,1.39461529075396,1.39664483126545,1.39712476605586,1.39644233678233,1.39662967709149,1.39707790014281,1.39782614751167,1.39876295665445,1.39976679187004,1.40107108626897,1.4033691437017,1.40696517047551,1.40886837759023,1.4097290484903,1.41010006111784,1.41125862924703,1.41169950492647,1.41243866357093,1.41370343610769,1.41553794957634,1.41834054475138,1.42156188163247,1.42515305960313,1.42922611924357
1.23254709532278,1.23331353966199,1.2344990149485,1.23524928535302,1.23821630888808,1.2417930283585,1.24169590526844,1.24264864886532,1.24236463679991,1.2429037732342,1.2423492126335,1.24175078961941,1.24246201584108,1.24188619015882,1.24518627725784,1.24807436991757,1.24941054719961,1.25101458546302,1.2532645304239,1.26195340161045,1.26050230965311,1.2610612177776,1.26100900702818,1.26178959977446,1.26040211301222,1.25907510072229,1.26049292864875,1.26141454605819,1.26153445203941,1.26172062915466,1.26294549598771,1.26520628756022,1.26663442346277,1.26811797163913,1.27116822095815,1.27582916992033,1.27551555498429,1.27699203679127,1.2763603762321,1.2769314015302,1.27748266142953,1.27830342761943,1.27968433447435,1.28103654837445,1.28150046258871,1.2820274900465,1.28142698529803,1.27979328964645,1.28124415989222,1.28114969441763,1.28222449137147,1.28327955459902,1.28365582023912,1.2839240072263,1.28436261683769,1.28337588250367,1.28512812623081,1.28392171131078,1.28755084769668,1.28880595859265,1.2895774000975,1.28963209635478,1.29056797842146,1.29080543455586,1.29306210328273,1.29407692987929,1.29494295242211,1.29437499093218,1.29720129186869,1.29630349446146,1.30039257163946,1.30151194717198,1.30373249020517,1.3043147257345,1.30544835244961,1.304752693902,1.30727588448166,1.30424869356521,1.31605077849129,1.43116,1.37939938675342,1.4335,1.33789373834366,1.33753232798409,1.33654528476054,1.3254544344581,1.33741697685062,1.33832844677737,1.33615406037926,1.33179404532681,1.33141650689766,1.33094403774263,1.33171925107438,1.33288958840395,1.33405537088732,1.33625890661071,1.33650140306121,1.33793154445517,1.33854959961031,1.3394458717332,1.34206661406859,1.34471894229434,1.34654638308147,1.34903295883696,1.35001820621421,1.35178195561585,1.3525059799661,1.35426392836376,1.35487092570672,1.35747884490998,1.35553720349206,1.3541650277339,1.35483352974155,1.35553692984412,1.35842956635668,1.36134632936207,1.36147572662312,1.36242936967266,1.36315164227256,1.36417083563997,1.36532827546661,1.36695500004307,1.36756664115275,1.36883874177614,1.37124282027753,1.3741738458897,1.375208610424,1.37572247313531,1.37857638761916,1.38068125366036,1.38210246417933,1.3843071417105,1.38461265181424,1.39413273065781,1.39182319308864,1.3925566164812,1.39038602891606,1.39166480191427,1.3885063523905,1.38724934500109,1.38699348512085,1.38814496089662,1.3864108132439,1.38408512605316,1.38626608500794,1.39021533992011,1.38900584102059,1.38988230577464,1.39079778147276,1.39360678830537,1.39575386343565,1.39763432620645,1.39782807629879,1.39842962966092,1.39793828249044,1.398692124496,1.39886971932764,1.39973507583969,1.40047228657895,1.40087971131643,1.40111385531251,1.40187511824234,1.41094893963043,1.41244125176254,1.41330830962631,1.41590776168152,1.41498568308012,1.41400191452354,1.41327382328345,1.41356519943799,1.42544674305608,1.55972,1.50692134863634,1.62854,1.43852776028774
1.23226156344134,1.23323078107691,1.23393072232368,1.23464544285539,1.23648749097613,1.23856246136968,1.24073260656443,1.24203745483551,1.24267993991312,1.24347288490208,1.2435271608805,1.2437643685962,1.24416185806072,1.24481894204361,1.24641430210238,1.24834764128713,1.25010007628365,1.25237491068657,1.25459153228986,1.25833344412125,1.25962741872587,1.26068077999179,1.2614386018418,1.262211097777,1.26217653601379,1.26219200752826,1.26288927313918,1.26331003754345,1.26311763428389,1.26224263362557,1.26308146344904,1.26484142558576,1.2682315757153,1.26975424530373,1.27247246073422,1.27675808555398,1.27770420852858,1.27823039288342,1.27850951818172,1.27915312564505,1.28006551138368,1.28063805967735,1.2825135922089,1.28371633630499,1.28417381423714,1.28441500224162,1.2847632593169,1.2847792226269,1.28471421959596,1.28389487254404,1.28401685088557,1.28264054347,1.28559056554671,1.28579351937469,1.28778889691113,1.28908062042768,1.28938173577707,1.29027825148696,1.2911796565174,1.29179696837954,1.29209732246502,1.29185748877048,1.29267012269477,1.29382533632152,1.29577317496064,1.29567757359063,1.29701560599939,1.29941457730956,1.30120303891314,1.30309804673443,1.30310744072584,1.30382367956682,1.30453078402027,1.30508871993524,1.30559338342556,1.30667413496707,1.31032384894596,1.31440630549243,1.31770757496715,1.32363350284869,1.32607702177732,1.32776689440732,1.33041699850737,1.33157936736319,1.33297180083098,1.3312089657095,1.33475918559492,1.33588391572678,1.33574837738058,1.33459240979774,1.33392839743364,1.33357174105938,1.33415641145503,1.334983688256,1.33624031956495,1.33760154922843,1.33881790640137,1.34012257179151,1.34133049806085,1.34274572005041,1.34430048138723,1.34612796066222,1.34773890478904,1.3494986029337,1.35114278770913,1.35286591832486,1.35357520424277,1.35481807990333,1.35577483370682,1.35740222125189,1.35775209271099,1.35917045893984,1.35825371826384,1.35888909407972,1.35986746700454,1.36182532298505,1.36234881718769,1.36314018864347,1.36417243767485,1.36562770265548,1.36634862698267,1.36747808435256,1.36850019689038,1.370156799995,1.37225631254821,1.37485297803836,1.37715736107154,1.37962163201776,1.38088959992737,1.38228221135496,1.38355820191631,1.38507221239694,1.38765459570547,1.3913628063386,1.39189189570505,1.39226025992578,1.39201819956248,1.39161423244234,1.39034224402769,1.38913940733061,1.38881741153275,1.38912366354837,1.38980759616746,1.39207858691455,1.39158220422522,1.39146481259161,1.39337278297258,1.3955187058587,1.39787108871625,1.39760808642947,1.3979649628955,1.39840432758438,1.39911514501859,1.39885898629578,1.39894105237817,1.39945735262831,1.40059681626873,1.40215174319741,1.40269386213683,1.40540509709741,1.40794789132803,1.41051002100611,1.41322643626204,1.41455825322628,1.41494377461502,1.41597856573992,1.41865375448128,1.42287063719654,1.4263219449389,1.42889068783018,1.4308356107918,1.43649086793527,1.43802462407802,1.43955059493819,1.44055788751998
1.23224611979557,1.23309782807229,1.23351732055522,1.23264652885543,1.23473646030486,1.23325106958132,1.24078292873917,1.24209703409308,1.24286408367147,1.24474443325118,1.24453761852794,1.24539673225544,1.24571926760307,1.24640164515419,1.24749914853934,1.24838218854571,1.25057268279524,1.25356925122734,1.25457848029049,1.25716744608722,1.25899478731551,1.26065899378263,1.26170696850241,1.26361964836026,1.26369862862526,1.26492777882046,1.26528220961907,1.26616332897454,1.26516691918678,1.26145236200425,1.2624544772636,1.26324960868654,1.27185663234592,1.42982,1.28291690552581,1.28124241253612,1.28043265899857,1.27975699038506,1.28039802937258,1.28111365800914,1.28287592220548,1.2865051080035,1.28582010891513,1.28732205133184,1.28691067289122,1.28699928116666,1.28830430222292,1.29043615781753,1.28979338407541,1.28986819803683,1.28689566468534,1.27753516528139,1.28985469675222,1.29338116423235,1.29197955708525,1.29129418922996,1.29313382783704,1.29558433103475,1.29500421539979,1.2952556671103,1.29498107947732,1.2930645205564,1.29411974205696,1.29613900121654,1.30039434132389,1.30516114420416,1.3060872468462,1.30621003260987,1.30500697779397,1.30505435286426,1.30539616170146,1.30593663817683,1.30570040028325,1.30557601324926,1.30547687035503,1.30597116604713,1.31321366660109,1.31866380283021,1.31957422860125,1.32096788129856,1.32615651757773,1.32637395578215,1.32881739559577,1.32904591652507,1.33144485310796,1.3317902638779,1.33398147541165,1.33484579869911,1.33599640655348,1.33706585249814,1.33588296490036,1.33550549347705,1.33614416626123,1.33706121128995,1.33802506773395,1.33959315778,1.34079366342581,1.34279539181113,1.34391157172962,1.3459539720264,1.34664997909779,1.34749199968221,1.34934552465914,1.34970553429684,1.35275695023729,1.35435259009113,1.35470917666829,1.35535750845662,1.35654552706933,1.35868215533811,1.35938487720401,1.36192104426042,1.36629662926048,1.37024938123704,1.36645419979184,1.36396183826305,1.36331306499724,1.36401793014882,1.36532367388479,1.36824808753087,1.36753194101788,1.36841292045488,1.36930303667786,1.37133443706904,1.373133283506,1.37616457287559,1.37872515393395,1.38309862058412,1.38276393458513,1.38471554540513,1.38451662967435,1.38552395832904,1.38965067378928,1.3923872979708,1.39221628806114,1.39391316086928,1.39327647949109,1.39372160597072,1.39157498106273,1.39115503016098,1.38999255886003,1.39057137598346,1.39176749924206,1.39528744531796,1.40013092764664,1.40453361061762,1.40304322667198,1.40275359334089,1.40193218646089,1.40434433437518,1.40421017772373,1.40485598819212,1.40101898115143,1.39980055271152,1.3995024277252,1.40034151787836,1.40212381106433,1.40589799135641,1.41106477480228,1.41761824540223,1.41852906691037,1.41906295417238,1.41697910614736,1.4174393286099,1.41595769943756,1.4142463234796,1.42052593932541,1.53263,1.43924673138579,1.43204204475049,1.43259075777626,1.43494973529718,1.4380321549897,1.44012324071321,1.44183138214811
1.23160288354236,1.23260232072891,1.23402867510145,1.2352806267092,1.23631989201687,1.23718379550662,1.23953021910142,1.24057831775811,1.24192461894461,1.24311203600352,1.24437550732777,1.24557355781057,1.24662427151343,1.24770324433395,1.24837599070014,1.24913300911544,1.24987600118216,1.25096426877944,1.25276691351503,1.25731422126386,1.25856621902852,1.26000912226482,1.26120019685171,1.26255025535768,1.26429737304559,1.26619042157221,1.26741971959531,1.26860287553307,1.27012897822471,1.27344487541383,1.2753841932088,1.27587082043603,1.27569685303944,1.28370445434116,1.28411981908927,1.28406726337459,1.28307888683,1.28234720102416,1.28229487421183,1.2826959927845,1.28395826241808,1.28566658043906,1.28714536399087,1.28877182004102,1.28940976736564,1.29012685430074,1.29126687864736,1.29267757677905,1.29312414413856,1.29404177157995,1.29639473750685,1.29718288525699,1.2973136254222,1.29621139692914,1.29545469693391,1.29527797836825,1.29634747832732,1.29664049226662,1.29816344012347,1.29879293745077,1.29960848361167,1.30206655680012,1.30358696796953,1.30379272287281,1.30472678685165,1.30668928502603,1.3077257331104,1.30813959979774,1.30761318712702,1.30726492020952,1.30736087752254,1.30733776295602,1.30631913202053,1.30510889713445,1.30468900464659,1.30467247740463,1.31646413686494,1.31924322125523,1.32135441515079,1.32421348903232,1.32722108154955,1.32851996823339,1.33021046552004,1.33090957232291,1.3326050702631,1.3335087154255,1.33496981556154,1.33581475609128,1.33658440119498,1.33695658154784,1.33723732093673,1.33763401861097,1.33809168847425,1.33865985294333,1.33945811361011,1.34029320887294,1.3421348125361,1.34397206111994,1.34560011141242,1.34745006949216,1.34872037741728,1.35062874455966,1.35225384760779,1.35500963997753,1.35543003153441,1.35572015245757,1.35704812487968,1.35949325815892,1.36253085258639,1.36575846811135,1.36857606327975,1.37060564881841,1.37078248034767,1.37146393158437,1.37368668237745,1.37583941700128,1.37749742669227,1.3785142485575,1.37901893086673,1.3792823531173,1.37960763641529,1.38022686420765,1.38130080916125,1.38282552203401,1.3845348137929,1.38618355013093,1.38667033632896,1.38621504378331,1.38607511009935,1.38638296481123,1.38701420988154,1.38783878439847,1.38899914389078,1.39052705581857,1.39141876797289,1.39268093334165,1.3942153800972,1.39745413983258,1.40073781128085,1.40250822717145,1.40286935993268,1.40282238996898,1.402665254265,1.40255797580459,1.40261255562667,1.40223741837426,1.40215545607425,1.40218777888075,1.40235363982414,1.40357780195173,1.40618572043436,1.40628467772301,1.40844637676973,1.41081331763638,1.41327622001739,1.41548743254261,1.41711430442013,1.41695958287449,1.4163283335315,1.41794569767934,1.41885088285397,1.41894896276002,1.41822035249615,1.41748569074162,1.41703297588294,1.41626059664263,1.42242456267978,1.45894833861949,1.45678261627943,1.45019497431755,1.43822013514799,1.43807697251193,1.43903017583236,1.44022306631412,1.44151584220779
1.23125388932843,1.23136589109814,1.23484818278519,1.23781666890721,1.2381871892958,1.23948279765865,1.23960550947363,1.23877332979207,1.24110548146586,1.24142968879906,1.2442470446818,1.24574907666711,1.24757615936777,1.24906199468758,1.24932749827739,1.24947041920019,1.24895859868981,1.24730004409854,1.25158901727161,1.69803,1.25801374257791,1.2596633297587,1.26040800278345,1.26122463099134,1.26459005070785,1.26834111638663,1.26929958720971,1.27090531981738,1.27276894437479,1.27506542956394,1.27607946724901,1.27624035319429,1.27924801034999,1.28288933666732,1.2852838570987,1.28783844332959,1.28533695084212,1.28434448824464,1.28371599994648,1.28357089612496,1.2845502003409,1.28530929005917,1.2882512524153,1.29142733315164,1.29175788132028,1.29306040867496,1.29388201542564,1.29607117217736,1.29579601416808,1.29692049176978,1.29765883260981,1.29780815583722,1.29875724383474,1.29872690137353,1.29841458918863,1.29720009711641,1.30040792444415,1.30387788459815,1.30214634228078,1.30240683200338,1.3024264529901,1.30335571977777,1.30563725617359,1.30828841202679,1.30823176921894,1.30958632379678,1.31012629725508,1.31128132114824,1.31016019401271,1.30897248535512,1.30963915589836,1.30931649798583,1.30718854634886,1.30364097883482,1.30391876669689,1.30364657285164,1.3188539351117,1.31903685213017,1.3223083889881,1.32950751887598,1.32922689418751,1.33149556103812,1.33145070121229,1.33283985822553,1.33367228786189,1.3354002526014,1.33605237129662,1.33727450099665,1.33727953854798,1.33718241677107,1.33831731687591,1.33991282723738,1.33978594071293,1.34023987365494,1.34068706855616,1.34021139059025,1.34342798437046,1.34545475215653,1.34735354937512,1.34960392285855,1.35065460570305,1.35387721909176,1.3544628890973,1.35743560878621,1.35894572987254,1.36367846872246,1.36618831435883,1.36874522719123,1.3696367088072,1.37027701013092,1.37120375354908,1.37252699028965,1.37514082682032,1.37778972024164,1.37804914288099,1.37802265259813,1.37875128318774,1.37927936267425,1.38077197156472,1.38170386158707,1.38359658441894,1.38496647564626,1.38581379895691,1.38622431190877,1.38698835259885,1.38744650729553,1.38795901715173,1.389961275765,1.39586669752681,1.47809,1.41051201519583,1.40686281879117,1.40696156562495,1.40729345317013,1.408121199979,1.40851353163661,1.4085820118583,1.40653200172569,1.40580909855826,1.40334722126188,1.40587990937135,1.40722999714979,1.41007600350742,1.41122576861818,1.40583702345146,1.39999312912497,1.40130395407262,1.40229458913885,1.4020407195815,1.40231927968304,1.41084133607937,1.41786457642512,1.41876300599828,1.41932799036773,1.41906222680752,1.41954997255535,1.41887461893308,1.41987281948536,1.41874864424241,1.41931122285758,1.41964032905257,1.4199688696,1.41934974501188,1.41718968562784,1.41813742570497,1.41723186012989,1.42461509752581,1.46895000028129,1.45902558831546,1.61081,1.43868371010893,1.44020491762392,1.43987406718083,1.44018644877963,1.44118181693202
1.23239525836793,1.23379068463664,1.23593648388445,1.23798322453002,1.23894185557815,1.23981171330418,1.2406157990877,1.24127852146382,1.24238105747705,1.2433534450777,1.2454310493868,1.24736663794832,1.24866523802131,1.24986439014758,1.25002931048232,1.25009558765216,1.2488697760693,1.24784295316492,1.24990437567127,1.25296575107163,1.25579853196408,1.25838009246801,1.25957604779525,1.26105484622493,1.26469589958165,1.26730121803367,1.2707314813597,1.27348567919637,1.275189950457,1.27663757640186,1.27781841261817,1.27956374297122,1.28241274761075,1.28473472466569,1.28627989889725,1.28709687566545,1.28621291732459,1.28513331167187,1.28484176641775,1.28471354965725,1.28558328550039,1.28670765690673,1.28932463312212,1.29215035766183,1.29330196166485,1.29453129057807,1.29530244009387,1.29639673125169,1.29721054036822,1.29837038017039,1.29944879438983,1.30031234953043,1.30128315962493,1.30214447514928,1.30294912256201,1.30390708070533,1.30414487407007,1.30481873630259,1.30432179545747,1.30395381054459,1.3046570855536,1.30561521395537,1.30779610889432,1.30986954321477,1.31069477827714,1.31140486779509,1.31229335284434,1.31293664281856,1.31283671449632,1.31272715124255,1.31265363161248,1.31312466841251,1.31551632464726,1.31822316382345,1.32006826203473,1.32075864505077,1.32121453894305,1.32204831929326,1.32453331934636,1.32767511412737,1.32975031652804,1.33123707703091,1.33258266377919,1.33349871406155,1.33488193221576,1.33589687295367,1.33720608132619,1.33805279652774,1.33843406864627,1.33849795852478,1.33918201358011,1.33988471480585,1.34110414464195,1.34230403995472,1.34308534683784,1.34419102191788,1.34607814608493,1.34829548924317,1.34896261088975,1.35154558917577,1.35428557618341,1.35692355674865,1.35942841780236,1.3619184793321,1.36441425574152,1.36680369411489,1.36894028746415,1.3707436957816,1.37226291185994,1.37366037299295,1.37512107142255,1.376758140763,1.37858576532601,1.38055727335939,1.38260473291046,1.38466022270103,1.38671601127854,1.38883619859479,1.39103490784419,1.3932232448842,1.39538652500386,1.39768504440625,1.40028152354597,1.40312953937817,1.40596571265516,1.40846785901098,1.41043957663535,1.4118293961821,1.41308316713284,1.4152357464381,1.41419548980861,1.41385992216041,1.41316206477583,1.41197035062084,1.41054744598309,1.40980071274059,1.41051374316613,1.40998784102722,1.41025802233964,1.41126320859432,1.41119245697295,1.41008072910299,1.41201095788535,1.41289991258596,1.41567259990821,1.41653754798169,1.41732141810046,1.4174330192039,1.41738342814576,1.41668271111739,1.41591388474243,1.41797313417792,1.41883150528944,1.41893221471223,1.41827276539155,1.41734135447345,1.41843594742063,1.41937853260471,1.42005152552967,1.42076652163278,1.42113696085826,1.42141950495168,1.42236980151846,1.42396207146865,1.42538311233453,1.42713636275385,1.4271336696931,1.43349112962529,1.4343617020956,1.43631785914651,1.43775095909383,1.4390509352691,1.44000190415821,1.44094830641456,1.44108783440917
1.23365349925352,1.23534526917044,1.2371279785123,1.23911934052139,1.2397633448771,1.24019437463486,1.24167866278802,1.24348891688415,1.2436340460397,1.24431583052754,1.24664505746844,1.24958536042201,1.2498725860926,1.25144521368629,1.25095424657953,1.25165416690819,1.24869270276521,1.24498996417072,1.24700432292509,1.24537600566641,1.25372168474273,1.36546,1.25830970100718,1.25887751696954,1.26571078077863,1.26558778852985,1.27257167129155,1.27724329861352,1.27745186890509,1.27897762721907,1.27909844189609,1.28794755086155,1.28616423992554,1.28771809939766,1.28768842103039,1.28832033950073,1.28703554559708,1.28542589817748,1.28561856547524,1.28511715583381,1.28623567105363,1.28684371188874,1.29005344766346,1.29473908467225,1.29473083037503,1.29656898532805,1.29639427267057,1.29711755153614,1.29823753993318,1.29991752506976,1.30134242145764,1.30271529044191,1.30402491159331,1.30552773915212,1.30631192463934,1.30788053323183,1.30709066548711,1.30686716810042,1.30621369333228,1.30475546739967,1.30645736882738,1.30703307250804,1.30997458334051,1.31302017735362,1.31309504763689,1.31341111139823,1.31463153723454,1.31551127625415,1.31559905222131,1.31630591437917,1.31540627728504,1.3146273550385,1.31730977803164,1.31873520948228,1.32069846550461,1.32074348396953,1.32277717500797,1.32402900557183,1.3259142581484,1.32801459415425,1.33003112371855,1.33251166299867,1.33326259381102,1.33486079751084,1.33582826893827,1.33683302044358,1.33846172968031,1.33969152361114,1.33970596625066,1.33945795363263,1.33986482040834,1.33957917009711,1.34227750053256,1.34501029950692,1.34500120213055,1.3458946318388,1.34824229690105,1.35204937915169,1.35645057264284,1.3645045502015,1.36740574352021,1.37163925606595,1.3746222015217,1.37788162366038,1.37898810152062,1.37930390117314,1.38079617137724,1.38238957608642,1.38403760297219,1.38566710476176,1.38866463102719,1.39179080803479,1.39220371906426,1.39263510477103,1.39296292155273,1.39325614581591,1.39302569919435,1.39266550846279,1.39605287373639,1.3993345494418,1.40014777956072,1.40100378564549,1.40441866503674,1.40788196789523,1.40876042363288,1.40833388156014,1.4108319375357,1.411455608618,1.41384050886427,1.41617434529802,1.41706963371767,1.42120385722652,1.42144371924316,1.42375354762622,1.4174155185989,1.4172776742878,1.41378457291343,1.41242184456953,1.41225379366649,1.41223587534515,1.41344396505934,1.41589036881148,1.41533766625727,1.41897292250833,1.4175715181708,1.4206934542533,1.41790666568669,1.41811065579208,1.41785568588749,1.41930230403801,1.41806456469172,1.41942331453373,1.41908412490918,1.41952071032596,1.41713732270256,1.41391171996654,1.41746067076125,1.41999563602542,1.42083785620599,1.42361650780722,1.42226142628079,1.42302332540252,1.42445032969313,1.42814530353986,1.42772125358782,1.42913039956565,1.42975296146476,1.43202362156975,1.43265817478668,1.43101833852087,1.43697120314494,1.43812881238467,1.44028204566424,1.44235488843352,1.44150148367725
1.23493252309356,1.23636992277566,1.23811034990763,1.2399609439695,1.24084619329856,1.24166076543856,1.2425893235141,1.24357857641309,1.24457967123065,1.24577486715257,1.24737303883682,1.2490783915096,1.24970839491058,1.25035898846338,1.25042135546013,1.2503450749346,1.24894500296276,1.24740695214362,1.24746225689615,1.24723352720324,1.251673149646,1.25404182020069,1.25658190472636,1.25682123858074,1.27006213202214,1.27097389537172,1.27429145334038,1.27712751405851,1.27857451695212,1.27971009480878,1.28104721718705,1.28406777781035,1.28676527019047,1.28816077883538,1.28884525343297,1.28899704518904,1.28859760002703,1.2876557014882,1.2874066779522,1.28708977969426,1.28766334907746,1.28868584417747,1.29095607369607,1.29291294423683,1.29444490986227,1.29560825981639,1.29662787172542,1.29751735939424,1.29872540673349,1.3000261514334,1.30318443274757,1.30525536464105,1.30656996203329,1.30808648649262,1.30877753760614,1.30957143714257,1.30939144267751,1.30925510025495,1.30913826394575,1.30942194916804,1.30976017358641,1.31059788455193,1.31243594042127,1.31420074918258,1.31561215247128,1.31653003189248,1.31756320471646,1.31803519561402,1.31769861204723,1.3171923187077,1.31768387552006,1.31942792647211,1.31996598245546,1.32126795265659,1.32300710541055,1.32414758099966,1.3255984071965,1.32674493990544,1.32820285129207,1.32940732709573,1.33117494308568,1.33258281451328,1.33430621377917,1.33584096414651,1.33752966392491,1.33912042587412,1.34052606476181,1.3416714611184,1.34148985450842,1.3411048557759,1.34148012426999,1.34186390528706,1.34364419795196,1.34538310933778,1.34626537542959,1.34713659945101,1.35118933290409,1.35433270900945,1.35902803477254,1.36562559610357,1.36799232112693,1.37130787809273,1.37468797183834,1.37861380608304,1.38001548222989,1.38108966971263,1.38220781452002,1.38336408351741,1.38464318349335,1.38626921077973,1.38843997497683,1.3909762981881,1.39296871748193,1.39508966268127,1.39722188787653,1.39931645100418,1.40135192480874,1.40325860723441,1.4049084410007,1.40619805767822,1.40713671839087,1.40783626623431,1.408391006453,1.40877375203276,1.40979305613985,1.41149894645944,1.41243825703934,1.41304563132879,1.4143019123963,1.41560299550366,1.41655997562381,1.41810372659396,1.41905862321685,1.41964448808396,1.41752193340175,1.41642827410978,1.41473920327583,1.41403228621089,1.41374045875324,1.41431098911361,1.4141724394335,1.4147230887217,1.41441609162697,1.41491393441916,1.41472147561007,1.41431412124343,1.41533801526952,1.41594443022724,1.41655607634606,1.417330742784,1.41791487351996,1.41884363801618,1.41904060794481,1.41890623566937,1.41787420038213,1.41667913390588,1.41826097173332,1.41964136109795,1.4209251744902,1.42195034274239,1.4224131821923,1.422920486203,1.42499953555921,1.42722185220976,1.42867921647747,1.43012061714616,1.43089030254365,1.43195643205186,1.4329206229502,1.4337525302814,1.43642728306988,1.43848059588513,1.44048015451056,1.4422726396257,1.44325801987573
1.23592263254563,1.23719205740719,1.23885521785519,1.24187062387922,1.24183763673547,1.24320094934513,1.24321846487849,1.24394460801597,1.24508116713265,1.24709511605661,1.24781510846015,1.24973300604929,1.24948923323997,1.24971934016038,1.25010095879197,1.25008353973032,1.24944269752588,1.24793008515399,1.24820302915595,1.24593601877296,1.25022641760113,1.24845767039169,1.25724863693138,1.25526042499795,1.2730978098919,1.27380214382691,1.27611751461487,1.27841148775588,1.27956933327018,1.28057934124041,1.28122146308314,1.28052448314979,1.28829518122324,1.28960314748936,1.29012553704131,1.29073016756104,1.29031079267831,1.28970548175762,1.28886690968881,1.28836134158348,1.28845808850335,1.28940928217032,1.29206257169674,1.29159506534719,1.29454557649919,1.29478677167127,1.29704724221635,1.29758682043928,1.29916304911038,1.29822799287782,1.30602170980357,1.3084496387957,1.30895834570248,1.31142855886658,1.31122159659219,1.31222419335098,1.31169187523807,1.31169256243182,1.31169474288257,1.31203188043782,1.3125621040038,1.31344994753135,1.31488890365756,1.31607604195715,1.31841568516109,1.32098821007682,1.32089618591768,1.32146950255421,1.31993595403354,1.31691828682951,1.31889981449838,1.32189814005161,1.32207820252101,1.3230749129679,1.32566591030226,1.32720586475989,1.32831815243922,1.32991512211066,1.33019070630052,1.3314059437456,1.33206115798419,1.33350046534061,1.33506070724042,1.33744511307094,1.33908628262959,1.34191613328297,1.34278347464315,1.34509397651366,1.34342415631381,1.34214503620077,1.34294088036147,1.34296095759651,1.34486745326779,1.34679746899291,1.34745816580158,1.34939144928088,1.39942558427131,1.5814,1.50540218049813,1.69626,1.38701061991177,1.3819156299942,1.38196321614623,1.38220482019483,1.38165170883227,1.3829596264366,1.38895459616259,1.40556562978158,1.40551492354727,1.40451215293524,1.40651117579338,1.41174181851152,1.41202544670988,1.41228274825489,1.41337054513755,1.41415090432121,1.41604293823744,1.41818319216404,1.41901424594187,1.42051042306269,1.42056872885167,1.42176400837358,1.4204899659315,1.4207229081978,1.41739495920488,1.41513264927557,1.41421109172772,1.41367188654627,1.41458612480728,1.41515815025723,1.41541308853958,1.41534819230464,1.41689068412875,1.41796411879725,1.41673585422325,1.41595656714179,1.41515006686341,1.4148230370053,1.4150876578326,1.41649895691673,1.41486370923813,1.41392814056302,1.41311388458804,1.41111432519546,1.41223066654522,1.41113548678873,1.41329183166631,1.4135373889706,1.41514863030475,1.41548904837217,1.41738869519142,1.41930334334447,1.41910915020569,1.41975359598256,1.41838786068363,1.41784663744787,1.41868608417088,1.42059424300736,1.4207676269827,1.42203295939283,1.42205667062571,1.42227621404152,1.42505946865321,1.42771935117263,1.42948636593851,1.43214249856902,1.43163660469251,1.43193841300234,1.43325615691325,1.43453082268348,1.43677456716359,1.43876589204265,1.44118805879826,1.44281127557555,1.44495743968653
1.23574345820749,1.2368386670011,1.23842800041449,1.24009100204582,1.24164587732371,1.24290889311896,1.24344146129768,1.24392070335675,1.24504180614595,1.24636212350214,1.24729528336222,1.2483878324818,1.24882291457658,1.2494049656277,1.25000263261648,1.25039083577608,1.2505639368691,1.25064883275556,1.25129686388872,1.25294663780712,1.25300919506938,1.25400659725692,1.25989095454415,1.26484215593428,1.27506267117131,1.27650244602183,1.27790490614184,1.27955497190337,1.2807927132322,1.28173711049232,1.28288498678296,1.2843104209216,1.28840421761895,1.29058302266532,1.29180062792802,1.29231447028987,1.292898001883,1.29204067452224,1.29289963976327,1.29403100918468,1.29488715041225,1.29559562332307,1.29633815896564,1.29790533074423,1.29738285522291,1.29761309770939,1.29913908113099,1.30065696947869,1.3021787055611,1.30470608037474,1.30636479303436,1.30803262017897,1.30933101892173,1.31105856963123,1.31240834944778,1.31302555703459,1.31341400250514,1.31372950469226,1.31395541020617,1.31418278861217,1.31514312542712,1.3161907742702,1.31781450460386,1.31948867280836,1.32136380937108,1.3231154817963,1.32387034551843,1.32451004545075,1.3249855453507,1.32615604082194,1.32570831879614,1.32523462821001,1.32657093002881,1.32902699730238,1.3295091335542,1.33029778466871,1.33103227648884,1.3315598443632,1.33208262811194,1.33254863480917,1.33323768289099,1.33426734993063,1.33576651317815,1.33760905412826,1.33977175458611,1.34220389444198,1.34359118919007,1.34481025943088,1.34496591584758,1.34521936370003,1.34529050925301,1.3454776520898,1.34620775000879,1.34705248114544,1.36438606983307,1.40215381949334,1.41502037438066,1.44603837785167,1.4460277925957,1.40503991223628,1.39531855466259,1.39569079301967,1.39677313762192,1.39785395804424,1.400111775267,1.40318549314796,1.40508343178365,1.40605231350076,1.40640151294886,1.40682633911021,1.40837145656895,1.41091822173027,1.41198436561395,1.41291871227394,1.41360783279061,1.41450460988246,1.41577035572908,1.41724449501104,1.41836248552936,1.41926115811969,1.41952505740327,1.41971027196142,1.41907744443708,1.4185124859898,1.41719491345135,1.4163880150771,1.41536380096665,1.41496333439861,1.41489617606589,1.41481809370653,1.41439900317362,1.41434688898846,1.41492638291304,1.41571114699438,1.41521627184396,1.41515209064245,1.41463141910904,1.4149885212303,1.41463907566439,1.41532835317612,1.41408327739664,1.41366878350377,1.41231857747795,1.41155384115968,1.4113692031228,1.41151863805877,1.41272687149524,1.4140903048999,1.41474466938686,1.41557382685903,1.41677507827089,1.41817405686683,1.41852929879122,1.41892939803282,1.41860454537609,1.41853060456747,1.41895560415649,1.41960762041165,1.42060091642887,1.42129403692342,1.42257518981318,1.42361100675068,1.42612277044864,1.42838988115916,1.42997515682429,1.43120087476027,1.43176081015859,1.43221411811296,1.43355644389644,1.43511974587807,1.43728159781193,1.43989397083863,1.44247934030646,1.44485352843166,1.44642805158925
1.23510615980844,1.23620440636352,1.23773668167542,1.23862022613692,1.24151141462254,1.24361984108401,1.24343989789242,1.24361348006893,1.24451752251244,1.24635756301223,1.2464064461872,1.24788371410604,1.24792945002773,1.24901319623765,1.25011601663592,1.25071411813499,1.25186407967464,1.25261926843833,1.25354681813735,1.2547192491769,1.25535130499563,1.25565039229142,1.26225193264181,1.36175,1.278023249859,1.27897149891079,1.27896398016176,1.28103817224578,1.28185711926726,1.28271527211045,1.28379004438709,1.28537717022891,1.28997135977641,1.29282384543084,1.29379093118126,1.29441686461596,1.29664431672256,1.30048656614185,1.30127284040475,1.30265699203274,1.30308378978521,1.30374958849837,1.30093274922543,1.30056640287565,1.29978542008803,1.29911094555848,1.30144241776187,1.30372773855808,1.30450908430127,1.30582019979497,1.30691668093519,1.41063,1.36629398578358,1.46345,1.31436971029179,1.31400033231217,1.31526126789418,1.31582593176011,1.31623701406986,1.31561104467727,1.31762733913983,1.31846729246519,1.32066460095995,1.32292923989966,1.32432679263459,1.32660901042895,1.32685025861434,1.3278776531935,1.32801214590667,1.32781174680724,1.33150228671018,1.33338396699669,1.33362007803556,1.33286568470754,1.33287073625483,1.33366494307617,1.33381203496112,1.33367595808349,1.33371892787347,1.33420702917637,1.33408833925456,1.33532189101362,1.33620107278427,1.3378567494564,1.34035948601593,1.34354458442057,1.34475146947882,1.34540629402029,1.34649309471942,1.3484258216972,1.34742226696423,1.34752345786339,1.34730842978566,1.34818105592047,1.37440304546893,1.47300999999999,1.44840104515667,1.44608754261803,1.44618774430266,1.39337084374071,1.39471645764805,1.39466106836035,1.39590678972842,1.39604916026538,1.39830913108574,1.40369717321899,1.40514769650681,1.40704653414283,1.40693893655134,1.40799211596428,1.4091484687753,1.41140011311514,1.4122441214528,1.41351993533809,1.4138096402584,1.41422671549536,1.41546994715832,1.41648754825085,1.41803744773123,1.41860758105262,1.41875182390451,1.41855135811222,1.41777169070238,1.41717172716201,1.41679599217273,1.41784056591089,1.41588377076972,1.41562002272226,1.41502718304966,1.41457952518405,1.41307794708475,1.41253629152784,1.41299162583604,1.41440697570122,1.41362999665056,1.41449788825032,1.41368233144811,1.41545387124499,1.41370626134638,1.41554778834771,1.41324106064835,1.41336305578,1.4117188252834,1.41079796410018,1.41070639582478,1.41032158821892,1.41244282286736,1.41490326245616,1.41461138240374,1.41490007357715,1.41637106211408,1.41787111558767,1.41819556287743,1.41891509308647,1.4186444570517,1.41921062220863,1.41882049368855,1.41913480233257,1.42040516749162,1.42096702044369,1.42300549929838,1.42438236219623,1.42720304991536,1.43042841174667,1.43076901395073,1.43127387707578,1.43207679686804,1.43168895824902,1.43383725278047,1.43508177702952,1.43764350039732,1.44091361633119,1.44424526488963,1.44742221456803,1.4480936500712
1.23374154473001,1.23475011833999,1.23789607393504,1.24087439962338,1.24238402726961,1.24337149885261,1.24340620168825,1.2431496112896,1.24342621165362,1.24350809823316,1.24439000076504,1.24492788097227,1.2461059614109,1.24708694334107,1.25059120568869,1.25232472137902,1.25338119462381,1.25443919051762,1.25546747438988,1.2568815849652,1.2582765391781,1.26119454787605,1.26433177469182,1.27509723952818,1.2763171315876,1.27700805066556,1.2775178147881,1.28198786424372,1.28280332685506,1.28430346903595,1.28726536559007,1.29018796523807,1.29282731285272,1.29520598766113,1.29653543174602,1.29786711544957,1.29921015062951,1.30105187451934,1.30186717761189,1.30274474528843,1.30293743616585,1.30296734487153,1.30215979920031,1.30204307029974,1.30201827008483,1.30266647236302,1.30365150263896,1.30508955436262,1.30635687873011,1.30787389288637,1.30879328115766,1.31625458887647,1.31662933245347,1.3168409367053,1.31665181123437,1.31710252493551,1.31782132761853,1.3177032414002,1.31956742073437,1.32066880788831,1.32131305316358,1.32224004687386,1.32359935771186,1.32515730801192,1.32665681880887,1.32812955210305,1.32926891815723,1.33034350384865,1.33149672853049,1.33243920634314,1.33362341365859,1.33462877801032,1.33493819177249,1.33539420151917,1.3355982631692,1.33634711968998,1.33720364791359,1.3393696589386,1.33992519642714,1.34111412800964,1.34078237671152,1.34064638619277,1.34061462624031,1.34087470610638,1.34183082201495,1.34374989731312,1.34623443233169,1.34685492771428,1.34691368374796,1.34742337032161,1.34829028128494,1.34860063575038,1.36925574452025,1.37620532509397,1.38196867769371,1.41441770003999,1.44968874789219,1.44840072506478,1.44635517776329,1.39502637293231,1.39563041450623,1.39595575186025,1.39614708601157,1.39608561023561,1.39869381630047,1.40289168047574,1.40465915788862,1.40586788879182,1.40652055058356,1.40744503667,1.40876445399416,1.41088928281849,1.41181186393554,1.41271490045576,1.41334273608994,1.41398968854044,1.41500497655777,1.41694709689583,1.4183401263341,1.41849100649088,1.41829683816439,1.41770869917112,1.4162624332601,1.4151432546811,1.4150523600339,1.41562222666796,1.41446731228634,1.41507301545558,1.41455280728914,1.41287588706075,1.41059230695154,1.40985561068211,1.4097185577165,1.40947769997936,1.40990665757196,1.41040208079524,1.40986668027614,1.4082290067087,1.40902732251237,1.40891206050602,1.40932677003224,1.4103265150622,1.40951187165096,1.40957642891212,1.40976062840874,1.41020312276063,1.41126381280139,1.41249001090167,1.41332339589367,1.41433822404174,1.41541409891303,1.41654415067026,1.41715503014309,1.4176138503796,1.41791160044822,1.41813145100148,1.41847402785511,1.41896519292673,1.42170882099372,1.42324109431144,1.42496860234305,1.42651494920275,1.4286233251653,1.43077455284721,1.4318929461317,1.43282921937894,1.43383731153632,1.43465540681588,1.43519192485806,1.43608222894947,1.43735467834583,1.43873246905069,1.44594827007895,1.4476570763274,1.44941961809714
1.23227526024722,1.23131414999878,1.23808314753458,1.24471678647717,1.24355530254187,1.24431195154903,1.24339176464264,1.24249185527199,1.24226125393162,1.24021177884071,1.24253061455194,1.24157426711314,1.24439382416893,1.24261387887615,1.25273495038265,1.25444023404022,1.25491192424313,1.25615932113418,1.25712916648131,1.25910831108313,1.25998115967563,1.27098627892581,1.26947649091492,1.27319935795612,1.27432631685817,1.27455452414666,1.2756555054963,1.36899,1.33096109016007,1.37074,1.32557348012729,1.41029,1.29562985456399,1.29881122502141,1.29895760078887,1.3016450331539,1.30108460337845,1.30297285788884,1.30256003325949,1.30371236070065,1.30310811769888,1.30297470940112,1.30298568440325,1.30326615360349,1.30389706944263,1.30565264798048,1.30564697086732,1.30645280156353,1.30826486697052,1.31055400850319,1.31192021246208,1.31548138492077,1.31648397410493,1.31702352295139,1.31821012620785,1.31997225013337,1.32125267587282,1.32544923143653,1.32360117841997,1.3257180101514,1.32459364785398,1.32565695361068,1.32630569387219,1.32765697851725,1.32894229681219,1.330275925729,1.33164953222772,1.33296324698039,1.33519065332546,1.33841346019653,1.33757515062236,1.33692118716817,1.33663821386661,1.33845164267993,1.33805499308879,1.34035236979879,1.33962035032507,1.34162050537378,1.34136558161596,1.34311759670717,1.35204952035054,1.35707715467195,1.35740152065733,1.35704836096395,1.35716131583321,1.35709232027208,1.34973127184829,1.34849224492211,1.3469008875699,1.34571941651078,1.3494465384449,1.34978624870346,1.38829644614219,1.41543933798233,1.39604682721193,1.36696,1.45075162176148,1.51896,1.44613842463639,1.39618345051209,1.39669554529421,1.39769087437984,1.39613651575283,1.39403773131283,1.3973732478248,1.40475418263405,1.40423138219514,1.40569404709353,1.4054812664697,1.40676371393371,1.40760090981174,1.41157898544969,1.41171033047737,1.41186194536812,1.41283179159897,1.4129347182186,1.41407537612991,1.43381680768686,1.4265772373096,1.71634,1.58406462675312,1.79718,1.41433969642834,1.41205057421091,1.41274778174215,1.41503169924154,1.41100923726667,1.39686814478678,1.3989940308145,1.39989453958969,1.40444984308577,1.40627890151928,1.40670941487761,1.40641185087102,1.40529922595565,1.40227868466665,1.40454822925645,1.40574433583483,1.40563662180434,1.40446653415719,1.40568136720269,1.40451780159554,1.40725995291151,1.40777287104442,1.4090860678849,1.40902465824236,1.41045219287232,1.40994435352462,1.41245229957215,1.41315315103378,1.41503459192349,1.41528144592639,1.41675876524789,1.41629243501637,1.41747565485867,1.41715601632561,1.41799873955871,1.4170550805952,1.42411241488976,1.42610032896415,1.42696083509501,1.42886266402521,1.43005967651055,1.43275951343367,1.43341005892592,1.43469607324811,1.43610026223317,1.43822834999358,1.43666407725313,1.43698868976464,1.43738785599822,1.43811679647014,1.45279188856527,1.53325,1.45859904918971
1.2337109057022,1.23461389149595,1.23824313896231,1.24166931854596,1.24292506717713,1.24366657995028,1.24361282487642,1.24333305044704,1.24323184556327,1.24313817413124,1.24425393205354,1.2451657265786,1.24745654183012,1.25074389205773,1.2530407241759,1.25477844179181,1.25554410279415,1.25635256106726,1.25772940524482,1.25944572160762,1.2627797331677,1.26735236754696,1.26926366284213,1.27131535375673,1.27272133693032,1.27320972054004,1.27400058566715,1.27744367033543,1.28567397625177,1.28662376324255,1.28977696852415,1.29200070416748,1.2950574785016,1.2978082017477,1.29898597111226,1.30028991529502,1.30075130475957,1.30137701776673,1.30192691941297,1.30254368922847,1.30276134667159,1.3030747508954,1.30333068059033,1.30394545599705,1.30434594866113,1.3053750497075,1.30651266200015,1.30829729167043,1.30950233694235,1.31128628252653,1.31277867405896,1.3150407447423,1.31657126640622,1.31791265832405,1.31919148754887,1.32065877322731,1.32190183616728,1.32339571093757,1.32388783831159,1.32482662709556,1.32592267675289,1.32733129939049,1.32852198707304,1.32982049202526,1.33145166127194,1.3330465380109,1.33439774330164,1.33584050427532,1.33803679541399,1.34017119638469,1.34005294607364,1.34108532450129,1.34202902670697,1.34300970484856,1.34411767916363,1.34538508651645,1.34685886191592,1.34866604242845,1.35092976567317,1.35350281448955,1.35591172763908,1.35783752596488,1.35781166143572,1.35709627927757,1.35693140543821,1.35579402640952,1.35217029439554,1.34716884434452,1.34611114262094,1.3461617703096,1.35561444042681,1.38106386011949,1.39593639903956,1.42130849782579,1.42515202638403,1.42868053563727,1.44981499105872,1.44817846443687,1.44510111980364,1.3974925609151,1.39753815718123,1.39757559931043,1.39724964245936,1.39690343218186,1.39831317682677,1.40069985513944,1.40229682200374,1.40322513268268,1.4035240767558,1.40341442776404,1.40357178408306,1.4023515296476,1.40320086962356,1.40455455554802,1.40561798638274,1.40643537259457,1.40706550701031,1.40747963366312,1.40758989514348,1.40729377280268,1.40661976066655,1.40588722447412,1.4060540777447,1.40836291672433,1.40886214750568,1.40781065614385,1.40666976847149,1.40083451667112,1.4003487528923,1.4010156092146,1.40285212731187,1.40411163329034,1.40412847299655,1.4036043582689,1.40311346591617,1.40225388833881,1.40271032273692,1.40284596889375,1.40330597293535,1.40321328203274,1.4042714411277,1.40492458167152,1.40688785768534,1.40840268351378,1.40949447871583,1.41019295530195,1.41118934767808,1.41183156923484,1.41289410814843,1.41362941326222,1.41586294812302,1.41725799642033,1.41802382198293,1.41826639843713,1.41853269961416,1.4184252370368,1.41965831979158,1.42198753671289,1.425034762374,1.4273705979638,1.42863680671001,1.42973422853025,1.43071976181989,1.43237918426869,1.4347825224834,1.43669316484536,1.43797977350744,1.44013796338792,1.44399742524608,1.44771639164377,1.45128441896181,1.45461677541381,1.45727180978907,1.45968734782093,1.45962688618886
1.23515329456887,1.23530912781367,1.23847940381285,1.24088197250637,1.24260727382045,1.24399584093306,1.24382406045825,1.24422452336152,1.24394414495929,1.24512378203402,1.24605399789296,1.24763810559886,1.2495426878359,1.25182275842307,1.25387716390687,1.25602262334068,1.25612901503378,1.25588699985873,1.25804807602059,1.25823607608027,1.26469612891872,1.26629262721686,1.26869307458468,1.26986760511709,1.271481883909,1.27107943200731,1.27211505265725,1.26992375546355,1.28389864573402,1.28373643250444,1.29012497529932,1.29079586602117,1.29454120109909,1.29835329175548,1.29874999610766,1.29989484971295,1.30016206992837,1.30001747762136,1.30129163197299,1.30175794309941,1.30251775571807,1.3030008075914,1.3036272783499,1.30447016059843,1.30450501149425,1.3045847245776,1.30702733097016,1.31038073509372,1.31041290482707,1.31207694680695,1.31307885801625,1.31512037450261,1.3168604402676,1.31880246568194,1.31994141515387,1.32171154328361,1.32213734750831,1.32256194676412,1.32355368039588,1.32408555257829,1.32685481291307,1.32946257836343,1.33057874071104,1.3318908472205,1.33389452386585,1.33637482025256,1.33687896945761,1.33821849890699,1.34071182074564,1.34422458313646,1.34724616472146,1.34956810292753,1.35152730163,1.4522,1.36323774535026,1.36248018518917,1.36342030909196,1.3626610466045,1.36339781852857,1.36221765850365,1.36198864941171,1.36007979186124,1.35875251278603,1.35620692987029,1.35736015239041,1.35652544794028,1.35460724369413,1.34262477873313,1.34423408347877,1.33701898687466,1.36012635596458,1.50486,1.44591206592434,1.5029,1.42807526989355,1.45079071835236,1.44887918461053,1.44517648073068,1.44296394481095,1.3988022943321,1.39818314305487,1.39827436105057,1.39790646305872,1.39904047041688,1.39802406327451,1.39827432292554,1.40045095181221,1.40213227187996,1.40160562104157,1.40030594959329,1.40076115705657,1.40004567007631,1.39884374638666,1.39804754211093,1.39612190848542,1.39587141795853,1.39338945749704,1.39213756032398,1.39402046768402,1.39620301754664,1.39962783603581,1.40304613389424,1.40427451967669,1.40679996539455,1.4064476126513,1.40768173065651,1.40445825995231,1.40170381044933,1.40087199536895,1.40083687422878,1.40203490011927,1.40295118197216,1.40224384091812,1.4006236516369,1.40131457937358,1.40097335609578,1.4011201554391,1.39974002084887,1.40152395826965,1.40102037570677,1.40335697013494,1.40401707470635,1.40711868299502,1.40946968590838,1.41050847202048,1.41097077300513,1.41259297830971,1.41303907813441,1.41406153202914,1.41233315523573,1.41807019235836,1.41969948958854,1.42015376828045,1.4201850427386,1.42009026706343,1.41857415306616,1.42043364725795,1.42342385550106,1.4267854542636,1.43044073179976,1.4305474639378,1.43139522891369,1.43113394836415,1.43184290585645,1.4370572883653,1.43968333395422,1.43929299571659,1.44046722788369,1.44970902206134,1.62972,1.46164485307469,1.45813749360937,1.45871830688609,1.4605712197025,1.46072907622092
1.2372049598519,1.23791783971192,1.23962627306086,1.24103224684037,1.24276503566413,1.24375248256575,1.24361518654866,1.24288010942611,1.24328997298577,1.24397125531075,1.24737851218444,1.24878818283257,1.25143536957522,1.2532121545488,1.25465104796457,1.25584300885142,1.25701062889685,1.25815990219722,1.26029718594182,1.26249254460304,1.26533701070285,1.26729926306618,1.26939544764473,1.27101312826018,1.27211418673109,1.27253729569574,1.27316256838879,1.27305710371136,1.28179014214823,1.28683244054635,1.28929805666484,1.29117459440015,1.29378875176873,1.2962749604363,1.297761124313,1.29900202996059,1.30003910713877,1.30092332313074,1.30145705387882,1.30197298215879,1.30235653895728,1.30285122683251,1.30333773662628,1.3040374468231,1.30416706115871,1.30461462206796,1.306200755332,1.30801026819391,1.30934180740622,1.31072216353305,1.31208908849264,1.31361372574293,1.31674024950472,1.3184951807411,1.32015587458201,1.32149637542935,1.32262533183663,1.3232111066781,1.32398404362814,1.32507794077318,1.32822941876099,1.33066595317353,1.33266919558588,1.33445927186823,1.33613047269126,1.33774252011669,1.33882080808405,1.34018857183257,1.34255315438573,1.34562724989945,1.3493403113034,1.3518130861593,1.35342555142164,1.36243417956915,1.36347629271269,1.36414483376686,1.36483787374551,1.36524735497545,1.36502382033955,1.3637932395532,1.36334040188768,1.36198487850952,1.36057082936387,1.35945598573868,1.35953076589014,1.36000426779142,1.36198375074843,1.36304101947199,1.36437273046113,1.36526289699221,1.36549366588187,1.38431375576215,1.40191436612333,1.40877387592639,1.41562731206197,1.45006452177573,1.44895496867409,1.44733148110624,1.43971538846208,1.40944154517238,1.39828200398925,1.39811094932577,1.39787236300313,1.39773596941248,1.39766847582887,1.39804718613455,1.39989968240726,1.40101213240326,1.40103771863983,1.40024759029552,1.39953246535933,1.39821660206709,1.39781999557514,1.39696431822017,1.39509781756277,1.39347855137739,1.39263714759242,1.39240820402708,1.39415466951097,1.39623738284606,1.39847780780363,1.4005010283223,1.40178212349929,1.40248103252669,1.40256396274758,1.40122221414008,1.40146231830204,1.40058363632078,1.40035800247044,1.40053787571866,1.40122955857649,1.40171182759365,1.40118109519068,1.40020148510614,1.40071357196942,1.40094255099563,1.40143802104601,1.40158454770502,1.40254635088531,1.40326919905406,1.40461518653641,1.40595044978612,1.4084849741233,1.41066270198021,1.41235374093948,1.41362685947796,1.41521873160809,1.41661030093162,1.41790469602708,1.41920955935273,1.42083123985822,1.42210830920752,1.42281448076552,1.42386138394096,1.42562818727819,1.42814489592723,1.42963009461395,1.43069849662572,1.43020238115285,1.43164464573679,1.43474676506823,1.43935174934491,1.44194958035897,1.44465382993008,1.44733092768369,1.44969615614499,1.45159957339546,1.45321365674473,1.45883811040989,1.46731974854607,1.46673661700318,1.468297239031,1.47019916418858,1.4722055746969,1.47418501574286
1.23910304292573,1.23973406251224,1.24080832210289,1.2410377434401,1.24340524786776,1.24475802987749,1.24379315584721,1.24037071735174,1.24202923244739,1.24006189210063,1.25056384761484,1.35625,1.25422138929245,1.25501881093686,1.25568807703322,1.25569127371877,1.25792009305115,1.25939664183896,1.26249326402811,1.2661977923463,1.26699268017525,1.26840974115729,1.27043630517057,1.27279581991142,1.27313731485403,1.27380643017411,1.27464305309072,1.2760672813196,1.27953185162682,1.39494,1.28865926272831,1.29051045043033,1.29306636915698,1.29512197413197,1.29699414672532,1.29834125317204,1.30007294939714,1.30220718890288,1.3017342247602,1.302206192789,1.30231045885636,1.30239168705592,1.30317659340098,1.30371395602509,1.30389455887758,1.30302936764196,1.30548371759239,1.30570151248913,1.30849604905377,1.30905978019406,1.31119826743441,1.31025240443959,1.31797229606724,1.31820088293012,1.320664594494,1.32171293625136,1.32355501891488,1.32391619880727,1.3240015955149,1.32421954852071,1.33029512869245,1.33255089042592,1.33490040162308,1.3373322749855,1.33831529517724,1.33988677222582,1.34030169503221,1.3413737613218,1.34351083683857,1.34657041699602,1.35281870903631,1.35499355560196,1.35684551263865,1.36062926491362,1.36358577599346,1.36524745631282,1.36652817147328,1.36812649184763,1.36765362759922,1.36871467309583,1.36554845868629,1.36361158135015,1.36215096156493,1.36149570455613,1.36122591063719,1.36223708345668,1.36301689054604,1.36472968382233,1.3649033576088,1.36617342631193,1.36588466454741,1.36705083843439,1.36444010415679,1.36158562066618,1.41150068838903,1.54712,1.49003507737791,1.54696,1.43558701063187,1.43094610904854,1.3981935931576,1.39849802948586,1.39706791621371,1.39770809961686,1.39608982554314,1.39714614582395,1.39941918942439,1.40133125155033,1.40088997782708,1.40030722975452,1.3985045241247,1.39555106380416,1.39691485112746,1.39725214658091,1.39394429854645,1.39110857180674,1.39090525426452,1.39187178094322,1.39331069469966,1.39737179409857,1.39706968344184,1.39945470247029,1.39958468028575,1.39987050415676,1.3998893522733,1.3981877378196,1.39962092896097,1.39844682685193,1.39973679915613,1.39940512585082,1.4008555311864,1.40134035327435,1.40070547267862,1.39845772969446,1.40040043324172,1.40117653387174,1.40199100190101,1.40338435280529,1.40364345303913,1.40573891389034,1.40569826775132,1.40741141505639,1.40996349867214,1.41292879739322,1.41447344498583,1.41632205856475,1.41803663800084,1.4204380563032,1.42186769649546,1.42561816021488,1.42422163218094,1.42535165587321,1.42530386326325,1.4271891029093,1.42834898957823,1.42968062883949,1.43051894741871,1.43264337332337,1.43579537027009,1.43994058102028,1.44027263351792,1.44151335743444,1.445581619965,1.44944560412008,1.4524514445201,1.45534134748739,1.45516322719684,1.45475792780826,1.46360865452978,1.46858594184231,1.46773256167105,1.46832630504868,1.47688634726063,1.48567354607708,1.48888677487791
1.24073329558477,1.24174725170459,1.24305745177519,1.24341520066634,1.24521613831303,1.24599911435062,1.24648378151519,1.24808734596835,1.24931387827457,1.25196187819672,1.25364941764532,1.25593112291253,1.25624357911096,1.25685604144806,1.2574061228611,1.25806567336517,1.25956543408928,1.26130769963518,1.2640910734037,1.26693647302531,1.26824003194215,1.26942150787874,1.27136907727114,1.27307759419082,1.27401619973002,1.27466778287166,1.27566518680551,1.27676394872674,1.27907866520964,1.28162039591295,1.28606662488657,1.28974946432215,1.29269690666132,1.2946213339416,1.29674939779611,1.29864578557824,1.29974474528701,1.30062026209332,1.30103166403903,1.30139538179778,1.30206536569306,1.30270316371025,1.30284858449817,1.30303650279207,1.30418208704105,1.30538599655421,1.30653855948143,1.30765645487924,1.30948265197282,1.31113066531672,1.31317242472634,1.31557535117964,1.3188072117878,1.32094172580477,1.32271144616388,1.32435230618291,1.32624711225564,1.32899877679743,1.32922488987379,1.33046308528608,1.3326360302439,1.33541451826161,1.33727028782432,1.33919131750369,1.34005331138089,1.34071021935814,1.34129034526267,1.34192740247616,1.34358900231409,1.34489528954205,1.35429157650046,1.35582953018163,1.35806551305143,1.36118447259372,1.36437653124827,1.36612190478881,1.36719200635183,1.36831449975978,1.36813339408573,1.3681421121259,1.3662200347022,1.36455468840481,1.36291189522477,1.36172426307661,1.36200032722266,1.36264696624045,1.36359346195979,1.36458402625557,1.36466367955889,1.364861711399,1.36507900509831,1.36548022967046,1.36473926767785,1.36390403368359,1.3993979756999,1.41478297097794,1.42948330741008,1.44479031533242,1.40737281125673,1.40190222295136,1.39780414539161,1.39712482727481,1.39545546424006,1.39307376193971,1.3930974771178,1.39274562858692,1.39222810882046,1.3916665350796,1.39120641377539,1.39091392810181,1.39071522266692,1.39046388315721,1.39002790251457,1.38935164983397,1.3886350700229,1.38951484924527,1.38971945766123,1.39017588662071,1.39169262622544,1.39248917310558,1.39434383912457,1.3970879446325,1.3977557131351,1.3978421524974,1.39908175079584,1.3994695078559,1.40014087779996,1.40017663067758,1.40037373234132,1.40006826256489,1.40120012618661,1.40200756563026,1.40194474241799,1.40132305535998,1.40177865401089,1.40244189344723,1.40285700122483,1.40343296105974,1.40399773478763,1.4049274256894,1.40611828203545,1.40804737345613,1.4118230357056,1.41455036947726,1.41693039124797,1.41884533225279,1.42059521299539,1.42229904306412,1.4237553906591,1.4253374177259,1.425419000159,1.42565308969267,1.42626511146013,1.42786637565569,1.43124462958715,1.43358779527903,1.43609449673047,1.43885759141188,1.441880363264,1.44508031962187,1.44842414434519,1.45197644673521,1.45576676294335,1.4596530296051,1.46338006177281,1.4667956962067,1.4699963199169,1.47317391102844,1.47642719248495,1.4794059619344,1.48185659061513,1.48387453897794,1.48594489750375,1.48852784230029,1.4910833692346
1.24224659902075,1.24376716288053,1.24577696991723,1.24945644933822,1.24765854280916,1.24765905046868,1.24799948446462,1.2484585495878,1.2499785722877,1.25640332768156,1.25609570192681,1.25779664286376,1.25796923864728,1.25872265499077,1.25903679938954,1.25956988181441,1.26098373768247,1.26216220289884,1.2655881331055,1.26931327869369,1.2695173584662,1.26991071798514,1.27232038740401,1.27441690225075,1.27492051715621,1.27541948225931,1.27636234824092,1.27645500339281,1.27852123862018,1.27674278419008,1.28453282388984,1.28033017468333,1.29329692078908,1.29391064166796,1.2966986946029,1.29986572683875,1.29960195747265,1.29959268910641,1.30042323202019,1.30020773652416,1.30203821224526,1.30319996857375,1.30280572654866,1.30095701999663,1.30475934504698,1.30729748257348,1.30795257214224,1.30845587864418,1.3109357953459,1.31252733327584,1.31512755054339,1.31740415877678,1.32086972713043,1.32452597948938,1.32497685065782,1.32702174418084,1.32840467189742,1.33218103034227,1.33516035405694,1.3386624287374,1.33859427127098,1.33918750479325,1.33966014436188,1.3421784717419,1.34195114973447,1.34162668170105,1.34212967441085,1.34148204008618,1.34384731407243,1.34443256899161,1.41263863270716,1.45394919753732,1.44413515554599,1.44352633834789,1.36634329064815,1.36711610375078,1.3679368452585,1.3691074759766,1.36868750136251,1.36915389797421,1.36682130096003,1.36540333210136,1.36320207871637,1.36087574894974,1.36210992054129,1.36348473691479,1.3637688219306,1.36595342902647,1.36401780360915,1.36395485304941,1.3640114300079,1.36513445275158,1.36517652448897,1.36541172864287,1.36702289105327,1.36536595214545,1.42207313022871,1.48554999999999,1.39612861125826,1.38660088504984,1.38624913861132,1.38622018652515,1.38739405721087,1.38885197558344,1.3867921326005,1.3827972872475,1.38177955318963,1.37992141128281,1.38012390501716,1.37880562712707,1.3794215854892,1.37918898295647,1.37967210862748,1.37975184558716,1.38188229397472,1.38154373790767,1.38767668893019,1.38952774152769,1.38952246289257,1.38918838104393,1.38988699510613,1.38628202439216,1.39605380470188,1.39499315525083,1.39904619402252,1.40051822321766,1.40148154064477,1.40146704205319,1.40169878414456,1.39904553822825,1.40194473460448,1.4035320310886,1.40387034301363,1.40342832527619,1.40314920729543,1.40461324637549,1.40377405829882,1.40437777374673,1.40420033727634,1.40483534649918,1.40597424426129,1.40757543806728,1.41444579143489,1.4170485170218,1.41955040273616,1.42208781908623,1.42301842687214,1.42477825657571,1.42541395668845,1.42684815031382,1.42646378725171,1.42602928469722,1.42632692392853,1.42703308767664,1.43580342331102,1.44019100231964,1.44430319929769,1.44892171019956,1.45235281209199,1.45513326791829,1.45657321163489,1.45784694385319,1.46095446693401,1.4641353401978,1.46891770157851,1.47167100362002,1.47231870495186,1.4728982738994,1.478571971743,1.48372862037627,1.48638953933039,1.48907057110316,1.49020914441127,1.49147489866689,1.49607403892924
1.24454619010029,1.24609818944085,1.2472877762231,1.24853317820084,1.24862204489498,1.24890241386745,1.24943646257781,1.25041400734444,1.2519493517798,1.25478434393404,1.25642598847032,1.258217293081,1.25901695865258,1.25982570458482,1.26037838934644,1.26111354974098,1.26259909961028,1.26434747055137,1.26682923504946,1.26922680836443,1.2708061346106,1.27218864395689,1.27389702961005,1.27539142349096,1.27614839481609,1.27672913759837,1.27814733844269,1.27956693185193,1.28200513782533,1.28560545417553,1.28764476898502,1.29110174802392,1.29319809316711,1.2944958495734,1.29642852385859,1.29812761247552,1.29940631668128,1.30037666257156,1.30094861928479,1.30139190992237,1.30253651624697,1.30350851176111,1.30386399108628,1.30415352562091,1.30601444429298,1.3079115817601,1.30899361751915,1.31027634963724,1.31292830931393,1.31526208967312,1.3172331842599,1.3190101327945,1.32268524193537,1.3242805326418,1.32570569217795,1.32788630267201,1.32995581304479,1.33201014495354,1.33436972956593,1.33671411689517,1.33769700115693,1.33871441063812,1.34004940611835,1.34202279045877,1.34378178696819,1.34364764924323,1.34405721199591,1.34413370875924,1.3458137450789,1.41338158075044,1.41927992960315,1.44953003082772,1.44566617047642,1.44421778917035,1.36712433392631,1.36760285145931,1.36782118495323,1.36840583839535,1.36790200394962,1.36764588920081,1.36636280951434,1.3652493044196,1.36393610919603,1.36297633253117,1.36284255717528,1.36290562947604,1.36298159603234,1.36281635189868,1.3622143996599,1.36151615345908,1.36214002721483,1.36423943457198,1.36537159681265,1.36858884273625,1.37024830953186,1.37309447106906,1.38075614482047,1.38361914372706,1.38522813239755,1.38619973782504,1.38604943482056,1.38612517508289,1.38674394173183,1.38654355218767,1.38623042933421,1.38426297018411,1.3838316744584,1.38285580483401,1.38253881626399,1.38142356509805,1.38113395764801,1.38037254491748,1.38087819236186,1.38113517739453,1.3824113533112,1.38329916806907,1.38695731792393,1.38860042166649,1.38994605362983,1.38984482332803,1.39106298611064,1.39319034608181,1.39565693886546,1.39750241626269,1.40007854896038,1.40231373523912,1.40377797602298,1.40485652643497,1.40579004236637,1.40753800734574,1.40654067576706,1.40592425980096,1.40672632577837,1.40887438909353,1.40807025819604,1.40830755878624,1.40972471312592,1.41205126882964,1.4149114707234,1.41796986407846,1.42002737579136,1.42140504776918,1.42179024079661,1.42187604885898,1.42257175211175,1.42433948813472,1.42509477689141,1.42603126740874,1.42664138600096,1.42745486415727,1.42803133246712,1.42937101696186,1.43120280258974,1.43383790189614,1.4373163201395,1.44132156627749,1.44534498160539,1.45003149237327,1.45282065906799,1.45584232980878,1.45942220600553,1.4628352786419,1.46596158675527,1.46872239589061,1.47119990136502,1.47389279852303,1.47691035144707,1.47967432013371,1.48216163826081,1.48449060984422,1.48723659700865,1.49003079142613,1.49297690777877,1.49633519748489,1.50042328311755
1.24662173254976,1.24925239423521,1.24845629915207,1.24919223880194,1.24924410994905,1.24995765288233,1.25044408741836,1.25163867827454,1.25264243227118,1.25416375325495,1.25673371984303,1.2594903071382,1.26012837403454,1.26106735992381,1.26158284597471,1.26182197791932,1.26397221157898,1.26577835618066,1.26810136639167,1.27007576614999,1.2721317121891,1.27441762447917,1.27544323031672,1.2774452984012,1.27730090117107,1.27749841475367,1.27979764956322,1.28191350937942,1.28447101644333,1.28752702060016,1.28960932079426,1.2925246099622,1.293672316991,1.29460550450172,1.29619454210347,1.29715996971976,1.29933166872495,1.30184485576984,1.30151729402438,1.30193058603211,1.30328316137884,1.30421378758458,1.30522019333177,1.30539236733398,1.30748834269397,1.30882034889519,1.31011624998046,1.31020004081711,1.31569853318658,1.31820400825463,1.31975491772372,1.31982946654396,1.32557404360531,1.46034,1.40509411132549,1.48621,1.3487371683303,1.35075893541773,1.35197647594053,1.3532722736955,1.35433339646127,1.35426480340967,1.35493121545913,1.35522121721781,1.34745459023317,1.34482010878978,1.34631559814966,1.34514568047118,1.34934789276519,1.72722,1.5339433720334,1.67483,1.5586018014432,1.67348,1.36727880266037,1.36798495578875,1.36751822750506,1.36835660219775,1.36715807873928,1.36692006238577,1.36588555917121,1.36544389610507,1.36419715202687,1.36488590789644,1.36296360595287,1.36331614789197,1.36187814391952,1.36110270313578,1.36009250750253,1.35829346205279,1.35860079323274,1.35601491755003,1.36346484577347,1.37317235986894,1.3722296757011,1.37550897355024,1.37748099555337,1.38460389475919,1.38562911661029,1.38694163298908,1.38503036679223,1.38642064986938,1.38543904413062,1.38657702887985,1.38565806549563,1.38652377028448,1.38548403012863,1.38733989962253,1.38488734029786,1.38530076916526,1.38297046725436,1.38142675757159,1.38222823799103,1.38237972233604,1.38284331752841,1.38282361074863,1.38783167308176,1.39007639720597,1.39103370775942,1.39087552802892,1.39158370830153,1.39372943364926,1.39623053317882,1.39983153177987,1.4016550820721,1.40514631803153,1.40657973368983,1.40885327478523,1.40910109279111,1.41029335592315,1.41200941926383,1.41349763003867,1.41183832074087,1.41230544801554,1.41599904023662,1.41955487366954,1.42079143750764,1.42171627281905,1.4203799639594,1.41886700495232,1.42038906352354,1.42206171665621,1.42410993563976,1.4262045837398,1.42600641914898,1.42800982637834,1.42694735226528,1.42791045381402,1.42767811980694,1.42864229669331,1.42902860701459,1.43068265009196,1.44019475491668,1.44776988320045,1.4530457469053,1.45918609169832,1.45599476907389,1.45278740921629,1.45695354057494,1.61071,1.50330489559741,1.54298999999999,1.47753607344663,1.47148401378987,1.47279997706321,1.47567235421041,1.48137894905259,1.49341000010876,1.49623483036226,1.5661,1.51378537218338,1.50711660585155,1.50718366418876,1.50729511113455,1.50814068042765
1.24703040122342,1.24812721519285,1.2484433559626,1.24867438024594,1.2493231786483,1.24999990203317,1.25060345186271,1.25136182589813,1.25252897747532,1.25403001876194,1.25664433275229,1.25914548974175,1.26077191864984,1.26219605196308,1.2629408604198,1.26373908635371,1.26562162859972,1.26763590946319,1.26976292290953,1.27169133059079,1.27342470711745,1.27489788645717,1.27631764218204,1.27750369958482,1.27840845074481,1.27923337059887,1.28187946417578,1.28442505637595,1.28669057725367,1.28902096472312,1.29101141349205,1.29288787847823,1.29453812252347,1.29578966899318,1.29702446282633,1.29797700196408,1.29937345844771,1.30057161980321,1.30160912426776,1.30270677332813,1.30442666748136,1.30610987784146,1.30714041296554,1.30810048358754,1.30931631660343,1.31048330124385,1.31188622277836,1.31405597568122,1.3170263902303,1.31951728036173,1.32369275161684,1.32756607404319,1.32835390445165,1.33774259527474,1.34041642689264,1.34333132053684,1.34655940061389,1.34900905654021,1.35145304079122,1.35410120698615,1.35496639757355,1.35523980628902,1.35505488804411,1.35462679874432,1.35184706476132,1.35184380581616,1.35101563473222,1.35276604978651,1.35266851403602,1.36388632335573,1.36476660621764,1.36587316277664,1.36640435108575,1.36693204109902,1.3665288124693,1.3661595560879,1.36562972337374,1.36613079426078,1.36521407212796,1.36547763133067,1.36482523076769,1.36434131244515,1.36293437509179,1.36208181667977,1.36166597915956,1.36157138063561,1.36116740267093,1.36058685059095,1.35958263416784,1.35834047799607,1.35828760699567,1.35845165543541,1.36177077462747,1.36530341800666,1.36979041739508,1.37264291919065,1.37429843387038,1.37513109448151,1.37611261761091,1.37849959662263,1.38152340288038,1.38256084112567,1.38404017194493,1.38461351974456,1.38607754477273,1.38627098808341,1.38738783989354,1.38727234292057,1.38759151610165,1.38676061706819,1.38626050163252,1.38657438836099,1.38532254744221,1.3854024853124,1.38486017159651,1.38629617072966,1.38854089891944,1.39186215947114,1.39447304456756,1.39735355315405,1.39839068214247,1.39904640806353,1.39979315880782,1.40105680968934,1.40293179771994,1.40550878348364,1.40866840963977,1.41060321890175,1.41153539486314,1.41291422966037,1.4140526212032,1.41533934908195,1.4156160205736,1.41629829571592,1.41761490432463,1.41968636404683,1.42245173413128,1.42614341810561,1.42973726740811,1.43231717620089,1.43489938530136,1.43687457429329,1.43817790760694,1.43883521048798,1.43896660002973,1.43883590615234,1.43882518493525,1.43931807605068,1.44055370976334,1.44251197387383,1.44489758957798,1.44730679604629,1.44956380389094,1.45195369418116,1.45498267904373,1.45880783673649,1.46295589257174,1.46807163438025,1.470040086517,1.48347353648098,1.49069434452679,1.49060960828347,1.49243026561431,1.4948648646594,1.50252120191611,1.50785905786439,1.51099133933362,1.5119899604508,1.51239608161491,1.51871510519578,1.51881444427437,1.51936387236455,1.52030650777193,1.52180502572736,1.52482901506006
1.24740983339345,1.24813835304638,1.24837614645124,1.2478799794904,1.24938918375019,1.25000703463969,1.25073323225764,1.25039183264962,1.25225575188119,1.25242875899308,1.25688640087449,1.25947696946004,1.26171097780645,1.26387596348592,1.26429354187613,1.2644792034268,1.26715753275555,1.26935114645648,1.27157443837187,1.27360154722831,1.27484160607452,1.27565966588596,1.27723491052405,1.2780936754942,1.27941476634075,1.27938198596016,1.2840383629815,1.28736520618888,1.28896229427199,1.29104909236804,1.29256109732123,1.29374314375026,1.29556121371409,1.29748724899941,1.2977871758071,1.29897242517686,1.29925256805079,1.29993114881516,1.30141686829759,1.30301048978725,1.30555599324838,1.30853807063275,1.30922610287265,1.31030189275306,1.31137207352984,1.31159361432623,1.31310098115352,1.31569062485822,1.31977253937763,1.32877131334064,1.32793029102329,1.33036283451711,1.33152697820369,1.3351459990165,1.34027539421827,1.34316277266522,1.34500972040467,1.34695186029589,1.35018423505228,1.3561746863381,1.35590465908153,1.35611539915453,1.35561082542772,1.35596667361202,1.35371528427931,1.3528176782034,1.35321343357974,1.35435150984791,1.35562650822667,1.36299366082181,1.36449152878171,1.36658564334895,1.36637882224852,1.36789327822691,1.36572246861888,1.36436486743645,1.362919885835,1.36019412391893,1.36235771929353,1.36492061287983,1.36367916653311,1.36434072369439,1.3609615244462,1.35939823182241,1.35967916672649,1.36105891994708,1.3601616386996,1.36143362105137,1.35898073242382,1.35774410435402,1.35780498185645,1.35793847698322,1.36041956328914,1.36041855970299,1.36939400328595,1.37052053602638,1.37195488377556,1.37119200383022,1.37193476986206,1.37035121722706,1.37937794217444,1.37970451434058,1.3818863376785,1.38441197058446,1.38584328285955,1.38838148160803,1.38844458026603,1.39017895211179,1.38969511137441,1.39102198909077,1.38819342793345,1.38901411504282,1.387207632996,1.38779296848966,1.39190905445987,1.4003485067351,1.39786296305187,1.39526534606433,1.39714359696023,1.40172415261325,1.40574562489633,1.40950812356613,1.41207116159705,1.41463003580274,1.41438518234788,1.41416833703176,1.41206462628648,1.41342280135469,1.41360071994424,1.41592375487414,1.41610580910625,1.41841927115503,1.42396471018276,1.43031511888859,1.43020572523207,1.43022936957107,1.43015761166566,1.42989835480306,1.4305827938163,1.43195709689336,1.43555022991558,1.43908393483173,1.44014731673329,1.44122837655306,1.44643241769872,1.5236,1.45692797715535,1.45089897717309,1.45305892147336,1.76629,1.51137803507711,1.54139999999998,1.5244549497779,1.54481999999999,1.47942215475865,1.4748591176597,1.4733884556406,1.47199879896699,1.47280411503613,1.47679437308114,1.48968811580845,1.48780328208891,1.49084551200855,1.49170838917845,1.50381890868907,1.81437,1.52243730708332,1.51859703722246,1.51862881130885,1.51938310207716,1.51902303978931,1.51934937419468,1.51990492358959,1.52020827499908,1.52614828665706
1.24842876152071,1.24898937254864,1.24919130388787,1.24918763833084,1.25027966298351,1.25122571721871,1.25168604572862,1.25201597701321,1.25329287040157,1.25464887703359,1.25760594999566,1.26032848710659,1.26257700436625,1.26455074962292,1.26579272505374,1.26701052134179,1.26912371224671,1.27138202808146,1.27360256768451,1.27577186422489,1.27681186030018,1.27772518032025,1.27904960447815,1.28027214647564,1.28194017931866,1.28372772095326,1.2857583010139,1.28786630448066,1.29086532713427,1.29339628704522,1.29470475050457,1.2957841321236,1.29696097457023,1.29777762472586,1.29835929534379,1.29863487913547,1.29938057206031,1.30014226630384,1.30146416443063,1.30356676896768,1.30627276190762,1.30960299327333,1.31087628668439,1.31254109638826,1.31430463248355,1.31693405948833,1.32002114436216,1.32284403743953,1.32382125956658,1.32721858535741,1.32872471841054,1.33047281144809,1.33217268492017,1.33448932734692,1.33786623400794,1.34075688473329,1.34344312550003,1.34832511152609,1.35148297040855,1.35511478960471,1.35571980884842,1.35561631182559,1.35474026542831,1.35469216772211,1.35377037002601,1.35393973797501,1.35446033097559,1.35784683320071,1.35956769133633,1.36241045185303,1.36362205480512,1.36416197059742,1.36457711077744,1.36465909515865,1.36395970932632,1.36329738209985,1.36129974218868,1.35947178556921,1.35908607902231,1.35738829639897,1.35758895473638,1.35670643379093,1.35754272943822,1.35720084497775,1.35722599900619,1.35735918952659,1.3578133162694,1.35820809090988,1.35781167759104,1.35739597646705,1.3574785920598,1.35776647558581,1.36161187519301,1.36393734447112,1.36755987110113,1.36947443787142,1.37139403347743,1.37225855763532,1.37350279515946,1.37451948500234,1.37794216810433,1.37946690406291,1.38151665999324,1.38317564203246,1.38742183528645,1.38950879839872,1.39117878347387,1.39138747914177,1.39308572645505,1.39438386196275,1.39790278818148,1.39986626014162,1.40174460693548,1.40352823959093,1.40516207904855,1.40658115493403,1.4078386759364,1.40907481305345,1.41036978234758,1.41166341446093,1.41285791725043,1.41398434006281,1.41523703269505,1.41685372192716,1.41894288591547,1.42137486169606,1.42380654734574,1.42586211447116,1.42734519393215,1.42832231900985,1.42905726083539,1.42989123889912,1.43112961760913,1.43294687453579,1.43533697445405,1.43814661673389,1.44113196850342,1.44397162096106,1.44777917552376,1.45173683547132,1.45458429420334,1.45647151968705,1.45765656218329,1.4584433978262,1.45946057781657,1.4639652407851,1.46385508971947,1.46370708799036,1.46857835206515,1.49252301681407,1.49210589464626,1.49172496913594,1.49160539929174,1.49164304632512,1.49204117367392,1.4924609428468,1.49384728641839,1.49481082152952,1.49556530533541,1.49623237062732,1.49701538743275,1.49800240102338,1.4985715023583,1.49880259759952,1.50564134993564,1.52749228613455,1.52695384930612,1.52976799126815,1.53218972450911,1.53388769733134,1.53617176018708,1.53762131305797,1.53872510620401,1.53981017543381,1.54086703980799
1.24967154513247,1.25036887669414,1.25018410618771,1.24938220041037,1.25141349532794,1.25274647500386,1.25293518183835,1.25243657723339,1.25442549335746,1.25500460299259,1.25870601411028,1.26156934805378,1.26374089755968,1.26593532566224,1.26730608944889,1.26861666888311,1.2709284180824,1.27342840872213,1.27562674032678,1.2791243718024,1.27882496215009,1.27949336859875,1.28089873509437,1.28207640269704,1.28435453934184,1.28685872754142,1.28751795660809,1.28748409571436,1.29342571050226,1.29709583376402,1.29707751697944,1.29810035448571,1.29845574730475,1.29896145843811,1.29881769805415,1.29855886113365,1.29910849150545,1.30028283591621,1.30050846364151,1.44388,1.31193716373064,1.31275513102783,1.31244508991622,1.31498067184294,1.31691651325223,1.32251634281477,1.32342461672092,1.32588175282669,1.32576497370859,1.32746995864735,1.32897226397254,1.33059212583767,1.33183667104517,1.33315589739168,1.3358526683463,1.33914600418082,1.33961152294506,1.35114988419273,1.35166271744594,1.35655813019995,1.35601839025533,1.35538942631596,1.35341747188609,1.35377021647189,1.35316477202806,1.35448687607822,1.3531004339346,1.36280417038378,1.3619995059965,1.36318038972967,1.36293041993224,1.36160632894884,1.36174494210813,1.35928995212772,1.36175978408674,1.46282,1.35937183189548,1.35717112029647,1.35731577078645,1.35580184120177,1.35615856400154,1.35536693087711,1.35547301500588,1.35504197749846,1.35452087799682,1.35378536854828,1.3552832589963,1.35637809775539,1.35658958921974,1.35685381244308,1.35706364828512,1.35404265516448,1.36456185912368,1.36572041189491,1.36770615051248,1.36769440119857,1.37222822785206,1.37284351141892,1.37548465882729,1.37649062649776,1.37807498826925,1.3801473616998,1.38082249812027,1.38124370401769,1.38999364611902,1.39342423243794,1.39387053046137,1.39718335155686,1.39549148685506,1.39684021850524,1.3989989114372,1.40246269242579,1.40508849927144,1.4082347816144,1.4092937975699,1.41076313138232,1.41454587504509,1.41844027884991,1.42055041356765,1.42221602432583,1.42414608467439,1.42582271732607,1.42556986369415,1.42526218414991,1.42796996415113,1.43080108498626,1.43250824804456,1.43455675827449,1.43431686891351,1.43421168079995,1.43652420910259,1.43897766701115,1.4409784757766,1.44320344367833,1.44246295427244,1.44158871062902,1.44220895097271,1.44250922881606,1.44691550590044,1.78932,1.46631187433563,1.45913858742503,1.45861830108143,1.45811781486731,1.46052044002039,1.46402475431312,1.46379819608376,1.46345561445205,1.4760785938201,1.49321853240066,1.49238104228034,1.49174225453906,1.49163389070062,1.49132875501016,1.4918534301091,1.49127044533575,1.49394472899301,1.49478324655134,1.49603330002612,1.49711654290064,1.49805835958565,1.49874086167344,1.49877347523348,1.49882208879093,1.51427200078219,1.52854541625139,1.52862886096964,1.53012113920511,1.53241471853185,1.5324020165905,1.53743682891133,1.54112908257043,1.54189785451408,1.54121709522831,1.54144121049055
1.25077149974017,1.25141744734019,1.25180931326323,1.25217978228737,1.25312047993393,1.2540396939896,1.2546842089527,1.25533729723086,1.25681855782579,1.25843283264338,1.26061700376329,1.2627766809789,1.26493226429068,1.26691467892394,1.26892068472254,1.27083481598105,1.27253715391446,1.27435064321899,1.27634691174098,1.27847810641178,1.27992228317737,1.28124392967086,1.28298879350929,1.28475516233205,1.28642240925721,1.28824116385662,1.28981193339907,1.2916761591346,1.2947563697766,1.29744245832453,1.29861696421298,1.29967342650448,1.30031257453084,1.30062716776727,1.30009823823203,1.29889918519185,1.29882571917715,1.29901567219931,1.2999283132187,1.3123592254785,1.31149113502349,1.31150443141263,1.31200524171757,1.31399324807575,1.3166210771925,1.32028529965014,1.32259977999919,1.32472593375525,1.32596856111422,1.32750045428455,1.32903808116738,1.33045357512461,1.33174462375474,1.33267190348399,1.33408488829237,1.3353749263018,1.33698473011006,1.33714465596957,1.33817167277912,1.33983118001161,1.34198330160926,1.34453597198535,1.3473033540921,1.34960236995254,1.35025744810149,1.35092183442022,1.35044294451331,1.35061941780556,1.35057700399877,1.35031039204112,1.34986925691934,1.34925525002538,1.3486218502192,1.34953999848916,1.35056575015289,1.35138480929002,1.35190908139436,1.35238686270947,1.35300514656923,1.35359104369869,1.35389195795939,1.35400074624634,1.35429504953654,1.35378957609023,1.35243504331524,1.35222463910214,1.35358953789262,1.35466562191517,1.35556820349254,1.35658486270547,1.35987844968999,1.36286392871485,1.36606108858338,1.36801227863347,1.36910279086255,1.37073269378899,1.37435108367753,1.37679416504754,1.37903910029273,1.38341666726629,1.38646269741294,1.38869887647168,1.39033116715239,1.39158815727171,1.39271147289353,1.39404076870742,1.39654142791992,1.40032292871283,1.40400648919955,1.40731228950136,1.41012149520431,1.41261618463879,1.41431316570887,1.41587327254941,1.41728892049586,1.41853238046006,1.41928900185109,1.41964066023034,1.42094731592708,1.42253264582422,1.4244189100696,1.42659263737329,1.42950304186585,1.43231805851464,1.43498348451313,1.43743405983405,1.43794982872553,1.43865487116974,1.43987426886859,1.4415744733896,1.4434719963746,1.44539438040819,1.44737241266444,1.44952997295653,1.45069046283236,1.45157531218528,1.4591091054271,1.46367092839205,1.46870285934835,1.48495994053545,1.48366547388645,1.47949726987123,1.47991903608425,1.48206272464865,1.48686607417465,1.49006654807127,1.49209339347625,1.49286993418345,1.49319377749622,1.49316819062758,1.49265490796816,1.49223812831051,1.49196844424737,1.49201954717805,1.49254681468944,1.49329149991083,1.49557798077518,1.49918890259458,1.50331224687731,1.50778676150857,1.51255863949448,1.51738411644363,1.52034213337279,1.52323540297033,1.52635584186525,1.52813883165526,1.52917455966256,1.53103186915012,1.53473209919857,1.53800871698192,1.53935081489537,1.5418447970265,1.54519382241852,1.54870731595188,1.55296909270802
1.25199726705787,1.25276631226576,1.25349542166295,1.25433636892429,1.25495378534928,1.25547637030817,1.2565204401564,1.25733013027586,1.25909047227692,1.2613332163471,1.26247244788331,1.26413581895996,1.2661675193091,1.26801531544626,1.27051962589262,1.27332214107878,1.27393653469107,1.27507111850404,1.27686463537187,1.27859458771996,1.28112378445853,1.28260785787344,1.28508588794047,1.28743106506817,1.28849167737406,1.28957926798109,1.29202768439182,1.29442003810652,1.29674015656386,1.29928567627501,1.30032651803604,1.30194790718108,1.30230938955892,1.303687620901,1.30180644893134,1.29863686516604,1.2981803786629,1.29730839878705,1.3001257338147,1.30016232146007,1.34148396475599,1.36566320965417,1.36523475362538,1.3648015246721,1.36665240683352,1.36849872749325,1.45086957574292,2.24944,1.5171844197718,2.2478,1.41772701807346,1.45729,1.33167830255355,1.33248541360329,1.33186811645389,1.33213520247334,1.33154568705085,1.33205363001928,1.33366979148547,1.3371688189973,1.33778175025313,1.34047840004924,1.34401993061984,1.34680475911464,1.34754311720765,1.34834083353858,1.3472329086704,1.34583531480859,1.34452339716825,1.34458761823976,1.34531907301228,1.34694426375775,1.34724609252665,1.34740022379508,1.34639081694847,1.34069204082893,1.34247188472697,1.34371462908754,1.34317296570582,1.34238291682651,1.34227480238857,1.34097603187576,1.34227778837772,1.34161997189803,1.34953832094697,1.34936896360266,1.35231581912607,1.35326235159326,1.35454846886583,1.35399132042451,1.36286563308224,1.36265651854524,1.36870307826916,1.37066614795304,1.37048351585015,1.37143014038145,1.37802298788097,1.38198199116636,1.38372514376391,1.38721261551727,1.38949716829893,1.39220101766177,1.39892485773676,1.40496909676994,1.40513507585173,1.40517993281812,1.40601917630332,1.40688471016423,1.4088355782713,1.41094344460917,1.41209540180219,1.41328610183307,1.41628572634331,1.41953398788574,1.42005474199778,1.42093290723064,1.4259522242331,1.58366,1.46091802978599,1.50654999999999,1.4411791572655,1.44069370512389,1.44128921175232,1.44077828856216,1.44147570279315,1.43988693580405,1.44196301513155,1.44409815725344,1.44653129019316,1.44911613062264,1.4502649010073,1.45155490693647,1.45119438831231,1.45078520828629,1.45136242166883,1.45286229768247,1.46329722929936,1.4851167792244,1.4861884655159,1.4859344328778,1.48618254784436,1.47467493198324,1.47791377277311,1.47899333908574,1.48764517395585,1.49204465661831,1.49237941750573,1.49260627069964,1.49318177385174,1.49357515727474,1.49294285702764,1.49268498081868,1.50253505158624,1.55993045748055,1.55632222598745,1.56802110472264,1.58503123508181,1.65290999999999,1.60307153308165,1.61386203431505,1.52760230542301,1.52328761558499,1.52612994740336,1.52931834857267,1.52806593940576,1.52879892734039,1.52928389939774,1.53017712442044,1.53737819052676,1.53983161692915,1.54295463732574,1.54699624305463,1.54667377936658,1.54794093185747,1.55389283118683
1.25331011380731,1.25412470498428,1.25503598246691,1.25599005512819,1.2568030517594,1.25766708064092,1.25856172001273,1.2595244874709,1.26098037576098,1.26249954219195,1.26402627237958,1.26553443882963,1.26783482653702,1.27001483253226,1.271990497968,1.27376470965327,1.27484183440391,1.27581795235416,1.27753710162831,1.27995322899827,1.28351611595497,1.28572476057778,1.28726889140237,1.28902784000068,1.29029092952369,1.29190618092079,1.29391507694802,1.2963894444286,1.29826094343907,1.30041395723117,1.30149227192567,1.3027527633723,1.3035962696458,1.30462199937469,1.30508386264395,1.3070896239123,1.30781907161828,1.31466052362196,1.32252896204108,1.37492625996919,1.39341843212945,1.41272968618315,1.43315225276844,1.45418897401328,1.47475004228113,1.49099733541195,1.51588898483464,1.54993289224981,1.47886279902502,1.44050946854464,1.39647430286454,1.37731566235467,1.3310723640088,1.3300766154519,1.33017726290777,1.33012401001972,1.33051646895171,1.33075625335487,1.33233380434072,1.33501190359933,1.33628070286206,1.33858826441753,1.34155791699264,1.34393886852289,1.3446286146628,1.34473617783073,1.34432085551964,1.34348364559485,1.3434722841198,1.34381879488275,1.34480443480436,1.34573952276477,1.34631726099676,1.34628467977816,1.34551556441202,1.34354441795935,1.34326659614183,1.34303535647531,1.34331421479614,1.34315662140567,1.34330244535864,1.34332304155371,1.34387768277469,1.34434870317041,1.34718314742163,1.34909289337422,1.35294068321492,1.3546272365171,1.35525259700665,1.35540222746764,1.36581200222632,1.3667242936047,1.36945631293883,1.3713577169094,1.37266113624716,1.37535732488088,1.37893195321911,1.38279344634073,1.38656184215161,1.39018854095368,1.39377839853213,1.39753425348357,1.40173165751394,1.40423831752682,1.40550649012133,1.40752444601392,1.40979059364936,1.41231813893202,1.41520820831674,1.41840132657556,1.42168334859486,1.42493735654341,1.42809352544511,1.4309356325672,1.43320341103289,1.43478164018385,1.43588104899458,1.43762527309351,1.43925550703899,1.4401027439737,1.44144320984458,1.44189512702221,1.44223034996349,1.44263049973712,1.44353412432869,1.44528726427163,1.44620996627259,1.4478524268563,1.45046577139126,1.45381727486449,1.45744578853895,1.46095169104943,1.4640653833425,1.46664988288625,1.46874361335268,1.46980203020344,1.47042206532949,1.48642696955316,1.48694153549235,1.48735240357271,1.48840025767974,1.4908330802937,1.49236585698876,1.49334827807091,1.4943928884222,1.49606176259446,1.49863248373938,1.50209402253609,1.50624805740855,1.50896698564303,1.51203637912547,1.5137661839614,1.51501623640837,1.52787120416174,1.553642530599,1.57848880742389,1.59987530181111,1.62033456281378,1.59484591322291,1.57808583376842,1.53939904322344,1.54077408053581,1.54479575234856,1.54920214634086,1.55324374374233,1.55696207767973,1.5603706807981,1.56331080339222,1.56553903007784,1.56679453687399,1.56940938122653,1.57410756334564,1.57954940507341,1.58440386830906,1.58766004038158
