0.884606, 0.896035, 0.896908, 0.899644, 0.906856, 0.899374, 0.897322, 0.906438, 0.908128, 0.92801, 0.92363, 0.92368, 0.943427, 0.954971, 0.960624, 0.959749, 0.944729, 0.944349, 0.951327, 0.975032, 0.999004, 0.974095, 0.97341, 0.996131, 0.997278, 0.998203, 0.947048, 0.935544, 0.938017, 0.912631, 0.913645, 0.924174, 0.922009, 0.921641, 0.921033, 0.917092, 0.917687, 0.915883, 0.919468, 0.91897, 0.915819, 0.908551, 0.912698, 0.912545, 0.896313, 0.893552, 0.884278, 0.883239, 0.870796, 0.866541, 0.864364, 0.872965, 0.865382, 0.861335, 0.868031, 0.868244, 0.880081, 0.881227, 0.864098, 0.873476, 0.867243, 0.863639, 0.868074, 0.876369, 0.87717, 0.879128, 0.869132, 0.86362, 0.861328, 0.86948, 0.869784, 0.88993, 0.893791, 0.898239, 0.904244, 0.908746, 0.922757, 0.932944, 0.932341, 0.945635, 0.953939, 0.940167, 0.93619, 0.930387, 0.922334, 0.917938, 0.918089, 0.922048, 0.928601, 0.925188, 0.940424, 0.942019, 0.934272, 0.935046, 0.920702, 0.931949, 0.930823, 0.92989, 0.933844, 0.935124, 0.936286, 0.92706, 0.931732, 0.932138, 0.936676, 0.953171, 0.95237, 0.961689, 0.962993, 0.959093, 0.963491, 0.970058, 0.982163, 0.977867, 0.975998, 0.95791, 0.958166, 0.961001, 0.949823, 0.94647, 0.958123, 0.934745, 0.935485, 0.958733, 0.972745, 0.975766, 0.985562, 1.0485, 1.03975, 1.04003, 1.04156, 1.04469, 1.04305, 1.15141, 1.10895, 1.10533, 1.12183, 1.13225, 1.13638, 1.14785, 1.18602, 1.1822, 1.18614, 1.18468, 1.23712, 1.23901, 1.18547, 1.18057, 1.14794, 1.14654
0.883784, 0.896155, 0.897395, 0.902393, 0.909628, 0.901459, 0.899036, 0.908365, 0.908432, 0.930599, 0.925078, 1.00789, 0.944828, 0.955966, 0.958528, 0.962898, 0.939469, 0.943617, 0.946738, 0.9492, 0.988549, 0.966496, 0.968033, 0.993046, 1.00028, 0.998074, 0.943956, 0.934356, 0.935138, 0.910252, 0.90986, 0.923977, 0.922146, 0.923536, 0.921058, 0.921182, 0.914319, 0.913316, 0.915545, 0.917141, 0.918525, 0.903988, 0.905657, 0.904294, 0.895316, 0.894254, 0.884647, 0.871096, 0.867593, 0.866478, 0.861744, 0.871762, 0.859477, 0.858799, 0.868333, 0.869788, 0.880633, 0.879955, 0.873162, 0.873149, 0.869225, 0.862616, 0.865375, 0.875604, 0.877584, 0.874573, 0.870448, 0.86288, 0.861134, 0.869163, 0.86865, 0.89172, 0.892785, 0.900283, 0.904622, 0.909952, 0.922205, 0.926813, 0.930657, 0.945543, 0.946138, 0.936221, 0.933377, 0.929606, 0.917021, 0.917741, 0.915626, 0.922227, 0.922974, 0.922174, 0.922344, 0.941455, 0.942535, 0.931693, 0.921554, 0.929021, 0.927084, 0.924267, 0.933693, 0.935561, 0.935259, 0.921896, 0.932688, 0.931846, 0.933112, 0.953928, 0.953, 0.951383, 0.966889, 0.958296, 0.961133, 0.969702, 0.980361, 0.97254, 0.974319, 0.957324, 0.957296, 0.959141, 0.946607, 0.945723, 0.959368, 0.937822, 0.936327, 0.958052, 0.971947, 0.981167, 0.994777, 1.08765, 1.03993, 1.04339, 1.0445, 1.06167, 1.1571, 1.45875, 1.09905, 1.10297, 1.1139, 1.13363, 1.13434, 1.16772, 1.1764, 1.18548, 1.18458, 1.2855, 1.22914, 1.30175, 1.15321, 1.15541, 1.1509, 1.3679
0.874054, 0.897296, 0.898946, 0.899247, 0.90387, 0.902783, 0.908057, 0.910646, 0.909932, 0.931987, 0.92151, 0.941995, 0.942212, 0.95558, 0.954299, 0.948263, 0.940023, 0.940249, 0.947151, 0.94396, 0.947399, 0.967141, 0.96664, 0.991622, 0.997968, 0.999205, 1.08847, 0.927875, 0.927328, 0.908313, 0.905607, 0.919337, 0.920621, 0.921904, 0.920798, 0.922657, 0.908697, 0.908776, 0.911296, 0.913975, 0.912801, 0.894001, 0.894733, 0.901188, 0.895546, 0.891298, 0.871092, 0.867521, 0.866061, 0.863515, 0.856332, 0.870387, 0.857257, 0.854888, 0.857693, 0.864663, 0.880168, 0.880453, 0.874889, 0.879111, 0.862836, 0.860592, 0.865856, 0.875243, 0.876203, 0.876046, 0.870507, 0.859509, 0.859963, 0.866331, 0.86691, 0.891396, 0.890571, 0.900674, 0.907126, 0.909334, 0.918959, 0.922905, 0.936243, 0.945582, 0.945599, 0.94299, 0.925041, 0.926658, 0.914737, 0.917923, 0.915726, 0.919871, 0.928317, 0.916793, 0.916369, 0.9387, 0.942369, 0.942265, 0.911505, 0.912917, 0.920695, 0.921698, 0.93404, 0.934948, 0.933819, 0.92086, 0.925478, 0.929161, 0.929703, 0.953819, 0.955021, 0.961884, 0.967897, 0.957426, 0.960003, 0.970458, 0.976683, 0.971568, 0.970925, 0.961114, 0.954692, 0.952898, 0.950418, 0.94769, 0.959285, 0.936281, 0.935806, 0.956923, 0.963417, 0.978474, 0.984938, 0.00426349, 1.03051, 1.04383, 1.04973, 1.06436, 1.06696, 1.08459, 1.09742, 1.09588, 1.11237, 1.1321, 1.13795, 1.16724, 1.17751, 1.18364, 1.1822, 1.25443, 1.15818, 1.15459, 1.15459, 1.15383, 1.15184, 1.34782
0.875685, 0.897566, 0.897962, 0.899779, 0.908595, 0.905844, 0.909618, 0.916881, 0.913494, 0.939792, 0.938969, 0.943513, 0.942047, 0.95264, 0.945802, 0.945672, 0.940271, 0.940027, 0.944201, 0.945573, 0.945551, 0.966502, 0.966302, 0.994184, 1.00059, 1.00141, 1.14259, 0.926251, 0.925577, 0.905809, 0.9064, 0.916522, 0.921453, 0.912404, 0.909979, 0.918956, 0.906468, 0.907561, 0.911093, 0.913075, 0.911726, 0.888441, 0.890638, 0.901247, 0.893059, 0.866283, 0.866195, 0.862915, 0.861156, 0.859142, 0.855095, 0.86959, 0.854759, 0.85461, 0.858591, 0.863456, 0.879102, 0.875082, 0.874683, 0.876798, 0.862118, 0.859317, 0.862608, 0.873656, 0.874502, 0.877587, 0.868014, 0.863917, 0.860967, 0.865253, 0.866761, 0.886001, 0.891839, 0.904878, 0.906236, 0.907902, 0.915506, 0.914736, 0.916114, 0.943677, 0.943002, 0.920948, 0.921366, 0.91322, 0.911771, 0.91454, 0.911741, 0.915538, 0.926316, 0.916018, 0.914408, 0.925917, 0.942514, 0.921379, 0.90818, 0.914496, 0.913562, 0.925814, 0.930916, 0.932296, 0.93184, 0.922112, 0.92097, 0.9269, 0.928748, 0.953381, 0.954387, 0.969372, 0.969928, 0.955911, 0.957758, 0.968864, 0.975514, 0.972406, 0.97235, 0.951591, 0.952516, 0.950747, 0.94926, 0.949075, 0.957068, 0.936928, 0.936683, 0.956374, 0.967657, 0.97531, 0.984548, 1.37536, 1.02916, 1.05019, 1.0517, 1.06593, 1.06441, 1.09041, 1.09976, 1.10154, 1.11689, 1.15934, 1.51266, 1.15921, 1.17715, 1.17978, 1.18141, 1.25494, 1.15695, 1.1561, 1.15381, 1.15278, 1.37323, 1.34086
0.883199, 0.900258, 0.898571, 0.907756, 0.915304, 0.929546, 0.925122, 0.922361, 0.921928, 0.943012, 0.937981, 0.944361, 0.942766, 0.949797, 0.941807, 0.945507, 0.940547, 0.939532, 0.947133, 0.94545, 0.943446, 0.963051, 0.968931, 0.990666, 0.997624, 0.997337, 1.10268, 0.926371, 0.924803, 0.905017, 0.90842, 0.915512, 0.916588, 0.915597, 0.908846, 0.913586, 0.901083, 0.90438, 0.906672, 0.905562, 0.90225, 0.883705, 0.885651, 0.901145, 0.864217, 0.861727, 0.860418, 0.859774, 0.856441, 0.850759, 0.849359, 0.861923, 0.856303, 0.852796, 0.859963, 0.874466, 0.877419, 0.878067, 0.873934, 0.877196, 0.857783, 0.857403, 0.860981, 0.875938, 0.876438, 0.876514, 0.864466, 0.860491, 0.862856, 0.863142, 0.866866, 0.884511, 0.890201, 0.907817, 0.906246, 0.904204, 0.908199, 0.907773, 0.933043, 0.932799, 0.935463, 0.91792, 0.917819, 0.915906, 0.910787, 0.911448, 0.913766, 0.914421, 0.922906, 0.910356, 0.911291, 0.918831, 0.925106, 0.915337, 0.905316, 0.911121, 0.91084, 0.916365, 0.93044, 0.930392, 0.929009, 0.920217, 0.917929, 0.923128, 0.923167, 1.22953, 0.953569, 0.967557, 0.96414, 0.956966, 0.959386, 0.961866, 0.970774, 0.97263, 0.977099, 0.949987, 0.946366, 0.939955, 0.942772, 0.946735, 0.95497, 0.95323, 0.935964, 0.950456, 0.963437, 0.973437, 1.31469, 0.99864, 1.0477, 1.05084, 1.05443, 1.0623, 1.06315, 1.09226, 1.10149, 1.10418, 1.11956, 1.13721, 1.17148, 1.16786, 1.17848, 1.1812, 1.18167, 1.27534, 1.15458, 1.15384, 1.15455, 1.14994, 1.39854, 1.25017
0.883941, 0.899208, 0.901602, 0.908394, 0.928533, 0.934283, 0.933326, 0.922867, 1.35118, 0.945013, 0.94576, 0.943073, 0.94355, 0.948353, 0.940566, 0.944029, 0.940276, 0.939292, 0.947559, 0.944894, 0.944882, 0.959777, 0.976732, 0.995613, 1.00123, 1.00108, 1.09474, 0.930304, 0.905583, 0.904629, 0.910421, 0.913594, 0.914773, 0.909455, 0.907676, 0.907182, 0.898542, 0.901129, 0.899398, 0.903976, 0.901321, 0.884361, 0.883958, 0.894765, 0.857355, 0.859955, 0.860432, 0.859546, 0.853659, 0.850723, 0.846811, 0.859783, 0.84816, 0.849285, 0.858746, 0.866069, 0.875713, 0.877075, 0.876268, 0.877834, 0.857706, 0.858468, 0.860328, 0.875044, 0.878326, 0.870717, 0.862726, 0.861943, 0.862136, 0.863294, 0.86431, 0.887654, 0.888316, 0.900908, 0.903331, 0.902063, 0.905693, 0.905032, 0.929941, 0.931239, 0.932977, 0.91822, 0.918324, 0.917256, 0.907266, 0.912137, 0.914286, 0.915397, 0.918296, 0.918322, 0.905096, 0.915622, 0.916244, 0.899687, 0.904568, 0.912253, 0.907847, 0.917205, 0.927894, 0.92658, 0.927752, 0.922762, 0.919248, 0.919166, 0.925138, 0.932886, 0.95639, 0.965438, 0.962397, 0.956869, 0.963794, 0.96276, 0.968259, 0.969969, 0.969075, 0.945612, 0.943139, 0.937378, 0.940846, 0.941624, 0.952691, 0.952592, 0.9368, 0.950593, 0.964011, 0.967657, 0.974767, 1.0119, 1.05295, 1.05248, 1.05374, 1.0617, 1.06304, 1.10971, 1.1021, 1.12878, 1.13084, 1.14673, 1.15401, 1.15451, 1.17652, 1.18073, 1.1795, 1.23991, 1.24604, 1.24745, 1.15288, 1.15224, 1.31938, 1.35851
0.883342, 0.899422, 0.907738, 0.93422, 0.932237, 0.939149, 0.934373, 0.929464, 1.34767, 0.947873, 0.946151, 0.94581, 0.947635, 0.948481, 0.941711, 0.943874, 0.939527, 0.938589, 0.948819, 0.946414, 0.951138, 0.963847, 0.966318, 1.01069, 1.00404, 1.00426, 0.941757, 0.927188, 0.904608, 0.904448, 0.909425, 0.918127, 0.916359, 0.915196, 0.907748, 0.900737, 0.89708, 0.899763, 0.899317, 0.899529, 0.89757, 0.884098, 0.883695, 0.890921, 0.856995, 0.85671, 0.864865, 0.851515, 0.855929, 0.849136, 0.851095, 0.854045, 0.845822, 0.846687, 0.850825, 0.862042, 0.874598, 0.875426, 0.876557, 0.879557, 0.857619, 0.858522, 0.859483, 0.877846, 0.878547, 0.869603, 0.867477, 0.864272, 0.861318, 0.863742, 0.865246, 0.889529, 0.893852, 0.895909, 0.900565, 0.904604, 0.91136, 0.912212, 0.952546, 0.943509, 0.938872, 0.916512, 0.915864, 0.906663, 0.902974, 0.901339, 0.91332, 0.915191, 0.919069, 0.904866, 0.905675, 0.913389, 0.894416, 0.894147, 0.903495, 0.91099, 0.906676, 0.917081, 0.924568, 0.924829, 0.929833, 0.926874, 0.919117, 0.920363, 0.924118, 0.944624, 0.945499, 0.961806, 0.953582, 0.957694, 0.970758, 0.966349, 0.969066, 0.97008, 0.951022, 0.945875, 0.942045, 0.935068, 0.936163, 0.940519, 0.94451, 0.941848, 0.939223, 0.951041, 0.956603, 0.971046, 1.21711, 1.30186, 1.0472, 1.07811, 1.05705, 1.06053, 1.07318, 1.09526, 1.11823, 1.12103, 1.13055, 1.14324, 1.15108, 1.18007, 1.17511, 1.18234, 1.18459, 1.29346, 1.1471, 1.14451, 1.14826, 1.28874, 1.25981, 1.21354
0.884479, 0.901161, 0.906125, 0.94094, 0.927702, 0.927575, 0.93498, 0.929958, 0.952006, 0.954488, 0.965587, 0.949539, 0.946976, 0.948015, 0.939985, 0.949459, 0.940018, 0.938219, 0.945365, 0.946201, 0.958228, 0.963248, 0.976816, 0.990806, 1.00495, 1.00433, 1.08831, 0.914865, 0.901837, 0.905934, 0.908222, 0.918675, 0.916772, 0.916886, 1.08797, 0.893217, 0.89355, 0.897025, 0.89859, 0.897013, 0.895632, 0.880714, 0.879786, 0.884131, 0.855016, 0.857159, 0.850248, 0.851134, 0.859593, 0.846876, 0.851777, 0.853583, 0.844142, 0.843367, 0.853039, 0.859786, 0.863252, 0.873674, 0.876508, 0.878051, 0.859706, 0.856947, 0.859661, 0.876308, 0.879226, 0.870357, 0.867783, 0.864042, 0.858953, 0.862695, 0.867565, 0.887258, 0.892091, 0.897388, 0.897482, 0.904419, 0.910883, 0.913804, 1.24716, 0.941201, 0.940952, 0.911785, 0.89234, 0.88851, 0.901541, 0.898829, 0.90973, 0.913581, 0.914187, 0.907223, 0.904785, 0.907111, 0.907455, 0.892039, 0.901647, 0.908137, 0.904702, 0.914886, 0.921338, 0.9228, 0.926262, 0.926353, 0.918166, 0.91843, 0.924891, 0.942648, 0.943382, 0.959551, 0.945406, 0.95054, 0.969737, 0.965751, 0.965366, 0.967044, 0.949528, 0.945558, 0.94141, 0.932331, 0.933907, 0.93612, 0.94051, 0.939861, 0.937012, 0.950738, 0.961188, 0.975112, 0.986846, 0.987322, 1.31086, 1.08822, 1.05757, 1.06038, 1.0753, 1.09235, 1.11907, 1.12639, 1.56527, 1.45742, 1.15052, 1.17732, 1.32548, 1.18123, 1.18301, 1.32063, 1.21531, 1.14655, 1.14632, 1.20151, 1.19494, 1.20203
0.884192, 0.900818, 0.90131, 0.939968, 0.928428, 0.929643, 0.932857, 0.93113, 0.949505, 0.943412, 0.955936, 0.948912, 0.949403, 0.951179, 0.939605, 0.948173, 0.93937, 0.938986, 0.944995, 0.945381, 0.960111, 0.962946, 0.974453, 0.989536, 0.992872, 1.00239, 0.918507, 0.9137, 0.892807, 0.905529, 0.904206, 0.918289, 0.914442, 0.910633, 1.03309, 0.88722, 0.89056, 0.892696, 0.895886, 0.892943, 0.893792, 0.878534, 0.876717, 0.877584, 0.853266, 0.854577, 0.84916, 0.848736, 0.858096, 0.853437, 0.853097, 0.851422, 0.841113, 0.838681, 0.853325, 0.856477, 0.861036, 0.870558, 0.871147, 0.900664, 0.85753, 0.857265, 0.857791, 0.873023, 0.873202, 0.868643, 0.866945, 0.86161, 0.858363, 0.86584, 0.867866, 0.884932, 0.891685, 0.895891, 0.897032, 0.904693, 0.910999, 0.912508, 0.935955, 0.939152, 1.18479, 0.908251, 0.891145, 0.893007, 0.896361, 0.895146, 0.899133, 0.903421, 0.913471, 0.907246, 0.901855, 0.903961, 0.901061, 0.886836, 0.900627, 0.901043, 0.90268, 0.911467, 0.917272, 0.916167, 0.9243, 0.928476, 0.914455, 0.915681, 0.928322, 0.937539, 0.936041, 0.939577, 0.940175, 0.951997, 0.968132, 0.965691, 0.96805, 0.96451, 0.943645, 0.942308, 0.937254, 0.933954, 0.932577, 0.937708, 0.934249, 0.935516, 0.932191, 0.950239, 0.963211, 0.964593, 0.985221, 1.30948, 1.34453, 1.07342, 1.0565, 1.05756, 1.07506, 1.08849, 1.11232, 1.12339, 1.56802, 1.15616, 1.15464, 1.16185, 1.17456, 1.18255, 1.1827, 1.22949, 1.22683, 1.14553, 1.1463, 1.33737, 1.2888, 1.11481
0.898731, 0.898537, 1.20301, 0.93331, 0.92274, 0.929937, 0.931056, 0.933269, 0.946345, 0.939456, 0.953008, 0.947924, 0.948306, 0.94048, 0.940758, 0.95052, 0.943117, 0.939902, 0.957468, 0.966595, 0.957855, 0.993031, 0.977644, 0.991444, 0.994866, 1.10867, 1.29535, 0.9022, 0.891477, 0.902414, 0.907607, 0.915652, 0.904483, 0.896219, 0.890381, 0.884994, 0.888658, 0.890344, 0.893586, 0.889519, 0.888142, 0.87538, 0.876127, 0.874397, 0.850367, 0.852688, 0.845876, 0.847621, 0.856346, 0.855401, 0.855526, 0.855502, 0.837821, 0.841867, 0.852405, 0.863423, 0.868164, 0.870101, 0.863785, 0.869195, 0.855559, 0.853366, 0.856818, 0.868686, 0.869241, 0.866896, 0.866074, 0.863278, 0.863529, 0.865853, 0.874706, 0.883094, 0.891546, 0.89316, 0.895456, 0.90902, 0.910846, 0.91245, 0.933682, 0.935575, 0.908645, 0.892447, 0.89083, 0.885335, 0.894255, 0.893772, 0.895419, 0.894332, 0.911165, 0.910764, 0.901955, 0.901741, 0.898214, 0.887572, 0.900504, 0.896674, 0.903536, 0.905404, 0.914166, 0.909846, 0.909943, 0.926158, 0.913098, 0.915954, 0.929336, 0.937371, 0.935108, 0.941918, 0.938469, 0.938958, 0.967886, 0.966981, 0.963898, 0.962667, 0.941847, 0.942284, 0.935701, 0.931024, 0.931982, 0.935551, 0.932608, 0.93328, 0.934346, 0.95975, 0.962507, 0.967261, 0.988258, 1.34661, 1.31202, 1.06894, 1.05826, 1.06188, 1.06729, 1.09175, 1.3446, 1.13113, 1.56819, 1.51393, 1.15697, 1.1607, 1.1753, 1.24477, 1.17331, 1.17058, 1.22699, 1.29537, 1.20199, 1.18907, 1.18844, 1.11373
0.896984, 0.903974, 0.921828, 0.931756, 0.916092, 0.922584, 0.93227, 0.931022, 0.943898, 0.938744, 0.951522, 0.945048, 0.944517, 0.937881, 0.944951, 0.950822, 0.942549, 0.961632, 0.966186, 0.961985, 0.969785, 0.968824, 0.979295, 0.988872, 0.998433, 0.930091, 0.908789, 0.890678, 0.882495, 0.900244, 0.908148, 0.912334, 0.899761, 0.892409, 0.883839, 0.883998, 0.884839, 0.888198, 0.890198, 0.885204, 0.883596, 0.874956, 0.876284, 0.876091, 0.846267, 0.849252, 0.839878, 0.848919, 0.856816, 0.853448, 0.858075, 0.867531, 0.838901, 0.83925, 0.857316, 0.860439, 0.862362, 0.863726, 0.859305, 0.866473, 0.853431, 0.850855, 0.85143, 0.863759, 0.86665, 0.864541, 0.865661, 0.863142, 0.866092, 0.867725, 0.872844, 0.873199, 0.891174, 0.890346, 0.894627, 0.901734, 0.911592, 0.911732, 0.932928, 0.931514, 1.16383, 0.899028, 0.883052, 0.885769, 0.884446, 0.887603, 0.891552, 0.889539, 0.910427, 0.909823, 0.900629, 0.901129, 0.894176, 0.885577, 0.898605, 0.89419, 0.901295, 0.902352, 0.905554, 0.905104, 0.905382, 0.924201, 0.912897, 0.914688, 0.928139, 0.935568, 0.932508, 0.938627, 0.935691, 0.936564, 0.962823, 0.957776, 0.960101, 0.963179, 0.946582, 0.936145, 0.936463, 0.930611, 0.935083, 0.938434, 0.933223, 0.932524, 0.932421, 0.967647, 0.965949, 0.967866, 0.987161, 0.993604, 1.32875, 1.07033, 1.0643, 1.06492, 1.06452, 1.07698, 1.10345, 1.27321, 1.14012, 1.15029, 1.15469, 1.15969, 1.16382, 1.16834, 1.16989, 1.16826, 1.16386, 1.35478, 1.19234, 1.2263, 1.18868, 1.28686
0.893496, 0.905644, 0.908897, 0.924626, 0.913282, 0.919449, 0.932556, 0.931781, 0.952702, 0.950769, 0.952735, 0.942203, 0.941241, 0.936293, 0.943156, 0.952475, 0.951156, 0.959514, 0.966076, 0.968326, 0.970032, 0.973304, 0.973468, 0.00446415, 0.983988, 0.915664, 0.917183, 0.892815, 0.886064, 0.892698, 0.90692, 0.910484, 0.896847, 0.890232, 0.882562, 0.882559, 0.883881, 0.884019, 0.883203, 0.883636, 0.882913, 0.872666, 0.871746, 0.870457, 0.845682, 0.846397, 0.842641, 0.846767, 0.853787, 0.852228, 0.852203, 0.869931, 0.839823, 0.839408, 0.869239, 0.869708, 0.86394, 0.863971, 0.860013, 0.862913, 0.848349, 0.848215, 0.853217, 0.862528, 0.864279, 0.863448, 0.864851, 0.865079, 0.868282, 0.872158, 0.873275, 0.873514, 0.888925, 0.890417, 0.900935, 0.902822, 0.898678, 0.914121, 0.918614, 0.923619, 0.908048, 0.89759, 0.882691, 0.884245, 0.886409, 0.886952, 0.887886, 0.885267, 0.902642, 0.907461, 0.901861, 0.901013, 0.895892, 0.883383, 0.893984, 0.892417, 0.90048, 0.902635, 0.903412, 0.904576, 0.905045, 0.921874, 0.917332, 0.916358, 0.924889, 0.935619, 0.932587, 0.936532, 0.933235, 1.32701, 0.957612, 0.956738, 0.963647, 0.952545, 0.946548, 0.946756, 0.935349, 0.937643, 0.939102, 0.942155, 0.938975, 0.941894, 0.966568, 0.968836, 0.968086, 0.968248, 0.987345, 0.99399, 1.33324, 1.06816, 1.06394, 1.06363, 1.06809, 1.10254, 1.11526, 0.00442212, 1.16483, 1.15556, 1.1565, 1.16225, 1.16881, 1.16941, 1.17396, 1.17522, 1.21992, 1.24048, 1.21484, 1.19843, 1.18475, 1.28163
0.894696, 0.907701, 0.917952, 0.918881, 0.912805, 0.931909, 0.933876, 1.32993, 0.956875, 0.955403, 0.943314, 0.942525, 0.942859, 0.934561, 0.948927, 0.953225, 0.952819, 0.954599, 0.96806, 0.969508, 0.961924, 0.974292, 1.21186, 1.03026, 0.931535, 0.917341, 0.914528, 0.897501, 0.894085, 0.894055, 0.901347, 0.904535, 0.883985, 0.884299, 0.881628, 0.883799, 0.881024, 0.883473, 0.882905, 0.884594, 0.880751, 0.871949, 0.869186, 0.865672, 0.845468, 0.845376, 0.84435, 0.846367, 0.846534, 0.85045, 0.869593, 0.869271, 0.84076, 0.839871, 0.870562, 0.870588, 0.864145, 0.858722, 0.861023, 0.862957, 0.852722, 0.848475, 0.855587, 0.856418, 0.864235, 0.863122, 0.863523, 0.861579, 0.866975, 0.871182, 0.873696, 0.867208, 0.877399, 0.888186, 0.900829, 0.896224, 0.898533, 0.916672, 0.917734, 0.925602, 0.899221, 0.888958, 0.882564, 0.88164, 0.887039, 0.88785, 0.888397, 0.884941, 0.905531, 0.904643, 0.90165, 0.90256, 0.896912, 0.88399, 0.886244, 0.890943, 0.895064, 0.901101, 0.90175, 0.90514, 0.905431, 0.92092, 0.915717, 0.916406, 0.922213, 0.924725, 0.928743, 0.937799, 0.929625, 0.942117, 0.952744, 0.954704, 0.961102, 0.95244, 0.942883, 0.942375, 0.937575, 0.943625, 0.949422, 0.944718, 0.940734, 0.94213, 0.963634, 0.960328, 0.968496, 0.981733, 0.992843, 0.993835, 1.35154, 1.33047, 1.0656, 1.06906, 1.09798, 1.09783, 1.11558, 0.00425536, 1.16836, 1.75582, 1.16077, 1.16377, 1.16897, 1.17376, 1.17457, 1.1759, 1.1732, 1.16956, 1.23641, 1.30905, 1.21552, 1.26781
0.892744, 0.908644, 0.918385, 0.915277, 0.911351, 0.933358, 0.939569, 1.38974, 0.961573, 0.963461, 0.939548, 0.941147, 0.942179, 0.936666, 0.942501, 0.954438, 0.95384, 0.963585, 0.974911, 0.974396, 0.962644, 0.959984, 1.2884, 0.933218, 0.929957, 0.911111, 0.912173, 0.89487, 0.889799, 0.892438, 0.897665, 0.899809, 0.884914, 0.883713, 0.880452, 0.880233, 0.877146, 0.883523, 0.885499, 0.884836, 0.883085, 0.874065, 0.866691, 0.863355, 0.845581, 0.845623, 0.844892, 0.84608, 0.848656, 0.849003, 0.86327, 0.864054, 0.842462, 0.842207, 0.867581, 0.871686, 0.862428, 0.858039, 0.860064, 0.862776, 0.850169, 0.846082, 0.844138, 0.855872, 0.859947, 0.863043, 0.862587, 0.860498, 0.861183, 0.871142, 0.872959, 0.867507, 0.868418, 0.87766, 0.896507, 0.894757, 0.900386, 0.91457, 0.914459, 0.925028, 0.901101, 0.887049, 0.886829, 0.881759, 0.885047, 0.884305, 0.88759, 0.883394, 0.901186, 0.900886, 0.902072, 0.901022, 0.895788, 0.885125, 0.885593, 0.887054, 0.887802, 0.900305, 0.899621, 0.897559, 0.900024, 0.916909, 0.911765, 0.910357, 0.919059, 0.921534, 0.925367, 0.930308, 0.928852, 0.938248, 0.946886, 0.949542, 0.948758, 0.94918, 0.942597, 0.939176, 0.938723, 0.941482, 0.943929, 0.944521, 0.941791, 0.941248, 0.961261, 0.958193, 0.960802, 0.980861, 0.997372, 0.997968, 1.01995, 1.40594, 1.07525, 1.10538, 1.10155, 1.09782, 1.12278, 1.63107, 1.17038, 1.58499, 1.16378, 1.16508, 1.16779, 1.16872, 1.17564, 1.17297, 1.1709, 1.16808, 1.16977, 1.1644, 1.34756, 1.24524
0.897706, 0.907652, 0.913191, 0.91401, 0.911713, 0.936264, 0.960235, 1.40743, 0.979543, 0.97505, 0.940873, 0.940342, 0.944482, 0.937924, 0.938663, 0.954272, 0.955368, 0.960248, 0.975281, 0.980438, 0.956608, 0.957932, 0.957451, 0.947562, 0.926298, 0.909198, 0.893263, 0.888946, 0.88937, 0.893834, 0.895395, 0.897514, 0.883509, 0.88349, 0.874959, 0.87638, 0.873969, 0.88486, 0.887197, 0.886811, 0.879978, 1.11906, 0.864032, 0.843879, 0.844287, 0.844387, 0.84742, 0.843393, 0.844009, 0.846544, 0.862702, 0.862795, 0.841499, 0.842289, 0.867065, 0.868137, 0.862923, 0.856012, 0.862704, 0.859785, 0.846187, 0.845664, 0.845951, 0.849715, 0.855492, 0.855761, 0.857531, 0.857561, 0.859628, 0.867608, 0.863413, 0.865139, 0.868937, 0.870621, 0.890964, 0.887455, 0.88844, 0.916962, 0.914387, 0.918845, 1.18901, 0.884584, 0.881996, 0.880035, 0.881969, 0.88183, 0.88186, 0.881175, 0.897643, 0.900552, 0.899085, 0.897065, 0.894919, 0.879863, 0.881179, 0.883258, 0.892133, 0.902932, 0.897937, 0.896378, 0.898638, 0.914273, 0.906445, 0.909747, 0.909939, 0.915608, 0.920826, 0.925807, 0.928938, 0.933158, 0.947185, 0.947641, 0.942951, 0.943544, 0.943292, 0.939398, 0.94283, 0.938556, 0.940981, 0.942541, 0.940065, 0.939799, 0.943194, 0.958724, 0.967062, 0.979125, 0.99471, 1.00928, 1.35761, 1.3084, 1.0662, 1.06693, 1.10211, 1.10007, 1.10123, 1.14381, 1.17198, 1.17225, 1.196, 1.16641, 1.16706, 1.1677, 1.16886, 1.17031, 1.16898, 1.16836, 1.16655, 1.16741, 1.32683, 1.16843
0.89637, 0.904473, 0.91387, 0.909707, 0.908429, 0.99861, 1.32535, 0.980685, 0.982135, 0.985021, 0.94226, 0.939811, 0.945099, 0.939106, 0.95971, 0.96062, 0.957273, 0.961913, 0.976306, 0.979127, 0.948453, 0.950619, 0.955377, 1.28582, 0.922127, 0.905419, 0.905293, 0.885922, 0.889846, 0.891079, 0.893299, 1.08843, 0.88212, 0.873335, 0.872889, 0.87377, 0.872128, 0.878018, 0.883716, 0.875573, 0.874439, 0.869675, 0.860358, 0.840986, 0.842144, 0.841593, 0.849132, 0.842836, 0.8396, 0.845382, 0.866261, 0.865234, 0.840505, 0.842276, 0.857573, 0.86653, 0.866168, 0.853796, 0.859525, 0.860814, 0.850847, 0.843565, 0.846177, 0.848971, 0.850967, 0.853434, 0.855887, 0.854128, 0.850045, 0.852549, 0.862891, 0.863372, 0.865175, 0.863061, 0.880964, 0.881593, 0.886437, 0.916788, 0.91144, 0.911539, 0.90661, 0.880597, 0.88306, 0.875276, 0.876618, 0.876698, 0.87833, 0.879533, 0.894123, 0.896012, 0.893763, 0.892048, 0.892266, 0.879283, 0.878834, 0.880523, 0.893368, 0.898546, 0.897204, 0.893399, 0.90024, 0.917293, 0.905199, 0.907854, 0.905864, 0.908212, 0.915387, 0.91599, 0.924142, 0.928693, 0.941898, 0.941017, 0.933848, 0.932261, 0.930274, 0.938712, 0.939324, 0.936129, 0.939695, 0.93632, 0.936706, 0.938591, 0.939952, 0.940418, 0.959599, 0.988112, 0.994502, 1.01051, 1.01493, 1.04384, 1.08614, 1.09397, 1.10197, 1.10043, 1.13697, 1.10994, 1.16975, 1.58087, 1.15831, 1.16724, 1.16639, 1.1643, 1.16846, 1.16845, 1.16691, 1.16763, 1.16853, 1.16881, 1.16501, 1.16753
0.892747, 0.907651, 0.908616, 0.905829, 0.905991, 0.992115, 0.963653, 0.977654, 0.981352, 0.981157, 0.940146, 0.939543, 0.942746, 0.938726, 0.939615, 0.959971, 0.957166, 0.964199, 0.974715, 1.01158, 0.945742, 0.949171, 0.952389, 1.29561, 0.90632, 0.902854, 0.903555, 0.890553, 0.891611, 0.891338, 0.894086, 0.883899, 0.876955, 0.87773, 0.866609, 0.870956, 0.867751, 0.878366, 0.880633, 0.876514, 0.872742, 0.870315, 1.0724, 0.835864, 0.840512, 0.839585, 0.846534, 0.835547, 0.836103, 0.842111, 0.861147, 0.862985, 0.837415, 0.838909, 0.864396, 0.867228, 0.863083, 0.853359, 0.858806, 0.859177, 0.843583, 0.841976, 0.844157, 0.846277, 0.848843, 0.85029, 0.851933, 0.85053, 0.849052, 0.84012, 0.853844, 0.860822, 0.860555, 0.857468, 0.877053, 0.873999, 0.880506, 0.90704, 0.908157, 0.908137, 1.16721, 0.880105, 0.870186, 0.869993, 0.870479, 0.872097, 0.873411, 0.87878, 0.890785, 0.890683, 0.887033, 0.886911, 0.884991, 0.876705, 0.875109, 0.873976, 0.882484, 0.894225, 0.892741, 0.887991, 0.890279, 0.913894, 0.902094, 0.899932, 0.900328, 0.907858, 0.90931, 0.911288, 0.92135, 0.923651, 0.935991, 0.929447, 0.927344, 0.928919, 0.92668, 0.926125, 0.937502, 0.937291, 0.941358, 0.936531, 0.933555, 0.936282, 0.93583, 0.95025, 0.953385, 0.985908, 0.987482, 1.00902, 1.40302, 1.29903, 1.06749, 1.0891, 1.13199, 1.07515, 1.07605, 1.10527, 1.16237, 1.17585, 1.15712, 1.16061, 1.16139, 1.16269, 1.1634, 1.16357, 1.16671, 1.16714, 1.16878, 1.16973, 1.21151, 1.17249
0.893659, 0.908493, 0.907569, 0.905038, 0.910055, 0.943261, 0.968205, 0.969274, 0.972267, 0.958873, 0.939203, 0.941315, 0.941726, 0.940282, 0.939204, 0.962904, 0.957869, 0.970321, 0.973038, 0.973267, 0.934882, 0.936532, 0.945522, 0.919327, 0.905948, 0.898167, 0.901375, 0.891681, 0.888921, 0.888099, 0.890482, 0.884423, 0.875054, 0.865257, 0.866186, 0.86596, 0.864591, 0.879359, 0.880059, 0.876179, 0.873391, 0.864212, 0.839307, 0.832235, 0.839677, 0.840156, 0.843505, 0.833803, 0.833957, 0.839466, 0.855513, 1.03107, 0.832639, 0.835229, 0.8623, 0.865997, 0.863648, 0.85281, 0.857097, 0.857718, 0.840912, 0.839829, 0.843659, 0.846463, 0.851746, 0.850031, 0.850858, 0.846843, 0.839099, 0.838751, 0.845236, 0.85339, 0.850486, 0.853287, 0.876317, 0.872532, 0.878503, 0.902924, 0.901614, 0.894835, 0.886947, 0.880257, 0.866282, 0.866947, 0.865995, 0.869413, 0.870284, 0.875006, 0.886973, 0.883943, 0.880054, 0.885578, 0.880628, 0.875515, 0.878104, 0.875894, 0.880648, 0.880417, 0.88159, 0.886978, 0.890256, 0.903453, 0.894936, 0.89699, 0.891705, 0.901106, 0.909561, 0.905602, 0.918896, 0.925292, 0.929848, 0.924495, 0.923168, 0.925181, 0.924602, 0.926099, 0.929637, 0.939564, 0.937889, 0.934454, 0.932851, 0.935124, 0.936126, 0.948183, 0.950845, 0.987052, 1.0081, 1.01128, 1.02234, 1.40698, 1.10847, 1.08446, 1.08496, 1.0778, 1.14287, 1.1117, 0.00453151, 1.17884, 1.16057, 1.16359, 1.16084, 1.16099, 1.16315, 1.16289, 1.16388, 1.16634, 1.17042, 1.17481, 1.19231, 1.23359
0.894227, 0.908188, 0.907682, 0.903879, 0.907722, 0.942206, 0.942404, 0.967484, 0.962004, 0.95958, 0.94253, 0.942633, 0.944305, 0.942828, 0.964091, 0.963896, 0.958597, 0.97255, 0.974815, 1.03751, 0.932535, 0.93791, 0.939703, 0.93486, 1.02603, 0.893589, 0.894857, 0.888665, 0.88896, 0.889942, 0.891114, 0.876914, 0.87465, 0.867282, 0.864217, 0.8641, 0.864571, 0.877277, 0.877659, 0.874318, 0.873328, 0.86537, 0.989151, 0.831414, 0.841478, 0.840933, 0.841919, 0.834734, 0.820996, 0.834875, 0.833293, 0.832222, 0.829465, 1.05168, 0.858627, 0.863006, 0.863545, 0.850792, 0.853799, 0.849242, 0.842236, 0.839724, 0.844833, 0.846115, 0.853822, 0.851751, 0.849747, 0.846848, 0.845771, 0.838336, 0.840913, 0.842806, 0.840663, 0.840243, 0.872138, 0.872586, 0.876624, 0.901274, 0.89549, 0.893364, 0.882596, 0.879002, 0.867957, 0.860754, 0.86416, 0.868662, 0.868146, 0.874808, 0.881697, 0.880529, 0.879806, 0.885723, 0.879051, 0.87662, 0.879978, 0.875551, 0.879929, 0.878033, 0.889826, 0.883564, 0.888514, 0.889299, 0.891765, 0.897774, 0.901469, 0.901326, 0.908476, 0.90452, 0.906154, 0.92061, 0.925022, 0.928774, 0.91882, 0.925429, 0.917683, 0.919456, 0.923839, 0.938729, 0.935276, 0.933174, 0.932328, 0.933255, 0.939233, 0.950198, 0.960351, 0.991045, 0.992392, 1.01368, 1.32925, 1.38682, 1.06502, 1.10267, 1.08622, 1.08473, 1.13891, 1.11211, 1.16232, 1.16053, 1.18875, 1.16467, 1.16276, 1.16302, 1.16097, 1.15798, 1.16443, 1.16837, 1.21828, 1.2442, 1.23688, 1.20123
0.898331, 0.907475, 0.906727, 0.901645, 0.908169, 0.936518, 0.939732, 0.962699, 0.963647, 0.960395, 0.941853, 0.939813, 0.948874, 0.945446, 0.970666, 0.967249, 0.961283, 0.976273, 0.97941, 1.03162, 0.929235, 0.927602, 0.937233, 1.03578, 0.897454, 0.891626, 0.893282, 0.885929, 0.887591, 0.888481, 0.892652, 0.878076, 0.873921, 0.867141, 0.86548, 0.862605, 0.864162, 0.875392, 0.875618, 0.867977, 0.867833, 0.867636, 0.988726, 0.831891, 0.842026, 0.840449, 0.838093, 0.834944, 0.834922, 0.833522, 0.832887, 0.825587, 0.827863, 0.828711, 1.24045, 0.859401, 0.862227, 0.851946, 0.855011, 0.854032, 0.840805, 0.840065, 0.844657, 0.854302, 0.854103, 0.852, 0.849771, 0.847993, 0.837605, 0.836323, 0.837626, 0.839958, 0.831124, 0.829253, 0.873279, 0.872121, 0.881108, 0.89374, 0.888679, 0.889687, 0.87667, 0.876248, 0.866958, 0.857966, 0.858067, 0.863378, 0.865733, 0.865643, 0.880225, 0.874034, 0.871035, 0.883942, 0.878512, 0.874345, 0.873823, 0.871838, 0.874643, 0.875531, 0.885221, 0.881696, 0.886342, 0.883489, 0.887443, 0.900876, 0.900748, 0.900281, 0.901543, 0.905194, 1.16979, 0.919484, 0.925926, 0.926546, 0.91791, 0.923716, 0.917017, 0.918545, 0.926108, 0.932713, 0.935676, 0.935161, 0.932654, 0.933077, 0.951313, 0.954326, 1.20371, 0.990081, 0.995809, 1.01233, 1.0216, 1.37519, 1.39538, 1.08959, 1.08977, 1.29844, 1.09931, 1.10559, 1.15049, 1.18666, 1.15378, 1.24737, 1.16277, 1.16668, 1.16401, 1.22383, 1.32866, 1.34579, 1.37576, 1.18677, 1.18499, 1.23115
0.898419, 0.905563, 0.907037, 0.902419, 0.929954, 0.932655, 0.932509, 0.938619, 0.964768, 0.964415, 0.940411, 0.941472, 0.950964, 0.950119, 0.96771, 0.967822, 0.963052, 0.979144, 0.979954, 0.927369, 0.927404, 0.928282, 0.911892, 0.908375, 0.889393, 0.887454, 0.888594, 0.878447, 0.885876, 0.890831, 0.892023, 0.871948, 0.871327, 0.865608, 0.864983, 0.859972, 0.863946, 0.870115, 0.867913, 0.866066, 0.866355, 0.868943, 0.829676, 0.831611, 0.840375, 0.836904, 0.837454, 0.833334, 0.832748, 0.833802, 0.833068, 0.825215, 0.825133, 0.829517, 0.851541, 0.853687, 0.854503, 0.854101, 0.855894, 0.849269, 0.847187, 0.838767, 0.83135, 0.851953, 0.85418, 0.849992, 0.849921, 0.848593, 0.838574, 0.835867, 0.836795, 0.838357, 0.828385, 0.828737, 0.874073, 0.876372, 0.885256, 0.88582, 0.88716, 0.885128, 0.875003, 0.874604, 0.859, 0.855998, 0.856329, 0.86155, 0.859864, 0.860641, 0.872777, 0.876363, 0.868817, 0.869567, 0.865312, 0.86632, 0.864605, 0.868667, 0.870917, 0.871489, 0.881142, 0.87648, 0.880352, 0.881992, 0.881115, 0.88528, 0.898467, 0.897565, 0.899513, 0.908131, 0.908405, 0.916663, 0.925478, 0.918479, 0.914619, 0.922183, 0.915323, 0.919744, 0.921303, 0.931283, 0.932076, 0.931796, 0.932311, 0.936884, 1.01159, 0.971086, 0.97444, 0.986913, 0.991499, 1.01876, 1.02017, 1.41692, 1.3963, 1.11855, 1.12041, 1.10868, 1.10114, 1.1022, 1.14761, 1.16765, 1.14114, 1.15974, 1.16399, 1.16853, 1.17434, 1.24343, 1.18397, 1.1816, 1.1851, 1.18684, 1.18582, 1.55116
0.895733, 0.904477, 0.903929, 0.905971, 0.928258, 0.929806, 0.92551, 1.42574, 0.956544, 0.943595, 0.938973, 0.948894, 0.949162, 0.950561, 0.967788, 0.966594, 0.965892, 0.965262, 0.980064, 0.926517, 0.926282, 0.928965, 0.910852, 0.910914, 0.884783, 0.884724, 0.885977, 0.876479, 0.876908, 0.887355, 0.873372, 0.869399, 0.870028, 0.862689, 0.864979, 0.856822, 0.859944, 0.863402, 0.866783, 0.859552, 0.865911, 0.865882, 0.835323, 0.83359, 0.83728, 0.836221, 0.835505, 0.828445, 0.829072, 0.833284, 0.831275, 0.820958, 0.823315, 0.848343, 0.852946, 0.84976, 0.853261, 0.853056, 0.855517, 0.849108, 0.849266, 0.826675, 0.829012, 0.836842, 1.08805, 0.815534, 0.846699, 0.839871, 0.83644, 0.833357, 0.837158, 0.838581, 0.820818, 0.824649, 0.865109, 0.879023, 0.881441, 0.883387, 0.884396, 0.884341, 0.87082, 0.859353, 0.854567, 0.851044, 0.853104, 0.858199, 0.857624, 0.855798, 0.861363, 0.868472, 0.868302, 0.860891, 0.860301, 0.865532, 0.864477, 0.863741, 0.867284, 0.867807, 0.866045, 0.8696, 0.87688, 0.881023, 0.877874, 0.884122, 0.887877, 0.891849, 0.898248, 0.907274, 0.907885, 0.916081, 0.918496, 0.921003, 0.912816, 0.920727, 0.919633, 0.917441, 0.919201, 0.928392, 0.930181, 0.928693, 0.929497, 0.935745, 0.969271, 0.973634, 0.979351, 0.986842, 0.98711, 1.08864, 1.03388, 1.14975, 1.40009, 1.11901, 1.12576, 1.11291, 1.10366, 1.10823, 1.15903, 1.13461, 1.13684, 1.15706, 1.15763, 1.27495, 1.31329, 1.25323, 1.18384, 1.17841, 1.17722, 1.36884, 1.53472, 1.57705
0.900876, 0.902166, 0.900942, 0.901605, 0.925771, 0.924823, 0.923209, 1.45439, 0.946987, 0.937215, 0.936652, 0.940306, 0.945725, 0.948868, 0.966613, 0.966987, 0.967768, 0.98159, 0.982674, 1.04932, 0.918782, 0.920006, 0.907046, 0.901145, 0.884217, 0.884351, 0.882682, 0.88019, 0.882464, 0.891827, 0.876563, 0.869506, 0.869798, 0.860702, 0.862364, 0.856111, 0.858981, 0.859542, 0.856745, 0.858069, 0.861596, 0.86315, 0.832674, 0.835137, 0.836, 0.831684, 0.829316, 0.82693, 0.826769, 0.832174, 0.830903, 0.818291, 0.819852, 0.846268, 0.852317, 0.846272, 0.850549, 0.852145, 0.854061, 0.85329, 0.846403, 0.824231, 0.824893, 0.837258, 0.800545, 0.80352, 0.843141, 0.833536, 0.829422, 0.826999, 0.834697, 0.833388, 0.815676, 1.14031, 0.860605, 0.871012, 0.875177, 0.878549, 0.879449, 0.883519, 0.871606, 0.86844, 0.850793, 0.849204, 0.852824, 0.851896, 0.852721, 0.851259, 0.856219, 0.857129, 0.863655, 0.859647, 0.861085, 0.861156, 0.862783, 0.863511, 0.859738, 0.860281, 0.860271, 0.866115, 0.864084, 0.873954, 0.876092, 0.880951, 0.88413, 0.889214, 0.890959, 0.907823, 0.907719, 0.914322, 0.915704, 0.922118, 0.913289, 0.915071, 0.915095, 0.921272, 0.91902, 0.926343, 0.927364, 0.927153, 0.927561, 0.936301, 1.09376, 0.973344, 0.976006, 0.980667, 0.986211, 0.992019, 1.03683, 1.15264, 1.15398, 1.13535, 1.12389, 1.11156, 1.11153, 1.10814, 1.10994, 1.13582, 1.13821, 1.23692, 1.1595, 1.18736, 1.25872, 1.34658, 1.29569, 1.17223, 1.1747, 1.3647, 1.48835, 1.21454
0.902952, 0.902181, 0.90148, 0.921476, 0.925983, 0.917949, 0.917855, 0.925081, 0.94121, 0.934086, 0.935463, 0.940073, 0.943749, 0.966435, 0.968231, 0.966777, 0.978746, 0.981911, 0.982512, 1.04062, 0.915687, 0.915319, 0.904592, 0.903584, 0.884338, 0.882033, 0.879116, 0.877657, 0.887397, 0.891164, 0.873348, 0.872855, 0.867729, 0.861685, 0.860559, 0.851245, 0.853925, 0.855084, 0.853908, 0.859483, 0.86126, 0.86163, 0.838057, 0.834526, 0.835028, 0.829576, 0.823885, 0.824305, 0.822793, 0.8258, 0.826513, 0.818493, 0.821033, 0.847017, 0.852255, 0.851781, 0.850695, 0.850893, 0.853234, 0.85085, 0.843388, 0.821923, 0.823134, 0.835604, 0.800146, 0.800305, 0.800909, 0.82545, 0.825881, 0.825113, 0.831769, 0.805284, 0.79448, 0.801643, 0.863376, 0.869065, 0.874683, 0.875706, 0.879047, 0.882364, 0.880676, 0.867727, 0.842237, 0.842498, 0.842935, 0.845834, 0.848866, 0.847092, 0.850558, 0.85312, 0.855048, 0.856165, 0.854097, 0.85415, 0.862436, 0.859389, 0.860913, 0.859562, 0.856394, 0.862436, 0.861213, 0.86165, 0.880211, 0.880562, 0.882694, 0.886566, 0.890239, 0.907345, 0.906408, 0.912857, 0.920772, 0.92223, 0.914345, 0.9128, 0.911906, 0.918186, 0.921207, 0.9276, 0.926213, 0.927573, 0.925576, 0.933002, 0.935464, 0.967694, 0.9753, 0.977269, 0.991023, 0.995957, 1.02596, 1.03976, 1.42017, 1.13262, 1.08349, 1.11374, 1.10944, 1.10763, 1.10758, 1.11943, 1.14299, 1.1682, 1.16138, 1.16908, 1.31984, 1.18913, 1.19138, 1.17408, 1.1739, 1.20127, 1.2008, 1.56105
0.900596, 0.901751, 0.897549, 1.19568, 0.924263, 0.916351, 0.915668, 0.995205, 0.936016, 0.928708, 0.928395, 0.940373, 0.941335, 0.95725, 0.967642, 0.968533, 0.978476, 0.979718, 1.05106, 1.05373, 0.91417, 0.91423, 0.907124, 0.888575, 0.883954, 0.881812, 0.880311, 0.877177, 0.885319, 0.889822, 0.873698, 0.873469, 0.871179, 0.864445, 0.854319, 0.851688, 0.851699, 0.853613, 0.853052, 0.854692, 0.859482, 0.859218, 0.837461, 0.835163, 0.835288, 0.825407, 0.822071, 0.821968, 0.821421, 0.82281, 0.823201, 0.820134, 0.819857, 0.846733, 0.855004, 0.852638, 0.852302, 0.851389, 0.85202, 0.849213, 0.841393, 0.820925, 0.821548, 0.799124, 0.800814, 0.799141, 0.800742, 0.818332, 0.821002, 0.823327, 0.828954, 0.784683, 0.778914, 0.778753, 0.861096, 0.869892, 0.874116, 0.877525, 0.878311, 0.879385, 0.873437, 1.329, 0.836309, 0.83558, 0.839778, 0.84446, 0.846393, 0.84926, 0.849389, 0.847734, 0.849748, 0.852261, 0.852637, 0.854291, 0.857945, 0.862703, 0.86213, 0.862577, 0.856973, 0.863989, 0.860174, 0.861445, 0.880586, 0.880663, 0.88219, 0.884371, 0.887495, 0.907308, 0.906903, 0.911168, 0.922061, 0.916301, 0.913934, 0.909486, 0.914048, 0.92041, 0.921494, 0.92721, 0.926706, 0.927089, 0.928746, 0.93012, 0.936596, 1.10596, 0.973166, 0.978541, 0.997432, 1.00435, 1.02753, 1.03171, 1.05601, 1.13201, 1.10995, 1.09851, 1.10079, 1.10623, 1.10903, 1.17419, 1.14061, 1.14387, 1.17115, 1.26729, 1.18103, 1.19037, 1.19108, 1.38907, 1.36168, 1.19983, 1.19997, 1.51073
0.900472, 0.902016, 0.894538, 0.931579, 0.926619, 0.915937, 0.91586, 0.933463, 0.935434, 0.928093, 0.928267, 0.940457, 0.942086, 1.23543, 0.977294, 0.995061, 0.986224, 1.01266, 1.06005, 0.923813, 0.915069, 0.909074, 0.908627, 0.887947, 0.884085, 0.881019, 0.879053, 0.876943, 0.877406, 0.887663, 0.873072, 0.873953, 1.09826, 0.863461, 0.850097, 0.852298, 0.850323, 0.850117, 0.850173, 0.853919, 0.860834, 0.861017, 0.839676, 0.83607, 0.834784, 0.822801, 0.821225, 0.819885, 0.819818, 0.824597, 0.823399, 0.824596, 0.823733, 0.847876, 0.856484, 0.855483, 0.852514, 0.849147, 0.851796, 0.843638, 0.842376, 0.819012, 0.818693, 0.817886, 0.800407, 0.801005, 0.808561, 0.807057, 0.815448, 0.814174, 0.814368, 0.783684, 0.778682, 0.778942, 0.861338, 0.870204, 0.874067, 0.876869, 0.876526, 0.873367, 0.864727, 0.859601, 0.831454, 0.832476, 0.840207, 0.844856, 0.842549, 0.842545, 0.841813, 0.839715, 0.845704, 0.85003, 0.84693, 0.849322, 0.858941, 0.862579, 0.860713, 0.859766, 0.862366, 0.8704, 0.862981, 0.864758, 0.869978, 0.880782, 0.882551, 0.884008, 0.884032, 0.90808, 0.908066, 0.909563, 0.921835, 0.916575, 0.916148, 0.908201, 0.908351, 0.915358, 0.923012, 0.921978, 0.923165, 0.922749, 0.926442, 0.931294, 0.935864, 1.10126, 0.974344, 0.991819, 1.00056, 1.00172, 1.03207, 1.03433, 1.06048, 1.07036, 1.08428, 1.09843, 1.09774, 1.09797, 1.1092, 1.12066, 1.14337, 1.23978, 1.28531, 1.21724, 1.18112, 1.19285, 1.1941, 1.35722, 1.19642, 1.19926, 1.19964, 1.2128
0.899645, 0.900667, 0.892916, 0.924655, 0.923911, 0.918227, 0.916514, 0.934234, 0.933954, 0.927479, 0.928904, 0.941504, 0.943786, 1.23218, 0.995396, 0.985918, 0.993023, 1.06106, 1.06253, 0.918281, 0.91494, 0.904856, 0.896223, 0.887601, 0.880164, 0.874694, 0.875416, 0.876119, 0.881917, 0.875416, 0.864502, 0.868329, 0.860712, 0.860556, 0.852263, 0.852234, 0.847666, 0.847567, 0.845583, 0.85574, 0.859239, 0.860232, 0.839579, 0.836995, 0.828851, 0.820691, 0.818548, 0.817838, 0.816798, 0.825993, 0.826056, 0.822453, 0.823614, 0.85056, 0.855271, 0.854638, 0.849809, 0.846422, 0.845424, 0.845172, 0.835176, 0.80904, 0.808226, 0.816523, 0.799962, 0.800775, 0.807333, 0.804601, 0.812433, 0.809711, 0.807786, 0.780469, 0.7769, 0.777221, 1.27708, 1.27973, 0.871671, 0.87376, 0.870685, 0.872303, 0.859492, 0.854032, 0.826777, 0.83047, 0.838219, 0.838759, 0.838075, 0.835303, 0.826276, 0.832654, 0.835754, 0.838819, 0.83991, 0.843614, 0.846305, 0.857372, 0.858692, 0.860915, 0.860738, 0.869316, 0.864658, 0.865362, 0.869639, 0.873072, 0.88062, 0.881046, 0.880934, 0.889972, 0.89294, 0.894703, 0.914685, 0.914843, 0.906901, 0.907695, 0.905457, 0.914865, 0.924897, 0.924851, 0.914647, 0.916742, 0.928535, 0.932013, 0.936525, 1.10107, 0.981614, 0.996885, 1.00312, 1.00307, 1.03345, 1.03292, 1.05987, 1.07117, 1.07206, 1.12246, 1.09488, 1.09669, 1.1154, 1.12196, 1.18202, 1.15121, 1.15693, 1.26827, 1.24653, 1.19325, 1.29156, 1.20133, 1.19868, 1.19872, 1.20174, 1.58766
0.897673, 0.898829, 0.893674, 0.926709, 0.92551, 0.913397, 0.919512, 0.939051, 0.933389, 0.929118, 0.931922, 0.943835, 0.941927, 1.20868, 0.984298, 0.99153, 0.992085, 1.02626, 0.915592, 0.91693, 0.9178, 0.96331, 0.891549, 0.884199, 0.880947, 0.873819, 0.864743, 0.867128, 0.874986, 0.860017, 0.854657, 0.866579, 0.866004, 0.850536, 0.848857, 0.852383, 0.844113, 0.843034, 0.841137, 0.8495, 0.856636, 0.8554, 0.837369, 0.836146, 0.82646, 0.816434, 0.817481, 0.815492, 0.815759, 0.833273, 0.825519, 0.824221, 0.828347, 0.849147, 0.855322, 0.853386, 0.844145, 0.84413, 0.843393, 0.838798, 0.832096, 0.808743, 0.809844, 0.814162, 0.802204, 0.800472, 0.804759, 0.799366, 0.804729, 0.80547, 0.804938, 0.779553, 0.773552, 0.774851, 1.2314, 0.860171, 0.867368, 0.870799, 0.867558, 0.862673, 0.854996, 0.854462, 0.824333, 0.825049, 0.834627, 0.836103, 0.827817, 0.826506, 0.822511, 0.825711, 0.832203, 0.832646, 0.834977, 0.836043, 0.842144, 0.854549, 0.851515, 0.857892, 0.859488, 0.865904, 0.862195, 0.861845, 0.864411, 0.871422, 0.877442, 0.879154, 0.874838, 0.889687, 0.890188, 0.887946, 0.910236, 0.912349, 0.903853, 0.904569, 0.904094, 0.912489, 0.924989, 0.914989, 0.912088, 0.915354, 0.921406, 0.937056, 0.936789, 1.0977, 0.991338, 1.00018, 1.00425, 1.00626, 1.03118, 1.03287, 1.05062, 1.07178, 1.07031, 1.07614, 1.084, 1.10362, 1.11643, 1.20318, 1.20443, 1.27643, 1.26895, 1.27465, 1.23993, 1.22642, 1.19772, 1.20027, 1.20006, 1.41918, 1.48155, 1.55743
0.89723, 0.897427, 0.893686, 0.924553, 0.923371, 0.915044, 0.917805, 0.935196, 0.933404, 0.929785, 0.931599, 0.943255, 0.94236, 1.28558, 0.988286, 0.983691, 0.992084, 1.24516, 0.912433, 0.915638, 0.91502, 1.11547, 0.881794, 0.880528, 0.882957, 0.877609, 0.859526, 0.859291, 0.973651, 0.852526, 0.85125, 0.864743, 0.863074, 0.849133, 0.849957, 0.846757, 0.841795, 0.83788, 0.83848, 0.845779, 0.856025, 0.855019, 0.834092, 0.833927, 1.21984, 0.814254, 0.814606, 0.813376, 0.814271, 0.836586, 0.824773, 0.824973, 0.834421, 0.849319, 0.85206, 0.847735, 0.84415, 0.835873, 0.835363, 0.832511, 0.826791, 0.809169, 0.809769, 0.811176, 0.796758, 0.798408, 0.805221, 0.797779, 0.803867, 0.803695, 0.800754, 0.773111, 0.772218, 0.777411, 0.00457889, 0.851634, 0.859097, 0.860296, 0.861547, 0.854465, 0.845099, 0.836627, 0.821383, 0.823222, 0.828793, 0.824916, 0.820825, 0.822046, 0.818971, 0.819932, 0.819618, 0.826438, 0.831444, 0.834248, 0.837162, 0.842936, 0.845295, 0.855611, 0.855771, 0.859838, 0.859533, 0.859846, 0.866373, 0.871794, 0.876381, 0.876485, 0.871317, 0.887094, 0.884726, 0.883688, 0.909294, 0.91112, 0.899044, 0.901812, 0.903041, 0.905327, 0.923009, 0.913992, 0.911436, 0.914691, 1.1638, 0.939594, 0.939178, 1.09515, 0.991654, 0.998733, 1.00224, 1.00471, 1.02954, 1.02904, 1.03452, 1.35378, 1.07743, 1.07614, 1.08719, 1.12857, 1.11591, 1.18092, 1.2078, 1.27763, 1.22991, 1.27572, 1.28848, 1.19122, 1.19184, 1.19309, 1.1898, 1.29816, 1.49659, 1.21624
0.896152, 0.895921, 0.893593, 0.922829, 0.92253, 0.913786, 1.11992, 0.94037, 0.930613, 0.93088, 0.931613, 0.94532, 0.944456, 0.00388984, 0.983889, 0.984, 0.997099, 1.26148, 0.91056, 0.914568, 1.11937, 1.10157, 0.873644, 0.868109, 0.881635, 0.877114, 0.863703, 0.858456, 0.978167, 0.831509, 0.850232, 0.856473, 0.855637, 0.849552, 0.849143, 0.852616, 0.838198, 0.822883, 0.831532, 0.837339, 0.85687, 0.85831, 0.833926, 0.831144, 0.820152, 0.811009, 0.811347, 0.810802, 0.812108, 0.836869, 0.82645, 0.826285, 0.835246, 0.853071, 0.851397, 0.845267, 0.835645, 0.835119, 0.835154, 0.829655, 0.82456, 0.807296, 0.808837, 0.809642, 0.793272, 0.798144, 0.801845, 0.800481, 0.802768, 0.800977, 0.796368, 0.766745, 0.769134, 0.773651, 0.827152, 0.837817, 0.8511, 0.852282, 0.852109, 0.851627, 0.839032, 0.831297, 0.818479, 0.819288, 0.827073, 0.805871, 0.814667, 0.817913, 0.814946, 0.815968, 0.81753, 0.82241, 0.829776, 0.833477, 0.835064, 0.840276, 0.841475, 0.84191, 0.848886, 0.851899, 0.858324, 0.855409, 0.863945, 0.870013, 0.874494, 0.873494, 0.867863, 0.884987, 0.887528, 0.88412, 0.909918, 0.911278, 0.894572, 0.900995, 0.900732, 0.902504, 0.919239, 0.914548, 0.914587, 0.915972, 0.921656, 0.946902, 0.947844, 0.987558, 0.991746, 0.997609, 1.00259, 1.00333, 1.02651, 1.02765, 1.03704, 1.13876, 1.08394, 1.07967, 1.0853, 1.10099, 1.11443, 0.00438207, 1.20209, 1.62113, 1.27825, 1.26904, 1.2899, 1.32563, 1.19298, 1.38536, 1.18899, 1.18658, 1.17036, 1.27108
0.898944, 0.894266, 0.895863, 0.922788, 0.922424, 0.91455, 0.91593, 0.940972, 0.926545, 0.926848, 0.948263, 0.945917, 0.94562, 0.950163, 0.988367, 0.984206, 1.0698, 1.21132, 0.905573, 0.913964, 1.11262, 0.883512, 0.86433, 0.870038, 0.870409, 0.865039, 0.864134, 0.983196, 0.827741, 0.830093, 0.836752, 0.849667, 0.848898, 0.848126, 0.849466, 0.846114, 1.01946, 0.818007, 0.818237, 0.96562, 0.860325, 0.83978, 0.83153, 0.830026, 0.818682, 0.810698, 0.810232, 0.80928, 0.81237, 0.835592, 0.826147, 0.826374, 0.832939, 0.847664, 0.846478, 0.843662, 0.836599, 0.835626, 0.835929, 0.825344, 0.820229, 0.807887, 0.807302, 0.787293, 0.788976, 0.798474, 0.801578, 0.799726, 0.801476, 0.797928, 0.790234, 0.764977, 0.769341, 0.773777, 0.826852, 0.851107, 0.852284, 0.852322, 0.851958, 0.850236, 0.834722, 0.826358, 0.814941, 0.813394, 0.813386, 0.808455, 0.806702, 0.806681, 0.811164, 0.810573, 0.814371, 0.819841, 0.827733, 0.828996, 0.82912, 0.830386, 0.838413, 0.838648, 0.837958, 0.840384, 0.850681, 0.856417, 0.862892, 0.86637, 0.872746, 0.873145, 0.867312, 0.879001, 0.886821, 0.884398, 0.908633, 0.910081, 0.891763, 0.898378, 0.90017, 0.903623, 0.916736, 0.915069, 0.917115, 0.917786, 0.934679, 0.945449, 0.952283, 0.99161, 0.992359, 0.997692, 1.00017, 1.00253, 1.02932, 1.02946, 1.35711, 1.35768, 1.08413, 1.08498, 1.09073, 1.10092, 1.11903, 1.18565, 1.1973, 1.28922, 1.28425, 1.26082, 1.21097, 1.26267, 1.4859, 1.38588, 1.20195, 1.1876, 1.17262, 1.30491
0.89955, 0.883519, 0.9879, 0.921359, 0.920333, 0.912044, 0.997344, 0.921151, 0.921851, 0.951219, 0.947667, 0.947372, 0.946736, 1.26484, 0.988548, 0.985928, 1.0398, 0.908206, 0.907453, 0.914617, 1.12114, 1.10472, 0.86087, 0.869905, 0.862346, 0.862796, 0.875396, 0.918912, 0.824612, 0.828776, 0.835459, 0.849411, 0.84721, 0.839795, 0.848905, 0.849373, 0.810149, 0.810866, 0.818169, 0.879813, 0.878653, 0.843636, 0.828626, 0.815467, 0.81534, 0.809013, 0.810885, 0.812037, 0.811595, 0.834955, 0.827464, 0.828219, 0.833009, 0.846114, 0.843633, 0.842056, 0.834665, 0.839783, 0.837142, 0.819225, 0.815769, 0.80711, 0.806035, 0.786586, 0.788821, 0.796949, 0.799423, 0.798087, 0.800318, 0.800954, 0.788703, 0.762403, 0.762522, 0.771714, 1.44945, 0.852296, 0.852399, 0.852652, 0.853501, 0.838496, 0.836842, 1.17676, 0.810917, 0.908778, 0.807272, 1.09505, 0.8059, 0.805178, 0.807244, 0.808218, 0.807851, 0.815664, 0.819752, 0.822784, 0.825134, 0.823101, 0.830975, 0.827971, 0.835499, 0.835465, 0.84775, 0.849185, 0.859553, 0.862197, 0.868772, 0.872747, 0.866416, 0.877405, 0.878889, 0.880536, 0.905181, 0.907575, 0.889129, 0.890601, 0.897739, 0.903736, 0.907865, 0.915759, 0.91783, 0.917458, 0.934169, 0.937115, 0.956032, 0.992118, 0.99469, 0.997557, 0.997736, 1.08531, 1.0321, 1.03474, 1.0389, 1.46647, 1.52277, 1.09414, 1.09348, 1.13334, 1.11351, 1.19212, 1.20251, 1.21528, 1.29863, 1.26418, 1.21624, 1.21852, 1.33173, 1.28976, 1.22225, 1.58352, 1.58293, 1.28415
0.900661, 0.893355, 0.894386, 0.919682, 0.920129, 0.911111, 0.916344, 0.916643, 0.918638, 0.94998, 0.949035, 0.949785, 0.953119, 1.28874, 0.988206, 0.99113, 1.04641, 0.910088, 1.09121, 1.09424, 0.888218, 1.07911, 0.850586, 0.869492, 0.860633, 0.860871, 0.874535, 0.819741, 0.82188, 0.821638, 0.826565, 0.828246, 0.842095, 0.840665, 0.848929, 0.844064, 0.808707, 0.810357, 0.809159, 0.877755, 0.879559, 0.832709, 0.821382, 0.813199, 0.8147, 0.808012, 0.811061, 0.810876, 0.814541, 0.833612, 0.83201, 0.828608, 0.832225, 0.844622, 0.842088, 0.842971, 0.836734, 0.842333, 0.817959, 0.8151, 0.815724, 0.804818, 0.806017, 0.782625, 0.791031, 0.794488, 0.79609, 0.790813, 0.798462, 0.791787, 0.783197, 0.757948, 0.760583, 0.768077, 0.818739, 0.837522, 0.846718, 0.84924, 0.847297, 0.837411, 0.824602, 0.81125, 0.90736, 0.906954, 0.904987, 0.790439, 0.79772, 0.797454, 0.79784, 0.806532, 0.807652, 0.813334, 0.816204, 0.819646, 0.821428, 0.820833, 0.82549, 0.825209, 0.834807, 0.835725, 0.845314, 0.846101, 0.855711, 0.856048, 0.866646, 0.872307, 0.866199, 0.875634, 0.877952, 0.880153, 0.898649, 0.899178, 0.88451, 0.88423, 0.895757, 0.899507, 0.914717, 0.915823, 0.916183, 0.914104, 0.929455, 0.940036, 1.02388, 0.993841, 0.996023, 1.00174, 0.997969, 1.0151, 1.38273, 1.03582, 1.03751, 1.35927, 1.44455, 1.09201, 1.09286, 1.09609, 1.10834, 1.13016, 1.13129, 1.21229, 1.26833, 1.29169, 1.2197, 1.22071, 1.33012, 1.23199, 1.2445, 1.2304, 1.64733, 1.18438
0.900584, 0.893675, 0.89586, 0.923593, 0.913572, 0.911211, 0.916005, 0.909246, 0.917207, 0.94374, 0.951137, 0.950928, 0.951664, 1.314, 0.985298, 1.02573, 1.10253, 1.10864, 0.890417, 1.09442, 0.893928, 1.06349, 0.834939, 0.92196, 0.00420553, 0.881712, 0.9332, 0.816511, 0.820847, 0.817749, 0.820342, 0.823331, 0.838539, 0.844985, 0.845771, 0.844294, 0.805956, 0.807172, 0.813149, 0.869527, 0.855597, 0.830076, 0.827647, 0.808538, 0.806342, 0.811121, 0.809805, 0.808208, 1.01633, 0.832442, 0.827231, 0.829175, 0.832142, 0.841225, 0.841889, 0.842914, 0.840607, 0.840575, 0.818801, 0.811525, 0.817921, 0.804122, 0.797508, 0.780649, 0.781383, 0.79225, 0.793487, 0.782974, 0.781519, 0.783878, 0.780333, 0.758359, 0.75873, 0.763554, 0.971709, 0.835772, 0.84179, 0.845277, 0.845407, 0.746572, 1.17892, 0.725145, 0.733168, 0.717945, 0.735003, 0.787585, 0.723015, 0.746191, 0.748922, 0.719604, 0.79122, 0.791432, 0.811999, 0.812517, 0.813449, 0.818743, 0.819429, 0.820361, 0.822735, 0.83402, 0.845833, 0.846651, 0.848649, 0.856031, 0.868206, 0.870244, 0.863427, 0.86329, 0.8719, 0.87179, 0.893727, 0.874822, 0.876666, 1.1795, 0.894911, 0.897517, 0.905904, 0.914754, 0.909488, 0.908694, 0.929789, 0.942765, 0.952621, 0.9917, 0.995354, 1.00259, 1.00878, 1.01258, 1.43218, 1.0364, 1.42279, 1.06338, 1.08464, 1.09166, 1.09185, 1.09571, 1.10887, 1.12038, 1.13353, 1.21882, 1.29945, 1.29205, 1.2202, 1.22271, 1.23224, 1.23415, 1.26596, 1.27879, 1.30566, 1.3233
0.900772, 0.892512, 0.921314, 0.923013, 0.921314, 0.910756, 0.912714, 0.907506, 0.907696, 0.94221, 0.949599, 0.950215, 0.949743, 1.01991, 0.982018, 1.02568, 1.10763, 1.10777, 1.10139, 1.11547, 0.86612, 0.837825, 0.831297, 0.00420777, 0.863644, 0.823531, 0.813407, 0.812517, 0.81418, 0.817103, 0.799232, 0.802985, 0.811128, 0.82317, 0.831646, 0.831244, 0.802803, 0.803035, 0.8116, 0.867711, 0.83566, 0.836421, 0.807144, 0.807816, 0.804818, 0.806, 0.808531, 0.8046, 1.06145, 0.829752, 0.828969, 0.82866, 0.82902, 0.838618, 0.84112, 0.840898, 0.838192, 0.83821, 0.806033, 0.807544, 0.814265, 0.811022, 0.79232, 0.781117, 0.78847, 0.787575, 0.780111, 0.779989, 0.775817, 0.776467, 0.771458, 0.757484, 0.755503, 0.929501, 0.972177, 0.971557, 0.838511, 0.843551, 0.846023, 0.769005, 0.774761, 0.725363, 0.70801, 0.717923, 0.725614, 0.730486, 0.725722, 0.724537, 0.705853, 0.717661, 0.791541, 0.78775, 0.755847, 0.805902, 0.810946, 0.81133, 0.813311, 0.818479, 0.826154, 0.825789, 0.827258, 0.838098, 0.840916, 0.855515, 0.859685, 0.866165, 0.8599, 0.860431, 0.865548, 0.868062, 0.870464, 0.872704, 0.868035, 0.87067, 0.888614, 0.897193, 0.905362, 0.910898, 0.909559, 0.908006, 0.929185, 0.943619, 0.948855, 0.992136, 0.99614, 1.00424, 1.01087, 1.01839, 1.35764, 1.04346, 1.04487, 1.45736, 1.08052, 1.12958, 1.09637, 1.09808, 1.11412, 1.11563, 1.12661, 1.21552, 1.30422, 1.29143, 1.21886, 1.22225, 1.23465, 1.23433, 1.28757, 1.28526, 1.21341, 1.69932
0.891019, 0.89314, 0.919172, 0.922353, 0.921517, 0.911429, 0.910367, 0.907277, 0.933928, 0.935501, 0.952018, 0.952662, 0.95239, 0.960996, 0.980075, 1.10466, 0.909174, 1.11086, 0.865258, 0.861948, 0.854713, 0.843137, 0.790365, 0.790163, 0.00443825, 0.812045, 0.808879, 0.808835, 0.806391, 0.808765, 0.799411, 0.800204, 0.798319, 0.818119, 0.81616, 0.824799, 0.797242, 0.801824, 0.803423, 0.863217, 0.835803, 0.835321, 0.80626, 0.807268, 0.804488, 0.805151, 0.80226, 0.803041, 0.815907, 0.827488, 0.827807, 0.829221, 0.831798, 0.838954, 0.838965, 0.838275, 0.835696, 0.835012, 0.802839, 0.803083, 0.810273, 0.788295, 0.78758, 0.776567, 0.77729, 0.777076, 0.773507, 0.775916, 0.772636, 0.770011, 0.768309, 0.754062, 0.754715, 0.750155, 0.971857, 0.973062, 0.712425, 0.730863, 0.73185, 0.739942, 0.716703, 0.716606, 0.71843, 0.700773, 0.703323, 0.701537, 0.698242, 0.711579, 0.715003, 0.694597, 0.697635, 0.721631, 0.748696, 0.739614, 0.750066, 0.804502, 0.80635, 0.811825, 0.822585, 0.824392, 0.825006, 0.831682, 0.835494, 0.839104, 0.839719, 0.862933, 0.8574, 0.859057, 0.857465, 0.866485, 0.869558, 0.869587, 0.86741, 0.869339, 0.886687, 0.890333, 0.900393, 0.91076, 0.906183, 0.906718, 0.92672, 0.94069, 1.09414, 1.09078, 0.998378, 1.00497, 1.01541, 1.02055, 1.02321, 1.0448, 1.05684, 1.37532, 1.07799, 1.12984, 1.10075, 1.09916, 1.11354, 1.12273, 1.26091, 1.19576, 1.24912, 1.27918, 1.2349, 1.2244, 1.2279, 1.23195, 1.23064, 1.25096, 1.24437, 1.2051
0.891107, 0.891747, 0.920078, 0.921371, 0.911559, 0.912626, 0.906734, 0.905204, 0.92974, 0.946831, 0.951487, 0.952594, 0.952805, 0.973293, 0.973955, 1.03334, 0.897771, 1.10525, 0.869867, 0.860306, 0.855151, 0.794517, 0.794959, 0.792396, 0.81885, 0.809686, 0.803427, 0.80296, 0.800512, 0.802548, 0.804285, 0.798497, 0.797741, 0.815052, 0.81263, 0.806146, 0.794171, 0.798397, 0.798715, 0.86251, 0.861294, 0.824708, 0.804028, 0.805834, 0.803794, 0.802582, 0.805632, 0.805037, 0.821417, 0.827508, 0.827786, 0.830176, 0.829803, 0.834828, 0.838658, 0.834969, 0.835233, 0.822347, 0.802113, 0.800508, 0.803898, 0.784118, 0.782385, 0.774969, 0.77667, 0.773605, 0.76829, 0.769844, 0.767516, 0.766906, 0.766344, 0.713366, 0.713419, 0.704714, 0.70432, 0.707509, 0.701778, 0.728861, 0.711903, 0.698067, 0.719109, 0.73133, 0.701661, 0.714311, 0.718199, 0.68457, 0.692271, 0.708664, 0.70363, 0.687856, 0.698158, 0.696631, 0.74231, 0.728887, 0.746785, 0.743237, 0.72635, 0.779331, 0.715686, 0.821056, 0.823745, 0.830186, 0.83157, 0.831294, 0.835634, 0.848669, 0.85287, 0.855053, 0.855724, 0.857145, 0.864893, 0.864666, 0.862676, 0.866056, 0.886695, 0.887003, 0.89501, 0.914256, 0.906677, 0.918535, 0.919924, 0.940059, 1.23005, 0.961468, 1.08756, 1.00873, 1.01522, 1.02259, 1.33113, 1.04921, 1.05931, 1.38797, 1.14841, 1.10243, 1.10924, 1.1115, 1.115, 1.13394, 1.13599, 1.23208, 1.29448, 1.27143, 1.21694, 1.21979, 1.22968, 1.23051, 1.28923, 1.26117, 1.23641, 1.23798
0.896429, 0.894126, 0.946444, 0.925038, 0.914514, 0.922979, 0.909961, 0.909168, 0.93829, 0.93742, 0.953213, 0.950866, 0.953843, 0.973661, 0.974096, 1.04168, 1.237, 1.1109, 0.862131, 0.858055, 0.851922, 0.849686, 0.795688, 0.793176, 0.799582, 0.800665, 0.801477, 0.801746, 0.795748, 0.79263, 0.802251, 0.800716, 0.79463, 0.797437, 0.806432, 0.806546, 0.793766, 0.796942, 0.798633, 0.863252, 0.829099, 0.827312, 0.804026, 0.805867, 0.801372, 0.807605, 0.809309, 0.807541, 0.81943, 0.825795, 0.828673, 0.829539, 0.828725, 0.827065, 0.823989, 0.827903, 0.911874, 0.811069, 0.791523, 0.795075, 0.797305, 0.779518, 0.778245, 0.775106, 0.776305, 0.770702, 0.766627, 0.769782, 0.766913, 0.763623, 0.757492, 0.753476, 0.683478, 0.684269, 0.709132, 0.702385, 0.692832, 0.696966, 0.69329, 0.690497, 0.725062, 0.726936, 0.713748, 0.686072, 0.686089, 0.72931, 0.69763, 0.739068, 0.738559, 0.69325, 0.667864, 0.696246, 0.720113, 0.72563, 0.742457, 0.722221, 0.731156, 0.727167, 0.718783, 0.822376, 0.821768, 0.823165, 0.824296, 0.828437, 0.832453, 0.836211, 0.84233, 0.849536, 0.850235, 0.856247, 0.862613, 0.862226, 0.861615, 0.863083, 0.881734, 0.883964, 0.893835, 0.913231, 0.909476, 0.916053, 0.921281, 0.938602, 0.950248, 0.951971, 1.09045, 1.0119, 1.01826, 1.02672, 1.38111, 1.0586, 1.06524, 1.07773, 1.09131, 1.14361, 1.1153, 1.11492, 1.46752, 1.1328, 1.13479, 1.25082, 1.26976, 1.26632, 1.21984, 1.2198, 1.23134, 1.23081, 1.2255, 1.29143, 1.35405, 1.2036
0.899035, 0.898281, 0.929028, 0.928422, 0.918097, 0.923302, 0.911304, 0.911968, 0.935918, 0.955736, 0.955369, 0.950422, 0.968623, 0.968948, 1.01301, 0.921216, 1.07577, 1.04218, 0.862864, 0.854195, 0.849581, 0.846844, 0.803843, 0.79556, 0.798225, 0.798283, 0.79729, 0.795029, 0.788349, 0.789143, 0.803945, 0.804201, 0.790116, 0.795308, 0.808114, 0.814223, 0.792694, 0.794211, 0.867824, 0.864381, 0.828737, 1.02551, 0.803775, 0.806366, 0.798397, 0.810626, 0.811478, 0.808266, 0.816938, 0.825099, 0.828025, 0.829298, 0.827371, 0.82352, 0.821171, 0.819233, 0.805282, 0.805389, 0.794156, 0.793637, 0.793753, 0.783641, 0.777503, 0.771184, 0.775535, 0.771516, 0.767146, 0.759016, 0.763667, 0.757986, 0.753075, 0.753707, 0.682689, 0.701665, 0.713854, 0.695091, 0.690391, 0.732531, 0.74251, 0.707548, 0.721026, 0.7369, 0.741979, 0.696164, 0.698689, 0.731229, 0.753967, 0.757638, 0.725668, 0.729813, 0.684088, 0.724522, 0.712135, 0.720789, 0.731897, 0.722281, 0.69585, 0.707428, 0.702425, 0.704546, 0.812428, 1.06085, 0.821666, 0.82249, 0.830284, 0.831909, 0.838755, 0.841024, 0.848365, 0.855729, 0.855106, 0.861001, 0.859076, 0.861603, 0.874227, 0.880952, 0.893678, 0.907439, 0.901725, 0.915398, 0.927395, 0.932648, 0.938751, 0.933429, 1.11261, 1.01529, 1.02016, 1.02822, 1.04605, 1.06298, 1.07247, 1.07398, 1.08939, 1.11896, 1.11852, 1.11971, 1.12195, 1.13036, 1.21492, 1.11206, 1.19502, 1.28748, 1.27133, 1.28106, 1.23255, 1.23206, 1.22618, 1.2588, 1.24386, 1.1812
0.900368, 0.89958, 0.928614, 0.929049, 0.919818, 0.922872, 0.908325, 0.907986, 0.940565, 0.952191, 0.953502, 0.953597, 0.96688, 1.01572, 0.92161, 0.911675, 0.890678, 0.877334, 0.858531, 0.8497, 0.848902, 0.847516, 0.807697, 0.796143, 0.797461, 0.79778, 0.791567, 0.790855, 0.787462, 0.789605, 0.803592, 0.795793, 0.789745, 0.794249, 0.809595, 0.8103, 0.793429, 0.793526, 0.794407, 1.02873, 0.83149, 0.82218, 0.803177, 0.800766, 0.799344, 0.810822, 0.811153, 0.811172, 0.819544, 0.82612, 0.827265, 0.828336, 0.82706, 0.821776, 0.811929, 0.797504, 0.793793, 0.796272, 0.790722, 0.78722, 0.785965, 0.770279, 0.766993, 0.760569, 0.770486, 0.766706, 0.761418, 0.759009, 0.732149, 0.682686, 0.688725, 0.696622, 0.691718, 0.692538, 0.690623, 0.68083, 0.736816, 0.724662, 0.747681, 0.755899, 0.734316, 0.766675, 0.756816, 0.712707, 0.711444, 0.752784, 0.749533, 0.805183, 0.785745, 0.707574, 0.691784, 0.687458, 0.705854, 0.700761, 0.739147, 0.695599, 0.704783, 0.710765, 0.704767, 0.70657, 0.739284, 0.739093, 0.821303, 0.821996, 0.826913, 0.829442, 0.836832, 0.839255, 0.845813, 0.847287, 0.853437, 0.856843, 0.84963, 0.856359, 0.870949, 0.877728, 0.887488, 0.904855, 0.898789, 0.906593, 0.92491, 0.909728, 0.913727, 1.13706, 1.11954, 1.0161, 1.01964, 1.0594, 1.04789, 1.06628, 1.07319, 1.0736, 1.10225, 1.18375, 1.1293, 1.12421, 1.13161, 1.13177, 1.10779, 1.10753, 1.2964, 1.20266, 1.28762, 1.22698, 1.23243, 1.23244, 1.26634, 1.26186, 1.25207, 1.22378
0.902106, 0.906527, 0.930139, 0.92948, 0.921365, 0.922236, 0.909323, 0.910596, 0.958316, 0.954439, 0.95413, 0.957347, 0.964366, 1.02181, 0.915033, 0.908072, 0.890391, 0.861473, 0.852355, 0.846706, 0.847387, 0.845594, 0.846381, 0.795943, 0.795068, 0.792192, 0.790329, 0.790197, 0.786873, 0.802693, 0.801689, 0.800462, 0.794236, 0.794469, 0.808049, 0.79613, 0.791198, 0.791236, 0.00452463, 1.029, 0.830162, 0.00446907, 0.800174, 0.799155, 0.794631, 0.800846, 0.801118, 0.809555, 0.820095, 0.825087, 0.824927, 0.824197, 0.824683, 0.808264, 1.39236, 1.33881, 0.957828, 0.787368, 0.790279, 0.783955, 0.779824, 0.76791, 0.756351, 0.75344, 0.7533, 0.756352, 0.729238, 0.694461, 0.696168, 0.693551, 0.664079, 0.673174, 0.679947, 0.690681, 0.692922, 0.698356, 0.729655, 0.74035, 0.740816, 0.747322, 0.763872, 0.787952, 0.786907, 0.755712, 0.756808, 0.759845, 0.784186, 0.813154, 0.78743, 0.724515, 0.706106, 0.70201, 0.710611, 0.734898, 0.711146, 0.692566, 0.690057, 0.691057, 0.693598, 0.702474, 0.73165, 0.714661, 0.73635, 0.749215, 0.825773, 0.826238, 0.831688, 0.835531, 0.843469, 0.844971, 0.850027, 0.851938, 0.848473, 0.846762, 0.868042, 0.868927, 0.884153, 0.905025, 0.901866, 0.90853, 0.916985, 0.910139, 0.909077, 0.938822, 1.13336, 1.08053, 1.03482, 1.03415, 1.04688, 1.0994, 1.07079, 1.08188, 1.10108, 1.4472, 1.12538, 1.12612, 1.13, 1.25348, 1.10585, 1.10835, 1.26404, 1.28122, 1.2849, 1.30193, 1.23165, 1.23244, 1.26725, 1.2812, 1.21024, 1.15001
0.905623, 1.19696, 0.929374, 0.930426, 0.920566, 0.922641, 0.911365, 0.918202, 0.95026, 0.962836, 0.961984, 0.959471, 0.958926, 0.912298, 0.905973, 0.905937, 1.13329, 0.853691, 0.847651, 0.842223, 0.842419, 0.845452, 0.812335, 0.794051, 0.793389, 0.790624, 0.788974, 0.788466, 0.783032, 0.798967, 0.797842, 0.794385, 0.794421, 0.793862, 0.809884, 0.80896, 0.789783, 0.788436, 0.876921, 0.990875, 0.994463, 1.02364, 0.776825, 0.777657, 0.792162, 0.797271, 0.798736, 0.802134, 0.815049, 0.820484, 0.821733, 0.821806, 0.822216, 0.981771, 0.794129, 0.770136, 0.772605, 0.781573, 0.778277, 0.77947, 0.775968, 0.764719, 0.755303, 0.755795, 0.748669, 0.749419, 0.707357, 0.700087, 0.703429, 0.681042, 0.661432, 0.657917, 0.691884, 0.694543, 0.700879, 0.749654, 0.752552, 0.762806, 0.764151, 0.787871, 0.798226, 0.81476, 0.806848, 0.764942, 0.777367, 0.791249, 0.835429, 0.893228, 0.76561, 0.733078, 0.759447, 0.7561, 0.755242, 0.733419, 0.755801, 0.766785, 0.689679, 0.691938, 0.688354, 0.714213, 0.71533, 0.715868, 0.74479, 0.720218, 0.808368, 0.818894, 0.828268, 0.830422, 0.839359, 0.842205, 0.848853, 0.849301, 0.847371, 0.845267, 0.857245, 0.868152, 0.903715, 0.906223, 0.904954, 0.909028, 0.914914, 0.909358, 0.932042, 0.937619, 1.13189, 1.27782, 1.03271, 1.03576, 1.07992, 1.07155, 1.07436, 1.0779, 1.10157, 1.12974, 1.1245, 1.12848, 1.13101, 1.23461, 1.10745, 1.1066, 1.28524, 1.21191, 1.28576, 1.21242, 1.23088, 1.2322, 1.27097, 1.30571, 1.24277, 1.18106
0.905073, 0.911459, 0.929577, 0.936792, 0.93685, 0.915442, 0.911331, 1.20897, 0.957793, 0.963639, 0.962656, 0.962404, 0.959536, 0.918555, 0.905197, 0.884981, 0.877764, 1.0123, 0.842691, 0.838148, 0.836684, 0.00420215, 0.7968, 0.791341, 0.790241, 0.779933, 0.783021, 0.783395, 0.783776, 0.795699, 0.794162, 0.793808, 0.794903, 0.788032, 0.810456, 0.784718, 0.788227, 0.787699, 0.876799, 0.876831, 1.01973, 1.01177, 0.780024, 0.782234, 0.792867, 0.795347, 0.79889, 0.800746, 0.815063, 0.815338, 0.816306, 0.819335, 0.801724, 0.786581, 0.783769, 0.770865, 0.771658, 0.776037, 0.770659, 0.776568, 0.774197, 0.760513, 0.745767, 0.744197, 0.710657, 0.721451, 0.698859, 0.684439, 0.685148, 0.67054, 0.676861, 0.707572, 0.701147, 0.701585, 0.718324, 0.777021, 0.766723, 0.778114, 0.823034, 0.805191, 0.797115, 0.849096, 0.835922, 0.829585, 0.825022, 0.821657, 0.821534, 0.894068, 0.814547, 0.809036, 0.755706, 0.774032, 0.753159, 0.797736, 0.798971, 0.7713, 0.780688, 0.74574, 0.705553, 0.704507, 0.752146, 0.739008, 0.720851, 0.731168, 0.735042, 0.756567, 0.824811, 0.826277, 0.834689, 0.838354, 0.840395, 0.846999, 0.845781, 0.846256, 0.865335, 0.874262, 0.902201, 0.905631, 0.901174, 0.904131, 0.923347, 0.933111, 0.9442, 0.946405, 0.943649, 1.32105, 1.02829, 1.07284, 1.05196, 1.07047, 1.07441, 1.07927, 1.09868, 1.56115, 1.12963, 1.13158, 1.14112, 1.22356, 1.117, 1.24477, 1.27513, 1.29096, 1.29277, 1.31887, 1.23041, 1.22991, 1.41021, 1.26836, 1.27888, 1.19204
0.905947, 1.40075, 0.929035, 0.944368, 0.943609, 0.91623, 0.919667, 1.21629, 0.960264, 0.96704, 0.964473, 0.962883, 1.03286, 1.02038, 1.2023, 1.08357, 0.869537, 0.845881, 0.835479, 0.835924, 0.835824, 0.936506, 0.799814, 0.786519, 0.784473, 0.780809, 0.781196, 0.780096, 0.780622, 0.790164, 0.787832, 0.793253, 0.791235, 0.789955, 0.81037, 0.783798, 0.787423, 0.788061, 0.875669, 0.872241, 0.884248, 0.78852, 0.784494, 0.782566, 0.78304, 0.79401, 0.801895, 0.804996, 0.813884, 0.814467, 0.816842, 0.820157, 0.804723, 0.790667, 0.78129, 0.771835, 0.773668, 0.778612, 0.777549, 0.773849, 0.772831, 0.749303, 0.704784, 0.700523, 0.678618, 0.712071, 0.696911, 0.692867, 0.67794, 0.692999, 0.695053, 0.705123, 0.715975, 0.750939, 0.774367, 0.783236, 0.790475, 0.81125, 0.830784, 0.851848, 0.884085, 0.878266, 0.873678, 0.838118, 0.838161, 0.876375, 0.897224, 0.912493, 0.85417, 0.853476, 0.824931, 0.817931, 0.803379, 0.830092, 0.818768, 0.822659, 0.778176, 0.757962, 0.745171, 0.743185, 0.750367, 0.749496, 0.746158, 0.723016, 0.731539, 0.768768, 0.754383, 0.822546, 0.828192, 0.836053, 0.834793, 0.843608, 0.845379, 0.845426, 0.851331, 0.874324, 0.902901, 0.904647, 0.899386, 0.904888, 0.910828, 0.932176, 0.943706, 0.95169, 0.952946, 1.19926, 1.06372, 1.04938, 1.05318, 1.06999, 1.07254, 1.11054, 1.37839, 1.15048, 1.13198, 1.13231, 1.32263, 1.17536, 1.21669, 1.24257, 1.27124, 1.28289, 1.29455, 1.29633, 1.23128, 1.25173, 1.2852, 1.30918, 1.25684, 1.22416
0.906168, 0.915646, 0.929101, 0.941565, 0.942767, 0.924855, 0.925567, 0.943345, 0.965088, 0.968811, 0.976951, 0.968788, 1.02082, 1.0363, 0.874076, 0.870663, 0.868051, 0.848387, 0.835366, 0.836052, 0.816041, 0.805459, 0.797794, 0.783542, 0.779005, 0.781899, 0.779772, 0.7802, 0.783152, 0.78376, 0.787032, 0.787054, 0.791449, 0.791625, 0.812229, 0.787953, 0.788288, 0.789664, 0.873567, 0.00434127, 1.00643, 0.787563, 0.786628, 0.785483, 0.784131, 0.791322, 0.803459, 0.804464, 0.814971, 0.808642, 0.808186, 0.804147, 0.804628, 0.783648, 0.776528, 0.77274, 0.778107, 0.777943, 0.777617, 0.774514, 0.756266, 0.752011, 0.705091, 0.665716, 0.690149, 0.701514, 0.688442, 0.698628, 0.718442, 0.722536, 0.737608, 0.73345, 0.740308, 0.78977, 0.804943, 0.803058, 0.856158, 0.841372, 0.880137, 0.908147, 0.929102, 0.910385, 0.909341, 0.888929, 0.890724, 0.922625, 0.955807, 0.93753, 0.864277, 0.871091, 0.837283, 0.846337, 0.863, 0.873479, 0.851011, 0.831719, 0.798527, 0.774308, 0.771109, 0.757067, 0.784678, 0.746489, 0.750621, 0.742003, 0.725694, 0.726095, 0.818215, 0.818535, 0.819802, 0.830239, 0.831975, 0.836418, 0.84268, 0.845525, 0.854782, 0.875162, 0.902568, 0.907673, 0.901321, 0.908035, 0.932904, 0.935804, 0.956896, 0.956764, 0.987283, 0.988131, 1.35016, 1.44132, 1.05556, 1.14288, 1.07456, 1.10848, 1.12749, 1.14849, 1.13279, 1.13405, 1.13513, 1.1949, 0.00458923, 1.22798, 1.18298, 1.27845, 1.28984, 1.31264, 1.40674, 1.31702, 1.30575, 1.28306, 1.24016, 1.23932
0.908122, 0.925423, 0.933086, 0.940465, 0.941195, 0.925805, 0.9267, 0.928669, 0.960496, 0.97313, 0.97612, 0.975673, 0.903842, 1.39977, 0.874165, 0.86692, 0.868633, 0.84668, 0.83893, 0.838806, 0.819386, 0.806412, 0.793852, 0.775536, 0.777786, 0.77976, 0.779632, 0.778112, 0.781371, 0.78296, 0.783595, 0.789961, 0.789955, 0.808457, 0.809713, 0.793692, 0.788571, 0.901646, 0.873337, 0.870748, 0.00416952, 1.06764, 0.792223, 0.784894, 0.785699, 0.796901, 0.803302, 0.804465, 0.807462, 0.807296, 0.805203, 0.79594, 0.794963, 0.776576, 0.77156, 0.767653, 0.775011, 0.775532, 0.776894, 0.776222, 0.750741, 0.684216, 0.692383, 0.698581, 0.679444, 0.680569, 0.66822, 0.725431, 0.738153, 0.734258, 0.746299, 0.756472, 0.783475, 0.814166, 0.862229, 0.867031, 0.87093, 0.870238, 0.892023, 0.926733, 0.969418, 0.951408, 0.941999, 0.939014, 0.963294, 0.994083, 1.00565, 0.950572, 0.900735, 0.900211, 0.870149, 0.885679, 0.902142, 0.897274, 0.851359, 0.833367, 0.818946, 0.794958, 0.794447, 0.791318, 0.810903, 0.778808, 0.743837, 0.721119, 0.729262, 0.725374, 0.814628, 0.818035, 0.818453, 0.825724, 0.82906, 0.830375, 0.84124, 0.844437, 0.848798, 0.870732, 0.895909, 0.902724, 0.905465, 0.910539, 0.932131, 1.20198, 0.958031, 0.961939, 1.09545, 1.0202, 1.32014, 1.32064, 1.05703, 1.06678, 1.10199, 1.11556, 1.3575, 1.12859, 1.13698, 1.13922, 1.15185, 1.49901, 1.4927, 1.2362, 1.25572, 1.28032, 1.29457, 1.32034, 1.32213, 1.34275, 1.29986, 1.2393, 1.20254, 1.17497
0.913602, 0.923743, 0.923906, 0.934819, 0.942409, 0.922612, 0.926239, 1.10929, 0.964577, 0.977973, 0.977639, 0.978919, 0.897448, 1.30583, 0.86763, 0.866524, 0.866761, 0.842812, 0.839956, 0.833179, 0.809325, 0.795173, 0.780281, 0.776258, 0.776367, 0.773661, 0.775204, 0.775497, 0.777547, 0.777125, 0.777843, 0.780176, 0.791485, 0.797991, 0.796921, 0.794472, 0.795335, 0.886171, 0.869846, 0.870562, 0.880161, 0.791032, 0.791742, 0.788876, 0.786446, 0.794665, 0.800696, 0.80178, 0.806895, 0.803869, 0.800892, 0.798534, 0.790075, 0.774273, 0.766649, 0.762871, 0.773341, 0.773971, 0.773216, 0.771238, 0.737541, 0.690839, 0.695463, 0.697948, 0.684623, 0.67473, 0.701463, 0.725834, 0.725248, 0.752871, 0.75571, 0.797447, 0.813042, 0.91917, 0.915736, 0.928416, 0.929919, 0.957188, 0.980753, 1.0037, 1.03338, 0.993396, 0.964879, 0.966522, 1.01046, 1.03325, 1.01137, 0.962583, 0.960101, 0.928925, 0.925388, 0.932793, 0.960213, 0.94587, 0.882576, 0.848549, 0.842742, 0.838189, 0.810396, 0.837004, 0.842745, 0.777283, 0.749335, 0.726449, 0.718795, 0.717645, 0.748827, 0.813389, 0.815338, 0.82286, 0.8252, 0.827806, 0.84501, 0.841354, 0.846705, 0.866699, 0.889141, 0.901696, 0.911217, 0.912315, 0.93551, 0.938974, 0.960771, 0.9627, 1.01143, 1.01505, 1.03492, 1.34133, 1.05582, 1.0653, 1.07031, 1.12953, 1.11899, 1.14655, 1.17759, 1.30027, 1.16145, 1.16644, 1.20611, 1.24418, 1.24297, 1.24895, 1.28529, 1.31228, 1.24817, 1.35652, 1.30677, 1.28297, 1.20828, 1.22635
0.924837, 0.922139, 0.925046, 0.927496, 0.929844, 0.921688, 0.927979, 1.14679, 0.976744, 0.977693, 0.97745, 0.89043, 0.885414, 0.873128, 0.866483, 0.867125, 0.841522, 0.839168, 0.838291, 0.990669, 0.801323, 0.787887, 0.779639, 0.78031, 0.776449, 0.773034, 0.767648, 0.773176, 0.777072, 0.775302, 0.777651, 0.779421, 0.793658, 0.794759, 0.793707, 0.794912, 0.801432, 0.00454224, 1.01436, 0.99734, 1.01206, 1.06055, 0.788804, 0.789478, 0.784161, 0.781006, 0.798307, 0.799832, 0.803096, 0.798445, 0.797661, 0.790356, 0.783311, 0.767743, 0.766634, 0.760495, 0.767195, 0.767478, 0.766692, 0.74057, 0.734697, 0.684117, 0.667271, 0.650122, 0.671808, 0.690516, 0.702243, 0.736237, 0.748703, 0.76802, 0.79823, 0.813892, 0.877562, 0.925151, 0.952769, 0.956302, 0.953632, 0.987828, 1.04006, 1.06363, 1.09848, 1.05125, 1.01552, 1.00851, 1.06003, 1.10471, 1.10544, 1.01381, 0.983776, 0.96802, 0.995473, 0.991979, 0.988437, 0.931548, 0.899139, 0.867117, 0.846985, 0.849404, 0.86519, 0.859768, 0.852801, 0.820023, 0.811692, 0.732985, 0.718285, 0.73302, 0.743134, 0.80822, 0.782316, 0.817504, 0.821766, 0.822204, 0.838207, 0.840313, 0.845194, 0.863135, 0.891016, 0.903976, 0.910226, 0.913148, 1.2058, 0.938686, 0.960076, 0.960712, 1.01274, 1.01523, 1.02707, 1.26871, 1.05319, 1.07139, 1.07283, 1.11256, 1.1542, 1.18981, 1.64801, 0.00438578, 1.25998, 1.2055, 1.19357, 1.74239, 1.26422, 1.27445, 1.28843, 1.24608, 1.8105, 1.33872, 1.27858, 1.2138, 1.21686, 1.18442
0.925996, 0.922633, 0.924527, 0.924615, 0.924825, 0.921479, 1.26838, 1.17844, 0.972516, 0.982387, 0.982022, 0.890285, 0.883145, 0.865801, 0.867217, 0.868034, 0.838448, 0.837138, 0.838196, 0.804204, 0.800978, 0.783296, 0.780942, 0.778071, 0.776691, 0.770567, 0.768857, 0.771376, 0.776506, 0.773174, 0.774591, 0.777154, 0.78843, 0.785269, 0.787036, 0.794955, 0.801444, 0.96098, 0.983055, 0.988275, 0.887269, 0.800596, 0.784991, 0.78467, 0.776462, 0.780138, 0.783833, 0.797374, 0.794649, 0.793567, 0.794349, 0.787485, 0.775012, 0.765472, 0.762208, 0.757767, 0.764477, 0.762003, 0.756322, 0.911056, 0.719975, 0.675263, 0.675745, 0.661077, 0.670655, 0.711041, 0.723186, 0.746528, 0.781564, 0.798559, 0.825995, 0.860783, 0.940316, 1.017, 0.997323, 1.01211, 1.01025, 1.03176, 1.04636, 1.08026, 1.13577, 1.08048, 1.06991, 1.08457, 1.13057, 1.12987, 1.10575, 1.05744, 1.01546, 1.05467, 1.0486, 1.0344, 1.05299, 0.976969, 0.933339, 0.877517, 0.863555, 0.857489, 0.925101, 0.889705, 0.864226, 0.836001, 0.812288, 0.732988, 0.741283, 0.711295, 0.711307, 0.722038, 0.758377, 0.810657, 0.816511, 0.828397, 0.835802, 0.837278, 0.844669, 0.856244, 0.886577, 0.895647, 0.90576, 0.908639, 1.20491, 0.953184, 0.973457, 0.966264, 1.01307, 1.01685, 1.35022, 1.04683, 1.34117, 1.09419, 1.07691, 1.08144, 1.16363, 1.68258, 1.19764, 1.20865, 1.58866, 1.58667, 1.21385, 1.75491, 1.247, 1.2405, 1.24222, 1.24553, 1.28279, 1.3303, 1.25977, 1.27766, 1.26772, 1.18842
0.926062, 0.928804, 0.924862, 0.921585, 0.925956, 0.926656, 1.15082, 0.964073, 1.22496, 0.986301, 0.988411, 0.878318, 0.876928, 0.865181, 0.865694, 0.867241, 0.827585, 0.828822, 0.838626, 0.80494, 0.795934, 0.781942, 0.786644, 0.778813, 0.774195, 0.770092, 0.76769, 0.768591, 0.777748, 0.774428, 0.770819, 0.780104, 0.778709, 0.778504, 0.782534, 0.796041, 1.07437, 1.05364, 1.06137, 0.825809, 0.826189, 0.796731, 0.78656, 0.781325, 0.773795, 0.776827, 0.77779, 0.789985, 0.790887, 0.79102, 1.38871, 0.871462, 0.766672, 0.765907, 0.75809, 0.753054, 0.756916, 0.727535, 0.732769, 0.685563, 0.694413, 0.667006, 0.663163, 0.676567, 0.712124, 0.742501, 0.764395, 0.780079, 0.81548, 0.836009, 0.86785, 0.891735, 0.994198, 1.03801, 1.07802, 1.06048, 1.05381, 1.0679, 1.10887, 1.11857, 1.17576, 1.17987, 1.1511, 1.15683, 1.14125, 1.18748, 1.1256, 1.11533, 1.12272, 1.09226, 1.08797, 1.08067, 1.0294, 1.00942, 0.987292, 0.936048, 0.914351, 0.91937, 0.918895, 0.905688, 0.871239, 0.833267, 0.82012, 0.815853, 0.740515, 0.734797, 0.733239, 0.731634, 0.732071, 0.8072, 0.812159, 0.82878, 0.833505, 0.833063, 0.839601, 0.852814, 0.88503, 0.895941, 0.901046, 0.909866, 0.939708, 0.940549, 1.25783, 1.06731, 1.0155, 1.0257, 1.23093, 1.05058, 1.43107, 1.07423, 1.07713, 1.08069, 1.54034, 0.00430396, 1.22329, 1.17744, 1.17845, 1.20946, 1.22972, 1.22014, 1.77604, 1.24025, 1.24264, 1.24387, 1.26137, 1.37113, 1.27778, 1.26281, 1.24702, 1.23073
0.966743, 0.953252, 0.92255, 0.922947, 0.928663, 0.929598, 1.15411, 0.980479, 0.978326, 0.986783, 0.984255, 0.871847, 0.875954, 0.866203, 0.866483, 0.84112, 0.82882, 0.833592, 0.833562, 0.801287, 0.79722, 0.778872, 0.785953, 0.787823, 0.773402, 0.770995, 0.762879, 0.766977, 0.777171, 0.770157, 0.769382, 0.782066, 0.774605, 0.77652, 0.783294, 0.797686, 1.17082, 0.830071, 0.83237, 0.830941, 0.825825, 0.796925, 0.78649, 0.78102, 0.770831, 0.772773, 0.777465, 0.777528, 0.792158, 0.833408, 0.748666, 0.746999, 0.732649, 0.753277, 0.753128, 0.749316, 0.748421, 0.728351, 0.721376, 0.670049, 0.678126, 0.67648, 0.68392, 0.707634, 0.7081, 0.742645, 0.790042, 0.837039, 0.863771, 0.904838, 0.920557, 0.971528, 1.03866, 1.13031, 1.10922, 1.11483, 1.13643, 1.13591, 1.13263, 1.18081, 1.23246, 1.19007, 1.18885, 1.20966, 1.18223, 1.20679, 1.17014, 1.16107, 1.16143, 1.15455, 1.16209, 1.15963, 1.10299, 1.05877, 1.00204, 0.973218, 0.981765, 0.954182, 0.936252, 0.8995, 0.876954, 0.885123, 0.829972, 0.812732, 0.800564, 0.771847, 0.731932, 0.73074, 0.731751, 0.731948, 0.807959, 0.809728, 0.824817, 0.832027, 0.841522, 0.848017, 0.884924, 0.894552, 0.894885, 0.911703, 1.27181, 0.949742, 1.21948, 1.29339, 1.01841, 1.31101, 1.03906, 1.32575, 1.13287, 1.07314, 1.07334, 1.14074, 1.13279, 1.14775, 1.2168, 1.17865, 1.1783, 1.22287, 1.23137, 1.2576, 1.2504, 1.2772, 1.24306, 1.24286, 1.25773, 1.34601, 1.26421, 1.28753, 1.26436, 1.09268
1.02416, 0.860023, 0.923814, 0.924995, 0.931925, 0.933121, 0.932263, 0.975101, 0.984469, 0.987197, 0.874179, 0.874014, 1.12299, 0.854349, 0.854654, 0.842276, 0.82862, 0.836172, 0.822589, 0.805151, 0.795855, 0.778475, 0.786505, 0.786945, 0.770759, 0.764195, 0.76357, 0.7655, 0.779577, 0.766547, 0.766258, 0.782572, 0.768027, 0.773736, 0.800584, 0.798394, 0.80723, 0.833675, 0.832559, 0.833819, 0.800851, 0.797713, 0.78447, 0.784003, 0.769183, 0.769074, 0.770732, 0.779645, 0.782934, 0.772047, 0.746902, 0.745572, 0.732709, 0.738314, 0.745792, 0.740602, 0.743315, 0.728046, 0.705741, 0.683921, 0.673255, 0.684254, 0.710916, 0.717661, 0.742965, 0.792311, 0.81187, 0.898809, 0.929278, 0.928919, 0.991998, 1.02995, 1.0505, 1.1374, 1.18545, 1.21882, 1.18436, 1.162, 1.16687, 1.26825, 1.33427, 1.30288, 1.30836, 1.28339, 1.31685, 1.25069, 1.24139, 1.22009, 1.2298, 1.22972, 1.24058, 1.18542, 1.14674, 1.09605, 1.06411, 1.05153, 1.00408, 0.954777, 0.932152, 0.914828, 0.886809, 0.873981, 0.83564, 0.823942, 0.815648, 0.788987, 0.772584, 0.742864, 0.742854, 0.75982, 0.808414, 0.810485, 1.02924, 0.830177, 0.837678, 0.843351, 0.88454, 0.8948, 0.898324, 0.910362, 1.28594, 1.27885, 1.30744, 1.27895, 1.2914, 1.32363, 1.11931, 1.04637, 1.12958, 1.07696, 1.07919, 1.09829, 1.19679, 1.1733, 1.46895, 1.2163, 1.24412, 1.22972, 1.24434, 1.27361, 1.26796, 1.28392, 1.24163, 1.33027, 1.33433, 1.38757, 1.26508, 1.18043, 1.24675, 1.20606
0.959997, 0.845421, 0.991483, 0.92803, 0.932789, 0.936514, 1.07115, 0.997938, 0.984192, 0.987144, 0.873235, 0.873602, 0.859172, 0.854165, 0.852732, 0.841735, 0.828045, 0.835338, 0.82367, 0.80561, 0.792069, 0.779937, 0.787556, 0.787206, 0.771722, 0.761781, 0.760523, 0.764881, 0.780315, 0.766959, 0.766499, 0.78473, 0.765849, 0.773703, 0.800453, 0.800937, 0.808572, 0.82947, 0.829662, 0.832828, 1.16382, 0.790159, 0.784658, 0.780374, 0.768192, 0.759752, 0.765714, 0.776511, 0.774153, 0.768921, 0.745142, 0.739097, 0.73906, 0.736077, 0.738646, 0.738299, 0.737913, 0.725744, 0.703605, 0.675849, 0.702627, 0.736148, 0.719058, 0.747208, 0.769015, 0.797238, 0.902834, 0.981427, 0.98069, 1.01837, 1.03488, 1.06422, 1.17777, 1.17121, 1.29607, 1.27147, 1.2351, 1.21823, 1.23668, 1.27196, 1.3457, 1.39391, 1.3233, 1.28819, 1.28187, 1.27487, 1.337, 1.29775, 1.30477, 1.29465, 1.2823, 1.27587, 1.22559, 1.22046, 1.12198, 1.07687, 1.08239, 1.05698, 0.960819, 0.90887, 0.885696, 0.877242, 0.864978, 0.853544, 0.800422, 0.804919, 0.797412, 0.746414, 0.721734, 0.749601, 0.800614, 0.799599, 0.819143, 0.818365, 0.840303, 0.844169, 0.877694, 0.895886, 0.898359, 0.905505, 1.28128, 1.0405, 1.25346, 1.05805, 1.29627, 1.02198, 1.03561, 1.06137, 1.12993, 1.07776, 1.58118, 1.11247, 1.23773, 1.27196, 1.19532, 1.24186, 1.23847, 1.24399, 1.24019, 1.22619, 1.28179, 1.29925, 1.32334, 1.2928, 1.38456, 1.24467, 1.2407, 1.18758, 1.23454, 1.34657
1.00845, 1.09476, 0.995226, 0.934157, 0.933836, 0.935958, 1.01265, 0.983221, 0.988301, 0.988525, 0.873816, 0.860571, 0.853583, 0.85276, 0.840823, 0.840192, 0.826933, 0.833607, 0.817618, 0.801136, 0.795102, 0.778826, 0.780031, 0.784635, 0.77152, 0.759819, 0.762871, 0.763984, 0.778027, 0.769672, 0.78633, 0.785782, 0.759727, 0.760568, 0.80111, 0.804436, 1.20799, 0.828508, 0.829768, 0.832077, 0.808603, 0.787537, 0.781519, 0.779987, 0.766204, 0.754857, 0.763848, 0.767178, 0.765868, 0.760617, 0.744169, 0.73627, 0.738474, 0.734873, 0.728216, 0.699151, 0.728361, 0.701762, 0.679596, 0.662655, 0.723119, 0.731223, 0.744079, 0.765689, 0.808414, 0.836297, 0.918927, 1.0338, 1.06192, 1.06871, 1.10481, 1.11523, 1.15905, 1.2088, 1.33284, 1.30263, 1.24914, 1.25188, 1.2612, 1.36417, 1.38316, 1.39131, 1.40493, 1.3467, 1.34275, 1.35066, 1.33017, 1.41019, 1.38277, 1.32832, 1.3116, 1.31067, 1.32582, 1.24656, 1.17959, 1.18258, 1.13866, 1.07078, 1.01197, 0.92259, 0.910371, 0.885501, 0.860933, 0.853789, 0.832771, 0.808412, 0.793146, 0.795711, 0.759127, 0.728567, 0.767511, 0.797047, 0.818859, 0.818451, 0.830089, 0.844239, 0.876649, 0.895191, 0.898037, 0.911726, 0.941413, 1.0428, 1.25773, 1.38004, 1.01864, 1.02213, 1.02258, 1.06475, 1.33453, 1.52735, 1.66536, 1.58673, 1.55778, 1.16968, 1.20197, 1.15518, 1.1573, 1.14962, 1.15151, 1.26917, 1.2727, 1.29199, 1.2608, 1.2866, 1.22694, 1.27471, 1.24846, 1.14002, 1.10613, 1.39299
0.807831, 1.09017, 0.946109, 0.933498, 0.93412, 0.943076, 1.02918, 0.984677, 0.988466, 0.867057, 0.865933, 1.06446, 0.846948, 0.843758, 0.838182, 0.824493, 0.826107, 0.816577, 0.807991, 0.801465, 0.799488, 0.776715, 0.778473, 0.778946, 0.768273, 0.758782, 0.759728, 0.771972, 0.772894, 0.769237, 0.786914, 0.756769, 0.755917, 0.773693, 0.799796, 0.803201, 1.23305, 0.834221, 0.829865, 0.828826, 0.805593, 1.10883, 0.781345, 0.776991, 0.750753, 0.749187, 0.762918, 0.76479, 0.760737, 0.757116, 0.740585, 0.735181, 0.735467, 0.725775, 0.710377, 0.70475, 0.704641, 0.684986, 0.683109, 0.674593, 0.726264, 0.740091, 0.774063, 0.808748, 0.837668, 0.909461, 0.98973, 1.04663, 1.12172, 1.16084, 1.13537, 1.23447, 1.20972, 1.25359, 1.34664, 1.38746, 1.37521, 1.29569, 1.35351, 1.34509, 1.45117, 1.5461, 1.39545, 1.36538, 1.41024, 1.3712, 1.3645, 1.34821, 1.37009, 1.33635, 1.33735, 1.32272, 1.31318, 1.29828, 1.28019, 1.19802, 1.16738, 1.14761, 1.04371, 0.983492, 0.945312, 0.912245, 0.870306, 0.858143, 0.822185, 0.820934, 0.819374, 0.795255, 0.769852, 0.746224, 0.754458, 0.767303, 0.827812, 0.823576, 0.831224, 0.842472, 0.871879, 0.892141, 0.898078, 0.909363, 0.925485, 1.19313, 1.25493, 1.07001, 1.01559, 1.02262, 1.02368, 1.23009, 1.13197, 1.09933, 1.10861, 1.11736, 1.13376, 1.18088, 1.23916, 1.59965, 1.15364, 1.1479, 1.15028, 1.24613, 1.27743, 1.28739, 1.27454, 1.37164, 1.26807, 1.24792, 1.18905, 1.14067, 1.2192, 1.33342
0.804717, 0.809141, 0.940681, 0.936397, 0.93942, 0.942546, 0.988312, 0.986207, 0.985271, 0.988675, 0.845776, 0.845077, 0.834547, 0.834244, 0.832874, 0.823552, 0.822686, 0.804642, 0.803523, 0.801852, 0.79998, 0.777617, 0.769314, 0.7677, 0.765878, 0.763601, 0.759424, 0.76597, 0.768976, 0.769438, 0.785672, 0.75652, 0.756732, 0.999525, 0.799086, 0.800347, 0.832812, 0.834599, 0.832851, 0.811517, 0.809228, 0.785751, 0.783958, 0.777261, 0.747147, 0.747587, 0.757636, 0.762285, 0.759895, 0.755191, 0.739129, 0.733399, 0.730541, 0.724182, 0.735351, 0.696402, 0.687299, 0.660408, 0.687972, 0.682699, 0.731001, 0.767454, 0.794456, 0.8601, 0.885091, 0.93203, 1.0884, 1.14408, 1.20041, 1.23233, 1.23965, 1.19354, 1.25961, 1.24494, 1.3265, 1.38105, 1.34313, 1.35069, 1.34019, 1.3541, 1.38001, 1.38886, 1.40515, 1.42069, 1.39878, 1.47815, 1.37582, 1.38509, 1.40011, 1.37295, 1.42751, 1.33843, 1.36443, 1.36961, 1.37113, 1.32911, 1.28785, 1.19151, 1.0895, 1.03963, 0.984712, 0.950029, 0.889324, 0.844481, 0.84939, 0.859378, 0.827102, 0.808993, 0.803699, 0.759184, 0.74965, 0.777055, 0.809916, 0.819663, 0.942758, 0.837235, 0.869981, 0.89052, 0.891074, 1.31608, 0.927047, 1.38345, 1.26118, 1.39818, 1.00949, 1.02228, 1.02701, 1.38543, 1.36028, 1.10913, 1.10795, 1.10982, 1.17483, 1.48902, 1.21972, 1.14765, 1.14939, 1.14766, 1.15004, 1.27507, 1.21873, 1.32007, 1.35424, 1.3436, 1.27888, 1.15118, 1.16449, 1.182, 1.15385, 1.14357
0.804642, 0.805648, 0.974916, 0.93539, 0.940853, 0.949437, 1.01838, 0.986902, 0.985863, 1.11266, 0.845964, 0.843186, 0.832975, 0.83068, 0.830821, 0.822352, 0.825082, 0.801016, 0.800051, 0.801068, 0.778228, 0.771127, 0.768369, 0.763996, 0.764321, 0.764105, 0.762316, 0.768861, 0.76275, 0.770833, 0.740167, 0.755794, 0.756078, 0.762518, 0.798434, 0.799337, 0.833596, 0.834097, 0.832838, 0.80886, 0.804399, 0.787159, 0.786311, 0.770678, 0.768931, 0.745801, 0.750779, 0.759762, 0.761226, 0.743191, 0.738812, 0.728221, 0.729833, 0.703883, 0.695478, 0.686573, 0.68327, 0.670412, 0.673023, 0.687073, 0.748651, 0.845851, 0.842307, 0.85262, 0.915891, 1.00048, 1.09221, 1.15393, 1.23102, 1.2337, 1.26745, 1.24585, 1.24704, 1.27229, 1.36421, 1.44827, 1.38422, 1.40942, 1.40883, 1.42301, 1.37758, 1.38899, 1.3985, 1.43262, 1.40401, 1.40496, 1.39304, 1.39336, 1.47207, 1.4551, 1.48128, 1.36168, 1.37442, 1.40969, 1.37232, 1.3024, 1.28128, 1.20921, 1.18489, 1.10372, 1.05507, 0.988687, 0.909004, 0.8945, 0.874831, 0.834445, 0.836584, 0.811159, 0.795888, 0.779571, 0.747618, 0.76713, 0.76467, 0.794788, 0.945803, 1.18049, 0.866728, 0.889203, 0.89456, 1.47759, 0.928763, 1.39734, 1.39652, 1.12289, 1.05026, 1.02143, 1.02605, 1.06344, 1.04933, 1.1359, 1.10147, 1.1131, 1.66973, 1.1226, 1.22636, 1.25694, 1.14641, 1.14709, 1.14661, 1.20952, 1.29966, 1.32386, 1.35385, 1.32206, 1.31949, 1.27314, 1.18238, 1.12696, 1.18107, 1.16036
0.809082, 0.821798, 0.974234, 0.956235, 0.942512, 1.01027, 0.995077, 0.987195, 1.12555, 0.841988, 0.840539, 1.17251, 0.829378, 0.830244, 0.83155, 0.822003, 0.804156, 0.801175, 0.800921, 0.79398, 0.794544, 0.76628, 0.764683, 0.761686, 0.764062, 0.763772, 0.765634, 0.76835, 0.759043, 0.734093, 0.735876, 0.755657, 0.759512, 1.05317, 1.09013, 0.807883, 0.831805, 0.832798, 0.812155, 0.811806, 0.804126, 0.790606, 0.782984, 0.771092, 0.76944, 0.743539, 0.745157, 0.756474, 0.75702, 0.888676, 0.720619, 0.722021, 0.727451, 0.703306, 0.677848, 0.68218, 0.660232, 0.688288, 0.681465, 0.685766, 0.810773, 0.857521, 0.888882, 0.908161, 0.965624, 1.04366, 1.08556, 1.23559, 1.23164, 1.27028, 1.3725, 1.30879, 1.2537, 1.27178, 1.34933, 1.3845, 1.39095, 1.40742, 1.40571, 1.39077, 1.39956, 1.4172, 1.41702, 1.41706, 1.41008, 1.40967, 1.47575, 1.37733, 1.44351, 1.46398, 1.41947, 1.51707, 1.3776, 1.40022, 1.34458, 1.32944, 1.32316, 1.30339, 1.21001, 1.13252, 1.09101, 1.02178, 0.938994, 0.890185, 0.870013, 0.869546, 0.837589, 0.833382, 0.821842, 0.780851, 0.773732, 0.77112, 0.790687, 0.802965, 0.939375, 0.837256, 0.862944, 0.887489, 0.892211, 1.26966, 0.926847, 1.41349, 1.40149, 1.13371, 1.05401, 1.01999, 1.02477, 1.07814, 1.51337, 1.20109, 1.07439, 1.10953, 1.55046, 1.21832, 1.22585, 1.19194, 1.14287, 1.14785, 1.14598, 1.29608, 1.30482, 0.00446132, 1.34946, 1.31368, 1.25813, 1.27516, 1.19938, 1.19808, 1.1642, 1.11188
0.821445, 0.820628, 0.904833, 0.964205, 1.02708, 1.32851, 0.00412152, 1.00566, 0.846169, 0.837102, 0.840415, 0.82509, 0.825157, 0.832999, 0.822969, 0.82121, 0.800935, 0.800313, 0.794813, 0.793965, 0.784031, 0.762429, 0.761463, 0.758267, 0.759876, 0.761411, 0.763998, 0.767228, 0.757436, 0.734416, 0.734084, 0.75584, 0.763409, 0.971785, 0.846692, 0.808951, 0.0044917, 0.967739, 0.928648, 0.811295, 0.800339, 0.78382, 0.783082, 0.761352, 0.760612, 0.743541, 0.733717, 0.751972, 0.748783, 0.716476, 0.717571, 0.72109, 0.697275, 0.694051, 0.65669, 0.669151, 0.659055, 0.709547, 0.736037, 0.75215, 0.866267, 0.919992, 0.95404, 0.964742, 0.996373, 1.07153, 1.11184, 1.23032, 1.26024, 1.35081, 1.36779, 1.29432, 1.29041, 1.29583, 1.32799, 1.45765, 1.46981, 1.37089, 1.35105, 1.44235, 1.39076, 1.41266, 1.42956, 1.42311, 1.42215, 1.43466, 1.44518, 1.45643, 1.43701, 1.44101, 1.48446, 1.48149, 1.37177, 1.36421, 1.35982, 1.35361, 1.34266, 1.34294, 1.29641, 1.24038, 1.16687, 1.0653, 1.0007, 0.933796, 0.898495, 0.860365, 0.85917, 0.835111, 0.838094, 0.804759, 0.790263, 0.785488, 0.770038, 0.767021, 0.802316, 1.44749, 1.30208, 0.885934, 0.894233, 1.46707, 0.929662, 0.935393, 1.11143, 1.09859, 1.09859, 1.01514, 1.02351, 1.28062, 1.14424, 1.14476, 1.07374, 1.11307, 1.20178, 1.19733, 1.22046, 1.24331, 0.00452379, 1.14704, 1.14594, 1.15434, 1.28834, 1.18382, 1.31494, 1.31042, 1.29597, 1.2706, 1.15725, 1.11323, 1.17761, 1.12622
0.818569, 0.820044, 1.20972, 0.00426772, 0.96097, 1.02178, 1.31974, 0.00450309, 0.840461, 0.833062, 0.828914, 0.822809, 0.823081, 0.827138, 0.821576, 0.819878, 0.799807, 0.798601, 0.79083, 0.784406, 0.76273, 0.761061, 0.762402, 0.75676, 0.759672, 0.760101, 0.761661, 0.762532, 0.758577, 0.733579, 0.738018, 0.764665, 0.76328, 0.776871, 0.804047, 0.806246, 0.87697, 0.981634, 0.887694, 0.797111, 0.797266, 0.783243, 0.781476, 0.759941, 0.758675, 0.731432, 0.731466, 0.734948, 0.714187, 0.717198, 0.717418, 0.718314, 0.693816, 0.691054, 0.664511, 0.659714, 0.714031, 0.70925, 0.74347, 0.815486, 0.877374, 0.972117, 0.993019, 1.02814, 1.03677, 1.05658, 1.1839, 1.26058, 1.24413, 1.39438, 1.35064, 1.32703, 1.30261, 1.32044, 1.35367, 1.46322, 1.44935, 1.38599, 1.37505, 1.38218, 1.38986, 1.42694, 1.43002, 1.4478, 1.43743, 1.43641, 1.44711, 1.40925, 1.45043, 1.54442, 1.44434, 1.48019, 1.47815, 1.40181, 1.38427, 1.37563, 1.36408, 1.36093, 1.33218, 1.28662, 1.21697, 1.0865, 1.0371, 0.942642, 0.929468, 0.889036, 0.860209, 0.838818, 0.820737, 0.80108, 0.791715, 0.787937, 0.759939, 0.749312, 0.800818, 0.827329, 1.45174, 0.883664, 0.889195, 1.34704, 0.931713, 1.03012, 1.11007, 1.10541, 1.43028, 1.01522, 1.38847, 1.14327, 1.58153, 1.0638, 1.26549, 1.08267, 1.08621, 1.20669, 1.24251, 1.25244, 1.2584, 1.14269, 1.14572, 1.15372, 1.30283, 1.23692, 1.31881, 1.19233, 1.20551, 1.27176, 1.18887, 1.12712, 1.25686, 1.20524
0.816371, 0.816952, 0.984392, 0.937018, 0.961121, 1.00816, 1.0406, 1.35448, 1.14418, 0.822378, 0.821293, 0.821081, 0.812495, 0.812545, 0.816373, 0.933583, 0.79764, 0.78683, 0.787225, 0.788101, 0.758696, 0.759772, 0.758514, 0.753391, 0.758693, 0.758802, 0.761614, 0.762112, 0.757386, 0.731456, 0.736622, 0.759891, 0.768959, 1.10976, 0.803634, 0.802474, 0.940424, 0.761101, 0.759997, 0.796081, 0.794086, 1.23036, 0.768902, 0.767753, 0.757446, 0.724793, 0.734329, 0.734682, 0.713842, 0.716227, 0.717247, 0.717506, 0.683946, 0.683401, 0.656324, 0.698771, 0.703791, 0.743413, 0.772024, 0.842417, 0.863802, 1.00324, 1.09849, 1.08135, 1.09045, 1.16045, 1.20685, 1.24585, 1.26438, 1.36231, 1.36966, 1.32657, 1.31088, 1.35124, 1.39271, 1.41846, 1.46956, 1.44437, 1.38044, 1.38843, 1.40201, 1.42131, 1.43571, 1.45327, 1.54534, 1.44795, 1.44717, 1.40979, 1.43697, 1.4739, 1.46781, 1.43873, 1.48245, 1.47132, 1.39207, 1.38171, 1.39286, 1.39116, 1.33863, 1.36418, 1.28961, 1.14596, 1.09136, 1.01161, 0.929539, 0.909635, 0.866752, 0.841907, 0.819846, 0.811286, 0.80107, 0.798952, 0.791744, 0.772843, 0.768504, 0.838591, 1.48235, 0.881548, 1.33999, 1.33129, 1.27505, 0.938761, 0.95266, 1.09965, 1.00736, 1.05519, 1.33491, 1.06651, 1.05462, 1.06691, 1.06793, 1.60664, 1.12456, 1.59904, 1.23011, 1.24742, 1.1465, 1.26092, 1.16787, 1.71583, 1.15984, 1.16152, 1.16539, 1.33388, 1.29572, 1.24127, 1.16337, 1.21675, 1.18633, 1.14709
0.815459, 0.815917, 0.978205, 0.975167, 1.05911, 1.05454, 1.17077, 0.961048, 1.14381, 0.821346, 0.816768, 0.816499, 0.808178, 0.805186, 0.802614, 0.791137, 0.796612, 0.785528, 0.786166, 0.782306, 0.756512, 0.75751, 0.752789, 0.752048, 0.755751, 0.757487, 0.762002, 0.762404, 0.735289, 0.73593, 0.735928, 0.758623, 0.769468, 0.00396229, 0.802496, 0.803113, 0.901967, 0.760414, 0.759356, 0.793385, 0.788836, 0.779305, 0.766477, 0.761074, 0.7518, 0.725597, 0.731852, 0.7327, 0.71393, 0.71543, 0.716847, 0.71673, 0.676063, 0.682808, 0.686516, 0.694039, 0.753889, 0.746318, 0.836827, 0.870826, 0.904734, 1.02297, 1.14935, 1.1324, 1.18151, 1.19093, 1.23322, 1.24834, 1.34771, 1.63427, 1.39693, 1.36546, 1.32396, 1.36177, 1.37493, 1.42309, 1.43484, 1.43931, 1.42792, 1.41166, 1.4278, 1.44071, 1.45356, 1.46499, 1.44931, 1.45063, 1.43234, 1.4268, 1.47677, 1.47926, 1.4857, 1.44326, 1.43762, 1.52443, 1.40118, 1.41316, 1.44737, 1.39176, 1.36771, 1.33609, 1.27976, 1.24341, 1.20949, 1.07342, 0.968933, 0.950113, 0.867256, 0.839273, 0.822066, 0.807667, 0.816184, 0.815781, 0.794142, 0.763275, 0.762505, 0.816032, 1.47185, 0.882818, 0.887344, 1.23255, 1.34143, 1.31263, 1.30291, 1.09924, 1.09871, 1.06621, 1.01369, 1.07493, 1.08107, 1.06087, 1.13186, 1.19274, 1.08701, 1.20878, 1.22856, 1.13219, 1.13227, 1.26686, 1.19629, 0.00407345, 1.15244, 1.31003, 1.30364, 1.26051, 1.27415, 1.27644, 1.21376, 1.18795, 1.14082, 1.04741
0.815236, 0.818387, 1.00515, 0.979089, 0.00429594, 1.08447, 1.06517, 0.00466524, 1.14634, 0.819028, 0.812829, 0.800425, 0.797547, 0.795917, 0.79888, 0.78768, 0.789878, 0.784889, 0.785057, 0.78213, 0.755793, 0.755941, 0.750665, 0.75107, 0.75332, 0.756274, 0.762603, 0.762149, 0.734713, 0.735464, 0.742074, 0.748612, 0.747849, 1.13275, 0.800955, 0.79763, 0.769349, 0.7588, 0.76079, 0.793448, 0.788504, 0.776444, 0.769478, 0.757776, 0.753282, 0.723759, 0.731287, 0.730055, 0.727188, 0.715659, 0.717031, 0.69367, 0.662598, 0.662505, 0.728512, 0.72698, 0.759698, 0.760106, 0.831093, 0.886693, 0.918604, 1.0158, 1.23574, 1.28118, 1.24433, 1.24595, 1.25107, 1.29884, 1.35863, 1.37179, 1.43496, 1.29508, 1.31575, 1.31281, 1.38505, 1.3866, 1.43789, 1.43869, 1.46736, 1.49514, 1.42409, 1.42456, 1.4498, 1.46978, 1.45049, 1.46024, 1.43365, 1.42385, 1.45161, 1.52009, 1.48227, 1.50206, 1.4961, 1.47585, 1.43317, 1.4327, 1.42688, 1.41208, 1.3741, 1.3965, 1.32096, 1.26067, 1.19197, 1.07718, 1.00112, 0.956086, 0.893911, 0.856992, 0.832182, 0.807957, 0.818543, 0.794401, 0.7968, 0.74647, 0.769156, 0.821786, 0.818975, 0.881201, 1.35461, 1.37513, 1.37528, 1.44365, 1.33767, 1.36125, 1.48323, 1.00875, 1.01179, 1.01494, 1.09372, 1.28468, 1.08428, 1.15644, 1.07815, 1.18917, 1.11014, 1.25032, 1.26974, 1.11772, 1.22689, 1.59657, 1.14591, 1.30373, 1.16444, 1.31616, 1.25364, 1.13006, 1.07362, 1.07561, 1.14015, 1.11349
0.81863, 0.819239, 0.939539, 0.991423, 1.08702, 0.00438266, 0.825839, 0.829027, 0.838258, 0.814946, 0.811893, 0.797009, 0.793896, 0.794272, 0.782081, 0.787071, 0.783866, 0.783573, 0.786945, 0.782084, 0.755537, 0.755312, 0.750809, 0.751402, 0.753193, 0.765826, 0.766023, 0.757013, 0.736873, 0.735947, 0.739315, 0.748558, 0.825435, 0.794771, 0.79465, 0.790459, 0.774282, 0.772754, 0.791467, 0.792016, 0.785492, 0.777938, 0.766614, 0.757914, 0.747031, 0.717252, 0.728334, 0.728972, 0.72197, 0.886455, 0.686432, 0.685505, 0.686141, 0.69117, 0.716733, 0.743491, 0.783261, 0.816587, 0.871408, 0.873849, 0.962332, 0.991233, 1.23318, 1.30237, 1.32122, 1.3237, 1.29203, 1.30177, 1.37043, 1.37118, 1.31002, 1.30945, 1.28948, 1.31183, 1.38948, 1.40282, 1.4364, 1.47202, 1.44435, 1.49151, 1.42507, 1.42626, 1.45375, 1.44875, 1.45794, 1.46666, 1.44433, 1.44879, 1.47966, 1.5193, 1.51331, 1.58816, 1.49706, 1.49342, 1.46158, 1.45681, 1.44659, 1.40956, 1.42953, 1.42984, 1.35871, 1.35355, 1.21532, 1.19399, 1.03998, 0.959545, 0.925941, 0.89217, 0.854024, 0.851347, 0.833246, 0.829692, 0.797233, 0.759997, 0.76313, 0.800705, 0.824623, 0.88019, 0.888668, 1.38559, 1.32001, 1.03453, 1.04759, 1.34288, 1.3281, 1.00836, 1.00985, 1.19241, 1.15338, 1.11959, 1.20609, 1.07558, 1.19828, 1.09607, 1.10459, 1.25224, 1.27443, 1.11527, 1.22359, 1.30929, 1.2156, 1.23064, 1.31287, 1.25216, 1.25857, 1.17523, 1.16477, 1.15068, 1.14982, 1.17814
0.818344, 0.818331, 1.01126, 0.985623, 1.03836, 0.825375, 0.824006, 0.825851, 0.828732, 0.805552, 0.794148, 0.790857, 0.794632, 0.795332, 0.780406, 0.783666, 0.782239, 0.78921, 0.788989, 0.780812, 0.758801, 0.757295, 0.748035, 0.751935, 0.759909, 0.761549, 0.76071, 0.758937, 0.741897, 0.734956, 0.739782, 0.745231, 1.04684, 0.795273, 0.793106, 0.790732, 0.776715, 0.790736, 0.790318, 0.790789, 0.782488, 0.778225, 0.768076, 0.776123, 0.746725, 0.859476, 0.70933, 0.720956, 0.973324, 0.690036, 0.680357, 0.663946, 0.67049, 0.700752, 0.738569, 0.772814, 0.812691, 0.849531, 0.869489, 0.902451, 0.988201, 1.07525, 1.14981, 1.32636, 1.41607, 1.41206, 1.34371, 1.33734, 1.39867, 1.36436, 1.36396, 1.34374, 1.34082, 1.35735, 1.39093, 1.39687, 1.42772, 1.4511, 1.44475, 1.56749, 1.52987, 1.45152, 1.45221, 1.48489, 1.45081, 1.47075, 1.43142, 1.44393, 1.45422, 1.49989, 1.50925, 1.53084, 1.5297, 1.52015, 1.54774, 1.4964, 1.50432, 1.46118, 1.43508, 1.39927, 1.4254, 1.35962, 1.27661, 1.13629, 1.05616, 1.0364, 0.932481, 0.901309, 0.87354, 0.874407, 0.822317, 0.830033, 0.800655, 0.780584, 0.773484, 0.79037, 0.815961, 0.861951, 0.8851, 1.30947, 1.34772, 0.923463, 1.38295, 1.24342, 1.36214, 1.00265, 1.39684, 1.24664, 1.09233, 1.06712, 1.08099, 1.07543, 1.08908, 1.14473, 1.10198, 1.10148, 1.10276, 1.10844, 1.1131, 1.12955, 1.14049, 1.147, 1.23806, 1.27927, 1.28371, 1.21033, 1.16808, 1.17543, 1.13631, 1.17522
