0.941880557516344,0.990541164888238,1.05975199448581,1.13594178040918,1.21615576904898,1.25592330821657,1.231734815403,1.21075939368725,1.20656430972086,1.20807922256347,1.20213498494596,1.2178939541249,1.21871964624685,1.22331576259599,1.23874991865207,1.25411059812479,1.26705421122811,1.29350416838287,1.32108799496821,1.32914293767659,1.3371593997069,1.3458777202511,1.34339746798559,1.38393414822354,1.40717274762392,1.39502645464632,1.39833640157047,1.38900101174032,1.38351940059057,1.40541444017201,1.43427210093394,1.49477641850259,1.48586881538139,1.48628590961964,1.50391056874316,1.50278809912698,1.50185913137186,1.49974615607172,1.5186679764557,1.54175409204425,1.5688828451938,1.57317675538045,1.55941894531261,1.55639120727605,1.56593365843237,1.56420213817073,1.56114122126342,1.56184004572225,1.57173631455459,1.57629026264023,1.58330267742527,1.58488185126269,1.57862886570281,1.56551402776672,1.57141960279694,1.60724748135559,1.6222680788686,1.58494407444122,1.57829614741444,1.55648034606715,1.54833519916492,1.54719409476362,1.54686260809108,1.55252604634238,1.56985146128773,1.60921157051199,1.59597675732864,1.58100486593147,1.57433997198926,1.56531822445949,1.5231247336437,1.50617763325978,1.51788462454534,1.53373439140249,1.49998467734819,1.49245187869849,1.51566077454898,1.53108854866109,1.52522210721577,1.49689921370647,1.42603138627537,1.3962055845113,1.39032661077719,1.38816672399312,1.38798500817346,1.37095715441271,1.36253898048428,1.35493241718486,1.34137669438173,1.33250500835441,1.32988537786333,1.33045805886976,1.33007317667961,1.34012667953147,1.35119011673913,1.35325250809413,1.35318920870742,1.35315415991855,1.3900603285584,1.37503126777504,1.33571697829962,1.31752424286562,1.30067035744372,1.2738003467691,1.22068386569935,1.18358625207386,1.1525624932661,1.13611983802115,1.0818397484166,1.04503459365623,1.0164149872101,1.00353939284704,0.973370486666079,0.939428536786347,0.914464718752863,0.893772243781543,0.881554941669929,0.864966348982475,0.835686037669941,0.822285423899474,0.80425331076802,0.794518592276155,0.783267639784937,0.765348677488783,0.746717928892964,0.733070827142113,0.721452844423871,0.709957621787693,0.700660393254812,0.69436212752122,0.6884102329596,0.674531734721995,0.67384953337588,0.67250905236879,0.659057785032707,0.651801633320881,0.640250714149745,0.623290484457454,0.629858127324022,0.632851740259993,0.636677672351432,0.645331265916477,0.669571106147034,0.722943903398321,0.888310986768985,0.909618625237655,0.905828851910276,0.804546150665291,0.782276092214975,0.754093129832977,0.743909041953975,0.737271848604768,0.734580012084412,0.737021237206591,0.742816093534745,0.745031947924215,0.744907786636726,0.74440271997553,0.745245994592723,0.749213992250875,0.750313843959919,0.752201574353786,0.755444114324528,0.760442495376393,0.760693707576287,0.761649717084304,0.765434797867149,0.774463285920909,0.7786797356793
0.932509179581838,0.978078389339414,1.02383670150139,1.11564214037983,1.22668684417253,1.23110504033854,1.21917907979895,1.20651313170421,1.20460836732854,1.20769661235182,1.20389585258327,1.20768122749973,1.21284899461883,1.22175052505072,1.23457820454084,1.24680885899534,1.26278434012168,1.27731123838255,1.29002584126223,1.3120313067475,1.31893876412303,1.32173955890132,1.32680774597561,1.34178797754881,1.35306053858053,1.38079075323158,1.39321495241916,1.3767260610354,1.38416900828211,1.403370351966,1.43765311345966,1.53063531288168,1.49932746225352,1.49012619763839,1.48435555125179,1.47892476152164,1.48575368573648,1.49386562076842,1.50504154452432,1.52997329154653,1.54907948979429,1.55614207677655,1.55547101780444,1.56159628682297,1.58331609376968,1.56585328643271,1.55686439573087,1.55971916432798,1.56973293353296,1.5683471589099,1.5739511972156,1.56618772031543,1.56744826018874,1.55657201357456,1.55704902441696,1.56787392194074,1.57193294903826,1.55475675499211,1.54788066452776,1.54662934019329,1.54914651535393,1.54468409092464,1.53793523936905,1.54239391791037,1.56321720542781,1.58831014902143,1.58791914991003,1.57203288541265,1.57405788290436,1.55420772017147,1.49367867867298,1.48438872376364,1.51845865761935,1.54665257316113,1.50884423349358,1.49738095937285,1.536947728765,1.53199523417268,1.4942650094781,1.47563740776819,1.42041804622378,1.38411046612172,1.38186565707056,1.39410367453102,1.37175792234716,1.36145443581395,1.35539778119601,1.35283394062703,1.33421841720542,1.31595411109067,1.31286733347743,1.32027187612051,1.32599387642953,1.33534900691114,1.35641897606897,1.35979981696209,1.37861857095036,1.34436143790422,1.33778993464273,1.33444916820422,1.32257134277554,1.31011290922031,1.29503341929645,1.25139837568688,1.21055360824844,1.165360558081,1.1272963595573,1.08902034485847,1.06159455488822,1.02667100294998,0.989816664187935,0.972255318954252,0.946687409457458,0.92091464705776,0.906254279113161,0.889897399109221,0.876623884901966,0.852730968654245,0.833185705175582,0.821472011428957,0.799360885112885,0.788868375831649,0.779073177852146,0.7711698429116,0.748112401192407,0.735379547914678,0.723809520517273,0.712646473983439,0.705366836094046,0.696877853295273,0.685836656564904,0.672132646442661,0.668679826716657,0.670106765123013,0.652189023632407,0.626999950223644,0.619940997267473,0.614539899471553,0.629506172648909,0.637866721808121,0.655051704003189,0.658226883158918,0.659387967019247,0.72213006159522,0.906103065857117,0.952961208968418,0.916567920830371,0.798619205763756,0.747386148100737,0.74232406519837,0.736298208758281,0.733504747703057,0.733038082690422,0.736183365801031,0.74273276061963,0.743287011871165,0.750473287667431,0.772232471230584,0.750112791041725,0.746149114689662,0.747742527397801,0.757228524314688,0.784096335145591,0.76365765078914,0.758179324915012,0.76201391814464,0.768110440512661,0.772655025924979,0.775309033712132
0.915013097640056,0.955310017428374,1.00139156518826,1.07753798819438,1.22922047430221,1.22753143259063,1.22424729644287,1.20925979616329,1.21010660558967,1.21431814816461,1.20494918310591,1.20415420618862,1.20588099617732,1.21364436980925,1.23354039677989,1.24290853922691,1.25432703773202,1.26111988596323,1.26838851545829,1.2870435335617,1.29852838273344,1.31139314035225,1.32592308186099,1.33627325315979,1.33292772138767,1.3452616382522,1.38148686751419,1.37669550836879,1.38595664503307,1.3950111951461,1.41741243719443,1.4606973274573,1.47318795163818,1.50618284973317,1.47318979674022,1.44894460880843,1.45639045596482,1.48627824363676,1.50567403782956,1.52822213526979,1.55856915489306,1.5685843468983,1.56441387945681,1.568021996778,1.58825046450777,1.56932085198845,1.56340391004966,1.57158843611893,1.56838926045722,1.5390502262784,1.53205803545841,1.53169786432237,1.542808740126,1.54145207142625,1.54562126389655,1.54810257794819,1.55470697547026,1.55315219903953,1.53883072959366,1.54242735715346,1.55431255572732,1.5486870802971,1.53639648352666,1.53495679556971,1.54554562304812,1.56103146994726,1.56762411642693,1.56701937588927,1.55914033856703,1.53049993451308,1.48891700625513,1.48553019901889,1.51026779096571,1.52323731690222,1.51393277255718,1.50470950382719,1.50178387989302,1.48770727403206,1.44751674156291,1.44067021630712,1.40985131834106,1.39162094731048,1.39243559433835,1.40669256924104,1.37542916867215,1.37206266222958,1.35308963236566,1.33562973155323,1.32065521453326,1.31034053895418,1.30648107441032,1.31015364633282,1.32490876724903,1.35498707235763,1.35298253745926,1.33384263562597,1.34097124767359,1.33962939943573,1.32458237441941,1.31422382038576,1.30648178303356,1.29620750222972,1.27807531417717,1.24387339853237,1.20192079149761,1.1514916546842,1.12330969402453,1.06617896403945,1.03509404777468,1.00518181685205,0.968104168418578,0.948654223152306,0.927832460745736,0.903769653629808,0.897483321486584,0.89173127923353,0.861324703134408,0.840453598682716,0.8287856245646,0.812822027185896,0.795766636614013,0.782223180348103,0.775681834087339,0.765833736083503,0.747548247552372,0.735363743309641,0.724152067283963,0.70934594331921,0.70756977700388,0.694871399601773,0.676583058737581,0.672855818559869,0.67359269629483,0.660486266320066,0.637385354074132,0.618497516751384,0.615075061997516,0.618422596171209,0.627887945236397,0.630823901801023,0.646619860455874,0.673053385034508,0.676619010884978,0.721360937146025,0.921663524407071,0.964256735318446,0.872191329796201,0.892315700306409,0.774699871877672,0.736629242854505,0.733525060592865,0.733582398311165,0.73599058722847,0.740856886495903,0.74124575078813,0.740849262837454,0.77213555820813,0.870154395144703,0.774144893417598,0.744135454504033,0.745634606607748,0.776826689673617,0.879684662520882,0.787189089692638,0.761963294225592,0.765868688279705,0.769282342661841,0.772145940095609,0.77958020274703
0.906451275283858,0.931552907435664,0.969400753457419,1.0234156717544,1.14609728459656,1.2027886718393,1.20981155134191,1.20788858918085,1.21761770846765,1.20890169037283,1.20561816646753,1.21116349688594,1.21488407123793,1.22361945658743,1.23181642063004,1.23353252410217,1.23763758847986,1.2464585424158,1.25000929953226,1.26682712986604,1.29070484220438,1.30648391620561,1.31618247396589,1.32740442744352,1.31926004873206,1.33641555518022,1.35609354621098,1.3704123892975,1.3802913026114,1.38856433386588,1.4049670775341,1.4217446687257,1.43423759110219,1.4482814602037,1.44984501613896,1.43723450109147,1.44113665638484,1.46973449903975,1.48520508348382,1.52003420785956,1.56179633434958,1.56234668303023,1.54983164688212,1.55061692254243,1.58639627977824,1.58981202043778,1.58963042618939,1.59695634750014,1.58386593472884,1.53686903252398,1.53003336555948,1.52301993528167,1.52216060327976,1.52453725193082,1.5285234011672,1.53539534199901,1.53882486124643,1.54715650472034,1.55118771575802,1.54960591935902,1.54071002648433,1.54980782486524,1.53259744575142,1.52445612945077,1.52267495911795,1.52469539157063,1.54043326976974,1.53866798245792,1.52035411860689,1.51261871527656,1.50685518532384,1.49671486407018,1.46912478809623,1.4554665178643,1.44762239452149,1.45464696031568,1.46317772545653,1.45683769645575,1.42541793295617,1.40535239443581,1.39712313415855,1.39572753630032,1.39236903471581,1.38865710300409,1.37470170338604,1.3885147202973,1.34819511505336,1.32611621207209,1.32392740011921,1.32035020440619,1.31489458890759,1.32067859520997,1.35346859639561,1.35932746299532,1.31744438123018,1.30291038863904,1.31504049549435,1.31621419904545,1.31183168518365,1.30520995989383,1.29610932380686,1.28577314133007,1.25515170100095,1.23637498991524,1.19797621012114,1.14695396125282,1.10452933852869,1.05721621480617,1.00814987073473,0.971273931652814,0.941393603291504,0.918851615263953,0.899137652668822,0.876293505847438,0.869189687118399,0.871336693656397,0.831123253065766,0.816383917637771,0.813368833012923,0.795353774323398,0.781502621513033,0.77231366757418,0.760643337145156,0.749305951941382,0.727132582647534,0.717843361755765,0.713068114192134,0.707059388342037,0.70044781701502,0.685864456064077,0.670623538209078,0.672294010929988,0.672040959968313,0.661064058274546,0.628637245613928,0.615190793627911,0.617894137571842,0.629447905461897,0.620180147507913,0.63156997108472,0.647650984802519,0.66630838752344,0.648019903307309,0.614150253209983,0.836622954646379,0.939360915477691,0.943915718180902,0.837832758661431,0.752103646765895,0.73337360344584,0.731860519674322,0.732919095276795,0.738374785839768,0.738972785832462,0.738049477114055,0.734325512134916,0.737367263408331,0.762790022479399,0.744816626902818,0.740366104343432,0.741423737760435,0.749971823976805,0.780487794680932,0.76300057922398,0.769761639501097,0.808010232881176,0.810645478564182,0.783917267769631,0.787261956499165
0.885914636192786,0.926939281027876,0.962362016596351,1.00853864171584,1.14155050566463,1.19927421425936,1.20566213238356,1.2139651904623,1.21178614726101,1.20567065787043,1.21119316748237,1.22432128557899,1.23167220937455,1.24391047044486,1.23873636074272,1.23447766514969,1.23700146912569,1.24710624908616,1.24686727334321,1.25826475120346,1.29452684053467,1.2927869258863,1.29390872369799,1.31031643140302,1.33543897841865,1.33989007435533,1.32749342542113,1.34530777108123,1.36857776724265,1.38802640704869,1.40937552034193,1.43010460815943,1.42405458446239,1.42196444558705,1.43657041590866,1.44068173202994,1.43735678866263,1.44371814903489,1.45929045717284,1.50314104289473,1.54674087998616,1.52730039175777,1.54773769900926,1.55810715163212,1.57234455596948,1.57620778591161,1.582235689927,1.58378057241309,1.5699860461458,1.53854053212344,1.55374541501987,1.52447008866067,1.50671678255176,1.50722992236304,1.50677136848493,1.50467355037396,1.511012173421,1.50764865137406,1.52112465355859,1.52817125473858,1.53216403258254,1.51696121867586,1.51398127850749,1.51284622294748,1.51119061760182,1.52420229447853,1.54472308631965,1.51940209406143,1.50742211820257,1.49112509019426,1.48921932396167,1.47528320873795,1.46632582239166,1.43291552692731,1.4189911734062,1.40625826406142,1.42105276260132,1.44490872394545,1.43584528137708,1.39713256734109,1.39261824353106,1.40100301841173,1.40062323273521,1.39367427675367,1.38091135801749,1.38594959894202,1.35115304704673,1.34438358697105,1.33413634607582,1.34087148053217,1.31786033813119,1.31667535729106,1.34844124995777,1.34760445378004,1.29426444202832,1.28077675115476,1.2769165944354,1.27566901928268,1.27259539092642,1.27548917667964,1.26652209565419,1.25580264248173,1.23266394783634,1.2237224092004,1.20526825002547,1.14032605693956,1.08043162162462,1.04195648774456,0.998812575682844,0.96808175604927,0.924863863421592,0.898768811081541,0.879434835048103,0.837514064948949,0.821725872549079,0.815545427052243,0.799127641520371,0.781784778182158,0.771304421285377,0.758256762676833,0.752647676507371,0.752579865965866,0.743708485783956,0.734004863913009,0.71567960627895,0.70633194483598,0.702042006980515,0.697160597989705,0.688332663414203,0.672226393631471,0.661356717588356,0.657502881669973,0.655982642644565,0.651245478213717,0.630724052241127,0.617581244794339,0.618669766244389,0.614173021750568,0.608479427663949,0.612189957177375,0.614832903151693,0.618242443922954,0.541050035931248,0.329162923315022,0.775278468397265,0.939282547139431,0.878159022624641,0.484889365082465,0.657325774566184,0.724811642341624,0.725654046854222,0.726847006239182,0.729919379957968,0.731272844167998,0.732334740927454,0.731177860434161,0.726880444372273,0.728669020127298,0.734786750844221,0.736611286276842,0.735129779786143,0.748119871963592,0.791219571851586,0.768222973148487,0.797114474092634,0.938276185997836,0.939186581354824,0.817657606428243,0.790083115863795
0.831571192985216,0.916676949314865,0.955179975210921,0.999384642808875,1.14072242976896,1.18952897383474,1.19911943058759,1.21686728997784,1.2200130187595,1.20993636541827,1.21528654876375,1.23452208072581,1.2387975381279,1.25982809156118,1.24229107918554,1.23631310805336,1.24103190066806,1.24768556659217,1.25629422021676,1.25930238376202,1.2727776547309,1.27144164170017,1.27874170221451,1.29902351804409,1.31498122277533,1.31189985556835,1.31100966463513,1.32552955958116,1.3628588067587,1.39067570217283,1.41154904951755,1.41646544616084,1.40447525057698,1.40989216335633,1.43007274436228,1.45162698169899,1.43827771782409,1.44049534747621,1.4650551921947,1.46611615165883,1.4919335641913,1.49654167337557,1.52253928622816,1.54263900424201,1.56124270731539,1.55678667444035,1.539337425629,1.53018438950037,1.51176410591533,1.51686332055238,1.52870465134485,1.50810726594829,1.49876504211657,1.50290348206841,1.50819578963342,1.4955981676788,1.49344164303146,1.49853663570618,1.52064651324389,1.52391561030554,1.5172456441218,1.5009045425571,1.50584366419429,1.49726983140664,1.50205616486326,1.53512408033667,1.53612401581932,1.49368336851302,1.47914827751113,1.46462698599264,1.44426896082717,1.43828850422811,1.43446465862835,1.40441107787614,1.39158416092283,1.39066053098519,1.40040413698672,1.43056572405995,1.43357396763082,1.39572696305801,1.39480951306799,1.41601391476425,1.42135159201704,1.42210342798058,1.40379257156894,1.36637034227661,1.35098146033689,1.34897653996812,1.33913510579303,1.31440739720737,1.30611777361032,1.30409039267495,1.30768022782922,1.30016533125236,1.27423416555178,1.25769288192765,1.25281038347694,1.25642670710353,1.2550786843092,1.24417559687671,1.23040481542655,1.22736787060103,1.21466489474231,1.19339274361338,1.17269832789686,1.12414304870711,1.0681913490632,1.02453750300387,0.970034614562258,0.932672366747416,0.911838006225081,0.886113673799047,0.857710730510171,0.819611013981166,0.798485370270908,0.784326606221937,0.766613965012782,0.753454108493693,0.745399253254744,0.734677290543883,0.733239472875731,0.73724585211632,0.723843474133509,0.714081511336471,0.701936216760451,0.693997731875274,0.688753586580364,0.68216839313129,0.6695027242727,0.656106786744643,0.64692657721235,0.642826704419791,0.637556084891755,0.634888611525129,0.626286188154604,0.617581116156991,0.61459348877051,0.606080677539074,0.598034155773654,0.611021818494142,0.610771295530167,0.614626372286208,0.53644229350918,0.269289118388536,0.789654200775481,1.00861177148832,0.932541019400708,0.684773349004156,0.701691219138346,0.721751786554473,0.722392104006923,0.722959817295391,0.72591876515697,0.728269876705986,0.72869318433754,0.728730476721612,0.728162049452932,0.731407081175833,0.734649286314214,0.734713320242985,0.732983084399361,0.77812915108791,0.908758637016047,0.797476594079246,0.769406114939922,0.806563128966192,0.818305070993249,0.79353183206492,0.787739127441393
0.798776439360539,0.9068261611903,0.933857768905783,0.967962863919538,1.08828025064954,1.14374451532985,1.20211971833616,1.21819274144224,1.2416713178827,1.23760662588059,1.23417754067136,1.22347322356068,1.23952021701804,1.26744314793785,1.24313500654826,1.23398594096072,1.23410371543983,1.2370044103888,1.25720925084637,1.25580330360122,1.2610325871803,1.27514386557419,1.28654459306339,1.29714334130766,1.2990467898084,1.30009217828888,1.309570635572,1.32049732785837,1.35490776190094,1.37782644848311,1.4118804391538,1.41424477106182,1.40298240917163,1.41047385304126,1.42405642930431,1.42844210224283,1.42646050226537,1.43898754986313,1.46437047218055,1.45660976350517,1.46294496694752,1.47030840439919,1.49824212756385,1.53836772613989,1.54979643711439,1.53970988760884,1.52149854260638,1.51374375621487,1.49599826940722,1.49961917358765,1.49497967889911,1.48342029624468,1.48450870163634,1.49372970537549,1.51962966350147,1.49426170585299,1.48564487209891,1.50489231456767,1.52272467965161,1.51781466565512,1.49801683648462,1.49150774169533,1.4918665411515,1.48913962885197,1.48808823012549,1.48475111686763,1.4786743385799,1.46011274099875,1.44868228735126,1.44795698953487,1.42875520649999,1.41878720519758,1.41914744265283,1.41650371594298,1.39612849842991,1.39109329809171,1.39025207154784,1.39655272569449,1.41604742105245,1.38887927386064,1.38473631778684,1.38711421032524,1.3933090608219,1.40845615587617,1.37866698588828,1.36433815272054,1.36275295235485,1.35203498449525,1.32051561744955,1.30467316662344,1.29647628017391,1.28966181185694,1.28409728952585,1.27839722780809,1.2677758966849,1.25683522169017,1.24455001983918,1.24836413800541,1.26309852662712,1.24443998129141,1.19215701305275,1.16107394135052,1.14622241169499,1.12743243565656,1.09836799354838,1.0640324851088,1.02619969421875,0.971967588969866,0.939894042515903,0.905486652468702,0.888012286051522,0.841615736125085,0.814723181521714,0.798532062941511,0.781484479007371,0.766522490134855,0.755196264962506,0.741592830796958,0.739975389080676,0.732784060056577,0.717910326228968,0.721455818969833,0.708517600852193,0.689843283559243,0.681297988642416,0.681285222225041,0.673464149838188,0.673834359712215,0.660944818199186,0.649123225200866,0.632437004061995,0.628601956773488,0.628505925729222,0.624468413111248,0.608320846604022,0.599523410346435,0.595276853685191,0.606560093005021,0.604725669949455,0.619920846405564,0.625122880841222,0.611855385985884,0.495363921623408,0.357694673887745,0.857616676325767,1.09968262603614,1.01761179835065,0.772664894114806,0.718444922071523,0.720204910352691,0.720014755767298,0.718064403262957,0.719317004319283,0.725526023838239,0.728576326064946,0.730057010162398,0.731449725341455,0.733838428134677,0.733496190514275,0.732707706494653,0.732727259786906,0.755226619303525,0.794737200697208,0.768528794801825,0.760203890564191,0.764317907723955,0.779144616563902,0.784818623468983,0.787696399473059
0.759209833349508,0.837074601612246,0.907781317911139,0.957756634751106,1.03209099788245,1.0618279133487,1.13167201977479,1.17392400465877,1.2025182801478,1.22490996536792,1.21168536354572,1.20721465235665,1.23731711197418,1.23832678961513,1.23233950050861,1.23059431057723,1.22916101545499,1.22751985961424,1.23438807702073,1.24925951650218,1.26413499061674,1.28579243639647,1.3027536674291,1.32021303851314,1.30382758763244,1.3125922019734,1.33234662556397,1.34469735038414,1.36504864496376,1.3771675657877,1.40340344349888,1.41571490033537,1.42914788135737,1.41736071402026,1.41934898386198,1.42035629034907,1.42583203147113,1.44741471475164,1.45339025226954,1.46895838700472,1.46344690155759,1.4736602833958,1.52025380486932,1.52172225565481,1.51664415408374,1.52951348502272,1.50574334593265,1.50414693277891,1.50165860014938,1.51962683417812,1.50107352787219,1.47815870772074,1.4782911757976,1.48464553267307,1.49447210233248,1.47814855798422,1.46205847997763,1.47867936719453,1.49649870211204,1.48662465547325,1.49097603642582,1.49557196835034,1.4922606572775,1.48214425428799,1.47328884587426,1.45468913846291,1.44408678569921,1.43087769070001,1.43148650459191,1.44093982560423,1.43818984840775,1.40939255252191,1.40356583942327,1.40713826622761,1.39758319965933,1.39151662531214,1.38506123992949,1.37512080772991,1.37179954931969,1.35797532482235,1.36079530670927,1.36648087205245,1.37546749274437,1.39694706690485,1.3589749909809,1.34656456744301,1.32386053955707,1.31611211429543,1.30529502241188,1.30076401121192,1.29954901290763,1.29671459923464,1.30313714298125,1.28879765842291,1.27247525453629,1.26082003535561,1.23864422341363,1.23286407815787,1.24192163541079,1.20104257907122,1.15942926456695,1.11839968009358,1.1050381947202,1.06519053194138,1.02429204912154,1.01019927715167,0.988313949708892,0.937407873788409,0.905047253647217,0.880802569860462,0.851437365484208,0.823149164845737,0.801591067440866,0.775150573845806,0.771626983275578,0.760256221332278,0.745947794629566,0.736725154902585,0.734053152923945,0.727354371819855,0.710564832993385,0.702855040804757,0.688496690991752,0.680783519774744,0.673851836673932,0.671744703055109,0.666683409658684,0.666157169547246,0.662208360110112,0.645887946809682,0.628342295887736,0.626081750654349,0.630679599928168,0.620642561330398,0.602046761361283,0.586986888417992,0.602409206754959,0.61224351766208,0.617778773079121,0.622810225190618,0.626648428610767,0.565008083637168,0.378915920246633,0.675072205943927,0.899360132263257,0.944819270842366,0.807055832111105,0.724752437127862,0.71410137267002,0.71746898268131,0.718458102868486,0.717781630467421,0.717389279754787,0.721791125796744,0.729475356357033,0.732929183439549,0.737736754633481,0.737037562809161,0.728404148618973,0.726461240366663,0.710942145849261,0.667603772322307,0.736332126923314,0.758163648611298,0.760635860798683,0.76582071417199,0.778325691308672,0.783823662876026,0.787873658481711
0.755102160323883,0.818764320380056,0.871739620591016,0.91792932571073,0.963272811395912,0.97706115042976,1.02054043471392,1.07835566838738,1.11809175187659,1.16412029519983,1.17946382007263,1.19523026325395,1.22992587157674,1.22440859379576,1.2229197776899,1.22353664132662,1.21761086362856,1.21851573196892,1.21690992516512,1.23771526684814,1.26227025047974,1.30349941735815,1.32027872663044,1.30818711859458,1.31035418261827,1.34509033994585,1.33521952206981,1.35005929256787,1.34453445344244,1.34923835936378,1.36142520934724,1.37660261665236,1.39727340555625,1.40371069140401,1.41243792972764,1.41902763013179,1.42104372988597,1.43703440076882,1.47199880743637,1.47413125906413,1.45790327061273,1.46762034855883,1.49502044396601,1.51420113320552,1.51821170756998,1.52381337717724,1.51785583170788,1.5121638629153,1.49984825886366,1.49366821798161,1.47584815559664,1.47714791146432,1.48580975443139,1.4760420846326,1.46947141584806,1.45997794809516,1.44853461977856,1.45073007309849,1.45792881633014,1.46968365140281,1.49816554476888,1.50714366358858,1.50619576174157,1.47500542316223,1.46029356230569,1.44377127603191,1.43017396271738,1.42736253255717,1.43540914613172,1.41126917915891,1.40338951465039,1.39546765868872,1.40157064654678,1.40451756645844,1.39930940047607,1.38304809063887,1.38268714994133,1.38944017498888,1.34749142052146,1.33268876775071,1.3406437320182,1.35019235433073,1.35919814019844,1.36729034575924,1.31588352416224,1.29063349139741,1.29044416537371,1.29913189371781,1.30263746020085,1.2986386243343,1.30311302451773,1.30786957709259,1.33748048401715,1.31408926645959,1.28170694112447,1.25236291540843,1.23399797623127,1.21812177081604,1.18957036436453,1.16389230158276,1.12744531298687,1.09155855390101,1.0777916382433,1.02559359368363,0.993133369512444,0.971211061098901,0.939761997960131,0.911684370141525,0.884992116828582,0.860360940474448,0.827357833564405,0.81036366130944,0.792495896691174,0.765083809324364,0.754491555010988,0.744614490591477,0.73857948092846,0.73658265101055,0.721238393711516,0.712255505327618,0.704928423076802,0.697769501865929,0.681984175743664,0.675341068623334,0.664260854942291,0.655149062280167,0.654866561621914,0.653360737760137,0.646564727680407,0.637285257212734,0.623007795260689,0.620417850184261,0.617119945397581,0.604235860213645,0.58928967174442,0.579577313984956,0.586837434958765,0.614519418455384,0.631103444157675,0.634640612056291,0.641290217186226,0.632846299106039,0.60865734941972,0.699013427640024,0.744061045751606,0.776103333107213,0.721594259105603,0.708006770656188,0.712834340163598,0.71625822011137,0.716928763242536,0.715506357131172,0.716604916574693,0.723097593571759,0.730890809472992,0.735242913399512,0.738689924840189,0.734494643953819,0.725652558086752,0.732061569659529,0.683586270418697,0.426090526956177,0.672081675238308,0.755866169337706,0.763928755701926,0.774964417176534,0.780320609186741,0.782974236411453,0.787414263810124
0.755040760102002,0.81039740702278,0.845209964182912,0.879837696041579,0.894556626945065,0.902498671608494,0.935849972396604,0.998987199750738,1.06268349296972,1.12521830248231,1.15986369708687,1.19948536773996,1.21829279027622,1.22572799279624,1.2365288719031,1.23327024232047,1.20843077189324,1.20356319938558,1.20554646616406,1.21882484344838,1.24357601742884,1.27340969347696,1.3201501710978,1.31482802204984,1.34061489876464,1.34530078017995,1.30821265164762,1.30651423283216,1.31374619874261,1.34758583617101,1.3525559405266,1.35127419969105,1.35771623199913,1.38683640804909,1.42204008263812,1.41695941691363,1.42024141370726,1.43686845480512,1.45202683212576,1.4232547229309,1.41882739243422,1.44454432593545,1.44176362329565,1.4766565727039,1.46801248573927,1.47181491183277,1.49429941804511,1.46579533499692,1.45408735526027,1.45122722009394,1.45461094131638,1.48283257806346,1.47665327974598,1.45998701153794,1.44580983989816,1.44155408598285,1.43776667484208,1.43615946312637,1.44031853871445,1.45653619190568,1.46480118491453,1.47352820510846,1.4918611907292,1.46568865250073,1.46285567192779,1.44624987049508,1.41896352599584,1.42292726652994,1.42093889385977,1.38683890131502,1.3813403369824,1.38696281265682,1.41037086870254,1.40719313260135,1.39360880795875,1.35073783697738,1.34586802282675,1.37148279250263,1.3368369814618,1.31512107738883,1.32039331342685,1.32360356130815,1.32259436344387,1.31896217349359,1.29201864472393,1.26799129714476,1.26891590121437,1.28779513105246,1.31662002951964,1.30610697120675,1.31707901257889,1.30648387159336,1.31716856118798,1.31512510386847,1.282739052875,1.24853297133833,1.22841433346515,1.21221417607973,1.16667950359829,1.12700766231781,1.09620008829521,1.06760840072311,1.03429433692794,0.987879834560828,0.963731460802173,0.929608775804419,0.907230950591701,0.884380905796483,0.85556309764484,0.842197498632849,0.820363423168795,0.804513180518385,0.790289185884773,0.767036673847013,0.748762418173889,0.737242688936743,0.734748774183125,0.730987962231762,0.6970224407399,0.68947910753475,0.696931896015787,0.691487954913464,0.673243705580055,0.666011793403889,0.659349092897097,0.650382336669734,0.644548988281057,0.646429905184553,0.640708355357904,0.630082262741774,0.615802068696372,0.609654732485635,0.59482485241361,0.587636776219246,0.594052665123159,0.589480286085548,0.587683935088221,0.620847720070559,0.632906474562705,0.643264425631205,0.6543406887524,0.670892794549797,0.680207337545784,0.686421213601205,0.725453322640455,0.851718458278512,0.783912669686197,0.71660138895064,0.709323165146208,0.714300807648581,0.696266093287083,0.635408831077083,0.69480553374432,0.725275023924864,0.731360543453394,0.734588986360864,0.715006647021686,0.647385290070492,0.703046321700994,0.769969284671982,0.881515448411529,0.630390728471334,0.712370717629263,0.757773013254543,0.771344161626985,0.779259554425418,0.78215559365367,0.784892887818749,0.787922124931079
0.731805048924092,0.759817198452953,0.779365049615195,0.833881062233219,0.849304633984522,0.859819262799696,0.88830203508639,0.942488780366055,0.995360824813648,1.08959712862672,1.14213434261116,1.18587215260796,1.19404986562509,1.22875476129233,1.24897287188702,1.21125804740237,1.19551869060212,1.19000477152782,1.19646533813561,1.19985502466061,1.21737618414077,1.2499824338635,1.29027036683274,1.30278043560815,1.30860037076223,1.29402214578645,1.27424455983667,1.2871819757099,1.31037715504034,1.36768947281657,1.35885180007959,1.34820979450745,1.35176585300977,1.36639148609083,1.41397807391894,1.40675584051831,1.41436902816528,1.42719912728014,1.43973720575246,1.41075810546471,1.40641431255103,1.41738383447781,1.41248391816068,1.43223248636621,1.44394581034973,1.44950144721802,1.45422462915156,1.44605707583501,1.44235937802109,1.44240284428808,1.45035089230982,1.48123158460387,1.47703602683244,1.45247283366941,1.44574131818949,1.44970048227398,1.44755655535684,1.43761434582965,1.43534188294951,1.43726495197111,1.43298405390343,1.43881795454796,1.45057555284402,1.45290802203355,1.46783776333307,1.44712184480192,1.4097086158276,1.40270595497635,1.40009549502369,1.38840824469721,1.39965653716995,1.40659794258392,1.39933336085548,1.39297389416209,1.38209467365581,1.35565057422359,1.33251861347318,1.32015262096142,1.32281120678612,1.31363937333021,1.31422565924705,1.32252203562318,1.29685557181587,1.28494281978679,1.27104395417333,1.25302399509403,1.25307031261494,1.27358274940446,1.32074406724519,1.3099512718368,1.30327038166939,1.30721339737451,1.32856454428299,1.3277015131122,1.28597125038545,1.25097487498203,1.23986446632044,1.22036749277227,1.16648075529859,1.12803735985767,1.08195733257641,1.05867147046446,1.0242400383416,0.974278618795145,0.938590668678941,0.905942930707861,0.8909326817201,0.866894595063328,0.839472648474054,0.825588965677615,0.807762592710051,0.797299606647312,0.791187388048688,0.768060400946601,0.748766168467072,0.733427771681316,0.728707638762864,0.721580304188342,0.685265253417662,0.679196154539622,0.687953704997781,0.681315222724848,0.672465456922529,0.666208851145932,0.653621851368781,0.640799538717097,0.635015442741617,0.631106406423293,0.626222936802334,0.624112574340752,0.620615620510555,0.610001862167496,0.606368033192907,0.592777494826408,0.595457515584326,0.588298173043678,0.590926550585239,0.623114803073154,0.627330858141099,0.63274073532969,0.645782230624085,0.672063945006347,0.681396423652829,0.683987205563716,0.694305911010286,0.772457975766569,0.909538702903909,0.790850623390649,0.720660244199678,0.714349571839947,0.638164284191385,0.398820830197479,0.631306071085437,0.7245543037384,0.730638207059404,0.713065033799868,0.573909468085979,0.384909848448952,0.639071877967337,0.787758962273132,0.931535311017462,0.526854793751493,0.71460917285705,0.768472732671415,0.775315456938914,0.779916229461094,0.783209797580874,0.786690371623734,0.799676964941467
0.693859521014205,0.730682511693171,0.748479216458085,0.800121472326408,0.821782422879886,0.84342541891784,0.85880280897259,0.891765642483544,0.934098140257487,1.00021683737277,1.08911337768028,1.15013806286277,1.17549246565067,1.2124583628127,1.220212880191,1.18492823980594,1.17788282051591,1.17795276158513,1.18835889422539,1.19298501462804,1.20470032728593,1.22580207420042,1.2476000683208,1.28612712488563,1.30306020966295,1.28540651983753,1.25707648457381,1.26462572154058,1.2853496996944,1.31757458553933,1.35196571566091,1.35292031152547,1.3764264729914,1.36455127280698,1.37685132741106,1.37867357807613,1.37497758361583,1.37641067844888,1.39477670684943,1.40568180020394,1.41418465900505,1.40801273746986,1.40060583140565,1.40497362552152,1.4260125553036,1.43608108702926,1.43832537805296,1.44663128645768,1.44471028569148,1.44108400935203,1.44602456393309,1.47401976487437,1.4732082269586,1.45607798008344,1.47168820031269,1.48380869525695,1.47830501594074,1.44979123443667,1.44338117772275,1.43962047567087,1.42129618474017,1.4195424216763,1.43071641984274,1.44166832383078,1.46338199319839,1.43007779606074,1.40301940009311,1.39464634175529,1.3894622365845,1.40256864307427,1.4043292012672,1.42502088110085,1.41189743776891,1.39866886153569,1.37984677864116,1.35831837384619,1.33573886078769,1.30708479351077,1.30962816228253,1.31222729029109,1.2984319345937,1.29452946239747,1.28503413649828,1.27319314251799,1.26176509170345,1.25285931726541,1.25571245863607,1.26702046243688,1.30314504890304,1.30017353028994,1.29443936550577,1.31418570531843,1.31149897787551,1.31254977507519,1.29163769263475,1.26910284361367,1.26226594374384,1.23760498291141,1.16518291738126,1.11768229870966,1.07107663480852,1.03554431765729,0.999388508555128,0.950898566062334,0.918966129598318,0.895880342495618,0.879607914886329,0.851024568504907,0.828524933925423,0.814688304316421,0.797703712456114,0.783256026684002,0.77101870932425,0.759041517910411,0.744467698355238,0.738378668566758,0.719098346744244,0.698588912624799,0.679840579030321,0.677534920506524,0.692560141926864,0.690153895765275,0.673190685689139,0.664055921798882,0.644770309470238,0.635592327366494,0.632204962331917,0.627975772720037,0.621029965053195,0.621807894551619,0.619348930385534,0.604161380963905,0.600582939423801,0.592894346290484,0.590186035933869,0.580513837431592,0.587165956491819,0.615247465413834,0.612344520914658,0.611230031225092,0.604363739156864,0.592977900261819,0.662054831147906,0.682678479631982,0.693122174369593,0.734731123692575,0.788690856087064,0.882397904582833,0.752015182605196,0.713738079778881,0.677606377963402,0.566321809198071,0.712334560459001,0.75312193759475,0.65900129585106,0.627721106411897,0.383040813542239,0.552438353629257,0.691353389484227,0.780317490482902,0.982659111597299,0.90170566767338,0.946914712840722,0.8091767943176,0.778780657788206,0.782325669663228,0.783974433289033,0.786339727708021,0.838684919236639
0.674398447070165,0.704698483733844,0.707781659920783,0.74414584976922,0.779341251076488,0.815431127659984,0.834113875242726,0.858878234498553,0.898375791037526,0.978084232320082,1.06619314557076,1.15076915563789,1.19278734984717,1.20873781534818,1.20815450795039,1.17439213853077,1.16406561077298,1.16657819007218,1.17368456196781,1.18784421372615,1.19963057046865,1.21532556337852,1.22364864690162,1.2436517140945,1.27759616085067,1.24783838631466,1.25534296012167,1.26173164584926,1.26870064154065,1.31339832726994,1.34599181773594,1.35081089104558,1.37653833857753,1.35903061311102,1.35448407780283,1.35786580235862,1.35597291185314,1.35756740826667,1.364547159789,1.38847064178071,1.41858120442626,1.41440691765372,1.39905260560521,1.39772886691064,1.41756188702408,1.43466475410438,1.4497099205702,1.45331044425852,1.45348406095931,1.44124477808704,1.42475840274886,1.42755819811929,1.42422856850233,1.41930652258434,1.44964808823394,1.44864322956759,1.4509414601182,1.44968172290161,1.46479777697093,1.4588648472126,1.42614236103815,1.42158977996912,1.43914315769294,1.44569968821431,1.43619513963883,1.41256393754881,1.41995413886414,1.41728488133809,1.40446223621827,1.4057607381811,1.40424505407355,1.41658323580788,1.40266352442741,1.39015935852317,1.37269695195963,1.35494820510304,1.33608432437802,1.31284611513884,1.30560105574347,1.32012913390603,1.29069991051109,1.27626930186294,1.27436170703117,1.25569611950376,1.25047030570595,1.2493131351644,1.24861905592653,1.25157663195768,1.25831627470151,1.25154081590888,1.25503764736724,1.28621986715109,1.29367538022424,1.30666201858013,1.29875608549443,1.25138390294198,1.23574695829225,1.20841553447351,1.15892914607094,1.13169307655115,1.06017144011316,1.01607945439451,0.956182512301353,0.923223107399864,0.887044793743024,0.864580658214407,0.848350654886895,0.824646659145375,0.809192956763492,0.80763748406872,0.78853573288909,0.758912602709192,0.748281634642959,0.745018690816987,0.748870650949552,0.750798695899938,0.736987052126525,0.69206673185115,0.677452148921706,0.681964587817734,0.689782612064238,0.695237553707814,0.659296324038789,0.660488262101153,0.646410860337735,0.632342121296918,0.627334404669672,0.619731936085684,0.613792118867406,0.61181498090235,0.607966792981403,0.588146740525731,0.587694662742586,0.586245395283187,0.584715327865276,0.585657085830122,0.589923283510712,0.59784966595314,0.604797063776772,0.608183034567621,0.545077841710942,0.3659714498669,0.604205860144232,0.682882881507679,0.724751317109519,0.817894326420608,0.66026928410855,0.724300316605336,0.717503491693026,0.707551376152207,0.631358007613754,0.436265773732239,0.848225367155549,0.884847914033068,0.452039612102704,0.60954000732544,0.622706605715219,0.682229118388096,0.710461767885203,0.734960280939896,0.78691935596387,0.839830233042262,0.978466909497032,0.824984111806172,0.780267923427606,0.781828798184885,0.782941871661992,0.784864810337586,0.837557447685299
0.646689923082458,0.665632797038676,0.672334715471565,0.702199189722346,0.73629801238972,0.781988307473659,0.808967305044229,0.838612185334214,0.890016727439468,0.998788657888169,1.05670480518428,1.09925443785826,1.15875827676545,1.19268307846332,1.19754542288066,1.16690237799527,1.15902958171225,1.17062923211048,1.18095124239188,1.18933895343552,1.20005612572521,1.20416798705081,1.2036281186097,1.20736175705863,1.22178460124207,1.21977880580695,1.22365432442073,1.23126898477076,1.25937721099503,1.35137857263579,1.37181699388097,1.35105486606705,1.352919253308,1.35015408325463,1.35075404605292,1.35702763609222,1.3545605683877,1.3551472479311,1.35615167094601,1.36387628040114,1.38388982667252,1.39244551220293,1.40248859705062,1.39621507466829,1.40821346658527,1.45262632506677,1.48108993131541,1.45550148415321,1.45492505105897,1.44576873148107,1.42139525730187,1.41000612989283,1.39721301984525,1.38469014047579,1.39408554053135,1.40760856212079,1.4324588757804,1.44338294374948,1.45025460378805,1.45546393568372,1.43990320110255,1.43285992035654,1.40944365467862,1.40357885370958,1.40391823198642,1.39959889748902,1.40053352193701,1.39743384995466,1.42056407453101,1.43586147817609,1.42244134982359,1.41960471640747,1.36647228975387,1.35132840285975,1.34942948159378,1.34403700460894,1.34486053426859,1.33381568518386,1.2978149175126,1.28049825398857,1.25937998752235,1.25094592184088,1.2477514175045,1.233693020643,1.22951866609224,1.23360013882137,1.23899595687888,1.23863645729259,1.2505106466704,1.2370293436835,1.22937756089869,1.24152426880433,1.24659046460341,1.26772163532567,1.26994535308952,1.23535619721766,1.22800108740949,1.18674132777174,1.15136574693514,1.12065361743344,1.03934392022378,0.981603231220149,0.927238306915105,0.89658647801685,0.84801854537672,0.833038257247319,0.828651693504872,0.818958049588825,0.810640047084927,0.798541093700105,0.766160972638813,0.742227385207827,0.731840664505316,0.729789019283362,0.741928143875435,0.740124895240136,0.726674847436421,0.675815265132156,0.664976843102333,0.6614708940451,0.65094551778867,0.648513594390421,0.641119580553723,0.641781616287473,0.635894083896915,0.625931690796483,0.62382170515659,0.617559331928219,0.606350277180167,0.602083394705813,0.594511185755921,0.581104081109771,0.578379164921983,0.5801540204531,0.579573313473632,0.580608049588334,0.581623235261062,0.59462082554604,0.605202901939004,0.620975484608436,0.626717486179007,0.521049697602953,0.651794484975822,0.739948408066626,0.721171671335955,0.652854245727467,0.398293364746465,0.636206587851705,0.729202788818967,0.646192383539393,0.690710083719036,0.675929787603822,0.973185773657313,0.993861617356896,0.686125255434246,0.680268648604751,0.698156060809435,0.703692792627262,0.719300287847733,0.726788602080102,0.733248840364378,0.756622979509982,0.800032496225348,0.779550038401748,0.77819210231953,0.780464672947702,0.781280404958057,0.784107412629447,0.798166006104109
0.622512505932414,0.63730154693198,0.645412001483357,0.671772285975735,0.709437605813807,0.743877005412811,0.785062291471263,0.824869785997864,0.873799488501907,0.97252580392625,1.04660320347194,1.11150520005138,1.16152993979293,1.18490056062294,1.17706670002644,1.15776408115777,1.15311708504681,1.1625192175421,1.18956654797197,1.19589054725827,1.20124084968933,1.20436540856092,1.20298711515523,1.20055714115902,1.20166367825985,1.20360200802313,1.20398531592011,1.21029934381941,1.25128367430673,1.32589408533018,1.34303314256685,1.34301386143521,1.35641456980564,1.36230051909923,1.36291767465347,1.3635807151739,1.36015815980508,1.35625882516573,1.35548457475622,1.35890765801436,1.37665967700409,1.39894791504385,1.40813395541194,1.39479198362056,1.39794782633432,1.41117849374009,1.41886765000555,1.41660852696033,1.44279982256717,1.42748684671388,1.39657476006604,1.39852980177351,1.38175089767125,1.36821730161876,1.37884710207556,1.3856344923544,1.4032120813225,1.43323190459077,1.43129820726378,1.42657208350688,1.432883555325,1.43939085367558,1.4006207216217,1.38914033025485,1.39482234021256,1.39406598082216,1.39732892941094,1.39554526247115,1.42593276786831,1.42670384349104,1.40781818059236,1.41264850062232,1.3562316774442,1.33021437354295,1.3287490428284,1.32563627056333,1.32539115369055,1.33297201925247,1.31662968483781,1.26496443053523,1.23957294886666,1.2249480197054,1.21991955697551,1.21521026366402,1.21175877543518,1.21862514180868,1.23830283899777,1.23224652656655,1.22313550466708,1.22036962409306,1.19331092949947,1.18208737668456,1.17624312805635,1.20855825587949,1.20027338913344,1.18906320016115,1.18873043789324,1.16071721710874,1.10917413041201,1.05426218598435,0.996990110467991,0.951287596764625,0.907219718166359,0.865346540061303,0.830588482662426,0.813171752984843,0.81375933763487,0.799523720007158,0.790863349658376,0.777054237004306,0.755991157538109,0.739662981251679,0.726904591716367,0.706720355271994,0.695122778291394,0.675587070678008,0.671772912621442,0.660935384408777,0.655441570074519,0.647237575142797,0.649870251447326,0.645330195358412,0.641571454593856,0.636545723306328,0.631886399996352,0.623755741265613,0.617916663706185,0.61220518965239,0.600827972134849,0.586301410285732,0.587287517870654,0.586296785675101,0.575582518390089,0.573801174275496,0.564546802577918,0.568178587749097,0.572624548697089,0.58670679384077,0.610215525040044,0.66136713747718,0.728673846865183,0.410658955256626,0.663675852560254,0.909468926364627,0.741362527987686,0.685893793350277,0.623850055090747,0.723573401038819,0.804879671867365,0.474680815131767,0.788226877771354,0.818520318300959,0.960960307537346,0.963811819332932,0.749947572105678,0.699818838804135,0.702777866251347,0.707756834761371,0.722504517776721,0.728518281034891,0.741136042271938,0.766043109125823,0.759784583429444,0.767775096730391,0.776646986168564,0.779397984825023,0.780461566393329,0.783878837281819,0.789357985590488
0.609231568399417,0.622746534931023,0.63841953638349,0.6506155906775,0.694491582627354,0.724175756736053,0.766945499048445,0.805471111183576,0.863293362418182,0.928590189611964,1.02013895387291,1.1137636452712,1.14380786305095,1.14014168287156,1.13281632917637,1.13461725018339,1.14313097795578,1.15561868273794,1.18550354182372,1.20082768744099,1.21693921018827,1.2118231914616,1.20589193258963,1.20241510539621,1.20108696653396,1.20409638039628,1.20613163891804,1.20368982799703,1.22482103739114,1.27866351731781,1.30105447033729,1.32061811067593,1.34816473007664,1.36308478679603,1.36270896415792,1.35581702774639,1.36489788144751,1.35871716197965,1.35763488854484,1.36615317352508,1.38346291238145,1.41076892971212,1.42039999715669,1.40156373771518,1.41023810507117,1.4024229793571,1.39674466528321,1.40359182508406,1.43398777842131,1.42081521547243,1.37558722448657,1.35457119274058,1.34978385704158,1.34341476202964,1.34577351936201,1.3602415631551,1.37724064966381,1.419571431255,1.41338854003466,1.40728431355958,1.40403466176521,1.40191795322474,1.38642828160174,1.37163658901997,1.36945015247194,1.37165534920825,1.39188565842904,1.39842255428483,1.42274717782455,1.40340699217943,1.38838764643574,1.38162314764996,1.34981616639391,1.29177053198117,1.28276249411204,1.27434100788321,1.2669688913979,1.29269584101726,1.29410157404049,1.25155505606617,1.22985066348531,1.22030944790756,1.21453202418845,1.21210865146684,1.20919318233306,1.21529006450163,1.22049689426564,1.2146017013572,1.19891700865927,1.19949318385926,1.16042057295624,1.14284305106022,1.13944279432696,1.14082264833265,1.124621865812,1.11924831419191,1.11790273038806,1.10792079256171,1.07223513688191,1.02844802027254,0.978378737649376,0.931616579155906,0.890491906510835,0.865353651224736,0.828653287070233,0.80357699895746,0.794260326454417,0.779577284625331,0.770596405310358,0.767359223315287,0.757073449284543,0.742956408375943,0.711857860026621,0.68788084976771,0.662936456699692,0.644926742521059,0.646739519952023,0.647461590107276,0.644081557041681,0.644270703781004,0.638964802904199,0.64044827030092,0.638528022864476,0.638436562510635,0.635961794024546,0.627871799738498,0.612695438360244,0.608408705970755,0.599336158497004,0.586443044396327,0.584109212704792,0.580252064138496,0.572403069456966,0.571259940661839,0.563036992465155,0.578397630768986,0.584727171640297,0.593362903710455,0.621763880552426,0.66865622887788,0.692619249634606,0.623382520273997,0.724216163812073,0.765954331276058,0.697260788933832,0.692940115653598,0.693566944906608,0.699787133372984,0.702578014224385,0.619491698455799,0.755796704982147,0.93058763269223,0.79502262436832,0.744615469308167,0.713839006365751,0.740472616700517,0.723725500966771,0.718267340576616,0.723435197388011,0.729336097316081,0.75888406776259,0.829728203661121,0.778794412934961,0.766028594453185,0.774850943655429,0.778001926813734,0.779680752884398,0.783480375206332,0.78855173408743
0.598379535232892,0.604734898551994,0.629360130199359,0.639564053449906,0.666342730886229,0.685288623806066,0.711830912901327,0.787384669986874,0.851674635948918,0.892344865966686,1.0021752145086,1.09403036823206,1.12614617539411,1.1090108417021,1.11242824532824,1.1264222130903,1.1512811330955,1.17696275638386,1.19537139142377,1.21592547656016,1.23707609277685,1.2250221882971,1.22193993084559,1.21277022800854,1.20681498546751,1.20654616200365,1.21055415526586,1.20665477174444,1.21976081162898,1.25948139692124,1.28949390730922,1.30805959783689,1.32248719918265,1.33377239457414,1.34225431084177,1.348784466555,1.35463142084894,1.35522786255401,1.36171179982254,1.38753598055884,1.38336070856299,1.40337040982351,1.42093721828172,1.40078020558811,1.40844767159973,1.39686813758607,1.3823275528485,1.39582474277598,1.41313058097085,1.38665664875753,1.37308804843102,1.34137402451044,1.33632542417479,1.34228206768911,1.33789682014562,1.34668091321285,1.35523087062358,1.38769351939519,1.4030687160773,1.40015416726594,1.39246990283552,1.37641531854177,1.36457740095553,1.35322037450225,1.34208593105476,1.33272840547117,1.34457891557106,1.3579224390183,1.37501787930518,1.35420610711669,1.33542622322967,1.32804476002904,1.30739038115508,1.26220521713798,1.23727264899588,1.22320085447094,1.22332902296007,1.22353084402097,1.21462144679051,1.20873740424575,1.22011532045314,1.22171990890037,1.21116388681469,1.2095897913284,1.21193195164998,1.21370144565735,1.20479243987603,1.19585882562065,1.166038235497,1.13522338037277,1.11645329000493,1.11019501287883,1.09035875161563,1.07383728721548,1.06602120599604,1.06197810024291,1.05994533223704,1.05530373460043,1.03438097816754,0.991949069711271,0.944939975873456,0.916235386601759,0.882361283834606,0.851516954572464,0.818652873706093,0.804679038569426,0.783030508372488,0.766700582919553,0.760058244921793,0.751068241214167,0.742107757158262,0.727504658862584,0.690641309695449,0.660887168313778,0.645126445822772,0.647728125883679,0.641206613270427,0.636750127057986,0.632813745917304,0.635438494251172,0.630137180757357,0.627474709220053,0.632276656282412,0.633937843784827,0.637655961296902,0.626644893209327,0.611767960895828,0.607300446511805,0.604879205533856,0.584541265809842,0.57272122007271,0.560259933044985,0.557306904165112,0.561851341418773,0.561794775665555,0.568534770641653,0.583239328920836,0.599645045444176,0.592265791442366,0.747006428627027,0.749297481500507,0.740015626510593,0.73763366842298,0.698597224813368,0.685629423536914,0.688286017181977,0.68549120161637,0.674138887045181,0.668362697838867,0.667578862397764,0.726774111657168,0.898823538810848,0.738392797044329,0.68981991213982,0.733762079982224,0.877084330559632,0.805897780783042,0.732383116356365,0.722432940827598,0.729623874487716,0.749406804341575,0.777604173157325,0.767815085086993,0.766879563058076,0.773497833573713,0.776685239402701,0.778943233156303,0.782295791821234,0.785901345364984
0.569677950578588,0.589850906311708,0.607416154704328,0.621034949376426,0.65621645460186,0.695220816133908,0.71954942400132,0.779549585777274,0.848983568251737,0.888293799636906,0.982660740631831,1.05448571276215,1.05842775295876,1.06345489202916,1.09851111497258,1.14022694461326,1.17488761652318,1.20898554919837,1.2239288607133,1.22077305402072,1.2252922013057,1.2304842653396,1.24596226249352,1.23670434210905,1.22136149655104,1.20915982940041,1.2030771400858,1.2057468529241,1.2282095659863,1.27554632107795,1.28957324531793,1.29415248177632,1.31268888048469,1.32356146448258,1.3451080102501,1.35836065574398,1.36958460592497,1.36185162683214,1.35741839047239,1.37063874175392,1.3732826057447,1.38560300140345,1.38957656059317,1.37401933093756,1.38031540668997,1.37188991501887,1.36202654380742,1.36292031194873,1.36269008979406,1.35556484862831,1.34898777880716,1.32966975601611,1.32655575316285,1.33104508492408,1.33779050390108,1.33806467776457,1.34191036234083,1.36713193907147,1.39529811875854,1.39171752734653,1.37354613351852,1.35128601379039,1.3522081691208,1.33297011070042,1.312147016055,1.31562452305126,1.32660827527334,1.33839878778667,1.35878161162905,1.32849712747038,1.31228595822415,1.30457483044526,1.26647738373592,1.23549109693947,1.22204040340683,1.2079415213382,1.19880705179016,1.18955771599141,1.18352422611195,1.18462745396093,1.18966704419877,1.19016686047519,1.18309080098668,1.19017323740952,1.20843776839983,1.21622528453862,1.19920407594593,1.1768993359773,1.13252557287984,1.10473747940624,1.08125282184421,1.07356668443001,1.04336016305502,1.0318336857221,1.03091220596831,1.02577536364784,1.02132759308758,1.02006919675576,0.983322612021903,0.967968854312897,0.931738323879791,0.897551074121392,0.870248828233512,0.837231792936967,0.808480519335306,0.792378154817503,0.773838981481693,0.760059332308402,0.749066262831332,0.739926666593814,0.713743409839384,0.68615711598653,0.666660922792846,0.643970907055812,0.633234640813408,0.62633607583697,0.627144046743927,0.635025188511724,0.632242044079808,0.625765328410132,0.625533637906503,0.61926952076382,0.624569125796029,0.629596308833941,0.629946104846519,0.628990792408599,0.613876992085573,0.609677454723813,0.593886431587507,0.571704611263138,0.563653428676317,0.558239850541628,0.560458404406964,0.565121453523112,0.560749380347412,0.565167173348911,0.583324818558435,0.556404280438236,0.425942118352022,0.862896874407906,0.822126196233446,0.743659775217262,0.700949311821777,0.684602990449453,0.683808369029645,0.682643672400514,0.672288192861679,0.668108352145756,0.668004034239064,0.66906482763712,0.686529575481478,0.725586935782335,0.695335088124267,0.690935559190319,0.709915990083028,0.811046804334025,0.97850565014362,0.782110953285591,0.722479426916217,0.731340447521133,0.755408907744315,0.763955561791511,0.765924955917262,0.76807989921481,0.773599621066002,0.776882154511342,0.779728854858064,0.784318748270132,0.785948196027771
0.560701674288838,0.577100555295883,0.592688193264152,0.616327578653077,0.643978211976289,0.693033560008779,0.71860514262389,0.769362102859505,0.837734935964092,0.87851338945132,0.910515707487512,0.953900544994682,0.982659749685152,0.997558073370715,1.03606143548123,1.10768111585728,1.1452854089715,1.17644094038004,1.19527052339029,1.22521058302516,1.23890912306244,1.24365253143367,1.24393280597197,1.28281732016645,1.22895594563187,1.20446936628278,1.20319607520278,1.21667075677377,1.24067546711605,1.2844853156852,1.30172354854171,1.2953711728006,1.30701978695589,1.31236930503742,1.32222356811362,1.3447808645119,1.36638680195735,1.37080916831671,1.35527386714036,1.35885950760127,1.35843752118242,1.36024434727959,1.36424984545185,1.3593151581428,1.36199339072752,1.36340058647424,1.35795587134387,1.35016350069373,1.34969540620944,1.35000353361074,1.33385774612648,1.32698687135433,1.32665291899134,1.33237574038368,1.34759072129513,1.3335966559913,1.3279530684383,1.34466227279347,1.40358089214415,1.41357324735761,1.38675673839737,1.33115132944687,1.3200501867173,1.31747265301015,1.29675398564932,1.29510745753526,1.30543907807997,1.32375180138568,1.34101811796491,1.30806545987264,1.2843329978901,1.26831508288499,1.25134717528803,1.22785207772196,1.21967631132911,1.21841745596263,1.20786164761262,1.17560565213454,1.16748758225654,1.17116508024165,1.1682832846655,1.16849602576889,1.1748502832372,1.18414252254272,1.17723063393403,1.17167492610797,1.16432417951626,1.13034780793012,1.09750853677085,1.06970977144542,1.04536465116182,1.02029104492669,1.00095077158,0.994998240371432,0.985596127365039,0.978549272550289,0.964290226763536,0.956936469548973,0.937802616758583,0.95300763489197,0.925654027809326,0.872923237615792,0.843801833462258,0.821735365994341,0.788900691154778,0.769254612956889,0.766141062337734,0.759313905429983,0.739724981811487,0.734851444707016,0.702890666436448,0.675482739258246,0.660407761654701,0.646826818133346,0.63219162349412,0.622466637445545,0.621755900851826,0.623667418024971,0.620045376712324,0.61723809234761,0.617508310344951,0.618057679240607,0.62156365712634,0.624189697157269,0.621826947243438,0.625280514977598,0.606184275893801,0.601331143406411,0.587357736328631,0.571503263533657,0.572207040787495,0.562719572309776,0.568999150006138,0.571200872747312,0.570510585286782,0.563946759699982,0.550027617348833,0.620947788350886,0.663665580549765,0.907544170704667,0.91034620652726,0.781990279716653,0.697768305853853,0.68362478987793,0.683341497177768,0.678815701411898,0.670028011394837,0.668354123175055,0.668961225882776,0.671330467115714,0.679947307941013,0.684548111374079,0.686689878229802,0.692774544512068,0.705861536302182,0.77437347322791,0.96995599364363,0.783283419389361,0.724058388458783,0.731195151988471,0.758987442602538,0.766621474937451,0.767931663087178,0.770179102089891,0.774562100712379,0.778047599411146,0.780689206773189,0.785268338294872,0.786579514009153
0.537452810103692,0.55669178777214,0.577924027832956,0.610305182014594,0.643881599454187,0.682370164656053,0.711455698601901,0.763363702030212,0.821465894304781,0.845371466342078,0.864801234521486,0.889553875344721,0.91551642688133,0.948318844314202,0.989250093291105,1.0576765904621,1.12948931247417,1.16221482691506,1.18587887420016,1.21203217146056,1.23506338841365,1.22449689925013,1.22344941197818,1.22938933988155,1.20781454953749,1.20083762727999,1.20587829875019,1.22649569223845,1.26316351836801,1.30335097283849,1.30317252570535,1.30083809754142,1.29907485281988,1.30165674724198,1.30013962587804,1.31067002996805,1.32407942832528,1.34068754071503,1.34780831998363,1.3568947266201,1.35193728832612,1.3499512726763,1.35241617285119,1.354682679716,1.34523396495583,1.34776703627482,1.34108690834911,1.33337033012811,1.33435471639893,1.33123452973139,1.32787437062476,1.32705341647009,1.32665192595126,1.32901954277258,1.32325532177146,1.32177458737124,1.31952664467356,1.34434686871104,1.39664463445418,1.40981402282653,1.38564251669401,1.33424755921439,1.31577077663173,1.30835846554326,1.29531451326013,1.28361229189748,1.28383490894159,1.30276261654292,1.30798061265529,1.28539386883487,1.25523229104292,1.2375754534782,1.23410795741685,1.22307756664978,1.22821987296488,1.23937788303013,1.25714762141486,1.1875719265466,1.1658281540153,1.17584530796499,1.16182959017488,1.16861822677501,1.19546914276285,1.1994581127706,1.17766859601115,1.15488194972097,1.1331682679583,1.10574005228179,1.07327072441888,1.03505427901265,1.0060477275466,0.975340889381422,0.958732122905743,0.953464649878419,0.945736582494684,0.943842265595335,0.927729689382497,0.923990515342571,0.913002700930755,0.910592535428298,0.891189693446913,0.866320640851909,0.842296548737686,0.80855675561904,0.775934379943988,0.758540082524379,0.752643080935214,0.737239427870802,0.715036091303454,0.736390279111461,0.747512514731734,0.686573480286332,0.653523617263388,0.636668734345342,0.63048948745726,0.628109656787886,0.619211090126391,0.610349066589853,0.610132692173647,0.602153075431846,0.609675888439951,0.612250354749182,0.612550965654993,0.61151503524824,0.606891289578929,0.607506025067372,0.594366876960118,0.586671368101191,0.573722873924369,0.562520969663998,0.563758823863058,0.573856706926801,0.585484687273689,0.581700597521733,0.586978867130498,0.544176920784531,0.366730366806692,0.663973623595403,0.875663512477233,0.941813530855073,0.946734348621436,0.926253594946285,0.73308758632166,0.682771820239788,0.677420189530647,0.666487024231435,0.663832008311958,0.666051219851571,0.668649538810395,0.672325901594557,0.679055864347448,0.682865725167936,0.687817661980009,0.694389317200402,0.705279920411744,0.722398602784153,0.766208668715872,0.733038210341053,0.705055663976779,0.656622162012343,0.742052333463346,0.768855960566458,0.770673912148209,0.772056638965541,0.775297240406498,0.778724299388037,0.781839669275104,0.785581510449951,0.786909705066391
0.530753235343244,0.547420929347966,0.578605393423121,0.603780167649378,0.640325029346962,0.669533924003414,0.696841395979674,0.724938316395787,0.781380488947353,0.803154620079998,0.828120619342782,0.846455752134427,0.862541213611083,0.900000956865066,0.947869958696112,1.0126722555085,1.10092450193485,1.15706977934673,1.18805362165959,1.19985481359213,1.21601678029326,1.2133035540803,1.23166747910121,1.231683769678,1.20562787888505,1.20440789018279,1.21676886564849,1.23687293361578,1.27027832365151,1.29429585282212,1.30530287245886,1.33259788950511,1.29806120679648,1.28479296991738,1.28446117868415,1.29858119036499,1.30372423355822,1.30679237887048,1.32348750504923,1.35757442525186,1.34328821265751,1.33399435613382,1.32761850068628,1.32593854720108,1.32913037453665,1.32222627463289,1.33355732595303,1.33647816516845,1.34840065791221,1.32735562446764,1.32442738979845,1.32803077105726,1.32002624903963,1.3157979004836,1.3004582552724,1.29761517510518,1.30247220960406,1.3298769718663,1.35964428016398,1.38440930428237,1.35452184385216,1.33799723197388,1.32978512175683,1.31064523100871,1.29324737098736,1.27982309385923,1.27608046332669,1.29080553333519,1.29056216152137,1.25104473613082,1.22726647493098,1.22374116294127,1.23046537291541,1.22985706667298,1.228368617508,1.22739182338076,1.21524466869931,1.16531348591852,1.14422962144989,1.14405186766273,1.14482958846422,1.1515675825037,1.16192079019281,1.1347305782285,1.03601553933296,1.11929930566373,1.1323453139894,1.09167073902462,1.03782278413737,1.00353402060606,0.971024723294823,0.938814842968534,0.924215573788784,0.91488305599412,0.911864554234083,0.910922481281266,0.89811504677618,0.891554105835706,0.8788215167077,0.867213904700358,0.862831963085944,0.848166542754211,0.81877743355493,0.8018226325623,0.77848713036423,0.757346426960876,0.733821495114812,0.701667070099308,0.698634368352431,0.714020815126725,0.7506089664862,0.673907942515479,0.638396266289956,0.632071098189617,0.630672998278357,0.629391959940924,0.616459796348879,0.603264103520873,0.5985745419651,0.595958358687657,0.603117144338916,0.600389630130016,0.595318932729325,0.595939685086566,0.596303935350893,0.59221786896252,0.580644495876497,0.58009708369379,0.554042788170673,0.54545056771223,0.553475775203882,0.575474342663951,0.595202925054631,0.600357453514074,0.601905090519958,0.605654520555555,0.564385593667546,0.682226339279037,0.898142105024982,0.884124543465293,0.762612105784915,0.737502075160138,0.69156647364986,0.676441822134242,0.662325044010801,0.659675799519199,0.661157580704617,0.664080676540023,0.668381161859752,0.675480221784,0.679343656753584,0.682687744489695,0.690464631618219,0.697350679470434,0.704035501080797,0.710021787029031,0.716631654109338,0.720585802323252,0.656988995489305,0.456035045286025,0.690064455296896,0.768025761659794,0.771418157002219,0.772944322152384,0.775928957023431,0.780372894076,0.784122939793054,0.786011236057114,0.788068383944793
0.540846411688519,0.542124265231214,0.5645973592833,0.588578948077631,0.625183822872635,0.64744529754999,0.675267129705167,0.696845232418149,0.730455010297579,0.770259443789751,0.790878996015617,0.812400757049278,0.838588017238913,0.869117105035613,0.900985157275001,0.986052127962312,1.0867789239598,1.10713205159115,1.15185799716431,1.13756717287,1.14156613832409,1.16904855342365,1.17274117793534,1.18226049670024,1.18778099764274,1.20816067179066,1.2231922273719,1.24406901485545,1.2706694060224,1.29278628832714,1.30453236084054,1.3094715284556,1.28432547764722,1.2812701720797,1.27824516758796,1.28413234398916,1.28825504708381,1.3008709302652,1.32600210080392,1.34233520733428,1.32655566987097,1.32044621162527,1.31646804409464,1.31264856194936,1.31495296078847,1.31732578297191,1.35238637164964,1.35248533846175,1.3287877123172,1.18804615480795,1.29033101221788,1.33345594173983,1.31954512404299,1.31633116756169,1.30007853766768,1.29243463326201,1.30140906205125,1.33487233713466,1.33685906924171,1.36343022198041,1.337956830721,1.33388566134019,1.32967546235097,1.31880910655964,1.29672941448617,1.27598117308224,1.269144898906,1.26737060431177,1.25617433430939,1.22902950135337,1.21219525647619,1.21074717159172,1.21582431098601,1.22265127666443,1.23399338017794,1.23075494600053,1.18841609226889,1.13903953452627,1.11532722661674,1.11552052131598,1.12231013801136,1.1261454598428,1.15145313581024,1.03780350483454,0.64247397020379,1.00847920633478,1.10379251537325,1.07074441379832,1.02159761548526,0.991082607970149,0.956515766142208,0.92553403970333,0.902481914992397,0.898980303425515,0.894646927814416,0.884277268979391,0.878829631098349,0.861187952664445,0.852958288418462,0.844354985899129,0.834973722869111,0.816088470114053,0.806391469033058,0.792066774590947,0.762790465308968,0.743510989214553,0.705438798082592,0.689702114566186,0.685921344716262,0.689752717465345,0.725913552178109,0.655216682868828,0.632420667716305,0.629679523461819,0.625315214513987,0.622133727651942,0.618169507172935,0.610289424076855,0.600147674987215,0.600079290959194,0.600224523002842,0.589388485550043,0.58469008771894,0.582002083857068,0.585756018684966,0.584751440879265,0.582277007941349,0.575379973675152,0.551615320634334,0.543510226934998,0.553104880588355,0.571647512811875,0.594965125394382,0.608960730885965,0.624173151325019,0.633565525007091,0.654477682292239,0.726812075565479,0.856157241402524,0.748234631430566,0.685227469964348,0.678940620258122,0.678709465207508,0.674243505581167,0.657559494246364,0.659008438790965,0.661660051479036,0.663949765218549,0.670455604981742,0.676379762936563,0.679612375736817,0.684059176406825,0.692879945890437,0.698623366108456,0.712440353734409,0.751963899905545,0.727108478716237,0.722538956034305,0.749062996091262,0.81889586548453,0.773504953331995,0.765544990736627,0.771041894704115,0.773544452712712,0.776289855987838,0.780353242095675,0.785113752846871,0.786877582522208,0.78929501364089
0.535608601177444,0.535904502335587,0.547058927470409,0.575628318104987,0.595692862498118,0.627870077345356,0.654612926199566,0.665689014846975,0.686948704270727,0.72369356019075,0.752667145665402,0.765773918669192,0.784651750901915,0.835578813162095,0.884648498983725,0.967242696721526,1.04532700677597,1.06577237891888,1.08161391474577,1.07823241103182,1.08559209286154,1.1248728749271,1.11929162757008,1.12938209764548,1.13874641966193,1.17541419496781,1.20510259940599,1.23320398321564,1.26740168709235,1.29800302053771,1.32924267568927,1.32434697889898,1.28177472719509,1.25799357798042,1.25817599790856,1.26763633219619,1.27182091867925,1.2842294966593,1.30401105849681,1.33510901138775,1.3230635420625,1.3190053780157,1.31898916719397,1.31671864640754,1.30848125742935,1.30572359581472,1.32627913667466,1.33009320629144,1.1857685471836,0.743000519053851,1.18381034065035,1.3223172176329,1.30790490790839,1.3074145062789,1.3021808457591,1.29025103981701,1.29350733919229,1.30763054726129,1.32158119975166,1.33460488769907,1.32645355791807,1.31905243763933,1.30969042946061,1.29719863966508,1.28965971586535,1.28261003367361,1.2703599967342,1.2616230808947,1.23872553314594,1.21511068626825,1.18478530605215,1.17605174880689,1.17316662274388,1.184191285963,1.18926921364059,1.19055372454599,1.15032430959464,1.11960169003428,1.09606504770687,1.09780180349398,1.09579320358735,1.10161283738439,1.11006309864424,1.08250019019874,0.982353582574852,1.06979715762126,1.07608898761888,1.05307150201371,1.02005713841931,0.997560566953401,0.944412537786908,0.910783062108025,0.892063611660254,0.878808315505901,0.863666635144157,0.852138432383766,0.844973854317939,0.829732876869379,0.82055762902994,0.816248941227232,0.80404681374102,0.784982015715942,0.787128980148946,0.755699000378975,0.721136481040249,0.703985484655451,0.688425836723579,0.682337992670187,0.661565583393726,0.651156657549458,0.652410035587237,0.637312548207284,0.630928020919582,0.625412579016047,0.626309515410323,0.618684995494755,0.618808789982973,0.610054180390171,0.598610171037254,0.596510413884532,0.593988517755263,0.581448133625481,0.581808809455761,0.5678492761361,0.563334081736058,0.565021437702532,0.572980717533863,0.560619852207973,0.544672534865359,0.543333747262421,0.548163569464411,0.554371450919374,0.567074227462997,0.602868819381337,0.608907963344734,0.57964552726013,0.737233210161749,0.882251707928244,0.756862646732695,0.685164592253035,0.677330622600941,0.67807457093802,0.677865518498694,0.670566348219328,0.655652444164883,0.657471537987875,0.66300477561858,0.666719273651542,0.673640043630026,0.67682698230426,0.679138031810851,0.686506861223066,0.695484826212506,0.701879642400611,0.747466502626924,0.881848554256232,0.760020024767,0.734897581607155,0.79091644116342,0.830721637665416,0.769699705926248,0.756680132790498,0.769648136609482,0.779176977983891,0.796645735708401,0.78905033122165,0.787161417134098,0.788609038958857,0.792974673861402
0.511585660852927,0.531901746802641,0.548190892846155,0.557801890471597,0.569020147135341,0.598642817975053,0.626529512417919,0.647654211963331,0.658673905700716,0.685622419937279,0.726998334301373,0.73817739133861,0.747601216289794,0.790190278090544,0.850358460477089,0.917414234936752,0.981735452256808,1.0378182256292,1.03032870238715,1.02775593439136,1.02380066227889,1.033452823375,1.04403460554325,1.08346170685627,1.10697469080764,1.13148565288169,1.15651865813027,1.22286609927378,1.26533713404919,1.2971160087615,1.32872713012251,1.33063050867441,1.3047437780966,1.25735356387297,1.25682497317514,1.25652768993756,1.25622690377753,1.26744321028738,1.2910995276278,1.33035190389005,1.32454356008831,1.32180392966189,1.32341826316428,1.31902869405826,1.32351012982439,1.30925668031604,1.31552525412442,1.32091331436449,1.27531097076864,1.1721645711036,1.30386748517908,1.32714686949084,1.3069910014296,1.31025547763679,1.29370136918848,1.28751490631607,1.28751403604985,1.29889511251794,1.32182712252382,1.32604077096747,1.3132490765554,1.3126335126679,1.29584643099573,1.28790350415527,1.28169966904423,1.27027243997165,1.26333610072731,1.24551879324297,1.22864320512335,1.19074707215234,1.1580692135051,1.14790488650385,1.14691508520407,1.14955652051693,1.15024185369461,1.14587653838861,1.11899007756826,1.10389624703244,1.08704947477531,1.08594307971557,1.08052636607409,1.08251908493481,1.08335261538709,1.08218586445656,1.07757326502763,1.07657072565558,1.05973776480496,1.03959772955596,1.02346404826847,0.987687618301109,0.931709600741654,0.892525747368501,0.869875488093772,0.855442067925134,0.832264783454326,0.820222413973752,0.819865442895236,0.811727738961608,0.795294742468311,0.778180945298574,0.752396703491543,0.748650520440905,0.74700809811219,0.72900783542303,0.705713312414513,0.691262450657972,0.672838435464672,0.671221187054468,0.653515512404659,0.639626813154783,0.63193944297403,0.628223958581095,0.624076052375901,0.623966163980982,0.632038322153661,0.620913417144919,0.611740441148792,0.607161737956908,0.596131670387687,0.585588199581441,0.584480504224906,0.58003485686139,0.574987472692194,0.567526816442112,0.560429213328857,0.557972594866955,0.557256183499698,0.538814824890059,0.531936780003012,0.536783794934531,0.544809621873888,0.550520402069335,0.559351886935428,0.599212430346568,0.570569027847046,0.414328035037596,0.71507571665575,0.82074676493732,0.707074431815827,0.676638829219287,0.677587616445996,0.677724453096845,0.671522300691095,0.657412422553589,0.653701728662018,0.661994880782561,0.665577594102243,0.671246247225254,0.674675780227675,0.676146812544147,0.679444857276203,0.691663892175018,0.697671251125879,0.702421081379969,0.717098669560353,0.756512552666018,0.732116718921238,0.777630902431795,0.988889729476378,1.00648987954497,0.857269318783657,0.807821088450191,0.780917756253112,0.803081237687275,0.890539783696483,0.814646550797153,0.789275857779221,0.791101794505101,0.797224086112598
0.508826105311364,0.535996248376632,0.546143184401939,0.549222997560036,0.551827046462494,0.575226732400354,0.598474701740462,0.622226100507773,0.634015936698337,0.652108901137235,0.679388870608554,0.716146199053447,0.736316841347476,0.769600472970475,0.802873382867966,0.861480900962317,0.926153307346015,0.98973130148443,0.984153354574732,0.995148715936749,0.992217681790326,0.994616741931226,1.01011305733436,1.02479223085853,1.04616948873413,1.08733350003583,1.1104240041632,1.16342350867054,1.24566664751366,1.29646866772338,1.31328208676379,1.31328784832399,1.28892567958229,1.25620859255478,1.24730494955797,1.24855519536876,1.24787004421153,1.25362090799756,1.26713091565236,1.3115404497396,1.31156883153211,1.31777100355967,1.34509832436522,1.32022476913527,1.31135410716257,1.30765949626098,1.2927762557209,1.27992361800424,1.27938949234168,1.29621293192402,1.30787230222806,1.31372152354028,1.3002776294059,1.2983265178727,1.29532004671214,1.29531765503866,1.28464709097461,1.28844036163963,1.30770945181729,1.31359181695522,1.29459338316551,1.2931131539173,1.28673040225747,1.28289350449979,1.26645274801859,1.2381546884908,1.21638692473567,1.19822228972264,1.18433950206596,1.15602450466453,1.13514452032066,1.1217543197729,1.12046085442,1.12194701997301,1.12802078069573,1.12293476223652,1.10207583272448,1.08934826065853,1.06916286912984,1.06632299440275,1.06738730495477,1.06389453751858,1.05909356054964,1.05705734445094,1.06077872707535,1.05598518731212,1.04523816261939,1.02808995051023,1.0011376529377,0.945732750209552,0.902865379232978,0.875774281674261,0.854214219686613,0.828291185359637,0.813992592360807,0.800002636952383,0.795812889356008,0.787415074924045,0.77260338018726,0.76004955551582,0.739416584799397,0.730625966342588,0.716962910810684,0.701025212194679,0.691995757498252,0.671674467104542,0.658632533972587,0.657670530264663,0.648930108450232,0.637535707309202,0.629725844028054,0.625627532467268,0.622766483747988,0.620181886353623,0.623702916808561,0.615487056384307,0.601417667635864,0.597328350917759,0.589765085023483,0.574090845304218,0.563982278305072,0.563438740535558,0.572412164865502,0.571264527715673,0.552850643037808,0.546887883677024,0.541091458143256,0.53018940022323,0.524823211050258,0.53945287141548,0.544420827440997,0.56325564771748,0.580557774431892,0.603661786740612,0.664400872070606,0.72269882706996,0.717958286274447,0.445910551036487,0.612002765922475,0.676337311353913,0.678134197921575,0.674776487933702,0.659570896251805,0.652502379261647,0.654667077349058,0.664631113871604,0.667956374376624,0.672510980744445,0.674382455139715,0.675638766230142,0.679573761814589,0.692451527272544,0.698598004755109,0.703666187388515,0.708642752515437,0.716691561284001,0.72350414534159,0.779862248562113,0.992643221567764,1.06278664533812,1.0392831373367,0.980300094714649,0.852081640883076,0.827337293073572,0.944691426675765,0.829999057864473,0.793225377873194,0.795921553500647,0.800615225985975
0.514663017136926,0.524317852524341,0.53733835058798,0.550762171242077,0.545851014361383,0.555654699565883,0.583878005891083,0.601864908336124,0.615744967446463,0.630472304676547,0.657506813929189,0.688779176663532,0.705362060855937,0.740575118972145,0.775459668803222,0.82057544729252,0.870718861585461,0.929696709520319,0.935141036792675,0.949325110563206,0.952922405403458,0.965239463830309,0.975229683644649,0.983941606557205,0.999363644671649,1.04043768425477,1.08377442138873,1.120810145405,1.18608155620379,1.27053290936537,1.30177695086446,1.29261673133956,1.26671426738562,1.26461694039315,1.25253522085441,1.23439768609988,1.23358885680565,1.24165567579376,1.25006581019503,1.27474026241844,1.30794634224539,1.31940681882997,1.33077086268043,1.31146874319787,1.30034333263529,1.30843857604158,1.26888166957155,1.25456636788908,1.25449503556088,1.2710874177298,1.28728108484222,1.29342239326455,1.29813963536065,1.2997483508093,1.29952663013236,1.29881217784853,1.29154919437865,1.29133878359793,1.28589818281364,1.28150531951754,1.27586945573298,1.27258982867729,1.27382597078439,1.27101334174455,1.25087996836853,1.22434708576536,1.17670226676249,1.15549173291839,1.12831578475556,1.10828413752063,1.10227622213873,1.10638922782489,1.101342707078,1.10418155698212,1.11185526790021,1.11409844423295,1.09354293160684,1.06858908778839,1.03776536297434,1.02969438485982,1.02971637161915,1.02487237529011,1.02544344175992,1.0220213610676,1.02615855679641,1.01324791807582,1.00440377039329,0.996731532891977,0.955319077112426,0.917692887884631,0.89302593701821,0.855073474408752,0.822950412166126,0.806399871830711,0.790304919684163,0.77647787666526,0.767865172541191,0.762205251986811,0.741481553935721,0.731565906267304,0.724166466534603,0.710093686214383,0.698637343949451,0.688136603083068,0.684063365074058,0.658435254984882,0.64866958510329,0.651895916394151,0.650432196808332,0.637623441888692,0.627087243575823,0.615792360994198,0.615968881292667,0.613950884563632,0.610391721634399,0.606144403776506,0.601184969341445,0.589433576730478,0.582241836836536,0.562267139830922,0.551065091614552,0.550018416163705,0.555934453434299,0.551492228677883,0.527567185645812,0.522577218309236,0.524318834073535,0.526254551860829,0.52479117691699,0.532091528400409,0.542470067309116,0.569599641956001,0.605970301722351,0.673719980679245,0.689983643882943,0.594672673353426,0.390021079422428,0.539481333394438,0.659521319718912,0.679180082716554,0.680237453199584,0.672602120920345,0.657406210640211,0.65557228891062,0.662223114841568,0.667256999563847,0.668562975915039,0.672558233247487,0.67467878858317,0.677233639767976,0.692810166231748,0.739429379108901,0.724584342137182,0.759387386451303,0.727387192722187,0.719019065610124,0.736755873708142,0.791742152858973,0.804210165923142,0.825458476971489,0.871363419989727,0.866240669935954,0.9357306053248,0.828806841316529,0.826404291907326,0.802894519653971,0.797381849958798,0.801100140072828,0.803620912464214
0.517233936276066,0.525216917856541,0.539400011130208,0.539651870709909,0.542515811801037,0.548824633019374,0.553827343117013,0.574561715410219,0.591675908783774,0.615914202820407,0.627629103489013,0.654551493258941,0.678258709976093,0.726251820138778,0.764641547748024,0.784735498366952,0.834836684805054,0.888830280327091,0.903483252850257,0.904790595648204,0.903923658270768,0.914579665789347,0.932418912959776,0.950503520255297,0.99025063957403,1.03146699685638,1.09558167317053,1.10055203016154,1.16341221357574,1.24414867045311,1.28873193036987,1.2709539061565,1.25621009023558,1.24770839316572,1.23137766211632,1.21071879714846,1.20816021612288,1.21468086728509,1.22989818820473,1.25326598976966,1.29799407150773,1.31199582556773,1.30751966606783,1.29380524146809,1.28523132446538,1.27929769401157,1.24858119684981,1.24263961410994,1.24732631081027,1.25709500178298,1.269245362758,1.27633371611824,1.28825789860484,1.29240008118164,1.29709653097349,1.28891745163248,1.26415008868169,1.25957040815287,1.25476096375197,1.23764037534002,1.23747566154534,1.24753912841534,1.26894248714696,1.2687126354456,1.24030089350813,1.19533923908019,1.15741549147561,1.13489063348758,1.09232778102338,1.07283135818866,1.06503361073508,1.07084008495633,1.06862529381783,1.07525184536216,1.07840683599403,1.08508912332393,1.08372519606161,1.05914018540115,1.01473651423346,0.994256146853917,0.980378197688541,0.975691016816347,0.975587112744745,0.972779546439162,0.970973325346396,0.966365720069336,0.969580015907552,0.971624414007148,0.930883979216856,0.901797985027316,0.878872259933892,0.840418764406541,0.810670980946052,0.798376558798723,0.779753194031366,0.771813485956273,0.759546705008634,0.751749986830248,0.731221058745704,0.714710933392989,0.702007115007498,0.687786197422658,0.666807934707555,0.657207960349064,0.6551788849534,0.651486049326615,0.647112862574586,0.641727612573092,0.644420086196805,0.633628208018863,0.619055286611895,0.609120751865296,0.609559705590098,0.611312395069912,0.606248224095824,0.597691223559066,0.588253861845754,0.575245034876798,0.564834578946577,0.554175247424862,0.551095796876256,0.547474983022379,0.540993560192606,0.531475472801037,0.515420741579045,0.519627367253805,0.529911089425509,0.532033182376692,0.532365483577408,0.535711096780501,0.553794969060075,0.585144780220332,0.674614935371831,0.961590137898532,0.864039355043084,0.630005117710018,0.557703889701206,0.653597962637698,0.66389969894073,0.609540736726269,0.661417112783063,0.662290809096701,0.656878008228547,0.658417611771386,0.663175787870212,0.666826681205725,0.668467494852412,0.67285322962756,0.676105633860849,0.684715736653791,0.735162746051311,0.893913364435446,0.847195231495855,0.935820629787003,0.770186293247142,0.721268997147984,0.787724903931064,0.99769452922207,0.86422712293481,0.867904241534435,1.01019273596225,0.847718247122596,0.825981793597534,0.801382094946438,0.795340145889742,0.796938022037295,0.798941323220842,0.801826174455965,0.803151502493323
0.510259532691576,0.522297484779318,0.528989653475041,0.532925069539707,0.540200925160431,0.541661148102482,0.538975849258172,0.552837678276176,0.574805573419062,0.589473174399739,0.607781584859518,0.625117612032098,0.66179563785202,0.7134829660565,0.747457084804585,0.759842956794518,0.802673329965973,0.847200112419963,0.851837065750195,0.860558750316761,0.861588870211349,0.873953008956981,0.895608612025703,0.913488102332187,0.957296037636553,1.00110671275849,1.04634150141945,1.07914449351896,1.17337924021206,1.23835591174635,1.27099514565155,1.25810662896946,1.23922526148629,1.21321282797791,1.21890628869793,1.19769928974098,1.2002437825896,1.20795512425741,1.22174829578856,1.23085588437311,1.26307631542986,1.28509419703438,1.27043841377285,1.26691707666762,1.25971898397329,1.24884736300925,1.23853568777997,1.22848857190098,1.23045594118804,1.25126407883206,1.26851821399011,1.28381999376458,1.29137855398226,1.29092303645138,1.30651578934022,1.28481373206544,1.24520821083459,1.2417747242718,1.24786952038806,1.21431986948541,1.19759534177988,1.21035036366395,1.26523948454185,1.27852546047465,1.22323641315702,1.16036658848516,1.12951958323445,1.10317276978851,1.05935541041554,1.04254551421168,1.04002428697543,1.04029405536549,1.02864753714524,1.02718737347531,1.03606965819012,1.06002916284059,1.05823844330206,1.02242547287812,0.992473409363583,0.961014733958627,0.944121551813918,0.922838218119097,0.914172886013336,0.912456675836127,0.907095700492338,0.905802398288516,0.907280204988219,0.922888420217181,0.908384324007499,0.875386603698091,0.840094431125792,0.807671181583303,0.798685954650004,0.787348254236368,0.765679501404388,0.75707393091089,0.745788164562862,0.736916972499461,0.717797392909545,0.695265605627231,0.673452491046322,0.660804503329458,0.65061596074046,0.632693294226274,0.630485560866511,0.640310181463082,0.632538765394844,0.620189384556753,0.623793107591823,0.622287739357076,0.610721298666359,0.603704451213463,0.5962551692787,0.601423260861749,0.602627933683152,0.589073043094882,0.583730572371939,0.574516357798541,0.56681360420326,0.555577609016001,0.556546275076725,0.551325548889155,0.530106952587888,0.517836064505071,0.518458688675857,0.523218755764451,0.531076176581263,0.531105129042655,0.536423571522485,0.546219648907619,0.579996098668513,0.602352189379637,0.692342571052478,0.834436109739838,0.501936993242359,0.509477993891609,0.65304083283046,0.689867625573668,0.616996307708558,0.389565161570147,0.606406480172134,0.658800496850962,0.656616581994039,0.660492461397732,0.662922693637449,0.66521315256399,0.670479773924497,0.674291955927587,0.677912719249738,0.686210710267409,0.702908439482883,0.788006261705103,0.912958292994122,0.813408228455783,0.732442721851024,0.721963229599164,0.791688212994897,1.03905785511331,1.05411478505316,1.10358140088454,1.10591665575158,0.85795108881733,0.794254304134021,0.796404299294363,0.807998815933584,0.843825330119135,0.811512953216659,0.779760060882688,0.694388754998676
0.49772070779191,0.505847434183428,0.51133540022242,0.512179037032851,0.522881486671598,0.522822980516992,0.527900791248413,0.547634278405618,0.561964070085411,0.571354709869757,0.591701108974101,0.6115702907001,0.648953523683331,0.69177597608763,0.729240785208027,0.743700301893411,0.774778354114621,0.788404055902409,0.801667033826642,0.812256943483028,0.838888474884471,0.856012792775678,0.87451242172094,0.899580991921789,0.938660611810991,0.981626423476909,1.01822561899476,1.07289583027508,1.19021816887031,1.23438018789771,1.2228555332309,1.17229300477031,1.16050941822678,1.1501027937181,1.15195307116058,1.16185994121193,1.17554312711452,1.19836955438929,1.21276383439303,1.21259045259786,1.22875459591466,1.2428603397741,1.25539842795745,1.27500554132308,1.26217707254509,1.25646434460226,1.23437472102874,1.22717256906539,1.22432857504616,1.2422060501238,1.2771761634939,1.29862247117779,1.29517467324993,1.27187004130964,1.26392402133742,1.23150288628912,1.19472586069854,1.186128447422,1.18150963866605,1.15753238204152,1.13882420312094,1.13801157845613,1.16475942731965,1.21974367424921,1.19884778618163,1.15456555826497,1.09906226437728,1.06297587608459,1.03463243391503,1.0140448814291,1.00665230133156,1.00543522124933,1.00454422780248,0.999744765248546,0.992617169780019,1.00077982911648,1.00509848344158,0.987621799142488,0.966991022178516,0.938721115475858,0.91441776003907,0.893516758994142,0.884843958076373,0.87764201160741,0.877062795399717,0.870592846272771,0.855975438712839,0.87768280055881,0.873245370339227,0.837432153711771,0.817322357107366,0.79165009059789,0.772874281894262,0.767969219348387,0.750117661847038,0.737091246083777,0.734380097597975,0.726220138664797,0.684244662613291,0.666294281366869,0.651097225574737,0.635726276976731,0.632170040478292,0.611403813364444,0.60978051982955,0.621710954420859,0.615749779784687,0.610805876677742,0.606997039830225,0.601741647121971,0.597052223964214,0.599176943899412,0.59668194769341,0.597922163020286,0.596910619196167,0.58690198250646,0.582603654394628,0.57612329425045,0.566343694037992,0.552699633803868,0.548207445577688,0.540103738004828,0.528921229373641,0.521359109733727,0.519601415330085,0.521444901698805,0.528007614612852,0.534620571766151,0.537291014273567,0.556235057180392,0.589245776768257,0.613050866595037,0.628404474435051,0.497499240947179,0.589180816301872,0.387037714405908,0.622523707274045,0.698334894708119,0.676875877426268,0.616949283633817,0.66414961145647,0.659416173234799,0.656033427280671,0.660028700024152,0.662483395847293,0.66513942022458,0.671014141659109,0.677496762022632,0.681177347709116,0.686972805796594,0.690961418821636,0.709094264214165,0.75583949308396,0.72624789578043,0.717899021483108,0.725299323535296,0.766484132060951,0.858885613495095,0.925445487397514,1.08934677213901,1.06935140938043,0.849172234386464,0.805485257518682,0.844782305258359,0.907449830530547,1.05035343053457,0.899267245896735,0.71901436507337,0.357419642360444
0.481504973479674,0.491415260611542,0.498858951859341,0.500782884709457,0.511352928347152,0.512500881977651,0.518524138517522,0.531695631407164,0.547543075322645,0.559021906260027,0.586558237323864,0.606267869928162,0.633685412618418,0.655833850154972,0.682119965678256,0.718360814718229,0.739392948737308,0.746488910073947,0.766707082404713,0.784016772304458,0.807184881212855,0.824893349964819,0.860854476021513,0.893424288227884,0.942002101673576,0.972592073497154,1.00948344546983,1.05762214916078,1.16610739919807,1.17354883055807,1.13127328262613,1.10789266374516,1.10074490782404,1.10696083257493,1.11010519691825,1.11792208049257,1.12333023418583,1.1451516657359,1.16973517656425,1.18525743822998,1.20963570061404,1.22502518282152,1.25688899675214,1.26914948305236,1.26695980286305,1.25316939203376,1.22598257486772,1.2082873082248,1.20996768211241,1.20283809652153,1.22750182172017,1.26415948481796,1.26901212777375,1.2665482203335,1.25059710179945,1.19722474940726,1.13307873712025,1.11230193267261,1.09786532101556,1.08482930854147,1.07440945080487,1.07534445019315,1.09922302087213,1.13243063244006,1.15599653797028,1.14082327471199,1.05771972249656,1.01784044525,0.9988148942809,0.98250985964533,0.967340399090538,0.967037262523149,0.974147557186469,0.971395730306371,0.965669472713546,0.955526175864999,0.953251476231699,0.949092350691601,0.926495214579562,0.901846261396979,0.881080680729619,0.873309796500855,0.863498945525005,0.853217406935538,0.846523640042701,0.834169864219458,0.827555989616582,0.848906619555979,0.836070587558803,0.806693411964123,0.790347014771068,0.770685368591372,0.75126491362,0.738788900022912,0.728263657116953,0.712241905860303,0.702476276333996,0.689251940514584,0.675062433196709,0.662326427055527,0.64422264578368,0.626389799499721,0.620280707115906,0.607628185169278,0.604290718711454,0.606593221815232,0.608156641592345,0.602074132550383,0.599153389884233,0.594939964166063,0.598465893878584,0.598406808742917,0.588570358629724,0.587850937618924,0.588803336180448,0.582745443704305,0.579999111244058,0.579532724862983,0.563711750146694,0.553416205662681,0.545682678768794,0.525007114188776,0.520813899650678,0.529944226033591,0.521545380463034,0.515354618665352,0.518187548719804,0.533713402731679,0.554029778997665,0.570005280238137,0.595480945477203,0.570339815295391,0.486303394720666,0.731185727707985,0.456688075903287,0.564709396713427,0.682461567248418,0.700154222086023,0.69735131816434,0.6877191052941,0.678499626853439,0.659160237774938,0.655897335527739,0.659279723813793,0.66301574592328,0.669937348379371,0.673946199041519,0.679551593064165,0.683361452566545,0.688312075487506,0.693393732328743,0.707344435506078,0.714476022271498,0.714843402565939,0.727911179207747,0.790833213323613,0.860274043327721,0.91594328801318,1.04888833524508,1.0442405691505,0.887106519661915,0.819402358341972,0.89212813571457,1.04626926619116,1.08368655640699,1.11393845258014,1.02904052061382,0.800716537079268,0.665700550366484
0.484451469928292,0.48376888640313,0.491845871492464,0.498289591078056,0.508458129051149,0.503432127724154,0.505804408993521,0.525000034606864,0.534463856216445,0.540722262879507,0.561480943297896,0.578094614683673,0.598453555677027,0.628204809759429,0.640231536463768,0.667184691717692,0.68765038080202,0.695943484692197,0.719522069211972,0.757488223584935,0.769149466716853,0.793668364025052,0.833117001630962,0.858719025232075,0.891812958807766,0.945610557006585,0.993391583446595,1.03309020269804,1.1144949037943,1.07940233609002,1.05663844871715,1.05270093131415,1.05261770642703,1.06060395045011,1.06597347687138,1.07140606519324,1.08594347575607,1.10700610536757,1.12905268405896,1.16822594920485,1.19458066589721,1.21084833223307,1.23863280461185,1.245807053265,1.24731119937345,1.22784548369148,1.21726055674228,1.19260721234136,1.1848985716258,1.16517558412338,1.15939360502722,1.18136032527897,1.2082714368279,1.22539368078225,1.19818644864148,1.14844410383756,1.09007745642587,1.06362048791723,1.05863276535985,1.04601558386166,1.03326024294277,1.04028655145287,1.05964329291569,1.08271597039156,1.10531150620608,1.11868391044651,1.04012069331665,0.978897175574407,0.962743112685289,0.952454076693743,0.933868522841537,0.933024439317379,0.931318575363939,0.928538223877115,0.929845843800587,0.917971378275681,0.903909475095235,0.899468698091607,0.88362745039092,0.857074685452308,0.847971160378347,0.841576076994746,0.823058704148631,0.814223821565527,0.808920803879095,0.779802999479287,0.774796104349704,0.782301087147011,0.768220238510118,0.761929138121192,0.758664601524902,0.749643281092676,0.73660494176935,0.709832335114842,0.701404341717543,0.691855647325082,0.672480911783398,0.66335145858089,0.660340339908468,0.64683877504253,0.636187631319487,0.626169956214667,0.618387737476993,0.612532467740444,0.600124736595014,0.589600163061526,0.59160668479128,0.596601899588581,0.600702794563384,0.599213252983494,0.596138721097406,0.586697254672685,0.582162876733333,0.585081775022728,0.580140002911287,0.575574362571653,0.571745625216261,0.568809757968933,0.564101443967269,0.55841773998778,0.548090996503825,0.52565250964899,0.517860257508735,0.522091977065632,0.516422081328069,0.516530659829665,0.522155770081035,0.546085756338061,0.56932651463454,0.587526301690999,0.625844949628465,0.776350980962701,0.956854072474425,1.0254284428219,0.707167916545268,0.690269220410304,0.704808499741009,0.702562280768865,0.694227614453064,0.663812732543285,0.659034420544558,0.656519824647172,0.656170520595559,0.658465726856838,0.663089502437824,0.672047443008096,0.675738375538397,0.680671075945201,0.684561873057557,0.689884268571455,0.696055788012284,0.710992761980692,0.715978904249943,0.716408980653314,0.767495259344592,0.981976734912088,0.963711990514289,0.610248615850681,0.866830974065714,0.863360775435849,0.809252671013238,0.856377861096308,1.04261264044775,1.07064497037219,0.887294235757004,0.839736389539048,0.826717886353751,0.778968810481712,0.767582665730666
0.483848222641102,0.469880719831398,0.473966154061991,0.481317613143959,0.493057754525848,0.501398553953998,0.504599874474412,0.516089790148722,0.528114609926814,0.531112518592436,0.540908376475796,0.565217119187211,0.577956159484901,0.602125857965862,0.61515727085083,0.620759785226268,0.650674727465298,0.665529835937544,0.686645054169995,0.714236563830936,0.738029562921499,0.758494309467409,0.799969014271045,0.851988845157491,0.880683615067742,0.926028030236091,0.974065642679126,1.01534783752935,1.04934077615162,1.0321912729284,1.0183971392211,1.01030874980385,1.01099100096952,1.01604888742259,1.02376004910696,1.03438615262469,1.05104437713233,1.05934334908605,1.09246434352403,1.13601232998957,1.17359098707584,1.20856969796058,1.24800796021807,1.23736848934243,1.21505527670119,1.21015041198632,1.20532431520718,1.16437867499042,1.13082545422839,1.11357522139056,1.10207346874338,1.12117127142529,1.15649455613603,1.17080708532458,1.15181487096957,1.11741411067402,1.05859708773611,1.03546601866474,1.02193780075009,1.00904939682468,0.999605166511592,1.00646710813533,1.01715648623385,1.03439621830773,1.05817333339307,1.06232351448428,1.02172333074077,0.963311214325117,0.93649223557523,0.910626053596809,0.898400501942744,0.890749982807186,0.882682824949795,0.881435904604605,0.891510273376418,0.883312507172435,0.875700761249382,0.851989623586627,0.812317776956142,0.806889744046217,0.799248645617293,0.795238475963111,0.793017583885464,0.776832301912051,0.768650586491487,0.756482895981738,0.75082186194592,0.743731661624514,0.734235604216489,0.71515736357991,0.733001005147783,0.727143403441819,0.714560138770219,0.686595236174617,0.673269018543265,0.669916654556842,0.660905950935546,0.653488275459417,0.651601167154849,0.627242295223056,0.621136280811185,0.619571261993107,0.605252067632053,0.606300273071588,0.590847833082013,0.582874111526406,0.5879718585053,0.590264050137458,0.593177200360749,0.589676190384901,0.585168651270225,0.582508431683159,0.575447309173309,0.574537535004525,0.556741556103945,0.551871959843906,0.557286185834706,0.552136780202839,0.553082108521106,0.549335494218375,0.545658041368714,0.529222910421648,0.519355985706895,0.514967649853124,0.516042993040056,0.520851639342809,0.533111675569857,0.541559954126633,0.509383815525058,0.500586862611661,0.604924782240481,1.02868296105353,1.15636725524701,1.02769346117568,0.770577120962821,0.708891333143809,0.706396730533933,0.70496809291525,0.677446806276387,0.58746015365259,0.636444398915289,0.656072791395628,0.656259737658686,0.657763804001448,0.664502528940248,0.671398924629106,0.674196437606092,0.676896924243285,0.683443370549046,0.694598648840624,0.701954800604962,0.711839753650307,0.714660997753097,0.718302778956376,0.762564477501546,0.928427747141641,1.09174467969809,0.88313654965263,0.556751339940689,0.728945576545826,0.804554976485002,0.850476931138175,0.844163876278259,0.827497293412372,0.777393873043893,0.7653401717231,0.765867766029536,0.766506505572992,0.767241596184212
