0.811209315844332,0.810702556426835,0.808378232094961,0.808189798087733,0.809805208072027,0.809098123180827,0.808277611994014,0.807420511679584,0.807254945877117,0.809505177225567,0.809655192648797,0.812279547827131,0.812419501240266,0.815951266783504,0.816133297693399,0.816340026264435,0.829008096973655,0.834216559289945,0.83351953640884,0.833017350632296,0.83277037402088,0.839425021606235,0.8428012833571,0.842868973243191,0.843557763570583,0.85150400736082,0.852436115386865,0.851999790040031,0.855444656405178,0.87527687830182,0.871414895881839,0.869416214785756,1.10847676844102,1.10905304720099,0.843168089361461,0.840799858076446,0.836985441522367,0.825200083516909,0.82503085880168,0.826036145082959,0.827721074409725,0.825994067586199,0.828877290842424,0.830253956769016,0.832804218963926,0.833473799999318,0.830703088310516,0.833586311566741,0.838708789433131,0.850170333659178,0.851116162608079,0.849943481067952,0.840433966800275,0.842598213698825,0.842812260095385,0.842446368819214,0.836589364215912,0.836228961308884,0.828358639958452,0.828184841602271,0.828537011955585,0.84018699018886,0.841078850174526,0.835716713522245,0.836465875910204,0.843412321788305,0.843023562307374,0.843999577286559,0.846379700038049,0.847468226584657,0.854081711401442,0.847405110339518,0.846640397572321,0.847347482463521,0.863298512648182,0.864920325729809,0.864692558410393,0.858773352290141,0.854862889276067,0.856209369172375,0.865230418586363,0.867740432740894,0.874739018125849,0.874825002575749,0.874050227798458,0.871829267752102,0.872717468825006,0.878116194604905,0.876768799980406,0.874993312562788,0.875580568061042,0.885059896298434,1.10020762559956,0.899906849557251,0.895398154306637,0.895064278517131,0.897078509992451,0.897434339258527,0.900306585776467,0.900105345574573,0.891084296160585,0.88569471766259,0.885562082074978,0.875723265658748,0.877057854088581,0.87666909460765,0.873659638861146,0.872194244300082,0.871708523630966,0.874791157632704,0.878027465970433,0.878274442581849,0.874110599859026,0.874659436773282,0.881396409895775,0.874867080072509,0.874281654030636,0.91105189782941,0.907012458140485,0.904197839498542,0.906039187345871,0.903905126477606,0.904744846956418,0.912213602631252,0.920811132893073,0.925750665121377,0.927662447039369,0.938584301633064,1.21893019743505,1.23749917970071,0.998681943744101,0.999175896966931,0.990650630232154,0.993586907723424,0.994977294572872,0.994721170679553,0.994894969035734,0.997858688372717,1.00479232805615,1.02343448857705,1.02899603597484,1.33695757584581,1.19190912668984,1.06239276220732,1.20635268481668,1.06206346005877,1.11176978992656,1.07188764082395,1.07817182349218,1.07722050617414,1.08195879820055,1.08259910793385,1.08432794421376,1.0867794157641,1.08856313573543,1.08985290248393,1.09227693218856,1.09230437403428,1.09009987909535,1.09176468440193,1.08688918314695,1.08449259528803,1.25607730924828,1.27354861768543,1.13000032276176,1.11458715275307,1.1435748891077,1.25093653681808,1.19767191428953
0.806642077989531,0.807210124195786,0.806691473311814,0.806323752579263,0.80721927147769,0.80927649517796,0.80771230997233,0.805749303275675,0.808106557822404,0.812153315336852,0.813785190428573,0.81439897304435,0.814347748265686,0.815774724242752,0.815301809768301,0.815243267164114,0.817821885932927,0.82955418970334,0.830043569285218,0.831272049244961,0.836014000184134,0.842611019893491,0.841941438858099,0.843235779247553,0.836510697591535,0.839059130330064,0.839279579823957,0.85253307657505,0.858025104630372,0.857111291168136,0.861694079402174,0.862428606139086,0.863502497034647,0.846946831516114,0.838468215919048,0.837381518828822,0.833825055624442,0.823902998942884,0.82400178958745,0.824035634530495,0.827902190591429,0.827807058859625,0.826968253109003,0.827535384587068,0.829849646908848,0.828685197922434,0.827502454372213,0.827007586421192,0.83525660524246,0.842466492839404,0.84723862980886,0.847100505852106,0.842982399538804,0.841947841955432,0.841753004850871,0.841014819201196,0.837029348475507,0.836669860296669,0.8253537578529,0.825423277195373,0.827694547292202,0.830450623329958,0.835059023953328,0.83330640474047,0.834176311249566,0.840882183613585,0.842204880576942,0.843158027351366,0.843259562180504,0.844207220585786,0.848623528289166,0.84466732886557,0.845543638471999,0.84591044447636,0.860439072324908,0.861416916760474,0.858001321697421,0.856140764558093,0.857054578020329,0.855707183395831,0.863476884645315,0.864126341660518,0.868316711500863,0.87439690978263,0.872122895501229,0.871407578056315,0.871357268005842,0.875821141575124,0.87531987052677,0.87165363993954,0.875132351247733,0.879345589292838,0.892301799382043,0.894627038442107,0.892606403869455,0.893621752160828,0.898289610116576,0.900044973514005,0.901167345003659,0.890143955580826,0.890116513735113,0.885021477714436,0.884115896805914,0.885884066398009,0.876359916479285,0.874343855547585,0.874673157696139,0.878308287524894,0.87664805585927,0.878786690368488,0.879076659204853,0.880778053639047,0.877969838094437,0.877893915654631,0.881288471969305,0.880563092514296,0.879596224817015,0.903434956187727,0.904577451697569,0.905939481973115,0.905031156880021,0.905515048092757,0.905434552011999,1.08092515534537,0.922411907226319,0.923354077262459,0.928375935027902,0.929491903420222,1.24116723974432,1.04607401129011,1.30517077122848,0.997465355250833,0.985491563238147,0.99263559040538,0.9933216365482,0.992882567016795,0.995013883700489,1.01440612133754,1.02422115482081,1.02888626859199,1.03557293166401,1.25730304502345,1.42742419387902,1.07141198216493,0.00424496996603144,1.45686014704695,1.11007754277427,1.07806205610933,1.07690035130749,1.12560048016581,1.08319368125763,1.08337662689571,1.1382328764756,1.08948701120776,1.08942298023443,1.09069445241913,1.09319166037899,1.09383197011229,1.09466437276558,1.09600902320551,1.09612793787026,1.13829690744893,1.11610560154918,1.21855515887697,1.13832434929465,1.18009998575143,1.18450897562929,1.18374975123124,1.10626312622019
0.800013957521699,0.80700339562475,0.807193659088358,0.806067628685943,0.805699907953392,0.806199349545365,0.807771767304708,0.804876652582007,0.808262061614777,0.809663425202511,0.8119767727961,0.812960105600809,0.815206678036497,0.815377732208106,0.816037251233404,0.810038463760585,0.810811409081496,0.818929621771534,0.819114396866,0.830881460307649,0.859429212402677,0.840616912438361,0.838549626727996,0.835912465354996,0.837348588613966,0.839392091391379,0.839513750240706,0.853713990668891,0.855786764748398,0.85609136923581,0.858950809559084,0.864040357210618,0.864293736919366,0.841703609528588,0.838843254477123,0.83088328976403,0.833191148988477,0.823902998942884,0.823548999133188,0.823330379095676,0.827742113158105,0.828124469541703,0.828162888125701,0.828459260059399,0.829373988249826,0.830306096275871,0.826777074917204,0.827322252918699,0.827022222072239,0.845297576588774,0.845746708130274,0.844357236009016,0.843169004089651,0.841970710160192,0.842977825897852,0.842292694483223,0.837444635073961,0.836931472559131,0.837616603973761,0.825709587118976,0.826418501466557,0.828142764105511,0.829344716947732,0.832116343364725,0.831818141974646,0.836506123950583,0.838288014465534,0.842355810728362,0.842841531397479,0.843125097136511,0.848129575066336,0.845456739293909,0.846183948205298,0.844607871533193,0.853235587825298,0.859989026055218,0.85619839243409,0.856257849766468,0.854443943764851,0.856805771952533,0.860693366761847,0.86151570740504,0.864756589383722,0.86301494690915,0.866296991656401,0.866961999050841,0.868933238301211,0.875501901436665,0.868539905179327,0.868607595065419,0.870555966111028,0.879726116220056,0.886822577521386,0.890278420624819,0.890295800460437,0.892451814805273,0.897565145389758,0.898171610180011,0.900207795131901,0.890442156970905,0.890406482571478,0.881809867037848,0.880225557812029,0.881075340300935,0.876667265151269,0.87557599442009,0.882565432523141,0.882447432586575,0.888431584408347,0.886022190354763,0.88301547879283,0.883746346616981,0.880749697065143,0.879661170518536,0.880639929682292,0.882473044975907,0.882722765771894,0.901283515483843,0.898692090520364,0.898365532556381,0.90050599652198,0.905794040190837,0.909032177984948,0.916136871839992,0.919036560203645,0.928805857277402,0.929007097479296,1.26627652857154,1.25836412972435,1.35834392093799,1.27267962590452,0.997858688372717,1.00496612641233,1.40940404852761,0.998965509483133,0.997950161191759,0.999029540456463,1.04581788739679,1.03583820283923,1.03278301068321,1.04038440194566,1.04148207577417,1.04677835199674,1.4661812273074,1.06563090000143,1.09613708515217,0.00419673634855024,1.11471521469973,1.08156546507867,1.12993629178843,1.0846298045166,1.0867794157641,1.08840763194306,1.09165491701907,1.09240499413522,1.09310018755995,1.09468266732939,1.09531382978078,1.09548762813696,1.09640235632739,1.09405150487799,1.09272514900187,1.09001755355821,1.08704468693932,1.2194698870674,1.21321314624488,1.15991193458872,1.09712499159783,1.13248838343972
0.800593895194429,0.803508219209129,0.805502326664259,0.806900031339231,0.806470109089731,0.806310946384597,0.805475799546737,0.804758652645442,0.804900435514959,0.805303830646937,0.809574696568039,0.812751547573391,0.815772894786371,0.814090709644176,0.810242448147051,0.810296417110286,0.811104122102433,0.812867718053575,0.813439423172592,0.819077807738383,0.824789370559407,0.836724743988095,0.838785626601126,0.83420649727985,0.83784894493413,0.84057209075703,0.840653501565978,0.854156719113057,0.853856688266597,0.853646300782799,0.859698142490663,0.860151847673114,1.08464809908041,0.837526960611099,0.83844900662705,0.830022530536838,0.828651352979389,0.829963073204461,0.824620145844178,0.823602053368233,0.826747803615111,0.826728594323112,0.827140222008804,0.826991121313764,0.828480298807779,0.829952096466176,0.826361788318751,0.825415959369849,0.825918145146394,0.842128958137136,0.842798539172529,0.841216974131281,0.841896617176768,0.842729934558247,0.842958616605853,0.840610509341028,0.836517100688868,0.838352045438864,0.839555827737466,0.829070298490604,0.827508857469546,0.827613136483254,0.828472980982255,0.830509165934145,0.830045398741599,0.830507336477765,0.841081594359098,0.841700865344017,0.841074276533574,0.840860230137014,0.847706055914168,0.839132308585298,0.840321455232853,0.841722818820587,0.842076818630282,0.858915135159657,0.855153772840623,0.852460813048006,0.852015340419268,0.851553402683103,0.859381646536775,0.859238948939068,0.86183586227169,0.86164285462351,0.864538884074401,0.865541426171108,0.867258370984539,0.874432584182056,0.87051754752703,0.868616742347323,0.869243331157766,0.87767803980169,0.878175651937283,0.886424670758551,0.886677135739109,0.887765662285717,0.886204221264658,0.886965275119093,0.885684655652496,0.88839408055254,0.888258700780357,0.8835725482608,0.880294162426311,0.876744102319265,0.877460334492369,0.880367340681545,0.880833852058663,0.883496625820995,0.887908359883423,0.883502114190137,0.883195680246345,0.88436470287371,0.883982346490112,0.880861293904376,0.880915262867611,0.881571122980147,0.882451091499337,0.899721159734594,0.899378136663184,0.896641269917427,0.897856943682504,0.907173450302,0.912534672226092,0.918149273858931,0.923125395214852,0.932611126549577,0.93326058356478,0.942892671409974,1.27963156015177,0.96198304874418,1.30789666123595,1.01184488240434,0.987714352740884,0.99038535905693,1.03044130651572,1.03299339816701,1.0252639449579,1.02787092030062,1.02579448730835,1.02552921613313,1.03322208021461,1.26731017142672,0.00398642204300733,1.51601561912184,0.00387406597937721,1.09258793977331,1.47569440048783,1.47568525320593,1.07824500174742,1.08643181905174,1.08839848466115,1.08706298150313,1.08992608073917,1.08975228238299,1.09093228174864,1.09130732030671,1.09056639047247,1.0936398771923,1.09604561233312,1.09430762877131,1.09301786202281,1.092999567459,1.09022794104201,1.08937724382491,1.08961507315442,1.08666050109934,1.08436453334137,1.08588298213748,1.25446738763313
0.795487882435467,0.798921772062329,0.799182469596601,0.799353523768211,0.799790763843235,0.801204018897444,0.802114173446919,0.801289088619154,0.801154623575161,0.796519695834269,0.796046781359818,0.809910401813926,0.810783052507593,0.807673891388332,0.806974124322656,0.808436774699148,0.808956340311311,0.81208471072257,0.812979314892808,0.812998524184806,0.817277622659623,0.831680932746082,0.832700854678408,0.828609275482629,0.829140732561267,0.884338175756188,0.855496795912033,0.855754749261733,0.85371216121251,0.853310595536913,0.858187926248268,0.859516111580768,0.855903849956772,1.11231862684081,0.82818301214589,0.82685299735701,0.826320625550181,0.82603980399572,0.821936333333466,0.822006767404129,0.823652363418707,0.822993759121599,0.822635185670952,0.823050472269406,0.823698099828228,0.82410972751392,0.824337494833336,0.82370267346918,0.823792316831842,0.839646385828318,0.839065533427397,0.840503486142748,0.838250510609727,0.840401951313611,0.840705641072832,0.839729626093647,0.836467705366585,0.836791519145996,0.836454899171919,0.821498178530252,0.822661712788474,0.824094177134683,0.825612625930791,0.824962254187398,0.826172439583332,0.833793954865968,0.842026508579809,0.843975794353608,0.844360894921778,0.840111067749055,0.836954340763892,0.83720589101626,0.838614572429517,0.840537331085794,0.84635957601786,0.85452626930199,0.855386113800991,0.846816025384883,0.847867962803874,0.85041182190145,0.85103383707094,0.850288333595743,0.854602191741795,0.856266082320181,0.860552498620521,0.8609366844605,0.859712778141709,0.865857007396806,0.867871238872125,0.86771024671061,0.866539394626864,0.872292120216458,0.875106738858401,0.882813323862746,0.885763322276872,0.885851136183153,0.882360533408485,0.879923697509188,0.8800563330968,0.884237555655241,0.887015585169567,0.881583929174813,0.877007544038108,0.877903062936535,0.881435743207964,0.881951649907364,0.877245373367619,0.878453729307172,0.884240299839812,0.880722255219431,0.880531077027631,0.881465014510057,0.879362969128456,0.880263976396027,0.87907117083571,0.87885620971096,0.883267029045198,0.882917602876455,0.881691867101283,0.897046494505786,0.897592587235471,0.903180661750788,0.915313616468608,0.916557646807588,0.922146636051096,0.93015050771733,0.934321668265676,1.16293053761713,1.26835296156381,1.30488720548945,1.30811619600166,1.21791484914368,1.00888116306736,0.993779000643413,0.995956053736629,1.04019230902567,1.02765138553492,1.02958146201672,1.02770626922634,1.02627929324928,1.02662688996164,1.26928598431804,1.04855292468617,1.46703192452449,1.07774190124268,1.09248731967236,1.09012732094106,1.09630173622644,1.07764128114174,1.09374964457515,1.08645926089745,1.08736484180597,1.08778561677357,1.08984375520203,1.08928577100587,1.08926747644206,1.08971569325537,1.09069445241913,1.09125243661529,1.09026453016963,1.09049321221723,1.08996266986678,1.09031026657915,1.08886499603827,1.08726422170503,1.0880691825126,1.08974313510108,1.08692577227457,1.15937224495637
0.793057449633504,0.795596735090128,0.795845541157924,0.7968224708653,0.798337260748647,0.799122097536033,0.798992206132992,0.798418671557595,0.797077680030429,0.793772767078417,0.791390814870546,0.796202285152191,0.797223121812707,0.799130330089747,0.805945055108426,0.806898201882851,0.808733146632847,0.809077999160637,0.802985909412395,0.808689239679706,0.806042016296611,1.01967495571439,0.823677061079848,0.823504177451857,0.82361577429109,0.828357725230262,0.852258658117922,0.853599649645087,0.852305309255634,0.850694472912292,0.851531449206533,0.852825789595987,0.845894894097123,0.846662351048891,0.822968146732267,0.822876673913225,0.824188394138297,0.824059417463446,0.81649918896957,0.817815482835594,0.819499497434169,0.818824428029634,0.818648800217072,0.819410768799698,0.819150071265426,0.820913667216569,0.821874131816517,0.822103728592314,0.822682751536854,0.836120108654223,0.835627984887773,0.837476650560626,0.834822109352008,0.836554604544676,0.835784403408336,0.8339915361551,0.833358544247325,0.832911242162206,0.833096931984863,0.824099665503825,0.822692813546949,0.821544829667963,0.821841201601662,0.824224983265914,0.823520642559285,0.833639365801786,0.837236991774734,0.840178757635146,0.839977517433253,0.837256201066733,0.834285163904227,0.83559962831387,0.836230790765265,0.840558369834174,0.841009330832054,0.857373818158788,0.846200413312726,0.846401653514619,0.847334676268855,0.848970210273338,0.84796675344844,0.847415172349612,0.847420660718755,0.850150209638988,0.855583695090123,0.855750175620781,0.856438965948172,0.855845307352585,0.863372605631607,0.863603117135594,0.865419767321782,0.868529843169233,0.873731902388189,0.878301884427562,0.881039665901509,0.87829914024299,0.873618476092576,0.874578025964334,0.871832926664864,1.06826531718986,0.871209996767183,0.871055407703001,0.871977453718951,0.8746768166089,0.879030922795332,0.878973294919335,0.875997684115877,0.877138350169339,0.880236534550314,0.878541543213453,0.877357884935041,0.876274846757576,0.87624100181453,0.876363575392047,0.87772011729845,0.881326890553303,0.88213551027364,0.880430456926685,0.87949926362883,0.89392452719186,0.894389209112596,0.903792614910183,0.915953926201907,0.922594852864405,0.925256711898547,0.931641514667725,0.951106930560006,0.946697940682149,0.947420575952587,0.960592661894731,0.973856220655919,1.27848814991373,1.01729666241928,0.997675742734631,1.01808332866305,1.03056936846238,1.03004797339383,1.02837402080535,1.02793495127395,1.02717572687589,1.06145059217118,1.05396811557349,1.07457694170381,1.1163708727244,1.06750609279181,1.08774902764595,1.47214525510898,1.0966493329388,1.11904187904045,1.08173011615294,1.08342236330523,1.08843507378877,1.08842592650687,1.08768499667262,1.16386356037136,1.08603848592985,1.08801429882118,1.09066701057341,1.08905708895826,1.08960592587252,1.09022794104201,1.08925832916016,1.08924003459635,1.08858143029924,1.08938639110682,1.08945042208015,1.08970654597346,1.09177383168383,1.08535243978703
0.792633930481336,0.794402100073431,0.795761386164405,0.79590042484935,0.796130936353337,0.797141711003759,0.79755150923307,0.795902254305731,0.795175045394341,0.79384228642089,0.786321391239201,0.786765949139749,0.788272506469381,0.798396718081025,0.799559337611057,0.806282589810693,0.805713628876248,0.80509618734771,0.801876344117408,0.800838127621273,0.802150762574536,0.822036038706223,0.821982984471178,0.81757216513694,0.823821588133935,0.824186564681916,0.847151730630769,0.847468226584657,0.850145635998036,0.847677699340265,0.849084551297141,0.849955372534427,0.841912167556005,1.08801429882118,0.824311882444004,0.823665169613373,0.820718830112008,0.814258104903024,0.815037453321268,0.813620539354297,0.816647374936419,0.814404461413492,0.814689856608905,0.816386677402147,0.817309638146288,0.817252924998481,0.817235545162863,0.82194456588718,0.82203146506527,0.831670870735987,0.833600032489597,0.833394218646751,0.832138296841295,0.830255786225397,0.830042654557028,0.830426840397007,0.829159941853266,0.828474810438636,0.824606424921322,0.820862442437905,0.821174364750841,0.819610179545211,0.819038474426194,0.820178225751466,0.818839978408872,0.826490764993601,0.82719693515661,0.836475937920299,0.839660106751175,0.837642216363093,0.83056222016919,0.831616901772752,0.83334756750904,0.833740900630923,0.843876088980851,0.853909742501642,0.852391293705534,0.844402057690347,0.844138615971504,0.842152741070087,0.842777500424149,0.843520259714775,0.844851189231846,0.848856783977725,0.852479107611815,0.853206316523204,0.850437434290782,0.852290673604587,0.852948363173504,0.860177460062446,0.863440295517698,0.865639302087484,0.870966679068529,0.876572133419465,0.877950628802438,0.871152368891186,0.869812292092211,0.868361533182194,0.866716851895807,0.870305330586851,0.87152466326469,0.868077967443162,0.867766045130226,0.869583610044604,0.875601606809422,0.878242427095184,0.877437466287608,0.879132457624469,0.882128192448116,0.881738518238995,0.877659745237882,0.876101048401395,0.875482692144666,0.875175343472683,0.876877652635067,0.877740241318639,0.878738209774395,0.87763504757674,0.881259200667211,0.890913241988975,0.892607318597645,0.896821471370941,0.920317179670242,0.923573612028162,0.92489996790428,0.926519036801336,0.944136701748954,0.945133755476519,0.946258871150744,1.25795250203865,1.23570631244748,0.98183265047644,1.00838720984453,0.999102718711697,1.36923833368597,1.01858642916779,1.09053894862675,1.06832020088129,1.06557601631001,1.00764628001028,1.005761939938,1.06510035765099,1.03332270031556,1.03477711813834,1.0857183310632,1.09636576719977,1.10290607376132,1.09660359652928,1.49537935114582,1.081629496052,1.08346809971475,1.08504143220229,1.08520608327657,1.08599274952033,1.0857000364994,1.08640437720602,1.08625802069556,1.08660561740792,1.08690747771076,1.0874197254974,1.08797770969356,1.08878267050113,1.08858143029924,1.09014561550487,1.08807832979451,1.08904794167636,1.0917006534286,1.09258793977331,1.13142729873883
0.794160611831158,0.798412268460262,0.797498454998025,0.796250765746283,0.795710161385741,0.79626540139733,0.794102069226971,0.792720829659427,0.794468875231332,0.786091794463404,0.786118321580926,0.785888724805129,0.787234289973247,0.790086412470998,0.79939560126497,0.796953276996531,0.796107153420386,0.797323741913654,0.796669711257499,0.797715245579157,0.975548467808208,0.820049249076616,0.816829405846314,0.81707821191411,0.818432924364132,0.985528152365764,0.846183948205298,0.844681964516617,0.843813887463902,0.844308755414923,0.843176321915175,0.838011766552025,0.836656139373813,0.829026391537464,0.825086657221296,0.822712022838948,0.82003644288195,0.817681017791601,0.811940183668483,0.811839563567536,0.810479362748371,0.81088458733673,0.813978198076754,0.812572260848068,0.814222430503598,0.814830724750231,0.815246926076875,0.819525109823501,0.819961435170335,0.824545138132563,0.828688856835196,0.830191755252067,0.826374594513417,0.823905743127455,0.8285260352173,0.82927611233345,0.829358437870589,0.824033805074115,0.820263295473176,0.820346535738504,0.821878705457469,0.823011138957218,0.821628984661483,0.819998024297952,0.821939992246228,0.825684889457835,0.825474501974037,0.825142455640912,0.824806750395025,0.833999768708814,0.832503273389276,0.83131229728534,0.834447985522123,0.833857071111107,0.834394931287078,0.929382136037371,0.849594969627399,0.840842850301396,0.839810122174404,0.840340664524852,0.83977902141593,0.835237395950461,0.836153038869078,0.846630335562226,0.852284270507254,0.850637759764486,0.847390474688471,0.849133031891234,0.849821822218625,1.09791165784159,0.861825800261595,0.86595122440042,0.86927534664443,0.871380136210602,0.87426976256416,0.86655311554972,0.865401472757973,0.863864729398056,0.864205008284895,0.868003874459737,0.867809952083367,0.860514080036523,0.865380434009593,0.862982931422485,0.871064554984905,0.87204056996409,0.874688708075376,0.880789945105522,0.881083572854649,0.877404536072753,0.876636164392794,0.876089156934919,0.875071064458974,0.874975017998979,0.874841467683177,0.876129404975298,0.877608520459218,0.878086923302811,0.887102484347657,0.889081956151741,0.890938854378307,0.931906785842949,0.932025700507705,0.923198573470086,1.08941383295253,0.944923367992721,0.945792359773627,0.947118715649746,0.951079488714294,0.956695919803514,1.31005541976536,1.29595031106898,1.0338258008203,1.03634130334397,1.00870736471118,1.01461650882133,1.01466224523086,1.01255837039287,1.00799387672264,1.00797558215884,1.06819213893463,1.15642682018319,1.0672682634623,1.03927758083524,1.04086006060468,1.10190902003376,1.10136933040141,1.10888839612671,1.08342236330523,1.11144963505991,1.14394992766577,1.08637693536031,1.08732825267836,1.08588298213748,1.08532499794132,1.08564515280797,1.08668794294506,1.08730081083264,1.08551709086131,1.08702639237551,1.0867702684822,1.08945042208015,1.08976142966489,1.08932236013349,1.08949615848967,1.24342661837468,1.09395088477705,1.09637491448168,1.10311646124512
0.802286142346719,0.799270283502882,0.797127990080903,0.796696238375021,0.796311137806852,0.795918719413158,0.794251169922011,0.791903977385376,0.792012830040036,0.78402450875304,0.784297097753787,0.783908338272855,0.785179810457549,0.784480043391872,0.786152166523972,0.789670211144353,0.788278909566714,0.785306957676018,0.784138849776843,0.785404833592394,1.10014359462623,0.815427127530389,0.815195701298212,0.816383933217576,0.818114598953863,1.10366529815938,0.988866910260822,0.840349811806756,0.839985749986966,0.835867643673665,0.835013287543807,0.834711427240966,0.895381689199209,0.825136052543579,0.824590874542084,0.821809186114997,0.820645651856774,0.812723190999488,0.809772277857171,0.805511473946164,0.805694419584249,0.808424883232673,0.809067022422352,0.812286865652655,0.814296523487022,0.811514835059934,0.811717904718209,0.816769948513936,0.822192457226786,0.824255169296198,0.824142657728775,0.82250255008334,0.823536192938522,0.822680007352283,0.825192765691385,0.828017446343423,0.829009011701846,0.823800549385556,0.819551636941024,0.82003644288195,0.82308065829969,0.823560890599664,0.819446443199125,0.818971699268293,0.818884800090202,0.823694440915466,0.8228885653797,0.822170503750215,0.823936843885929,0.832614870228508,0.82813910519275,0.826959105827099,0.829097740336317,0.831552870799422,0.831752281544935,0.833634792160834,0.833838776547299,0.834703194687252,0.835570357011777,0.839204572112342,0.844691111798522,0.844660011040047,0.842905562370808,0.843900786641993,0.84929676823732,0.850036783343375,0.848049993713769,0.846519653451185,0.846800475005646,1.10233894228326,0.859999088065313,0.861588885660275,0.864744697917247,0.865369457271308,0.866515611693913,0.869236928060433,0.860094219797117,0.859698142490663,0.861523939958754,0.866626293804955,0.863048791852196,0.858501678017584,0.859351460506491,0.861026327823162,0.862542032434699,0.864918496273428,0.868753951575887,0.878252489105278,0.877624985566646,0.875822971031505,0.874628336014808,0.873513282350677,0.874230429251972,0.872374445753596,0.87343187154173,0.874903669200126,0.879345589292838,0.881870239098416,0.887784871577715,0.889818312345034,0.899018648484346,0.900212368772853,0.92565004502043,0.921735008365404,0.928202136671721,0.939334378749214,0.950366000725761,0.948344451424917,0.953238247243701,1.23665762976552,1.22563515507088,1.29676441915846,0.995068767391915,1.03993618513235,1.03630471421635,1.03581990827543,1.01565015167652,1.04252486591125,1.01060999934727,1.01392131539661,1.06215493287781,1.02309603914659,1.04687897209769,1.04851633555855,1.0754093443571,1.08629460982317,1.08559026911654,1.11063552697043,1.11448653265213,1.12400885311447,1.14649287203516,1.08674282663648,1.08708127606694,1.08505057948419,1.08536158706894,1.08646840817935,1.08391631652806,1.08553538542512,1.08110810098345,1.08157461236057,1.08709957063075,1.08812406620403,1.09026453016963,1.21949732891311,1.13655892388712,1.24820149952871,1.24783560825253,1.31719029965069,1.16231766972954
0.798057353922376,0.798626314856822,0.796576408982075,0.795754068338882,0.795803463661165,0.794026146787165,0.792873589267228,0.791594799257011,0.789010692119056,0.783919315011141,0.780868696496067,0.781892277341155,0.78248136229579,0.782299331385895,0.783642152369441,0.785087422910315,0.786251871896729,0.774804048593538,0.775775489931771,0.774620188227262,0.877723776211212,0.816341855720816,0.814450197823014,0.815628367732283,0.817694738714457,0.824093262406492,1.07748577734936,0.834079350061381,0.833644854170928,0.829835011257801,0.830365553608248,0.830336282306155,0.822760503433041,0.81808624237996,0.81772126583198,0.818661606411738,0.818467684035368,0.810056758324394,0.801180235964493,0.801933057265214,0.801187553790016,0.801933971993405,0.805086125337615,0.806521333868395,0.808078201248501,0.808372743725818,0.807706821603188,0.809613115152037,0.818039591242248,0.822253744015544,0.821639046671577,0.816845870953741,0.815997917921216,0.813939779492756,0.81283387311053,0.822579387251336,0.826812749316631,0.821755217151762,0.819254350279135,0.81643607272443,0.817741389852169,0.817476118676945,0.814553562108532,0.814484042766059,0.815504879426576,0.820962147810662,0.819777574804059,0.817710289093694,0.816619933090706,0.826948129088814,0.827246330478893,0.822367170311157,0.828425415116353,0.82863305841558,0.827928717708952,0.824803091482263,0.825012564237871,0.829229461195738,0.830376530346533,0.83634970543002,0.842852508135764,0.841717330451444,0.841563656115452,0.84061416825379,0.842236896063607,0.843189128109841,0.846084242832541,0.845948863060358,0.847032815966014,0.849864814443575,0.857917166703902,0.860359490972341,0.861570591096466,0.865355736348452,0.865775596587858,0.860204901908159,0.85836446878902,0.858773352290141,0.86123488585058,0.863858326300723,0.865176449623128,0.8583855075374,0.857240267842986,0.859455739520199,0.859717351782661,0.864338558600697,0.867762386217465,0.874476491135197,0.873850817052945,0.874670413511567,0.874830490944892,0.874684134434424,0.87208264746085,0.872256445817031,0.87272478665053,0.87306963917832,0.883942098449733,0.8894871807401,0.89107423415049,0.891970667777108,0.934724148669463,1.12088962998511,0.91510322898481,0.926491594955623,0.928211283953625,1.16664433407026,0.944401972924178,0.946890033602139,0.952296077207561,1.22257081563295,1.19465331126112,1.27902783954609,1.26724614045339,1.29694736479655,1.04230533114555,1.02408394559225,1.01683929832407,1.03974409221236,1.04554346893966,1.20944446610032,1.06751524007371,1.02541944875027,1.02881309033676,1.0319140189023,1.07332376408292,1.07150345498397,1.1127119599627,1.12379846563067,1.1155110282254,1.12201474565934,1.15306062044242,1.15424061980807,1.0827180225986,1.08459321538898,1.08609336962128,1.08766670210881,1.08584639300986,1.14921876204263,1.14139783601448,1.18793920634339,1.16290309577141,1.22209515697393,1.17108991307573,1.10020762559956,1.10025336200909,1.31953200381818,1.32425200128078,1.10565940561451,1.10345491067558
0.798535756765969,1.00216705814963,0.782279207365705,0.791234396349983,0.795040580350349,0.793774596534798,0.793620922198807,0.792873589267228,0.784311733404834,0.784596213872056,0.779742666093652,0.781128479302149,0.782448432080934,0.781070851426152,0.783752834480483,0.782818896998057,0.7675840989865,0.774329304662707,0.775380327353507,0.775553210981498,0.773226142465052,0.816183607743872,0.816079328730164,0.819470226132076,0.819083296107525,0.826887757028246,0.827357927318125,0.825998641227151,0.829760918274376,0.828360469414833,0.829282515430783,0.826835617521392,0.827315849821366,0.817730413113884,0.81688520426593,0.950731892001931,0.803525599044747,0.799826438242662,0.799714841403429,0.799782531289521,0.800103600884361,0.800715554043756,0.803730498159403,0.805406280204265,0.808987441069785,0.803576823823411,0.804611381406784,0.804953489750003,0.814715468998237,0.815118864130216,0.818331389534994,0.818125575692148,0.812323454780272,0.811758152758588,0.812921687016811,0.813118353577752,0.808479766924098,0.808576728112284,0.817119374682679,0.809142944862158,0.810616571976935,0.808529162246381,0.812766183224438,0.812660074754349,0.814060523613892,0.814744740300331,0.816511995164236,0.813212570581366,0.812805516536626,0.824248766198865,0.825025370432537,0.820060225814901,0.819616582642544,0.822548286492861,0.825040920811774,0.825232099003574,0.824572579978276,0.824382316514667,0.825097633959581,0.830228344379684,0.831078126868591,0.840362618001422,0.840716617811117,0.839621688167177,0.839889703526972,0.843077531270609,0.849361713938841,0.84946690768074,0.849343419375032,0.850831682140856,0.856958531560335,0.857274112786032,0.85958471619505,0.865793891151666,0.866700386788379,0.858736763162524,0.856202051346852,0.855982516581149,0.861966668402921,0.862895117516204,0.864090667261092,0.858211709181219,0.856767353368535,0.861587970932084,0.86164285462351,0.864132744757851,0.867982835711357,0.871227376602801,0.872149422618751,0.872517143351303,0.872170461367131,0.872322306246742,0.873257158457358,0.873225142970693,0.875425064268669,0.878592767992117,0.963163048109831,0.945810654337435,0.946633909708819,0.907800953840633,0.910702471660667,0.91218799024192,0.919082296613166,0.92352787561864,0.927360586736528,0.928229578517434,1.00545093235326,1.00063031478971,0.953704758620818,1.20680090162999,1.07229926850964,1.30703681673695,1.06736888356324,1.25813544767674,1.04526905048253,1.04470191900447,1.02309603914659,1.04622036780058,1.04812300243667,1.03566440448305,1.05682206752762,1.02873991208152,1.0289045631558,1.03090781789283,1.0681372552432,1.0724181831744,1.09047491765342,1.13055830695792,1.0653473342624,1.06510035765099,1.14800217354936,1.08490422297372,1.11116606932088,1.08651414458888,1.09259708705521,1.09111522738672,1.09534127162649,1.09584437213123,1.19957454892562,1.16003084925347,1.1022200276185,1.10481785567931,1.10466235188694,1.1022108803366,1.10232064771945,1.10267739171372,1.1060801805821,1.10635459903923,1.105421576285
0.782865548135769,1.01355542412044,0.764679836981895,0.761198381489131,0.763499837616245,0.795830905506877,0.79197715564061,0.787014755207545,0.78394035375952,0.782729253635395,0.78252435452074,0.77789491514899,0.780975719694347,0.783787594151719,0.783522322976495,0.766808409481018,0.769380625152498,0.768026827430666,0.768105494055043,0.771921740065504,0.870719702457114,0.807055535131604,0.810094262180202,0.820611806913728,0.823630409942136,0.824164611205346,0.826951788001576,0.82633892011399,0.827215229720419,0.827584779909351,0.826236470556662,0.827363415687268,0.826876780289961,0.815016414572888,0.813497965776779,0.803916187982059,0.80267307237127,0.798761694629005,0.797167323393091,0.796426393558845,0.797420703101839,0.799283089697548,0.799756918900189,0.803014265986299,0.803928994176725,0.802476405810328,0.799402919090494,0.801060406571547,0.80310299462077,0.806449070341351,0.806622868697532,0.812532012807689,0.813518089796969,0.812767097952629,0.813079020265564,0.808359937531152,0.805266326791129,0.805578249104065,0.81165661792945,0.811564230382217,0.809499688856424,0.809346014520433,0.809399983483668,0.80899750307988,0.810682432406646,0.813781531515812,0.813610477344202,0.812178012997994,0.810570835567414,0.814621251994624,0.814953298327748,0.814618507810052,0.815486584862767,0.821245713549694,0.824766502354646,0.825458951594799,0.821962860450989,0.821800953561283,0.826847508987867,0.826979229847289,0.829743538438758,0.832143785210438,0.834211070920802,0.835441380336926,0.836596682041435,0.840862974321586,0.848704939098114,0.850055077907184,0.849850178792528,0.849276644217131,0.856514888387977,0.857971135667137,0.859353289962872,0.859035879280794,0.863375349816178,0.863233566946662,0.854584811906177,0.855643152422501,0.859060576941935,0.863275644443422,0.862462451082132,0.860372297167007,0.855437338579655,0.85881360033052,0.861037304561447,0.861967583131111,0.866066480152413,0.870722446641685,0.870914539561675,0.872093624199135,0.871029795313669,0.870937407766436,0.869899191270301,0.871133159599187,0.878214985249471,0.884346408309901,0.95649467960162,0.963528939386001,0.909656022610819,0.912256594856202,0.913140222288154,0.9172253983866,0.918881056411272,0.922228961588234,0.924607254883344,0.924168185351939,1.02073604041529,0.957226462153961,1.27688737558049,0.974139786394951,1.22219577707487,1.24663731432308,1.24467064871366,1.1984494332514,1.05125137284793,1.04053075845612,1.0554774170877,1.05445292151442,1.03869215479337,1.03924099170762,1.03952455744665,1.03128285645091,1.03260921232703,1.03461246706406,1.03695417123156,1.08353213068808,1.0578465631009,1.05883446954656,1.0608377242836,1.15398449591475,1.16017720576394,1.08145569769582,1.08115383739297,1.08379740186331,1.19147005715844,1.10227491130993,1.11151366603324,1.10955614770573,1.17806014188678,1.20108385043982,1.19977578912751,1.10588808766211,1.10126871030046,1.0998508816053,1.09931119197295,1.09959475771198,1.27099652603414,1.29157791031874,1.43833690119081
0.746886544221714,0.750085348703636,0.751129053568913,0.753037176574143,0.75264292872407,0.789064661082291,0.788999715380771,0.780311627028097,0.780170758886772,0.776547520524491,0.774964126026863,0.77347860744561,0.782710959071587,0.780817471717403,0.779893596245072,0.954710959630287,0.764856379522648,0.753295129923844,0.76213872206889,0.00418971123604777,1.13460140555961,0.805269070975701,0.806784775587238,1.17838029675343,0.815538724369621,0.81658608814766,0.820476427141545,0.82091641140114,0.821506411083965,0.822092751854029,0.825512005829844,0.827256392488988,0.826259338761423,0.815507623611147,0.815143561791357,0.813866601237521,0.795394580160044,0.796454750132748,0.794756099883126,0.794771650262363,0.794098410314209,0.7932202712514,0.796444688122654,0.796207773521333,0.799144965740794,0.798039974086758,0.795883959741922,0.797535958853833,0.79997279475313,0.801053088746024,0.800636887419379,0.80241603374976,0.808552945179333,0.810320200043237,0.806718915157527,0.805259923693796,0.804091815794621,0.806592682667248,0.80664024853315,0.805548977801971,0.807157984688932,0.808066309782026,0.808882247327886,0.81086171913197,0.804079924328146,0.806009086081756,0.806527736965728,0.805720946701771,0.80479707122944,1.06627120973473,0.811686803959734,0.810667796755599,0.809194169640822,0.808914262814551,0.812437795804075,0.815201189667354,0.819027497687909,0.82061638055468,0.824862548814641,0.824761928713694,0.827017648431287,0.82766710544649,0.831435785591048,0.832852699558019,0.833645768899119,0.833676869657593,0.84691756021402,0.849558380499782,0.850030380246042,0.849699248641108,0.851009139409799,0.85570626866764,0.85564132296612,0.859176747422119,0.862682900576025,0.863151241409523,0.852995014311215,0.854115556344488,0.857467120434212,0.856000811144958,0.856943895909288,0.857567740535159,0.856853337818435,0.860821428708507,0.862275846531285,0.860988823967355,0.868343238618386,0.868729253914746,0.868316711500863,0.868699067884462,0.868735657012079,0.868217006128107,0.868152975154777,0.869969625340964,0.871134989055568,0.877660659966072,0.881948905722793,1.00735356698935,0.910460983418394,0.911872409016223,0.912309649091247,0.915414236569555,0.917133925567557,0.917518111407536,0.922521674609171,0.923043069677714,0.927808803549837,0.928915624660254,1.00888116306736,0.972923197901684,0.974148933676856,1.07566546825041,1.19489114059064,1.00405139822191,1.05329121671258,1.05279726348975,1.01756193359451,1.07424763955525,1.03980812318569,1.03799696136864,1.0381158760334,1.03674378374776,1.03556378438211,1.03553634253639,1.03564610991925,1.03686269841251,1.05682206752762,1.05982237599222,1.06180733616545,1.06388376915772,1.15397534863285,1.09885382787773,1.08152887595105,1.08305647202906,1.10937320206764,1.10196390372518,1.18548773479305,1.17545316654407,1.19753470506097,1.16186030563433,1.20857547431942,1.22004616582737,1.24406692810798,1.09426189236179,1.09501196947794,1.25489730988263,1.29334333572626,1.29279449881201,1.38635289812886
0.748253148138212,0.748287907809448,0.749615178413757,0.749198977087113,0.749680124115277,0.75037074389905,0.773380731529234,0.772135786462063,0.769967880650752,0.771802825400748,0.773103568887535,0.772029677991974,0.773153878938008,0.77815103904231,0.780475363374184,0.754086369808563,0.741593012183715,0.744210049536526,0.745225397827899,0.964525993113566,0.806300884374502,0.80741136439768,0.80814040276545,0.811124246122622,0.812811919633959,0.817865792886067,0.817477033405136,0.818004831571012,0.820881651729904,0.82160245754396,0.825132393630817,0.824332006464194,0.822080860387553,0.82378865791908,0.812355470266936,0.809250882788628,0.801676933371895,0.788164568542911,0.785796337257896,0.786012213110837,0.788445390097372,0.789160707542286,0.790883140724859,0.791178597930367,0.795155836102343,0.793185511580163,0.79247202359163,0.792423542997538,0.796681602723974,0.796086114672007,0.793833139138986,0.798594299370157,0.79862357067225,0.799775213463998,0.801499476102952,0.800810685775561,0.798753462075291,0.799926143615418,0.804910497525053,0.80147294898543,0.800327709291015,0.806389613008973,0.808128511298975,0.805839861366527,0.805008373441429,0.804872078941055,0.806755504285144,0.802971273761348,0.80224680903453,0.801742793801605,0.807763534750994,0.810563517741891,0.80674635700324,0.805640450621014,0.806470109089731,0.811243160787377,0.819003714754958,0.822810813483514,0.825038176627203,0.824388719612,0.82451769628685,0.826072734210576,0.82822600437084,0.83047715044748,0.830934514542694,0.833488435650365,0.846802304462026,0.849127543522091,0.847692334991312,0.848496381070697,0.852925494968743,0.854185075686961,0.858485212910157,0.859767661833135,0.863570186920739,0.862191691537766,0.862317924028045,0.85579133838935,0.855494966455652,0.853952734726592,0.85311209951959,0.853923463424499,0.856892671130624,0.860104281807212,0.861509304307707,0.862746931549355,0.865968604236038,0.868474044749617,0.86796637060393,0.865438976613781,0.868099006191542,0.86873840119665,0.866329921871256,0.867318743045108,0.871563081848688,0.872946150872613,0.875981219008449,1.0209647224629,1.02083666051624,0.903982878373792,0.912490765272951,0.912824641062457,0.914773926836256,0.916200902813322,0.926573920492761,0.927195935662251,0.933480118330483,0.932821514033376,1.00657604802748,0.958937003870059,0.961452506393733,0.973545213071174,1.30825340523022,1.00781093108456,1.04692470850721,1.01136922374532,1.01084782867678,1.06639927168139,1.0672682634623,1.04479339182351,1.03418254481456,1.03496921105833,1.03502409474975,1.03437463773455,1.03336843672508,1.03892083684097,1.04441835326544,1.10566855289641,1.43763256048418,1.06596020214999,1.06794516232321,1.09647553458262,1.08381569642712,1.08473042461754,1.09143538225337,1.09240499413522,1.1853779674102,1.10575087843355,1.21378027772295,1.11012327918379,1.1114221932142,1.11170575895323,1.26678877635818,1.0968597204226,1.09595413951408,1.29566674532995,1.34101896901131,1.11772467044624,1.11732219004245
0.74902060508998,0.751472991368514,0.749026093459122,0.749475225000622,0.750037782837734,0.750204263368392,0.769379710424308,0.765813185209834,0.766030890519155,0.770253275846165,0.770522205934151,0.76820611415599,0.768807090577101,0.768895819211572,0.74947156608786,0.745715692137968,0.734348364915535,0.729749111574069,0.730137871055001,0.822060736367364,1.13453737458628,0.805593799483302,0.811651129560308,0.812307904401034,0.814680709327001,0.817656320130459,0.81948028814217,0.820804814561908,0.82106642682437,0.821102101223797,0.822485170247722,0.822124767340694,0.823863665630695,0.817590459700749,1.23569716516557,0.808306883296108,1.12203304022315,1.00432581667903,0.782301160842276,0.782945129488336,0.784891671077564,0.78659763915271,0.786931514942216,0.790421202988694,0.791057853809231,0.792467449950678,0.793062938002646,0.789549467023217,0.795497029717372,0.792294566322688,0.790552923848115,0.796079711574674,0.795289386418145,0.795864750449923,0.798549477688826,0.797969540016095,0.798543074591493,0.798618082303108,0.799589523641341,0.799353523768211,0.801265305686203,0.803320699930092,0.806252403780409,0.8080974105405,0.807009798722083,0.807814759529658,0.807987643157649,0.807887937784892,0.803312467376378,0.802126064913394,0.808267549983919,0.809228014583868,0.811276091002233,0.805967008584996,0.806646651630483,0.808346216608296,0.814456600920347,0.824759184529123,0.825175385855767,0.825046409180917,0.825967540468677,0.826834702793201,0.827130159998709,0.827714671312392,0.830789072760416,0.832033103099396,0.817578568234273,0.849046132713143,0.850036783343375,0.848880566910676,0.851153666463886,0.852430627017722,0.856503911649692,0.862292311638713,0.864476682557452,0.859090762972219,0.856896330043385,0.855443741676988,0.854218005901816,0.85062586829801,0.852604425373903,0.854386315888854,0.855850795721728,0.860705258228322,0.862767970297735,0.86275882301583,0.868039548859164,0.868511548605424,0.868363362638575,0.867703843613277,0.867013223829505,0.86891037009645,0.866978464158269,0.870461749107414,0.871336229257462,0.872118321860277,0.874811281652893,0.879280643591318,1.00757310175505,0.982866293331622,0.911035432721982,0.911649215337759,0.914213198455525,0.916630825062823,0.929940120233531,0.934413141084718,0.935135776355155,0.941996237783356,1.00905496142354,0.96110490968137,0.964461962140237,0.966199945702047,1.07373539176861,0.988153422272289,1.05093121798128,1.05768191202662,1.035765024584,1.04350362507501,1.05636470343241,1.02603231663786,1.02734952523207,1.03038642282429,1.03571014089258,1.03358797149078,1.03494176921262,1.03743897717248,1.09580778300361,1.07487880200665,1.07990980705399,1.06496314842242,1.06873182856698,1.1049916540355,1.14050140238786,1.131793190015,1.12126466854319,1.18712509825391,1.18728060204628,1.36562515733379,1.11019645743902,1.11159599157038,1.11192529371893,1.11313273493029,1.26593807914108,1.29653573711085,1.29808162775268,1.29646255885562,1.29644426429181,1.11672761671867,1.11642575641583
0.766780052907115,0.750115534733921,0.748777287391326,0.749850263558697,0.752080370886957,0.757717840724557,0.758365468283379,0.75585911304161,0.758993886550202,0.766290673325237,0.763229992800069,0.762219218149647,0.762875078262183,0.761283451210841,0.735530193737566,0.735521961183852,0.733118055499411,0.729747282117688,0.729810398362828,0.730065607527957,1.15325271336241,0.805476714274927,0.807871472677465,1.17984386185812,0.814752058125855,0.816047313243499,0.819196722403138,0.820713341742865,0.820006256851666,0.820599000719062,0.817600521710843,0.816975762356782,0.816243979804441,0.809100867365398,0.809179533989775,0.804031443734053,1.02808130778442,0.776868590119331,0.779020030823215,0.779541425891758,0.780171673614962,0.785963732516744,0.789282366391612,0.790042505517857,0.787481266584662,0.790751419865438,0.788837808491065,0.789272304381518,0.788915560387251,0.989324274356035,0.784491020130157,0.786073499899596,0.787585545598371,0.791333186994549,0.795973603104584,0.79615837819905,0.793168131744545,0.792765651340757,0.794369169858576,0.795817184584021,0.79630747889409,0.798019850066569,0.806492977294491,0.806992418886465,0.806119768192797,0.808382805735913,0.805913039621761,0.806016403907279,0.805201381089609,0.80803246483898,0.809671657756224,0.814688027152525,0.815118864130216,0.809200572738155,0.809099952637208,0.810397037211233,0.814363298644923,0.815074042448885,0.81594303422979,0.824771990723789,0.825468098876704,0.827258221945369,0.827033198810524,0.827307617267652,0.829525833129437,0.830546669789953,0.816719638463462,0.850116364695942,0.851291790420641,0.849700163369298,0.851119821520841,0.85223304572859,0.856319136555226,0.862484404558702,0.864239767956131,0.857757089270577,0.85847057725911,0.854417416647329,0.852864208179984,0.8497477292352,0.850541713304491,0.851213123796264,0.852954766270837,0.858186096791887,0.860774777570795,0.864956000129235,0.864185798992896,0.864200434643943,0.864631271621634,0.864294651647557,0.861586141475703,0.864875504048478,0.866055503414128,0.868249021614772,0.871314275780892,0.871836585577625,0.872977251631088,0.876171482472058,1.02768797466253,0.89677664968961,0.907271326218376,0.912456920329905,1.1114221932142,0.928705237176455,0.935931589880827,0.936270039311284,0.936800581661732,1.2730546644626,1.26509652920589,0.964004598045023,0.966593278823931,0.969383199804732,1.33316145385554,1.33224672566511,0.993285047420583,1.06091090253883,1.00550581604468,1.04597339118916,1.02063542031434,1.05811183427613,1.02639820791403,1.02277588427994,1.02445898415033,1.06016997270459,1.03612176857827,1.03878362761241,1.0747781819057,1.06870438672127,1.10595211863544,1.09574375203028,1.06952764209265,1.15085612550349,1.0816386433339,1.19853175878853,1.13613814891953,1.13568993210622,1.10165289614044,1.22945871890686,1.21851856974936,1.11321506046743,1.11339800610552,1.1148524239283,1.11612389611299,1.26621249759821,1.11542870268826,1.11510854782162,1.11702947702151,1.11642575641583,1.11759660849958
0.76297478363494,0.755124586304697,0.749340759956629,0.749806356605556,0.749565783091474,0.755033113485655,0.754827299642809,0.75324299041699,0.755456632637822,0.760113513855285,0.759543638192649,0.75601004319303,0.756915624101553,0.755213314939169,0.732128319597369,0.73215118780213,0.730394909676511,0.727175066446208,0.726970167331553,0.728323965053384,0.947667552564002,1.187308043892,1.18814959382719,1.19034494148421,0.809730200360412,0.814423670705491,0.815082275002599,0.816244894532631,0.815870770702746,0.814642290743003,0.814305670768926,0.81504202696222,0.959842584778582,0.801983367315688,0.799262965677359,0.798533927309588,0.777091783797795,0.772725786144889,0.77395060719187,0.776823768438,0.777502496755297,0.782915858186242,0.783764725946958,0.785023391936986,0.782472215013886,0.784431562797779,0.784592554959295,0.781863006039061,0.780516526142753,0.774646715344785,0.773630452325221,0.779391410468528,0.781133052943101,0.781637068176026,0.783592757047158,0.785966476701316,0.785866771328559,0.786442135360337,0.787483096041043,0.78944793219408,0.790559326945448,0.79223419426212,0.799848391719232,0.800571026989669,0.801327507203152,0.803371924708756,0.80391710271025,0.804923303719719,0.805552636714733,0.805257179509225,0.811706013251734,0.812814663818531,0.812777159962723,0.80886852640503,0.808833766733793,0.809605797326514,0.813200679114891,0.813701035435054,0.815893638907507,0.816491871144046,0.822593108174192,0.823839882697744,0.824270719675435,0.824227727450485,0.825693122011549,0.823028518792836,0.829312701461067,0.833837861819108,0.834732465989346,0.835274899806269,0.835766108844528,0.837704417880042,0.851072255654938,0.85534129211966,0.856037400272575,0.84794571470006,0.84893270641753,0.849208954331039,0.847965838720249,0.849380923230839,0.849289450411797,0.847062087268108,0.850065139917279,0.854235385737434,0.858841956904423,0.864895628068667,0.865568868016821,0.859290173717732,0.859951522199411,0.856317307098845,0.85647738453217,0.857756174542387,0.859248096220973,0.871684740698014,0.871337143985652,0.872667158774533,0.875196382221063,0.877228908260191,0.879320891631697,1.01393960996042,1.13209505031784,0.918441986879867,0.922732062092969,0.929089423016435,0.937797635389297,0.937349418575988,0.938026317436904,1.02044332739435,1.22643096859655,0.96573343432493,0.964535140395471,0.967645216242922,1.33746982363245,0.99025729711027,0.998791711126952,1.00022783438592,1.00070349304494,1.00117000442206,1.05619090507623,1.02627929324928,1.02038844370293,1.02277588427994,1.02374549616179,1.02950828376148,1.0668383412128,1.07170469518587,1.04799494049001,1.07869321856073,1.11526405161399,1.09992405986053,1.08312050300239,1.07623259972848,1.20949934979175,1.16680898514453,1.18166417095706,1.18227703884465,1.14017210023931,1.21675314434183,1.21539934662,1.21002074486029,1.1155018809435,1.20563004954625,1.11602327601204,1.11767893403671,1.11752343024434,1.11673676400057,1.11634343087869,1.1168007949739,1.37267771168198
0.761648427758821,0.760518738443644,0.74863641925,0.749242884040254,0.754197966647795,0.753775362223818,0.75232185912923,0.748244915584498,0.748596171209622,0.753681145220204,0.753547594904402,0.753425936055075,0.754536416078253,0.752725254261208,0.730635483190593,0.729792103799019,0.734447155560101,0.724591874036443,0.725765470304761,0.735290534951674,0.945957010847904,1.14403225320291,1.33562207268779,0.803975645314437,0.807225674575023,0.810876354783016,0.811546850546599,0.813450399910877,0.814998120009079,0.811321827411754,0.806787519771809,0.80685429492971,0.801784871298365,0.799246500569931,0.799234609103455,0.799061725475465,0.77390852969511,0.770662159347286,0.770675880270142,0.771646406880185,0.776375551624691,0.780763502754168,0.781501688403843,0.780882417418924,0.774247893853759,0.774617444042691,0.774547924700219,0.773235289746956,0.773560018254558,0.769695291650005,0.770526779575103,0.773760343728261,0.776911582344281,0.779773766852127,0.778090666981741,0.779461844539191,0.780904370895494,0.782908540360719,0.780912603449208,0.783359501358599,0.786656181756897,0.787988940730349,0.790928877134381,0.799102888244034,0.796597447730455,0.797610051837257,0.801727243422368,0.803184405429718,0.805119055552471,0.80454003260793,0.805588311114159,0.808450495622005,0.810366851180949,0.807288790820163,0.807106759910268,0.806769225208,0.806025551189183,0.812194478105421,0.814310244409878,0.815712522725803,0.821299682512929,0.821385666962829,0.823075169930547,0.82267268952676,0.817863963429686,0.818556412669839,0.824006363228402,0.834000683437004,0.834062884953953,0.833668637103879,0.830459770611862,0.831595863024372,0.848488148516983,0.851477480243298,0.853237417281678,0.846499529430995,0.845470460216765,0.844187096565596,0.846733699847744,0.847435296369802,0.845882087902457,0.846889203640117,0.852351960393345,0.855417214559465,0.86016465386778,0.865870728319662,0.865571612201393,0.856814004506247,0.854325943828286,0.855480330804605,0.85570535393945,0.857032624543759,0.860067692679595,0.86586523995052,0.877195063317145,0.878893713566768,0.877587481710838,0.878268954212706,1.00432581667903,1.0181930960459,1.18787517537006,0.924095007096705,0.929583376239265,0.935245543738007,0.938895309217809,0.93988321566347,0.940368021604396,0.947612668872576,0.950146465960058,0.964352194757385,0.965175450128769,0.965760876170642,0.970206455176116,0.982463812927835,0.99949605183358,1.00165481036299,1.00015465613069,1.0012431826773,1.00450876231712,1.00882627937593,1.01340906760997,1.01468053979466,1.0466868791777,1.03268239058226,1.0349143273669,1.05595307574672,1.09645724001881,1.14125147950401,1.12437474439064,1.12506993781536,1.11912420457759,1.20151377268932,1.1853871146921,1.19062850722325,1.15676526961365,1.15960092700397,1.16183286378861,1.20327919809685,1.21872895723316,1.19838540227807,1.11359924630741,1.11577629940063,1.11691056235676,1.11766978675481,1.11898699534903,1.11835583289763,1.12376187650305,1.19518385361157,1.37841305743595
0.760032103046337,0.748261380691926,0.747861644472709,0.749530108692047,0.754973656153277,0.755038601854797,0.747459164068921,0.748448899970963,0.748295225634971,0.753894276888573,0.754688260957864,0.752590789217215,0.753524726699641,0.748341876772683,0.728187670553011,0.725026369926896,0.725036431936991,0.725682230039432,0.725237672138885,0.727056151781453,0.00395847709678979,1.35570950374956,1.41371241830452,0.798312563087505,1.29312380096056,0.80406803286167,1.31459247158988,0.805387070912266,0.806078605424228,0.806670434563434,0.802200157896819,0.802842297086498,0.800107259797122,0.792362256208779,0.789631792560355,0.784287950471883,0.771497306185145,0.770447198222536,0.769243415923934,0.770733508146139,0.77112043817069,0.776497210474018,0.77647891591021,0.771856794363983,0.771425042658102,0.769566314975155,0.769669679260673,0.771728732417323,0.769288237605265,0.767782595003823,0.767834734510677,0.769048578819373,0.773740219708072,0.76835521485103,0.768829958781861,0.776445070967164,0.777988217424413,0.77952313132795,0.780442433159328,0.783112524747184,0.7840473769578,0.785703949710663,0.785149624427265,0.789884257540913,0.792264380292404,0.792597341353719,0.792648566132383,0.80160284038847,0.803033475278298,0.800781414473467,0.799571229077532,0.805094357891329,0.807277814081878,0.806622868697532,0.805906636524428,0.806892713513708,0.807723286710615,0.812441454716837,0.813728477280767,0.817535576009323,0.820035528153759,0.821362798758069,0.821661914876338,0.821995790665844,0.817220909511816,0.817131266149154,0.820719744840198,0.830199987805781,0.832966125853632,0.828627570046438,0.828330283384549,0.828537926683776,0.851967774553366,0.852386720064582,0.853956393639354,0.842946725139378,0.843260476908694,0.842883608894238,0.843491903140872,0.84490241401051,0.846823343210406,0.84715264535896,0.848163420009381,0.853929866521832,0.860365894069674,0.865980495702513,0.865882619786138,0.857590608739919,0.853828331692694,0.855679741550118,0.85772050014296,0.858744080988047,0.859216995462498,1.08594701311081,0.877810675389302,0.881152177468931,0.880983867481893,0.886218856915705,1.0239650309275,1.02444983686842,0.983899936186805,0.92933639962785,0.931970816816279,0.935648024141794,0.939746006434906,0.939160580393033,0.94076135472628,0.943578717552794,0.950036698577207,0.960473747229976,0.964443667576428,0.96541327945828,0.968376998795263,0.970014362256127,1.35113586279743,1.262123662587,1.02358084508752,1.24222832444522,1.01063744119298,1.00904581414164,1.01267728505763,1.01867790198683,1.02051650564959,1.05530361873152,1.03651510170015,1.22955933900781,1.08166608517961,1.10261336074039,1.21080741110406,1.12846357940185,1.20072710644556,1.19295191682693,1.19045470886707,1.15018837392448,1.19231160709363,1.19360137384213,1.37764468575599,1.20359020568159,1.1159226559111,1.11324250231314,1.11303211482935,1.11261133986175,1.11266622355318,1.11393769573787,1.11254730888842,1.10847676844102,1.11858451494524,1.21335035547345,1.39800653527489
0.74533333575437,0.743858793911402,0.745765087460251,0.748877907492273,0.753695780871251,0.75330793611851,0.751791316778782,0.750772309574647,0.752127936752859,0.753690292502108,0.753296959380225,0.751587332392317,0.748765395924851,0.744484467993654,0.717172513683892,0.721645534535079,0.721313488201954,0.722510867403223,0.725219377575076,0.72694364021403,0.773420064841422,0.776199009083939,0.784444368992446,0.78689675527098,0.789435125999414,0.822391867972299,0.798500082366543,0.797574377437831,0.797588098360687,0.798955617005375,0.798479043618163,0.79789361757629,0.795099122954536,0.786311329229106,0.786186011467018,0.779725286258034,0.769008330778994,0.767320657267657,0.767581354801929,0.767876812007436,0.768968082738615,0.775029986456574,1.00882627937593,0.75639422903301,0.76481796093865,1.34649819087196,0.763938907147649,0.767186192223664,0.76649099879894,0.764780457082842,0.76496889109007,0.765799464286977,0.766664797155121,0.766892564474537,0.767437742476032,0.772209879445488,0.775490094736358,0.779344759330816,0.779865239671169,0.78183922310611,0.78271827689711,0.783000013179762,0.782273718996563,0.787559018480848,0.789484521321697,0.789059172713148,0.789612583268357,0.790045249702428,0.792703449823809,0.787844413676262,0.798432392480451,0.798866888370904,1.00239574019723,0.805594714211492,0.804849210736295,0.802193754799486,0.806246000683076,0.810523269701512,0.809894851434689,0.815777468427323,0.816311669690532,0.820848721515049,0.819655001226542,0.820493806977163,0.814162058443029,0.81472095736738,0.82346575886786,0.827885725484002,0.832623102782222,0.833246947408093,0.82831107409255,0.83300637389401,0.849314148072938,0.852870611277317,0.853649959695561,0.856038315000765,0.839513750240706,0.839395750304141,0.842216772043417,0.844261189549021,0.845791529811605,0.84462342191243,0.846415374437476,0.846559901491563,0.858756887182713,0.861748048365409,0.859968902035029,0.858034251912276,0.858483383453776,0.855805974040397,0.857331740662029,0.860260700327775,0.861780063852074,0.954573750401724,0.88646674825531,0.889392049008295,0.888736188895759,0.94125530794911,0.942106005166207,0.925366479281398,0.928494849692657,0.929510197984031,0.930507251711596,0.932053142353417,0.94082538569961,0.940047866737747,0.940349727040588,0.945490499470786,1.31048534201486,0.960940258607093,0.961150646090892,0.963217931801256,0.964818706134503,0.973124438103578,1.359871517016,1.25999234590331,1.01413170288041,1.01355542412044,1.00929279075305,1.01224736280813,1.01478115989561,1.01999511058104,1.02186115608951,1.0280447186568,1.03256347591751,1.04303711369789,1.10474467742408,1.11151366603324,1.10265909714991,1.11905102632235,1.12741164198286,1.51067360648975,1.20196198950263,1.19151579356796,1.1823776589456,1.219890662035,1.1568658897146,1.204889119712,1.19924524677707,1.24199964239761,1.32338300949988,1.13399768495393,1.29373666884815,1.29275790968439,1.11867598776428,1.3588012850332,1.10801940434581,1.10441537527553,1.0899901117125
0.74008188121313,0.73986874954476,0.739384858332024,0.743953010915016,0.751182107803958,0.752413331948272,0.751007394719587,0.749783488400796,0.750573813557324,0.751895595792491,0.751802293517067,0.748816620703515,0.742456515595477,0.74049076471425,0.716735273608868,0.716594405467542,0.71901111734665,0.722026061462296,0.722190712536573,1.20679175434809,0.773783211933022,0.774560730894885,0.792847976877896,0.795102781867298,0.798589725729205,0.798719617132245,0.797353927943938,0.798314392543886,0.796868207274821,0.798162547664275,0.797878981925243,0.793185511580163,0.787117204764872,0.781548339541554,0.777172279878553,1.1540942632976,0.76507591428835,0.76376876770423,0.763861155251463,0.762300628958595,0.762634504748101,0.761948458605281,0.755041346039369,0.757089422457734,0.75911737485591,0.755660617024287,0.75601004319303,0.761315466697505,0.761705140906627,0.760350428456605,0.759778723337589,0.760726381742871,0.760998056015427,0.763956286983268,0.766024487421822,0.76872019139901,0.770802112760421,0.773863708013779,0.776377381081072,0.775780978300914,0.778146465401357,0.776933535820852,0.776918900169805,0.778714511607612,0.78584756203656,0.786054290607597,0.786176864185114,0.786444879544909,0.783718074809247,0.78492551602061,0.787567251034562,0.78848472340956,0.79527840967986,0.798039974086758,0.797504858095358,0.799520919027059,0.804743102266205,0.8087185109818,0.81186974959782,0.811412385502606,0.813268369000982,0.817731327842074,0.818191436121859,0.818242660900523,0.812306074944653,0.813163175259083,0.820963062538852,0.824565262152752,0.830792731673178,0.830110344443119,0.827092656142902,0.830671072823851,0.830909816881552,0.85051793037154,0.851457356223108,0.852171758939831,0.838095921545545,0.836192372181267,0.836331410866212,0.838146231596018,0.84325132962679,0.843276027287931,0.844423096438726,0.847095017482963,0.848393931513369,0.859452995335628,0.859598437117906,0.858451367967111,0.857550360699541,0.859458483704771,0.859840840088369,0.85988474704151,0.8656091160572,0.87480487855556,0.876353513381953,0.886317647560271,0.891617582695603,0.893360139898366,0.964114365427874,0.929089423016435,0.928568027947891,0.931284770673459,0.932327560810545,0.934111280781877,0.934879652461836,0.937770193543584,0.938602596196873,0.938419650558787,0.948591428036333,1.00461852969997,0.963556381231714,0.963876536098363,0.972438391960758,1.26330366195265,1.26382505702119,1.38240127234621,1.01122286723485,1.01421402841755,1.01443356318325,1.01396705180613,1.01481774902323,1.01836689440208,1.02155014850477,1.029554020171,1.03849091459147,1.03939649549999,1.09091398718483,1.15612495988035,1.22276290855294,1.56468830613445,1.10614421155543,1.13084187269696,1.19708648824766,1.19575098508964,1.15950945418493,1.17520618993265,1.18207579864276,1.15911612106305,1.46630928925406,1.13187551555214,1.26138273275275,1.18767393516817,1.31438208410608,1.29241031297203,1.13069551618649,1.35834392093799,1.35359648162967,1.2235312802329,1.24576832254217
0.737926781596484,0.738757354793392,0.739328145184218,0.746236172478321,0.747729008885097,0.749065426771311,0.748147954396313,0.743074871852206,0.747934822727943,0.748810217606182,0.749971922408023,0.748276016342972,0.742379678427482,0.739251308016222,0.71485276299297,0.713654469063511,0.713991089037588,0.714304840806904,0.723359735163939,0.732614954994676,1.22621143383085,1.34568408278248,0.877584737526267,0.795654362966125,0.796726424405305,0.79798051675438,0.797437168209267,0.797150858285663,0.798668392353581,0.798844934894334,0.789690335164543,0.784459004643492,0.783156431700325,0.778594682214667,0.776312435379552,0.764927728321501,1.01963836658678,0.758894181177446,0.848357342385752,0.849161388465137,0.755612136430195,0.749391984735293,1.01972069212392,1.01928162259251,0.99668783628897,0.754674540035007,0.755090741361652,0.753174385802707,0.754264741805696,0.755872833964466,0.757031794581737,0.756422585606913,0.757114120118875,0.756602787060427,0.758004150648161,0.764506038625714,0.767702098923065,0.767592331540214,0.768995524584328,0.770807601129564,0.773045026283348,0.772504421922805,0.771712267309896,0.771833926159223,0.779146263313494,0.778520589231242,0.777866558575087,0.77564468380054,0.777191489170552,0.782763098578441,0.78278139314225,0.785064554705555,0.793932844511742,0.794215495522584,0.794646332500275,0.795534533573179,0.803606095125505,0.805087040065806,0.80357407963884,0.806110620910893,0.809317657946529,0.812120385121997,0.815393282587344,0.817676444150649,0.817875854896162,0.811346525072896,0.812007873554574,0.82239461215687,0.827552764422686,0.822143976632693,0.823471247237002,0.826401121630939,0.828574515811393,0.846843467230596,0.848235683536425,0.84863084611469,0.836447581346396,0.831426638309143,0.832154761948723,0.833915613715295,0.834211985648993,0.842067671348378,0.841764896317346,0.84597447544969,0.847455420389991,0.856099601789524,0.856446283773695,0.858525460950536,0.860076839961499,0.859527088319053,0.858696515122145,0.858929770810704,0.858852933642708,0.875266816291726,0.876917900675446,0.884785477841306,0.894274868088793,0.895151177695222,0.917627878790388,0.927570974220326,0.9285863225117,0.931367096210597,0.932794072187663,0.935986473572252,0.934751590515176,0.932172057018173,0.935364458402762,1.01441526861944,1.32083091784859,1.32087665425811,0.966895139126771,0.968816068326668,0.969566145442818,1.26159312023655,1.02304115545516,1.3703634493602,1.45414340432138,1.04343959410168,1.01935480084774,1.02149526481334,1.02073604041529,1.02160503219619,1.02284906253517,1.05962113579033,1.03914037160668,1.10215599664517,1.11135816224087,1.06243849861684,1.12212451304219,1.09600902320551,1.48700958820341,1.20541966206245,1.20766074612899,1.14426093525052,1.17391642318415,1.14674899592848,1.13277194917876,1.13533318811195,1.13503132780911,1.21420105269054,1.46355595740087,1.24822894137442,1.20676431250237,1.19235734350315,1.32706021682539,1.18134401609042,1.34493400566633,1.41261474447601,1.47500835434501
0.733140923704172,0.74162502767038,0.743238608198292,0.74377006527693,0.744866824377252,0.746150188028421,0.746464854525927,0.74021085788798,0.742445538857192,0.748608062676097,0.749100186442547,0.742429073749765,0.735605201449181,0.733740985397092,0.732732954931241,0.710870036451852,0.712468066600528,0.713055322098781,0.719261752870827,0.72344846379841,0.755035857670226,0.767233758089567,0.782035889667052,0.783278090549651,0.792804069924755,0.792161016006885,0.794504549630759,0.795388177062711,0.793062023274456,0.792311946158306,0.78906191689772,0.783416214506406,0.776024295999567,0.77020022161112,0.767426765737746,1.05405958839254,0.754590385041488,1.03338673128889,0.847614583095125,0.849645279677873,0.843758089044286,0.739157091012608,0.780657394284079,0.872259190001602,0.748530310779911,0.746551753704018,0.746516079304591,0.746729210972961,0.748126000919742,0.747476543904539,0.748813876518943,0.754683687316912,0.756732678463468,0.756508570056813,0.757928228208355,1.24472553240508,0.767782595003823,0.764515185907618,0.765344844376335,0.768024083246095,0.770229492913214,0.770100516238364,0.768676284445869,0.769354098034976,0.772871227927166,0.773976219581202,0.774641226975642,0.773875599480255,0.772358980140527,0.78121720793662,0.78348847803345,0.782977144975001,0.783916570826569,0.791569186867679,0.792733635854093,0.793151666637118,0.800062438115792,0.80436714897994,0.801351290136103,0.801948607644452,0.808258402702015,0.813208911668605,0.816432413811668,0.817745963493121,0.817306893961716,0.811395005666988,0.812157888977804,0.820470024044212,0.822868441359511,0.822358023029253,0.823539851851284,0.826674625359877,0.832803304235736,0.839604308331559,0.843584290688105,0.841235268695089,0.832634994248697,0.830854933190127,0.82783998907448,0.82914805038679,0.836872015226754,0.839269517813862,0.841604818884022,0.842991546820709,0.844263933733592,0.856502082193311,0.858682794199289,0.858210794453029,0.856737167338251,0.85859863920577,0.85774245361953,0.855413555646704,0.856403291548746,0.872922367939662,0.873638600112766,0.8826934944698,1.19514726448395,0.90955174359711,1.01756193359451,0.931239034263937,0.931421979902023,0.933251436282876,0.936251744747476,0.939398409722544,0.937340271294084,1.15589627783274,0.944786158764157,0.950997163177155,0.951326465325709,1.28801961765798,0.969401494368541,0.96922769601236,0.970718702962755,0.973554360353078,1.40591893412208,1.26613017206107,1.06848485195556,1.23791995466831,1.02125743548383,1.020763482261,1.0203335600115,1.0209830170267,1.02325154293896,1.024394953177,1.03510642028689,1.03615835770588,1.09555165911029,1.05641043984193,1.0559073393372,1.13055830695792,1.13139070961121,1.1367327222433,1.20151377268932,1.18363998384839,1.20748694777281,1.20348043829874,1.13540636636718,1.13940372855935,1.13806822540133,1.14142527786019,1.14427922981432,1.25195188510946,1.1459531824028,1.14695023613037,1.21726539212847,1.17248029992518,1.15149643523679,1.13316528230064,1.13272621276923
0.732754908407811,0.733187574841883,0.741774128365419,0.740975570655177,0.743536809588371,0.742455600867287,1.234032359859,0.734800240641606,0.733362287926255,0.733353140644351,1.13774807053468,0.736359852206283,0.732190521114318,0.731992025096996,0.718311350280973,0.71161553992705,0.711449974124582,0.71172439258171,0.714733848328215,0.71690998669324,0.748980357049601,0.748254977594592,0.90715058209724,0.78291128454529,0.787466630933615,0.787473034030948,0.789866877705295,0.792524163098485,0.791455760572066,0.790427606086027,0.716513909386785,0.715127181450098,0.7137605775336,0.726388400202441,0.757608073341706,0.680668455788532,0.75969639780045,0.686327879102703,0.672229173503655,0.6728173437301,0.688973273029417,0.679983324373903,0.680879758000521,0.696308478388449,0.73879668810558,0.672931684753903,0.695538277252109,0.696409098489396,0.713240097193248,0.701913932739384,0.669654213647604,0.675836861486698,0.742058608832642,0.742323880007866,0.742812344861553,0.756734507919848,0.756857081497366,0.760802304182676,0.761677699060915,0.762445156012682,0.762254892549074,0.763355310562157,1.34848315104519,0.767644471047068,0.770793880206707,0.768460408592929,0.768826299869099,0.76964315214315,0.770317306819495,0.779667658382037,0.783092400726995,0.781484308568224,0.778060480951457,0.792381465500778,0.984842106222944,0.793726115940706,0.794330751274578,0.795890362839255,0.79855862497073,0.80235200277643,0.803955521294248,0.814288290933308,0.815258817543351,0.815774724242752,0.817216335870864,0.811111439927956,0.808760588478559,0.809377115278907,0.818871993895537,0.81765723485865,0.816824832205362,0.818446645286988,0.824996099130443,0.836987270978748,0.830986654049548,0.819912039848052,0.823140115632068,1.09923801371771,0.820369403943265,0.823838053241363,0.834211985648993,0.834987675154475,0.840458664461417,0.842032911677141,0.845856475513125,0.849388241056363,0.854438455395709,0.857847647361429,0.85662831468359,0.853339866839006,0.852556859508001,0.852394037890105,0.852830363236939,0.871794508080866,0.873815142653518,0.882604765835329,0.89096721095221,0.894046186041186,1.00502101010376,0.976874823684327,0.931623220103917,0.932693452086716,0.938922751063522,0.939105696701607,0.942728020335697,0.945106313630807,0.947338250415448,0.948728637264897,0.954884757986469,1.33516470859258,0.972813430518833,0.97340800384261,0.976161335695795,1.36496655303668,0.986607531630468,0.994959000009064,1.35764872751326,1.03695417123156,1.02023293991055,1.02137635014859,1.02122999363812,1.02199836531808,1.0237637907256,1.02480658086269,1.0349143273669,1.04291819903314,1.0464856389758,1.11766978675481,1.05898082605703,1.11332482785028,1.11845645299858,1.14721550730559,1.17506898070409,1.21226182892684,1.2072582657252,1.20605082451384,1.20526415827007,1.13894636446414,1.13891892261842,1.14126062678592,1.1429345793744,1.14770031324652,1.14739845294368,1.15651829300223,1.19434230367638,1.19702245727433,1.36804918703842,1.46247657813617,1.1275031148019
0.732455792289542,0.738980548471856,0.739668424071057,0.738394207701792,0.738769246259867,1.24792708107158,0.731715777183487,0.731883172442335,0.730765374593633,0.726418586232725,0.727571143752663,0.726204539836166,0.726747888381279,0.723333208046416,0.722809983521492,0.71125239283545,0.709530874381067,0.708188053397521,0.709319572169079,0.868146572057444,0.75358784294478,0.754698322967958,0.907766194169397,1.49152834546412,1.00857015548261,0.784356555086165,0.789590629791786,0.790268443380893,0.792467449950678,0.791260923467506,0.712148826462068,0.713787104651123,0.69048074508724,0.724806835161194,0.679300022415654,0.681760641247902,0.683421787641717,0.671126926034191,0.671184553910188,0.660436497672674,0.675900892460028,0.679632068748779,0.679364968117174,0.687463056787022,0.681574036697055,0.670054864595011,0.679828735309721,0.680226642072556,0.673227141959411,0.662694961574837,0.661498497101759,0.672198072745181,0.660781350200465,0.742799538666887,0.742316562182342,0.738505804541024,0.737687122810593,0.706069542908492,0.753424106598694,0.755679826316286,0.76087548243791,0.760729125927442,0.760517823715453,0.760430009809172,0.761354800009694,0.762830256580852,1.09245073054475,0.767247479012423,0.767698440010303,0.774407056558893,0.774085986964053,0.774515909213554,0.77559986211921,0.777387241003303,0.785132244591646,0.785984771265124,0.787730987380649,0.792672349065334,0.793837712779938,0.797404237994412,0.801578142727329,0.805462078623881,0.814060523613892,0.811319083227183,0.809719223622127,0.807148837407027,0.805914869078142,0.806836915094092,0.811111439927956,0.81084159511178,0.811854199218583,0.813377221655643,0.817531002368371,0.815447251550579,0.816299778224057,0.817613327905509,0.818346025186041,0.812768012680819,0.814529779175581,0.816588832332231,0.83343446668713,0.83352045113703,0.833265241971901,0.83969395169422,0.841021222298529,1.05234904667644,0.8533691381411,0.854301246167145,0.853318828090627,0.852331836373156,0.852913603502268,0.850160271649083,0.850555434227347,0.870640121104547,0.874584429061667,0.884486361723037,0.884291524618476,1.00809449682359,0.914737337708639,0.928659500766934,0.932217793427694,0.934285079138058,0.937605542469307,0.940788796571993,0.942581663825229,0.945838096183148,0.947383986824969,0.956851423595886,0.957692973531079,1.28919961702363,0.976792498147189,0.977112653013838,0.977240714960498,1.34981865420321,1.35699927049806,0.998343494313643,1.00900922501402,1.00947573639114,1.26035823717948,1.02094642789909,1.0244041004589,1.02475169717126,1.02507185203791,1.05833136904183,1.0524771086231,1.04072285137611,1.0417564942313,1.12133784679842,1.0520471863736,1.13272621276923,1.13140900417502,1.13483008760722,1.11147707690562,1.54538754131645,1.26370614235644,1.20549284031768,1.15760681954884,1.13678760593473,1.13811396181085,1.14268760276298,1.14376698202769,1.14763628227319,1.14825829744268,1.14940170768071,1.20155950909885,1.17682525882971,1.19450695475066,1.21986322018929,1.16284821207999
0.727938864485215,0.728876460880402,0.730332708159562,0.732400908598116,0.724972400963661,0.726131361580932,0.721725115887646,0.726776244955182,0.723758556654965,0.724641269358726,0.724701641419295,0.721850433649734,0.721611689592033,0.721143348758535,0.718643396614098,0.709474161233261,0.707845945054301,0.706632100745605,0.704835574579607,0.703871451066897,0.848407652436225,0.669003841904211,0.907546659403695,0.702126149679563,0.695098292992514,0.695481564104303,0.684366701862428,0.673386304664545,0.715264390678662,0.71463780186822,0.669986259980729,0.701315700502845,0.682478702877387,0.675001714648839,0.670730848727736,0.684701492380124,0.677036984872538,0.664080774783334,0.657589863544066,0.657500220181404,0.663958201205817,0.676138721789539,0.661444528138524,0.660694451022374,0.668068074965404,0.663263922509283,0.662543116695227,0.667578695383526,0.666309967383404,0.659770575550043,0.663146837300908,0.654836531690881,0.659961753741842,0.643909188728044,0.678413650799131,0.673250924892362,0.692698960949025,0.692643162529409,0.694918091539,0.754598617595202,0.75643722125796,0.704981931090075,0.720650310263895,0.755812461903898,0.755738368920474,0.757055577514688,0.756211283394924,0.756583577768428,1.33439633691262,0.771511941836192,0.773172173501817,0.772952638736114,0.773367925334568,0.773906700238729,0.780345471971143,0.780164355789439,0.783329315328315,0.783044834861093,0.78651165470281,0.780267720074957,0.786835468482221,0.787468460389996,0.809697270145556,0.809028603838354,0.809077084432447,0.804366234251749,0.805250776411892,0.80537609417398,0.802390421360428,0.805113567183328,0.807231162944166,0.812306989672844,0.813639748646296,0.813593097508584,0.81178376514792,0.815361267100679,0.816189096113015,0.813695547065912,0.812733253009583,0.816621762547087,0.821474395597301,0.832508761758418,0.83358448211036,0.835742325911577,0.837308340573587,0.843941034682372,0.852085774489931,0.854775075369786,0.852599851732951,0.850359682394596,0.850471279233828,0.850513356730588,0.864803240521434,0.869011904925588,0.881159495294455,0.881837308883561,0.884955617284725,1.02101045887242,1.01842177809351,1.01972983940582,0.929601670803074,0.935428489376092,0.940294843349162,0.943148795303294,0.948097474813502,0.951152666969527,0.953787084157957,0.956247702990205,0.957272198563482,1.23957561269298,0.975182576532038,0.980643503828886,0.982655905847824,0.987970476634204,1.28816597416845,1.00158163210775,1.01756193359451,1.01002457330539,1.05367540255256,1.05730687346855,1.02681898288163,1.03032239185096,1.02948084191577,1.05839540001516,1.03986300687711,1.04182052520463,1.04189370345986,1.16193348388956,1.1915981191051,1.05846857827039,1.17211440864901,1.12806109899806,1.16346107996757,1.49896508565229,1.20069966459985,1.19805610012951,1.1950283498192,1.20380059316539,1.14713318176846,1.1420930294392,1.14339194346961,1.14582512045615,1.14505674877619,1.14800217354936,1.14588000414757,1.17947797058194,1.17565440674596,1.16734867477689,1.1596649579773
0.729005437555252,0.730272336098993,0.729127096404579,0.727077190529833,0.725686803680384,0.72126317815148,0.722498975936747,0.723300277831561,0.723370711902224,0.721292449453574,0.72042528712905,0.720471023538571,0.720848806281217,0.71999719433593,0.717491753822351,0.670029252205679,0.672447793541167,0.672654522112204,0.849728519943202,0.652814067661848,0.670557965099746,0.673949777229848,0.661409768467288,0.65455479540823,0.669549934633895,0.669205082106105,0.684777414819929,0.6725401810884,0.665759301012767,0.669211485203438,0.670451856629656,0.671812057448821,0.68306504364745,0.684603616463748,0.686416607737174,0.690760651913511,0.665312913655839,0.661315551463674,0.659740389519759,0.67230235175889,0.662389442359235,0.665493115109353,0.650510782078353,0.656834298058773,0.641147624321145,0.651673401608386,0.653493710707335,0.6668167268009,0.665730944438864,0.66289345759216,0.663370945707563,0.663781658665064,0.646800644537982,0.655238097366479,0.669946926668541,0.64456504884058,0.691979069863159,0.697929376741885,0.69556023072868,0.686080902491287,0.75588106651818,0.707577929694506,0.713268453767151,0.69813244640016,0.70409281528898,0.682875694912032,0.698253190521296,0.672377359470504,0.673174087724366,0.67262433608192,0.76839912180417,0.77146437597029,0.773318530012285,0.774515909213554,0.777864729118706,0.780135084487345,0.779295364008533,0.78111109946653,0.780093006990585,0.781188851362717,0.781059874687867,0.783347609892124,0.784627314630531,1.05219354288406,0.79767957117973,0.800630484322047,0.799347120670878,0.801147305749638,0.802854188552974,0.803715862508356,0.805142838485422,0.805142838485422,0.813972709707611,0.812232896689419,0.811727966728304,0.811785594604301,0.812507315146547,0.810289099284762,0.809783254595456,0.814891096810799,0.816594320701374,0.831973645767019,0.831929738813878,0.833198466814,0.839715905170791,0.840691005421785,0.855972454571054,0.857522004125637,0.852058332644218,0.851072255654938,0.861140668846965,0.862184373712242,0.862941768653916,0.863818078260345,0.873530662186296,0.882185820324113,0.886751228722533,0.892020063099391,0.89581161144871,0.903007778122797,1.03549060612687,1.01788208846116,0.943953756110869,0.945508794034595,0.951591736500932,0.95212227885138,0.957848477323451,0.960336538001412,0.966382891340133,0.968806921044764,0.983872494341092,0.983250479171602,0.99132752909307,0.991419001912112,1.31437293682418,1.00438070037046,1.00816767507883,1.07405554663526,1.12498761227822,1.03138347655186,1.4792709877124,1.03992703785044,1.03987215415902,1.04015571989805,1.04338471041026,1.04405246198927,1.06823787534415,1.05952966297129,1.06087431341121,1.06435942781674,1.07000330075167,1.10663816477826,1.16997394468341,1.17646851483544,1.17803270004107,1.19284214944408,1.1952478845849,1.13601923425477,1.13678760593473,1.14362062551722,1.14535860907903,1.1472338018694,1.14676729049228,1.14660263941801,1.20470617407391,1.19350990102309,1.37219290574105,1.19723284475813,1.15518278984421
0.728532523080802,0.728934088756399,0.729190212649719,0.724066820055138,0.722694727769498,0.719594713932142,0.721019860452827,0.722188883080192,0.720541457609234,0.718920559255798,0.717781722658716,0.717075552495707,0.716768203823724,0.710903881394898,0.70990133929819,0.708300564964943,0.682167695292642,0.651837137954472,0.642125468756712,0.642789561422961,0.673624133994056,0.652044781253699,0.659961753741842,0.65384679578884,0.657492902355881,0.652374083402253,0.677396473051376,0.667031687925651,0.673009436650089,0.651561804769154,0.650240937262177,0.65039644105455,0.670621081344885,0.677613263632507,0.682835446871653,0.684055694277683,0.689864218286892,0.673635110732341,0.655424701917326,0.64535811818168,0.646165823173826,0.646482319127714,0.673478692211778,0.655834500146637,0.65776915026939,0.656000980677295,0.677098271661297,0.681618858378386,0.693663999189925,0.710455664581589,0.666436199873683,0.652936641239365,0.651634983024388,0.629359522131116,0.630088560498886,0.628948809173614,0.663541085150982,0.676350024001528,0.680797432463383,0.682487850159291,0.691896744326021,0.695215378200889,0.679981494917522,0.676125000866683,0.679660425322682,0.688130808366034,0.689083955140458,0.669437423066473,0.675770086328797,0.666953936029464,0.702121576038611,0.771567740255808,0.773489584183895,0.771020732797933,0.996477448805172,0.77212846863654,0.773646917432648,0.771801910672558,0.772883119393642,0.777492434745202,0.778125426652978,0.781679145672785,0.783499454771735,0.789566846858835,0.789093017656194,0.792640333578669,0.792548860759626,0.794139573082778,0.799573058533913,0.798384826614549,0.803013351258108,0.803384730903421,0.805436466234549,0.809051472043115,0.808859379123126,0.808788030324272,0.809956138223447,0.808176991893067,0.809284727731674,0.810890990434063,0.812257594350561,0.826944470176052,0.829856050006181,0.828384252347784,0.832707257775741,0.838039208397738,0.856531353495405,0.856681368918635,0.853554827963756,0.853166983211016,0.85832056183588,0.858828235981567,0.862452389072037,0.864511442228688,0.877588396439029,0.879787403008815,0.884007044151253,0.887818716520761,0.891809675615593,0.897736199561368,1.01848580906684,1.01526596583654,0.947109568367841,0.949478714381046,0.95336630919036,0.955021967215033,0.960290801591891,0.963318551902203,0.969145370475221,1.26073327573755,1.31193061255574,0.99051342100359,0.993559465877711,0.997291556894652,0.999367989886921,1.00910984511497,1.2949258154957,1.02047991652197,1.02296797719993,1.070067331725,1.06694810859565,1.04384207450547,1.04290905175123,1.04221385832651,1.04428114403687,1.07750407191317,1.05739834628759,1.05885276411037,1.05877958585514,0.0040896857084246,1.09924716099962,1.10339087970225,1.1847376576769,1.18406075881598,1.2237599622805,1.18814044654529,1.18786602808816,1.1725168890528,1.13745535751374,1.22067732827876,1.14824000287887,1.14678558505609,1.14655690300849,1.14696853069418,1.14730698012464,1.14188264195541,1.19107672403656,1.2391822795711,1.23899933393301
0.723476820372313,0.726510059051768,0.724172013797038,0.723194169361471,0.722230045848761,0.720161845410207,0.719491349646624,0.712948298900501,0.714283802058524,0.698982228889066,0.709776936264292,0.708982952195002,0.676156101625157,0.707110503589198,0.70660008525894,0.707040069518535,0.642728274634203,0.642268166354418,0.65631198826204,0.655016733144395,0.652096006032363,0.669763066302265,0.660442900770007,0.653330889089439,0.643132584494371,0.641505283043602,0.662077520046299,0.686706576573539,0.677847434049256,0.684872546551734,0.693757301465349,0.702423436341451,0.680321773804361,0.691533597234421,0.691826310255358,0.698254105249486,0.695342525419358,0.696579237932815,0.661962264294306,0.686057119558336,0.657656638701967,0.644406800863636,0.701785870792724,0.685483584982939,0.684809430306594,0.693364883071656,0.70467000877714,0.679467417674502,0.717679273101389,0.730624506452308,0.713659042704463,0.673260072174266,0.666406013843399,0.642391654660126,0.6413717327278,0.679653107497159,0.650304968235507,0.664249084770372,0.66979508178893,0.676957403519971,0.673829033108712,0.684461833594232,0.683865430814074,0.678715511101971,0.679102441126522,0.670107918830056,0.663674635466785,0.668096431539307,0.664170418145996,0.648292566216568,0.665442805058879,0.661909210059261,0.661580822638898,0.761836861766049,0.765653107776509,0.989315127074131,0.723968029410572,0.770599957830337,0.770244128564261,0.771223802456208,0.775467226531597,0.777642450168432,0.778826108446845,0.779976836510401,0.785874089154082,0.78595367050665,0.788308180868808,0.787865452424642,0.794698472007129,0.794521014738186,0.802137041651679,0.801725413965987,0.800790561755371,0.801277197152678,0.804140296388714,0.806927473184944,0.805698993225201,0.80462418760145,0.805520621228068,0.808008681906029,0.809884789424594,0.818775947435542,0.819938566965574,0.825618114299934,0.82938405025992,0.837515069144624,0.849222675253895,0.849926101232334,0.842605531524349,0.846655033223368,0.853980176572305,0.857972965123518,0.859077956777553,0.868826215102931,0.870403206503227,0.870653842027404,0.859066065311078,0.880681092450861,0.874409715977296,0.88430067190038,1.03766765922009,1.04223215289032,0.944484298461317,0.950448326262899,0.952735146738966,0.955634835102619,0.961324444447073,0.964626613214513,0.988857762978918,0.980680092956503,1.27063063475797,1.34690067127575,0.996934812900386,1.0040331036581,1.00394163083905,1.03140177111566,1.01678441463265,1.38991119078962,1.39649723376069,1.06777136396703,1.0447750972597,1.04440005870163,1.04504036843493,1.04722656881005,1.04694300307102,1.0488456377071,1.05666656373525,1.06475276093862,1.13705287710995,1.13390621213488,1.03910378247906,1.03707308589631,1.15329844977193,1.11294978929221,1.1251431160706,1.19022602681946,1.19226587068411,1.15671953320413,1.2353312738894,1.18788432265197,1.14927364573405,1.14706000351322,1.14703256166751,1.14645628290754,1.141443572424,1.14226682779539,1.17062340169861,1.20867609442037,1.15703968807078
0.714355150857378,0.723504262218026,0.71999719433593,0.719359628787202,0.714420096558898,0.714455770958325,0.70711416250196,0.711974113377697,0.711943012619222,0.682118299970359,0.698226663403774,0.653770873349034,0.666904540707181,0.664460386982361,0.63794333147008,0.638753780646799,0.64042773323528,0.649149666530998,0.653754408241607,0.649328038528132,0.657499305453214,0.648194690300193,0.647253434992244,0.680275122666649,0.676549434747041,0.679371371214507,0.678652394856832,0.680114130505134,0.694773564484913,0.701732816557679,0.688816854508854,0.709104611044328,0.685964732011103,0.686057119558336,0.69120886872682,0.701953266051572,0.718928791809511,0.701867281601672,0.710812408575855,0.704711171545709,0.710037633798564,0.675894489362695,0.689646512977571,0.677374519574806,0.707166302008814,0.717591459195108,0.720441752236477,0.737687122810593,0.736101898856583,0.723657021825827,0.691879364490402,0.675789295620796,0.663775255567731,0.651059618992609,0.659349800582447,0.647656830124222,0.648076690363628,0.654877694459451,0.664338728133034,0.68979378421623,0.659408343186634,0.655473182511418,0.654653586052796,0.65048151077626,0.650944363240616,0.666168184513888,0.670528693797652,0.66014927302088,0.657929227702714,0.651978006095798,0.65461882638156,0.653222951162969,0.666403269658827,0.694828448176338,0.695610540779153,0.673202444298269,0.730009809108341,0.730627250636879,0.770273399866354,0.770651182609001,0.774024700175295,0.775046451564001,0.77639476091669,0.777438465781967,0.783477501295164,0.784225748954933,0.78531061658878,0.785648151291047,0.79249214761182,0.792358597296018,0.793397728520342,0.794659138694941,0.797013649057099,0.799570314349342,0.802630080146319,0.802841382358308,0.803826544619398,0.796666967072928,0.802840467630118,0.802546839880991,0.802277909793005,0.815998832649406,0.818910412479534,0.823195914051684,0.825293385792332,0.832164823958818,0.846565389860706,0.848299714509755,0.842053035697331,0.842921112750046,0.849096442763617,0.851128968802745,0.862025211007108,0.863818992988535,0.854271060136861,0.853997556407923,0.855852625178109,0.857593352924491,1.05539509155056,1.05315400748401,1.06379229633868,1.04303711369789,1.24872289459725,0.950960574049538,0.953393751036073,0.960190181490944,0.961699483005148,1.22462895406141,0.977332187779541,0.98095451141363,0.98183265047644,0.996074968401384,0.998645354616484,1.00330132110576,1.00409713463143,1.02712999046637,1.45299999408335,1.44757565591412,1.10383909651556,1.04964145123277,1.07836391641217,1.05233989939453,1.05233075211263,1.04955912569564,1.05158982227838,1.05733431531426,1.05686780393715,1.05775509028186,1.16259208818667,1.03477711813834,1.03467649803739,1.03583820283923,1.20047098255224,1.21007562855172,1.12293862113167,1.19773594526286,1.15934480311065,1.22329345090339,1.22560771322517,1.1435840363896,1.14814853005983,1.14776434421985,1.14848697949029,1.14755395673605,1.22853484343453,1.2008185792646,1.17318464063181,1.21952477075883,1.17291936945658
0.707507495623843,0.708334409907989,0.716434328034218,0.710464811863493,0.710441028930542,0.713448655220665,0.687974389845471,0.65401967941683,0.654161462286347,0.677270240561097,0.679310999153939,0.650322348071125,0.652437199647392,0.631916187423359,0.640238384499861,0.643294491384077,0.641204337468952,0.616921962925884,0.618902349458158,0.650132999335707,0.667185362261642,0.660100792426787,0.651358735110879,0.672698429065344,0.691497008106804,0.686540096042882,0.686353491492035,0.69652618369777,0.694240277949894,0.709186936581467,0.707491030516416,0.703138753786365,0.700656181477547,0.71345963195895,0.739265943667269,0.737429169460892,0.737912145945438,0.71466067007298,0.719012946803031,0.709926036959332,0.711475586513914,0.710918517045944,0.732861016877901,0.743095910600586,0.713739538785221,0.736647076858077,0.763786147539848,0.771351864402868,0.765485712517661,0.738993354666522,0.686008638964244,0.682726594216993,0.682578408250143,0.666255998420169,0.670316476857473,0.663962774846769,0.659838265436135,0.667419532678392,0.667417703222011,0.691185085793869,0.691600372392322,0.668900477618693,0.670749143291545,0.652035633971795,0.650617805276633,0.690075520498881,0.650690068803677,0.667433253601248,0.659436699760538,0.646767714323127,0.648329155344186,0.66971001206722,0.688375040792878,0.680456238848353,0.672204475842514,0.671447995629031,0.66936698899581,0.699842988116258,0.707020860226536,0.705667977232895,0.763656256136807,0.776811876971525,0.774263444232996,0.774910157063628,0.779578015019375,0.780755270200455,0.78209626172762,0.786287546296155,0.791744814680241,0.792261636107832,0.7920640548187,0.793208379784924,0.796163866568193,0.797308191534417,0.800442965043009,0.799283089697548,0.796240703736189,0.796816982496158,0.795959882181728,0.795551913408797,0.803946374012343,0.814367872285875,0.815111546304692,0.820537713930304,0.829440763407727,0.832065118586061,0.84931872171389,0.849142179173138,0.842164632536563,0.845812568559985,0.850878333278568,0.852740719874277,0.858651693440814,0.860510421123762,0.862038017201774,0.855064129477961,0.853697525561463,0.853361820315577,1.05275152708022,0.879495604716068,0.881165898391788,1.05546826980579,1.0572062533676,0.949972667603877,0.958333283264377,0.967828161881007,0.968184905875273,0.972877461492162,0.982216836316419,0.981805208630727,0.982189394470707,1.02781603660919,1.00122488811349,1.00298116623911,1.00765542729219,1.03003882611193,1.04481168638732,1.0295448728891,1.0368352565668,1.4333973689625,1.05182765160789,1.05225757385739,1.05194656627265,1.05394982100968,1.05577927739054,1.05780082669138,0.00364490827311151,1.1566555022308,1.03489603280309,1.03470393988311,1.03545401699926,1.04858036653188,1.18095983025044,1.21362477393057,1.11028793025807,1.20275780302831,1.19751641049716,1.1958790470363,1.21685376444278,1.21862833713221,1.14976759895688,1.14785581703889,1.14784666975699,1.14906325825026,1.17003797565674,1.20185222211978,1.21342353372868,1.21458523853052,1.15294170577767
