0.386934610170473,0.384634580839336,0.384893889621497,0.38285539565964,0.384305758190849,0.383524722872771,0.383442055431255,0.384610131516853,0.386458198332512,0.384616092932165,0.385051127929906,0.383424843118078,0.383670121456458,0.382365072540187,0.383488053887292,0.382417832339309,0.384879005053402,0.380899454362856,0.381113536698679,0.379971406986956,0.38289198326254,0.381373511666958,0.384492455168357,0.382155636122005,0.383233264438345,0.388364375730599,0.390990730595208,0.390586571692897,0.392554393870272,0.395169435544235,0.398687862390675,0.397286877069755,0.400525291578849,0.399485532028783,0.40324627479905,0.402185454065613,0.405777650301898,0.405576487479942,0.4097945229094,0.408093120020039,0.409546004757115,0.408516548926927,0.409957639614551,0.409077966376781,0.409521046437262,0.412295024625558,0.426271823026108,0.42563302414816,0.427011832213964,0.429328503985859,0.43062043176604,0.431573598299334,0.447591193185323,0.448816872054601,0.473405511587766,0.473165802330679,0.473005443721515,0.475396547860369,0.476636583656926,0.477760399529052,0.477408800534713,0.476763849208217,0.486240230973027,0.483417303314234,0.481685586695658,0.479380395319476,0.492858966069803,0.492857694248324,0.493512369750635,0.494463798139386,0.496818741651704,0.483839558010204,0.482095206399378,0.482013150790104,0.482619155173193,0.480105095250959,0.478357917368629,0.497464702720086,0.513617902990946,0.516644581309362,0.53635124426191,0.535334607820978,0.53721735630792,0.534612985446085,0.535321228665101,0.53694026386653,0.546198926320616,0.54670495169726,0.552512185606054,0.559726627387561,0.559454187048511,0.568540241909429,0.581123778702095,0.581606837028552,0.586526367438778,0.579543300304174,0.576622519906372,0.580303234404371,0.580646719381599,0.587336165377638,0.595645293275849,0.597581901324539,0.597265295002341,0.599756565924361,0.599062169099259,0.601978977052849,0.609353578135634,0.609762672959322,0.611982095881454,0.610473563384427,0.612323978731839,0.608896373866529,0.607975655616976,0.60835887883796,0.610482009039043,0.611388596593428,0.614445789435471,0.614195432181809,0.615498499293043,0.615678987307391,0.614182792695303,0.629903133958511,0.635814360770163,0.638553166760051,0.941475959450704,0.701742779411525,0.702646385740002,0.702812067517501,0.704181617917063,0.724844082083645,0.817742399257485,0.777835234887323,0.777472697937193,0.786104541871981,0.785871247418198,0.811128025361184,0.810038772673472,0.810293527070272,0.810484249720975,0.820754293160991,0.821154958564845,0.799220309876411,0.789290657361727,0.772780338423509,0.721442963995998,0.723668538535261,0.723269760242933,0.727484523977266,0.729100465855433,0.729318118153749,0.730508862754665,0.744513734429567,0.747418175626991,0.748501793574699,0.750762640010055,0.750885358022053,0.75303696236726,0.752837607983312,0.752961360470278,0.757228735434082,0.774352775811936,0.774988064590658,0.775795801279698,0.781503445920529,0.792029242808423,0.793253047435124,0.793704902547783,0.803483826369837,0.828820514707811
0.380243038675667,0.382470721023856,0.380241690956494,0.382763708439118,0.381555178262717,0.383324161536115,0.382222283874616,0.384321960854944,0.383055548326499,0.384906013867361,0.383488271110272,0.384615898401519,0.382923382128479,0.384308346871108,0.382365086114833,0.383586430335807,0.380012005773368,0.381698275819824,0.377962488138337,0.381163872442815,0.379381259503794,0.382498785679429,0.380654651807927,0.382859543531841,0.381590554794944,0.390554989070498,0.389301350645005,0.393056767714607,0.392377814714469,0.396195804478157,0.39556917667598,0.398607501866055,0.397012465465827,0.400754733602526,0.399402044850955,0.403272601450981,0.402214487084428,0.406466185635908,0.406969217567366,0.408459340924602,0.407014209461382,0.408703687788613,0.408369876557996,0.409249407655571,0.408934405567321,0.413022689172287,0.424818294663241,0.424671066294485,0.42589241505058,0.429132052123932,0.431973954022366,0.432319264424923,0.434739436254156,0.438285948317802,0.473185639107241,0.472834050151442,0.47437752137699,0.474407439036022,0.475510915181785,0.476093670314585,0.476993311500313,0.475933250854638,0.48560070731047,0.482505830554163,0.480532308525009,0.479012819476212,0.492639427943738,0.492653698485718,0.491334512287209,0.495144524423734,0.497621643392728,0.482837142882669,0.480998382907153,0.479968362926632,0.476789640592056,0.478509196229731,0.478418853931648,0.477655870642332,0.477652344242569,0.515228761664954,0.534643521375629,0.535125438282314,0.533478548568969,0.53488511653989,0.53393403182112,0.537156579994357,0.543699463019093,0.544347370878976,0.550963804357136,0.55656974645056,0.569310700131053,0.568538929919807,0.579070222849006,0.581682967577062,0.583392942241014,0.577675520124913,0.575369741476797,0.581411116173098,0.588618305531939,0.588221763476056,0.596608922274463,0.596923918955695,0.598433595708026,0.598542843659638,0.600029219638732,0.600337261236311,0.600036115909148,0.607951541055823,0.611235048924443,0.609672669715976,0.606862657789772,0.60788613109235,0.604777965377636,0.607287832237938,0.608508444557495,0.611930742589776,0.611700483280323,0.614784981352015,0.615866807947752,0.617760533849124,0.619788913077388,0.63208029199169,0.636931837923934,0.644728245028472,0.659879764589375,0.700769644971675,0.701588749179556,0.710449360304693,0.712900373058996,0.718667628470965,0.716303357190351,0.766385251650672,0.767512842225567,0.786094467342829,0.960739489848217,0.810631253466951,0.808594067910602,0.809904999585821,0.8113830690775,0.81603409800168,0.821372064797725,0.806878547348579,1.06094870313154,0.760899881629198,0.713701440136948,0.714630381532208,0.71679590583499,0.726916289562061,0.727558686824272,0.728622729684697,0.728917185670674,0.742500599384414,0.746110531342281,0.748382149445982,0.748075049504666,0.750680969825972,0.75036750179387,0.752204683872247,0.751854934593719,0.757964265835284,0.774518170569708,0.774917811647064,0.77614880600657,0.783697514872563,0.793059479182563,0.79382212150879,0.799019786909747,0.80430561065204,0.829701974485311
0.381329381726612,0.380586497791065,0.382514663167404,0.381293874401904,0.382811489088083,0.382387766958668,0.384107744063829,0.383984130380448,0.386174265958567,0.384290557366108,0.384978305384425,0.384116433470403,0.386445957858869,0.384438067480926,0.386829686723405,0.383655610602812,0.385710825854813,0.381190046099493,0.38145217360581,0.380217814273304,0.383299371388236,0.381393284631596,0.383513496886754,0.381876979479068,0.382705759149993,0.390573413168015,0.39389986012194,0.393016408330917,0.395672406045472,0.394682656948221,0.398705689664521,0.396682208232002,0.400584689274045,0.399469765083324,0.402983239323019,0.402059680146732,0.405284500344233,0.405180387688457,0.407943472483526,0.407684749085707,0.408960199163039,0.408139714501653,0.408039661685715,0.408964964007955,0.41048294385997,0.414482668455001,0.424974148386637,0.423291942027495,0.422692702048879,0.430680637252262,0.430172573858039,0.431964445116048,0.430320560811497,0.436804471436867,0.472216736491311,0.472671875429741,0.472824269549979,0.474616853090266,0.475106110276542,0.47616553717893,0.475730537170398,0.47617784758362,0.477863460183959,0.479942689798106,0.481621203646091,0.479735042974094,0.49275613442257,0.490965256092939,0.493349610892551,0.495134628875269,0.498193582173535,0.481127396823584,0.481286339790777,0.479816809360507,0.478417749263762,0.478490333016015,0.476940572248617,0.476830790699243,0.475839736190354,0.514497931785815,0.533136968511533,0.533740998573602,0.533836079442078,0.534060504658092,0.533164695776798,0.537035616605762,0.542389037937344,0.542897868360591,0.544208133485023,0.552661341149656,0.569028851676566,0.568545490100717,0.580363722003319,0.582023618874038,0.581051008101344,0.57453273261198,0.56821050756131,0.581735147737052,0.586435488786169,0.589626309086039,0.595845755689915,0.596854007001643,0.596355541058294,0.598692362019332,0.59900012954221,0.6003857044589,0.60135119818984,0.604439991798275,0.605879782497661,0.605755630733861,0.606946120770623,0.605218269318928,0.607271375911726,0.604671410337675,0.602833026634526,0.613123557818472,0.613972455052206,0.615305232511031,0.617525971528966,0.62083604397753,0.630046588835127,0.633697876592984,0.635421975432028,0.651711182225873,0.660371008676868,0.698502003951836,0.701976886258424,0.712024047467182,0.718083592350912,0.719076618596388,0.718120324723428,0.766674234166865,0.76848525257733,0.785178117970633,0.787141992185543,0.804464892106735,0.808360172758957,0.809125383341457,0.820023615629804,0.810308962186376,0.798905375350868,0.799085285178083,0.759775231528986,0.750754369864465,0.714051813184533,0.714730120772398,0.716181543747287,0.72582471230312,0.725583455624995,0.727534009825757,0.735734013977841,0.740810345408534,0.741211589572968,0.749019311005789,0.750571928943402,0.750299556661244,0.75194501173459,0.751722564450244,0.752288203108897,0.759057512923088,0.759143897746852,0.775004889025287,0.777449062413017,0.785586860945353,0.794901754298552,0.793849810221601,0.799732450901461,0.804960957851684,0.823924750387685
0.378885991070081,0.380441066590939,0.381091268041787,0.381078373702553,0.380979097340373,0.382757497660268,0.382892807386858,0.384948527251072,0.384751584906831,0.385584372431744,0.383681173907121,0.385678746632942,0.384537527484992,0.386150986834137,0.384058685228504,0.385231180321191,0.38168947496447,0.383206836875895,0.379660288879143,0.382435028564732,0.380265878616544,0.383366261007738,0.380855376122748,0.383916673851219,0.382287266781269,0.391284042212535,0.393886277909242,0.395060734557116,0.392920158016572,0.395922520400366,0.393779034681126,0.39677758015391,0.393818188155125,0.401429561852082,0.400712843473862,0.404031028730217,0.403157588690094,0.406502564832584,0.406243275890346,0.408721805642674,0.408887454182647,0.40895476824561,0.407743900949224,0.409408701242471,0.410618615210116,0.414567530159147,0.419585784199246,0.422195769325126,0.423231976034094,0.430415089963426,0.433327736843176,0.433358255099475,0.433857493768637,0.436183939351102,0.416943371071994,0.455826772062395,0.473134762231041,0.467341613576429,0.460397070184524,0.473387182737235,0.472807710449096,0.47605713108091,0.477727366236328,0.47970573960416,0.479284617621123,0.480407372356435,0.480552920727253,0.486644894633463,0.494051769176246,0.495345491995681,0.495504285129055,0.47979881796074,0.469545106353512,0.479517396857138,0.478477312634705,0.479126409678151,0.479535847825656,0.480288688758567,0.653442040079575,0.514790466766358,0.515298873753545,0.527743249279827,0.53177817406972,0.529038330967017,0.519787918696846,0.536342296055535,0.539946623799107,0.541087762498172,0.539389904102946,0.548931771437405,0.568118729511665,0.569110061960418,0.569689613971941,0.569465575536085,0.569533544627604,0.568815853576273,0.567494037404529,0.581732412047113,0.586315460675116,0.591517644458332,0.593544734709079,0.5953779286348,0.597804114175294,0.597777852060743,0.599125680382442,0.59998157785644,0.601241132840815,0.603216322069214,0.603083135633965,0.6049574289345,0.602520949444688,0.605401466951153,0.603284284663346,0.604988512342056,0.602653102654242,0.613103916406516,0.612146363862739,0.61672020467122,0.619549253716715,0.623346460871988,0.629984079910101,0.633894374305871,0.657037340367836,0.658626446533586,0.658085823197252,0.696443825117258,0.969668136690771,0.724939718420198,0.720900540588174,0.764177626177012,0.908151068540944,0.777105613674499,0.776197000927144,0.785125011628137,0.787017905274511,0.800224838373239,0.809571228613786,0.808599652102102,0.800141633027353,0.799976612000051,0.800653658591248,0.799894279417856,0.7611218150231,0.738118619126075,0.713552301956338,0.715359704578622,0.715863124198558,0.724251526846927,0.723408973753495,0.726598995604638,0.734612939511372,0.737692790372243,0.742563982088658,0.747852922135625,0.750174816774882,0.751481466997807,0.751154672215312,0.752606309035386,0.752419557484642,0.76036774064443,0.77454044811601,0.773597995663883,0.787888594461036,0.787249318637942,0.792637952190026,0.792245569355589,0.800830104167549,0.804597641123141,0.834761034745422
0.379840027006599,0.376725994493108,0.375613732667598,0.377990059359632,0.379972782032772,0.381743691776319,0.385788829660483,0.384810976491025,0.387244859180823,0.385047655753254,0.386318354436394,0.384650807138828,0.386070023988464,0.384994334546164,0.387670055507745,0.384255351695838,0.385626968437532,0.382587701414219,0.384641214661863,0.381936872645992,0.384346368132454,0.383403048321081,0.388413854946992,0.386465862898141,0.390583635574604,0.391473871096892,0.396005732455752,0.39403512496083,0.396894971254923,0.394430902618085,0.397011993422389,0.395169431768782,0.398263628385249,0.398963273476865,0.404536887139213,0.403415260094871,0.405869160147209,0.406426228956275,0.409733920006021,0.409351440151,0.410318896930446,0.409640434916097,0.409219027294837,0.410169742238309,0.411962569843185,0.414545624669795,0.421789819445035,0.422066255694641,0.422076762410521,0.431160243615944,0.43403684113472,0.435489460505087,0.435621482722148,0.437082571708103,0.417293806759229,0.441455190901459,0.444494888873754,0.461186553447023,0.462715730611177,0.472353487982823,0.472754523575271,0.474149290407847,0.477724345035267,0.479006587475793,0.481738392583839,0.480648118992557,0.482598467567193,0.484678790509741,0.496391896808468,0.495982586854521,0.496418227284289,0.478861665590793,0.469917764602602,0.479455811302117,0.478511869397846,0.479929610829497,0.480849151875807,0.485433255913807,0.5002872699555,0.513894467015339,0.513920097305288,0.522467335373704,0.523464157775052,0.525004521762387,0.522728679119239,0.535905791477513,0.53951795447679,0.540161477131949,0.540996481061464,0.546046456679773,0.568619894037504,0.570578651733631,0.571949077435914,0.571020318849855,0.571565985157624,0.569922997558756,0.567567154102391,0.581510217410829,0.586707860129665,0.592059094593235,0.59353667760572,0.59579562893851,0.596109687236905,0.598417536493974,0.598326360217362,0.600006464676241,0.601181519549695,0.602196772262584,0.605163222358822,0.603816153665396,0.605868865539455,0.603881853043666,0.605007010940578,0.605096684121998,0.611220120480679,0.611134552383661,0.612858509444326,0.617855399801851,0.627881183305872,0.626508404685764,0.631271280203197,0.63406691270205,0.656509171369175,0.662678201253093,0.677398722878676,0.695221410680775,0.706618602858615,0.726409923590028,0.73067724612341,0.790928550301403,0.813754704835169,0.777901944919229,0.776450864701931,0.786414319941126,0.784464011117865,0.794958796009031,0.81256989745888,0.805205434551077,0.802761772013176,0.802078194396859,0.802224284526856,0.800753774060031,0.714008574957308,0.714763116821117,0.714121404473368,0.715398884353697,0.719379371265441,0.721547601919688,0.723275403163687,0.726314576132642,0.735732195515203,0.736021681531629,0.746077988855463,0.747354518778386,0.751378279746815,0.750580327372895,0.752983291098222,0.752252049907084,0.753819344057811,0.761641553269551,0.774700461435421,0.773049834931414,0.789575144056132,0.789188788222126,0.791415662014363,0.790648925233414,0.800020441979686,0.803600112702408,0.811262214278961
0.372962472523054,0.375954932612924,0.374620942632565,0.3776347099696,0.379010613835034,0.380488976213427,0.385413893095424,0.383969130322503,0.384647328439349,0.385482941999723,0.383977861013998,0.386471247677562,0.384535413919555,0.387001400756577,0.384265435674479,0.386077728823622,0.382871794153322,0.384937862979548,0.382518464353335,0.384235195290421,0.381848675689819,0.385056188952513,0.383277475275225,0.388098599388729,0.388969615879408,0.392243359663155,0.392224990006827,0.394946689312204,0.394101316059248,0.395785121935039,0.393098787977265,0.39629824728744,0.395458950944731,0.397764381314412,0.4045112797231,0.405590806953794,0.403893408285261,0.407930502060166,0.410599750341528,0.410892589147717,0.411458367306301,0.411080449507751,0.411188500204106,0.411333780095561,0.411546021022304,0.413687475944346,0.421725393657943,0.422019916029521,0.422426395946616,0.432911201278864,0.434988840692383,0.436110576553592,0.437555787432586,0.437366158637795,0.417687288539173,0.440029062850181,0.462349536734354,0.462174568341403,0.462833019628857,0.469471435477197,0.471569345627104,0.472340371487839,0.478389734784489,0.480895056947879,0.480184345566789,0.48165696789058,0.480680364407552,0.482911928901055,0.496961514479866,0.49663718744898,0.497425420795754,0.478450833138901,0.477400950924162,0.47948585121218,0.481624312126549,0.481228475661977,0.482266332043059,0.491186378431802,0.500160029050411,0.513811413260272,0.516072175202684,0.523651253998956,0.523476618326517,0.525141587467375,0.525210422821472,0.535270958652397,0.538330533502657,0.539170143769763,0.540431076711799,0.544149782624314,0.56623804327279,0.573393885791462,0.572831790718077,0.573290772977548,0.572387779159702,0.571536234300711,0.567955842986297,0.580522982930308,0.589953692468717,0.59119644128589,0.594284266067416,0.595725670136051,0.598728214656117,0.598337448411809,0.600546344735972,0.599506546864604,0.599470000351498,0.601371017212113,0.601374099272372,0.604191424598953,0.603937989809892,0.605602669438239,0.604125899838655,0.605865745822359,0.611571390842982,0.608917672459351,0.615415165699984,0.61884702420404,0.626467787794498,0.628159456113123,0.630353226677286,0.635282898223531,0.654094642891617,0.668923335112369,0.676891345431411,0.695119333240403,0.847635430056034,0.859522151339431,1.00190991328231,0.874101196564448,0.930925416550056,0.77953318922154,0.776539597008438,0.787002947614111,0.785207487017503,0.788218786982611,0.785355618410922,0.805708461022244,0.80309203437424,0.80470698371556,1.0170704939019,0.947840068007013,0.974690838933328,0.715927378630971,0.713785632233527,0.715242971800951,0.714703251825799,0.720648519931386,0.723533146221555,0.725545046107701,0.732588742227442,0.736458425981141,0.738925205219303,0.749846924805215,0.747411739333057,0.750383087079057,0.749426377723473,0.752248623249366,0.753764063268911,0.762985519237928,0.774831119164332,0.773113749088559,0.786889564974751,0.787331908375239,0.785571152001559,0.78857227308363,0.79790462531629,0.803560885581118,0.812976210782287
0.375005248880472,0.374358120582314,0.376556647907706,0.37673848972199,0.378180693179027,0.378831448062962,0.378411180736925,0.379635600296335,0.38269135701764,0.384055301062033,0.386540217686208,0.386811268359032,0.390495746646072,0.387148673174746,0.388570429305031,0.385162111315173,0.386973467228633,0.383836833580908,0.386054602563343,0.38292174446181,0.384839213672985,0.384567973825294,0.389644801452968,0.38777164920343,0.39102875192435,0.390096367527022,0.393621644335583,0.392465611623723,0.396152598926858,0.394071340460338,0.396798026917634,0.394278806531107,0.395516948418961,0.396974440717423,0.405054285749936,0.405185047866258,0.408341072301426,0.407830364560449,0.41300605980595,0.410581457323071,0.410357708984315,0.410964347919087,0.412514951829356,0.41192084927908,0.412850237036892,0.413427568648765,0.422253763086218,0.421677579784405,0.422409616178345,0.43399957853333,0.435956415179279,0.436586380739856,0.436698159070208,0.437405305578089,0.418157762745102,0.439715156469526,0.438432185141572,0.461502608393867,0.465659146368853,0.466753024558071,0.469488059012443,0.472195774642117,0.475623800500673,0.482116144900733,0.483746884569142,0.481152527428696,0.482456235332006,0.480055036745914,0.479081342223524,0.477365865471659,0.476783621461709,0.478235947369872,0.477928783953686,0.48045200511458,0.482578506690213,0.482079363569115,0.482640731147007,0.496044429779131,0.502364438021033,0.513230224820506,0.515644452365117,0.521809139610195,0.524830089544662,0.524360545173015,0.526070211621312,0.533831330710226,0.532323367306034,0.53878063180501,0.538748615222533,0.54294096813763,0.563340983373069,0.574062097390107,0.575122670975977,0.574098338361724,0.575572119999375,0.573873032058235,0.575416157371767,0.57895976530721,0.588355630964629,0.589364540476068,0.595025522132074,0.596033016395365,0.598994990247785,0.599124970826896,0.597769323963151,0.599655555381352,0.599068920635902,0.600865950142668,0.602972430011922,0.603311625380977,0.606813819598723,0.604804341770236,0.606406866478684,0.604689227689554,0.604599384142192,0.606873267336501,0.615424843557696,0.618954227898837,0.62654305332395,0.627901262682139,0.628852525522623,0.637810475515669,0.969901390811782,0.681551980695374,0.680182265863081,0.695033861560977,0.900121778905745,0.871605289117729,0.901792651677526,0.846468403564254,0.800831127438646,0.783413944612733,0.784436332392368,0.786740438879559,0.787344442200241,0.792393418347236,0.809157046469923,0.808562345142126,0.809810322203911,0.808569272948837,0.925717610545679,0.939635949929698,0.968738084784979,0.716415563702774,0.716102929519551,0.714085510477892,0.715232833064303,0.718653728033431,0.724122934317763,0.724237728500701,0.731580421240933,0.737628692008954,0.737520957981499,0.749668991452209,0.749287668215326,0.74857878948733,0.751199958093565,0.750468875390103,0.751375068715835,0.764458820613713,0.775724256138983,0.773256970903447,0.786596685602009,0.786814843830801,0.785817935552846,0.786476023669775,0.845965836242073,0.8031873330141,0.802249889017496
0.37190823981661,0.37469024039287,0.375382427196892,0.377094736254892,0.379431436671578,0.378528540056163,0.375626375533321,0.375521974548302,0.384229792917525,0.384555975695997,0.384275901085965,0.389249185847067,0.389297172878435,0.389724906930438,0.385910864218873,0.386632204501908,0.383509463147501,0.383481267679171,0.379219376436563,0.382300231555956,0.379462145228274,0.386658690237082,0.385818547762968,0.388922539717194,0.38737575658575,0.390048432971364,0.387515649055156,0.390732675084306,0.38895763650917,0.392684709733215,0.394421368783785,0.394304467037412,0.395014762527446,0.396510418422354,0.403674593337082,0.405413686283976,0.404480838565835,0.408027296865391,0.411148355111131,0.410373824668652,0.409851011357067,0.410967620257688,0.411631461648202,0.41257329105176,0.412457527909051,0.414802879278641,0.418366237015872,0.420150075756199,0.421541226602852,0.433653511841102,0.436098463853415,0.436748612186011,0.444384469288337,0.443211237386054,0.441848911118923,0.441354983498355,0.459545030942587,0.460268130346371,0.465068217586002,0.465640407486512,0.465746834419337,0.47155285254331,0.469432934292444,0.482468186848988,0.481495344942517,0.482467551202058,0.48035582186508,0.48089957898891,0.4736564159927,0.475532623305191,0.476530438837818,0.479149827973037,0.481404675827419,0.481351025247492,0.483093877132216,0.491289023624613,0.499456990085377,0.500415959024483,0.503811905955377,0.512064594690347,0.516703434107707,0.519181325009185,0.521967005532146,0.523715159235817,0.524860556493814,0.529662618371608,0.53489835922374,0.537505477618765,0.538756624522275,0.542130597680866,0.574539242564224,0.575165162874173,0.575197765552393,0.575687398987014,0.574609745694798,0.575519380240194,0.57552567440863,0.577332848011085,0.588037026338933,0.588497072356252,0.595550050495417,0.59492168646663,0.598206712942287,0.5982880619967,0.600014101797615,0.599928701370629,0.6014238551286,0.600635116465817,0.60159619952334,0.602609911310904,0.60373473636793,0.605016320477626,0.603076319803199,0.604144138845715,0.603783014390247,0.606343161850735,0.605087905439927,0.620198617437817,0.62635239643451,0.627763805252742,0.628575529252913,0.641045909548883,0.968756728835815,0.695189352602025,0.692756066670065,0.693987955864972,0.693870412106526,0.728033523958256,0.727428809695132,0.807567197346239,0.925311786846676,0.785082623483222,0.786450758252733,0.787128657600585,0.78840844224621,0.795761042068544,0.80923682214917,0.809183784885536,0.810241980700269,0.810207856892993,0.750871438971046,0.745880103129428,0.708249316613507,0.709993226745956,0.709474878919951,0.713130263540964,0.713484083628859,0.717082695662773,0.724186464021457,0.724976267129093,0.725107059005514,0.737829727038943,0.73839108597962,0.749264839109242,0.746237387031144,0.748772544432697,0.747422224180851,0.750132603768856,0.770117328606587,0.766206366226069,0.770944218552829,0.771564349497943,0.772516191877576,0.772835042137986,0.77670516755491,0.785107341208141,0.789009740846433,0.797181149216068,0.80121014499735
0.373800278450789,0.374244803646921,0.377143145073292,0.375291395147686,0.370275379554652,0.370853273518072,0.373322226562048,0.373596545856586,0.384284186199106,0.382809919326098,0.391705744554677,0.390291018049829,0.392377797758871,0.389654759992494,0.391660700060988,0.384200611134845,0.385115902099296,0.381258005462466,0.381153151418935,0.381518563607642,0.386044509629299,0.385542205994637,0.389214492163962,0.387886347458592,0.390685122231981,0.388118896787813,0.389673252136372,0.388410422770379,0.391287894983361,0.389820018500028,0.390486014064176,0.390927433909058,0.391295396390239,0.398069577206501,0.404548178052588,0.404053928915388,0.407120117764562,0.407390064229918,0.409188263247728,0.408810044771387,0.409830884630101,0.410087546126491,0.412085995323491,0.411660114162089,0.413750689613441,0.413962043176201,0.41604653111811,0.418513072775695,0.435678804373134,0.433373948439629,0.437446162123625,0.437870239682255,0.44439044231018,0.442771663171765,0.441592438419688,0.442399950870479,0.450439589896664,0.45898546421848,0.458823682872994,0.465291567480723,0.466229920947125,0.4715496420359,0.48028427626617,0.481524392865128,0.48459003757479,0.481492091950705,0.482635172775718,0.478637549324007,0.475693993592842,0.475235948042587,0.474420690227757,0.4815936431284,0.48173442465941,0.481089735849713,0.500265891842692,0.50072943244218,0.500745566445006,0.500078322347723,0.505322532662855,0.510878254763097,0.5166020129104,0.518715579789087,0.520054402414535,0.522187547878227,0.526137314906736,0.525650133829523,0.535514357470977,0.536943585541742,0.537174047202252,0.541095423941301,0.718640287654793,0.575900954898472,0.577234398835803,0.57535321157955,0.57608194459954,0.575024352768284,0.576510783804108,0.574857224593799,0.588036488404172,0.587983819182101,0.5878068939732,0.592433171643388,0.598230617662523,0.599401234645209,0.598256771454833,0.601117216143633,0.603481135636561,0.599181476369186,0.596539520149742,0.601476450577053,0.603567179372678,0.604809834334644,0.604814936496085,0.602631263656219,0.603200606772885,0.609128214772065,0.621546610919698,0.622268968823599,0.625097992548412,0.627460378684206,0.646305632001769,0.644399951382596,0.969241053457925,0.69492933290181,0.692520802931772,0.693685915110287,0.694316997763039,0.727914382815001,0.727964568933706,0.777682112271667,0.777153844371332,0.785130468861624,0.785004152929097,0.787564547286763,0.797153432618044,0.798264247388495,0.807056651983539,0.808434640048734,0.809991288182773,0.81065405889625,0.75369151237184,0.743203393892893,0.708200035384278,0.709638686229377,0.711770630843057,0.712128325008262,0.713798121298822,0.716183347919149,0.724605626971567,0.723941831933342,0.725797000590932,0.737775440265926,0.732363320208799,0.747801311667951,0.748723900891089,0.747539512158887,0.749032547529724,0.749950111145546,0.759129291230003,0.76560673973657,0.771162417743122,0.771373072992065,0.770827761788595,0.770733282360877,0.781125830298512,0.784109116122264,0.788125168070886,0.793935194524674,0.800322162593958
0.371259591319681,0.370358536931727,0.368491913400659,0.369579059708342,0.369831358309984,0.371105957094304,0.373499133879592,0.373136134466985,0.3715617300219,0.381212254318077,0.391535717580786,0.391918677574882,0.390774495113135,0.389578873834458,0.389389072659099,0.384836165796406,0.382312707645422,0.382661362569372,0.378619663959392,0.383746889747359,0.384025367821609,0.387852772162591,0.387339770610724,0.389820047819486,0.386846892512651,0.389469406374344,0.386326504553655,0.389263816297673,0.386814014238411,0.389743869349539,0.388593021117057,0.390310559043211,0.390047083591824,0.399180293372047,0.398358928081799,0.402435149023506,0.407936286235287,0.406918541722201,0.40635908820598,0.407360640883268,0.408219170186443,0.408975508657238,0.408877796304447,0.411357918800492,0.41049362265837,0.414166578865043,0.414089346514132,0.417496117390574,0.421097649530015,0.431827045309222,0.435971230435838,0.440377155976833,0.441772635622434,0.442895291278942,0.443027202671933,0.442904771241771,0.4534685541404,0.456491919172195,0.455838058420999,0.46433915174341,0.465298201400359,0.471143900113241,0.480648046036484,0.480428304035555,0.478103304671501,0.480202214773116,0.47906707841877,0.478533102716169,0.474452964111617,0.4762634631428,0.47459215090792,0.482280876460321,0.482435156606516,0.480294227508847,0.502235875445571,0.501356658405639,0.501725924639192,0.50123363858349,0.501735558594811,0.509485886317179,0.508315340494902,0.519363221575509,0.518045793673497,0.520401264359244,0.525010343593479,0.524290620555881,0.536453263945465,0.537463041796991,0.537592479792382,0.539717569859653,0.539934193114134,0.56669918373127,0.576724662272108,0.575914019495881,0.574475150919644,0.575522170351599,0.574114174711131,0.572562945710176,0.582650524513052,0.585158303726982,0.586973797704477,0.590306746582902,0.599667643369671,0.599046309320581,0.600328255590077,0.600047509206823,0.606183723798236,0.597976540416138,0.596687711809648,0.596223377897891,0.594666993079159,0.594821108640296,0.596057846794962,0.599568076466813,0.60032627826772,0.611446855017332,0.621747042294193,0.622330000761427,0.623707783823541,0.627221911670237,0.647169338939623,0.645858992452058,0.658455579245722,0.695219946150717,0.692503411731022,0.705956881774566,0.725818129041071,0.727074695370241,0.726928504567956,0.777715379388335,0.778583861973743,0.785059060004384,0.78535241236228,0.788806634987551,0.799623811003375,0.800544044801537,0.806549884585464,0.807011882915859,0.807233979894469,0.853232461953479,0.966946431801252,0.740590885931698,0.708026152567496,0.709793390428396,0.709399788718661,0.712767790152267,0.713843848447943,0.716272696232749,0.717308435406689,0.720234306260412,0.719233801961024,0.741690706242726,0.744878322937775,0.747202863464623,0.746283748061966,0.748367137602568,0.747831676716805,0.749401228785875,0.757090971325751,0.764473333461176,0.764947411453604,0.766092794626065,0.76814238187125,0.767824720305485,0.770686839855791,0.776456033694646,0.78794759633716,0.790350216708078,0.796037718993222
0.366084865380154,0.366929854324122,0.367292986013288,0.362024356482395,0.359165473293834,0.367661768783292,0.374216810169726,0.373270929960049,0.372686341414549,0.379822675155352,0.392247647705219,0.392103864637534,0.392346401553108,0.385977617145473,0.382914366794959,0.382527588697164,0.384008623043024,0.381236718297703,0.382370779903091,0.38356539843791,0.387539991124997,0.387632480854146,0.392397152958916,0.39030543767296,0.392452610263622,0.389060012227939,0.390736293592214,0.387707306398254,0.390104429341657,0.387146040007439,0.387862354279534,0.388081200996589,0.39032062511098,0.397240593681143,0.400608808703041,0.4012389579298,0.402261370615543,0.404162470717974,0.405724786889849,0.405376027086994,0.404486727418968,0.407570764503979,0.410531467142801,0.410719141716173,0.413069283388473,0.413273681439392,0.416256547461865,0.416783027442227,0.418701718168086,0.429636321190786,0.442904002915606,0.441908247255022,0.442869008668976,0.442777405155004,0.443286923073635,0.442414577471068,0.4552353822084,0.455725038727641,0.455423169269344,0.463810518169643,0.462818510556217,0.471190549155695,0.480764694472711,0.479428681350721,0.479766464806207,0.478533480605524,0.479821799157962,0.478410764507116,0.480768445758805,0.479621249915065,0.481937069005747,0.482179151187608,0.481794457714039,0.47964530017348,0.49532903288331,0.49837608209255,0.501844289859112,0.500094588031672,0.502575966553308,0.51000036363854,0.517770093448383,0.517226077909546,0.51951822331572,0.519075232041839,0.524372526868074,0.523852632325266,0.537536595711694,0.537065224738046,0.538453687408341,0.539186392453604,0.538399693358347,0.560706939985057,0.576531517063383,0.575245025712823,0.574330765494893,0.574543038931074,0.573784560815211,0.571457585602689,0.581786715019862,0.583774335492188,0.585932820871821,0.589431207101087,0.596909190427941,0.598778450394116,0.598266156643142,0.596424670356825,0.586613486587959,0.586661759970629,0.588231152622684,0.590541495674006,0.59424180113308,0.595309893052995,0.596933825793919,0.598312612705267,0.5990766175503,0.613123465693447,0.619007501794908,0.621540735538376,0.62377302436418,0.627727328805606,0.646891678169399,0.646759510526855,0.649236299649524,0.697197596001558,0.698134633627154,0.710011407182122,0.904267560139752,0.788846652238888,0.827235486922419,0.776850725155893,0.779196755790114,0.783296032114823,0.787914502024163,0.790403885661867,0.804857691812309,0.804856875514672,0.805594070214097,0.832693620391622,0.854377735577191,0.886507665473734,0.965433158698662,0.736404321282043,0.708954332953797,0.709692309217621,0.711511872718576,0.712141091033005,0.714808829632663,0.715974978732405,0.719315668419485,0.719257966507773,0.719530992508526,0.743720373162841,0.746669014199705,0.746735314059622,0.748719774094624,0.747263637821156,0.749027672416362,0.749361111144494,0.758256874636654,0.760744448418947,0.760370252866317,0.760704100119875,0.761848685777044,0.766088953219092,0.767316700628663,0.767440609951685,0.766223713592228,0.789282802202662,0.799221024485991
0.366275322550653,0.366324474688628,0.357389367498684,0.359885496159308,0.361025467261389,0.36253074969491,0.363477202953786,0.372644466974512,0.372997309803889,0.378526929118046,0.379173963119726,0.378813849633796,0.376791361195114,0.377048657489675,0.377042735710341,0.380293136649946,0.381492210169932,0.381514297663927,0.383508893905715,0.386033480240501,0.385618289023731,0.387859989544454,0.393333285637191,0.39320060567172,0.390689263708392,0.391208918480273,0.387725470356198,0.388623995707638,0.384625161049736,0.388109686074336,0.386328207186286,0.388889046168323,0.387956509808112,0.395210226031539,0.401333022199398,0.401996695625869,0.401578391656894,0.403388483526093,0.403712643429857,0.404521974042764,0.404374113691633,0.407572094175468,0.409474977234831,0.411926513461968,0.41212994138731,0.414856500702602,0.414265452902086,0.417043033737441,0.417379199517911,0.427325760769283,0.424377838132378,0.444081584343706,0.444995256693231,0.444094784669091,0.443600170519865,0.442403608701877,0.455776106221593,0.455937505073782,0.45517658915859,0.463710358097728,0.472209253387636,0.470835255809861,0.479453596657692,0.478966018569522,0.479379380486379,0.478105959430531,0.476198207791151,0.47782987508609,0.477222332257613,0.479245206086455,0.483980210721404,0.482703997619422,0.48278055372534,0.480102843395863,0.494445395047795,0.496546900329802,0.494981548089026,0.497391951456514,0.506808383923649,0.508938154738681,0.509296972490608,0.51463083154069,0.513774361955886,0.51886305566797,0.519884020123172,0.524980087986578,0.526729451194113,0.534743670248285,0.538422879765335,0.540128098369875,0.539784375511893,0.554260772561668,0.555805458266107,0.557505530786904,0.561102102495324,0.567679482605702,0.568011201738891,0.570987174913551,0.581571288113778,0.583024429661388,0.583950448518535,0.589630025336908,0.597673551190757,0.597910747782963,0.599287811481682,0.594688167568471,0.58610332473026,0.584787084362811,0.583701932503226,0.584225081170429,0.583469110307928,0.595545066131506,0.596599878585593,0.597531430490222,0.598518172933943,0.614411735486412,0.61941174239461,0.62033062882511,0.621172253127773,0.629323178655236,0.644269493310807,0.656817788299746,0.904881225226047,0.725131991568494,0.697818141448581,0.706410163188482,0.724587139099468,0.762083988762281,0.758362165299803,0.774312391551146,0.782233664960797,0.782770300981141,0.795019019153766,0.792369315074557,0.805844575922034,0.806551951858917,0.807024967743746,0.846823982234803,0.959493817033012,0.911286066071434,0.908640704649095,0.731168082461312,0.709219193253968,0.71007069675469,0.710495796724399,0.712567244119771,0.712725891940661,0.715630297447679,0.719974470006442,0.719800894472272,0.720298414744356,0.744832890159682,0.747086696882584,0.747699894925865,0.746464411426068,0.748455025705059,0.747223893756585,0.74983399823312,0.75712563664691,0.760958792590702,0.76007357046104,0.762035122985946,0.760953517483943,0.765450110374219,0.767226610468352,0.768018671431099,0.768606816838207,0.782867529513072,0.785125422922681
0.368676771673122,0.361688331025338,0.359763103555758,0.360411032973204,0.361822345677251,0.36360141959925,0.364337131324137,0.371114398090392,0.371651392390764,0.375293744759287,0.381205459287112,0.379139256531374,0.37970719029605,0.377264706197183,0.379653829602656,0.377708843270574,0.377128938219957,0.37727908784301,0.37596133373603,0.386615853381168,0.388141221202027,0.388152594922682,0.395511800977335,0.392800992052822,0.394426356861791,0.389847395773845,0.390613677125897,0.386441387286675,0.387426845596013,0.386445096501804,0.390321790598117,0.388492743379193,0.390278108076914,0.393808699215002,0.402012335021807,0.401054317514639,0.402845825555785,0.402360681932113,0.404086279309243,0.403690007801156,0.404440552599328,0.407337290835187,0.410386321680229,0.41131155014018,0.414964845473124,0.414245714097364,0.417677856067881,0.41663942422656,0.418057178568271,0.428291329020762,0.445849416220951,0.445462992681344,0.446231460338667,0.444166554443267,0.4447651445601,0.442441333341927,0.455963111799258,0.455817222196955,0.456413739181356,0.464469066322832,0.47040666166296,0.469499895723152,0.477948127429395,0.477055656584519,0.474554575006046,0.476377773902644,0.477409314421168,0.477474206620365,0.477947054552669,0.47938415696886,0.483587912598133,0.483315979934734,0.483012126963549,0.480522145205416,0.495357349997388,0.495858657734362,0.496591816060292,0.496039247556711,0.497161877353737,0.507517738655373,0.510848409901256,0.512346452547159,0.515120052890059,0.516160511627315,0.51905784041048,0.523352565115179,0.528528448263429,0.532217687889958,0.532624686999329,0.542932158554928,0.542118664265454,0.552759806338088,0.555565556191026,0.555359144276523,0.556889322527352,0.565273568459727,0.567916553281235,0.566684730798335,0.56801441997356,0.579990787103241,0.582493758583745,0.589587956783716,0.591567959066291,0.595441113879528,0.599528875684494,0.592293029206501,0.583634155759455,0.584264298018895,0.583252560642003,0.589051259693309,0.591688454391034,0.594417944055166,0.595630169288917,0.59652524046428,0.597183054464784,0.615671211360948,0.619496947026843,0.619927567590173,0.629598175995715,0.631366989852552,0.643249822706735,0.658918354661167,0.902048629306366,0.742919794028874,0.698089840639878,0.705918270830937,0.931700783869393,0.765721456723473,0.76498091159105,0.772808298860995,0.784063230621838,0.783386096205791,0.793086479656353,0.791683946311218,0.799810863846858,0.808372726483018,0.807634949053049,0.859724377791938,1.0579223385191,0.913996603041278,0.917154685127134,0.726956814120423,0.707734820625999,0.709141712052876,0.710924724142953,0.711899512852215,0.713985639548261,0.715841718111242,0.718324916428001,0.719193079743685,0.72008318428763,0.745710621320988,0.747172456932755,0.746686989519353,0.748979980094583,0.747406310521799,0.750278896739097,0.749949760452993,0.753470656102198,0.762784386816953,0.764469752261659,0.761847092263339,0.76067051232289,0.764788236868001,0.766433097201891,0.76830531861424,0.767907344579349,0.781425484305147,0.786072859923761
0.357747611932422,0.359474709397379,0.358886572305638,0.360400765203408,0.361612339935077,0.363674202835629,0.365620115009374,0.368319155769677,0.369247831100529,0.373318579166677,0.380907380178705,0.379401384221079,0.377640702475292,0.378983848326874,0.376972477876657,0.378078170657029,0.374495015267588,0.376526717403059,0.375957760843941,0.387092344988266,0.387907146657442,0.390622621960972,0.391581740399589,0.393848339025935,0.392461875140891,0.389894980642174,0.38426001618578,0.386562875585878,0.382847368234454,0.387728199857218,0.387617517426342,0.389726049776362,0.389479098933574,0.391724975125272,0.398437290187493,0.39981764238991,0.398526090933628,0.401199448872791,0.402504347368793,0.402414171363195,0.401656770045941,0.409418012304296,0.410006766658153,0.412238889471774,0.4125160152861,0.41506482293944,0.414963952403979,0.417291099685618,0.418203530025006,0.428826316229156,0.444818374507871,0.445936970196114,0.444850217703871,0.443881584096204,0.443698640800194,0.442049151995692,0.455368916703407,0.455250511660464,0.454935062370826,0.464732714166171,0.468384014478031,0.468967223773064,0.469877688558742,0.471961885529815,0.474645590673749,0.47562925576806,0.4766748728896,0.477455283168285,0.478258566727951,0.47416636761301,0.461771515185056,0.477747999651414,0.477557981171517,0.479460264459627,0.495357352819052,0.495958435521874,0.495836394649952,0.495345582492907,0.50708039965201,0.507150906028661,0.510464179408934,0.511210989285773,0.515215074729111,0.514542959716734,0.520422541388355,0.521919281725695,0.52686970982679,0.53005247166383,0.538696569122912,0.546052175463935,0.548620983814043,0.551132217375329,0.550289394972032,0.554053394304844,0.555471924460367,0.562325446755295,0.567201166571388,0.566795239674268,0.56793113521325,0.578336140569429,0.586764458598892,0.588781146417834,0.589845057627524,0.5899302901944,0.590343213448097,0.58843114740597,0.585236933868973,0.583375967154329,0.583871319876061,0.591374397836809,0.593564312240703,0.592984673894501,0.592560963817808,0.595415180393196,0.594739233245628,0.616114710230784,0.619288077601468,0.620387350605864,0.621457471253867,0.633296698677022,0.644984928073391,0.662488156273799,0.868493955036157,0.759859422695497,0.702007990023163,0.707927685298227,0.922791210453586,0.766885765519284,0.767669893518266,0.771251234227974,0.785093326857105,0.784559937246172,0.785461137520894,0.790483106592453,0.807234056391038,0.80843165180122,0.863107731427754,0.87010640480829,1.04452733878914,0.913686231230348,0.911683775671747,0.722496986767935,0.708546132191853,0.708831355518597,0.709310315047999,0.712186979070301,0.714067910954567,0.716000263192727,0.71668352985775,0.718708826228897,1.04320213674662,0.746103563541019,0.746138578500698,0.747265818817505,0.745367003125753,0.74847066216133,0.747408718262901,0.750365138107466,0.753016035241508,0.764545549385461,0.761834944332803,0.762657683944427,0.760279053855161,0.764370831312522,0.765179582519462,0.771717103977853,0.773819281311895,0.77982638192121,0.786011737624684
0.374540597324811,0.359739175009484,0.360131835502542,0.361560194928731,0.363087717915812,0.364018463543088,0.365262453272085,0.367049979812664,0.371245696839201,0.371896498580218,0.374505766230765,0.376302284252482,0.379791632584813,0.378039646087034,0.381026305274306,0.377406839225661,0.378526504664007,0.375864430050577,0.375715245189021,0.386008868552094,0.388300037358145,0.390028488701496,0.39490514033151,0.392965384134138,0.394666722386752,0.387007002266217,0.385537992831396,0.385488623632452,0.38918784401597,0.386634498035937,0.389715220742483,0.388063874590486,0.390809092563928,0.391242647277293,0.399428953022089,0.397926402308008,0.398867146713488,0.399269189181768,0.400194757116268,0.400347942507328,0.400135570183911,0.411125961679585,0.411222511181494,0.411678721784226,0.414969434095069,0.414063973448894,0.415488934530389,0.417742340904489,0.428079678180409,0.428528781428329,0.431774868850959,0.438009716603049,0.439594905735272,0.442034326680681,0.441475228376261,0.440989498102936,0.454087844408834,0.454455072200697,0.454593137044626,0.465462531329553,0.466481578883263,0.468363764682013,0.469479115569126,0.470260053556411,0.470192181891683,0.473995224156713,0.475014635518248,0.476177162819602,0.477299716914822,0.467785101969038,0.46119979383224,0.478503889601648,0.478281181315435,0.479891504517937,0.480590954931304,0.493429348648911,0.4943294094788,0.494644969544235,0.495084794425092,0.500759325417789,0.502501050658392,0.506898718527039,0.508630093037138,0.513535156462557,0.52028255056774,0.521708165402269,0.52699385062002,0.527691420808575,0.698819094309052,0.547877374275373,0.549365171536477,0.550666539794691,0.551118474183061,0.552545595378777,0.557083642056556,0.558244599977861,0.563265697276669,0.565506236101359,0.565695672479515,0.575810419042899,0.57592697925338,0.575816496805909,0.576188956401107,0.587192037419982,0.589802659060434,0.586470164963624,0.582936739986241,0.582989885750262,0.591917902866718,0.592416749722578,0.591815137393984,0.592935702839422,0.592191198517014,0.597943729623507,0.820500344322754,0.6154590673284,0.615893488607346,0.621674113799474,0.620789091679656,0.634838034484486,0.638676718289736,0.666625759899406,0.897034447367021,0.77668599820777,0.701939948508735,0.711490155736114,0.740350016737245,0.766521294221982,0.766766574282926,0.770135957221541,0.785600992570761,0.785477290941431,0.785639687074879,0.790392045259249,0.80507894447123,0.808012326609568,0.863133974053893,0.882482703474894,0.888950387306132,0.898332094933749,0.718253404474336,0.716785698074143,0.706055300098503,0.707256158024153,0.707046823213821,0.711577380369535,0.716065874187165,0.715774759960986,0.716986242693751,0.718816076828297,0.746776167517484,0.745815858092959,0.74734097746869,0.74651933524985,0.749540300348953,0.747329852328267,0.749390978478466,0.747999795159374,0.764835055795096,0.764175796693576,0.763781870379504,0.762190630532924,0.762674219149827,0.763230705924949,0.774555344817274,0.773727463668181,0.774143268667554,0.776109504058095,0.775178870961617
0.375453826463702,0.360162298900878,0.361808479831605,0.361675281865936,0.363672939930705,0.363608555861581,0.364510973930097,0.366315248294047,0.36810590156395,0.371325071226895,0.372809102209516,0.376097046307667,0.376388646247048,0.379047194356001,0.378163504576575,0.378166852305157,0.374112541118846,0.376732244227343,0.377093378361009,0.385176594194285,0.38760928847069,0.390616410786967,0.391048564308214,0.393040091094553,0.394326713148789,0.38546690915498,0.383493220686186,0.38647400465799,0.384804990344786,0.386610598028334,0.382589430321097,0.385763639586982,0.382338051129046,0.393286573927015,0.392322185128026,0.397101893292131,0.397094254620559,0.399017115119498,0.399506138093524,0.399720058026856,0.399674779016504,0.411843459001832,0.409594135769932,0.41218914468336,0.411319201940692,0.414365006568555,0.414956851116706,0.419110044510954,0.428969542714,0.430097003832809,0.430290704163199,0.437603566813655,0.438557812330559,0.434237675890734,0.43256755968717,0.433639134003709,0.433906257011094,0.442396438420171,0.441431111845864,0.466565393475813,0.467425827652627,0.468132107728157,0.468727943784483,0.46887648907181,0.460560000486653,0.475491045928354,0.475475521296837,0.475156959792892,0.460298325188981,0.460289694062936,0.461434342711175,0.478646555052174,0.481099450724908,0.480519319935115,0.48163713354465,0.491208277947077,0.49372680998292,0.494294414941619,0.495251624578341,0.497941087988882,0.503562492352719,0.504329587432236,0.510404064403367,0.511690300356287,0.511141672090639,0.521340294768532,0.524115452140264,0.525912349444867,0.528974359990752,0.537196185603537,0.549934040314195,0.550823968537484,0.550137627516959,0.5532852439993,0.553783314700326,0.555355072601688,0.554994488162061,0.564968208000904,0.564696375067939,0.572540433613629,0.574704896034869,0.57466927214341,0.576834836902541,0.582689029285826,0.590490656973188,0.582836146825499,0.581208913774608,0.582449281989126,0.591971715787568,0.592001941491939,0.593298055719712,0.591770566227615,0.591425262860503,0.599499755007604,0.61284888432453,0.613848743815791,0.614294855675232,0.622148995788562,0.634499244272987,0.635456158515699,0.638825118281482,0.671595604522718,0.966580858239123,0.793806141364936,0.717949336663332,0.715802263091853,0.948889655504301,0.765571663606833,0.767890656857966,0.769091106308463,0.76948949968355,0.786691723192169,0.786226090207195,0.790413609183293,0.804375733104701,0.807838177782201,0.865679401035196,0.900954420628239,0.958228004763289,0.90584389659395,0.716308609362099,0.714429568174865,0.7049740998843,0.706963651988727,0.707391606325417,0.710654586256315,0.712680457995644,0.715657750367403,0.716572497775878,0.719403468920103,0.723212924542069,0.74488055671451,0.745173748175381,0.746782746057571,0.745597345493667,0.747505640480273,0.746265024124169,0.746567568100419,0.766537272573798,0.765178597413216,0.762191516979814,0.7633221150229,0.763774633466611,0.763378926761764,0.77476374858755,0.774532403398616,0.774522598712236,0.774751526067526,0.774733520392477
0.374175268408885,0.361760231819843,0.361798565220153,0.362458714679092,0.361068476875121,0.363343583506048,0.363217419377785,0.364881616187976,0.365130344265954,0.370095369081642,0.374727715688938,0.373978796121296,0.378085599242425,0.377016994867186,0.380953159942938,0.37676893605465,0.377163106227656,0.37652904123853,0.378852535349127,0.383531494181421,0.389443530593752,0.389652383516609,0.39113240508565,0.389381754921614,0.388514981613181,0.38518119809397,0.385329078859086,0.385442697927532,0.389479806649885,0.385831544440901,0.386911746536731,0.386623163219006,0.390068875123379,0.392133732611922,0.39719670700731,0.395652536832802,0.398052697150769,0.398200256055099,0.399939920167149,0.400025699437204,0.399764610608416,0.411191752213963,0.411150216886676,0.412019952254621,0.412615714763889,0.415561389919275,0.416576428275181,0.42236918926235,0.423275355190199,0.431325707732341,0.433466440603529,0.434057342303298,0.433037623739364,0.432834363054775,0.433287605991604,0.433012203429555,0.434094914947753,0.442054021249108,0.441048450295068,0.468463567956456,0.468569336709509,0.468449570522935,0.469220536742553,0.465998946101394,0.462253219062271,0.476963700554874,0.482602925655867,0.473941190912334,0.461435226316881,0.46153634467,0.461242923357091,0.477373265672469,0.479268394770327,0.480664193564574,0.480534487358074,0.488446193715206,0.486399195771223,0.492184090967706,0.496782327868888,0.496022350735108,0.496419346933871,0.500291612648934,0.510081925631914,0.510731489098843,0.518137690732386,0.519777948899871,0.522333095715158,0.523427389296137,0.522683673841728,0.531775254208648,0.531297329809617,0.5429683314457,0.549018354525352,0.545078772991968,0.542651071015964,0.557255696771847,0.555245698115449,0.563881886075315,0.56276353736085,0.570420646626261,0.57357344024171,0.573363540679535,0.575763273590808,0.579196124354704,0.580110918252355,0.580838094459711,0.580440986628676,0.581785785372723,0.592917044961195,0.593253168055788,0.592267878135328,0.592559092843049,0.590935220642726,0.601080132422265,0.611357197121234,0.612978664058556,0.613539908684857,0.622114521408881,0.631277793253232,0.636128982278853,0.63641671754293,0.674553741705495,0.851229953422339,0.811034160500729,0.719764657974266,0.718243787892699,0.719357432317499,0.762102943081422,0.758830041733865,0.765100695405138,0.761399883852146,0.787873678450516,0.788320059771146,0.790091433664868,0.792381011733403,0.793029767939962,0.773751688430966,0.917664730633698,1.05758089464081,0.911939630315783,0.917990841597865,0.712939576453979,0.706391659548269,0.706740001642478,0.70857249840397,0.708207302640317,0.715865249384906,0.716315549781027,0.715699735210851,0.720512449832959,0.741196429180663,0.743571933137622,0.744976180472817,0.74532702031638,0.746685893421038,0.746306346319835,0.746581019168667,0.746396281829374,0.769136699269375,0.764876343396034,0.763933854489169,0.763214088685067,0.76505383739965,0.765312886306683,0.776834721544189,0.775547160357008,0.774363716719005,0.774612916265729,0.774276765038019
0.372840320600076,0.362643118265763,0.364869540012417,0.362622737638832,0.363815369474549,0.363346601611694,0.364805261717513,0.364863085178067,0.36484433347657,0.368423513853376,0.368649570595117,0.37202951833253,0.371201160684804,0.374837783272812,0.373989994580719,0.376379615520563,0.374240490238537,0.377927908125905,0.379880537088194,0.381303145427901,0.388520170542406,0.390032250405574,0.38948820963634,0.389028260885022,0.385472538811336,0.386340950265092,0.384291511584729,0.387258377924875,0.386715355144836,0.387017381472278,0.383911425204116,0.388240400330241,0.388371475254155,0.392544209927327,0.392306423605745,0.395685348993025,0.394392217249687,0.399044055498213,0.399980096221178,0.402269877386366,0.415118884691379,0.415635470008815,0.413256463081888,0.414192550935205,0.413047696442771,0.417460490856548,0.423631899698912,0.424537174799765,0.425014955818931,0.430133739462387,0.433187602493305,0.434598817804295,0.434053191817973,0.432914924050972,0.430486680583947,0.431745523699952,0.431491513677871,0.442083081916668,0.471722514683931,0.470786545089109,0.47109004767047,0.468962490909615,0.462259193478515,0.464362225169802,0.463153071582654,0.477364414948186,0.483943698533311,0.472307541436114,0.463699923320592,0.463458480581669,0.464371419862,0.474611336331449,0.479835223702858,0.48012434177546,0.480692994920414,0.486566202053313,0.488919971397131,0.489320936573472,0.490652194397542,0.492941224376536,0.495524870193992,0.49600806200262,0.498306759861673,0.499563380241673,0.500694553338811,0.510252938958742,0.521848683793837,0.522651512044933,0.523088804358744,0.532290876596759,0.532026396597666,0.537266126482559,0.541092874690557,0.545356479677779,0.544113541769534,0.559208315137314,0.557381490036071,0.561115509366043,0.561670450280573,0.568518376188856,0.568190955701227,0.569154216411806,0.577770814804355,0.579199920352333,0.580207103778562,0.578861469431092,0.575761306564686,0.580683334995739,0.594172196136078,0.59231624065089,0.594160248713007,0.591888238965284,0.590948779073062,0.60261792524122,0.610780792638072,0.612641276880547,0.614219409333097,0.622409615757511,0.633198151542546,0.63491435785558,0.635654389712001,0.678209350901011,0.847214382707245,0.824940314731719,0.871709464468149,0.881037489807695,0.893130155428741,0.773623044892111,0.773227230379458,0.765477488775323,0.763753104982526,0.787806323400834,0.78844317365226,0.789397484740523,0.789543246815467,0.792000557674962,0.958729960029155,0.930648316079027,1.02988033266906,0.788547714029084,0.711249373013361,0.710677835798635,0.703810485311185,0.706194288482376,0.706023670578882,0.707747038443254,0.715725761135425,0.718602133952987,0.721468590570704,0.721480267680453,0.741434882110771,0.738048511321561,0.734668391435632,0.744268802837377,0.746060276708407,0.747224945528272,0.746276376598,0.748025080823811,0.763285884662082,0.764668645839775,0.763611962308322,0.762404656996619,0.763949962665732,0.76784999982769,0.776236968539494,0.775068056119825,0.77402366337473,0.774273196538802,0.774850217209874
0.372055605324422,0.363740114787825,0.362772303560939,0.363414878220847,0.36172755072272,0.364336933375331,0.36473969539711,0.365600824546041,0.365898085247373,0.367016534696299,0.3691723029965,0.369396752190031,0.372877639674433,0.372337114900259,0.375472861973597,0.374772085050892,0.377502424133606,0.37717482584538,0.379943927548335,0.381530743939445,0.386146088653198,0.389210789212101,0.392345938966911,0.387908045657917,0.384078211600392,0.384967108241291,0.388301734916822,0.385857340667679,0.388732637846903,0.385917765133475,0.386414307536239,0.388059031833085,0.390865682444558,0.39081789033401,0.395495971635833,0.395542696203919,0.39654587222815,0.399987390714375,0.401924839171445,0.404258356628426,0.415509793376634,0.415495195123164,0.416461872938088,0.416351966359938,0.419501848727845,0.418981374829138,0.425003889484397,0.425025340508591,0.425763389472275,0.429834043752835,0.434532179340227,0.434566051657085,0.438045252437692,0.429906238617776,0.430367040761553,0.430442107884049,0.431474895049753,0.441391874915921,0.472547097991143,0.47270646686669,0.473666653085323,0.467373872790073,0.464409769412521,0.464961303914136,0.464967590414591,0.477316527165086,0.481317039282244,0.470615461554132,0.464675660000906,0.464840831779091,0.465744328786729,0.472001739860301,0.480951339688736,0.481322321905626,0.47986985910285,0.485035220494347,0.485366659081418,0.487834118984159,0.487790241218052,0.490098706220906,0.492716687444474,0.495446347300231,0.497710270917507,0.498903958076586,0.501654659153828,0.501631713316053,0.502935128839546,0.512469268611066,0.531986448425786,0.532340219709634,0.531482661877033,0.530084586239699,0.532254228269936,0.545340493720482,0.545771529284241,0.561367675753942,0.561364545110049,0.561980089328976,0.561262382517023,0.565690616469637,0.565990180715504,0.568423616350863,0.576952368758108,0.576013298529677,0.572083742983854,0.57115336086186,0.570580501262194,0.580531717051962,0.587906976602811,0.590600304733957,0.591595366799778,0.592836245738082,0.590624568342502,0.60428374575378,0.608594910241905,0.613110580983608,0.615469049182784,0.623838232601429,0.634735316712932,0.638186017462298,0.648267412117033,0.68210847322034,0.68625410882342,0.810895008417381,0.779334004585402,0.884928983692859,0.980719650397623,0.774670904338374,0.772968512971181,0.76931271970421,0.764364564102584,0.786136327148091,0.788556207665403,0.78836120740908,0.78960471799118,0.79145902463166,0.958545399777297,0.919546127539701,0.903903398650067,0.758908959531986,0.708861159562822,0.708172467330822,0.705691360611812,0.706390880823913,0.707906250620003,0.707230003259567,0.721627566160946,0.720549514491502,0.722454768910731,0.722189432763344,0.724058179941022,0.730631899993472,0.728592157862557,0.740689490036462,0.738802598630283,0.746755451856914,0.753466768035598,0.749938006320111,0.750694610735995,0.758216554898207,0.757983072991254,0.758630962747786,0.7668695687827,0.771312767276801,0.776539210899008,0.774881680315984,0.772832305084824,0.774325945605695,0.77551845127407
0.372479929223083,0.363524012312507,0.362426859682387,0.36177886677416,0.363746496271644,0.363772336274271,0.366410902548993,0.366025410119164,0.366813697478091,0.367439981681219,0.366786664006672,0.369254950140293,0.367502065960047,0.372225478409823,0.374410342110129,0.37578066386711,0.375791309064922,0.378172039079603,0.377545737292291,0.381677026399801,0.392662845513931,0.390639563196222,0.391721340144517,0.38473342055304,0.382849005949065,0.384729640898802,0.38280283680298,0.385263812500521,0.383766016560483,0.385426586584113,0.375383515738731,0.390201413038614,0.387236741538406,0.389255924055727,0.395807187938742,0.396809192017701,0.397598372202046,0.401666535055406,0.402926875979371,0.406617136429647,0.414717969147714,0.41492537420291,0.415073794406535,0.416652121411659,0.416833725467365,0.420121236060917,0.426051288431665,0.425842855072459,0.425502823838775,0.430481353482258,0.431882168922986,0.43548863588536,0.436226240247087,0.427750229281308,0.427261108358263,0.42960459719769,0.430168497309572,0.440842325240596,0.461268756262474,0.468032888496314,0.472441852856735,0.470771434897579,0.471522974086577,0.466367096857123,0.466141869373989,0.477454927345578,0.481046810142944,0.468653861762961,0.464026841722811,0.464593739324093,0.467682428221742,0.470185089475822,0.481948074517885,0.481444674636669,0.484232659935558,0.48362990899398,0.486840779032555,0.485937783136558,0.487203929789324,0.486919183673483,0.495650989772426,0.496619148593123,0.496951486629437,0.496985360763359,0.503440813218021,0.501394732127291,0.502468888781057,0.505163673606285,0.505150328490751,0.526057338213882,0.527149669397161,0.528840266454078,0.751725604951416,0.595735869122,0.751385370156288,0.560825457569156,0.561618281562922,0.561235403371877,0.563410903398352,0.562770124819938,0.564863002222726,0.565808611746418,0.567041930973179,0.568949470092474,0.571061324897731,0.571102713125173,0.570364484572411,0.580544176336754,0.5875342333947,0.588517616183285,0.589710615517762,0.595306025783062,0.606011184749662,0.606330084337494,0.611065570063795,0.612296281906918,0.614608473147121,0.626063176299058,0.641867190496819,0.644478893480584,0.645820115268154,0.684949610771885,0.686812565902637,0.845297300798153,0.940524312697935,0.896171520458454,1.02093697877176,0.777105913366788,0.77612178424567,0.779260894531232,0.778458188492285,0.78399379160514,0.782581900390326,0.786360024638714,0.789012270967117,0.776005557910997,0.754078420944133,0.755568489993421,0.7070311365644,0.708165335721182,0.709098966977927,0.699334594739297,0.687357421791629,0.697744933931457,0.706019678951095,0.706872263283807,0.719624396243847,0.719467503618699,0.720996879413239,0.721265487782691,0.720389551304332,0.730226013836203,0.728338585412077,0.7392597924965,0.738418877858457,0.745794794259913,0.751391674779742,0.749345409451151,0.746752886069021,0.756712484916669,0.757434266739141,0.757901075915678,0.758784271831403,0.773137256820838,0.774767966086361,0.773913649391653,0.771940588295153,0.773626567870593,0.775748424421006
0.370695751530346,0.361845886879521,0.360032015463892,0.362270975957002,0.361141460702575,0.36471307596432,0.365904577109997,0.366229002851276,0.366210040345393,0.366468583513973,0.368580911659242,0.367570490055622,0.369921456915376,0.369511697461856,0.370361356820898,0.373181050578829,0.377637826280876,0.376429265380198,0.37839207931025,0.381312549281845,0.385741427528782,0.38781429542629,0.391550380957909,0.38312358269556,0.383288356797387,0.382994610538005,0.384390143882814,0.383424145780619,0.38429526023703,0.383712392375978,0.376073692939021,0.390454059141914,0.389293643093905,0.38847610738873,0.387932665900616,0.396150023693546,0.406230826001448,0.404414786700104,0.404076540352065,0.410395830414066,0.413155657890896,0.413114769496706,0.414873978261964,0.415276035001001,0.416819482655823,0.422089365874877,0.425988441927037,0.425360242066962,0.426513660114612,0.429830103584618,0.438656086884855,0.436783950292901,0.437375611557459,0.425929306539268,0.425936603487018,0.429746929760367,0.430800909473995,0.44152936067644,0.458395561607878,0.457323677581039,0.455048469590211,0.463317362390778,0.46444084350938,0.464129927717017,0.476048158037285,0.477539798040743,0.479786447939098,0.467238200644535,0.461202965795438,0.462485089840582,0.462245610505297,0.468322994734718,0.47996322418793,0.481638114850503,0.480288543651038,0.484060660416015,0.48449294089798,0.485501976085378,0.484337325720112,0.486061803992177,0.487925223087177,0.488003901143089,0.49021818632451,0.496521520140297,0.497581056108935,0.499443875968852,0.501329108758639,0.502773631756472,0.511605226405295,0.524419583768882,0.527378745841171,0.529038682480653,0.52927153511849,0.547004570657369,0.545699935064187,0.558840457045182,0.561638078289189,0.561737612163621,0.560908007182952,0.561249618591121,0.557702241903896,0.557816820335398,0.55945314834928,0.559026121784698,0.559661913412077,0.560242256677495,0.561965671842985,0.580669570395807,0.587772822662388,0.588046500395507,0.589377563247265,0.598327739459149,0.606319814129717,0.607824026462311,0.607644710691146,0.61300655581042,0.613646903743881,0.628379155845026,0.869999531992601,0.875375689017747,0.878030497336803,0.880491173342491,0.990648946853041,0.874659489121594,0.802744605713093,0.858726533480267,0.889044802054989,0.779381522993681,0.778041310923034,0.780465665462705,0.783526347466103,0.783917261039225,0.784797004940616,0.785168670038719,0.768643173505505,0.771482887749834,0.760901392376649,0.757838516516377,0.714632002463082,0.709065421138642,0.701053491837926,0.693152093430276,0.680197782308821,0.682856343714472,0.684267764043872,0.699846522371655,0.714049645012345,0.71619009424013,0.920670299745096,0.719603508143804,0.716860375718171,0.732599493307674,0.734266379903549,0.739146859468573,0.746461539303711,0.74535410582075,0.745185342468969,0.74264134878904,0.740148501138139,0.754729101111968,0.752222711847061,0.757355637076936,0.97641847555505,0.773417389903935,0.773168640470052,0.773814073314532,0.762276455097762,0.773040580151558,0.778210196641972
0.370469677301029,0.359697832880062,0.361797578567278,0.360684739128103,0.363101648099006,0.36362006278557,0.366756116182023,0.36570720811918,0.365597962746336,0.366325175230735,0.365467570828372,0.368183250677595,0.367085294113805,0.370349427771569,0.369521992498106,0.373148357766285,0.371578678381102,0.376876889555938,0.37690867136938,0.381347535620809,0.382666803806473,0.385310585934894,0.383585329173479,0.383714920800224,0.381568053386793,0.383693980706644,0.382453326927421,0.384370723087481,0.383791800915015,0.38347450541948,0.376717022218723,0.39094148951284,0.388312376542922,0.390181377908499,0.388466043935952,0.396051992195337,0.407099782032808,0.406190454364606,0.424998034626988,0.423032016893374,0.425889230314491,0.411686560633799,0.411516825183882,0.414224629588193,0.422842222799423,0.423191320219586,0.423846431379649,0.424431066962831,0.425283423388668,0.429005854960876,0.439945539297805,0.434400118360717,0.424046393441,0.425165596321921,0.42539527744113,0.430771588055725,0.642762895282207,0.443516156547683,0.445919137642017,0.45138882839667,0.45327075164454,0.460790306779084,0.464653583665313,0.462844812578103,0.476179405372222,0.476731717632075,0.476724579291487,0.466409305499402,0.46125371290213,0.461878066262634,0.462543369087842,0.467238933265035,0.480557650741559,0.481349381641738,0.483178688933756,0.482319920980414,0.484817060977635,0.483278230647413,0.484912696210544,0.484781221414562,0.485535283178005,0.487241638399758,0.487375361775963,0.492934719504483,0.498507922386382,0.496900890315375,0.495583400790133,0.501643272778742,0.517489947788511,0.52326391235745,0.520755099864913,0.523500463366779,0.524152050807204,0.547594363969988,0.554848150404155,0.556559752210603,0.556678767656496,0.558949033290011,0.562732552333246,0.560073338277301,0.561484330003424,0.558051031194784,0.558541507202375,0.557870378398616,0.560072733667188,0.559718197011916,0.562254663969884,0.580933085298444,0.587531814631605,0.585773718713966,0.594335436755932,0.601183825099738,0.607439982098518,0.608194588346411,0.609699800520294,0.613500729183044,0.614314793033721,0.630588955419333,0.910156571684161,0.876429445240949,0.878838952952634,0.883358573599684,0.890419846672776,0.913194712422291,0.937568546775778,0.837356755512539,0.803560341792024,0.780701848390203,0.780154916601561,0.779189197132774,0.785790414395578,0.785998500857399,0.786726275352185,0.786264581805667,0.756264068415568,0.771460629877219,0.768747579447283,0.76584483262274,0.920836390695381,0.70994290639527,0.700356559594528,0.685555792553704,0.679911303920823,0.681678968695135,0.680742983704684,0.696701470246751,0.698357472397042,0.702323693305316,0.708773672319181,0.708625573170248,0.71016620813763,0.733594306243155,0.736034168289278,0.737912006458181,0.746154755161435,0.743989958344953,0.736402013894219,0.737785307895704,0.738404067681401,0.754847896603248,0.753261506723155,0.755091395109807,0.754354089203628,0.773095281667661,0.772201893632246,0.772451354325365,0.761771750260891,0.772449348508978,0.77846535760098
0.358523778163459,0.360192003123925,0.358101846362911,0.361509980285468,0.360327746552467,0.364189023050794,0.364818816939729,0.365134830870647,0.36443492883732,0.364978622426528,0.367538189070393,0.366768351612815,0.369586209954833,0.368762819038986,0.371743397683493,0.371632901117371,0.375553367601707,0.37555144846227,0.38017745814892,0.379779982348666,0.385010005111777,0.384399383170141,0.385575099109266,0.383428604059028,0.383515159461674,0.383615526783477,0.385233541334043,0.384487058374013,0.385468544410127,0.387926348669093,0.389525373470654,0.390416353708279,0.392555093718917,0.393276844180954,0.396612972468701,0.396433050485231,0.406741659951926,0.406210572702035,0.407314026861643,0.420057190371129,0.426589097640502,0.410452345350064,0.411523795430134,0.414263418748337,0.423314854542033,0.423656893109219,0.424188971990088,0.423739106653685,0.424479574744535,0.428614705225632,0.440443884742821,0.432431304946872,0.424947408569918,0.425084381660814,0.425548228065061,0.431865720989426,0.442891420547642,0.444369012390127,0.447709748432367,0.450256849975799,0.454534452819213,0.457686609719823,0.457029226465073,0.460808582893123,0.476642835133796,0.47591773076779,0.476567902002931,0.465507469828117,0.461026366389099,0.462281679000746,0.461793827669286,0.467332655781949,0.479819724476023,0.481614499199111,0.480719749515571,0.481962342829235,0.480490889277575,0.48140141394098,0.477692210708517,0.483475592158994,0.485978150881703,0.486490183505136,0.488633771849382,0.490273488819388,0.491832045508156,0.493633326468008,0.494482567637384,0.501227131250787,0.510349622079413,0.522187979244839,0.521102764688904,0.522763196606683,0.522987885940772,0.547250358698057,0.545583588332272,0.554376317274623,0.55568802631411,0.557350389102842,0.559098755110304,0.557928945479359,0.555311672964902,0.556285525319859,0.556767379096091,0.555970586902202,0.55491911222389,0.558245137475126,0.561675495106484,0.581036264214582,0.584555452138032,0.584441420780748,0.594723975200243,0.603423818454703,0.607682715945642,0.608868760206888,0.609722639955536,0.615354198472278,0.628697898284895,0.633215229020195,0.637354258973661,0.868902627580892,0.88699761559717,0.887068672468467,0.952345379327883,0.923884200002867,1.0170704939019,0.813366922510493,0.782185561921284,0.780720546997126,0.778390614681972,0.777433404641145,0.787779225094746,0.787034554877886,0.788186076836545,0.786486593690843,0.754096237423101,0.772345240139988,0.772016342383027,0.762867262683405,0.707579029729534,0.709150781515252,0.701060557362049,0.680542434230627,0.669511229334229,0.670449962104415,0.670707152760185,0.693629569784724,0.699079203542444,0.701354104219888,0.702195181728341,0.707196954556621,1.04307127721003,0.733647353205202,0.736685090191446,0.737588853963609,0.74058164605876,0.739544867070244,0.737893650379978,0.737772300507917,0.737992197364297,0.754803755089019,0.754051940563728,0.754434160004504,0.755202622948639,0.772843020553416,0.771284247274068,0.770728796260161,0.769527292665129,0.771397107617724,0.772389711751332
0.363592824188373,0.360629368701166,0.361707914328359,0.360812273739777,0.36345090012047,0.364168135021622,0.366836323097402,0.364726230006032,0.362629784839891,0.364828580474884,0.364250940330326,0.367780298601748,0.367196712409825,0.370557954689747,0.370076514834848,0.373706892949553,0.373011543669538,0.376660144569427,0.376827840719931,0.378253012154592,0.385674230504394,0.385572237724603,0.383391489355364,0.384417846715731,0.38272529886844,0.385083433731239,0.385540955124157,0.385846748655374,0.384882594256124,0.389253216161049,0.396718356516636,0.397299793964224,0.393508986360014,0.396039813538006,0.396684303847945,0.397827021032404,0.398880815662863,0.40335596253268,0.433541304901559,0.417224928594531,0.410559184081168,0.410775323591271,0.41099878474188,0.413602219374706,0.422601172668784,0.423501902567363,0.424387999286513,0.423087425286987,0.433436029619081,0.429857614870482,0.440957236953629,0.430536835466805,0.425938430041523,0.425884632755359,0.425846238017309,0.432971920610517,0.443100050110107,0.444399485167629,0.447270748906,0.449151310013928,0.44771162375002,0.458513549008288,0.456598192779482,0.459919885067852,0.474341333537697,0.474873170496738,0.473165052194488,0.464775977674365,0.462369204711349,0.463293207147543,0.463959979083307,0.468241300799501,0.469034662893505,0.468085343906548,0.470195039985022,0.480081484436294,0.482567039235195,0.479683623262688,0.480074852836073,0.480268272989349,0.481126070189826,0.484470925175943,0.486526530366934,0.488154602898522,0.489376400790898,0.491839238080971,0.493613658692945,0.500101321325122,0.519832644974483,0.520757521155177,0.521434521846482,0.522031247166653,0.760909931196225,0.547846173282842,0.5475383365495,0.549796656624251,0.554580710722184,0.553953239804008,0.554488162174422,0.555962514150189,0.556572103333821,0.554744688120186,0.551903339902605,0.55395072814063,0.55424327963197,0.55663555136779,0.557131975049223,0.580748988750215,0.586616469984001,0.583953967350049,0.584005862914819,0.604960430057576,0.609207082035902,0.609362107149231,0.610204095879952,0.61708103437102,0.629999596755754,0.635413009724677,0.636166433796601,0.846491447966865,0.847457556816004,0.892211526751058,0.903162976572669,0.90252394015983,0.729815965483551,0.770382040599468,0.771542272428505,0.774732492811252,0.776142629529661,0.775154963799829,0.788128358446903,0.787085681833646,0.78804782869199,0.78705845787693,0.907992023873399,0.822155530192426,0.870061391600907,0.760655244785416,0.753975534643266,0.724627877477458,0.00445833841266379,0.670216928246077,0.670651651290717,0.671461631875787,0.671814955885564,0.683673660705719,0.686862068143653,0.693735649298172,0.703267182750216,0.70608766785,0.719202354518894,0.732522014496842,0.732172027821801,0.739235563992328,0.740212218349748,0.73991016284279,0.737198313988037,0.73857548587059,0.738501348768113,0.752900640905918,0.752963811303398,0.753753711182378,0.756466791486443,0.771926718143095,0.772306277103265,0.770150618249868,0.770115319079442,0.770631649176493,0.774447942141946
0.361771136771279,0.362124740465541,0.359417424016753,0.36236943871707,0.362721037544724,0.365553731406808,0.366176224252886,0.364562072636945,0.362573623337915,0.364708867780888,0.367089763104756,0.367038101459257,0.369636642786006,0.369179884364913,0.372384108631123,0.372652438155937,0.375926834129754,0.374750963715434,0.376476468307223,0.377879615914332,0.387454901468242,0.384850344733134,0.385785685592975,0.384187746249175,0.38472573219669,0.385966596020739,0.387933191452831,0.387624506961367,0.386693227535734,0.391745686549051,0.398693301212164,0.397487551990006,0.397559334234242,0.396395841759336,0.398911727228972,0.39790226900563,0.399882997254951,0.399958660238474,0.425526596068343,0.413331079648516,0.412461131384637,0.410824844189447,0.412979408042408,0.412896709210178,0.42292257819043,0.422559387120113,0.423903252031365,0.423282628099794,0.424721059611072,0.42774773335738,0.441213755446374,0.428305522118754,0.428086899748651,0.426460452761139,0.427820732556342,0.434298652684961,0.44024186481635,0.442851049695189,0.444917639782297,0.449831632818141,0.461277934535276,0.458854701124172,0.457174334572367,0.459257737780992,0.475510098310069,0.469940498451828,0.463263901159335,0.464397030598299,0.463470417126348,0.465615146214402,0.466309124534404,0.468548864150234,0.467781536464514,0.469023369144347,0.468920247840223,0.477615460792508,0.479380586287307,0.477423628060665,0.474617950796181,0.476746444082844,0.483270846524115,0.483677651267691,0.484136902548791,0.486939280322601,0.487477905885566,0.491209694712432,0.493040311910653,0.498151671772522,0.517246127935533,0.519404800524593,0.519441955526523,0.521242612750891,0.523475493436731,0.542915783686566,0.544856592411217,0.548129902655391,0.546496315557002,0.550428655417151,0.555774486058835,0.555873770658806,0.555660982261314,0.554319898746307,0.552464457147673,0.553423914053122,0.555099039840494,0.556202917404866,0.558722379832155,0.579893973680442,0.581129472233667,0.582248206324812,0.765431631491236,0.605857684974207,0.606224377403697,0.610113934623876,0.618894043653754,0.617696290739229,0.622103582552896,0.636448889316206,0.637423753241722,0.846565778926632,0.97111816672021,0.896252430713322,0.901693860939017,0.902212713128865,1.01796762265,0.767741681549038,0.765296707253389,0.765294471245975,0.766201310751537,0.772384782540724,0.789613031732428,0.78395794718707,0.780099933590622,0.781357176644827,0.782267840435129,0.784283715527811,0.77522469492981,0.759788175532157,0.756170479552805,0.736327704958881,0.754752489081838,0.670290954389098,0.671206497175837,0.67229247927367,0.672875002705796,0.683036013941125,0.687827296991468,0.687836050122087,0.688754576210332,0.705479023300784,0.728773698695906,0.730773372569133,0.731279778237551,0.739048691275912,0.741216737293839,0.739097240197294,0.73993383575646,0.738681526309592,0.749116516994188,0.750685246878484,0.751192548869485,0.751184292719119,0.76877337253131,0.770233686114343,0.771721702619418,0.769985766503376,0.768201501720128,0.769851760925197,0.769041167437282
0.362610581241944,0.360202603173672,0.362579762000298,0.361076150855197,0.363882923422893,0.365246211712905,0.365734244776415,0.364585817061453,0.363794771829805,0.366296460731745,0.36598962475339,0.368279275313902,0.367569416724237,0.369087359434851,0.37427234016668,0.374111554248035,0.373547538059172,0.375982908718385,0.37434299955891,0.3778878056564,0.37937822917465,0.382909258630832,0.383565429886217,0.385643860947468,0.385352877654423,0.387863485813381,0.390282264972092,0.391232046125167,0.394127897804767,0.394189072497404,0.40040077921355,0.398477201622522,0.39643012666538,0.397595180600364,0.397123170640745,0.398470887435793,0.399146258308896,0.3982670870322,0.411695071593739,0.411868896145352,0.41101398362714,0.411887154209179,0.410917697646868,0.41362314728775,0.418369441165036,0.420662636060237,0.422068714607028,0.422954454177079,0.425254628703442,0.425990203361876,0.428848193607911,0.427939730700615,0.426790670589567,0.426858749329653,0.437028838548266,0.436778663702104,0.436901330276953,0.440779205443259,0.44557269505135,0.449768436637683,0.460368905601971,0.459009247841692,0.456628274754879,0.458236120243835,0.456772872707448,0.462514206725599,0.463278788436362,0.463579552828136,0.46519523652049,0.466546667087582,0.469056436665538,0.468828297606309,0.470735829133618,0.468641488657677,0.471584719147555,0.473124561615326,0.476158375393871,0.47446967423292,0.474418643841296,0.475229567173417,0.47514124741479,0.482652829819289,0.486099721136427,0.486256039660285,0.487331618111026,0.490036916276149,0.494267219275126,0.495743992159288,0.503975556607692,0.518908223011766,0.520502082617097,0.519599799930829,0.525730300522147,0.540558545552912,0.546060545921608,0.547551916245114,0.54674391581292,0.548161263958614,0.555551775608764,0.555690667419177,0.555590238891431,0.552668097823557,0.550261152593177,0.551606029705133,0.551081565108301,0.554062573907848,0.553329814706547,0.578492087203324,0.582392191796306,0.580315057245674,0.578396353465354,0.606388370876558,0.607285955739025,0.610609551765754,0.616968182787255,0.618009238976666,0.620478575511364,0.674472719784532,0.844291053886999,0.848218810925945,0.972654256357384,0.881715474664464,0.855777511112235,0.884483547241212,1.02502149445649,0.762577095738906,0.758198223887966,0.763354481230425,0.768637568802619,0.770667597489407,0.778252343618416,0.778110655966724,0.777304352421739,0.782576457434035,1.06328404255371,0.784733727489911,0.782709547900499,0.759230155266838,0.757988498619502,0.676893032444714,0.626296248124662,0.667745149962254,0.671838304347648,0.673469973995105,0.67346239092407,0.682271966555206,0.687914709476969,0.688421142479479,0.688335502393585,0.704899344932381,0.728002544578235,0.730896934452558,0.73501771595076,0.737611964979084,0.738257897242804,0.739735830432607,0.740052804152251,0.740775695392437,0.748272244114247,0.749579421149309,0.751193485329327,0.750019424335713,0.76590047911099,0.767214217419348,0.766308413737327,0.767238669675471,0.767816620655701,0.767975476702781,0.77039411610452
0.357605131037161,0.360430267603345,0.358990204930622,0.360599704241237,0.359079725460522,0.357841760465924,0.350575294089728,0.350625237898596,0.351048588810672,0.356958791619945,0.368132790483132,0.368270098654845,0.368432130609351,0.369435991146134,0.368147733295297,0.372196268869974,0.377155668815708,0.375453016996827,0.377545708708907,0.376408577740224,0.379855860468068,0.380224108220664,0.385769182468751,0.385803852245913,0.387534516254653,0.388732502540019,0.390507389781723,0.393045513338796,0.395591197271967,0.397529679189164,0.399819932977628,0.398087262472348,0.396231036943463,0.396803332067586,0.398509036937985,0.398029121591695,0.39851506453891,0.397049138507437,0.410931177273131,0.41055439165858,0.41153752321648,0.410800047007315,0.413016217133028,0.413515221088432,0.418163916807501,0.41825341510209,0.419479352432371,0.421179711599892,0.422916061372592,0.423501292980756,0.4242920883347,0.423616667722023,0.421934084444523,0.427971603345365,0.437568698900539,0.436510868442945,0.437868218269599,0.437754955459534,0.444936497523253,0.449407886479635,0.45855859061144,0.458144218352758,0.459307868493652,0.458045069374487,0.458650147326514,0.461103797604954,0.463740068798338,0.463200796559251,0.464438082395653,0.468904157886287,0.475141761830655,0.469684199407263,0.469600223692945,0.469072704321199,0.467521576565284,0.471751607109017,0.471198494301688,0.470589446313259,0.467024329176201,0.474355550739829,0.474837295898177,0.481533829580715,0.486181907269524,0.485147447654318,0.484331738753843,0.490844919113696,0.493363994451574,0.494023027032263,0.503970239109439,0.517740059170813,0.519385848992297,0.519301732400608,0.531573857430254,0.536823100898588,0.536396975297199,0.536901237523075,0.539444008182609,0.544425830737527,0.550311044246398,0.55171385523014,0.550541676000729,0.550579974278191,0.548684808036622,0.550415740196249,0.550678216523112,0.552948347871316,0.552880612600235,0.576701359124703,0.579361086569519,0.57861162827736,0.579515968637317,0.606698837254918,0.605235885645887,0.612135168892636,0.618352245016814,0.617290614673138,0.627812642607582,0.700730460725869,0.92092857880998,0.851202114719234,0.854178836241001,0.824854057600677,0.722838911180961,0.78222843504242,0.724172704319315,0.762072398286214,0.758952995157653,0.761245153921428,0.761123781234419,0.769184350631928,0.779606298336149,0.779326409456642,0.779153688539341,0.781291917942437,0.783487050621957,0.785028481296563,0.852179207266166,0.688452506356939,0.622030564509198,0.622698674671101,0.622399433905287,0.664748430706032,0.955430792581544,0.674758084635646,0.672466108686618,0.680656184862857,0.678939049847932,0.682547261732696,0.696046577415099,0.703734549504149,0.719394339121907,0.72243344843716,0.733983188995699,0.735338205410811,0.737604965779669,0.737839598485235,0.743655235679945,0.743333221353137,0.74751321776044,0.748111451724681,0.750183373268983,0.748103819658892,0.765105907797718,0.766028533796364,0.765982046628113,0.766365716052466,0.767427852355924,0.765240781534566,0.763130955889302
0.359768577307952,0.358155897705062,0.361108042256905,0.358509224620532,0.360386376591855,0.356066693001041,0.350791401435735,0.350894739571687,0.350981975614904,0.352139124436348,0.354611016368166,0.357512575432103,0.359705358604775,0.360125808410669,0.36081244780214,0.371841361606227,0.375063438792948,0.376071141183325,0.374872349033265,0.376234750673786,0.375020195275041,0.376996858569314,0.385574376483481,0.386694960851653,0.387135252080696,0.389399371623998,0.392107184853506,0.392491261944439,0.398430252134106,0.398571993410268,0.399399688990086,0.397897224899752,0.395761814182994,0.395892649376562,0.393818923979458,0.384838577182078,0.372104306285883,0.373193542765577,0.374843615374763,0.405454329080574,0.409566653806072,0.410427322786895,0.410648083294184,0.41329336508984,0.413778512798655,0.416800044145923,0.418189307893748,0.420377446380257,0.421281550301599,0.422478991100338,0.422161906292574,0.417527130045536,0.415128661177166,0.430190312974808,0.434362465244342,0.435914351707042,0.434827627394252,0.437185447345847,0.436696040576891,0.449066529522249,0.458154407922847,0.458710544574856,0.457665254600056,0.459488850194753,0.45899576329716,0.460729494572821,0.460735379302543,0.461244059857414,0.472411964476147,0.472971115075323,0.475491284688542,0.465429484372364,0.463744358819548,0.465179781312589,0.4691488524379,0.468460198955019,0.472075494935269,0.46933981055184,0.469502864402452,0.470046755508593,0.477290415835134,0.479153965314645,0.480259176321721,0.483051417015886,0.486787557158735,0.489750746259958,0.491190774766836,0.49293582783796,0.503092164027496,0.516254436491472,0.518509645781707,0.518508243135151,0.528302060183649,0.536264773675931,0.534782573691441,0.532892509433417,0.534226449443945,0.539973976649511,0.548983380726111,0.546131046302852,0.544539196658374,0.541698639611622,0.534051711246863,0.536222350366524,0.538248062300585,0.539405837372168,0.678574117387132,0.574563815561427,0.573871694639382,0.575099148853554,0.573709148829217,0.608341731600594,0.612761335668495,0.614056608046378,0.615754623517085,0.616295132103392,0.628632015269679,0.727912796138662,0.842680835772026,0.847004500838168,0.695279887962549,0.798490189989333,0.906891318347817,0.901184450873538,0.905152583008773,0.76358608910751,0.758250983895757,0.760945655938908,0.760520379019015,0.765635305016101,0.77271638632813,0.772433934482105,0.00390237368241545,0.779709221568981,0.785258013265173,0.762239687613078,0.660208705270957,0.642822212008298,0.62319482314227,0.622456049990391,0.622837048700829,0.661465743209011,0.956671609418213,0.676642809601212,0.675364651735384,0.677908183528486,0.676950713514807,0.680482940306172,0.6812100638915,0.702020964457528,0.710552743487408,0.716226046763107,0.744379771353421,0.734679658988035,0.736061469401993,0.736076964149757,0.733616995650735,0.743350903543407,0.746839651075863,0.745205609668179,0.745658133258262,0.744481331020257,0.765211789684674,0.764452720929851,0.762248591158062,0.76355896897667,0.771111913447212,0.761880161520014,0.761710724662383
0.355560448917701,0.357560760168509,0.354311102627532,0.355868274463726,0.353058785319447,0.353643062971035,0.351537768332926,0.350877577995688,0.350483795454673,0.348095111465335,0.346933697088258,0.35698807726852,0.35973024529216,0.360840819684902,0.360773621718502,0.371065496882088,0.375180548315668,0.374129099085727,0.376750398467232,0.374237342162853,0.376165308705032,0.374472674752079,0.385491589146714,0.386039848440792,0.387709344564799,0.389481807271269,0.390011749940888,0.391487737692312,0.398720297008857,0.399776942031737,0.399309743230338,0.397805677512097,0.395791279162413,0.388473861028948,0.378694653797014,0.379360328289418,0.370408124264746,0.371533740247227,0.37042786896263,0.403951919470393,0.409740118066781,0.408013193301712,0.404170086902241,0.412019003426478,0.412139359426229,0.414877436166648,0.420324458190461,0.419595853331201,0.420059930661263,0.417892308031591,0.413352089029503,0.414008337413391,0.414441600713171,0.431216533718055,0.435919449544295,0.435321301204019,0.437082865890511,0.437222107613573,0.438550614173926,0.448546915454181,0.458769394810399,0.457921145981595,0.45964079179797,0.459007495065184,0.461284970086552,0.46051966156488,0.462155958542169,0.461152365937293,0.472802256828704,0.474115858354329,0.474609585852652,0.4627441705037,0.46153604901126,0.464062570822386,0.463037868923989,0.467443760001387,0.468919244257728,0.465732468950013,0.462600604338573,0.468061947649905,0.476254532198792,0.479002380414764,0.478573633499843,0.481108279055543,0.488675824379304,0.489988405477632,0.490823245028887,0.491766370553874,0.492474666908863,0.514270379675766,0.514440303827462,0.517572746106778,0.778852786886023,0.535387414382373,0.53339550262664,0.533371660423936,0.532271736303225,0.533649516681559,0.533427599929892,0.53861617535501,0.54476492659817,0.538094200971313,0.534126040903204,0.535287108347152,0.534292169156526,0.535772433884883,0.536258137630691,0.573561350635742,0.571836705718867,0.573517307622875,0.573578971171936,0.606700826641689,0.603205491410545,0.61535393358173,0.615725031212305,0.615782035147369,0.615437136547885,0.756328400624144,0.987840499875507,0.860779021739567,0.689922572649473,0.772292700443635,0.895147081472512,0.898661608206697,0.899763674983492,0.765340712879453,0.764476700102665,0.762991040378087,0.760441935807747,0.760048374725726,0.759452399694375,0.772528795804315,0.772395871296591,0.780116207050593,0.806758338927362,0.742990734689356,0.619341713643568,0.620201863824397,0.618849321651127,0.621412459295951,0.623018722218213,0.658071347836958,0.785623280798168,0.67781700756778,0.675480814228809,0.676936043508941,0.677066114205597,0.678222024314435,0.678678281611612,0.700690998312976,0.712301633456635,0.713741031469352,0.714670632278678,0.724415316847878,0.725066905991376,0.727938029828327,0.735025004555537,0.742623402851626,0.740562151171357,0.742506340271506,0.741084193684037,0.742726833401945,0.754589205250202,0.756815369886805,0.757228939222037,0.756646006104748,0.759490581388041,0.761183700254792,0.761704612550457
0.358449863737834,0.356375828266094,0.35750882222965,0.354123996286501,0.354111463538979,0.352700598153399,0.35340840965506,0.350562407274685,0.34986975687126,0.348040129660207,0.346869979335824,0.354907825087721,0.360642991846517,0.360762739634363,0.368987573650404,0.368984229696221,0.368155799953105,0.370983381310016,0.37015840286741,0.372763881441401,0.372079686380646,0.373231210522286,0.3736873597234,0.384699389462992,0.38862342123246,0.39006133262961,0.391708864760676,0.390974654708382,0.390183651398415,0.39121904541277,0.393039198571059,0.387005603099152,0.380096039755803,0.378945137958144,0.380031064535666,0.379100469811747,0.37120698621174,0.371546721192633,0.371021061868128,0.391850877952278,0.395032221135958,0.398844949904961,0.40167081706449,0.408917522417142,0.412870245948395,0.413509156639818,0.419180690242393,0.419010097184287,0.418728765690451,0.41676459909616,0.413710234336205,0.414516489477412,0.414448784501346,0.430679769606432,0.428637051900266,0.434215011941478,0.433852580490227,0.437182344715928,0.448472694912037,0.448328455425436,0.457474549592302,0.45727281009165,0.456376640383713,0.459171746803794,0.46036865805662,0.460212254943368,0.461902584708918,0.461578360890087,0.472334976326058,0.473381656416343,0.473432925618036,0.461812087214548,0.462391567331132,0.462295195863661,0.465261823772318,0.465561456462431,0.465048268579811,0.464784139015994,0.462682140196292,0.466898470140564,0.479264489638237,0.478930865847892,0.480818159604555,0.479989323821908,0.489764129125798,0.489147907339913,0.490026285554082,0.490337791646277,0.49124589214115,0.511282056462342,0.508712294747246,0.516282700474706,0.517862063931563,0.527486784519674,0.532495158674819,0.532189890290548,0.532848501080129,0.53402443077861,0.53449379256564,0.525709600170303,0.521163473884132,0.521194147359577,0.522875905550068,0.533489018746938,0.533429079086015,0.536058334043892,0.86547374721245,0.572955881860997,0.572084636557308,0.572185464565276,0.818051257764927,0.612292419794399,0.614241576057572,0.615744835820357,0.615754606570609,0.658320776984557,0.819509881965351,0.834966080249571,0.876731696090856,0.867848397870728,0.691338114895149,0.746254479118983,0.691624430517802,0.813523875607934,0.763137398246991,0.766773089137032,0.770170487447189,0.76524263292697,0.761040734805594,0.761482678632129,0.760728413222932,0.797076831343683,0.922312257094864,0.780652304636152,0.677442726117878,0.723737546211743,0.620155735863744,0.620758259907132,0.620608352345106,0.620511868187786,0.618501406665496,0.657217444866511,0.8558827497924,0.678515975775377,0.675925807415918,0.676406463541146,0.67761617687381,0.67637071197909,0.699271646712426,0.699592135867565,0.699258298619521,0.706554249422291,0.718576404485666,0.721597964073073,0.720859024543804,0.72275852958251,0.743573914542172,0.742564609510335,0.741498306916299,0.741490506717028,0.74217761599208,0.741742358800183,0.744337340469298,0.750549877730882,0.751801994408557,0.754827413468996,0.761820939657183,0.761502190797197,0.76043616684369
0.356544034826184,0.357258575429441,0.354502616641927,0.353767099304995,0.351937611831131,0.353279755880421,0.352130383416401,0.349579568724791,0.347010263865583,0.34686706867915,0.346006178213474,0.351976187487694,0.360760685992327,0.360375431620665,0.368151653279246,0.368590696167586,0.368851954596689,0.369053258038369,0.369419533824235,0.370628800215726,0.373044258061379,0.37238376635376,0.372553254378304,0.383961621511528,0.390331896869172,0.390977990696107,0.3922009066244,0.391512318107933,0.390196619995498,0.388747789107601,0.380101116838128,0.379286020336795,0.378929663378105,0.379200582423538,0.379389037581037,0.378239286036904,0.373409286803508,0.37229369188639,0.371867527472464,0.391416648339302,0.391345699647255,0.396289875158916,0.404805111568128,0.405782301639879,0.405394171373443,0.413829838875061,0.418718890694891,0.41735664464222,0.417421136902565,0.415383600606205,0.414731021318989,0.41410767909553,0.414986983441563,0.43086188520471,0.429919850185888,0.432491855012455,0.433715232763647,0.437014673040369,0.448097024739153,0.448367615791529,0.448209382129704,0.455217817566447,0.458467499014971,0.459217562410585,0.460460295487821,0.45719574181292,0.453773996824652,0.455674993437546,0.457675568967646,0.45875751994364,0.459508876448821,0.460118545191372,0.460904886657837,0.462415731609167,0.461603684229893,0.461170169006984,0.458847146809288,0.459504454443874,0.461319217067572,0.465688611324556,0.478420948749051,0.479938347940127,0.478984337777987,0.481702743441827,0.482636850274728,0.487001463319649,0.487633660870265,0.489099316935176,0.753579468258029,0.510743748890943,0.508921467952361,0.515164233793251,0.516398840238036,0.523780399686279,0.53191765860846,0.531042805408911,0.526576921739303,0.52472425217093,0.524387642347639,0.521195764284292,0.519118684360763,0.518753164349828,0.517862192062141,0.531951627592085,0.528987878405459,0.535776556194058,0.540234449033691,0.571539003917695,0.570810405488091,0.571805136356367,0.579387202231326,0.59762680360027,0.599643638161074,0.617181856214805,0.61704859048003,0.682715216888694,0.819584378208967,0.856952360098975,0.987527443599517,0.910733445397376,0.926262233915996,0.905904870135399,0.914793368391825,0.843152007865453,1.53350262198573,0.767765247291083,0.769227818836214,0.767049795121966,0.764058545316864,0.762642257464536,0.761502756607858,0.819899592697251,0.921652590815553,0.780932453387529,0.782354194325164,0.776756616947896,0.904335097198515,0.621039737902151,0.619605079885011,0.620170782317463,0.619324408981003,0.656293355059565,0.664820938504333,0.666110999220131,0.666257141747459,0.674947296467959,0.67231007804274,0.674109655093697,0.699059582342741,0.699003600341686,0.69935068282116,0.700308333692622,0.701677207698828,0.712353766414178,0.715245980634749,0.71850756907381,0.721254684854908,0.736857666943914,0.740071932407985,0.740202086496488,0.739364721423549,0.740915743914923,0.740196212361411,0.748803585332512,0.750484547912752,0.752853935038188,0.762124376259708,0.761876830878093,0.760353682313563
