0.801392, 0.748425, 0.747149, 0.746204, 0.746452, 0.735874, 0.730401, 0.721852, 0.708197, 0.709003, 0.708741, 0.708938, 0.717114, 0.707812, 0.706216, 0.706283, 0.704655, 0.704175, 0.707875, 0.711062, 0.714406, 0.704679, 0.695374, 0.849668, 0.671723, 0.67164, 0.670727, 0.676712, 0.675394, 0.676306, 0.677109, 0.680293, 0.681652, 0.945744, 0.79336, 0.720746, 0.839247, 0.770372, 0.773147, 0.773609, 0.773152, 0.773369, 0.794648, 0.787434, 0.787115, 0.969809, 0.808854, 0.815091, 0.818037, 0.826665, 0.859834, 1.04333, 0.00443781, 0.890126, 0.00415229, 0.995467, 0.996163, 0.98734, 0.982026, 0.867738, 0.869146, 1.03266, 0.960484, 0.961504, 0.962728, 0.971014, 0.970874, 0.971203, 0.971409, 0.830794, 0.940031, 1.02968, 0.662832, 0.670368, 0.669802, 0.67015, 0.608317, 0.558959, 0.567754, 0.567311, 0.572038, 0.604931, 0.677455, 0.677544, 0.721026, 0.763241, 0.768778, 0.846274, 0.871254, 0.86728, 0.874297, 0.903661, 0.933229, 0.963233, 1.04285, 1.14977, 1.2251, 1.29157, 1.29684, 1.32638, 1.31409, 1.31346, 1.31219, 1.31016, 1.32922, 1.31247, 1.30628, 1.29207, 1.27413, 1.27425, 1.26407, 1.31033, 1.2996, 1.35108, 1.2999, 1.31704, 1.37073, 1.43298, 1.43331, 1.47393, 1.45578, 1.45744, 1.52171, 1.50285, 1.49993, 1.62814, 1.63269, 1.51348, 1.58241, 1.51955, 1.52072, 1.52712, 1.59377, 1.59274, 1.61776, 1.61959, 1.61244, 1.59633, 1.57882, 1.57883, 1.61452, 1.59623, 1.60706, 1.58695, 1.60537, 1.66064, 1.62522, 1.7059, 1.7055, 1.78401, 1.74421, 1.66618, 1.66516, 1.68277, 1.68882, 1.7298, 1.72621, 1.82381, 1.73976, 1.81442, 1.76505, 1.77704, 1.70649, 1.79048, 1.70343, 1.71234, 1.70923, 1.70922, 1.70876, 1.69577, 1.69553, 1.69363, 1.69085, 1.69199, 1.68954, 1.68156, 1.65532, 1.65487, 1.65409, 1.66631, 1.67212, 1.65774, 1.69848, 1.65099, 1.65863, 1.64423, 1.68581, 1.68836, 1.61481, 1.64386, 1.60189, 1.60384, 1.56779, 1.57437, 1.53808, 1.54306, 1.53378, 1.49404, 1.47428, 1.46074, 1.46697, 1.41903, 1.41804, 1.48966, 1.45551, 1.42004, 1.39223, 1.38752, 1.37942, 1.37918, 1.37571, 1.32506, 1.36874, 1.36678, 1.29068, 1.20191, 1.19479, 1.1534, 1.15286, 1.11947, 1.11895, 1.10287, 1.10767, 1.1055, 1.10239, 1.0913, 1.06638, 1.06714, 1.03563, 1.00838, 0.981564, 0.97822, 0.961112, 0.95797, 0.951012, 0.951701, 0.946854, 0.950653, 0.923345, 0.901695, 0.87665, 0.8879, 0.894838, 0.898684, 0.935219, 0.942587, 1.12257, 1.17111, 1.17112, 1.11747, 1.18709, 1.28785, 1.22573, 1.1436, 1.16967, 1.17153, 1.02043, 1.02178, 1.02217, 1.03429, 1.03539, 1.20936, 1.21143, 1.21065, 1.06081, 1.06127, 1.06305, 1.06381, 1.06401, 0.974395, 0.975694, 0.974113, 0.971257, 0.967363, 0.967768, 0.967894, 0.974396, 1.12914, 1.12461, 1.56395, 1.00516, 1.0081, 1.04957, 1.031, 1.00464, 0.951019, 0.951435, 0.95189, 0.995747, 1.00015, 0.922974, 0.924709, 0.924924, 0.919703, 0.919717, 0.923633, 0.924102, 0.922521, 0.92315, 0.92239
0.727813, 0.727287, 0.745909, 0.746348, 0.742489, 0.721642, 0.722079, 0.717482, 0.715635, 0.707418, 0.707017, 0.705023, 0.706621, 0.710045, 0.706698, 0.707135, 0.707232, 0.703932, 0.710806, 0.710746, 0.706962, 0.69479, 0.68711, 0.851626, 0.667628, 0.672118, 0.67154, 0.675995, 0.676903, 0.677678, 0.67937, 0.67955, 0.697602, 0.833948, 0.950308, 1.04958, 0.753349, 0.771948, 0.771284, 0.770825, 0.773031, 0.774725, 0.777118, 0.785573, 0.787035, 1.4603, 0.860919, 1.43842, 0.823863, 0.844215, 0.967388, 0.970007, 1.15698, 0.895086, 0.894095, 1.05719, 0.909649, 1.02543, 0.891696, 0.892319, 0.970169, 0.963262, 0.959709, 0.961233, 0.970509, 0.970174, 0.970888, 0.983904, 1.38635, 1.02717, 0.943696, 0.604438, 0.674044, 0.669752, 0.601275, 0.586292, 0.60422, 0.605211, 0.58028, 0.610909, 0.573737, 0.597147, 0.669283, 0.670946, 0.726666, 0.768507, 0.766837, 0.858622, 0.856058, 0.825706, 0.877907, 0.918708, 0.94358, 0.952971, 1.03542, 1.12631, 1.19522, 1.29142, 1.29933, 1.29894, 1.3105, 1.31528, 1.30943, 1.30708, 1.29683, 1.30091, 1.30365, 1.27453, 1.27419, 1.27609, 1.27647, 1.28234, 1.30865, 1.30027, 1.30059, 1.31299, 1.34756, 1.35667, 1.38666, 1.39885, 1.44408, 1.46434, 1.48231, 1.47948, 1.48799, 1.52309, 1.50616, 1.57334, 1.57346, 1.52226, 1.52239, 1.52148, 1.52743, 1.51914, 1.57482, 1.62362, 1.59892, 1.59907, 1.61989, 1.58567, 1.5962, 1.56694, 1.61961, 1.61004, 1.61334, 1.76978, 1.69526, 1.69329, 1.67892, 1.68004, 1.68578, 1.69338, 1.74748, 1.74288, 1.72815, 1.70409, 1.75492, 1.75518, 1.74086, 1.74069, 1.72728, 1.70365, 1.7236, 1.71235, 1.68517, 1.68402, 1.71986, 1.71406, 1.74037, 1.69243, 1.69251, 1.70318, 1.67863, 1.6784, 1.68348, 1.69625, 1.73362, 1.67896, 1.69225, 1.66099, 1.6627, 1.67586, 1.63012, 1.62739, 1.62659, 1.65765, 1.6959, 1.65882, 1.614, 1.59035, 1.57599, 1.58177, 1.58202, 1.55437, 1.54024, 1.54039, 1.5237, 1.48916, 1.483, 1.46506, 1.45043, 1.41723, 1.41368, 1.40874, 1.40903, 1.40698, 1.36502, 1.38308, 1.36998, 1.34803, 1.31728, 1.32279, 1.31038, 1.29867, 1.2992, 1.21224, 1.17709, 1.14195, 1.14612, 1.12795, 1.11727, 1.08159, 1.10594, 1.07076, 1.08421, 1.07758, 1.0557, 1.03247, 1.02496, 0.98431, 0.952754, 0.9524, 0.942321, 0.947515, 0.951775, 0.932368, 0.920243, 0.922224, 0.90403, 0.877162, 0.878498, 0.884582, 0.919461, 0.92277, 0.934034, 0.938467, 0.937454, 0.963541, 0.963911, 1.12183, 1.16519, 1.22015, 1.22964, 1.24452, 1.17801, 1.01899, 1.01964, 1.02532, 1.02581, 1.02884, 1.21151, 1.20954, 1.20991, 1.05469, 1.05623, 1.06132, 1.0613, 1.06241, 1.06236, 0.973253, 0.974021, 0.968177, 0.967191, 0.967833, 0.967441, 1.12321, 1.13276, 1.06509, 1.01991, 1.05305, 1.05514, 1.051, 1.02088, 1.02945, 1.0366, 1.03589, 1.00772, 1.02276, 0.998392, 0.931739, 0.929567, 0.924435, 0.921798, 0.920418, 0.919112, 0.920471, 0.922562, 0.922408, 0.920798, 0.922482
0.72133, 0.722893, 0.800918, 0.742735, 0.742336, 0.721385, 0.721066, 0.715322, 0.715941, 0.707583, 0.698744, 0.70012, 0.704907, 0.710791, 0.705862, 0.705719, 0.701853, 0.701477, 0.892265, 0.702448, 0.699504, 0.721213, 0.667524, 0.667191, 0.668075, 0.667465, 0.672509, 0.672096, 0.676325, 0.679831, 0.683942, 0.697286, 0.698492, 0.831616, 0.944369, 0.754065, 0.773709, 0.773235, 0.772445, 0.772158, 0.777523, 0.780044, 0.778424, 0.973136, 1.02929, 0.970058, 1.4865, 1.45543, 0.824923, 0.917114, 0.00424902, 0.881603, 0.88017, 0.940053, 1.36669, 1.13769, 0.910534, 0.919313, 1.026, 1.01244, 0.900642, 1.02047, 0.970743, 0.969566, 1.03273, 0.97155, 1.02617, 0.997766, 1.25941, 0.983377, 1.03253, 0.690886, 0.603578, 0.669861, 0.66934, 0.592168, 0.589902, 0.577878, 0.594981, 0.601617, 0.599798, 0.63609, 0.684029, 0.658085, 0.720045, 0.722351, 0.773656, 0.803874, 0.799152, 0.812807, 0.856595, 0.901483, 0.902328, 1.00432, 1.02181, 1.11145, 1.13972, 1.2919, 1.29184, 1.31037, 1.37843, 1.3572, 1.28295, 1.28346, 1.32213, 1.28139, 1.28542, 1.27847, 1.27556, 1.28832, 1.3123, 1.31564, 1.31595, 1.29561, 1.30307, 1.31678, 1.34252, 1.37237, 1.4187, 1.43224, 1.45427, 1.45745, 1.48187, 1.49123, 1.46847, 1.57534, 1.6506, 1.65094, 1.58033, 1.57867, 1.59555, 1.60262, 1.51893, 1.52025, 1.51953, 1.66105, 1.59448, 1.59895, 1.59881, 1.60407, 1.58574, 1.59236, 1.61557, 1.59159, 1.5985, 1.63759, 1.70467, 1.72126, 1.68774, 1.68727, 1.68588, 1.6919, 1.77901, 1.74508, 1.72156, 1.72987, 1.76502, 1.74405, 1.74384, 1.74166, 1.72206, 1.729, 1.69035, 1.68514, 1.67721, 1.68488, 1.71663, 1.7171, 1.74146, 1.69402, 1.6948, 1.692, 1.6805, 1.6789, 1.69202, 1.69901, 1.69749, 1.73486, 1.69813, 1.71686, 1.71742, 1.6851, 1.72691, 1.58629, 1.58562, 1.58825, 1.59041, 1.60292, 1.62506, 1.60891, 1.55629, 1.54732, 1.56457, 1.56062, 1.57145, 1.5418, 1.51941, 1.56101, 1.55975, 1.49263, 1.42753, 1.49439, 1.41619, 1.41537, 1.38539, 1.40564, 1.40427, 1.34105, 1.33246, 1.33357, 1.30717, 1.32082, 1.36045, 1.30309, 1.20895, 1.19161, 1.19533, 1.16317, 1.14641, 1.12278, 1.09306, 1.09486, 1.08477, 1.07, 1.07549, 1.05656, 1.05185, 1.02832, 1.02643, 1.01928, 0.953206, 0.939131, 0.929217, 0.919575, 0.920949, 0.919432, 0.940456, 0.902859, 0.891684, 0.882623, 0.87756, 0.890602, 0.898546, 0.929308, 0.925887, 0.927987, 0.92893, 0.963512, 0.96451, 0.932029, 0.931953, 1.16332, 1.18498, 1.19652, 1.02044, 1.02177, 1.02216, 1.02212, 1.02537, 1.02857, 1.0375, 1.04087, 1.04274, 0.939275, 0.941818, 0.940745, 1.05886, 1.05979, 1.06027, 1.06033, 0.970706, 0.969656, 0.967505, 0.967058, 1.01316, 1.02366, 0.988388, 1.06072, 0.994713, 1.00408, 1.02806, 1.02861, 1.04777, 1.05045, 1.05219, 1.05017, 1.03984, 1.0179, 0.937797, 0.939278, 0.927038, 0.925719, 0.920348, 0.920568, 0.919944, 0.922138, 0.922403, 0.922305, 0.92068, 0.921021
0.716057, 0.719126, 0.735342, 0.731978, 1.03097, 0.714598, 0.71319, 0.712428, 0.712986, 0.698353, 0.697825, 0.698331, 0.700515, 0.701663, 0.700567, 1.0268, 0.821291, 0.684015, 0.885261, 0.683236, 0.683918, 0.681962, 0.673852, 0.667857, 0.666387, 0.667209, 0.670714, 0.670067, 0.683483, 0.68406, 0.682839, 0.700256, 0.697497, 0.949911, 0.940095, 0.759629, 0.770266, 0.770495, 0.773203, 0.773806, 0.779472, 0.778917, 0.780464, 0.788552, 0.969812, 1.51653, 0.811885, 1.50984, 0.846704, 0.846256, 0.952624, 0.856923, 0.936688, 1.05473, 0.956707, 1.12621, 1.13558, 1.26217, 1.01562, 1.3945, 0.923497, 0.90045, 0.900689, 0.963399, 1.04332, 1.04409, 1.06763, 0.988145, 0.967591, 0.936614, 0.706936, 0.679419, 0.679936, 0.583865, 0.582304, 0.596012, 0.590552, 0.570852, 0.587292, 0.573816, 0.601882, 0.63072, 0.660557, 0.652226, 0.722845, 0.730356, 0.729758, 0.755916, 0.808695, 0.82218, 0.861539, 0.905583, 0.890424, 1.02028, 1.02072, 1.07229, 1.133, 1.22085, 1.32191, 1.32756, 1.32829, 1.28144, 1.28136, 1.28182, 1.28794, 1.28201, 1.26001, 1.29853, 1.27808, 1.2886, 1.29622, 1.29611, 1.35741, 1.34028, 1.35141, 1.35021, 1.35711, 1.44364, 1.41389, 1.39934, 1.45223, 1.464, 1.46384, 1.46822, 1.46793, 1.46941, 1.50137, 1.58402, 1.5105, 1.5097, 1.59405, 1.57775, 1.52288, 1.51985, 1.51918, 1.64819, 1.59275, 1.59277, 1.59231, 1.67625, 1.61601, 1.61352, 1.58859, 1.58885, 1.62116, 1.69363, 1.7114, 1.68163, 1.6866, 1.69144, 1.6918, 1.69239, 1.6922, 1.69171, 1.70298, 1.72054, 1.7541, 1.75892, 1.82551, 1.75854, 1.74418, 1.7141, 1.69979, 1.68264, 1.67546, 1.6822, 1.70729, 1.7447, 1.75103, 1.69709, 1.68604, 1.68445, 1.67203, 1.69622, 1.69423, 1.69358, 1.72637, 1.72701, 1.68662, 1.78332, 1.71667, 1.75553, 1.75841, 1.63697, 1.58649, 1.58908, 1.64078, 1.62067, 1.56641, 1.57189, 1.54741, 1.54675, 1.56566, 1.56116, 1.55588, 1.57042, 1.51732, 1.51736, 1.45367, 1.44296, 1.43606, 1.41579, 1.399, 1.3658, 1.36299, 1.36192, 1.3407, 1.33897, 1.34111, 1.36691, 1.39336, 1.30569, 1.30749, 1.27889, 1.22371, 1.1887, 1.17881, 1.17528, 1.13235, 1.10355, 1.10303, 1.08176, 1.1065, 1.07929, 1.08134, 1.07043, 1.04078, 1.04327, 1.02965, 0.947919, 0.948287, 0.94605, 0.921566, 0.916734, 0.911687, 0.922161, 0.902283, 0.954898, 0.888415, 0.881854, 0.879514, 0.936869, 0.928862, 0.916588, 0.918206, 0.96921, 0.969838, 0.929059, 0.929253, 0.977305, 0.977452, 0.98088, 0.984633, 1.1462, 1.01944, 1.0198, 1.02334, 1.02549, 1.02499, 1.02512, 1.03389, 1.03641, 1.03692, 0.938543, 0.937605, 0.9396, 1.05496, 1.05917, 1.05688, 0.963578, 0.962954, 0.962786, 0.963151, 0.96382, 1.0213, 0.986831, 1.077, 1.07486, 1.07766, 1.00457, 1.05744, 1.04743, 1.03364, 1.03262, 0.892113, 0.890741, 1.04298, 1.01496, 0.985099, 0.997817, 1.00221, 0.919379, 0.919962, 0.91803, 0.91816, 0.923138, 0.922022, 0.921244, 0.91779, 0.918231
0.705212, 0.712455, 0.897474, 0.00407934, 0.712865, 0.709555, 0.70877, 0.711294, 0.712408, 0.698277, 0.694336, 0.695322, 0.69738, 0.698696, 0.700518, 0.683897, 0.681987, 0.681008, 0.682362, 0.682875, 0.681852, 0.678069, 0.676069, 0.666553, 0.659642, 0.670877, 0.669384, 0.669988, 0.681248, 0.681695, 0.682528, 0.694401, 0.838502, 0.705075, 0.779745, 0.762383, 0.00433507, 0.766791, 0.768473, 0.772138, 0.775189, 0.776245, 0.792558, 0.969721, 0.967599, 0.808849, 0.853131, 1.41307, 1.4449, 0.846346, 0.898161, 1.03731, 0.964612, 0.929988, 0.904959, 0.915443, 1.03016, 1.00194, 0.992154, 1.01797, 0.984957, 1.00249, 0.898196, 0.900207, 1.0156, 1.04292, 1.02019, 0.971706, 1.14067, 0.940635, 0.600919, 0.577136, 0.573664, 0.581883, 0.577127, 0.592984, 0.565942, 0.565974, 0.596492, 0.595446, 0.597653, 0.598412, 0.660584, 0.667653, 0.725783, 0.731213, 0.757402, 0.755577, 0.785195, 0.802949, 0.819203, 0.880993, 0.902422, 0.963779, 1.07413, 1.1403, 1.19854, 1.25525, 1.25375, 1.26677, 1.29777, 1.29341, 1.27878, 1.25686, 1.25081, 1.24364, 1.27144, 1.26131, 1.2919, 1.29462, 1.35513, 1.3327, 1.34113, 1.38769, 1.33648, 1.33801, 1.38116, 1.38128, 1.41246, 1.43906, 1.43635, 1.46797, 1.49139, 1.48059, 1.50907, 1.46504, 1.46413, 1.48678, 1.51321, 1.5123, 1.50264, 1.59632, 1.59932, 1.60271, 1.60302, 1.58312, 1.58263, 1.62017, 1.61689, 1.60483, 1.60268, 1.59818, 1.58985, 1.58788, 1.6384, 1.66443, 1.70345, 1.68546, 1.68475, 1.70234, 1.70227, 1.69161, 1.69228, 1.72285, 1.72401, 1.76219, 1.75098, 1.75077, 1.74964, 1.73301, 1.71672, 1.7233, 1.71074, 1.68915, 1.67859, 1.6814, 1.68145, 1.72657, 1.69231, 1.69269, 1.68415, 1.68392, 1.67192, 1.69511, 1.69352, 1.70662, 1.70588, 1.68769, 1.68676, 1.69948, 1.77624, 1.75472, 1.73612, 1.64373, 1.64297, 1.67277, 1.63506, 1.58568, 1.56801, 1.5661, 1.5481, 1.54699, 1.54714, 1.56216, 1.5344, 1.5715, 1.5455, 1.56581, 1.52104, 1.43705, 1.43033, 1.42975, 1.49137, 1.38078, 1.36217, 1.3612, 1.3562, 1.34548, 1.36364, 1.31286, 1.3118, 1.29702, 1.31612, 1.2808, 1.29687, 1.18952, 1.18949, 1.17068, 1.13426, 1.13558, 1.12602, 1.1175, 1.12198, 1.09125, 1.08613, 1.06117, 1.03684, 1.03496, 1.00674, 0.985453, 0.94563, 0.94477, 0.933698, 0.904672, 0.901054, 0.912949, 0.890471, 0.890413, 0.889623, 0.884111, 0.88409, 0.906049, 0.906416, 0.902444, 0.927941, 0.930003, 0.930025, 0.929819, 0.927723, 0.925538, 0.924549, 0.982947, 0.98867, 1.00429, 1.02224, 1.02245, 1.02515, 1.02496, 1.02555, 1.02964, 1.03208, 1.03994, 1.04046, 1.04177, 1.04465, 1.05206, 1.05379, 1.05566, 1.05748, 0.959917, 0.960257, 0.963334, 0.964635, 0.964383, 1.02684, 1.06366, 1.0653, 1.03592, 1.07514, 0.879643, 0.88067, 0.880853, 0.884035, 0.882254, 0.885306, 1.06743, 0.891703, 1.00246, 1.00973, 1.00939, 0.909145, 0.907948, 0.908051, 0.912094, 0.912266, 0.917285, 0.918349, 0.917, 0.915368, 0.917911
0.705662, 0.712971, 0.711389, 0.711915, 0.702391, 0.700584, 0.710772, 0.710288, 0.69701, 0.695378, 0.687689, 0.687796, 0.689182, 0.698424, 0.680648, 0.67918, 0.680681, 0.678346, 0.683792, 0.683336, 0.68057, 0.673944, 0.660586, 0.654607, 0.657751, 0.659988, 0.664793, 0.664106, 0.681593, 0.682686, 0.684462, 0.699951, 0.700972, 0.702049, 0.701188, 0.00373306, 0.758147, 0.760005, 0.759223, 0.967525, 0.946023, 0.970556, 0.787389, 0.976947, 0.967779, 1.60049, 1.39215, 0.919108, 1.46109, 1.36156, 0.849206, 1.01156, 0.982801, 0.898115, 1.18623, 0.00451951, 1.0207, 1.02281, 0.99472, 1.00709, 1.00827, 1.05175, 1.0611, 0.960978, 1.03266, 1.04747, 0.967894, 0.98866, 0.994038, 0.991815, 0.596047, 0.5766, 0.575643, 0.575355, 0.573968, 0.548658, 0.573321, 0.582992, 0.57392, 0.597208, 0.615942, 0.607177, 0.642933, 0.681704, 0.707475, 0.749509, 0.739031, 0.788756, 0.789718, 0.823319, 0.838747, 0.871431, 0.896551, 1.04739, 1.04762, 1.13375, 1.23904, 1.22734, 1.24999, 1.28643, 1.28599, 1.27298, 1.25904, 1.24603, 1.24406, 1.25087, 1.23258, 1.27413, 1.30057, 1.30951, 1.31661, 1.31674, 1.36455, 1.39994, 1.40017, 1.35058, 1.34787, 1.37529, 1.38264, 1.38942, 1.50291, 1.49371, 1.47481, 1.54519, 1.54451, 1.59461, 1.59526, 1.5944, 1.51273, 1.51268, 1.51015, 1.60347, 1.56211, 1.57045, 1.56426, 1.57513, 1.65089, 1.5958, 1.60594, 1.60547, 1.60637, 1.60958, 1.62341, 1.62675, 1.66208, 1.66552, 1.70591, 1.69852, 1.6962, 1.70615, 1.7033, 1.70218, 1.70382, 1.72008, 1.7423, 1.7429, 1.75221, 1.75185, 1.83703, 1.75483, 1.74226, 1.7262, 1.72308, 1.72091, 1.71097, 1.71084, 1.68877, 1.77408, 1.71475, 1.71278, 1.68608, 1.68183, 1.68158, 1.71781, 1.70643, 1.70472, 1.706, 1.70514, 1.69236, 1.7001, 1.70181, 1.75699, 1.76239, 1.71689, 1.61334, 1.60598, 1.61441, 1.63351, 1.62586, 1.62287, 1.57116, 1.56604, 1.57954, 1.53646, 1.5351, 1.53605, 1.55579, 1.56777, 1.45699, 1.46413, 1.4299, 1.41102, 1.38592, 1.38493, 1.40606, 1.37056, 1.36449, 1.34611, 1.34648, 1.33456, 1.29498, 1.30943, 1.30685, 1.29126, 1.29061, 1.27776, 1.29492, 1.29585, 1.16436, 1.16453, 1.17001, 1.18639, 1.18553, 1.1815, 1.11176, 1.09391, 1.05402, 1.04821, 0.987695, 0.981339, 0.964332, 0.957999, 0.943497, 0.925908, 0.929984, 0.918621, 0.891311, 0.890507, 0.904605, 0.899123, 0.922763, 0.90693, 0.907061, 0.904245, 0.910143, 0.968303, 0.969751, 0.970705, 0.928188, 0.923973, 0.924601, 0.997231, 0.998084, 0.00401171, 1.02181, 1.02915, 1.03201, 1.03227, 1.03433, 1.0397, 0.914034, 1.04386, 1.04567, 1.04445, 0.928565, 0.922551, 0.923986, 0.927402, 1.06065, 1.03929, 0.962547, 0.962653, 0.968049, 1.02859, 1.02072, 1.08031, 1.09845, 0.888972, 0.889649, 0.888561, 0.881727, 0.880566, 0.880352, 0.88048, 0.883279, 0.887019, 1.00336, 1.04958, 0.909861, 0.909446, 0.907544, 0.908035, 0.908368, 0.909898, 0.911006, 0.911828, 0.911148, 0.911348, 0.913008, 0.914924
0.704617, 0.705148, 0.707421, 0.692022, 0.691919, 0.690112, 0.688921, 0.701322, 0.700145, 0.695438, 0.688418, 0.687497, 0.684264, 0.675002, 0.666909, 0.667789, 0.666886, 0.666933, 0.668388, 0.670672, 0.664199, 0.664139, 0.6561, 0.655258, 0.654513, 0.664143, 0.665794, 0.664649, 0.68482, 0.682967, 0.689918, 0.700443, 0.702248, 0.702125, 0.853192, 0.758987, 0.758922, 0.760368, 0.759337, 0.759316, 0.931462, 0.797158, 0.887344, 1.56231, 0.977408, 0.811539, 1.42683, 0.827012, 0.840627, 0.846003, 0.953814, 0.947253, 0.882001, 0.88038, 0.00574623, 1.0254, 1.02638, 0.996549, 1.00673, 0.948997, 0.94912, 0.949515, 1.08123, 1.04084, 1.02968, 1.03024, 0.95972, 1.1368, 1.06419, 0.998255, 0.928972, 0.580235, 0.576293, 0.57596, 0.59382, 0.552152, 0.581708, 0.558883, 0.558385, 0.601586, 0.607512, 0.616613, 0.642144, 0.680514, 0.719196, 0.711717, 0.729564, 0.78653, 0.781938, 0.834901, 0.83478, 0.868858, 0.984981, 1.07101, 1.12051, 1.21998, 1.25069, 1.25023, 1.265, 1.26477, 1.26144, 1.2405, 1.25079, 1.25325, 1.23707, 1.26207, 1.28475, 1.2612, 1.28779, 1.37129, 1.32321, 1.36954, 1.37038, 1.40848, 1.37408, 1.37266, 1.37203, 1.38853, 1.39189, 1.40953, 1.40311, 1.44861, 1.52668, 1.52463, 1.52253, 1.54175, 1.50724, 1.55177, 1.5494, 1.55434, 1.55434, 1.58935, 1.52527, 1.5282, 1.58329, 1.57742, 1.56487, 1.61988, 1.5951, 1.64577, 1.6333, 1.6324, 1.70945, 1.6723, 1.66466, 1.66493, 1.72266, 1.69231, 1.69033, 1.69716, 1.70539, 1.70295, 1.70233, 1.7338, 1.77843, 1.74394, 1.74227, 1.75919, 1.79593, 1.7961, 1.79563, 1.77938, 1.71597, 1.80205, 1.81462, 1.83514, 1.68352, 1.67461, 1.67449, 1.69875, 1.66415, 1.66106, 1.71269, 1.71306, 1.79644, 1.70725, 1.70619, 1.70562, 1.71807, 1.76657, 1.76703, 1.74294, 1.67345, 1.6995, 1.65129, 1.67004, 1.64628, 1.59523, 1.58927, 1.56529, 1.5643, 1.62436, 1.56791, 1.56142, 1.54048, 1.57825, 1.63638, 1.48515, 1.48342, 1.50634, 1.46541, 1.46475, 1.47236, 1.4685, 1.45443, 1.45479, 1.38715, 1.39417, 1.37632, 1.31871, 1.30365, 1.30005, 1.29381, 1.29261, 1.29149, 1.27697, 1.28905, 1.27179, 1.2679, 1.23106, 1.2234, 1.19281, 1.17113, 1.17154, 1.17568, 1.08057, 1.05036, 1.06368, 1.00209, 0.988399, 0.966739, 0.955321, 0.953095, 0.929277, 0.927887, 0.928464, 0.904203, 0.914508, 0.926656, 0.906085, 0.906497, 0.90785, 0.909028, 0.907443, 0.923911, 0.923939, 0.92534, 0.925848, 0.925643, 0.92371, 0.996292, 1.00232, 1.12357, 1.23281, 0.938698, 1.02765, 1.03715, 1.0371, 1.04336, 1.04312, 0.900914, 1.04054, 1.0435, 1.04404, 0.921658, 0.922393, 0.923493, 1.02884, 1.04541, 1.03526, 1.00465, 1.13269, 1.02544, 1.16109, 0.991407, 0.992138, 0.886415, 0.88785, 0.88869, 0.88708, 0.877972, 0.877841, 0.877856, 0.87844, 0.878692, 0.891546, 0.895944, 0.900859, 0.902074, 0.906668, 0.90572, 0.904703, 0.906171, 0.909048, 0.909418, 0.908855, 0.908498, 0.910376, 0.911613, 0.908017
0.701215, 0.701226, 0.681561, 0.692804, 0.690913, 0.689871, 0.687787, 0.696837, 0.697701, 0.697892, 0.684464, 0.678816, 0.678155, 0.66776, 0.665615, 0.664026, 0.665709, 0.666805, 0.667573, 0.666451, 0.664912, 0.663041, 0.648594, 0.648406, 0.649401, 0.660711, 0.666035, 0.664883, 0.683251, 0.683998, 0.960687, 0.698625, 0.701264, 0.714572, 0.889923, 1.13696, 0.757717, 0.758731, 0.758894, 0.758998, 0.969436, 0.969974, 0.967995, 1.19827, 0.808242, 1.15442, 0.82655, 0.924881, 1.02211, 0.889008, 1.14433, 0.999514, 0.98076, 0.908243, 0.910986, 0.932368, 1.00824, 1.0057, 0.981668, 0.948591, 0.948565, 0.950081, 1.0009, 1.08153, 1.02912, 0.980991, 1.06388, 1.00078, 1.11941, 0.999104, 0.939011, 0.581163, 0.578568, 0.584465, 0.568914, 0.593005, 0.577117, 0.576219, 0.582993, 0.632277, 0.612658, 0.623132, 0.652109, 0.62937, 0.708612, 0.718845, 0.785343, 0.833553, 0.833006, 0.83692, 0.868165, 0.960892, 0.96094, 1.13976, 1.14068, 1.22951, 1.24871, 1.24814, 1.26429, 1.26446, 1.26846, 1.27711, 1.24053, 1.24482, 1.22557, 1.22585, 1.24656, 1.26752, 1.28936, 1.32133, 1.33415, 1.41502, 1.37333, 1.36785, 1.37571, 1.39582, 1.36491, 1.38709, 1.40321, 1.40982, 1.44472, 1.49223, 1.49162, 1.50323, 1.51127, 1.50651, 1.50677, 1.5077, 1.55088, 1.59619, 1.56545, 1.60307, 1.53632, 1.61274, 1.59529, 1.55079, 1.55078, 1.61914, 1.65649, 1.64823, 1.70695, 1.70249, 1.65892, 1.65591, 1.66713, 1.71718, 1.68915, 1.75803, 1.75308, 1.70595, 1.70588, 1.70637, 1.7028, 1.72288, 1.74516, 1.74765, 1.76577, 1.75779, 1.7579, 1.79851, 1.80055, 1.80038, 1.76788, 1.87828, 1.87982, 1.87384, 1.83405, 1.73674, 1.69195, 1.68688, 1.65069, 1.64979, 1.68472, 1.7923, 1.78605, 1.70461, 1.71883, 1.72402, 1.76557, 1.67285, 1.72809, 1.72726, 1.6646, 1.6369, 1.63022, 1.62723, 1.57219, 1.57001, 1.56286, 1.56177, 1.56113, 1.56097, 1.55902, 1.57911, 1.56901, 1.56944, 1.66857, 1.5401, 1.45335, 1.45045, 1.45102, 1.50941, 1.45872, 1.49277, 1.52367, 1.41702, 1.41221, 1.46106, 1.35789, 1.52191, 1.30506, 1.3061, 1.29631, 1.29382, 1.29284, 1.34287, 1.34369, 1.32716, 1.2655, 1.27434, 1.31971, 1.18722, 1.17501, 1.18513, 1.17257, 1.13497, 1.13376, 1.04999, 1.00665, 0.998159, 0.981378, 0.942761, 0.936586, 0.936859, 0.920849, 0.925144, 0.899293, 0.899742, 0.900592, 0.894051, 0.897132, 0.906212, 0.90564, 0.919832, 0.937016, 0.919799, 0.923321, 0.924505, 0.925321, 0.916515, 0.913808, 0.914198, 0.914445, 1.0116, 0.93606, 0.937116, 1.03776, 1.04041, 1.03795, 1.03616, 1.03687, 1.04299, 1.04248, 1.04276, 1.04272, 0.914332, 0.915849, 1.03974, 1.03033, 1.03006, 1.02675, 1.0739, 1.02428, 1.00414, 1.01604, 0.888146, 0.886578, 0.887698, 0.888019, 0.883811, 0.876655, 0.869681, 0.868031, 0.875331, 0.875025, 0.880373, 0.897413, 0.899161, 0.901678, 0.908053, 0.900878, 0.901587, 0.902665, 0.907726, 0.9055, 0.902047, 0.904738, 0.904157, 0.904212, 0.907524
0.680111, 0.680302, 0.680819, 0.679908, 0.688881, 0.688088, 0.684213, 0.697675, 0.696925, 0.695785, 0.679873, 0.678253, 0.674865, 0.665153, 0.663128, 0.663553, 0.662569, 0.663512, 0.666256, 0.66523, 0.664769, 0.663824, 0.648061, 0.647894, 0.656301, 0.658945, 0.658747, 0.675221, 0.679198, 0.683172, 0.701274, 0.70774, 0.706861, 0.705683, 0.963926, 0.84522, 0.757129, 0.7579, 0.981803, 0.884836, 1.21057, 0.970206, 0.970346, 0.80491, 0.863181, 0.947092, 0.825883, 1.44364, 1.05318, 0.874873, 0.87735, 1.32284, 0.00465971, 0.908461, 0.915383, 0.886596, 0.889894, 0.890902, 0.892362, 0.971968, 0.985076, 1.08884, 1.01931, 1.02766, 1.03012, 1.0991, 1.01799, 1.01615, 1.07462, 1.07449, 1.1165, 0.580582, 0.593331, 0.566362, 0.566534, 0.556598, 0.548077, 0.546495, 0.573, 0.565518, 0.593685, 0.600877, 0.627775, 0.666825, 0.710699, 0.725625, 0.797177, 0.814056, 0.821821, 0.851524, 0.878422, 0.957821, 1.06572, 1.18668, 1.18724, 1.26845, 1.2342, 1.23428, 1.27695, 1.26495, 1.31446, 1.29559, 1.24262, 1.27234, 1.23481, 1.22587, 1.27015, 1.27841, 1.29329, 1.36729, 1.32785, 1.40842, 1.3923, 1.38769, 1.3927, 1.40694, 1.40681, 1.41601, 1.45255, 1.44787, 1.45684, 1.46462, 1.48392, 1.50674, 1.52039, 1.50539, 1.50549, 1.50559, 1.50557, 1.59885, 1.59937, 1.53744, 1.56526, 1.56869, 1.56059, 1.57906, 1.57187, 1.58648, 1.63308, 1.63756, 1.63822, 1.65142, 1.65043, 1.656, 1.65473, 1.7123, 1.75175, 1.78664, 1.69161, 1.70668, 1.70569, 1.7042, 1.74497, 1.71929, 1.74648, 1.73278, 1.73272, 1.78053, 1.78935, 1.78821, 1.81694, 1.81728, 1.76294, 1.76277, 1.79925, 1.78597, 1.78534, 1.73457, 1.70611, 1.71985, 1.67122, 1.68231, 1.69247, 1.70993, 1.78752, 1.7103, 1.72304, 1.72352, 1.7457, 1.74469, 1.70597, 1.68304, 1.67541, 1.60719, 1.6238, 1.56794, 1.56779, 1.569, 1.56885, 1.56223, 1.56516, 1.56468, 1.60978, 1.53514, 1.53419, 1.5168, 1.53775, 1.53378, 1.48112, 1.46269, 1.45961, 1.49531, 1.48871, 1.49166, 1.51311, 1.4629, 1.41913, 1.39553, 1.36772, 1.45998, 1.29965, 1.302, 1.3033, 1.30171, 1.28504, 1.30535, 1.3125, 1.36438, 1.28965, 1.25811, 1.24078, 1.20479, 1.20329, 1.18445, 1.112, 1.09942, 1.06421, 1.04263, 1.04233, 0.969564, 0.969975, 0.971521, 0.971995, 0.943159, 0.945962, 0.928448, 0.924644, 0.915823, 0.890779, 0.891629, 0.89369, 0.911874, 0.905488, 0.911735, 0.912663, 0.969499, 0.922541, 0.925408, 1.10478, 0.915204, 0.913375, 0.913944, 1.00766, 0.922139, 0.925955, 0.935416, 0.937578, 1.04058, 1.0458, 1.04871, 1.0497, 0.89395, 1.04638, 1.05702, 0.905213, 0.904974, 0.907391, 1.00866, 1.04661, 1.03732, 1.00188, 1.09079, 1.01266, 1.05692, 0.921958, 0.921476, 0.886834, 0.885573, 0.885807, 0.884545, 0.877561, 0.868793, 0.869696, 0.870561, 0.875309, 0.884522, 0.898126, 0.898101, 0.899358, 0.904808, 0.901808, 0.901299, 0.904352, 0.906764, 0.904496, 0.903001, 0.901987, 0.904303, 0.904064, 0.904618
0.678779, 0.6805, 0.680345, 0.678631, 0.680637, 0.679502, 0.685528, 0.696565, 0.69596, 0.694854, 0.846722, 0.675215, 0.662559, 0.661149, 0.659822, 0.661376, 0.663372, 0.662265, 0.661874, 0.663251, 0.662708, 0.660518, 0.64816, 0.64797, 0.659072, 0.658762, 0.65763, 0.676191, 0.675167, 0.68483, 0.683179, 0.704658, 0.706431, 0.706041, 0.945369, 0.739691, 0.915467, 0.765889, 0.929494, 0.901751, 1.15687, 1.34787, 1.30767, 0.807881, 1.03567, 0.82315, 0.858084, 1.05027, 1.04912, 0.884146, 1.18746, 1.31899, 1.21387, 1.27148, 0.912173, 1.02271, 0.890665, 0.893786, 0.893841, 0.892943, 0.9429, 0.998312, 1.0461, 0.971473, 0.955064, 1.09944, 1.00801, 1.00575, 1.00559, 0.902725, 0.893823, 0.59376, 0.569888, 0.569845, 0.603653, 0.560999, 0.56228, 0.545618, 0.560531, 0.603315, 0.593477, 0.641766, 0.661215, 0.660939, 0.702239, 0.72821, 0.775522, 0.86695, 0.85468, 0.91499, 0.915503, 0.93939, 1.21974, 1.19866, 1.19748, 1.24086, 1.24024, 1.25009, 1.28737, 1.25896, 1.38121, 1.24058, 1.24198, 1.24399, 1.25026, 1.25807, 1.27254, 1.27614, 1.35126, 1.41946, 1.32987, 1.34687, 1.37864, 1.38635, 1.42816, 1.43003, 1.44015, 1.46256, 1.46152, 1.47147, 1.47256, 1.47405, 1.48151, 1.49965, 1.49395, 1.49483, 1.50324, 1.50298, 1.50265, 1.60013, 1.60592, 1.63272, 1.56929, 1.56335, 1.56094, 1.56045, 1.59138, 1.6078, 1.63432, 1.63629, 1.63474, 1.62747, 1.6632, 1.65841, 1.71581, 1.66145, 1.73852, 1.69213, 1.69094, 1.70123, 1.70615, 1.70609, 1.67571, 1.67475, 1.71711, 1.73313, 1.82048, 1.82027, 1.83361, 1.78939, 1.79975, 1.8433, 1.80933, 1.765, 1.78217, 1.77484, 1.78633, 1.78926, 1.80337, 1.69953, 1.69933, 1.69356, 1.69325, 1.7819, 1.75525, 1.73494, 1.74178, 1.77486, 1.72813, 1.73053, 1.70976, 1.62861, 1.62746, 1.60943, 1.6086, 1.6239, 1.56858, 1.57012, 1.56897, 1.57092, 1.5608, 1.56011, 1.60538, 1.52266, 1.50995, 1.52994, 1.48938, 1.4643, 1.46358, 1.46059, 1.46057, 1.47388, 1.48936, 1.43699, 1.42311, 1.39715, 1.42452, 1.35763, 1.33785, 1.36745, 1.32766, 1.28778, 1.28507, 1.31565, 1.45166, 1.30012, 1.28164, 1.23206, 1.26505, 1.2624, 1.24476, 1.2056, 1.17213, 1.19504, 1.1149, 1.09417, 1.09419, 1.08846, 1.06776, 0.995935, 1.01711, 1.00401, 0.981057, 1.00765, 1.02087, 0.946705, 0.999305, 0.983655, 0.940169, 0.891306, 0.894648, 0.895034, 0.912332, 0.912618, 0.911758, 0.910147, 0.917691, 0.921518, 0.921649, 0.917081, 0.915432, 0.915898, 0.9209, 0.923015, 0.925065, 0.935859, 0.936011, 1.03299, 0.883438, 0.884072, 0.884444, 0.88767, 0.886921, 0.995947, 0.906617, 0.907516, 0.908925, 0.90924, 1.01602, 1.0314, 1.13651, 1.03847, 1.07346, 0.924063, 0.925106, 0.92472, 0.885369, 0.887149, 0.886085, 0.884562, 0.881703, 0.876269, 0.871243, 0.876947, 0.877905, 0.898575, 0.902245, 0.901149, 0.902669, 0.904489, 0.902415, 0.901201, 0.906451, 0.906485, 0.901833, 0.90085, 0.900862, 0.902914, 0.904463, 0.904153
0.671777, 0.679613, 0.680165, 0.674005, 0.673312, 0.673465, 0.687498, 0.691234, 0.693455, 0.692294, 0.679917, 0.666737, 0.660752, 0.661, 0.660082, 0.66051, 0.657736, 0.660882, 0.660877, 0.664076, 0.662318, 0.662524, 0.650051, 0.650127, 0.658813, 0.658611, 0.6753, 0.676834, 1.09004, 0.683119, 0.683525, 0.787943, 0.910132, 0.860399, 0.957419, 1.36701, 1.3658, 0.988932, 0.876831, 0.857064, 0.857112, 0.975789, 1.05327, 0.808161, 0.815379, 0.862726, 1.49628, 1.49639, 1.04734, 0.905463, 0.898458, 0.897786, 0.898674, 1.01013, 0.916776, 0.984637, 0.927598, 0.927651, 0.893362, 0.89383, 0.889268, 0.976368, 1.05241, 0.961394, 1.00411, 1.0097, 1.08288, 0.869747, 0.906616, 0.889702, 0.843024, 0.887366, 0.577966, 0.569736, 0.612657, 0.564228, 0.584025, 0.556882, 0.58341, 0.617973, 0.614995, 0.614425, 0.646893, 0.650409, 0.711856, 0.756425, 0.749319, 0.804428, 0.847427, 0.908979, 0.9614, 0.960131, 1.17443, 1.19314, 1.22213, 1.23357, 1.2073, 1.24018, 1.25073, 1.26547, 1.28079, 1.2434, 1.24331, 1.2644, 1.26443, 1.26285, 1.26935, 1.27896, 1.31925, 1.41568, 1.33297, 1.33334, 1.37458, 1.4003, 1.46198, 1.44809, 1.58898, 1.56599, 1.48185, 1.47652, 1.47254, 1.50867, 1.50181, 1.49478, 1.49457, 1.4948, 1.50329, 1.50352, 1.50332, 1.54519, 1.61283, 1.61621, 1.61009, 1.56288, 1.56266, 1.64369, 1.63215, 1.61007, 1.59618, 1.62175, 1.62305, 1.63735, 1.65412, 1.71629, 1.63371, 1.63314, 1.66442, 1.69327, 1.6908, 1.68876, 1.72379, 1.68844, 1.68418, 1.67465, 1.76014, 1.81694, 1.70877, 1.75142, 1.82277, 1.7427, 1.74688, 1.74564, 1.74121, 1.72968, 1.73047, 1.73006, 1.72991, 1.76135, 1.71434, 1.69619, 1.68823, 1.74116, 1.74826, 1.78292, 1.75473, 1.74291, 1.73243, 1.73447, 1.72789, 1.72691, 1.72721, 1.64257, 1.62693, 1.63729, 1.59571, 1.58497, 1.64405, 1.64499, 1.5882, 1.56533, 1.60798, 1.60521, 1.51369, 1.51226, 1.48454, 1.48374, 1.4708, 1.46444, 1.464, 1.49615, 1.48797, 1.40521, 1.40456, 1.41021, 1.41856, 1.39669, 1.42654, 1.36048, 1.33297, 1.30375, 1.29981, 1.29019, 1.30763, 1.30503, 1.27013, 1.2818, 1.21511, 1.21391, 1.26418, 1.26594, 1.18871, 1.17974, 1.18527, 1.15064, 1.1681, 1.18636, 1.18518, 1.13353, 1.11371, 1.11713, 1.10475, 1.00955, 1.04374, 1.04724, 1.0083, 0.978731, 0.916418, 0.919133, 0.953145, 0.894939, 0.911628, 0.892442, 0.922337, 0.912034, 0.914174, 0.917906, 0.919685, 0.921189, 0.920569, 0.916247, 0.915276, 0.915972, 0.922106, 0.922695, 0.923234, 0.924942, 0.934904, 0.935199, 0.881893, 0.881367, 0.88269, 0.884584, 0.884894, 0.889223, 0.903354, 0.90603, 0.909051, 0.909244, 1.0362, 0.918206, 1.04082, 1.02198, 1.01361, 0.921902, 0.929329, 0.932521, 0.887256, 0.88596, 0.887114, 0.887911, 0.882625, 0.880214, 0.880374, 0.879823, 0.880416, 0.903781, 0.903925, 0.900771, 0.901704, 0.905139, 0.898873, 0.901551, 0.904673, 0.904845, 0.900764, 0.899495, 0.899994, 0.904297, 0.904254, 0.904182
0.666826, 0.672494, 0.672993, 0.67294, 0.672615, 0.676142, 0.691899, 0.691717, 0.691064, 0.687649, 0.676697, 0.666158, 0.65728, 0.656798, 0.658916, 0.659303, 0.657289, 0.656876, 0.661565, 0.660094, 0.658064, 0.655945, 0.645414, 0.644018, 0.657915, 0.757525, 0.753033, 0.685305, 0.687479, 0.704092, 0.704472, 0.704759, 0.708864, 0.835354, 0.738087, 1.22833, 1.36812, 1.12508, 1.08781, 1.26004, 0.792893, 0.792172, 1.04238, 1.03338, 0.867166, 1.44069, 0.834911, 0.844435, 1.13396, 0.00406022, 0.898998, 0.899036, 0.898707, 0.939823, 0.916094, 1.03891, 0.927516, 0.927049, 0.92664, 1.11624, 1.02236, 0.919147, 0.911569, 1.00632, 1.00472, 1.03614, 1.14103, 0.908955, 0.91575, 0.897979, 0.881157, 0.897959, 0.900328, 0.588234, 0.593472, 0.593144, 0.547953, 0.563781, 0.580114, 0.568219, 0.612569, 0.607069, 0.655016, 0.643727, 0.746744, 0.788592, 0.790268, 0.818629, 0.892623, 0.89146, 0.932183, 0.994338, 1.0537, 1.07373, 1.18225, 1.18994, 1.22338, 1.44131, 1.23823, 1.23274, 1.24157, 1.24286, 1.47017, 1.28431, 1.26411, 1.2704, 1.40721, 1.28531, 1.32979, 1.36293, 1.36516, 1.3756, 1.3781, 1.38448, 1.39337, 1.44776, 1.60551, 1.48547, 1.47561, 1.47581, 1.48916, 1.49744, 1.50909, 1.49489, 1.49499, 1.48894, 1.51686, 1.54085, 1.56483, 1.56437, 1.57841, 1.57864, 1.60855, 1.60385, 1.57462, 1.57362, 1.58912, 1.61244, 1.62325, 1.61947, 1.63044, 1.64537, 1.63254, 1.63361, 1.63172, 1.63122, 1.66281, 1.66285, 1.75399, 1.72082, 1.70947, 1.7032, 1.67628, 1.67593, 1.69038, 1.69964, 1.81774, 1.82439, 1.82078, 1.7445, 1.74288, 1.74567, 1.74205, 1.729, 1.72965, 1.73015, 1.73034, 1.74165, 1.70393, 1.68902, 1.68871, 1.69046, 1.74192, 1.75176, 1.74506, 1.74187, 1.74151, 1.75501, 1.7617, 1.74134, 1.71803, 1.61707, 1.65748, 1.62714, 1.65568, 1.6264, 1.69218, 1.61442, 1.65021, 1.65101, 1.60548, 1.5347, 1.51184, 1.46681, 1.47349, 1.45807, 1.45707, 1.46289, 1.46134, 1.4447, 1.42673, 1.40706, 1.40677, 1.40651, 1.39727, 1.40263, 1.35081, 1.35357, 1.32373, 1.31123, 1.28496, 1.28201, 1.2821, 1.28563, 1.27904, 1.24713, 1.21403, 1.21386, 1.23132, 1.18879, 1.18903, 1.23238, 1.15045, 1.13643, 1.1104, 1.08921, 1.08457, 1.0877, 1.13348, 1.12247, 1.05716, 1.07502, 1.00671, 1.00765, 0.936034, 0.908771, 0.908865, 0.883749, 0.887, 0.873349, 0.896999, 0.887645, 0.901469, 0.900763, 0.957115, 0.947061, 1.07871, 1.22189, 1.1297, 0.914726, 0.912535, 0.908848, 0.915752, 1.19632, 1.07505, 1.03177, 1.05942, 1.04248, 0.877815, 0.87811, 0.881708, 0.882128, 0.881416, 0.882009, 0.900887, 0.895768, 0.907487, 0.899296, 1.00705, 1.00734, 0.904514, 0.90558, 0.905904, 0.998197, 0.929135, 0.928995, 0.896385, 0.887685, 0.886662, 0.884651, 0.883323, 0.8824, 0.881732, 0.882352, 0.891118, 0.902233, 0.903165, 0.897737, 0.901666, 0.898639, 0.89584, 0.899115, 0.901446, 0.903269, 0.900183, 0.898395, 0.90408, 0.907542, 0.904966, 0.904691
0.66707, 0.670399, 0.672363, 0.670408, 0.67149, 0.676595, 0.691528, 0.690814, 0.689699, 0.688552, 0.676218, 0.653204, 0.652949, 0.656326, 0.65788, 0.657389, 0.656601, 0.657793, 0.659608, 0.657794, 0.655267, 0.654234, 0.645408, 0.645049, 0.658583, 0.757296, 0.939633, 0.68769, 0.687914, 0.83524, 0.707972, 0.705816, 0.783926, 0.956821, 0.738044, 1.40315, 0.764047, 0.762927, 1.11625, 0.892249, 0.796879, 0.981105, 1.08884, 0.877322, 1.41013, 1.24636, 1.24997, 0.901161, 0.899654, 0.900533, 0.900208, 0.899216, 0.899199, 0.915232, 0.916569, 0.913237, 0.926071, 0.926717, 0.926774, 0.939724, 0.94927, 1.0961, 1.03668, 0.956937, 1.04479, 1.11617, 1.06639, 0.8579, 0.888661, 0.897761, 0.878872, 0.873442, 0.595078, 0.588613, 0.591254, 0.549857, 0.550416, 0.569451, 0.579151, 0.599153, 0.603743, 0.61746, 0.653876, 0.640231, 0.736638, 0.784683, 0.803341, 0.800918, 0.856909, 0.89834, 0.908304, 0.963229, 1.00585, 1.0968, 1.09905, 1.13401, 1.20136, 1.24818, 1.23026, 1.23152, 1.26919, 1.28653, 1.53358, 1.50033, 1.27737, 1.28763, 1.29266, 1.32101, 1.32064, 1.35696, 1.35658, 1.37442, 1.42593, 1.42506, 1.4231, 1.4292, 1.47523, 1.47482, 1.46922, 1.48135, 1.49752, 1.55739, 1.49948, 1.49476, 1.49433, 1.49151, 1.5358, 1.535, 1.54888, 1.57839, 1.56626, 1.57896, 1.60542, 1.57195, 1.57185, 1.57284, 1.57612, 1.59951, 1.61764, 1.59546, 1.63491, 1.69916, 1.61754, 1.6175, 1.6316, 1.68183, 1.6645, 1.66434, 1.66355, 1.6765, 1.68246, 1.68233, 1.67039, 1.69059, 1.69221, 1.69067, 1.6901, 1.81732, 1.72828, 1.88277, 1.88578, 1.88505, 1.88595, 1.99006, 1.84218, 0.00469125, 1.77309, 1.68557, 1.70752, 1.70582, 1.68901, 1.70528, 1.76805, 1.74428, 1.74442, 1.74368, 1.74401, 1.76943, 1.72274, 1.73081, 1.695, 1.66902, 1.64155, 1.65125, 1.62611, 1.63543, 1.60486, 1.60189, 1.53785, 1.4851, 1.49676, 1.50697, 1.47759, 1.46764, 1.46694, 1.46202, 1.44319, 1.47444, 1.45781, 1.43154, 1.42254, 1.42393, 1.45213, 1.39592, 1.39242, 1.34522, 1.35098, 1.32773, 1.32971, 1.30288, 1.2863, 1.28395, 1.27422, 1.23325, 1.28212, 1.1857, 1.18232, 1.15496, 1.15492, 1.13701, 1.15308, 1.12839, 1.13385, 1.12567, 1.07386, 1.05061, 1.06077, 1.03836, 1.00732, 0.99425, 0.994958, 0.960785, 0.962165, 0.926295, 0.915834, 0.911987, 0.888338, 0.871755, 0.866335, 0.866449, 0.851008, 0.834632, 0.900456, 0.90128, 0.914967, 0.907819, 0.907643, 1.19727, 1.19658, 1.09778, 1.07719, 1.10871, 1.17618, 1.1362, 1.14112, 1.02665, 1.02874, 1.00298, 0.876941, 0.877166, 0.88193, 0.88375, 0.882273, 0.881437, 0.895594, 0.895831, 0.89597, 0.896732, 1.0357, 1.03515, 0.897797, 0.8993, 0.897617, 0.899504, 0.921436, 0.919094, 1.026, 0.892452, 0.890519, 0.886498, 0.884286, 0.884105, 0.885068, 0.890362, 0.893453, 0.903859, 0.895317, 0.898128, 0.901075, 0.893851, 0.893955, 0.899428, 0.901087, 0.899229, 0.895768, 0.897378, 0.90737, 0.907501, 0.906516, 0.905371
0.667848, 0.676338, 0.669616, 0.668879, 0.673035, 0.676157, 0.690073, 0.675925, 0.669413, 0.669664, 0.697576, 0.65943, 0.65308, 0.65405, 0.653744, 0.653735, 0.655355, 0.657865, 0.656042, 0.655566, 0.655074, 0.649128, 0.647667, 0.64763, 0.662316, 1.00903, 0.686507, 0.687056, 0.950238, 0.703507, 0.705386, 0.929114, 0.734854, 0.732318, 1.00657, 1.36877, 0.765504, 0.764765, 1.0862, 0.787999, 1.31514, 1.31549, 1.13713, 1.14751, 0.843295, 0.833046, 0.870739, 0.887998, 0.0042478, 0.900409, 0.899721, 0.899956, 0.900222, 0.93643, 0.91322, 0.914729, 0.914505, 0.913596, 0.988695, 0.981057, 0.907472, 0.915431, 0.932638, 0.933348, 0.979308, 0.979036, 1.10113, 0.9647, 0.87372, 0.879095, 0.894523, 0.918706, 0.593654, 0.591877, 0.618427, 0.542062, 0.549063, 0.5942, 0.590129, 0.5754, 0.614955, 0.655252, 0.655015, 0.726114, 0.725693, 0.725206, 0.795935, 0.804445, 0.817007, 0.883689, 0.916416, 0.915315, 1.01897, 1.0199, 1.07109, 1.13776, 1.20731, 1.25311, 1.22215, 1.25813, 1.27803, 1.28701, 1.27378, 1.41437, 1.37054, 1.34777, 1.34001, 1.33327, 1.35456, 1.41112, 1.36389, 1.36766, 1.37026, 1.37063, 1.42345, 1.43782, 1.45426, 1.46264, 1.46349, 1.46298, 1.55466, 1.49381, 1.50057, 1.49825, 1.49509, 1.53067, 1.53109, 1.51905, 1.56771, 1.56513, 1.59175, 1.5815, 1.58168, 1.57352, 1.57158, 1.58178, 1.58513, 1.58618, 1.59868, 1.58889, 1.58814, 1.63798, 1.61589, 1.63399, 1.65075, 1.65889, 1.65845, 1.65815, 1.65909, 1.65827, 1.68354, 1.66822, 1.66571, 1.65792, 1.68856, 1.69006, 1.68981, 1.68913, 1.73148, 1.71325, 1.87986, 1.87977, 1.8252, 1.8243, 1.84296, 1.84864, 1.68975, 1.68876, 1.69745, 1.69722, 1.68545, 1.70133, 1.73115, 1.75005, 1.76122, 1.75378, 1.77239, 1.77258, 1.79397, 1.74565, 1.6928, 1.67185, 1.69526, 1.67008, 1.63369, 1.64795, 1.60524, 1.60497, 1.51578, 1.49811, 1.5078, 1.4967, 1.45721, 1.42242, 1.4217, 1.45254, 1.44518, 1.443, 1.43847, 1.44394, 1.42541, 1.4623, 1.4611, 1.38802, 1.36809, 1.34959, 1.35835, 1.35904, 1.29119, 1.29915, 1.28636, 1.26544, 1.25338, 1.18915, 1.15989, 1.16005, 1.15681, 1.13541, 1.13085, 1.11452, 1.10888, 1.1153, 1.08811, 1.0877, 1.06075, 1.04169, 1.02563, 0.983594, 0.983776, 0.973684, 0.937089, 0.927784, 0.923834, 0.897058, 0.889497, 0.883955, 0.8896, 0.866716, 0.871284, 0.870273, 0.823816, 0.824848, 0.848191, 0.892178, 0.910229, 0.910691, 0.999046, 1.17344, 1.15388, 1.03307, 1.09165, 1.23061, 1.17006, 1.16787, 1.14099, 1.18526, 0.987556, 0.913432, 0.874606, 0.875305, 0.875351, 0.884179, 0.883632, 0.878369, 0.889354, 0.87738, 0.878022, 0.889326, 0.885762, 0.88796, 0.895025, 0.895428, 0.895925, 0.904165, 0.915777, 0.912196, 0.897966, 0.896009, 0.890583, 0.8903, 0.885377, 0.883876, 0.884954, 0.886252, 0.893885, 0.898593, 0.892566, 0.898291, 0.90061, 0.894173, 0.894822, 0.899159, 0.899428, 0.899147, 0.894008, 0.894563, 0.906209, 0.907507, 0.908034, 0.909383
0.677583, 0.676888, 0.669922, 0.669971, 0.673961, 0.672841, 0.676199, 0.676101, 0.675667, 0.664965, 0.643351, 0.64305, 0.652619, 0.651179, 0.652987, 0.653742, 0.63129, 0.631228, 0.653778, 0.652515, 0.651769, 0.648934, 0.64865, 0.647479, 0.671115, 0.673031, 0.689487, 1.0374, 0.949439, 0.704866, 0.70495, 0.925752, 0.933579, 0.840486, 1.00264, 0.994827, 0.767902, 0.770285, 0.877999, 1.29997, 1.29877, 0.977412, 0.802118, 1.13287, 1.14703, 0.937099, 0.901551, 1.21146, 0.00415934, 0.898795, 0.90078, 0.90111, 0.911856, 0.963432, 0.943226, 1.29319, 1.33594, 1.0529, 1.05341, 1.04657, 1.01498, 0.987138, 1.00455, 1.05043, 0.953555, 1.06278, 0.00439583, 0.670373, 0.684982, 0.618329, 0.863371, 0.59418, 0.593295, 0.587546, 0.585614, 0.549935, 0.593049, 0.593962, 0.558213, 0.577367, 0.605136, 0.656732, 0.647767, 0.726961, 0.726446, 0.743007, 0.791454, 0.789531, 0.829354, 0.83665, 0.878069, 0.938502, 0.984991, 1.02191, 1.06075, 1.13612, 1.19902, 1.20257, 1.21407, 1.21806, 1.33025, 1.2886, 1.29224, 1.36727, 1.3169, 1.29648, 1.47459, 1.41721, 1.48544, 1.40605, 1.38868, 1.40517, 1.36557, 1.36504, 1.40699, 1.43293, 1.44425, 1.60952, 1.46371, 1.46841, 1.47909, 1.47117, 1.50335, 1.48297, 1.48972, 1.56674, 1.55209, 1.59742, 1.5342, 1.58924, 1.57705, 1.59677, 1.58406, 1.57905, 1.57836, 1.57847, 1.57669, 1.57565, 1.63253, 1.59582, 1.61215, 1.70709, 1.70653, 1.61351, 1.6376, 1.66618, 1.66515, 1.66506, 1.66321, 1.66431, 1.6748, 1.64481, 1.65741, 1.66523, 1.66902, 1.69238, 1.68942, 1.70252, 1.71658, 1.70626, 1.81917, 1.82639, 1.82565, 1.82488, 0.00456977, 1.88014, 1.69051, 1.69037, 1.68645, 1.66625, 1.66507, 1.6786, 1.70804, 1.75205, 1.7616, 1.75356, 1.75275, 1.75753, 1.77605, 1.75869, 1.69562, 1.68996, 1.69959, 1.82042, 1.60734, 1.62283, 1.62305, 1.53847, 1.55909, 1.49562, 1.48357, 1.48536, 1.45826, 1.45545, 1.45516, 1.42461, 1.44152, 1.42725, 1.4261, 1.42601, 1.42396, 1.41963, 1.41377, 1.3789, 1.36925, 1.34513, 1.32809, 1.36595, 1.27099, 1.27234, 1.27453, 1.25393, 1.25269, 1.17099, 1.16122, 1.15823, 1.14719, 1.14008, 1.13178, 1.1268, 1.1102, 1.09575, 1.06891, 1.06443, 1.0159, 1.01392, 0.994829, 0.958073, 0.949375, 0.939405, 0.920485, 0.900915, 0.898962, 0.890133, 0.894055, 0.870852, 0.870429, 0.840593, 0.857222, 0.85678, 0.843511, 0.815695, 0.814688, 0.88614, 0.887063, 0.946866, 0.982138, 0.964933, 1.18253, 0.998931, 1.08359, 1.13277, 0.868572, 1.10495, 0.971658, 0.90453, 0.906075, 1.11134, 0.872472, 0.873049, 0.874822, 0.879994, 0.877086, 0.877222, 0.876696, 0.87682, 0.874725, 0.874357, 0.883245, 0.885824, 0.890734, 0.893285, 0.895747, 0.987812, 0.910509, 0.907242, 0.900284, 0.893865, 0.892304, 0.887685, 0.881495, 0.880301, 0.879943, 0.880581, 0.893797, 0.895221, 0.889361, 0.898015, 0.891029, 0.891029, 0.891542, 0.894461, 0.898796, 0.895002, 0.894537, 0.894869, 0.904253, 0.907264, 0.907625, 0.908308
0.670162, 0.674541, 0.668614, 0.668431, 0.667173, 0.671333, 0.667373, 0.673679, 0.663142, 0.654777, 0.64806, 0.641887, 0.642457, 0.624422, 0.624522, 0.627815, 0.630444, 0.6308, 0.652926, 0.651164, 0.650274, 0.647128, 0.645598, 0.6652, 0.669848, 0.670643, 1.00124, 1.00966, 0.705558, 0.704078, 0.706795, 0.732851, 0.733087, 0.739655, 1.21211, 0.766606, 0.765198, 1.12291, 0.881514, 1.29606, 0.873732, 0.806017, 0.806858, 0.863798, 1.2205, 0.843345, 1.22287, 0.00414526, 0.868092, 0.868595, 1.26642, 1.34758, 1.3443, 1.34378, 1.27713, 1.31924, 1.04053, 1.03619, 1.03305, 1.0295, 1.02599, 1.00412, 1.00727, 0.97143, 0.963715, 0.964884, 0.636874, 0.642378, 0.616382, 0.616853, 0.596773, 0.595819, 0.595194, 0.560335, 0.558801, 0.553762, 0.541965, 0.558138, 0.556944, 0.57392, 0.623858, 0.666759, 0.63825, 0.728897, 0.727974, 0.757296, 0.788402, 0.791861, 0.819978, 0.856359, 0.862105, 0.935069, 0.997008, 1.03181, 1.04419, 1.15008, 1.22386, 1.29531, 1.21251, 1.21928, 1.22038, 1.2439, 1.31318, 1.31389, 1.26376, 1.26101, 1.31273, 1.41413, 1.40062, 1.44098, 1.36034, 1.36702, 1.36827, 1.45023, 1.45096, 1.44735, 1.44918, 1.45546, 1.46821, 1.46817, 1.46693, 1.47324, 1.48666, 1.4827, 1.50794, 1.53358, 1.56125, 1.58919, 1.56958, 1.57508, 1.57176, 1.57566, 1.58279, 1.57771, 1.57805, 1.57663, 1.57478, 1.57458, 1.57506, 1.57427, 1.71608, 1.70989, 1.70916, 1.63093, 1.6315, 1.62991, 1.66474, 1.66455, 1.65681, 1.65725, 1.67712, 1.67811, 1.6659, 1.63403, 1.63415, 1.72765, 1.66109, 1.66388, 1.67794, 1.67632, 1.7133, 0.00412132, 1.82384, 2.00787, 1.85767, 1.81136, 1.7123, 1.74303, 1.76573, 1.70325, 1.67516, 1.67794, 1.76606, 1.76558, 1.76349, 1.76005, 1.75937, 1.77978, 1.79197, 1.79308, 1.68916, 1.67579, 1.68577, 1.64478, 1.61739, 1.60245, 1.60127, 1.59302, 1.58437, 1.50962, 1.50766, 1.45762, 1.4637, 1.43234, 1.42616, 1.4432, 1.42734, 1.42394, 1.42987, 1.42509, 1.4261, 1.42624, 1.40874, 1.37567, 1.3655, 1.3577, 1.30967, 1.30881, 1.27173, 1.2708, 1.24745, 1.31422, 1.30712, 1.17079, 1.17087, 1.13653, 1.13681, 1.12363, 1.13375, 1.10487, 1.09593, 1.09502, 1.06086, 1.03375, 1.01302, 0.99471, 0.972798, 0.943399, 0.936615, 0.91124, 0.894735, 0.895158, 0.880824, 0.881027, 0.859024, 0.842721, 0.846655, 0.824984, 0.853039, 0.836734, 0.827438, 0.818768, 0.831592, 0.85956, 0.883523, 0.880363, 0.971101, 0.974524, 0.99114, 1.01595, 1.11795, 1.10185, 0.866858, 1.13901, 0.870402, 0.882799, 0.883582, 0.985089, 0.868436, 0.869616, 0.873102, 0.877208, 0.877996, 0.873953, 0.874821, 0.867548, 0.869267, 0.868208, 0.870854, 0.880016, 0.88694, 0.889068, 0.89272, 0.899212, 0.903571, 0.901618, 0.896525, 0.894201, 0.891501, 0.877464, 0.879972, 0.877584, 0.877266, 0.87863, 0.891621, 0.892682, 0.886923, 0.894461, 0.894165, 0.884345, 0.888245, 0.890568, 0.894681, 0.890808, 0.895499, 0.904009, 0.904251, 0.904777, 0.905503, 0.907905
0.666704, 0.762643, 0.657437, 0.664432, 0.669547, 0.668127, 0.665367, 0.663672, 0.638609, 0.639965, 0.641178, 0.632564, 0.631886, 0.624277, 0.622253, 0.621892, 0.629606, 0.629856, 0.65101, 0.651285, 0.649973, 0.646076, 0.664353, 0.663581, 0.663708, 0.867457, 0.974713, 1.04368, 0.946882, 0.704536, 0.944134, 0.73304, 0.732849, 1.258, 1.28763, 0.76041, 0.77796, 1.10112, 0.828753, 0.880379, 0.795968, 1.02529, 0.805911, 0.842644, 0.840913, 1.20275, 1.21547, 1.36622, 0.868288, 0.86801, 0.974007, 1.10711, 1.33426, 0.937596, 1.28187, 1.28244, 1.47484, 0.991754, 1.01187, 1.17406, 1.1372, 1.00424, 1.09163, 1.02376, 1.0056, 0.947351, 0.947258, 0.619563, 0.612583, 0.590018, 0.589826, 0.595587, 0.593635, 0.565722, 0.566877, 0.556436, 0.555853, 0.56614, 0.560081, 0.585034, 0.619338, 0.618191, 0.654221, 0.693153, 0.70472, 0.736157, 0.791281, 0.794603, 0.80599, 0.869628, 0.868267, 0.921409, 0.956579, 1.00981, 1.03758, 1.1609, 1.18653, 1.18876, 1.25757, 1.28396, 1.25869, 1.23544, 1.23488, 1.25042, 1.24939, 1.26153, 1.26412, 1.31554, 1.4056, 1.33849, 1.37951, 1.38395, 1.40017, 1.36575, 1.4468, 1.44352, 1.41729, 1.4327, 1.50797, 1.50798, 1.48398, 1.47123, 1.47116, 1.53487, 1.55464, 1.53084, 1.5781, 1.57721, 1.55456, 1.56573, 1.57127, 1.57173, 1.56246, 1.61927, 1.57782, 1.59934, 1.63648, 1.57438, 1.57455, 1.58689, 1.5866, 1.65098, 1.70587, 1.63104, 1.63091, 1.63011, 1.65182, 1.66151, 1.65623, 1.7012, 1.70134, 1.66108, 1.66864, 1.67838, 1.67018, 1.73257, 1.68604, 1.68575, 1.71694, 1.67665, 1.6912, 1.78657, 0.00433112, 1.99574, 1.87533, 1.76902, 1.70727, 1.7425, 1.7034, 1.67728, 1.67648, 1.6766, 1.74101, 1.76546, 1.78005, 1.76008, 1.78153, 1.78687, 1.73737, 1.73745, 1.68154, 1.68122, 1.6688, 1.61076, 1.60974, 1.61339, 1.58026, 1.54539, 1.54362, 1.52859, 1.50672, 1.45019, 1.44985, 1.44594, 1.44443, 1.43993, 1.43716, 1.43, 1.42639, 1.42617, 1.42539, 1.4016, 1.42834, 1.35944, 1.37425, 1.30604, 1.27372, 1.27744, 1.27008, 1.25994, 1.25556, 1.26688, 1.16354, 1.16674, 1.13398, 1.13359, 1.13529, 1.14716, 1.15286, 1.12213, 1.09946, 1.06951, 1.03585, 1.01576, 1.02123, 0.971087, 0.964604, 0.948241, 0.93589, 0.921204, 0.88374, 0.88243, 0.856703, 0.82087, 0.8204, 0.795038, 0.809463, 0.857796, 0.811602, 0.818969, 0.820982, 0.817812, 0.742884, 0.791305, 0.797856, 0.81427, 0.946923, 1.00906, 0.970755, 0.980732, 1.12219, 0.857085, 0.857623, 1.03343, 0.869675, 0.882849, 0.886666, 0.891564, 0.00419137, 0.965989, 0.857758, 0.867983, 0.869813, 1.04302, 0.865587, 0.86327, 0.863966, 0.868046, 0.869502, 0.876054, 0.885748, 0.886514, 0.893233, 0.901615, 0.903049, 0.900414, 0.893064, 0.893276, 0.891128, 0.874632, 0.871085, 0.875175, 0.87584, 0.877007, 0.891516, 0.891223, 0.885643, 0.890597, 0.888891, 0.881026, 0.885333, 0.887271, 0.893246, 0.894351, 0.895542, 0.90915, 0.911112, 0.905639, 0.906749, 0.908122
0.662725, 0.655, 0.655912, 0.668717, 0.669463, 0.668421, 0.666486, 0.661457, 0.639466, 0.638394, 0.625667, 0.629221, 0.630263, 0.623505, 0.623673, 0.624232, 0.619395, 0.621557, 0.648085, 0.650083, 0.646834, 0.645201, 0.64655, 0.663177, 0.974843, 1.044, 1.03247, 0.833418, 0.978182, 0.989155, 0.946728, 0.735831, 0.733972, 0.739858, 1.07894, 1.10624, 0.763864, 0.7672, 0.773313, 0.960814, 0.801376, 0.801202, 0.808032, 0.853432, 0.830818, 1.31875, 0.849786, 0.870628, 0.870016, 0.873451, 0.946557, 0.00420006, 1.34636, 1.23085, 1.26144, 1.42925, 1.32955, 1.01041, 1.1604, 1.06837, 1.07031, 1.01555, 1.03413, 1.03414, 0.916944, 0.876451, 0.946199, 0.98091, 0.601586, 0.589786, 0.588049, 0.589254, 0.588966, 0.586657, 0.564623, 0.563154, 0.545223, 0.563048, 0.575074, 0.616016, 0.604433, 0.628572, 0.67123, 0.721647, 0.708306, 0.72123, 0.741989, 0.787625, 0.805836, 0.836309, 0.850358, 0.911679, 0.934185, 0.970605, 0.987535, 1.18614, 1.18514, 1.19416, 1.2082, 1.28791, 1.23846, 1.23636, 1.2335, 1.23311, 1.28489, 1.2636, 1.34743, 1.31548, 1.37459, 1.3329, 1.38002, 1.39155, 1.36972, 1.36747, 1.36691, 1.45512, 1.42057, 1.4174, 1.45773, 1.45342, 1.48481, 1.48495, 1.4876, 1.4847, 1.49024, 1.49111, 1.55754, 1.55685, 1.55379, 1.60161, 1.59858, 1.5679, 1.56823, 1.59612, 1.60946, 1.65408, 1.62933, 1.58887, 1.58919, 1.58871, 1.58625, 1.726, 1.62001, 1.63142, 1.63029, 1.62899, 1.71621, 1.66194, 1.66007, 1.65843, 1.65638, 1.64261, 1.6935, 1.65255, 1.6713, 1.68936, 1.6862, 1.68544, 1.69538, 1.69003, 1.68945, 1.71213, 1.71469, 0.00402961, 1.75027, 1.78294, 1.70936, 1.70904, 1.69383, 1.69033, 1.67851, 1.67996, 1.71067, 1.77157, 1.74814, 1.78979, 1.79386, 1.7616, 1.79888, 1.70136, 1.70162, 1.65303, 1.64229, 1.59034, 1.58995, 1.59022, 1.57988, 1.59208, 1.54391, 1.53404, 1.51568, 1.45077, 1.45072, 1.46555, 1.52497, 1.45873, 1.4381, 1.45011, 1.42994, 1.43743, 1.37408, 1.3728, 1.36256, 1.36749, 1.36355, 1.30172, 1.27391, 1.26427, 1.26361, 1.29707, 1.22319, 1.2259, 1.17447, 1.16407, 1.16811, 1.13344, 1.1365, 1.13721, 1.15604, 1.16091, 1.11828, 1.07414, 1.06447, 1.01573, 1.02573, 0.974904, 0.9619, 0.915277, 0.918296, 0.904053, 0.8941, 0.878111, 0.825381, 0.822467, 0.795216, 0.800362, 0.788548, 0.816747, 0.798781, 0.819557, 0.773899, 0.773957, 0.745793, 0.791736, 0.792959, 0.792495, 1.00581, 1.03204, 0.983996, 0.997768, 1.11098, 1.13885, 1.05748, 1.05696, 0.864056, 0.869534, 0.869583, 0.876236, 0.87704, 0.853731, 0.856734, 1.11977, 0.856459, 0.855167, 0.857307, 0.857858, 0.862285, 0.864141, 0.868221, 0.871387, 0.87691, 1.23926, 0.893359, 0.902754, 0.904587, 0.901535, 0.892596, 0.893181, 1.01473, 0.869893, 0.869938, 0.869913, 0.874924, 0.879793, 0.886371, 0.888651, 0.880785, 0.881384, 0.88203, 0.87912, 0.879987, 0.881977, 0.887534, 0.888493, 0.898182, 0.911957, 0.912683, 0.911368, 0.912438, 0.908588
0.659138, 0.653382, 0.652962, 0.669068, 0.66771, 0.663012, 0.661045, 0.66021, 0.629785, 0.629187, 0.627651, 0.631022, 0.631256, 0.630697, 0.62181, 0.621624, 0.621699, 0.623489, 0.64843, 0.646792, 0.645101, 0.64415, 0.663049, 0.662919, 0.663671, 0.958918, 1.03294, 0.835733, 0.977074, 0.942657, 0.989311, 0.739133, 0.7382, 1.21731, 1.03611, 0.765268, 0.765719, 0.766515, 0.769934, 1.31075, 0.796539, 0.884138, 0.807267, 0.828915, 0.829583, 0.836818, 0.873913, 0.868654, 0.873766, 0.873837, 0.956041, 0.949401, 1.22249, 1.32778, 1.4287, 1.34511, 1.29998, 1.01444, 1.01933, 1.01536, 1.1744, 1.00698, 1.02873, 0.934945, 0.874327, 0.877309, 0.947979, 0.613, 0.576635, 0.576592, 0.576594, 0.589701, 0.588192, 0.600853, 0.549644, 0.552383, 0.56449, 0.559187, 0.578344, 0.608319, 0.606906, 0.607956, 0.631495, 0.656703, 0.656276, 0.705727, 0.727347, 0.750782, 0.778756, 0.824696, 0.891288, 0.905079, 0.905245, 0.962603, 0.982973, 1.18176, 1.18585, 1.18497, 1.22051, 1.27895, 1.28418, 1.24736, 1.24447, 1.23965, 1.23391, 1.32381, 1.28836, 1.30397, 1.33051, 1.41181, 1.33856, 1.35809, 1.3863, 1.36393, 1.38219, 1.41555, 1.41626, 1.42336, 1.43409, 1.4504, 1.45848, 1.45779, 1.46935, 1.48493, 1.48825, 1.55137, 1.55311, 1.55323, 1.54766, 1.54738, 1.59589, 1.60258, 1.59737, 1.55161, 1.59199, 1.58524, 1.65173, 1.58843, 1.58811, 1.61716, 1.6252, 1.62499, 1.63986, 1.63238, 1.63109, 1.62881, 1.66862, 1.6542, 1.65423, 1.65382, 1.6521, 1.65105, 1.67345, 1.66963, 1.6691, 1.67912, 1.70513, 1.68767, 1.69772, 1.68947, 1.69066, 1.70124, 1.70132, 1.72327, 1.71632, 1.71657, 1.7162, 1.75117, 1.68898, 1.68887, 1.68504, 1.71281, 1.73309, 1.73372, 1.73227, 1.76976, 1.77209, 1.75622, 1.74813, 1.74383, 1.66244, 1.63914, 1.62928, 1.63964, 1.59876, 1.57866, 1.54902, 1.53122, 1.54142, 1.5351, 1.52245, 1.53505, 1.48459, 1.46795, 1.48209, 1.4465, 1.44692, 1.44822, 1.43369, 1.40148, 1.35666, 1.35639, 1.3673, 1.36106, 1.38172, 1.28825, 1.29576, 1.26419, 1.26468, 1.25268, 1.22547, 1.32471, 1.1647, 1.17285, 1.18645, 1.18458, 1.15563, 1.14985, 1.13308, 1.1648, 1.12265, 1.09633, 1.04933, 1.02533, 1.0122, 0.97183, 0.956954, 0.93681, 0.919157, 0.893725, 0.867827, 0.835753, 0.810705, 0.825688, 0.818528, 0.804243, 0.771601, 0.777659, 0.745963, 0.751159, 0.761063, 0.708495, 0.712016, 0.725821, 0.72578, 0.799152, 1.03627, 1.00908, 1.05428, 0.98269, 1.03299, 0.844824, 0.846563, 1.11132, 0.856682, 0.866245, 0.86833, 0.869547, 0.867714, 0.849058, 0.849955, 0.854101, 0.850217, 0.849577, 0.855498, 0.852562, 0.856016, 0.861621, 0.864843, 0.872913, 0.877556, 0.882419, 1.2815, 0.901877, 0.902331, 0.901697, 1.02724, 1.03027, 0.866431, 0.865083, 0.86636, 0.86688, 0.874565, 0.88153, 0.883025, 0.883991, 0.876503, 0.875768, 0.875767, 0.872563, 0.874011, 0.875703, 0.877953, 1.08259, 0.911543, 0.912226, 0.912578, 0.912983, 0.911641, 0.909788
0.648891, 0.648457, 0.648283, 0.66652, 0.665781, 0.664167, 0.659799, 0.65981, 0.630412, 0.628689, 0.616064, 0.626491, 0.630027, 0.629226, 0.620664, 0.620032, 0.619813, 0.625226, 0.636429, 0.644378, 0.642966, 0.64337, 0.814387, 0.663852, 0.795897, 0.685015, 0.684752, 0.984327, 0.721603, 1.02179, 1.15312, 0.738033, 0.736761, 0.743947, 0.747981, 0.763739, 0.763915, 0.765486, 0.76445, 1.27486, 0.800791, 0.801362, 1.1128, 0.827661, 0.831959, 0.830462, 0.836513, 0.00438925, 0.877642, 0.886675, 0.970823, 0.988338, 1.04784, 1.05298, 1.01272, 1.22633, 1.22596, 1.02912, 1.01477, 1.01468, 1.01447, 1.02171, 1.02274, 0.886928, 0.866965, 0.877825, 0.614676, 0.57696, 0.576824, 0.579146, 0.576745, 0.58558, 0.589693, 0.578085, 0.540138, 0.543478, 0.547485, 0.562816, 0.561778, 0.594892, 0.592909, 0.622561, 0.628553, 0.637623, 0.664056, 0.665355, 0.728386, 0.727683, 0.770583, 0.788407, 0.847395, 0.841871, 0.904913, 0.926135, 0.976286, 0.983578, 1.193, 1.19509, 1.27508, 1.3685, 1.37784, 1.24924, 1.25616, 1.25956, 1.26667, 1.26689, 1.25529, 1.30496, 1.39221, 1.33554, 1.33999, 1.39021, 1.35834, 1.36464, 1.36077, 1.37183, 1.39686, 1.41529, 1.45427, 1.44761, 1.46883, 1.44067, 1.43989, 1.54358, 1.54323, 1.52357, 1.55294, 1.55377, 1.54452, 1.5421, 1.54777, 1.54803, 1.60958, 1.59619, 1.5887, 1.59609, 1.59587, 1.58686, 1.57837, 1.60024, 1.67172, 1.6565, 1.6373, 1.64558, 1.69681, 1.63365, 1.6317, 1.6327, 1.69353, 1.65327, 1.65093, 1.71412, 1.71345, 1.67934, 1.67271, 1.69624, 1.70404, 1.687, 1.68623, 1.68428, 1.68203, 1.71305, 1.73796, 1.73548, 1.72894, 1.72432, 1.72488, 1.73187, 1.74077, 1.74386, 1.72676, 1.72649, 1.73443, 1.73381, 1.73322, 1.73169, 1.72319, 1.79711, 1.74464, 1.74255, 1.66373, 1.6279, 1.61765, 1.63285, 1.62943, 1.54617, 1.54385, 1.54362, 1.5273, 1.49405, 1.49905, 1.54156, 1.51561, 1.48557, 1.48515, 1.4922, 1.44559, 1.44461, 1.43768, 1.45816, 1.47224, 1.3745, 1.37919, 1.35732, 1.38472, 1.47766, 1.30122, 1.27143, 1.2851, 1.2326, 1.20876, 1.22299, 1.19234, 1.18627, 1.19051, 1.15677, 1.14596, 1.14622, 1.15625, 1.1485, 1.10593, 1.07923, 1.04315, 1.0085, 0.970601, 0.957699, 0.947432, 0.921376, 0.888261, 0.86366, 0.845403, 0.854058, 0.823208, 0.811037, 0.803748, 0.802701, 0.77323, 0.771015, 0.7444, 0.718126, 0.716004, 0.716251, 0.711195, 0.725106, 0.726961, 0.727123, 0.737625, 0.811611, 0.770719, 0.776545, 0.786627, 0.84044, 0.840236, 0.812406, 0.812807, 0.827875, 0.870004, 0.867674, 0.86241, 0.84017, 1.12633, 0.850388, 0.846725, 0.846816, 0.843583, 0.845587, 0.850666, 0.856934, 0.859267, 0.873897, 0.873716, 0.875235, 0.883887, 1.01129, 0.9001, 0.897766, 1.03602, 1.03064, 0.861927, 0.86208, 0.863691, 0.871283, 0.874394, 0.879454, 0.883282, 0.883772, 0.872844, 0.873461, 0.873538, 0.871385, 0.87293, 0.874356, 0.877533, 0.886322, 0.907308, 0.90836, 0.911022, 0.913343, 0.914958, 0.905454
0.648649, 0.646472, 0.646652, 0.66426, 0.662575, 0.662074, 0.661224, 0.628792, 0.628714, 0.604099, 0.611656, 0.609626, 0.629532, 0.628224, 0.628121, 0.629145, 0.627759, 0.638689, 0.639903, 0.640396, 0.638394, 0.64163, 1.05864, 0.879134, 0.683143, 0.686018, 0.94795, 1.03699, 0.710818, 0.715035, 1.02, 0.736624, 0.73752, 0.742902, 0.979286, 0.978098, 0.762915, 0.765558, 0.766352, 0.891592, 0.970115, 0.798802, 0.974149, 0.836397, 0.834742, 0.836393, 1.05291, 0.891256, 0.880453, 1.20513, 1.29887, 1.22595, 1.12403, 1.35695, 1.07978, 1.01498, 1.05598, 1.02699, 1.01403, 1.01571, 1.0163, 1.01873, 0.90192, 0.882506, 0.898376, 0.996304, 0.894564, 0.898607, 0.562798, 0.562451, 0.56256, 0.562144, 0.549411, 0.583283, 0.583547, 0.541805, 0.550308, 0.552428, 0.57123, 0.594597, 0.600422, 0.621523, 0.621979, 0.649083, 0.665793, 0.631803, 0.697625, 0.759707, 0.769805, 0.79884, 0.826924, 0.82905, 0.900849, 0.951027, 0.979121, 1.03339, 1.17799, 1.18815, 1.22319, 1.39609, 1.41774, 1.23968, 1.2604, 1.26236, 1.26704, 1.26779, 1.22707, 1.22594, 1.26069, 1.38986, 1.36139, 1.36214, 1.34716, 1.34763, 1.35835, 1.4265, 1.4398, 1.46086, 1.43633, 1.43952, 1.42432, 1.4697, 1.47135, 1.50166, 1.56243, 1.72581, 1.55003, 1.54949, 1.55106, 1.54224, 1.56173, 1.57694, 1.57558, 1.57489, 1.57612, 1.59561, 1.59577, 1.59099, 1.59655, 1.62803, 1.68337, 1.68368, 1.68198, 1.64624, 1.6801, 1.67899, 1.65558, 1.62951, 1.62845, 1.62954, 1.7179, 1.71589, 1.64256, 1.64231, 1.66099, 1.68295, 1.69258, 1.71473, 1.70282, 1.70257, 1.69224, 1.70732, 1.7205, 1.72079, 1.72319, 1.72615, 1.72495, 1.76946, 1.73298, 1.73316, 1.72765, 1.72731, 1.73489, 1.73379, 1.73403, 1.73332, 1.81446, 1.74338, 1.73972, 1.63793, 1.64394, 1.64276, 1.64169, 1.65883, 1.65585, 1.5086, 1.50818, 1.50852, 1.4968, 1.49619, 1.48082, 1.45635, 1.45445, 1.4544, 1.47377, 1.47509, 1.44663, 1.44662, 1.44448, 1.46875, 1.47069, 1.3692, 1.37781, 1.35126, 1.32611, 1.30661, 1.30603, 1.28313, 1.24395, 1.26451, 1.21613, 1.22293, 1.19891, 1.17488, 1.19106, 1.1649, 1.16439, 1.18427, 1.16444, 1.10582, 1.14714, 1.03837, 1.01974, 1.01895, 0.95024, 0.955272, 0.929811, 0.90835, 0.89395, 0.867363, 0.854387, 0.830041, 0.807456, 0.79711, 0.785451, 0.767072, 0.759972, 0.770331, 0.735781, 0.718243, 0.71178, 0.715834, 0.731744, 0.755998, 0.796782, 0.733449, 1.03644, 1.00853, 0.981559, 1.02001, 0.788505, 0.83956, 0.840219, 0.812846, 0.825843, 0.826034, 0.859966, 0.86162, 0.880362, 0.836016, 0.838355, 0.843671, 0.845676, 0.843972, 0.845593, 0.845981, 0.847685, 0.857632, 0.863619, 0.870542, 0.872816, 0.877683, 0.981785, 0.893207, 0.893901, 0.898311, 1.03547, 0.8598, 0.85893, 0.859339, 0.859499, 0.870677, 0.874078, 0.877911, 0.879991, 0.874473, 0.876002, 0.872257, 0.870109, 0.870514, 0.872991, 0.876724, 0.880473, 0.890702, 0.907527, 0.907706, 0.914201, 0.912788, 0.91137, 0.902403
0.645519, 0.645236, 0.644231, 0.663488, 0.66363, 0.652977, 0.658737, 0.617222, 0.606225, 0.606837, 0.609954, 0.609745, 0.608831, 0.636459, 0.635217, 0.635338, 0.629784, 0.639858, 0.640672, 0.640804, 0.638903, 0.63888, 0.663152, 1.04554, 1.17391, 0.68662, 0.947165, 0.953392, 1.01257, 1.01597, 0.737523, 0.737579, 1.02378, 1.0234, 1.03631, 0.763918, 0.763321, 0.7637, 0.774884, 1.24739, 0.898494, 0.897307, 0.819063, 0.819142, 0.833205, 1.06616, 1.06761, 0.883481, 0.883421, 0.883609, 1.07075, 0.961254, 1.11952, 1.02589, 1.02506, 0.992309, 1.00293, 1.01518, 1.02289, 1.05571, 1.01924, 0.00444601, 0.991191, 0.894503, 0.892077, 0.568141, 0.568943, 0.566719, 0.564744, 0.563237, 0.562034, 0.537408, 0.531058, 0.566991, 0.533002, 0.546236, 0.546922, 0.563611, 0.567386, 0.571138, 0.597164, 0.600805, 0.608422, 0.643086, 0.648755, 0.657867, 0.701506, 0.698959, 0.751655, 0.781459, 0.819538, 0.811172, 0.912286, 0.91044, 0.991427, 1.01575, 1.04594, 1.18983, 1.21705, 1.21209, 1.21944, 1.21975, 1.20369, 1.20262, 1.26567, 1.2626, 1.23166, 1.24236, 1.27611, 1.34534, 1.36135, 1.35897, 1.34284, 1.34302, 1.34849, 1.34889, 1.39253, 1.46277, 1.46564, 1.42687, 1.42584, 1.42588, 1.5126, 1.51465, 1.58108, 1.57623, 1.57521, 1.58811, 1.5744, 1.56222, 1.54206, 1.55511, 1.52646, 1.56576, 1.56328, 1.59918, 1.59151, 1.59255, 1.59996, 1.62965, 1.60826, 1.62077, 1.62593, 1.67127, 1.67141, 1.67825, 1.6762, 1.62786, 1.62997, 1.66111, 1.64578, 1.64446, 1.64307, 1.65075, 1.66935, 1.67062, 1.68146, 1.69899, 1.69956, 1.69147, 1.70658, 1.72994, 1.72021, 1.7247, 1.72422, 1.72632, 1.72638, 1.72723, 1.75797, 1.80214, 1.72494, 1.74061, 1.73892, 1.73951, 1.73146, 1.72375, 1.74553, 1.74561, 1.71827, 1.70029, 1.62509, 1.59556, 1.59547, 1.59657, 1.60342, 1.55593, 1.50905, 1.50869, 1.54667, 1.49117, 1.51637, 1.46753, 1.52044, 1.48225, 1.42761, 1.43892, 1.44708, 1.44437, 1.49995, 1.48677, 1.3652, 1.35927, 1.3603, 1.365, 1.33337, 1.30546, 1.29884, 1.2989, 1.24112, 1.25132, 1.27108, 1.21853, 1.21559, 1.21266, 1.24201, 1.18485, 1.21077, 1.20152, 1.11764, 1.06978, 1.07073, 1.02211, 0.994805, 0.984544, 0.943226, 0.933974, 0.928144, 0.892475, 0.873117, 0.859583, 0.847373, 0.822637, 0.790374, 0.790289, 0.778244, 0.773969, 0.768076, 0.739426, 0.750776, 0.708981, 0.715407, 0.732149, 0.742666, 0.756851, 0.757585, 0.801213, 0.977588, 1.15066, 0.915072, 0.955717, 0.836147, 0.837179, 0.83761, 0.828351, 1.06019, 0.842894, 0.843333, 0.854342, 1.0603, 1.00604, 0.836714, 0.842082, 0.84084, 0.843922, 0.84727, 0.846872, 0.852805, 0.859343, 0.864311, 0.864697, 0.867875, 0.874726, 0.978645, 0.894149, 0.894789, 0.895603, 1.0437, 0.859179, 0.857267, 0.857447, 0.85739, 0.867114, 0.86832, 0.879214, 0.879868, 0.8771, 0.876734, 0.870573, 0.873249, 0.873363, 0.872513, 0.877541, 0.883469, 0.891172, 0.894222, 1.00894, 0.90994, 0.909747, 0.902282, 0.905895
0.644877, 0.645185, 0.642609, 0.642692, 0.65237, 0.650704, 0.650452, 0.605587, 0.603927, 0.603979, 0.605554, 0.607713, 0.635949, 0.635239, 0.635824, 0.635453, 0.640568, 0.642255, 0.64127, 0.639811, 0.63741, 0.820709, 0.777092, 1.05337, 1.039, 0.687458, 0.956778, 0.943708, 1.02942, 1.0615, 0.738512, 0.738336, 0.738595, 1.21564, 0.744054, 0.74982, 0.768886, 0.766273, 0.00440754, 1.10139, 0.797111, 0.796642, 0.986337, 0.00441917, 0.967895, 0.00438929, 1.45116, 0.883999, 0.883806, 0.884215, 1.00852, 0.939048, 0.00411038, 1.06125, 1.0914, 1.03999, 0.990262, 0.990526, 0.991232, 1.01246, 1.01268, 1.11399, 0.627868, 0.934995, 0.913089, 0.572144, 0.567646, 0.568125, 0.565771, 0.562374, 0.562131, 0.537966, 0.538096, 0.532579, 0.556277, 0.58203, 0.544776, 0.553039, 0.564629, 0.591167, 0.601489, 0.602444, 0.611108, 0.619484, 0.658836, 0.664026, 0.701005, 0.745901, 0.759171, 0.769526, 0.81174, 0.82511, 0.91798, 0.947339, 0.995795, 1.00618, 1.13929, 1.1462, 1.20937, 1.19207, 1.2158, 1.2001, 1.26726, 1.2067, 1.20658, 1.2011, 1.27084, 1.23391, 1.2537, 1.36104, 1.35471, 1.35792, 1.34421, 1.36257, 1.35397, 1.39968, 1.38182, 1.46697, 1.46405, 1.4372, 1.43078, 1.44656, 1.53277, 1.53102, 1.5709, 1.57825, 1.57887, 1.57466, 1.57354, 1.55816, 1.51787, 1.51805, 1.58019, 1.57924, 1.58205, 1.5823, 1.59525, 1.59553, 1.58894, 1.592, 1.60376, 1.66954, 1.67044, 1.69414, 1.60773, 1.60673, 1.62516, 1.62412, 1.62351, 1.69112, 1.6467, 1.64859, 1.64351, 1.65799, 1.74412, 1.69087, 1.70822, 1.71092, 1.70405, 1.70526, 1.70633, 1.71366, 1.71266, 1.71253, 1.71459, 1.7243, 1.72662, 1.72564, 1.70925, 1.75092, 1.7417, 1.74136, 1.74052, 1.7389, 1.75064, 1.73855, 1.76522, 1.66857, 1.66143, 1.61913, 1.63442, 1.64078, 1.58141, 1.58116, 1.58005, 1.62072, 1.53033, 1.54153, 1.53841, 1.55917, 1.56462, 1.441, 1.42006, 1.42498, 1.41802, 1.43416, 1.43707, 1.44708, 1.50864, 1.36089, 1.36044, 1.38398, 1.33666, 1.30532, 1.30527, 1.30019, 1.30495, 1.26397, 1.25168, 1.24364, 1.23666, 1.27208, 1.22915, 1.23816, 1.20796, 1.22072, 1.21839, 1.06328, 1.07727, 1.00239, 1.00867, 1.00927, 0.960771, 0.932955, 0.905427, 0.897737, 0.905331, 0.847793, 0.860264, 0.819746, 0.80769, 0.794859, 0.787584, 0.771729, 0.747268, 0.764008, 0.738748, 0.74097, 0.712889, 0.714847, 0.72804, 0.721603, 0.741004, 0.742512, 0.773465, 0.780653, 0.985868, 1.06699, 0.96415, 0.815636, 1.06361, 0.834722, 0.829957, 0.824341, 0.825434, 0.976599, 0.84935, 0.846422, 0.825053, 0.825561, 1.07565, 0.83212, 0.838247, 0.839497, 0.842481, 0.847562, 0.848506, 0.852479, 0.861297, 0.863042, 0.862818, 0.865561, 0.975134, 0.883921, 0.883617, 1.02305, 0.853835, 0.854941, 0.855524, 0.854445, 0.866904, 0.866953, 0.866219, 0.868104, 0.873458, 0.874198, 0.875433, 0.866276, 0.866688, 0.870109, 0.873148, 0.876928, 0.881879, 0.889886, 0.890381, 0.899002, 0.901, 0.900836, 0.901523, 0.905384
0.643018, 0.642163, 0.641544, 0.641947, 0.650878, 0.650482, 0.647927, 0.606834, 0.605048, 0.603762, 0.603665, 0.605057, 0.634758, 0.634629, 0.634595, 0.634805, 0.636797, 0.638704, 0.638622, 0.637887, 0.63683, 0.657972, 0.950221, 0.948592, 0.766154, 0.688624, 0.691648, 0.949487, 0.712134, 0.715364, 0.722856, 0.736882, 0.746093, 0.742796, 0.745378, 0.747849, 0.746911, 0.767957, 1.26395, 0.907672, 0.79451, 0.801162, 0.809479, 0.00435137, 0.971185, 1.07524, 0.953176, 1.16402, 0.998511, 1.00664, 1.30961, 1.37101, 1.14393, 0.00443238, 1.08874, 1.00227, 0.995269, 0.992434, 1.08832, 1.13236, 0.00420813, 0.908451, 0.910624, 0.569631, 0.569504, 0.56932, 0.567894, 0.566893, 0.560883, 0.560048, 0.556479, 0.555745, 0.559602, 0.548554, 0.536362, 0.529855, 0.514029, 0.576317, 0.564265, 0.601133, 0.601017, 0.603444, 0.610663, 0.63488, 0.664966, 0.670662, 0.689991, 0.771145, 0.770441, 0.770492, 0.818746, 0.825617, 0.898967, 0.939261, 0.95816, 1.11839, 1.1192, 1.21432, 1.21461, 1.22905, 1.22245, 1.2231, 1.21216, 1.20785, 1.22441, 1.22535, 1.20272, 1.20309, 1.22898, 1.35345, 1.35302, 1.35916, 1.3471, 1.34682, 1.39883, 1.4148, 1.38974, 1.39663, 1.41348, 1.41308, 1.44611, 1.44694, 1.47564, 1.52042, 1.55544, 1.61329, 1.57142, 1.5711, 1.57352, 1.57547, 1.55604, 1.52342, 1.54712, 1.58279, 1.56476, 1.56497, 1.58227, 1.58502, 1.58642, 1.61434, 1.61385, 1.62417, 1.58758, 1.62393, 1.60602, 1.60668, 1.63027, 1.62327, 1.62293, 1.68702, 1.65419, 1.64798, 1.68342, 1.66231, 1.67671, 1.69605, 1.69723, 1.69686, 1.71015, 1.70467, 1.70729, 1.70749, 1.71154, 1.71179, 1.7133, 1.71318, 1.71966, 1.71891, 1.70807, 1.7532, 1.70748, 1.70673, 1.70575, 1.69621, 1.69614, 1.6901, 1.6892, 1.64888, 1.58736, 1.63347, 1.56384, 1.57494, 1.57331, 1.58145, 1.53714, 1.5087, 1.4918, 1.48204, 1.48145, 1.46985, 1.52215, 1.45016, 1.41292, 1.43698, 1.43687, 1.42112, 1.43025, 1.41996, 1.39583, 1.36176, 1.36147, 1.34714, 1.34617, 1.33667, 1.29793, 1.2782, 1.30982, 1.30931, 1.25427, 1.22877, 1.2276, 1.23731, 1.24046, 1.24081, 1.23018, 1.2343, 1.11534, 1.10317, 0.9783, 0.952668, 0.951204, 0.921026, 0.904833, 0.911236, 0.869181, 0.867139, 0.844843, 0.842405, 0.839324, 0.797171, 0.815262, 0.785405, 0.748982, 0.737754, 0.738692, 0.733734, 0.739417, 0.716584, 0.713475, 0.70174, 0.701735, 0.732463, 0.721285, 0.743763, 0.76937, 0.89127, 0.88084, 0.919097, 1.05828, 0.810663, 0.817757, 0.82324, 0.827818, 0.823308, 0.823902, 0.839236, 0.84238, 0.83559, 0.823461, 0.825209, 0.826354, 0.828298, 0.828796, 1.10848, 0.832129, 0.845967, 0.847162, 0.848451, 0.861483, 0.862689, 0.862831, 0.863147, 0.870664, 0.877801, 0.879519, 0.992294, 0.849718, 0.851206, 0.850917, 0.866695, 0.867652, 0.866329, 0.863634, 0.863553, 0.873666, 0.873708, 0.869823, 0.866669, 0.867566, 0.868504, 0.875876, 0.879421, 0.880361, 0.885847, 0.892026, 0.89802, 0.899161, 0.896923, 0.897418, 0.903303
0.634144, 0.63901, 0.640799, 0.635212, 0.632533, 0.639968, 0.631389, 0.606992, 0.606781, 0.601623, 0.601083, 0.605644, 0.633686, 0.634505, 0.631629, 0.631481, 0.638272, 0.638941, 0.637388, 0.636603, 0.658883, 0.66188, 0.66385, 1.12316, 0.765437, 0.689743, 0.690819, 1.04413, 0.7141, 0.71444, 0.722077, 0.742336, 0.740098, 0.74231, 0.742881, 0.745204, 0.758257, 0.772316, 0.776317, 0.940238, 0.00416724, 0.804624, 0.81515, 1.01971, 0.877556, 1.07001, 1.08032, 0.895263, 0.895325, 0.897803, 1.01599, 0.945868, 1.14055, 1.14334, 0.00448439, 1.00122, 0.995566, 0.99551, 0.99582, 1.00923, 0.00392214, 0.919649, 0.613364, 0.570565, 0.569996, 0.569611, 0.564643, 0.556637, 0.55896, 0.559036, 0.554981, 0.543151, 0.537993, 0.548956, 0.537576, 0.53897, 0.524962, 0.517301, 0.550388, 0.600753, 0.5643, 0.617335, 0.620764, 0.624242, 0.660365, 0.667006, 0.687597, 0.757098, 0.782247, 0.781728, 0.818838, 0.866052, 0.867438, 0.926149, 1.03102, 1.09744, 1.1893, 1.19509, 1.19463, 1.24435, 1.24111, 1.20701, 1.20771, 1.20843, 1.26386, 1.21452, 1.21283, 1.24089, 1.27046, 1.38078, 1.40233, 1.35496, 1.38245, 1.34543, 1.34529, 1.41234, 1.40316, 1.43013, 1.42957, 1.43693, 1.45163, 1.46181, 1.52026, 1.55417, 1.55407, 1.5281, 1.56986, 1.58127, 1.57981, 1.60584, 1.61381, 1.61612, 1.54819, 1.55877, 1.53702, 1.61262, 1.55375, 1.56401, 1.5869, 1.61537, 1.61402, 1.6128, 1.58825, 1.60608, 1.58539, 1.60288, 1.60295, 1.66661, 1.63397, 1.63344, 1.64851, 1.65539, 1.64258, 1.65565, 1.65673, 1.67458, 1.70124, 1.71036, 1.70328, 1.70732, 1.70886, 1.70738, 1.71019, 1.70815, 1.7079, 1.76677, 1.71989, 1.72158, 1.72103, 1.75391, 1.75385, 1.70717, 1.70654, 1.68882, 1.70378, 1.66211, 1.63974, 1.64113, 1.61712, 1.56421, 1.5649, 1.56442, 1.56234, 1.55824, 1.52199, 1.54629, 1.46683, 1.46554, 1.46294, 1.45438, 1.47293, 1.41388, 1.38482, 1.38078, 1.37983, 1.37636, 1.36369, 1.3678, 1.39371, 1.39051, 1.37354, 1.41561, 1.34813, 1.33716, 1.3011, 1.28582, 1.30715, 1.31257, 1.24216, 1.24899, 1.23286, 1.27342, 1.22016, 1.22692, 1.15745, 1.10618, 0.942531, 0.943041, 0.967371, 0.910052, 0.909235, 0.908512, 0.901501, 0.875512, 0.845868, 0.850119, 0.831642, 0.82039, 0.781307, 0.782974, 0.802143, 0.774091, 0.775855, 0.738601, 0.728583, 0.731635, 0.708953, 0.708318, 0.690066, 0.700955, 0.720701, 0.718934, 0.734769, 0.734405, 0.918767, 0.767997, 0.890019, 1.10877, 0.803761, 0.804069, 0.804329, 1.13345, 0.824866, 0.823041, 0.828574, 0.831987, 0.817661, 0.819187, 0.820765, 0.821819, 0.821157, 1.05156, 0.8177, 0.823996, 1.04495, 0.829987, 1.06053, 0.996636, 1.0152, 0.860679, 0.863081, 0.865447, 0.871382, 0.873894, 0.871167, 0.857373, 0.849153, 0.850418, 0.852706, 0.866083, 0.867825, 0.861309, 0.862722, 0.869405, 0.871789, 0.87271, 0.872848, 0.868517, 0.869043, 0.871885, 0.879355, 0.880011, 0.880814, 0.88881, 0.891796, 0.897341, 0.897455, 0.898497, 0.898716, 0.906751
0.635292, 0.638799, 0.634907, 0.634937, 0.634357, 0.63464, 0.629938, 0.610981, 0.608717, 0.602618, 0.600329, 0.600316, 0.63273, 0.632514, 0.632205, 0.631565, 0.63618, 0.641693, 0.641803, 0.642322, 0.658874, 0.662751, 0.664792, 0.66663, 1.0315, 1.03332, 1.01557, 0.997843, 0.714985, 0.718436, 1.32255, 1.00919, 0.739249, 0.742849, 0.74892, 0.74845, 0.757926, 0.759582, 0.842308, 0.939448, 0.992713, 0.993706, 0.845824, 0.00457926, 1.27546, 0.00463165, 0.919891, 0.896327, 0.897246, 0.89896, 0.994009, 0.951739, 1.161, 1.08518, 0.988772, 0.995819, 0.996516, 0.996682, 0.997182, 0.998111, 0.617129, 0.615447, 0.940065, 0.57195, 0.570854, 0.57055, 0.563761, 0.556959, 0.555543, 0.553351, 0.552889, 0.552299, 0.537613, 0.54143, 0.538761, 0.529738, 0.534859, 0.513948, 0.540573, 0.549781, 0.55259, 0.601555, 0.615484, 0.618417, 0.677358, 0.674176, 0.663171, 0.741848, 0.780118, 0.780269, 0.815091, 0.828721, 0.86759, 0.957794, 0.96724, 1.11612, 1.13968, 1.19246, 1.21965, 1.21216, 1.21264, 1.22834, 1.21955, 1.2192, 1.2208, 1.25038, 1.25007, 1.29696, 1.41164, 1.43312, 1.36569, 1.35213, 1.3458, 1.34574, 1.34604, 1.3708, 1.40767, 1.43301, 1.44507, 1.44616, 1.45006, 1.45179, 1.50692, 1.50948, 1.52973, 1.53023, 1.56074, 1.58894, 1.58089, 1.58029, 1.63324, 1.63528, 1.54715, 1.54198, 1.54158, 1.54339, 1.60445, 1.55755, 1.56233, 1.61609, 1.5847, 1.59898, 1.58362, 1.58393, 1.65875, 1.59719, 1.6407, 1.64951, 1.62622, 1.64851, 1.64733, 1.65957, 1.65741, 1.65811, 1.65834, 1.67498, 1.66756, 1.75238, 1.70277, 1.70222, 1.70129, 1.71007, 1.70645, 1.70401, 1.76668, 1.76572, 1.72746, 1.7237, 1.71958, 1.73973, 1.71309, 1.7127, 1.68756, 1.68721, 1.67325, 1.67916, 1.61823, 1.645, 1.60694, 1.61748, 1.63763, 1.5645, 1.54123, 1.53309, 1.53214, 1.56112, 1.46711, 1.46677, 1.44651, 1.44404, 1.45404, 1.37611, 1.35341, 1.43139, 1.43024, 1.42302, 1.36453, 1.36385, 1.32754, 1.39463, 1.36116, 1.32064, 1.292, 1.33722, 1.34008, 1.30586, 1.30942, 1.32216, 1.26084, 1.23628, 1.27374, 1.27745, 1.21941, 1.22443, 1.13771, 1.02618, 0.989648, 0.954251, 0.950504, 0.909173, 0.910529, 0.862212, 0.870726, 0.86788, 0.846509, 0.82979, 0.811084, 0.811433, 0.780539, 0.739033, 0.738481, 0.776339, 0.777483, 0.712907, 0.714095, 0.708143, 0.710705, 0.664259, 0.673456, 0.704623, 0.728362, 0.72569, 0.766824, 0.765964, 0.765409, 0.767694, 0.908164, 1.06116, 1.02687, 0.81534, 0.811771, 0.998535, 0.813115, 0.814869, 0.824938, 0.818698, 0.818715, 0.819428, 0.819936, 0.818783, 1.12124, 0.813313, 0.994276, 0.809736, 0.955793, 0.820473, 0.831652, 0.8361, 0.83911, 1.29165, 0.853429, 0.863004, 0.871771, 0.871512, 0.871134, 0.859216, 0.859045, 0.85115, 0.850933, 0.866003, 0.866413, 0.863702, 0.863277, 0.870037, 0.87015, 0.869343, 0.869314, 0.869559, 0.870448, 0.8773, 0.880078, 0.881052, 0.884952, 0.886802, 0.89101, 0.895092, 0.897801, 0.89959, 0.902961, 0.902998
0.635728, 0.628459, 0.628111, 0.625409, 0.626328, 0.626001, 0.627058, 0.62096, 0.621405, 0.600437, 0.601484, 0.629149, 0.631055, 0.632433, 0.632468, 0.632394, 0.635965, 0.643449, 0.642601, 0.644118, 1.44353, 0.663189, 0.663091, 0.840268, 0.694467, 0.956907, 0.704705, 0.704684, 0.716362, 0.718584, 0.718167, 0.735956, 0.738271, 0.738477, 0.740341, 0.758636, 0.757931, 0.758161, 0.838538, 1.36702, 0.00433911, 0.800669, 0.807712, 0.846402, 0.852595, 0.853518, 0.854323, 0.977856, 1.2586, 1.02296, 1.0227, 0.95989, 1.36746, 1.30296, 0.995303, 0.996063, 0.996601, 0.997431, 0.00448549, 0.00403571, 0.617453, 0.60966, 0.584633, 0.571501, 0.573028, 0.571744, 0.570058, 0.550157, 0.552378, 0.550157, 0.552988, 0.552569, 0.569257, 0.57216, 0.532379, 0.529875, 0.529277, 0.503999, 0.534756, 0.545223, 0.546752, 0.546941, 0.590797, 0.611896, 0.661531, 0.658992, 0.7078, 0.707731, 0.767515, 0.788225, 0.798761, 0.856122, 0.872909, 0.911056, 0.90447, 1.04718, 1.08064, 1.23296, 1.25235, 1.25829, 1.21862, 1.21852, 1.21923, 1.24436, 1.27092, 1.28454, 1.27563, 1.28978, 1.32475, 1.35335, 1.35013, 1.35724, 1.35561, 1.34669, 1.34658, 1.35333, 1.39755, 1.44026, 1.4512, 1.4618, 1.46185, 1.47671, 1.52094, 1.52085, 1.65065, 1.61594, 1.549, 1.64465, 1.62627, 1.59977, 1.56735, 1.56783, 1.63743, 1.62976, 1.58561, 1.52876, 1.53161, 1.53975, 1.56064, 1.5701, 1.56747, 1.57444, 1.58113, 1.57165, 1.57205, 1.621, 1.62025, 1.60166, 1.6028, 1.61983, 1.64459, 1.64755, 1.62323, 1.66636, 1.66697, 1.66953, 1.66903, 1.75173, 1.70225, 1.7023, 1.70149, 1.71485, 1.69991, 1.69987, 1.70098, 1.73434, 1.71852, 1.71647, 1.71636, 1.7161, 1.7147, 1.71674, 1.66105, 1.69306, 1.65186, 1.61805, 1.61702, 1.61824, 1.6418, 1.63123, 1.56673, 1.60779, 1.5308, 1.54264, 1.54763, 1.47802, 1.46968, 1.46862, 1.46251, 1.44335, 1.38764, 1.40176, 1.36883, 1.34755, 1.37941, 1.34363, 1.34382, 1.33645, 1.33681, 1.37804, 1.38185, 1.35123, 1.29204, 1.29301, 1.29241, 1.30969, 1.31616, 1.2567, 1.2565, 1.2576, 1.21886, 1.27621, 1.14883, 1.09935, 1.05586, 1.00174, 0.954602, 0.932186, 0.943718, 0.914675, 0.868267, 0.854089, 0.863574, 0.845147, 0.838853, 0.812706, 0.793874, 0.786248, 0.788148, 0.773717, 0.739516, 0.748979, 0.732324, 0.724343, 0.709174, 0.688425, 0.69205, 0.662294, 0.669791, 0.648019, 0.720893, 0.673443, 0.760274, 0.967388, 0.967385, 0.963784, 0.881365, 0.960507, 0.907639, 0.943035, 1.06912, 0.801807, 1.10378, 0.812892, 0.806828, 0.813173, 0.816952, 0.817864, 0.815683, 0.815259, 1.05642, 0.8053, 0.801277, 0.798334, 0.957104, 0.825415, 0.826419, 0.835454, 0.836494, 1.22053, 0.847746, 0.922999, 0.91519, 1.0632, 1.0618, 0.988852, 0.845703, 0.846905, 0.849089, 0.860323, 0.861667, 0.861013, 0.86403, 0.871432, 0.872215, 0.868825, 0.869718, 0.870239, 0.875423, 0.878476, 0.879765, 0.882607, 0.884524, 0.887321, 0.891209, 0.891742, 0.897766, 0.898491, 0.902727, 0.902103
0.636752, 0.626603, 0.627937, 0.623046, 0.620354, 0.620078, 0.621066, 0.620809, 0.620096, 0.62609, 0.626189, 0.62784, 0.629069, 0.630392, 0.630516, 0.632157, 0.634816, 0.642502, 0.643117, 0.649518, 0.970217, 0.66012, 0.832204, 0.96095, 0.960433, 0.702889, 0.707356, 0.705543, 1.19155, 0.722927, 0.72189, 0.736302, 0.737527, 0.738101, 0.737389, 0.758421, 0.759123, 0.758463, 0.842301, 0.902463, 0.805524, 0.800111, 0.801403, 0.832365, 0.848529, 0.85831, 0.836211, 0.836684, 0.8377, 0.849241, 0.838168, 0.837336, 0.837809, 0.836674, 0.993946, 0.993869, 0.994009, 0.950447, 1.02375, 0.977142, 0.613942, 0.608754, 0.937242, 0.570123, 0.570341, 0.570645, 0.549739, 0.550853, 0.549411, 0.547508, 0.551512, 0.551466, 0.549517, 0.538631, 0.529576, 0.541859, 0.531656, 0.53211, 0.53495, 0.527447, 0.527213, 0.545332, 0.60134, 0.609043, 0.609758, 0.656843, 0.707877, 0.721997, 0.728007, 0.766919, 0.797872, 0.820975, 0.851242, 0.873964, 0.881922, 1.01182, 1.04757, 1.20272, 1.2038, 1.20598, 1.21909, 1.28007, 1.27929, 1.28775, 1.25743, 1.25716, 1.27532, 1.32821, 1.28524, 1.34549, 1.34463, 1.34329, 1.36374, 1.35137, 1.338, 1.36394, 1.41088, 1.41295, 1.43516, 1.51259, 1.48186, 1.51718, 1.49249, 1.48983, 1.54781, 1.5926, 1.52147, 1.52347, 1.56895, 1.57085, 1.57107, 1.62088, 1.61742, 1.62085, 1.52844, 1.52803, 1.54504, 1.54148, 1.55508, 1.56433, 1.5959, 1.57041, 1.57127, 1.57099, 1.57127, 1.58592, 1.63026, 1.58378, 1.59208, 1.61804, 1.61718, 1.63344, 1.63362, 1.76433, 1.66841, 1.66758, 1.65916, 1.66364, 1.72201, 1.70263, 1.71505, 1.71359, 1.71245, 1.6989, 1.70257, 1.71746, 1.71709, 1.71632, 1.72402, 1.72379, 1.78051, 1.64753, 1.64574, 1.64564, 1.6552, 1.61681, 1.6166, 1.59206, 1.59191, 1.60785, 1.63109, 1.53984, 1.53821, 1.51395, 1.51674, 1.47203, 1.48583, 1.46754, 1.43896, 1.39282, 1.42951, 1.35028, 1.345, 1.31909, 1.31902, 1.35479, 1.30272, 1.32061, 1.3257, 1.39952, 1.31203, 1.29318, 1.31065, 1.28586, 1.26035, 1.26051, 1.24669, 1.24074, 1.2612, 1.25309, 1.20602, 1.2116, 1.1924, 1.06732, 1.0088, 0.989526, 0.958218, 0.930519, 0.922874, 0.901768, 0.853452, 0.855878, 0.83466, 0.836182, 0.828867, 0.81571, 0.795964, 0.779337, 0.76169, 0.763322, 0.737954, 0.747164, 0.733789, 0.722234, 0.691225, 0.67669, 0.686467, 0.665573, 0.647225, 0.64715, 0.691422, 0.659219, 0.697325, 0.849511, 0.998201, 1.07766, 0.972893, 0.963745, 0.949049, 1.07048, 0.973741, 0.794825, 1.08032, 0.797756, 0.800432, 0.802209, 0.808018, 0.805423, 0.803785, 1.14805, 1.00568, 0.795415, 1.00795, 0.797721, 0.800573, 0.814887, 1.01214, 0.826379, 0.827106, 0.834665, 0.84211, 1.0005, 0.843848, 1.00707, 0.852166, 0.84171, 0.843226, 0.843907, 0.846414, 0.852132, 0.856939, 0.859322, 0.862338, 0.872798, 0.871505, 0.868554, 0.869258, 0.870496, 0.875988, 0.879109, 0.879272, 0.882864, 0.885104, 0.88698, 0.890674, 0.893536, 0.896123, 0.8973, 0.896126, 0.894924
0.624827, 0.621064, 0.620412, 0.619642, 0.620686, 0.619796, 0.621139, 0.621232, 0.627901, 0.628291, 0.627673, 0.626785, 0.630811, 0.631452, 0.631551, 0.631219, 0.637601, 0.643053, 0.969597, 0.959847, 0.662461, 0.66175, 0.953885, 1.06741, 0.958991, 0.699638, 0.701285, 0.747403, 0.721642, 0.722033, 0.735854, 0.736214, 0.735469, 0.735358, 0.75385, 0.754271, 0.754846, 0.758282, 0.846057, 0.990551, 0.908357, 0.809556, 0.822987, 0.824796, 0.830007, 0.84086, 0.840818, 0.840332, 0.851604, 0.838808, 0.838475, 0.850259, 0.837342, 0.836082, 0.832378, 0.865142, 0.820756, 0.820388, 0.909351, 0.945772, 0.94652, 0.585018, 0.58417, 0.58281, 0.572016, 0.551871, 0.549483, 0.549167, 0.545617, 0.540447, 0.540316, 0.539647, 0.60571, 0.539866, 0.572259, 0.539372, 0.521416, 0.535224, 0.512554, 0.53145, 0.53426, 0.580511, 0.568015, 0.575418, 0.603859, 0.655147, 0.670831, 0.711197, 0.71788, 0.743303, 0.770045, 0.805013, 0.847781, 0.873555, 0.889882, 1.0117, 1.05649, 1.09429, 1.22237, 1.20475, 1.20498, 1.24021, 1.24747, 1.25976, 1.25804, 1.25957, 1.26921, 1.26994, 1.28965, 1.2893, 1.30918, 1.32923, 1.33087, 1.35034, 1.34346, 1.34315, 1.35405, 1.41942, 1.42987, 1.56872, 1.50899, 1.51932, 1.49061, 1.48883, 1.4995, 1.49715, 1.50988, 1.50199, 1.52256, 1.52361, 1.609, 1.61394, 1.58202, 1.57956, 1.57105, 1.5544, 1.55346, 1.55046, 1.54378, 1.59534, 1.57452, 1.59328, 1.61026, 1.57869, 1.57843, 1.63311, 1.63121, 1.59999, 1.58828, 1.5875, 1.5928, 1.5999, 1.63492, 1.67197, 1.70366, 1.7051, 1.70395, 1.65545, 1.68696, 1.68551, 1.72571, 1.75502, 1.74621, 1.69846, 1.71002, 1.7089, 1.72756, 1.72438, 1.72368, 1.72344, 1.74462, 1.63237, 1.63653, 1.60378, 1.59962, 1.59817, 1.59558, 1.59535, 1.59656, 1.63978, 1.57365, 1.56863, 1.53358, 1.50271, 1.495, 1.47034, 1.45549, 1.4604, 1.42201, 1.41322, 1.39569, 1.37171, 1.35024, 1.33703, 1.30957, 1.29877, 1.29851, 1.32979, 1.30889, 1.29853, 1.29065, 1.27021, 1.2647, 1.26341, 1.24021, 1.25736, 1.22708, 1.27211, 1.22017, 1.2475, 1.24495, 1.1639, 1.09484, 1.05058, 1.0074, 0.972449, 0.953759, 0.951325, 0.909294, 0.862974, 0.863268, 0.847629, 0.848361, 0.824439, 0.816329, 0.821922, 0.811536, 0.796613, 0.763858, 0.752864, 0.749577, 0.74192, 0.717051, 0.691484, 0.691879, 0.683314, 0.66464, 0.654997, 0.650284, 0.643773, 0.65265, 0.652967, 0.646832, 0.843354, 0.995085, 1.0023, 0.974905, 0.87142, 0.953864, 1.05646, 0.774655, 0.784208, 0.792621, 0.79458, 0.800165, 0.794554, 0.800415, 0.802528, 0.798613, 0.797223, 0.791832, 0.791728, 1.01028, 1.01462, 0.888079, 1.02316, 0.814187, 0.824847, 0.824475, 0.82736, 0.83606, 1.04368, 0.844752, 0.840757, 0.841464, 0.842624, 0.842207, 0.841985, 0.842518, 0.848581, 0.850216, 0.855462, 0.870798, 0.870477, 0.870027, 0.869852, 0.870917, 0.876585, 0.879641, 0.879704, 0.882348, 0.885481, 0.886666, 0.887139, 0.892592, 0.894715, 0.897655, 0.895294, 0.893803, 0.894503
0.619055, 0.620788, 0.620448, 0.620399, 0.621553, 0.618736, 0.619427, 0.619435, 0.630637, 0.630177, 0.628878, 0.628061, 0.631278, 0.631753, 0.632626, 0.63236, 0.640968, 0.643044, 0.652185, 0.653728, 0.663699, 0.663048, 0.942584, 0.966204, 0.769902, 0.698004, 0.966517, 0.772079, 1.05275, 1.26448, 0.736499, 0.738454, 0.737304, 0.736665, 0.756657, 0.75691, 0.756783, 0.894252, 0.84478, 0.908128, 0.87712, 1.01209, 1.48044, 0.859824, 0.85372, 0.841251, 0.8417, 0.84186, 0.841676, 0.850283, 0.839475, 0.850656, 0.851217, 0.832032, 0.862932, 0.877323, 0.876737, 0.821789, 0.963775, 0.612378, 0.610495, 0.883872, 0.586749, 0.584856, 0.571324, 0.570233, 0.555068, 0.551748, 0.539916, 0.539432, 0.538759, 0.537243, 0.536715, 0.534704, 0.538568, 0.53965, 0.524299, 0.527666, 0.526286, 0.528363, 0.538353, 0.538393, 0.574617, 0.574533, 0.619977, 0.651838, 0.641161, 0.673754, 0.721951, 0.722434, 0.744235, 0.814529, 0.814338, 0.86106, 0.883425, 0.913714, 1.02069, 1.02675, 1.22618, 1.24445, 1.2149, 1.2204, 1.24457, 1.26138, 1.22803, 1.22772, 1.25263, 1.25781, 1.25477, 1.28521, 1.2853, 1.31, 1.34056, 1.3297, 1.3457, 1.34762, 1.37466, 1.37343, 1.42341, 1.38873, 1.47039, 1.46076, 1.47945, 1.46824, 1.48148, 1.48238, 1.49192, 1.50349, 1.50365, 1.62742, 1.58999, 1.5897, 1.58947, 1.58878, 1.59704, 1.67853, 1.56401, 1.56147, 1.57508, 1.56841, 1.6004, 1.59763, 1.61075, 1.58, 1.5787, 1.57874, 1.57835, 1.58784, 1.58831, 1.58835, 1.58806, 1.7348, 1.67909, 1.64158, 1.70773, 1.70404, 1.7048, 1.7056, 1.67588, 1.70425, 1.75761, 1.74847, 1.74583, 1.7006, 1.69903, 1.75541, 1.76255, 1.7263, 1.73074, 1.77128, 1.6323, 1.62838, 1.69638, 1.58787, 1.68596, 1.54865, 1.57251, 1.63679, 1.63659, 1.60405, 1.61073, 1.5285, 1.53124, 1.46043, 1.45912, 1.47476, 1.47389, 1.42623, 1.45041, 1.39795, 1.39189, 1.39261, 1.36063, 1.32736, 1.3283, 1.33106, 1.33017, 1.3074, 1.31746, 1.31752, 1.2442, 1.24867, 1.23326, 1.26064, 1.25344, 1.22793, 1.22659, 1.25024, 1.21036, 1.24282, 1.24459, 1.1539, 1.10769, 1.0212, 1.0142, 0.977563, 0.957911, 0.947114, 0.92146, 0.912183, 0.865226, 0.853366, 0.840229, 0.818857, 0.8165, 0.813984, 0.801025, 0.769999, 0.77167, 0.756077, 0.758151, 0.736656, 0.738964, 0.724993, 0.686062, 0.666768, 0.631928, 0.641042, 0.639573, 0.644735, 0.634618, 0.644034, 0.67804, 0.777925, 0.838827, 1.0062, 0.967994, 0.988171, 0.998628, 1.02661, 0.771458, 1.08815, 0.790463, 0.791538, 0.791983, 0.791223, 1.01986, 0.795492, 0.791387, 0.784239, 0.781117, 0.78205, 0.783605, 0.783416, 0.784454, 1.05348, 0.808505, 0.906085, 0.990987, 0.8243, 0.825571, 0.826223, 0.831864, 1.08573, 0.840811, 0.842057, 0.842105, 0.840585, 0.844459, 0.845808, 0.85157, 0.852408, 0.858543, 0.870335, 0.87053, 0.87099, 0.877151, 0.878141, 0.88026, 0.881799, 0.884768, 0.887411, 0.887737, 0.90084, 0.900931, 0.899753, 0.899933, 0.896179, 0.895765, 0.895912
0.620682, 0.620891, 0.609157, 0.609105, 0.617983, 0.614578, 0.61803, 0.628261, 0.62949, 0.628802, 0.627921, 0.62462, 0.62391, 0.633028, 0.633763, 0.638929, 0.646502, 0.657061, 0.657044, 0.655699, 0.655512, 0.666943, 0.967724, 0.763039, 0.756382, 0.91276, 0.95475, 0.988346, 1.09925, 0.780441, 0.741193, 0.739582, 0.738574, 0.742223, 0.75058, 0.758094, 0.756492, 0.764608, 0.908848, 1.0013, 0.00439227, 1.01227, 1.29542, 0.851023, 0.905643, 0.842531, 0.84107, 0.841504, 0.966252, 0.966179, 0.969814, 1.25864, 0.962868, 0.992068, 0.99094, 1.03901, 1.38205, 0.618342, 0.61612, 0.956297, 0.576418, 0.575929, 0.57341, 0.570527, 0.567674, 0.566666, 0.553341, 0.539451, 0.539539, 0.539611, 0.538306, 0.537857, 0.536395, 0.535522, 0.526437, 0.523739, 0.483495, 0.505452, 0.519436, 0.527724, 0.528358, 0.543596, 0.545832, 0.594246, 0.579268, 0.614992, 0.63918, 0.656201, 0.682369, 0.697834, 0.749694, 0.794465, 0.808983, 0.825932, 0.896422, 0.917356, 0.94629, 0.993557, 1.11284, 1.29597, 1.19932, 1.22701, 1.25391, 1.25551, 1.25571, 1.24022, 1.23759, 1.27807, 1.3265, 1.3107, 1.3005, 1.30539, 1.30351, 1.34238, 1.3451, 1.37858, 1.36919, 1.38135, 1.38732, 1.38447, 1.50546, 1.39511, 1.42672, 1.43385, 1.43259, 1.42634, 1.45319, 1.44404, 1.459, 1.58815, 1.5915, 1.59019, 1.59007, 1.58772, 1.59739, 1.57752, 1.56424, 1.56022, 1.59756, 1.60272, 1.60301, 1.598, 1.60993, 1.61595, 1.60598, 1.58161, 1.58119, 1.5871, 1.58626, 1.58698, 1.58671, 1.60364, 1.73361, 1.63463, 1.72716, 1.72069, 1.66185, 1.66734, 1.73077, 1.71746, 1.72403, 1.71362, 1.75009, 1.71794, 1.67906, 1.67996, 1.68353, 1.72353, 1.76336, 1.76438, 1.64263, 1.62252, 1.67194, 1.66953, 1.55396, 1.55067, 1.55115, 1.63035, 1.62831, 1.61645, 1.49019, 1.4907, 1.49943, 1.45875, 1.45761, 1.45888, 1.46459, 1.41261, 1.41193, 1.40159, 1.37257, 1.37354, 1.34563, 1.34546, 1.31137, 1.31643, 1.28879, 1.31262, 1.31857, 1.26064, 1.24113, 1.232, 1.25818, 1.25877, 1.25359, 1.22967, 1.2437, 1.24296, 1.21981, 1.19137, 1.16095, 1.13044, 1.08947, 1.04022, 1.01943, 0.974405, 0.96852, 0.937242, 0.905649, 0.883347, 0.855607, 0.834698, 0.832975, 0.807557, 0.805923, 0.790848, 0.800678, 0.76966, 0.765293, 0.74887, 0.72434, 0.732913, 0.732852, 0.698458, 0.678502, 0.66757, 0.672159, 0.641824, 0.639095, 0.632598, 0.638342, 0.646145, 0.697362, 0.70422, 0.866492, 0.981608, 0.895769, 0.924274, 1.00242, 0.765763, 0.766559, 0.781434, 0.782212, 0.790155, 0.790347, 0.761717, 0.784845, 1.01805, 0.784833, 0.780633, 0.780679, 0.781143, 0.779154, 0.780511, 0.780577, 0.79769, 1.04251, 1.03106, 1.41368, 0.822579, 0.82195, 0.818696, 0.818999, 0.828269, 0.832597, 0.833427, 0.830109, 0.830595, 0.842623, 0.843354, 0.846478, 0.847773, 0.859134, 0.867768, 0.869746, 0.870641, 0.877365, 0.877125, 0.87849, 0.881933, 0.885847, 0.886543, 0.897994, 0.900142, 0.901851, 0.902703, 0.895288, 0.89528, 0.893925, 0.895329
0.619637, 0.618831, 0.607928, 0.607726, 0.607963, 0.609534, 0.614343, 0.628808, 0.628361, 0.628801, 0.62827, 0.624442, 0.622308, 0.630318, 0.635938, 0.637468, 0.652548, 0.653346, 0.653574, 0.654822, 0.654498, 0.666419, 0.847998, 0.69149, 0.693444, 1.06841, 0.735578, 0.954442, 0.741328, 0.743248, 0.742625, 0.741706, 0.739454, 0.739659, 0.918786, 0.756123, 0.762673, 0.763436, 0.91859, 0.909218, 0.909783, 1.3565, 1.32105, 0.843812, 0.874581, 0.956049, 0.925179, 0.925397, 0.00440821, 1.47218, 0.960375, 0.97994, 0.981026, 1.00278, 1.04332, 0.00431162, 1.38664, 0.616727, 0.616275, 0.615152, 0.575749, 0.576528, 0.572881, 0.572135, 0.565564, 0.565519, 0.552366, 0.539465, 0.540644, 0.538181, 0.537391, 0.534208, 0.532133, 0.532948, 0.524396, 0.529646, 0.484322, 0.513913, 0.511977, 0.536147, 0.535743, 0.528087, 0.535618, 0.567741, 0.567097, 0.603802, 0.632585, 0.649432, 0.667801, 0.69862, 0.739168, 0.733705, 0.778423, 0.815055, 0.831617, 0.886514, 0.940634, 0.959317, 0.996123, 1.0881, 1.22937, 1.21375, 1.22968, 1.22898, 1.23691, 1.2212, 1.2111, 1.21305, 1.30245, 1.25497, 1.27467, 1.32278, 1.31676, 1.38495, 1.36491, 1.3826, 1.38901, 1.36397, 1.40543, 1.38609, 1.38025, 1.3799, 1.39927, 1.41067, 1.39853, 1.39667, 1.41994, 1.42381, 1.50525, 1.62647, 1.63356, 1.58703, 1.59883, 1.59408, 1.59074, 1.58122, 1.56291, 1.61034, 1.60517, 1.6162, 1.59255, 1.61568, 1.59587, 1.5943, 1.59435, 1.61517, 1.58473, 1.58982, 1.59091, 1.59144, 1.58348, 1.63694, 1.62509, 1.64713, 1.64739, 1.64771, 1.64496, 1.645, 1.68475, 1.69377, 1.71538, 1.71374, 1.72982, 1.72817, 1.74866, 1.68133, 1.71363, 1.71466, 1.7032, 1.65539, 1.60921, 1.60327, 1.67041, 1.58164, 1.58255, 1.55461, 1.57872, 1.5302, 1.54395, 1.50341, 1.48291, 1.47308, 1.49469, 1.46134, 1.45353, 1.45136, 1.493, 1.40849, 1.40704, 1.4092, 1.37399, 1.45204, 1.37574, 1.32973, 1.33748, 1.32044, 1.30161, 1.30239, 1.27107, 1.24759, 1.22975, 1.21197, 1.21158, 1.21533, 1.22975, 1.22705, 1.21814, 1.21869, 1.20242, 1.18217, 1.15175, 1.13138, 1.03919, 1.02319, 1.00988, 0.96455, 0.929281, 0.912561, 0.89457, 0.88079, 0.870426, 0.841548, 0.831538, 0.797085, 0.795758, 0.774127, 0.76592, 0.753484, 0.76384, 0.743392, 0.747042, 0.724679, 0.709282, 0.694904, 0.687341, 0.686414, 0.673762, 0.636079, 0.670188, 0.61441, 0.636266, 0.636332, 0.708106, 0.70914, 0.956586, 0.912572, 0.932409, 0.750986, 0.755854, 0.762403, 0.774261, 0.774956, 0.780255, 0.78115, 0.78315, 0.776838, 0.777366, 0.774465, 0.770731, 0.769609, 0.769709, 0.776791, 0.77538, 0.775024, 0.785503, 0.79381, 0.790502, 1.04626, 0.799544, 0.801091, 0.813852, 0.813126, 0.815165, 0.829276, 0.830106, 0.825985, 0.82597, 0.819308, 0.841786, 0.842172, 0.845787, 0.850065, 0.851575, 0.860248, 0.866894, 0.873775, 0.875835, 0.875737, 0.882265, 0.884702, 0.885262, 0.894486, 0.897188, 0.897689, 0.899841, 0.900661, 0.894827, 0.893753, 0.89373, 0.898056
0.614327, 0.607686, 0.607057, 0.60663, 0.610399, 0.608541, 0.614022, 0.627892, 0.629615, 0.628875, 0.629252, 0.627254, 0.626458, 0.629825, 0.636337, 0.638488, 0.652849, 0.653566, 0.655022, 0.654683, 0.669894, 0.671656, 1.01488, 0.692611, 0.692135, 1.06556, 0.710708, 0.759568, 0.742828, 0.744401, 0.743789, 0.741871, 0.74167, 0.740281, 0.745506, 0.897298, 0.774934, 0.784353, 0.783832, 0.912647, 1.19, 0.888185, 0.00450724, 0.854457, 1.19746, 1.30516, 0.953136, 0.992808, 1.03732, 1.46874, 1.06162, 0.963843, 0.987692, 0.967532, 0.968544, 0.625856, 0.62022, 0.614455, 0.616049, 0.991485, 0.573266, 0.567684, 0.566832, 0.567072, 0.565496, 0.564559, 0.553471, 0.541151, 0.54031, 0.539021, 0.537357, 0.531449, 0.531506, 0.53147, 0.5168, 0.521179, 0.494996, 0.497461, 0.496838, 0.524117, 0.52422, 0.539847, 0.542291, 0.544338, 0.572675, 0.590857, 0.621209, 0.627084, 0.644399, 0.677752, 0.712223, 0.717644, 0.770515, 0.809113, 0.808308, 0.871467, 0.936528, 0.937135, 0.956976, 1.02909, 1.1909, 1.23783, 1.3842, 1.29234, 1.23236, 1.24874, 1.25052, 1.21567, 1.21551, 1.23127, 1.26265, 1.27406, 1.27679, 1.37786, 1.37874, 1.36468, 1.36729, 1.36858, 1.37915, 1.39244, 1.37528, 1.3792, 1.37862, 1.37929, 1.38083, 1.39379, 1.4266, 1.47502, 1.47669, 1.57112, 1.57844, 1.58053, 1.57952, 1.57804, 1.62324, 1.61812, 1.61358, 1.60865, 1.60828, 1.60831, 1.61299, 1.65988, 1.61344, 1.62726, 1.65042, 1.58942, 1.59161, 1.59062, 1.59077, 1.58638, 1.58619, 1.61666, 1.62805, 1.7103, 1.72659, 1.64548, 1.63277, 1.65537, 1.58879, 1.65205, 1.64589, 1.62701, 1.67544, 1.65916, 1.64178, 1.64834, 1.64212, 1.61445, 1.61648, 1.63307, 1.61151, 1.62317, 1.60349, 1.55453, 1.55207, 1.53964, 1.5548, 1.52101, 1.51982, 1.49706, 1.49611, 1.45685, 1.45571, 1.46396, 1.50912, 1.48199, 1.5401, 1.49141, 1.54809, 1.45696, 1.45648, 1.42551, 1.436, 1.39114, 1.31693, 1.31558, 1.28452, 1.2993, 1.26082, 1.27463, 1.27409, 1.22296, 1.21534, 1.21499, 1.22981, 1.23307, 1.26715, 1.20261, 1.19454, 1.20457, 1.14274, 1.08932, 1.02783, 1.02048, 0.970489, 0.946599, 0.917339, 0.901058, 0.901147, 0.851439, 0.831214, 0.814877, 0.804946, 0.782073, 0.792395, 0.759278, 0.76693, 0.740481, 0.721798, 0.75658, 0.730063, 0.711976, 0.681716, 0.68379, 0.690344, 0.67428, 0.676247, 0.657518, 0.651042, 0.651018, 0.643364, 0.701871, 0.701843, 0.710901, 0.704406, 0.942145, 0.912052, 0.752337, 0.75467, 0.759314, 0.759722, 0.778484, 0.782174, 0.781045, 1.04048, 0.764229, 0.772852, 0.773494, 0.764457, 0.765131, 0.771651, 0.776517, 0.775868, 0.775667, 0.7892, 0.791035, 0.788518, 0.794714, 0.797408, 0.799416, 0.807391, 0.807888, 0.817221, 0.828213, 0.82119, 0.821604, 0.825822, 0.820296, 0.841715, 0.842038, 0.841211, 0.849171, 0.852327, 1.10243, 1.05183, 0.875329, 0.876383, 0.880983, 0.88203, 0.884352, 0.885363, 0.897482, 0.897751, 0.898312, 0.900533, 0.897447, 0.896978, 0.895731, 0.896447, 0.898096
