0.923882, 0.905727, 0.909429, 0.908545, 0.909182, 0.909801, 0.928303, 0.932201, 0.937184, 0.937237, 0.943252, 0.942858, 0.948005, 0.947838, 0.94741, 0.947362, 0.951599, 0.946747, 1.07351, 0.977847, 0.97428, 0.973471, 0.969943, 0.969126, 0.969282, 0.96664, 0.965468, 0.965602, 1.09813, 1.01626, 1.03033, 1.05055, 0.994185, 0.994675, 1.0192, 0.997429, 1.11187, 1.00976, 1.39541, 1.00147, 1.00977, 1.0114, 1.01217, 1.01521, 1.02483, 1.0258, 1.02724, 1.02857, 1.12237, 0.97843, 0.972094, 0.960861, 0.960124, 0.963116, 0.942679, 0.941518, 0.939191, 0.939699, 0.942897, 0.942593, 0.936118, 0.937578, 0.939357, 0.949024, 0.948429, 0.949802, 0.950585, 0.9374, 0.930847, 0.929579, 0.928284, 0.928435, 0.927775, 0.932312, 0.929031, 0.920247, 0.919752, 0.921463, 0.907754, 0.907703, 0.906055, 0.906252, 0.90909, 0.905932, 0.905365, 0.888348, 0.888077, 0.892986, 0.896214, 0.894253, 0.893067, 0.889865, 0.880498, 0.880592, 0.882006, 0.885321, 0.887539, 0.886954, 0.901086, 0.897163, 0.881294, 0.874805, 0.870401, 0.873556, 0.878304, 0.879965, 0.886766, 0.88843, 0.88862, 0.88878, 0.903661, 0.905677, 0.913202, 0.922418, 0.928772, 1.08498, 0.9094, 0.892819, 0.889327, 0.886064, 0.887722, 0.888981, 0.89162, 0.892372, 0.895994, 0.899687, 0.907295, 0.908015, 0.906697, 0.911665, 0.913436, 0.913357, 0.917529, 0.917794, 0.927952, 0.930342, 0.938587, 0.939476, 0.946038, 1.17125, 0.962392, 0.963924, 0.967703, 0.979082, 0.983863, 0.983351, 0.98668, 0.986367, 0.957155, 0.956169, 0.9553, 0.955898, 0.956606, 0.957975, 0.957405, 0.959456, 0.959952, 0.966503, 0.96839, 0.968115, 0.959152, 0.959019, 0.959743, 0.955853, 0.956349, 0.959972, 0.959495, 0.958548, 0.954998, 0.954445, 0.956194, 0.954518, 0.964286, 0.97661, 0.980979, 0.977679, 0.973243, 0.970189, 0.972546, 0.963779, 0.959683, 0.959777, 0.960532, 0.958577, 0.957628, 0.954775, 0.956014, 0.968457, 0.970307, 0.972562, 0.973601, 0.985735, 0.984083, 0.990999, 0.992532, 0.988728, 0.989641, 0.994338, 1.01823, 1.0189, 1.01858, 1.01979, 1.01887, 1.00988, 1.00995, 1.00918, 1.00194, 1.00157, 0.987472, 0.984007, 0.977114, 0.972314, 0.970911, 0.977016, 0.964758, 0.962486, 0.966155, 0.970643, 0.975153, 0.978017, 0.986587, 0.989883, 0.990355, 0.997996, 1.00122, 1.23393, 1.33957, 1.04265, 1.04159, 1.04362, 1.05057, 1.0688, 1.06861, 1.37961, 1.08619, 1.08957, 1.09396, 1.08718, 1.08878, 1.11172, 1.10994, 1.11052, 1.60068, 1.12324, 1.12528, 1.12443, 1.1484, 1.15305, 1.15869, 1.14682, 1.15395, 1.15384, 1.15418, 1.15451, 1.29066, 1.28815, 1.23706, 1.25663, 1.09935, 1.09929, 1.10119, 1.10439, 1.10628, 1.29472, 1.34154, 1.40563, 1.15448, 1.16363, 1.1656, 1.09543
0.92183, 0.906452, 0.906859, 0.908385, 0.909838, 0.922294, 0.923119, 0.92482, 0.923098, 0.938276, 0.942699, 0.942421, 0.9469, 0.943319, 0.944174, 0.944291, 0.950879, 0.947255, 1.07374, 0.975766, 0.975787, 0.971205, 0.969146, 0.969599, 0.968579, 0.967399, 0.966629, 0.965626, 1.00459, 1.00245, 0.99681, 0.999226, 1.00261, 1.00322, 1.02239, 0.999028, 0.997923, 0.997853, 1.00065, 1.00082, 1.01094, 1.01094, 1.01329, 1.01397, 1.02755, 1.02816, 1.02768, 1.02959, 1.00085, 0.990383, 0.970749, 0.957361, 0.957471, 0.957222, 0.942993, 0.93603, 0.935286, 0.935743, 0.94148, 0.943245, 0.932875, 0.933987, 0.935603, 0.943665, 0.94482, 0.944867, 0.937124, 0.935791, 0.928828, 0.924916, 0.926638, 0.927358, 0.928036, 0.930096, 0.928203, 0.924679, 0.923487, 0.917804, 0.910898, 0.905608, 0.903321, 0.902371, 0.905347, 0.905598, 0.92588, 0.886612, 0.886599, 0.890951, 0.894323, 0.890823, 0.889386, 0.888543, 0.878756, 0.878743, 0.879799, 0.881118, 0.882062, 0.881665, 0.893954, 0.885069, 0.880598, 0.877783, 0.86937, 0.869299, 0.870259, 0.880821, 0.885075, 0.886977, 0.887014, 0.887752, 0.898337, 0.903205, 0.914282, 0.921983, 0.922595, 1.02665, 0.904137, 0.886248, 0.88665, 0.884181, 0.885006, 0.886791, 0.889368, 0.890388, 0.892115, 0.892161, 0.903164, 0.905926, 0.90484, 0.914749, 0.912949, 0.911973, 0.914063, 0.919071, 0.925616, 0.925651, 0.928355, 0.939159, 0.939627, 0.955812, 0.959461, 0.960074, 0.972588, 0.984893, 0.983669, 0.98494, 0.985739, 1.02168, 0.958269, 0.958083, 0.955449, 0.955857, 0.954739, 0.955601, 0.956746, 0.958501, 0.958969, 0.963098, 0.966698, 0.965346, 0.956419, 0.956116, 0.953124, 0.952468, 0.953846, 0.956487, 0.957357, 0.950961, 0.951784, 0.951305, 0.952577, 0.952838, 0.956556, 0.974854, 0.977759, 0.974638, 0.96293, 0.96693, 0.957394, 0.962611, 0.96213, 0.961289, 0.959839, 0.959718, 0.957135, 0.953851, 0.956782, 0.969744, 0.968809, 0.972167, 0.977287, 0.982345, 0.978033, 0.987483, 0.985258, 0.983716, 0.985161, 0.987479, 1.01565, 1.01511, 1.01522, 1.01653, 1.01338, 1.00768, 1.00556, 1.00482, 1.00086, 1.00078, 0.984553, 0.972742, 0.969886, 0.966586, 0.967315, 0.969689, 0.968551, 0.957915, 0.957416, 0.963153, 0.971266, 0.975852, 0.978906, 0.986312, 0.987269, 0.997561, 1.24141, 1.24341, 1.03337, 1.03711, 1.03758, 1.0412, 1.05158, 1.06548, 1.06702, 1.38683, 1.08403, 1.08919, 1.09003, 1.08847, 1.07337, 1.1282, 1.1278, 1.11789, 1.11216, 1.12125, 1.12588, 1.12674, 1.12857, 1.14538, 1.15319, 1.16021, 1.15426, 1.15625, 1.1567, 1.1565, 1.15083, 1.27537, 1.2758, 1.30223, 1.09934, 1.09929, 1.09913, 1.10451, 1.10522, 1.23534, 1.22841, 1.43289, 1.49748, 1.20843, 1.16391, 1.10447
0.907756, 0.905999, 0.904863, 0.912924, 0.912977, 0.915379, 0.918723, 0.919205, 0.918375, 1.11011, 0.95123, 0.950757, 0.946778, 0.939229, 0.94231, 0.949158, 0.946649, 1.07355, 1.07421, 0.980799, 0.979805, 0.973204, 0.969485, 0.969895, 0.967768, 0.96806, 0.97056, 0.972651, 1.41265, 1.00194, 0.997763, 0.999921, 1.00618, 1.00592, 1.00605, 0.998417, 0.998532, 1.00046, 1.00083, 1.00394, 1.00433, 1.01397, 1.01433, 1.01483, 1.02892, 1.02637, 1.02779, 1.03032, 1.00852, 1.00249, 0.964139, 0.958753, 0.956073, 0.95596, 0.946342, 0.93388, 0.935034, 0.935044, 0.935285, 0.942387, 0.934983, 0.934684, 0.933893, 0.944088, 0.94292, 0.942071, 0.936427, 0.936243, 0.922691, 0.923892, 0.922133, 0.927106, 0.92913, 0.932909, 0.926085, 0.92549, 0.923756, 0.911792, 0.909811, 0.899902, 0.898121, 0.900939, 0.895976, 0.897278, 0.890165, 0.886579, 0.884842, 0.890203, 0.891171, 0.889119, 0.889955, 0.890177, 0.87841, 0.878077, 0.877269, 0.880835, 0.883339, 0.883663, 0.888086, 0.887023, 0.883157, 0.87177, 0.87065, 0.872338, 0.875638, 0.880684, 0.881931, 0.886909, 0.887221, 0.886974, 0.895647, 0.901326, 0.920186, 0.921317, 0.921699, 1.08557, 0.891347, 0.886921, 0.885171, 0.884979, 0.884406, 0.884441, 0.886653, 0.887323, 0.889991, 0.894312, 0.90459, 0.906498, 0.90739, 0.914706, 0.915438, 0.912976, 0.914687, 0.916437, 0.925296, 0.926896, 0.936645, 0.942663, 0.942132, 1.23257, 0.961838, 0.963474, 1.26395, 0.984087, 0.984747, 0.985119, 0.985619, 0.963632, 0.963682, 0.957636, 0.959776, 0.959146, 0.9554, 0.955643, 0.955982, 0.95567, 0.958194, 0.962851, 0.962737, 0.962571, 0.956224, 0.955208, 0.954689, 0.951257, 0.953539, 0.958502, 0.960395, 0.954125, 0.949307, 0.947982, 0.95267, 0.954217, 0.957226, 0.972045, 0.973746, 0.973368, 0.962749, 0.963347, 0.958709, 0.962577, 0.962778, 0.961556, 0.957566, 0.959047, 0.956005, 0.954512, 0.951813, 0.968442, 0.969977, 0.974038, 0.980497, 0.981752, 0.977831, 0.979031, 0.983835, 0.984067, 0.983919, 0.987338, 1.02559, 1.01292, 1.01086, 1.01591, 1.00455, 1.00668, 1.00769, 1.00466, 1.0047, 1.00935, 1.21539, 0.973456, 0.966854, 0.965634, 0.964832, 0.969247, 0.968884, 0.955949, 0.956482, 0.957527, 0.968753, 0.971093, 0.977607, 0.985406, 0.985752, 0.994251, 1.00402, 1.24484, 1.24825, 1.03525, 1.03657, 1.04035, 1.04949, 1.14737, 1.07911, 1.3632, 1.08284, 1.08728, 1.08758, 1.14088, 1.06153, 1.06366, 1.13364, 1.10653, 1.1102, 1.12754, 1.13006, 1.13072, 1.13487, 1.20982, 1.49133, 1.15214, 1.15773, 1.15821, 1.15818, 1.15689, 1.28424, 1.29327, 1.20812, 1.25086, 1.10185, 1.102, 1.10284, 1.10543, 1.28074, 1.40402, 1.32009, 1.12929, 1.13027, 1.17177, 1.17127, 1.10436
0.912849, 0.905529, 0.906792, 0.909306, 0.914259, 0.914591, 0.917279, 0.914362, 0.913428, 0.983802, 0.947631, 0.946899, 0.944774, 0.93598, 0.939048, 0.940208, 0.955898, 0.95154, 1.07389, 0.983497, 0.982934, 0.97391, 0.971725, 0.973203, 0.972805, 0.970625, 0.969888, 1.21837, 0.98227, 1.016, 1.00074, 1.00155, 1.00778, 1.00981, 1.0091, 0.998099, 0.997365, 1.00186, 1.00559, 1.00934, 1.01105, 1.01324, 1.01625, 1.01708, 1.02926, 1.03732, 1.03605, 1.03677, 1.01549, 0.994084, 0.963505, 0.95975, 0.955958, 0.954349, 0.938992, 0.935535, 0.936134, 0.935491, 0.936179, 0.930658, 0.935075, 0.935221, 0.935354, 0.945978, 0.94567, 0.943246, 0.935934, 0.935941, 0.925205, 0.921398, 0.92123, 0.924812, 0.93353, 0.936043, 0.934921, 0.926254, 0.924048, 0.91858, 0.91235, 0.900652, 0.898597, 0.895208, 0.896105, 0.897322, 0.893741, 0.886929, 0.884515, 0.890637, 0.889878, 0.888535, 0.889634, 0.890075, 0.878293, 0.878403, 0.87912, 0.886743, 0.886554, 0.886692, 0.897076, 0.897734, 0.88114, 0.881549, 0.867626, 0.867807, 0.876274, 0.88207, 0.882458, 0.89081, 0.884142, 0.884166, 0.902821, 0.902043, 0.908875, 0.918143, 0.946142, 0.898692, 0.892929, 0.887025, 0.88579, 0.881861, 0.881584, 0.882649, 0.885471, 0.888448, 0.892072, 0.896159, 0.908638, 0.906461, 0.912792, 0.914876, 0.91309, 0.912345, 0.912199, 0.915256, 0.92134, 0.928053, 0.941495, 0.940228, 0.942185, 0.9525, 0.963121, 0.965019, 0.972799, 0.98153, 0.990137, 0.989299, 0.987914, 1.03713, 0.962394, 0.959391, 0.961082, 0.958887, 0.954083, 0.953661, 0.952376, 0.95326, 0.958143, 0.962286, 0.95961, 0.959257, 0.950264, 0.953258, 0.952241, 0.95033, 0.951623, 0.956176, 0.959437, 0.958716, 0.945464, 0.946434, 0.953498, 0.954958, 0.954978, 0.972619, 0.972787, 0.972744, 0.965019, 0.964698, 0.958072, 0.961734, 0.963344, 0.963312, 0.957781, 0.954985, 0.956921, 0.956017, 0.963523, 0.968159, 0.969619, 0.971981, 0.981483, 0.980246, 0.979798, 0.978179, 0.984432, 0.98148, 0.983696, 1.26462, 1.24041, 1.0131, 1.01265, 1.01112, 1.0038, 1.00301, 1.00802, 1.00404, 1.00008, 1.00078, 1.21878, 0.977853, 1.21913, 0.963011, 0.963451, 0.968013, 0.969717, 0.957288, 0.955171, 0.955186, 0.969821, 0.971892, 0.976521, 0.988159, 0.986878, 0.998028, 1.00118, 1.25028, 1.25068, 1.03632, 1.03822, 1.0399, 1.07181, 1.05592, 1.12253, 1.09121, 1.09651, 1.0888, 1.1432, 1.06305, 1.05943, 1.06801, 1.14216, 1.13691, 1.13535, 1.12987, 1.12954, 1.13127, 1.13241, 1.14448, 1.49639, 1.15787, 1.16014, 1.16036, 1.16268, 1.17484, 1.15634, 1.28531, 1.28459, 1.12269, 1.10477, 1.10485, 1.10556, 1.11055, 1.27934, 1.27994, 1.31393, 1.13572, 1.13667, 1.13016, 1.16747, 1.15982
0.906862, 0.905053, 0.910638, 0.911526, 0.914544, 0.914743, 0.915764, 0.911544, 0.911541, 0.918113, 0.915684, 0.973661, 0.935491, 0.933754, 0.936584, 0.955716, 0.956096, 0.946337, 1.00764, 0.978805, 0.9775, 0.972409, 0.97108, 0.971606, 0.970912, 0.968388, 0.967901, 1.21246, 1.01281, 0.999307, 1.00237, 1.00303, 1.00953, 1.01016, 1.00854, 0.997974, 0.998191, 0.999219, 1.00512, 1.0079, 1.00837, 1.01527, 1.01548, 1.02888, 1.03659, 1.03828, 1.03588, 1.0362, 1.01909, 0.978246, 1.29049, 0.956653, 0.955686, 0.954866, 0.933681, 0.933949, 0.937108, 0.936921, 0.928719, 0.929233, 0.935147, 0.935631, 0.935297, 0.94261, 0.941874, 0.936831, 0.935719, 0.93279, 0.920192, 0.920418, 0.921386, 0.922926, 0.934804, 0.935809, 0.935229, 0.929487, 0.928087, 0.916855, 0.913629, 0.901504, 0.901053, 0.89368, 0.8936, 0.896263, 0.896036, 0.883411, 0.883178, 0.883468, 0.887194, 0.885854, 0.887273, 0.888561, 0.87993, 0.879553, 0.879314, 0.883679, 0.883975, 1.17297, 0.901447, 0.900746, 0.883788, 0.882482, 0.863515, 0.864545, 0.865499, 0.889108, 0.889532, 0.888063, 0.886649, 0.883779, 0.898098, 0.899099, 0.904696, 0.912441, 0.91265, 0.949715, 0.891542, 0.88603, 0.884929, 0.881324, 0.881227, 0.879288, 0.883968, 0.888073, 0.889018, 0.892714, 0.912676, 0.91353, 0.913147, 0.912761, 0.912816, 0.911549, 0.912108, 0.913374, 0.916725, 1.22183, 0.939109, 0.941147, 0.944175, 0.94985, 0.962523, 0.963056, 0.975616, 0.983308, 0.988102, 0.986244, 0.987197, 0.956613, 0.956794, 0.958096, 0.959274, 0.955805, 0.951948, 0.950576, 0.951388, 0.952829, 0.954714, 0.954754, 0.955604, 0.954864, 0.953591, 0.951344, 0.952681, 0.948352, 0.94999, 0.953891, 0.954667, 0.953691, 0.946483, 0.943631, 0.951332, 0.951154, 0.952726, 0.968452, 0.968863, 0.971401, 0.962509, 0.955499, 0.956788, 0.959942, 0.959769, 0.958953, 0.953348, 0.952042, 0.955708, 0.957628, 0.963337, 0.969683, 0.966608, 0.967439, 0.96864, 0.973811, 0.974349, 0.977092, 0.97939, 0.980886, 0.984626, 0.990644, 0.992341, 1.00868, 1.01068, 1.00944, 1.00754, 1.00158, 1.00332, 1.00367, 0.995263, 0.99788, 0.985082, 1.22117, 0.969851, 0.960385, 0.961301, 0.963978, 0.968817, 0.951359, 0.951786, 0.953091, 0.965076, 0.969408, 0.980197, 0.985663, 0.98759, 0.989265, 1.00198, 1.24704, 1.47912, 1.03669, 1.03806, 1.04271, 1.04476, 1.04174, 1.10931, 1.09825, 1.09895, 1.09148, 1.14759, 1.05334, 1.05423, 1.06607, 1.0696, 1.14987, 1.14281, 1.12971, 1.12986, 1.13272, 1.16183, 1.46128, 1.14981, 1.17378, 1.16041, 1.16324, 1.16505, 1.16181, 1.21851, 1.2993, 1.29834, 1.20895, 1.11199, 1.10675, 1.108, 1.11493, 1.12056, 1.18096, 1.1608, 1.13385, 1.13555, 1.55088, 1.11331, 1.12538
0.906829, 0.907746, 0.910394, 0.910526, 0.914411, 0.91464, 0.906868, 0.907519, 0.910387, 0.91067, 0.910946, 0.914387, 0.928738, 0.925824, 0.935731, 0.953538, 0.945804, 0.945438, 0.970262, 0.970927, 0.987855, 0.969882, 0.970131, 0.970908, 0.969788, 0.964484, 0.965146, 0.967477, 1.00897, 1.01031, 1.00099, 1.0032, 1.00994, 1.00893, 1.00583, 0.994675, 0.994598, 0.994875, 0.99725, 1.00498, 1.00482, 1.00995, 1.21898, 1.03609, 1.03511, 1.03549, 1.03875, 1.03455, 1.02529, 0.964808, 0.943116, 0.947683, 0.94765, 0.949202, 0.937763, 0.934377, 0.935096, 0.936012, 0.921996, 0.923975, 0.928601, 0.929257, 0.939585, 0.941102, 0.941759, 0.932929, 0.93521, 0.929734, 0.921735, 0.918973, 0.91916, 0.927085, 0.932007, 0.932612, 0.932053, 0.92912, 0.925581, 0.915046, 0.911297, 0.902141, 0.900938, 0.89133, 0.891626, 0.893202, 0.893654, 0.881683, 0.883137, 0.882251, 0.886824, 0.883134, 0.88481, 0.886546, 0.880024, 0.878501, 0.877151, 0.878038, 0.882737, 0.882479, 0.900489, 0.901731, 0.883853, 0.883133, 0.860136, 0.861989, 0.864659, 0.887629, 0.887996, 0.887887, 0.884118, 0.884476, 0.89396, 0.897245, 0.900008, 0.897525, 0.899312, 0.898236, 0.886138, 0.885925, 0.882442, 0.880119, 0.877661, 0.878272, 0.879116, 0.883987, 0.887881, 0.891227, 0.911209, 0.910957, 0.910696, 0.908988, 0.909083, 0.910132, 0.910731, 0.911494, 0.918995, 0.926974, 0.934397, 0.941107, 0.942747, 0.954262, 1.19981, 0.966371, 0.973409, 0.980579, 0.982917, 0.98292, 0.953476, 0.956182, 0.95147, 0.954672, 0.952781, 0.947885, 0.950061, 0.949353, 0.949457, 0.949912, 0.95195, 0.953094, 0.950083, 0.950543, 0.952872, 0.951905, 0.951792, 0.945712, 0.946133, 0.949002, 0.94604, 0.946375, 0.943608, 0.940348, 0.948497, 0.950122, 0.949709, 0.969852, 0.968469, 0.970009, 0.959089, 0.952602, 0.953098, 0.951569, 0.951741, 0.956214, 0.941668, 0.942881, 0.948624, 0.957003, 0.961543, 0.968555, 0.966396, 0.965776, 0.969319, 0.970075, 0.970749, 0.976023, 0.977127, 0.979405, 0.984954, 0.989215, 0.995693, 0.998695, 1.00414, 1.00525, 1.00631, 1.00161, 1.00137, 1.28735, 1.29071, 1.01914, 0.978905, 0.977537, 0.966401, 0.960364, 0.959104, 0.96323, 0.966378, 0.95311, 0.952148, 0.953309, 0.954227, 0.971961, 0.975226, 0.985495, 0.986379, 0.988505, 1.00372, 1.47769, 1.03408, 1.03703, 1.04223, 1.04205, 1.04139, 1.04226, 1.04312, 1.1006, 1.10358, 1.11249, 1.0657, 1.06726, 1.07013, 1.13365, 1.14216, 1.1341, 1.13617, 1.12714, 1.12971, 1.15416, 1.14768, 1.16814, 1.1565, 1.15744, 1.16087, 1.1617, 1.16343, 1.16209, 1.16034, 1.27858, 1.31568, 1.30655, 1.30822, 1.23157, 1.28864, 1.11839, 1.31561, 1.32116, 1.26039, 1.13733, 1.1499, 1.60393, 1.28112, 1.45777
0.908087, 0.910042, 0.910906, 0.911091, 0.915982, 0.914702, 0.909176, 0.906583, 0.907955, 0.908489, 0.909147, 0.924945, 0.923105, 0.924557, 1.28548, 0.936177, 0.940755, 0.94307, 0.969607, 0.972921, 1.27318, 0.967715, 0.967702, 0.970261, 0.969626, 0.966523, 0.965652, 1.01938, 1.00214, 1.01893, 1.00066, 1.00181, 1.00804, 1.04594, 1.00125, 0.992532, 0.994269, 0.993766, 0.994783, 1.00324, 1.00427, 1.00546, 1.00988, 1.04647, 1.10111, 0.944345, 1.09184, 0.971147, 1.03227, 0.958401, 1.21587, 0.943869, 0.940042, 0.945842, 0.937606, 0.934545, 0.935347, 0.920263, 0.92143, 0.923642, 0.929428, 0.930145, 0.932472, 0.936218, 0.938786, 0.935671, 0.928878, 0.927543, 0.925359, 0.918751, 0.919062, 0.929184, 0.929317, 0.931818, 0.932293, 0.929611, 0.912691, 0.913769, 0.911343, 0.90474, 0.88727, 0.888142, 0.886934, 0.894218, 0.894374, 0.883346, 0.882289, 0.883726, 0.883926, 0.88257, 0.885497, 0.88486, 0.879444, 0.879811, 0.878127, 0.878568, 0.882283, 1.17589, 0.898223, 0.892106, 0.881214, 0.880408, 0.865149, 0.864425, 0.866076, 0.884177, 0.885313, 0.883577, 0.882248, 0.884772, 0.890258, 0.891753, 0.897263, 0.898022, 0.899335, 0.889272, 0.884536, 0.883005, 0.881483, 0.879281, 0.876335, 0.875787, 0.879655, 0.881776, 0.886861, 0.889312, 0.957474, 0.900441, 0.905008, 0.908625, 0.910064, 0.913796, 0.911207, 0.912387, 0.924936, 0.942112, 0.936524, 0.942251, 0.943545, 0.949905, 0.956238, 0.970352, 0.971982, 0.976377, 0.976745, 0.956007, 0.956279, 0.955971, 0.94763, 0.951013, 0.950159, 0.946394, 0.945148, 0.941316, 0.950472, 0.950769, 0.951524, 0.949305, 0.94801, 0.947508, 0.951361, 0.951604, 0.950778, 0.950682, 0.949754, 0.949059, 0.946155, 0.946232, 0.93968, 0.938737, 0.948593, 0.949077, 0.949564, 0.971761, 0.972794, 0.973256, 0.952547, 0.95067, 0.950188, 0.950696, 0.95061, 0.952452, 0.940066, 0.940791, 0.942393, 0.963095, 0.970179, 0.970324, 0.968873, 0.96694, 0.968137, 0.969259, 0.970945, 0.973169, 0.976421, 0.980076, 0.986568, 0.987919, 0.992151, 0.998316, 1.00284, 1.00554, 1.00728, 1.00662, 1.03471, 0.976244, 0.973885, 0.973677, 0.980099, 0.978139, 1.14288, 0.960948, 0.96086, 0.960613, 0.967365, 0.96139, 0.954568, 0.954711, 0.95467, 0.970816, 0.974274, 0.986964, 0.986943, 0.987378, 1.23307, 1.47608, 1.4786, 1.05071, 1.04307, 1.04544, 1.04342, 1.04242, 1.04333, 1.04902, 1.05598, 1.05586, 1.06081, 1.06733, 1.06941, 1.13292, 1.13469, 1.12714, 1.12318, 1.14764, 1.143, 1.14759, 1.15055, 1.15134, 1.24449, 1.24347, 1.1613, 1.16408, 1.16444, 1.16363, 1.2621, 1.27875, 1.22898, 1.30672, 1.30829, 1.31492, 1.31698, 1.12562, 1.31698, 1.27071, 1.30864, 1.47606, 1.16929, 1.63809, 1.21281, 1.12608
0.908079, 0.908873, 0.91105, 0.911115, 0.915706, 0.917543, 0.911008, 0.911096, 0.907002, 0.902532, 0.901478, 0.922813, 0.923014, 0.924439, 0.940845, 0.941407, 0.938371, 0.966899, 0.965493, 0.954167, 0.95409, 0.954163, 0.96895, 0.969288, 0.969965, 0.961424, 0.965466, 0.965347, 0.959152, 0.997021, 0.00454248, 1.00735, 1.0363, 1.00864, 1.00417, 0.98872, 0.990027, 0.993852, 1.00063, 1.00411, 1.00348, 1.00402, 1.01547, 1.0172, 0.941351, 0.942488, 0.944776, 0.959766, 0.954553, 0.955692, 1.22055, 0.935837, 0.935181, 0.937312, 0.937151, 0.93548, 0.934791, 0.915978, 0.916412, 0.915387, 0.930865, 0.931908, 0.93274, 0.932217, 0.932622, 0.932725, 0.929262, 0.92888, 0.929495, 0.926194, 0.926273, 0.9286, 0.930656, 0.931811, 0.932032, 0.932334, 0.924001, 0.915135, 0.913828, 0.904965, 0.89586, 0.88702, 0.888111, 0.889446, 0.889927, 0.883764, 0.88455, 0.884054, 0.883219, 0.880992, 0.890126, 0.890546, 0.882186, 0.881802, 0.879294, 0.882215, 0.883107, 0.895898, 0.897318, 0.897334, 0.887181, 0.886114, 0.870035, 0.869446, 0.881685, 0.884144, 0.882427, 0.882637, 0.881476, 0.884629, 0.88595, 0.887532, 0.894393, 0.894426, 0.89531, 0.894044, 0.887921, 0.881968, 0.882524, 0.879335, 0.876395, 0.878015, 0.879866, 0.885709, 0.886598, 0.890747, 0.894375, 0.902002, 0.90445, 0.906164, 0.912929, 0.913543, 0.913355, 0.919383, 0.930259, 0.933375, 0.936664, 0.943892, 0.945802, 0.951498, 0.960982, 0.963939, 0.974091, 0.974424, 0.965409, 0.956564, 0.956978, 0.943192, 0.945731, 0.952174, 0.943555, 0.94311, 0.940693, 0.938514, 0.940165, 0.943002, 0.947947, 0.947571, 0.945748, 0.94649, 0.95284, 0.952597, 0.956903, 0.950535, 0.949412, 0.948829, 0.946384, 0.947037, 0.9361, 0.936307, 0.943978, 0.948234, 0.948991, 0.952619, 0.971364, 0.972337, 0.956517, 0.950255, 0.950241, 0.950958, 0.944348, 0.949518, 0.944467, 0.944759, 0.945592, 0.973248, 0.972691, 0.973449, 0.964351, 0.965586, 0.968055, 0.970161, 0.973784, 0.972899, 0.973536, 0.975862, 0.985746, 0.987505, 0.989626, 0.999813, 1.00218, 1.00292, 1.00659, 0.997183, 0.985925, 0.97536, 0.972896, 0.971603, 0.97737, 0.977317, 0.971739, 0.963055, 0.963599, 0.963208, 0.967065, 0.956485, 0.953614, 0.953619, 0.955868, 0.971378, 0.975338, 0.985898, 0.987138, 0.987266, 1.00817, 1.00985, 1.50212, 1.0426, 1.04569, 1.04551, 1.04429, 1.04456, 1.04721, 1.04836, 1.05262, 1.05538, 1.0568, 1.06108, 1.13935, 1.48661, 1.26882, 1.6132, 1.46809, 1.53638, 1.14778, 1.14796, 1.15286, 1.15291, 1.20626, 1.198, 1.19849, 1.50547, 1.18695, 1.19672, 1.20309, 1.29289, 1.21694, 1.23049, 1.21202, 1.30767, 1.13481, 1.23629, 1.21525, 1.43114, 1.18777, 1.21189, 1.20882, 1.22777, 1.1414, 1.12181
0.910228, 0.910149, 0.910644, 0.909945, 0.918551, 0.91798, 0.911322, 0.910924, 0.910289, 0.89937, 0.904076, 0.921425, 0.921831, 0.927513, 0.941491, 0.94123, 0.940955, 0.966669, 0.956524, 0.956618, 0.956905, 0.960948, 0.966825, 0.968051, 0.968286, 0.963137, 0.964555, 0.956778, 0.957453, 1.05287, 0.980464, 1.05188, 1.0315, 1.00144, 1.00497, 0.988064, 0.987613, 0.991641, 0.99722, 0.997927, 1.0052, 1.00559, 1.01662, 1.01728, 1.10248, 0.94561, 0.948243, 0.948733, 0.952469, 0.952246, 0.936742, 0.930407, 0.930839, 0.935316, 0.935954, 0.93493, 0.935096, 0.935885, 0.916978, 0.914369, 0.929902, 0.929782, 0.934393, 0.932549, 0.931489, 0.93224, 0.933789, 0.931878, 0.932185, 0.927509, 0.927956, 0.931181, 0.929216, 0.926765, 0.929916, 0.928571, 0.918315, 0.919099, 0.910978, 0.90501, 0.901079, 0.893533, 0.891453, 0.89084, 0.88864, 0.883439, 0.881804, 0.881794, 0.88218, 0.87947, 0.887291, 0.886711, 0.882231, 0.881695, 0.879878, 0.88308, 0.882116, 0.883711, 0.896194, 0.893748, 0.88952, 0.887944, 0.877203, 0.874926, 0.883416, 0.883247, 0.87996, 0.879833, 0.881246, 0.881794, 0.883401, 0.884801, 0.890289, 0.891335, 0.892651, 0.893849, 0.883129, 0.881172, 0.878948, 0.878611, 0.876798, 0.876161, 0.877363, 0.882822, 0.883895, 0.887928, 0.89046, 0.899894, 0.904791, 0.910964, 0.915715, 0.914252, 0.918911, 0.91892, 0.931039, 0.934261, 0.938175, 0.94355, 0.944706, 0.946787, 0.956512, 0.961415, 0.972916, 0.973375, 0.959606, 0.957474, 0.949332, 0.948669, 0.945525, 0.945591, 0.941841, 0.937764, 0.935995, 0.934089, 0.939084, 0.942774, 0.946207, 0.946103, 0.942334, 0.944109, 0.949306, 0.953634, 0.956779, 0.95772, 0.945986, 0.949599, 0.949015, 0.939205, 0.933853, 0.93876, 0.94419, 0.94458, 0.946408, 0.948691, 0.969707, 0.957844, 0.954385, 0.948696, 0.950055, 0.950113, 0.93894, 0.943148, 0.943882, 0.945406, 0.946468, 0.966558, 0.970275, 0.972556, 0.963648, 0.964102, 0.970116, 0.973964, 0.97279, 0.974619, 0.971288, 0.973442, 0.978618, 0.987549, 0.989026, 0.997157, 0.998163, 0.998148, 0.995326, 0.990746, 0.993138, 1.24276, 0.96978, 0.970602, 0.975183, 0.976542, 0.965549, 0.962001, 0.956679, 0.96169, 0.973491, 0.973385, 0.952856, 0.9518, 0.969816, 0.971004, 0.977189, 0.983474, 0.987294, 0.989145, 1.00014, 1.00883, 1.43931, 1.04043, 1.0438, 1.0497, 1.05361, 1.05391, 1.05634, 1.04917, 1.0565, 1.05721, 1.05834, 1.38991, 1.47234, 1.47371, 1.1318, 1.13216, 1.12945, 1.44685, 1.14888, 1.14906, 1.15325, 1.15449, 1.16479, 0.00448176, 0.00448126, 1.20295, 1.18812, 1.19706, 0.00443061, 1.27201, 1.32662, 1.20984, 1.20981, 1.28478, 1.21849, 1.28685, 1.26342, 1.14794, 1.20489, 1.20227, 1.52792, 1.55383, 1.27043, 1.21658
0.91125, 0.908792, 0.908811, 0.911043, 0.919287, 0.919232, 0.911631, 0.909225, 0.909501, 0.900172, 0.90071, 0.918783, 0.921067, 0.926593, 0.940767, 0.938629, 0.935737, 0.935628, 0.956216, 0.956367, 0.956937, 0.967363, 0.967425, 0.969407, 0.972125, 0.971284, 0.957771, 0.957706, 0.957235, 0.963213, 0.963435, 0.988492, 1.00262, 1.00967, 1.02573, 0.986293, 0.98634, 0.987092, 1.02214, 1.01818, 1.00911, 1.00938, 1.01031, 1.01081, 0.96182, 0.950589, 0.946487, 0.947188, 0.950636, 0.950356, 0.935602, 0.925955, 0.92626, 0.934808, 0.935196, 0.933917, 0.933255, 0.933943, 0.929528, 0.931741, 0.929069, 0.928712, 0.929968, 0.929149, 0.928936, 0.928976, 0.932283, 0.931626, 0.933081, 0.93012, 0.928916, 0.928132, 0.921779, 0.921338, 0.926806, 0.926176, 0.915523, 0.913245, 0.906903, 0.90686, 0.898884, 0.896311, 0.896061, 0.892165, 0.884028, 0.883458, 0.880357, 0.879375, 0.880121, 0.878897, 0.884935, 0.884489, 0.878321, 0.874877, 0.873441, 0.881368, 0.879982, 0.882508, 0.892629, 0.89181, 0.889883, 0.884109, 0.874479, 0.874478, 0.884539, 0.883173, 0.879208, 0.879499, 0.877927, 0.880056, 0.881162, 0.8834, 0.8885, 0.889392, 0.890317, 0.887157, 0.881497, 0.879766, 0.875394, 0.875214, 0.873298, 0.873627, 0.878705, 0.884005, 0.881883, 1.14644, 0.904237, 0.904452, 0.905738, 0.910097, 0.914063, 0.91499, 0.919297, 0.920438, 0.933753, 0.934414, 0.940058, 0.943871, 0.943796, 0.944474, 0.951126, 0.959776, 0.968165, 0.970399, 0.952635, 0.952849, 0.946833, 0.945958, 0.943801, 0.935722, 0.933431, 0.929123, 0.930268, 0.93101, 0.934134, 0.934574, 0.940072, 0.942139, 0.935972, 0.942595, 0.943689, 0.95304, 0.952961, 0.956776, 0.946035, 0.946694, 0.949103, 0.934944, 0.932531, 0.935837, 0.943013, 0.942744, 0.941959, 0.945164, 1.00488, 0.949213, 0.947369, 0.948622, 0.949024, 0.937318, 0.937152, 0.941352, 0.944335, 0.944716, 0.94796, 0.950864, 0.966711, 0.967439, 0.961845, 0.963323, 0.967579, 0.974909, 0.975983, 0.972288, 0.971154, 0.970925, 0.976615, 0.978198, 0.988534, 0.994811, 0.997097, 0.995485, 0.988877, 0.988829, 0.989235, 0.972625, 0.970002, 0.970662, 0.974549, 0.975208, 0.971917, 0.960647, 0.9597, 0.961478, 0.971049, 0.971245, 0.951872, 0.948112, 1.20647, 0.970693, 0.975526, 0.98525, 0.98598, 0.989815, 0.998828, 0.999672, 1.04089, 1.06072, 1.04603, 1.05163, 1.05153, 1.05647, 1.05452, 1.05469, 1.0561, 1.05572, 1.13765, 1.17519, 1.13882, 1.12186, 1.11918, 1.12747, 1.13331, 1.15695, 1.14291, 1.14961, 1.14961, 1.16002, 1.16071, 1.50343, 1.56904, 1.19873, 1.19517, 1.23333, 1.24019, 1.25514, 1.25706, 1.31217, 1.2466, 1.17859, 1.29893, 1.17173, 1.18967, 1.1884, 1.15954, 1.15939, 1.15565, 1.58879, 1.30874, 1.18758
0.906544, 0.907066, 0.909219, 0.91006, 0.921697, 0.918857, 0.912982, 0.910391, 0.90836, 0.904662, 0.906257, 0.918255, 0.918218, 1.15345, 0.939473, 0.932377, 0.933556, 1.01932, 0.956916, 0.956339, 0.958081, 0.965066, 0.967116, 0.971229, 0.971885, 0.971513, 1.19169, 0.955156, 0.955568, 0.955657, 0.964773, 0.964227, 0.961755, 1.01131, 1.00824, 0.991658, 0.980304, 0.982225, 1.00134, 1.01778, 1.00968, 1.00799, 1.00935, 1.01149, 0.958371, 0.958544, 0.949056, 0.945602, 0.946667, 0.944434, 0.933594, 0.923402, 0.923428, 0.934064, 0.936151, 0.93425, 0.934897, 0.935083, 0.933669, 0.931924, 0.932379, 0.930564, 0.927703, 0.929959, 0.928673, 0.926845, 0.927687, 0.928477, 0.928128, 0.929205, 0.926821, 0.922027, 0.918665, 0.919645, 0.923977, 0.918335, 0.914389, 0.907091, 0.906872, 0.904395, 0.899245, 0.895977, 0.895135, 0.883997, 0.881684, 0.878461, 0.877519, 0.877354, 0.874687, 0.879387, 0.885535, 0.885201, 0.872279, 0.871606, 0.870801, 0.879012, 0.88011, 0.881403, 0.891167, 0.891229, 0.894064, 0.885901, 0.87694, 0.876261, 0.88552, 0.884362, 0.879818, 0.876201, 0.873649, 0.876997, 0.878882, 0.882224, 0.888626, 0.889073, 0.890115, 0.888445, 0.880734, 0.877824, 0.876981, 0.874962, 0.871671, 0.873898, 0.878349, 0.881198, 0.880589, 0.883577, 0.901133, 0.904678, 0.905174, 0.907411, 0.912707, 0.91474, 0.919713, 0.920869, 0.930931, 0.932756, 0.93714, 0.942939, 0.942889, 0.943857, 0.956094, 0.95705, 0.957893, 0.959861, 0.947576, 0.949369, 0.947513, 0.944726, 0.941153, 0.929081, 0.929413, 0.92844, 0.927506, 0.92843, 0.931964, 0.934201, 0.935474, 0.934417, 0.93282, 0.935712, 0.939077, 0.951293, 0.955225, 0.956276, 0.946518, 0.943813, 0.946313, 0.93352, 0.93286, 0.934789, 0.941435, 0.938623, 0.938141, 0.950572, 0.945478, 0.946027, 0.947127, 0.948854, 0.949448, 0.93848, 0.936801, 0.943459, 0.945668, 0.943899, 0.945957, 0.945977, 0.948298, 0.966133, 0.963048, 0.962765, 0.963578, 0.977383, 0.978262, 0.980542, 0.969881, 0.969911, 0.974948, 0.97901, 0.983407, 0.992882, 0.993727, 0.986545, 0.984813, 0.986917, 0.988103, 0.969761, 0.968928, 0.971835, 0.973187, 0.973465, 0.971067, 0.956858, 0.95822, 0.959791, 0.973568, 0.973543, 0.953531, 0.952187, 0.951152, 0.972236, 0.973603, 0.983756, 0.985377, 0.990149, 0.996684, 1.00842, 1.03596, 1.09969, 1.07138, 1.05269, 1.05591, 1.05677, 1.05772, 1.05767, 1.06474, 1.13007, 1.14694, 1.16666, 1.47396, 1.12297, 1.11847, 1.11697, 1.12665, 1.12854, 1.142, 1.14748, 1.14862, 1.1815, 1.18144, 1.19147, 1.20609, 1.19668, 1.19839, 1.1982, 1.19928, 1.20486, 1.18471, 1.19868, 1.21863, 1.24066, 1.19245, 1.42356, 1.16445, 1.16804, 1.16051, 1.16116, 1.15709, 1.53683, 1.33607, 1.14345
0.908451, 0.9102, 0.910759, 0.912242, 0.922188, 0.921214, 0.913433, 0.912624, 0.911388, 0.9079, 0.922727, 0.921456, 0.922242, 0.945072, 0.943978, 0.935599, 0.934303, 0.934965, 0.954116, 0.956781, 0.958577, 0.967072, 0.967988, 0.970303, 0.972337, 0.984289, 0.954494, 0.95285, 0.95218, 0.958221, 0.959114, 0.959153, 0.959368, 0.961292, 0.988374, 0.97111, 0.978342, 0.980078, 0.983414, 1.00424, 1.00557, 1.01095, 1.01127, 1.01259, 1.08569, 0.956387, 0.955329, 0.945642, 0.943374, 0.939943, 0.921758, 0.920415, 0.919839, 0.935475, 0.935884, 0.932289, 0.934732, 0.935301, 0.930182, 0.928961, 0.934788, 0.935291, 0.926035, 0.926142, 0.92128, 0.926022, 0.92701, 0.922491, 0.922056, 0.930249, 0.925885, 0.913167, 0.911171, 0.907822, 0.91258, 0.916154, 0.912402, 0.90912, 0.906131, 0.906477, 0.895831, 0.893814, 0.883376, 0.880673, 0.879296, 0.878873, 0.877904, 0.877822, 0.872332, 0.872604, 0.883125, 0.883309, 0.871858, 0.868771, 0.868321, 0.869329, 0.877414, 0.879137, 0.891519, 0.893812, 0.894615, 0.888225, 0.884928, 0.885805, 0.890999, 0.890002, 0.879595, 0.876582, 0.874247, 0.875253, 0.879235, 0.880471, 0.887495, 0.890183, 0.888217, 0.888867, 0.885263, 0.884857, 0.87723, 0.877112, 0.872972, 0.873491, 0.880175, 0.880294, 0.880957, 0.882902, 0.903873, 0.903898, 0.905029, 0.908389, 0.914725, 0.91606, 0.920425, 0.923978, 0.929265, 0.934951, 0.936096, 0.940128, 0.942817, 0.949146, 0.956985, 0.957666, 0.959116, 0.959302, 0.950675, 0.946964, 0.94313, 0.940637, 0.940193, 0.926842, 0.930138, 0.931855, 0.927636, 0.929333, 0.930538, 0.93389, 0.935599, 0.935542, 0.931174, 0.931782, 0.932698, 0.948792, 0.95401, 0.953951, 0.954713, 0.943824, 0.943684, 0.932468, 0.928449, 0.928353, 0.93987, 0.934086, 0.937662, 0.938514, 0.945453, 0.94912, 0.94753, 0.947705, 0.946625, 0.933617, 0.933456, 0.939941, 0.940233, 0.946579, 0.945457, 0.944911, 0.952688, 0.969083, 0.970225, 0.967773, 0.967882, 0.975731, 0.979796, 0.980712, 0.970047, 0.970726, 0.974445, 0.980326, 0.983405, 0.99188, 0.9919, 0.985028, 0.986331, 0.987029, 0.987405, 0.973158, 0.970366, 0.970202, 0.970872, 0.970914, 0.961431, 0.962507, 0.962385, 0.963961, 0.973356, 0.973965, 0.951461, 0.951193, 0.950944, 0.971469, 0.976996, 0.970262, 0.98877, 0.991275, 0.997886, 1.00991, 1.29939, 1.04739, 1.05041, 1.05386, 1.05729, 1.05872, 1.05922, 1.06685, 1.07782, 1.08153, 1.08282, 1.09922, 1.12479, 1.11225, 1.11314, 1.12153, 1.12363, 1.12947, 1.16303, 1.14706, 1.15419, 1.52708, 1.17902, 1.52331, 1.18966, 1.1907, 1.19755, 1.19751, 1.19669, 1.21606, 1.26113, 1.29649, 1.16735, 1.16652, 1.16699, 1.16799, 1.16714, 1.16742, 1.16345, 1.16112, 1.4199, 1.54072, 1.1565, 1.27248
0.910006, 0.912913, 0.912707, 0.912253, 0.922289, 0.921886, 0.919384, 0.916046, 0.919102, 0.920509, 0.929397, 0.922755, 0.923009, 0.945142, 0.944721, 0.934149, 0.934038, 1.023, 0.953476, 0.954686, 0.957541, 0.967093, 0.965383, 0.963659, 0.961259, 0.958424, 0.953154, 0.952481, 0.953323, 0.956335, 0.959586, 0.960077, 0.95829, 0.958646, 0.961402, 0.996053, 0.979326, 0.979958, 1.00917, 1.0141, 1.00452, 1.00522, 1.01372, 1.15388, 1.13437, 1.10156, 0.941439, 0.940566, 0.939522, 0.925422, 0.918791, 0.919614, 0.923053, 0.932125, 0.931947, 0.932287, 0.934335, 0.932994, 0.925182, 0.926194, 0.935092, 0.938616, 0.935527, 0.921372, 0.921724, 0.924495, 0.924811, 0.923405, 0.923277, 0.927564, 0.925729, 0.924896, 0.903043, 0.904136, 0.909558, 0.915485, 0.915139, 0.90789, 0.905782, 0.904982, 0.887723, 0.887838, 0.880385, 0.879383, 0.879243, 0.877996, 0.876501, 0.871916, 0.869572, 0.870257, 0.884961, 0.880134, 0.868345, 0.86815, 0.869469, 0.871684, 0.874288, 0.877064, 0.893605, 0.893477, 0.893083, 0.888049, 0.888477, 0.890465, 0.894124, 0.8938, 0.877343, 0.874744, 0.873416, 0.87349, 0.8795, 0.880532, 0.889171, 0.889365, 0.888364, 0.888073, 0.883429, 0.883605, 0.882717, 0.873187, 0.873987, 0.874435, 0.878393, 0.88005, 0.879902, 1.13952, 0.900764, 0.904351, 0.904934, 0.908823, 0.917657, 0.918468, 0.921548, 0.921742, 0.922978, 0.932425, 0.932285, 0.930732, 1.01098, 1.10534, 0.959145, 0.959165, 0.957279, 0.954993, 0.939443, 0.938533, 0.938031, 0.938827, 0.924834, 0.925933, 0.928918, 0.930703, 0.929435, 0.929089, 0.929053, 0.933376, 0.940077, 0.940673, 0.929202, 0.928933, 0.929363, 0.931048, 0.951566, 0.955658, 0.955794, 0.956471, 0.933179, 0.933633, 0.924366, 0.933218, 0.929624, 0.930119, 0.93574, 0.937922, 0.946593, 0.947403, 0.946087, 0.948292, 0.94809, 0.935672, 0.934825, 0.937037, 0.939968, 0.943434, 0.942299, 0.94536, 0.952862, 0.967338, 0.969259, 0.969936, 0.973461, 0.984613, 0.985287, 0.974705, 0.971308, 0.972778, 0.973602, 0.982052, 0.985461, 0.98852, 0.990671, 0.98683, 0.98708, 0.986591, 0.984522, 0.981908, 0.973286, 0.968759, 0.967114, 0.964679, 0.965603, 0.965573, 0.966137, 0.965301, 0.973261, 0.973338, 0.952188, 0.950684, 0.956493, 0.970091, 0.974945, 0.976806, 0.988607, 0.994424, 0.99746, 1.01455, 1.03104, 1.04349, 1.04439, 1.0567, 1.05903, 1.05878, 1.0897, 1.09067, 1.07968, 1.07995, 1.08033, 1.16379, 1.12528, 1.11262, 1.11037, 1.22047, 1.13409, 1.16647, 1.44106, 1.17098, 1.15303, 1.15752, 1.18503, 1.17917, 1.21883, 1.21515, 1.19751, 1.19854, 1.19807, 1.19971, 1.25087, 1.17275, 1.1709, 1.1715, 1.16829, 1.16905, 1.16667, 1.16774, 1.424, 1.37358, 1.3624, 1.32788, 1.26873, 1.16177
0.910212, 0.910565, 0.913466, 0.912593, 0.922733, 0.922112, 0.920429, 0.919702, 0.928632, 0.931689, 0.930025, 0.926686, 0.926102, 0.955961, 0.952515, 0.951616, 0.940989, 0.955145, 0.956015, 0.955141, 0.964743, 0.965641, 0.966102, 0.957756, 0.956672, 0.958747, 0.954766, 0.952569, 0.952934, 0.955307, 0.958974, 0.95947, 0.959069, 0.959268, 0.959412, 0.972422, 0.980743, 0.979878, 1.26227, 1.00411, 1.00589, 1.01092, 1.01483, 1.0154, 1.13946, 1.10789, 0.939585, 0.938976, 0.937914, 0.924868, 0.917546, 0.921031, 0.921877, 0.929548, 0.928408, 0.931536, 0.932213, 0.933206, 0.925586, 0.922552, 0.923888, 0.931879, 0.929128, 0.917144, 0.917937, 0.920772, 0.922969, 0.92304, 0.925259, 0.928397, 0.919442, 0.920327, 0.90196, 0.90161, 0.90533, 0.914559, 0.915754, 0.905501, 0.900115, 0.878579, 0.880783, 1.07345, 0.874492, 0.873402, 0.872726, 0.871869, 0.872119, 0.865949, 0.867488, 0.881467, 0.881672, 0.877908, 0.870021, 0.867499, 0.868193, 0.877135, 0.872308, 0.877051, 0.893924, 0.891679, 0.892208, 0.888812, 0.886988, 0.887034, 0.890309, 0.890537, 0.874562, 0.873233, 0.872464, 0.874112, 0.876508, 0.886571, 0.888361, 0.888734, 0.888934, 0.890231, 0.881919, 0.881639, 0.879942, 0.874991, 0.875134, 0.874552, 0.878457, 0.879271, 0.880319, 0.887364, 0.89573, 0.899475, 0.903931, 0.907704, 0.917884, 0.918975, 0.919972, 0.919444, 0.919228, 0.928985, 0.926994, 0.928345, 0.928567, 0.957487, 0.956021, 0.957432, 0.95477, 0.953972, 0.933357, 0.935327, 0.934715, 0.928334, 0.927944, 0.924258, 0.924998, 0.926517, 0.9286, 0.925671, 0.928011, 0.927456, 0.940019, 0.940341, 0.93867, 0.928109, 0.926213, 0.932144, 0.932597, 0.956542, 0.954971, 0.94238, 0.93568, 0.925526, 0.921571, 0.927642, 0.926354, 0.925688, 0.928786, 0.94283, 0.943312, 0.943305, 0.948717, 0.946639, 0.946429, 0.936665, 0.934169, 0.932263, 0.933659, 0.935678, 0.939013, 0.942144, 0.944203, 0.9527, 0.96683, 0.971208, 0.974314, 0.982196, 0.982837, 0.974306, 0.968375, 0.971034, 0.973175, 0.977061, 0.98314, 0.98679, 0.989057, 0.986981, 0.987031, 0.992736, 0.994101, 0.966896, 0.965687, 0.967702, 0.967034, 0.960388, 0.961311, 0.964023, 0.963768, 0.964416, 0.972124, 0.973356, 0.951179, 0.951526, 0.953308, 0.955131, 0.971159, 0.973642, 0.981892, 0.988334, 0.99733, 1.2331, 1.02246, 1.39945, 1.06486, 1.07581, 1.06456, 1.06634, 1.06808, 1.07402, 1.08055, 1.08118, 1.08102, 1.10614, 1.1481, 1.11625, 1.11597, 1.11671, 1.12977, 1.55679, 0.00424005, 1.16438, 1.16557, 1.48455, 1.17243, 1.19961, 1.28237, 1.1934, 1.19788, 1.19811, 1.26464, 1.29134, 1.18527, 1.17153, 1.16897, 1.16981, 1.16853, 1.16987, 1.16823, 1.16437, 1.36393, 1.36102, 1.38832, 1.37599, 1.43363, 1.15102
0.91463, 0.911213, 0.911895, 0.919872, 0.92864, 0.940285, 0.942179, 0.942017, 0.936815, 0.939321, 0.933458, 0.934062, 1.36113, 0.955745, 0.951469, 0.950076, 0.949508, 0.959257, 0.954968, 0.955638, 0.960835, 0.962453, 0.956201, 0.95384, 0.955705, 0.959483, 0.953984, 0.95313, 0.950857, 0.950778, 0.960151, 0.959835, 0.958663, 0.956441, 0.95615, 0.970557, 0.97514, 0.978966, 0.989455, 1.01893, 1.00485, 1.00597, 1.01087, 1.01102, 1.11683, 1.10659, 0.93935, 0.939867, 0.937929, 0.918277, 0.917895, 0.91853, 0.922104, 0.927689, 0.928416, 0.928867, 0.929356, 0.929497, 0.922138, 0.921247, 0.921575, 0.924782, 0.913437, 0.914029, 0.913618, 0.916483, 0.918765, 0.920196, 0.918774, 0.915448, 0.915464, 0.914722, 0.8976, 0.897846, 0.897838, 0.914736, 0.9152, 0.901326, 0.876216, 0.874907, 0.875739, 0.871596, 0.872968, 0.871337, 0.868789, 0.869393, 0.864495, 0.863181, 0.863008, 0.873002, 0.8756, 0.872433, 0.868064, 0.861889, 0.866986, 0.872331, 0.873141, 0.878159, 0.887392, 0.88829, 0.890787, 0.890804, 0.890431, 0.886978, 0.890213, 0.890128, 0.873663, 0.869835, 0.870361, 0.872154, 0.875281, 0.887296, 0.889182, 0.88952, 0.889988, 0.890066, 0.878154, 0.877631, 0.875647, 0.873499, 0.873653, 0.876255, 0.875332, 0.877189, 0.880561, 0.887007, 0.895133, 0.898105, 0.903589, 0.906861, 0.919149, 0.919046, 0.919089, 0.917658, 0.918071, 0.92048, 0.921386, 0.918675, 0.918444, 0.945379, 0.945829, 0.956439, 0.950643, 0.94782, 0.936386, 0.931401, 0.932494, 0.931194, 0.930039, 0.920839, 0.924955, 0.924672, 0.926233, 0.927252, 0.926787, 0.929457, 0.935343, 0.936366, 0.931714, 0.923015, 0.92399, 0.929999, 0.933425, 0.937234, 0.929508, 0.928934, 0.923811, 0.922736, 0.919315, 0.924728, 0.924775, 0.923788, 0.92733, 0.934575, 0.942611, 0.943428, 0.943733, 0.944521, 0.942166, 0.935539, 0.935321, 0.932209, 0.933567, 0.935608, 0.937574, 0.936496, 0.942929, 0.948299, 0.966107, 0.968934, 0.974284, 0.978388, 0.978228, 0.977853, 0.973207, 0.969679, 0.973859, 0.974787, 0.978079, 0.9826, 0.984924, 0.986091, 0.987259, 0.991271, 0.992429, 0.964588, 0.960193, 0.959623, 0.957838, 0.953832, 0.95541, 0.957669, 0.96073, 0.964723, 0.969167, 0.969324, 0.950471, 0.947906, 0.9507, 0.964349, 0.966517, 0.979929, 0.981238, 0.986918, 1.23613, 1.32874, 1.012, 1.03797, 1.04704, 1.37652, 1.08139, 1.0663, 1.06941, 1.07654, 1.07635, 1.07672, 1.10106, 1.10128, 1.11216, 1.11595, 1.11617, 1.13714, 1.13539, 1.13437, 1.1779, 1.63128, 1.18189, 1.18195, 1.18159, 1.18095, 1.19415, 1.23247, 1.19634, 1.19669, 1.273, 1.29056, 1.17519, 1.2177, 1.16816, 1.16695, 1.16806, 1.16687, 1.1642, 1.16017, 1.22322, 1.39224, 1.35318, 1.13601, 1.13712, 1.27534
0.911561, 0.913472, 0.920936, 0.920624, 0.934303, 0.941147, 0.944746, 0.946261, 0.945945, 0.939709, 0.935603, 0.935286, 1.36516, 0.955088, 0.957787, 0.958227, 0.955731, 0.957211, 0.95627, 0.955958, 0.96013, 0.96046, 0.956357, 0.952886, 0.95578, 0.957625, 0.951638, 0.953216, 0.952357, 0.951843, 0.960253, 0.960452, 0.957113, 0.95742, 0.964472, 0.970461, 0.972979, 0.986143, 0.990699, 1.00947, 1.02931, 1.02655, 1.0149, 1.0706, 1.07224, 1.16723, 0.943059, 0.928475, 0.926023, 0.918035, 0.917238, 0.920391, 0.923196, 0.924801, 0.926366, 0.92808, 0.927336, 0.926212, 0.922288, 0.920692, 0.919927, 0.919765, 0.9145, 0.911838, 0.91139, 0.914346, 0.911612, 0.913255, 0.917472, 0.914698, 0.914903, 0.914687, 0.898161, 0.897093, 1.16815, 0.908214, 0.9074, 0.922138, 0.871979, 0.873015, 0.873972, 0.873769, 0.873058, 0.872009, 0.866588, 0.866722, 0.863863, 0.863662, 0.860194, 0.870968, 0.872867, 0.868436, 0.860968, 0.861653, 0.862867, 0.870889, 0.871836, 0.878944, 0.88756, 0.888672, 0.890693, 0.890336, 0.889095, 0.889225, 0.890873, 0.890225, 0.873051, 0.870045, 0.870603, 0.873067, 0.87358, 0.883679, 0.888433, 0.890366, 0.892566, 0.887223, 0.881249, 0.875778, 0.87632, 0.874623, 0.875498, 0.874946, 0.876106, 0.877361, 0.880392, 0.891097, 0.901198, 0.900191, 0.905513, 0.910887, 0.914726, 0.918316, 0.915382, 0.915391, 0.916789, 0.918317, 0.918435, 0.918781, 0.919307, 0.944208, 0.943661, 0.944504, 0.952759, 0.945294, 0.930503, 0.930914, 0.930298, 0.930375, 0.930113, 0.92145, 0.91823, 0.918656, 0.92736, 0.927119, 0.927607, 0.929693, 0.931414, 0.93177, 0.932259, 0.918303, 0.918692, 0.927041, 0.929522, 0.929836, 0.929171, 0.912498, 0.91424, 0.916508, 0.918607, 0.923075, 0.922132, 0.92166, 0.928824, 0.933547, 0.94043, 0.941224, 0.940059, 0.940613, 0.941375, 0.937451, 0.936754, 0.934275, 0.933065, 0.93229, 0.937203, 0.938844, 0.94534, 0.949366, 0.967429, 0.970269, 0.975458, 0.979721, 0.977658, 0.970342, 0.970753, 0.97144, 0.977744, 0.975268, 0.976873, 0.981606, 0.983279, 0.984374, 0.983704, 1.00563, 0.970542, 0.960274, 0.959737, 0.957032, 0.958457, 0.951163, 0.954803, 0.955907, 0.955933, 0.963244, 0.96923, 0.967132, 0.960611, 0.95221, 0.951298, 0.956439, 0.965812, 0.978389, 0.979692, 0.986569, 0.988452, 1.00864, 1.02185, 1.0256, 1.06862, 1.06469, 1.08097, 1.06602, 1.06824, 1.07728, 1.07548, 1.07682, 1.10147, 1.10801, 1.54751, 1.12747, 1.13116, 1.13792, 1.14686, 1.14447, 1.16822, 0.00445659, 1.16564, 1.16874, 1.17062, 1.20982, 1.19034, 1.1938, 1.19464, 1.19423, 1.19597, 1.2582, 1.1856, 1.24862, 1.27177, 1.25429, 1.30215, 1.16653, 1.16518, 1.19245, 1.33616, 1.33904, 1.37247, 1.3005, 1.31217, 1.38787
0.911521, 0.918587, 1.17464, 0.92545, 0.944209, 0.943821, 0.943374, 0.949522, 0.947212, 0.944282, 0.939665, 0.943563, 1.36248, 0.964636, 0.95943, 0.957977, 0.969913, 0.967659, 0.957755, 0.958402, 0.95995, 0.96061, 0.95342, 0.953359, 0.955256, 0.95735, 0.952657, 0.952498, 0.951154, 0.953559, 0.960702, 0.961602, 0.959281, 0.961112, 0.965698, 0.968069, 0.977569, 0.97866, 1.3723, 1.02833, 1.02183, 1.01661, 1.01664, 1.01686, 1.09627, 0.954429, 0.946387, 0.939608, 0.918764, 0.916056, 0.917332, 0.91987, 0.922104, 0.925032, 0.929518, 0.928437, 0.930351, 0.929381, 0.928556, 0.919572, 0.918621, 0.914697, 0.910116, 0.909959, 0.910635, 0.914666, 0.912847, 0.914351, 0.915214, 0.911618, 0.910923, 0.910157, 0.897385, 0.895536, 0.897717, 0.904936, 0.902304, 0.87052, 0.869715, 0.869751, 0.877928, 0.876058, 0.871976, 0.864682, 0.862855, 0.868378, 0.862384, 0.86168, 0.863103, 0.867723, 0.86666, 0.859402, 0.859028, 0.858018, 0.861008, 0.863935, 0.873017, 0.875556, 0.874974, 0.887235, 0.888056, 0.888368, 0.889226, 0.889977, 0.891957, 0.891887, 0.870597, 0.869691, 0.872247, 0.872334, 0.873721, 0.888395, 0.890474, 0.891515, 0.891433, 0.889119, 0.881785, 0.880911, 0.880014, 0.876582, 0.876004, 0.873774, 0.877108, 0.876816, 0.878457, 0.88655, 0.901948, 0.904065, 0.906757, 0.908791, 0.908945, 0.912909, 0.915026, 0.917143, 0.92218, 0.921506, 0.925674, 0.92912, 1.102, 0.950812, 0.953985, 0.956235, 0.952223, 0.952942, 0.929032, 0.929039, 0.928995, 0.929024, 0.919239, 0.917783, 0.914941, 0.915357, 0.922294, 0.926433, 0.926529, 0.929654, 0.932003, 0.930939, 0.928469, 0.918107, 0.918699, 0.925295, 0.926481, 0.927797, 0.907869, 0.908239, 0.90752, 0.918866, 0.916785, 0.924436, 0.924411, 0.92011, 0.929978, 0.930486, 0.933923, 0.938838, 0.937968, 0.940902, 0.943726, 0.944402, 0.940813, 0.94267, 0.932765, 0.932104, 0.936697, 0.937947, 0.946985, 0.957464, 0.959264, 0.959518, 0.973585, 0.977084, 0.968041, 0.96661, 0.970861, 0.972335, 0.984668, 0.975337, 0.979704, 0.980836, 0.98387, 0.9843, 0.982773, 0.975053, 0.966455, 0.95978, 0.954171, 0.956843, 0.957268, 0.949034, 0.950365, 0.950744, 0.955296, 0.949637, 0.959098, 0.963354, 0.954985, 0.953184, 0.9547, 0.963823, 0.969616, 0.971275, 0.978757, 0.983823, 0.994652, 0.997738, 1.01811, 1.31652, 1.31724, 1.0513, 1.09239, 1.06995, 1.07072, 1.0737, 1.07472, 1.0827, 1.08836, 1.09066, 1.11181, 1.13024, 1.13478, 1.14307, 1.14048, 1.14345, 1.47184, 1.15801, 1.16497, 1.16603, 1.66908, 1.20575, 1.18876, 1.23928, 1.19532, 1.19753, 1.25029, 1.25019, 1.30599, 1.20952, 1.15924, 1.15884, 1.16212, 1.25668, 1.24338, 1.27672, 1.26918, 1.27412, 1.23716, 1.14551, 1.14977, 1.18442
0.913438, 1.15771, 0.925251, 0.952424, 1.13778, 0.942843, 0.93975, 0.946655, 0.946398, 0.946361, 0.942598, 1.36565, 0.966134, 0.965981, 0.967482, 0.9764, 0.977128, 0.962884, 0.959304, 0.95883, 0.966189, 0.957699, 0.952464, 0.952618, 0.95972, 0.958343, 0.956125, 0.951722, 0.949461, 0.955447, 0.959133, 0.958098, 0.958862, 0.963238, 0.970794, 0.973639, 0.975561, 0.987631, 0.989409, 1.03756, 1.01717, 1.02317, 1.01829, 1.01764, 1.10281, 1.09857, 0.928125, 0.927892, 0.923652, 0.914366, 0.91534, 0.919206, 0.920447, 0.925195, 0.931667, 0.929738, 0.928768, 0.929686, 0.929248, 1.10449, 0.908262, 0.908283, 0.9066, 0.906317, 0.907009, 0.910517, 0.911819, 0.913532, 0.911753, 0.909401, 0.908793, 0.907199, 0.896061, 0.893326, 0.894448, 0.900568, 0.900931, 0.872642, 0.867998, 0.86956, 0.873265, 0.864037, 0.865311, 0.864163, 0.870633, 0.870926, 0.86179, 0.861917, 0.86559, 0.866115, 0.865962, 0.866001, 0.857029, 0.854676, 0.856932, 0.858469, 0.866882, 0.871418, 0.874152, 0.876048, 0.883121, 0.886781, 0.888024, 0.889515, 0.891095, 0.891942, 0.870843, 0.867115, 0.870076, 0.871947, 0.873695, 0.888991, 0.889149, 0.891805, 0.891765, 0.884172, 0.881773, 0.880001, 0.879949, 0.876602, 0.871731, 0.871436, 0.875132, 0.874995, 0.880817, 1.1706, 0.897887, 0.900602, 0.906298, 0.908569, 0.910104, 0.91115, 0.912145, 0.915873, 0.919916, 0.92331, 0.924957, 0.92775, 1.27863, 1.25024, 0.953575, 0.953871, 0.952195, 0.953168, 0.924161, 0.927238, 0.916807, 0.911783, 0.915945, 0.914723, 0.913849, 0.911318, 0.920787, 0.922752, 0.926154, 0.926122, 0.927998, 0.929855, 0.921991, 0.917694, 0.91781, 0.918891, 0.921358, 0.92114, 0.907384, 0.90635, 0.904968, 0.904693, 0.915226, 0.921618, 0.922165, 0.919892, 0.926387, 0.929756, 0.933863, 0.935436, 0.936271, 0.937778, 0.943091, 0.940413, 0.939162, 0.938866, 0.931999, 0.931863, 0.934403, 0.93852, 0.94613, 0.955987, 0.95714, 0.959728, 0.972765, 0.971325, 0.960054, 0.959636, 0.964704, 0.978863, 0.983612, 0.978788, 0.979277, 0.979856, 0.980204, 0.982854, 0.975265, 0.963301, 0.957707, 0.958858, 0.95445, 0.956043, 0.9563, 0.946478, 0.948188, 0.948863, 0.951208, 0.949563, 0.95456, 0.954319, 0.954033, 0.950708, 0.957431, 0.962435, 0.966928, 0.974986, 0.976903, 0.988579, 0.990523, 1.00081, 1.00117, 1.31685, 1.46136, 1.05441, 1.0928, 1.09896, 1.071, 1.07193, 1.0744, 1.08691, 1.08943, 1.10564, 1.11599, 1.53676, 1.13394, 1.13924, 1.56546, 1.58135, 1.47369, 1.18077, 1.16404, 1.16395, 1.1899, 1.19411, 1.34164, 1.19355, 1.19787, 1.19785, 1.19629, 1.31916, 1.22912, 1.31202, 1.16096, 1.15959, 1.15914, 1.16046, 1.21311, 1.20885, 1.21826, 1.23137, 1.16538, 1.27811, 1.15269, 1.43631
0.913462, 0.913309, 0.953739, 0.952217, 0.952118, 0.941084, 0.941967, 0.943982, 0.946726, 0.942752, 0.942009, 0.949793, 0.961248, 0.955626, 0.967212, 0.968235, 0.975575, 0.960864, 0.961278, 0.96106, 0.962642, 0.962492, 0.95141, 0.950449, 0.958669, 0.959305, 0.957171, 0.949743, 0.950197, 1.28387, 0.956485, 0.956554, 0.958508, 0.960294, 0.971384, 0.973419, 0.973247, 0.986663, 1.25713, 1.00148, 1.0046, 1.00568, 1.01471, 1.01624, 1.09153, 0.93153, 0.930315, 0.925622, 0.925852, 0.905258, 0.904721, 0.917455, 0.918995, 0.928611, 0.930613, 0.927207, 0.926403, 0.923667, 0.924425, 1.09946, 1.10082, 0.904866, 0.902414, 0.902172, 0.905282, 0.907276, 0.907788, 0.908849, 0.908417, 0.906059, 0.907237, 0.907316, 0.8927, 0.890839, 0.889028, 0.89458, 0.890364, 0.865645, 0.866579, 0.868423, 0.872281, 0.860611, 0.861341, 0.863268, 0.872649, 0.870167, 0.86377, 0.861165, 0.864463, 0.866096, 0.863396, 0.862581, 0.852499, 0.851769, 0.851861, 0.860649, 0.86716, 0.869959, 0.872896, 0.873143, 0.88375, 0.883441, 0.88221, 0.88355, 0.889258, 0.911944, 0.870026, 0.869682, 0.869395, 0.870109, 0.870877, 0.881501, 0.887902, 0.885801, 0.885, 0.884048, 0.880268, 0.879834, 0.879901, 0.873298, 0.871218, 0.870915, 0.873885, 0.879686, 0.880264, 0.893922, 0.898529, 0.898135, 0.901759, 0.907797, 0.910372, 0.909134, 0.909985, 0.915588, 0.922929, 0.923398, 0.923486, 0.926066, 1.25575, 0.948258, 0.959931, 0.950232, 0.973464, 0.92287, 1.1984, 1.11644, 0.904354, 0.90568, 0.908286, 0.911163, 0.909923, 0.908067, 0.91423, 0.913793, 0.912571, 0.924043, 0.924959, 0.92656, 0.918379, 0.916382, 0.915897, 0.91666, 0.917668, 0.917448, 0.914502, 0.904684, 0.901067, 0.911963, 0.913062, 0.917275, 0.915822, 0.917868, 0.924883, 0.925757, 0.929561, 0.932826, 0.932138, 0.92936, 0.936256, 0.939775, 0.941189, 0.930872, 0.928584, 0.929107, 0.932056, 0.939898, 0.946099, 0.955393, 0.956075, 0.950132, 0.951367, 0.958768, 0.956647, 0.956534, 0.964944, 0.966603, 0.985214, 0.9785, 0.979549, 0.980265, 0.984232, 0.978844, 0.978982, 0.963821, 0.959255, 0.957123, 0.953181, 0.95158, 0.952173, 0.945878, 0.945501, 0.947593, 0.952773, 0.949164, 0.949462, 0.95087, 0.947837, 0.945311, 0.94611, 0.961832, 0.964325, 0.975686, 0.976997, 0.987346, 0.995015, 0.999584, 1.00091, 1.3671, 1.35886, 1.09032, 1.05945, 1.09459, 1.07032, 1.07046, 1.07089, 1.48838, 1.08981, 1.10804, 1.10972, 0.00422317, 1.14018, 1.1429, 1.66409, 1.58516, 1.16548, 1.16464, 1.16712, 1.1978, 1.20511, 1.18178, 1.18956, 1.20004, 1.19488, 1.19527, 1.22243, 1.29538, 1.27476, 1.27198, 1.16193, 1.1593, 1.15995, 1.15935, 1.21677, 1.30928, 1.20658, 1.2101, 1.12669, 1.12287, 1.11575, 1.24656
0.91306, 0.913116, 0.933437, 0.952671, 0.949885, 0.939959, 0.941084, 0.94334, 0.94281, 0.941498, 0.942084, 0.949402, 0.959809, 0.951305, 0.964224, 0.964639, 0.967067, 0.959709, 0.959393, 0.960429, 0.960569, 0.95174, 0.952821, 0.952659, 0.963158, 0.95874, 0.956976, 0.950689, 0.950457, 1.20011, 0.96258, 0.95774, 0.959294, 0.97059, 0.970804, 0.97751, 0.984312, 0.984512, 1.00463, 1.00551, 1.00458, 1.00545, 1.01926, 1.03888, 1.08776, 0.938299, 0.936652, 0.915454, 0.904585, 0.903315, 0.917809, 0.917938, 0.921552, 0.929673, 0.931865, 0.921178, 0.920897, 0.922318, 0.91873, 0.908501, 0.897958, 0.897612, 0.899898, 0.902178, 0.903366, 0.905593, 0.903958, 0.90619, 0.905416, 0.904561, 0.903576, 0.905087, 0.889194, 0.889893, 0.888864, 0.887275, 0.885937, 0.864616, 0.863846, 0.864115, 0.865425, 0.859121, 0.859533, 0.860263, 0.870106, 0.869527, 0.869015, 0.865328, 0.86957, 0.869282, 0.86345, 0.863606, 0.853508, 0.851588, 0.853758, 0.86259, 0.868293, 0.871865, 0.872998, 0.881212, 0.883476, 0.881359, 0.880268, 0.880252, 0.883693, 0.882792, 0.869215, 0.868295, 0.868916, 0.867959, 0.873806, 0.88136, 0.883421, 0.884573, 0.882383, 0.879439, 0.880195, 0.877259, 0.878146, 0.877211, 0.876488, 0.875008, 0.879677, 0.879022, 0.886716, 0.891225, 0.895419, 0.897208, 0.904355, 0.907484, 0.907571, 0.908334, 0.909193, 0.91721, 0.92317, 0.923967, 0.924989, 0.930527, 0.931024, 0.946892, 0.949424, 0.950555, 1.04997, 0.922291, 0.9189, 0.904092, 0.903012, 0.904121, 0.902675, 0.9063, 0.90596, 0.907112, 0.90918, 0.910287, 0.908871, 0.912353, 0.923491, 0.925931, 0.923902, 0.916791, 0.915514, 0.915074, 0.914946, 0.912124, 0.912599, 0.903511, 0.90204, 0.910969, 0.912574, 0.912613, 0.911387, 0.917683, 0.918171, 0.925977, 0.92865, 0.93007, 0.925233, 0.924174, 0.937364, 0.940162, 0.941179, 0.941163, 0.927347, 0.928474, 0.935483, 0.94235, 0.945697, 0.951034, 0.94982, 0.949788, 0.949978, 0.956166, 0.954201, 0.953941, 0.964159, 0.977194, 0.982162, 0.98255, 0.978413, 0.977965, 0.977937, 0.978049, 0.978307, 0.961412, 0.956317, 0.956314, 0.949331, 0.949024, 0.953019, 0.94675, 0.946525, 0.950013, 0.949123, 0.948869, 0.9471, 0.952719, 0.947131, 0.949012, 0.95995, 0.963442, 0.975137, 0.976597, 0.977854, 0.982971, 0.997321, 1.00015, 1.3246, 1.38135, 1.3257, 1.0813, 1.07174, 1.07153, 1.07058, 1.07256, 1.0739, 1.07491, 1.09195, 1.09309, 1.09939, 1.1269, 1.13148, 1.13661, 1.67379, 1.15827, 1.18204, 1.16703, 1.17034, 1.17224, 1.17445, 1.22268, 1.21564, 1.22675, 1.21134, 1.22303, 1.18822, 1.26439, 1.30883, 1.26405, 1.25659, 1.24039, 1.24005, 1.1873, 1.31632, 1.14345, 1.13766, 1.13193, 1.12816, 1.13955, 1.11864, 1.15291
1.29215, 1.21665, 0.938844, 0.9444, 0.945245, 0.935541, 0.935895, 0.942829, 0.942899, 0.94384, 0.944112, 0.944251, 0.958112, 0.950918, 0.952132, 0.966559, 0.966558, 0.96126, 0.959003, 0.959372, 0.95715, 0.950979, 0.951219, 0.955718, 0.964725, 0.963297, 0.956021, 0.95609, 1.24062, 0.96962, 0.979751, 0.974586, 0.975858, 0.971414, 0.970394, 0.984019, 0.983422, 0.994506, 1.01735, 1.00527, 1.0047, 1.00614, 0.00442679, 1.04683, 0.943798, 0.941858, 0.923184, 0.914565, 0.898199, 0.90046, 1.21688, 0.917648, 0.920413, 0.92344, 0.925516, 0.916884, 0.913819, 0.909604, 0.907837, 0.901587, 0.89824, 0.898567, 0.900654, 0.900636, 0.900904, 0.901815, 0.903402, 0.903933, 0.901263, 0.900741, 0.898102, 0.897276, 0.888664, 0.886924, 0.889168, 0.889534, 0.887474, 0.873182, 0.862097, 0.865682, 0.866145, 0.85716, 0.862553, 0.86297, 0.867484, 0.871459, 0.869889, 0.868154, 0.871335, 0.877049, 0.878327, 0.853738, 0.853124, 0.853082, 0.853593, 0.863914, 0.872729, 0.874189, 0.877407, 0.877213, 0.884055, 0.883344, 0.874668, 0.87549, 0.882899, 0.874481, 0.867374, 0.867274, 0.866092, 0.866797, 0.870925, 0.877329, 0.883498, 0.881782, 0.88182, 0.879566, 0.878869, 0.880052, 0.877575, 0.876399, 0.877379, 0.879374, 0.881326, 0.880216, 0.886992, 0.88738, 0.887348, 0.999825, 0.904355, 0.906121, 0.905421, 0.907239, 0.908704, 0.9164, 0.920123, 0.925712, 0.925333, 0.925384, 1.12355, 0.946162, 0.947091, 0.947295, 1.15662, 0.922113, 0.914969, 0.907464, 0.898397, 0.897307, 0.898685, 0.898308, 0.901936, 0.904821, 0.906682, 0.906165, 0.904558, 0.909375, 0.911732, 0.924806, 0.924979, 0.919032, 0.918659, 0.915592, 0.915344, 0.910722, 0.909703, 0.899535, 0.901481, 0.913703, 0.915128, 0.91332, 0.908164, 0.915676, 0.920215, 0.919118, 0.921903, 0.92821, 0.927976, 0.923295, 0.921702, 0.939059, 0.939684, 0.941009, 0.928049, 0.931826, 0.931733, 0.943744, 0.9459, 0.952175, 0.949987, 0.94884, 0.952962, 0.955302, 0.953189, 0.953547, 0.959804, 0.975673, 0.984096, 0.984219, 0.977075, 0.975395, 0.974064, 0.977064, 0.977072, 0.9629, 0.95659, 0.959865, 0.952703, 0.950842, 0.949672, 0.945556, 0.946728, 0.952348, 0.951825, 0.949494, 0.948877, 0.949151, 0.947202, 0.947676, 0.96332, 0.974328, 0.975297, 0.979891, 0.981005, 0.997998, 0.997938, 1.00336, 1.00555, 1.02131, 1.36242, 1.35398, 1.08451, 1.08493, 1.07609, 1.08061, 1.0793, 1.0799, 1.10923, 1.09239, 1.11409, 1.11898, 1.13618, 1.15292, 1.15477, 1.68461, 1.57928, 1.16904, 1.1704, 1.17329, 1.17389, 1.17565, 1.17765, 1.26727, 1.20151, 1.18748, 1.18772, 1.1852, 1.18271, 1.17666, 1.32719, 1.29332, 1.2234, 1.19477, 1.15336, 1.26076, 1.14091, 1.18525, 1.19382, 1.12541, 1.11961, 1.13815
0.923307, 0.93251, 0.936606, 0.945317, 0.929549, 0.928207, 0.935314, 0.932094, 0.932177, 0.944519, 0.9448, 0.955437, 0.957368, 0.954772, 0.952411, 0.965863, 0.965548, 0.956762, 0.955212, 0.957213, 0.956684, 0.950823, 0.951429, 0.958367, 0.963629, 0.963962, 0.963509, 0.964859, 0.966495, 0.975439, 0.979104, 0.980482, 0.980269, 0.982474, 0.982436, 0.983734, 0.984473, 0.990215, 1.05038, 1.05017, 1.05754, 1.04936, 1.03189, 0.927559, 0.9301, 0.93683, 0.921585, 0.901505, 0.89569, 0.900489, 0.907866, 0.914613, 0.921372, 0.925008, 0.92695, 0.915145, 0.914756, 0.904665, 0.905445, 0.898559, 0.897169, 0.897471, 0.89965, 0.896733, 0.898612, 0.903663, 0.902724, 0.900871, 0.898534, 0.896515, 0.896973, 0.891646, 0.888127, 0.885618, 0.887094, 0.886721, 0.878811, 0.868703, 0.859795, 0.862143, 0.858061, 0.857218, 0.86041, 0.862671, 0.864149, 0.870266, 0.86777, 0.867179, 0.87366, 0.88224, 0.883575, 1.06313, 0.853835, 0.853229, 0.856616, 1.11613, 0.88436, 0.883398, 0.88014, 0.874376, 0.877399, 0.871415, 0.871537, 0.874039, 0.880229, 0.879654, 0.867253, 0.866567, 0.865691, 0.864117, 0.867544, 0.876993, 0.878098, 0.880472, 0.878869, 0.877637, 0.878384, 0.878991, 0.878694, 0.878696, 0.878858, 0.879854, 0.881664, 0.882338, 0.886013, 0.886798, 0.886825, 0.901031, 0.902932, 0.904347, 0.905226, 0.905183, 0.918005, 0.915796, 0.918587, 0.92556, 0.925988, 0.929214, 0.95297, 0.947404, 0.937524, 0.938861, 0.918437, 0.917963, 0.911623, 0.902322, 0.895993, 0.896115, 0.898312, 0.899974, 0.899651, 0.900812, 0.901569, 0.901527, 0.901856, 0.904557, 0.905406, 0.924817, 0.922177, 0.920123, 0.914575, 0.915663, 0.914292, 0.908235, 0.907717, 0.901064, 0.899705, 0.91279, 0.911956, 0.908486, 0.908072, 0.916034, 0.916224, 0.918028, 0.919895, 0.922826, 0.922296, 0.918616, 0.9201, 0.938881, 0.938721, 0.930904, 0.931189, 0.928599, 0.932235, 0.941222, 0.941856, 0.950813, 0.950624, 0.946979, 0.947849, 0.952281, 0.949501, 0.948533, 0.959574, 0.970074, 0.971652, 0.97293, 0.971712, 0.97562, 0.977539, 0.978505, 0.966663, 0.963223, 0.962684, 0.962137, 0.951785, 0.950441, 0.952223, 0.946833, 0.950461, 0.954978, 0.955942, 0.949144, 0.950019, 0.956498, 0.950294, 1.01549, 0.976006, 0.983416, 0.984498, 0.980605, 0.981106, 0.984056, 1.00083, 1.00243, 1.00828, 1.02068, 1.47347, 1.36818, 1.08901, 1.07787, 1.08071, 1.08031, 1.08011, 1.08095, 1.08486, 1.0919, 1.11558, 1.12643, 1.14066, 1.15366, 1.29265, 1.15327, 1.289, 1.16931, 1.17026, 1.17475, 1.17631, 1.17734, 1.18641, 1.18248, 1.18329, 1.18508, 1.18411, 1.18343, 1.21649, 1.17867, 1.31587, 1.2461, 1.22578, 1.21241, 1.21384, 1.30314, 1.30055, 1.25301, 1.1894, 1.18936, 1.17968, 1.13237
0.921126, 0.921147, 0.933577, 0.936826, 0.923845, 0.92553, 0.926138, 0.944916, 0.946438, 0.944129, 0.943512, 1.33959, 0.963249, 0.963816, 0.963413, 0.964527, 0.964614, 0.953747, 0.953501, 0.953067, 0.952268, 0.948491, 0.948792, 0.95433, 0.964954, 0.965765, 0.963732, 0.963944, 0.964808, 0.973666, 0.978451, 0.978802, 0.981182, 0.981841, 0.980736, 0.985785, 0.986901, 0.986379, 1.03385, 1.04456, 0.984713, 0.945978, 0.930127, 0.928787, 0.92743, 0.925287, 0.91174, 0.905091, 0.898714, 0.898939, 0.907395, 0.908267, 0.918232, 0.921877, 0.922755, 0.912081, 0.907999, 0.90381, 0.903904, 0.8954, 0.895125, 0.895879, 0.897077, 0.89229, 0.896631, 0.897974, 0.894011, 0.895393, 0.897107, 0.896688, 0.894078, 0.893487, 0.886847, 0.887047, 0.883367, 0.883311, 0.877907, 0.868229, 0.85774, 0.859389, 0.856267, 0.855336, 0.856313, 0.860085, 0.860119, 0.867526, 0.867024, 0.865088, 0.864944, 0.882539, 0.883394, 1.12243, 0.853103, 0.852258, 0.858995, 1.12013, 0.881811, 0.883182, 0.876406, 0.876802, 0.87795, 0.876918, 0.869794, 0.873324, 0.875916, 0.876304, 0.864537, 0.85998, 0.860544, 0.861465, 0.870084, 0.870368, 0.876561, 0.87687, 0.877725, 0.876739, 0.877081, 0.877725, 0.876506, 0.876576, 0.8788, 0.8831, 0.884419, 0.885026, 0.886824, 0.886593, 0.886594, 0.888792, 0.901639, 0.90201, 0.904719, 0.914327, 0.915204, 0.915447, 0.908822, 0.911017, 0.911568, 0.928408, 0.931567, 0.930854, 0.9359, 0.938227, 0.915174, 0.91344, 0.906207, 0.904368, 0.895123, 0.895059, 0.898333, 0.900206, 0.899229, 0.89913, 0.900832, 0.900795, 0.898474, 0.898803, 0.907669, 0.918074, 0.922202, 0.916137, 0.914623, 0.91429, 0.912446, 0.907913, 0.908251, 0.896285, 0.897003, 0.89919, 0.907331, 0.905093, 0.907858, 0.913585, 0.914868, 0.914619, 0.915809, 0.921354, 0.916889, 0.918131, 0.921109, 0.935322, 0.935264, 0.929872, 0.929568, 0.929544, 0.933065, 0.938464, 0.943123, 0.948723, 0.946897, 0.945837, 0.946489, 0.951736, 0.943688, 0.94696, 0.955992, 0.966963, 0.97, 0.969632, 0.970711, 0.975226, 0.977346, 0.978141, 0.967934, 0.96604, 0.959831, 0.961216, 0.951631, 0.949202, 0.949437, 0.963161, 0.960643, 0.953501, 0.9552, 0.951715, 0.953059, 0.954125, 0.956057, 0.974982, 0.981104, 0.981956, 0.982249, 0.981519, 0.984596, 0.994834, 1.00104, 1.00211, 1.00673, 1.01591, 1.32228, 1.4174, 1.08107, 1.06758, 1.07709, 1.07733, 1.07753, 1.41916, 1.10845, 1.12306, 1.11693, 1.36553, 1.54903, 1.15056, 1.18643, 1.18765, 1.7694, 1.16903, 1.16971, 1.17499, 1.17561, 1.1795, 1.18193, 1.18221, 1.18402, 1.18753, 1.18679, 1.18773, 1.1892, 1.18178, 1.1792, 1.38473, 1.23377, 1.23268, 1.28569, 1.21317, 1.2018, 1.19844, 1.28955, 1.13291, 1.1726, 1.14732
0.919984, 0.925902, 0.930137, 0.929804, 0.923478, 0.924019, 0.92489, 0.943088, 0.944676, 0.947069, 1.34417, 1.40753, 0.96959, 0.967936, 0.970249, 0.970009, 0.955035, 0.953676, 0.953614, 0.95462, 0.954978, 0.946169, 0.945923, 0.959762, 0.963886, 0.965201, 0.964941, 0.964087, 0.966567, 0.97603, 0.98095, 0.98389, 0.981807, 0.97337, 0.973323, 1.01333, 0.985347, 0.983242, 1.2251, 1.27474, 0.945198, 0.943387, 0.928479, 0.928783, 0.926803, 0.925277, 0.921837, 0.908518, 0.906558, 0.904751, 0.904662, 0.90704, 0.911753, 0.916137, 0.916722, 1.08354, 0.895205, 0.895133, 0.896356, 0.893858, 0.893931, 0.892111, 0.897338, 0.891508, 0.893513, 0.896818, 0.893935, 0.901118, 0.897316, 0.897248, 0.89225, 0.892077, 0.882669, 0.882893, 0.880147, 0.880175, 0.873866, 0.871733, 0.858233, 0.85753, 0.85604, 0.856781, 0.857789, 0.859113, 0.858217, 0.866404, 0.862, 0.861549, 0.862608, 0.88023, 0.880083, 1.06357, 0.852752, 0.85269, 0.857638, 0.883792, 0.883107, 0.883397, 0.877693, 0.875648, 0.876579, 0.870192, 0.869609, 0.873562, 0.875815, 0.875594, 0.866112, 0.860655, 0.859142, 0.860671, 0.867686, 0.86876, 0.86893, 0.875675, 0.876681, 0.875171, 0.875874, 0.87588, 0.873677, 0.873837, 0.878487, 0.883026, 0.882641, 0.885508, 0.884984, 0.885864, 0.87997, 0.880244, 0.88913, 0.899316, 0.905471, 0.912053, 0.91072, 0.907964, 0.908734, 0.911871, 0.912171, 0.929018, 0.929426, 0.930363, 0.939121, 0.938597, 0.914808, 0.910924, 0.901108, 0.901123, 0.894563, 0.893597, 0.895027, 0.90028, 0.89935, 0.900096, 0.900436, 0.900907, 0.89757, 0.897386, 0.898451, 0.918217, 0.917732, 0.915653, 0.914357, 0.915641, 0.913544, 0.909257, 0.908782, 0.897558, 0.896977, 0.898164, 0.899931, 0.902469, 0.902194, 0.908638, 0.911981, 0.914625, 0.91458, 0.921587, 0.919593, 0.918258, 0.91658, 0.925372, 0.932948, 0.929458, 0.928187, 0.928504, 0.93321, 0.934307, 0.936599, 0.936798, 0.939162, 0.940402, 0.943634, 0.949825, 0.942282, 0.943567, 0.954573, 0.956351, 0.966014, 0.966228, 0.967226, 0.97427, 0.976243, 0.963681, 0.966185, 0.956912, 0.954062, 0.955847, 0.950516, 0.950468, 0.956985, 0.963915, 0.963334, 0.957373, 0.958139, 0.955622, 0.953596, 0.95575, 0.956137, 0.976468, 0.977079, 0.97392, 0.974197, 0.980931, 0.984565, 0.993162, 0.996484, 1.00753, 1.00779, 1.37507, 1.36669, 1.38232, 1.08114, 1.07029, 1.53127, 1.08456, 1.08224, 1.08406, 1.13501, 1.11912, 1.10511, 1.12908, 1.13933, 1.59316, 1.15291, 1.18823, 1.20635, 1.20776, 1.17476, 1.17699, 1.17711, 1.18022, 1.18147, 1.18404, 1.18512, 1.18793, 1.18772, 1.18803, 1.18815, 1.18604, 1.18219, 1.18403, 1.29624, 1.31613, 1.32342, 1.24375, 1.22836, 1.20223, 1.19978, 1.26815, 1.27626, 1.2686
0.920065, 0.919142, 0.930043, 0.925816, 0.923459, 0.922864, 1.11718, 0.944758, 0.947824, 0.954248, 1.4134, 1.38718, 0.973387, 0.973115, 0.976604, 1.03648, 0.95224, 0.952367, 0.953249, 0.954119, 0.953225, 0.94886, 0.949197, 0.954799, 0.969051, 0.966478, 0.966134, 0.965737, 1.2164, 0.980361, 0.987567, 0.986762, 0.987162, 0.973907, 0.975291, 0.971686, 0.97272, 0.975127, 1.30223, 1.29939, 0.943962, 0.942194, 0.928864, 0.923322, 0.923583, 0.924471, 0.923672, 0.908352, 0.901859, 0.902712, 0.904338, 0.909013, 0.910127, 0.912064, 0.911902, 0.898738, 0.897748, 0.896922, 0.894162, 0.893717, 0.892279, 0.892323, 0.891943, 0.890257, 0.895633, 0.894838, 0.897138, 0.898017, 0.896675, 0.898181, 0.895324, 0.891409, 0.886855, 0.880201, 0.879386, 0.877119, 0.8701, 0.866576, 0.858721, 0.859076, 0.856342, 0.857763, 0.859528, 0.858515, 0.858025, 0.862859, 0.860995, 0.861362, 0.874958, 0.876121, 0.877502, 0.876891, 0.85568, 0.8552, 0.85575, 0.880207, 0.88098, 0.884042, 0.88095, 0.874757, 0.874891, 0.870663, 0.870442, 0.873346, 0.87615, 0.874065, 0.863622, 0.858194, 0.859028, 0.858354, 0.857552, 0.862522, 0.868914, 0.871988, 0.873945, 0.876181, 0.87641, 0.875806, 0.874643, 0.873646, 0.873641, 0.87547, 0.882659, 0.88638, 0.885365, 0.880095, 0.880172, 0.880638, 0.883545, 0.883467, 1.10914, 0.897111, 0.910409, 0.907226, 0.909385, 0.912881, 0.913005, 0.927341, 0.926971, 0.927392, 0.933606, 0.940044, 1.21397, 0.90893, 0.900905, 0.899864, 0.90032, 0.894863, 0.896278, 0.897702, 0.897918, 0.897708, 0.898543, 0.900766, 0.896864, 0.896383, 1.14273, 0.914611, 0.913568, 0.913888, 0.914821, 0.915045, 0.912276, 0.90796, 0.910984, 0.910963, 0.898461, 0.898496, 0.899172, 0.901169, 0.900897, 0.901731, 0.913441, 0.913858, 0.913122, 0.913295, 0.909606, 0.911485, 0.913765, 0.914134, 0.931752, 0.926288, 0.925628, 0.925457, 0.923565, 0.932426, 0.935006, 0.935205, 0.938241, 0.939668, 0.941793, 0.948665, 0.942514, 0.94327, 0.952287, 0.953072, 0.962335, 0.962305, 0.963681, 0.962158, 0.962483, 0.961651, 0.964002, 0.959726, 0.955007, 0.955908, 0.952157, 0.954987, 0.955506, 0.959517, 0.963168, 0.958041, 0.958958, 0.959476, 0.955716, 0.956013, 0.956176, 0.959834, 0.975535, 0.97225, 0.973123, 1.24189, 0.987973, 0.995092, 1.00166, 1.0113, 1.01166, 1.38903, 1.12545, 1.04289, 1.3144, 1.07282, 1.07333, 1.11843, 1.11972, 1.11337, 1.11519, 1.11181, 1.11949, 1.37558, 1.557, 0.00442488, 1.18496, 1.18401, 1.60299, 1.17035, 1.17238, 1.17762, 1.17924, 1.18148, 1.1817, 1.18309, 1.26482, 1.18711, 1.188, 1.1886, 1.18583, 1.18605, 1.18282, 1.18163, 1.18186, 1.17857, 1.17712, 1.35998, 1.23212, 1.1837, 1.23945, 1.22625, 1.15506, 1.148
0.919983, 0.92501, 0.926229, 0.92642, 0.92323, 0.924131, 0.925265, 0.94824, 1.26142, 1.38546, 1.42144, 1.42201, 0.989817, 0.987787, 0.986744, 0.980293, 0.954268, 0.952601, 0.952366, 0.960243, 0.955777, 0.950178, 0.950756, 1.2479, 0.973719, 0.96688, 0.967312, 0.967644, 0.97386, 1.31232, 0.986899, 0.992626, 0.992295, 0.974508, 0.968859, 0.970564, 0.970691, 0.971384, 0.963265, 0.960144, 0.943687, 0.939992, 0.926223, 0.92198, 0.921813, 0.905512, 0.906221, 0.901326, 0.901826, 0.903554, 0.907634, 0.907525, 0.908134, 0.910571, 0.910674, 0.900755, 0.895735, 0.896762, 0.897282, 0.888614, 0.888207, 0.889188, 0.888115, 0.887207, 0.892591, 0.897507, 0.899007, 0.900607, 0.899626, 0.897636, 0.893358, 0.889545, 1.13412, 0.876718, 0.871266, 0.869632, 0.857485, 0.856595, 0.858208, 0.857481, 0.856667, 0.861051, 0.860762, 0.855951, 0.856389, 0.859309, 0.859469, 0.860896, 0.87509, 0.875992, 0.875806, 0.875354, 0.85445, 0.855672, 0.855544, 0.879724, 0.881318, 0.880891, 0.879534, 0.876002, 0.875595, 0.869452, 0.870002, 0.874899, 0.873668, 0.871316, 0.86318, 0.859245, 0.858783, 0.859722, 0.858715, 0.862714, 0.863815, 0.868333, 0.868423, 0.869361, 0.86973, 0.870969, 0.872034, 0.870082, 0.872968, 0.866785, 0.874389, 0.88154, 0.879348, 0.876827, 0.87883, 0.880061, 0.882601, 0.883514, 0.88728, 0.887645, 0.904385, 0.900837, 0.900835, 0.908891, 0.930006, 0.930114, 0.926967, 0.927658, 0.932365, 0.930182, 1.16222, 1.13582, 0.897632, 0.897969, 0.894906, 0.892915, 0.894011, 0.895543, 0.894498, 0.895641, 0.894908, 0.895301, 0.895, 0.894368, 0.895373, 0.911095, 0.913226, 0.911804, 0.912433, 0.913228, 0.911906, 0.908254, 0.909126, 0.908595, 0.893785, 0.894283, 0.897155, 0.897145, 0.89727, 0.906917, 0.912544, 0.916556, 0.912398, 0.911429, 0.909693, 0.910868, 0.91291, 0.91891, 0.928121, 0.928022, 0.920675, 0.921385, 0.924629, 0.923856, 0.928358, 0.930005, 0.935251, 0.934969, 0.939478, 0.941151, 0.943332, 0.942409, 0.946572, 0.952234, 0.959792, 0.961536, 0.961943, 0.95831, 0.954183, 0.956367, 0.962928, 0.95844, 0.953196, 0.952598, 0.956913, 0.956284, 0.952492, 0.955415, 0.959602, 0.95494, 0.956479, 0.95583, 0.955963, 0.954449, 0.95424, 0.958137, 0.957838, 0.957402, 0.973314, 0.980824, 0.992129, 0.993382, 1.00031, 1.00931, 1.01475, 1.02337, 1.37699, 1.41877, 1.32216, 1.09325, 1.07836, 1.0803, 1.12866, 1.11356, 1.11855, 1.11447, 1.11361, 1.11577, 1.50316, 1.15845, 1.171, 1.18473, 1.17878, 1.59725, 1.21476, 1.17854, 1.17953, 1.18042, 1.18202, 1.18203, 1.18297, 1.18331, 1.18598, 1.18438, 1.18433, 1.18297, 1.18376, 1.18138, 1.18035, 1.18052, 1.18102, 1.18078, 1.43823, 1.16845, 1.27616, 1.22658, 1.15314, 1.22978
0.918484, 0.92424, 0.925521, 0.925219, 0.920354, 0.921444, 0.950884, 1.0083, 1.33842, 1.38282, 1.40852, 0.994722, 0.994877, 0.994671, 1.00209, 1.25891, 0.952149, 0.952444, 0.952582, 0.957335, 0.952916, 0.951587, 0.954017, 0.972131, 0.976616, 0.973913, 0.970279, 0.973305, 0.973174, 0.973744, 1.01493, 0.990787, 0.991247, 1.01215, 0.962781, 0.96323, 0.966946, 0.969121, 0.963799, 1.07759, 0.936334, 0.936776, 0.918018, 0.918063, 0.919344, 0.917771, 0.897856, 0.89984, 0.901185, 0.903477, 0.901885, 0.905109, 0.906341, 0.907765, 1.1352, 0.897361, 0.89488, 0.896859, 0.887166, 0.885978, 0.887128, 0.887844, 0.885602, 0.885273, 0.890398, 0.892268, 0.897243, 0.897214, 0.895132, 0.889216, 0.888227, 0.886265, 0.882413, 0.873353, 0.872691, 0.861087, 0.854997, 0.855828, 0.85573, 0.853499, 0.859795, 0.860113, 0.859927, 0.854067, 0.853181, 0.85777, 0.856566, 0.857366, 0.876771, 0.878312, 0.878084, 0.856045, 0.853815, 0.854598, 0.856029, 0.870547, 0.871876, 0.879156, 0.879743, 0.873655, 0.873433, 0.867837, 0.870043, 0.873601, 0.873815, 0.867123, 0.865786, 0.85636, 0.85708, 0.85911, 0.859399, 0.861234, 0.861749, 0.863831, 0.865225, 0.866463, 0.867686, 0.869668, 0.868491, 0.867577, 0.864408, 0.861549, 0.860653, 0.869821, 0.87384, 0.876064, 0.877136, 0.877534, 0.880104, 0.873611, 0.879353, 0.880707, 0.895503, 0.89539, 0.895769, 0.900691, 0.929863, 0.92998, 0.925225, 0.925177, 0.924855, 0.919592, 0.919911, 0.895318, 0.894241, 0.895949, 0.891425, 0.888933, 0.891566, 0.891364, 0.893212, 0.890989, 0.888776, 0.89312, 0.893362, 0.893012, 0.904685, 0.90792, 0.90997, 0.909949, 0.907821, 0.908565, 0.905842, 0.905995, 0.905385, 0.904245, 0.892413, 0.893159, 0.893803, 0.895146, 0.894853, 0.906904, 0.909152, 0.916911, 0.913252, 0.914722, 0.907565, 0.907868, 0.913715, 0.914307, 0.931496, 0.918621, 0.919421, 0.921213, 0.921979, 0.920791, 0.921283, 0.926003, 0.93305, 0.932292, 0.930716, 0.935937, 0.941705, 0.938891, 0.942251, 0.944115, 0.953597, 0.957072, 0.954627, 0.949665, 0.949343, 0.947616, 0.952924, 0.946163, 0.949007, 0.952987, 0.955159, 0.955589, 0.95093, 0.952812, 0.954267, 0.95399, 0.951967, 0.950817, 0.95094, 0.952325, 0.953921, 0.956087, 0.95376, 0.955417, 0.968959, 0.974345, 1.20234, 1.00123, 1.00143, 1.0076, 1.02933, 1.02556, 1.0296, 1.31578, 1.05857, 1.10145, 1.08259, 1.09995, 1.10887, 1.11571, 1.11576, 1.11378, 1.11367, 1.1483, 1.15698, 1.14378, 1.14568, 1.1825, 1.59865, 1.1967, 1.17097, 1.17725, 1.18091, 1.18061, 1.18064, 1.18114, 1.18135, 1.18351, 1.18277, 1.18082, 1.18208, 1.18114, 1.18159, 1.18144, 1.18251, 1.18255, 1.1825, 1.17919, 1.17903, 1.18877, 1.18885, 1.16896, 1.4927, 1.15035
0.922189, 0.921984, 0.92421, 0.917177, 0.918921, 0.91998, 1.02728, 1.34771, 0.974629, 0.979007, 0.989266, 0.990356, 0.993786, 0.992909, 0.980169, 0.956035, 0.951928, 0.952382, 0.955094, 0.955854, 0.952708, 0.95237, 0.951793, 1.29603, 0.972579, 0.973179, 0.968754, 0.968721, 0.975088, 0.975861, 1.14424, 0.990294, 0.989785, 0.959205, 0.958786, 0.960254, 0.961897, 0.962664, 1.08233, 1.29897, 0.944601, 0.926807, 0.917094, 0.9179, 0.917001, 0.91804, 0.900516, 0.904383, 0.904185, 0.902221, 0.904337, 0.903703, 0.907679, 0.907912, 0.895236, 0.891877, 0.890645, 0.890639, 0.885202, 0.884789, 0.8853, 0.885394, 0.882438, 0.883689, 0.889854, 0.892492, 0.894636, 0.895562, 0.890385, 0.890128, 0.885738, 0.885007, 0.881108, 0.87331, 1.13387, 0.850783, 0.85302, 0.85453, 0.855315, 0.852445, 0.858309, 0.85928, 0.859632, 0.851569, 0.849746, 0.850653, 0.856897, 0.856722, 0.857344, 0.876652, 0.876924, 0.850478, 0.853173, 0.853128, 0.854854, 0.86844, 0.880091, 0.881235, 0.880387, 0.875457, 0.873798, 0.867219, 0.868792, 0.872444, 0.872156, 0.865103, 0.857311, 0.855795, 0.855801, 0.856719, 0.85787, 0.859757, 0.860746, 0.86302, 0.862918, 0.865637, 0.865163, 0.866109, 0.866116, 0.866292, 0.862853, 0.860608, 1.03202, 0.86516, 0.863674, 0.873804, 0.876143, 0.875225, 0.871603, 0.871715, 0.87281, 0.873338, 0.892794, 0.892528, 0.892939, 0.901399, 0.919906, 0.922358, 0.922268, 0.92121, 0.922655, 0.919952, 1.18843, 0.893381, 0.892548, 0.890797, 0.884554, 0.883941, 0.885194, 0.886869, 0.885098, 0.887675, 0.887228, 0.887309, 0.892651, 0.892958, 0.892926, 0.904661, 0.906336, 0.905365, 0.904487, 0.908036, 0.902438, 0.900839, 0.90127, 0.897966, 0.893742, 0.893914, 0.891305, 0.889547, 0.888729, 0.898249, 0.898164, 0.911461, 0.911409, 0.904031, 0.903265, 0.905066, 0.904645, 0.916322, 0.930296, 0.919933, 0.917927, 0.917057, 0.916675, 0.915127, 0.916723, 0.919008, 0.925499, 0.925884, 0.926125, 0.926135, 0.937479, 0.936927, 0.93981, 0.943777, 0.949621, 0.953783, 0.946473, 0.94415, 0.943409, 0.942961, 0.945146, 0.943069, 0.942083, 0.943052, 0.950752, 0.953423, 0.951229, 0.95405, 0.956115, 0.949135, 0.949519, 0.949218, 0.94942, 0.95224, 0.952233, 0.951896, 0.952693, 0.963709, 0.968475, 0.969572, 1.00793, 1.00104, 1.00263, 1.00407, 1.02412, 1.02555, 1.02873, 1.31549, 1.05309, 1.10188, 1.08294, 1.10208, 1.11231, 1.14034, 1.14675, 1.15718, 1.09089, 1.09154, 1.11859, 1.12033, 1.17678, 1.19072, 1.18469, 1.19133, 1.60319, 1.17305, 1.1769, 1.17695, 1.17748, 1.17746, 1.17998, 1.17792, 1.17756, 1.18072, 1.18104, 1.18495, 1.18327, 1.18129, 1.18145, 1.18181, 1.18331, 1.1839, 1.22538, 1.20472, 1.20495, 1.24094, 1.26303, 1.22288
0.921128, 0.920059, 0.918663, 0.918207, 0.920818, 0.922594, 0.950124, 1.3276, 0.983905, 0.982555, 1.41003, 0.991188, 0.988536, 0.99026, 0.980464, 0.9788, 0.953213, 0.953343, 0.953864, 0.956616, 0.955107, 0.952461, 0.951446, 0.951716, 0.974928, 0.977362, 0.968969, 0.969567, 0.978549, 0.981248, 0.984982, 0.986193, 1.05655, 1.05572, 0.950681, 0.950637, 0.960077, 0.961635, 1.32676, 1.1439, 0.926577, 0.920957, 0.916737, 0.913719, 0.91453, 0.915225, 0.91538, 0.905443, 0.905326, 0.901153, 0.902898, 0.903411, 0.904269, 0.905626, 0.894765, 0.892208, 0.890699, 0.890553, 0.880112, 0.879069, 0.882468, 0.881611, 0.880604, 0.881038, 0.890642, 0.893562, 0.894312, 0.893715, 0.890185, 0.889941, 0.888075, 0.8842, 0.87808, 0.880123, 1.0868, 0.848643, 0.848468, 0.851159, 0.855509, 0.854117, 0.853596, 0.859222, 0.858998, 0.849464, 0.849318, 0.856067, 0.855148, 0.853489, 0.87061, 0.870585, 1.0486, 0.847373, 0.848009, 0.849488, 0.853502, 0.870208, 0.87872, 0.880913, 0.880367, 0.878156, 0.874899, 0.867104, 0.870689, 0.872587, 0.872204, 0.866908, 0.860659, 0.855617, 0.855405, 0.855904, 0.857978, 0.859815, 0.862875, 0.864826, 0.865176, 0.864516, 0.865197, 0.865704, 0.865673, 0.862655, 0.860796, 0.85352, 0.853625, 0.855285, 0.86147, 0.866978, 0.868856, 0.875719, 0.864635, 0.868542, 0.86944, 0.890523, 0.890548, 0.88776, 0.887738, 1.18856, 0.919221, 0.919367, 0.916102, 0.919234, 0.922143, 0.911384, 1.10927, 0.894823, 0.894287, 0.892008, 0.880366, 0.881597, 0.880496, 0.881746, 0.88307, 0.884524, 0.886083, 0.886609, 0.888371, 0.891552, 0.898614, 0.902003, 0.902823, 0.898392, 0.901508, 0.900556, 0.900799, 0.898249, 0.897767, 0.889661, 0.890816, 0.890009, 0.889967, 0.888425, 0.890628, 0.896879, 0.8948, 0.895189, 0.896535, 0.904336, 0.902897, 0.904504, 0.904674, 0.907458, 0.921035, 0.921608, 0.914325, 0.912123, 0.912837, 0.912231, 0.908129, 0.919072, 0.925917, 0.921616, 0.922296, 0.922928, 0.92538, 0.934922, 0.940367, 0.943332, 0.948937, 0.949697, 0.942339, 0.939896, 0.939486, 0.941879, 0.942643, 0.940738, 0.939218, 0.939965, 0.947146, 0.949421, 0.950519, 0.955774, 0.957298, 0.952171, 0.950473, 0.949627, 0.949436, 0.950235, 0.952283, 0.951705, 0.952606, 0.963542, 0.965664, 0.969945, 1.08405, 1.00135, 1.00243, 1.0217, 1.02734, 1.02621, 1.32907, 1.28284, 1.38593, 1.40195, 1.1222, 1.1159, 1.09891, 1.10171, 1.09834, 1.09417, 1.09391, 1.0932, 1.12404, 1.12444, 1.13001, 1.19339, 1.1941, 1.19389, 1.17213, 1.22082, 1.17832, 1.17635, 1.17594, 1.17745, 1.17819, 1.17946, 1.17758, 1.18013, 1.17979, 1.18203, 1.18164, 1.18118, 1.18121, 1.18313, 1.1875, 1.21649, 1.20686, 1.26532, 1.19258, 1.1959, 1.21205, 1.15287
0.922481, 0.921372, 0.920723, 0.916569, 0.919162, 0.922643, 0.95339, 0.956393, 0.95837, 1.08617, 1.42658, 0.990993, 0.984857, 0.973552, 0.971017, 0.970902, 0.953614, 0.953568, 0.958599, 0.958263, 0.95562, 0.954825, 0.954986, 0.984447, 0.976634, 0.975787, 0.971361, 0.97148, 0.983678, 0.985675, 0.987202, 0.987107, 1.04621, 0.948314, 0.947247, 0.949709, 1.05266, 0.957196, 0.956783, 1.33313, 0.924716, 0.921512, 0.91445, 0.911281, 0.91243, 0.915406, 0.902059, 0.904449, 0.90403, 0.902127, 0.902831, 0.903333, 0.905084, 0.903916, 0.89111, 0.890856, 0.889235, 0.889102, 0.876942, 0.878366, 0.880103, 0.880476, 0.877569, 0.880189, 0.888357, 0.892156, 0.892365, 0.891166, 0.890097, 0.888582, 0.885946, 0.883817, 0.877961, 0.878061, 0.853552, 0.84895, 0.845571, 0.846799, 0.854672, 0.855361, 0.855431, 0.855977, 0.855945, 0.847403, 0.849006, 0.835095, 0.853048, 0.85347, 1.04805, 0.869155, 1.05006, 0.846761, 0.846988, 0.849948, 0.850259, 0.869902, 0.873599, 0.879385, 0.879197, 0.878807, 0.866934, 0.866777, 0.866874, 0.870736, 0.864759, 0.861327, 0.858776, 0.854062, 0.854179, 0.855609, 0.858771, 0.859299, 0.862328, 0.868459, 0.865255, 0.866565, 0.865032, 0.864931, 0.861366, 0.86105, 0.860586, 0.852882, 0.852826, 0.854224, 0.855841, 0.859048, 0.861645, 0.863506, 0.864369, 0.859869, 0.862655, 0.88786, 0.88827, 0.88639, 0.887738, 1.20163, 0.915284, 0.915306, 0.912715, 0.912661, 0.911616, 0.907799, 0.904176, 0.89749, 0.893742, 0.891224, 0.881578, 0.88041, 0.877052, 0.879291, 0.878692, 0.883421, 0.884756, 0.884431, 0.885919, 0.888562, 0.895325, 0.897144, 0.896751, 0.894222, 0.893904, 0.894459, 0.90041, 0.90067, 0.894662, 0.890913, 0.891098, 0.894632, 0.892293, 0.891619, 0.891459, 0.897669, 0.894155, 0.894544, 0.90409, 0.904582, 0.901429, 0.901955, 0.904305, 0.904502, 0.908993, 0.91128, 0.90903, 0.910206, 0.911718, 0.914114, 0.916183, 0.917719, 0.92494, 0.925101, 0.91954, 0.920079, 0.921366, 0.933568, 0.937402, 0.939449, 0.945511, 0.942767, 0.942168, 0.93842, 0.9364, 0.94227, 0.942562, 0.932622, 0.93383, 0.933652, 0.94127, 0.942648, 0.946619, 0.95521, 0.955699, 0.948416, 0.948755, 0.9474, 0.946783, 0.948601, 0.950456, 0.952606, 0.952548, 0.963427, 0.9652, 0.969696, 1.01199, 1.00152, 1.00671, 1.3781, 1.02578, 1.02931, 1.03661, 1.42105, 1.14086, 1.3874, 1.08905, 1.11204, 1.10158, 1.10041, 1.09762, 1.09386, 1.09467, 1.15719, 1.31252, 1.1251, 1.15712, 1.15029, 1.17059, 1.20841, 1.17378, 1.24407, 1.17854, 1.17877, 1.17814, 1.17574, 1.1773, 1.17776, 1.17419, 1.17423, 1.17789, 1.17856, 1.1805, 1.18177, 1.33977, 1.18821, 1.22277, 1.24464, 1.19505, 1.23908, 1.23947, 1.23806, 1.20718, 1.19123
0.918896, 0.919201, 0.915677, 0.915535, 0.919134, 0.985153, 0.993393, 0.953887, 0.954453, 0.952841, 1.09113, 0.976785, 0.976825, 0.97097, 0.969977, 0.956145, 0.953567, 0.953941, 0.958396, 0.957966, 0.956726, 0.956324, 0.957319, 0.976905, 0.978785, 0.974232, 0.973356, 0.97224, 0.995083, 0.988444, 0.99209, 0.988911, 1.04379, 0.944302, 0.942662, 0.94282, 0.94884, 0.952318, 0.952501, 0.94633, 0.925205, 1.03944, 0.907194, 0.906159, 0.906202, 0.90795, 0.899732, 0.89998, 0.900919, 0.9022, 0.903949, 0.900715, 0.903955, 0.903129, 0.890555, 0.88762, 0.887249, 0.881394, 0.880208, 0.877219, 0.877913, 0.875073, 0.876246, 0.877538, 0.887713, 0.889916, 0.891129, 0.891414, 0.887327, 0.88804, 0.881524, 0.880999, 0.875325, 0.876146, 1.00147, 0.844731, 0.844993, 0.847742, 0.852699, 0.852249, 0.853003, 0.853611, 0.845885, 0.848152, 0.849459, 0.849303, 0.847232, 0.846368, 0.845478, 0.851485, 0.847797, 0.840676, 0.841011, 0.845574, 1.26453, 0.869629, 0.870573, 0.874896, 0.876782, 0.876912, 0.862844, 0.864557, 0.866498, 0.86706, 0.866675, 0.859483, 0.856668, 0.851236, 0.852025, 0.853387, 0.859073, 0.858819, 0.867071, 0.868143, 0.86943, 0.863867, 0.865272, 0.865985, 0.861743, 0.859217, 0.859401, 0.850487, 0.850775, 0.850312, 0.851204, 0.851445, 0.855742, 0.855469, 0.851404, 0.850963, 0.8544, 0.88579, 0.884218, 0.88461, 0.887044, 1.075, 0.908612, 0.909198, 0.911427, 0.907736, 0.905298, 0.897021, 1.24358, 0.891157, 0.890413, 0.890021, 0.880697, 0.87818, 0.872639, 0.871949, 0.877582, 0.882075, 0.880868, 0.880153, 1.12, 0.888841, 0.894202, 0.894595, 0.891239, 0.89246, 0.893547, 0.894344, 0.897717, 0.89253, 0.891417, 0.890246, 0.890746, 0.893694, 0.887044, 0.887154, 0.887025, 0.893209, 0.893067, 0.892301, 0.900899, 0.899564, 0.897535, 0.897623, 0.902572, 0.901373, 0.900617, 0.904466, 0.904657, 0.906207, 0.915512, 0.916097, 0.914883, 0.915437, 0.918431, 0.921597, 0.919694, 0.918759, 0.921587, 0.929676, 0.933079, 0.93583, 0.937706, 0.941592, 0.93525, 0.932933, 0.932432, 0.936454, 0.937902, 0.932146, 0.931419, 0.932822, 0.935301, 0.937974, 0.942103, 0.950068, 0.950402, 0.949156, 0.947433, 0.947181, 0.94633, 0.946596, 0.948472, 0.955542, 0.963774, 0.963847, 0.971804, 0.974945, 0.992731, 0.998536, 1.00713, 1.02061, 1.02491, 1.0291, 1.31755, 1.34122, 1.30599, 1.40267, 1.12752, 1.09717, 1.1002, 1.10232, 1.13573, 1.17749, 1.14424, 1.10997, 1.11198, 1.13809, 1.17076, 1.16482, 1.20155, 1.20402, 1.20447, 1.24341, 1.24394, 1.1754, 1.17592, 1.17747, 1.17768, 1.1759, 1.17181, 1.17363, 1.31013, 1.18175, 1.18242, 1.3242, 1.32331, 1.23734, 1.42252, 1.19744, 1.19828, 1.23499, 1.22382, 1.22983, 1.23375, 1.16839
0.918903, 0.917602, 0.91612, 0.912128, 0.91835, 0.950358, 0.945988, 0.949568, 0.950183, 0.950927, 1.1874, 0.974881, 0.976109, 0.973074, 0.972358, 0.954047, 0.952441, 0.951259, 0.959566, 0.960851, 0.960497, 0.958789, 0.962461, 0.980703, 0.978838, 0.974633, 0.97313, 0.973411, 0.995596, 0.989996, 0.991021, 0.991051, 1.04193, 0.941004, 0.939323, 0.93847, 1.04063, 0.945783, 0.94407, 0.982022, 1.04699, 0.908239, 0.903665, 0.902851, 0.904151, 0.904727, 0.899529, 0.897219, 0.899193, 0.90063, 0.900191, 0.903547, 0.904105, 0.89199, 0.886438, 0.884213, 0.886282, 0.877984, 0.876404, 0.877756, 0.878347, 0.874437, 0.87423, 0.882351, 0.884175, 0.887932, 0.886452, 0.884845, 0.881581, 0.879573, 0.880036, 0.879822, 0.879728, 1.13364, 0.842758, 0.844073, 0.844205, 0.850211, 0.85312, 0.851615, 0.850443, 0.849773, 0.846737, 0.846663, 0.84568, 0.845749, 0.843668, 0.846173, 0.846272, 0.847197, 0.839535, 0.837611, 0.839237, 0.841963, 1.07436, 1.36872, 1.22952, 0.87056, 0.873303, 0.873879, 0.865811, 0.86365, 0.865926, 0.866667, 0.867108, 0.86005, 0.852056, 0.852434, 0.853358, 0.847344, 0.856853, 0.857154, 0.86614, 0.866296, 0.866368, 0.860696, 0.864282, 0.866008, 0.861095, 0.858967, 0.855609, 0.846097, 0.84705, 0.849179, 0.849067, 0.849848, 0.852381, 0.843495, 0.842459, 0.84194, 1.09926, 0.887017, 0.887417, 0.886506, 0.88735, 0.895028, 0.898614, 0.9042, 0.899198, 0.900527, 0.899721, 0.896628, 0.887593, 0.887075, 0.887694, 0.887866, 0.878307, 0.870538, 0.869775, 0.869864, 0.873051, 0.87439, 0.876281, 0.876062, 0.876749, 0.884383, 0.887374, 0.89264, 0.887647, 0.886412, 0.88336, 0.883529, 0.892403, 0.877306, 0.888657, 0.887521, 0.886857, 0.885908, 0.884356, 0.883564, 0.884231, 0.889291, 0.888888, 0.885647, 0.896371, 0.895688, 0.891706, 0.890334, 0.899073, 0.897502, 0.894527, 0.895987, 0.900624, 0.900599, 0.912284, 0.913398, 0.913114, 0.9117, 0.913037, 0.914524, 0.917915, 0.920151, 0.920376, 0.931557, 0.931869, 0.935047, 0.93962, 0.940629, 0.933951, 0.930284, 0.931323, 0.935675, 0.93649, 0.932086, 0.929914, 0.932627, 0.933525, 0.937537, 0.942152, 0.947346, 0.947951, 0.946533, 0.946799, 0.946046, 0.945686, 0.946953, 0.946607, 0.963155, 0.964224, 0.967784, 0.980314, 1.22996, 0.989397, 0.998334, 1.00521, 1.01154, 1.02367, 1.0315, 1.03332, 1.31577, 1.14818, 1.42936, 1.09751, 1.12954, 1.11264, 1.42199, 1.13964, 0.00460367, 1.16343, 1.11576, 1.11581, 1.11833, 1.1576, 1.16855, 1.15715, 1.21869, 1.15583, 1.16848, 1.25059, 1.17364, 1.17612, 1.17769, 1.18109, 1.2639, 1.33923, 1.27499, 1.26709, 1.31229, 1.26807, 1.19491, 1.1946, 1.43594, 1.19916, 1.19951, 1.19764, 1.19849, 1.43646, 1.23439, 1.23136, 1.17142
0.916225, 0.919107, 0.914055, 0.913429, 0.921168, 0.941063, 0.94331, 0.943363, 0.943153, 0.949055, 0.950764, 1.44423, 0.976172, 0.976093, 0.975297, 0.95238, 0.952406, 0.953853, 0.961515, 0.962615, 0.962156, 0.962131, 0.963333, 0.978955, 0.980147, 0.979669, 0.9747, 0.977003, 0.978649, 0.992586, 0.990974, 0.991633, 1.06063, 0.939203, 0.938732, 0.938688, 0.942792, 0.943425, 0.922949, 0.921377, 0.919167, 1.17849, 0.899151, 0.898199, 0.90051, 0.898552, 0.890942, 0.890072, 0.89123, 0.897475, 0.897544, 0.904263, 0.904446, 0.889375, 0.888085, 0.883337, 0.883586, 0.878396, 0.877411, 0.877848, 0.87358, 0.872028, 0.874527, 0.879754, 0.882406, 0.881698, 0.880526, 0.879377, 0.877631, 0.878378, 0.879558, 0.879739, 0.880588, 1.00669, 0.842833, 0.84334, 0.845018, 0.851437, 0.852545, 0.849029, 0.849998, 0.849481, 0.845206, 0.845576, 0.843843, 0.845775, 0.844379, 0.846649, 0.845169, 0.843317, 0.839413, 0.837599, 0.838137, 0.842455, 0.861484, 0.86324, 0.868014, 0.866773, 0.864542, 0.86619, 0.867568, 0.867098, 0.86719, 0.86847, 0.866816, 0.861288, 0.859663, 0.853132, 0.840543, 0.844754, 0.84466, 0.859981, 0.862262, 0.869958, 1.08977, 0.8463, 0.863013, 0.861717, 0.862622, 0.855525, 0.852004, 0.851516, 0.847615, 0.848769, 0.848962, 0.851857, 0.848902, 0.833246, 0.841152, 0.842105, 0.8398, 0.881108, 0.886718, 0.889168, 0.890693, 0.897789, 0.898246, 0.900445, 0.899851, 0.899666, 0.898731, 0.899529, 0.888602, 0.887119, 1.03427, 0.872771, 0.867949, 0.867513, 0.869625, 0.868327, 0.870959, 0.873605, 0.873928, 0.871877, 0.873172, 0.882127, 0.884427, 0.884858, 0.888808, 0.883255, 0.881455, 0.883193, 0.883438, 0.877281, 0.878572, 0.887931, 0.87982, 0.878121, 0.884117, 0.882149, 0.883241, 0.884449, 0.88662, 0.882301, 0.894888, 0.895001, 0.888541, 0.890357, 0.892553, 0.895029, 0.895932, 0.895051, 0.893947, 0.897415, 0.90137, 0.910944, 0.912347, 0.910995, 0.911249, 0.915127, 0.921989, 0.920559, 0.922503, 0.924852, 0.930513, 0.932351, 0.937685, 0.94095, 0.932013, 0.928678, 0.928697, 0.935647, 0.937192, 0.928984, 0.929287, 0.935137, 0.934991, 0.937713, 0.941602, 0.945489, 0.946301, 0.946167, 0.946037, 0.946342, 0.946803, 0.950048, 0.95311, 1.04566, 1.02606, 0.987202, 0.987184, 0.988024, 0.992892, 1.00033, 1.00494, 1.00599, 1.2746, 1.03322, 1.03857, 1.38222, 1.34012, 1.15978, 1.29465, 1.13265, 1.11532, 1.10935, 1.13026, 1.12264, 1.3127, 1.11605, 1.11511, 1.15143, 1.14, 1.18433, 1.18367, 1.23293, 1.15532, 1.1565, 1.2574, 1.17387, 1.17824, 1.18412, 1.18386, 1.18824, 1.32203, 1.25875, 1.26877, 1.34453, 1.19787, 1.19598, 1.19537, 1.19504, 1.20021, 1.20072, 1.19988, 1.20159, 1.57137, 1.57079, 1.20226, 1.20182
0.916199, 0.916766, 0.913016, 0.919381, 0.920459, 0.940764, 0.941194, 0.942391, 0.93768, 0.945126, 1.44038, 1.44899, 0.968921, 0.978542, 0.960389, 0.951196, 0.952796, 0.956105, 0.961868, 0.962441, 0.962748, 0.964021, 1.32786, 0.97844, 0.980007, 0.980023, 0.979944, 0.978588, 0.978399, 0.993277, 0.992763, 0.992586, 1.0682, 0.939384, 0.937912, 0.939785, 0.942814, 0.947042, 0.924195, 0.924546, 0.912289, 0.899863, 0.897993, 0.897733, 0.899073, 0.898022, 0.897773, 0.890256, 0.890246, 0.899381, 0.899709, 0.903784, 1.11196, 0.884856, 0.883426, 0.88305, 0.883352, 0.877502, 0.87515, 0.879109, 0.87135, 0.870286, 0.871644, 0.875769, 0.875882, 0.877295, 0.879169, 0.871792, 0.873138, 0.876992, 0.879854, 0.879744, 0.880019, 1.00682, 0.849843, 0.847353, 0.848013, 0.850275, 0.853436, 0.849536, 0.850221, 0.849549, 0.842428, 0.842417, 0.842179, 0.843439, 0.846311, 0.84746, 0.845694, 0.843619, 0.834697, 0.834732, 0.83757, 0.839384, 0.862498, 0.863496, 0.867292, 0.865447, 0.862702, 0.866625, 0.867847, 0.866362, 0.86927, 0.869353, 0.86385, 0.862873, 0.862982, 0.858479, 0.84056, 0.842394, 0.849927, 0.850371, 0.852103, 1.1024, 0.830631, 0.826056, 0.828565, 0.863043, 0.860131, 0.8542, 0.851285, 0.848376, 0.845844, 0.84794, 0.851417, 0.851208, 0.833277, 0.833145, 0.834298, 0.835252, 0.839593, 0.945694, 0.879039, 0.890551, 0.894194, 0.895174, 0.897506, 0.897255, 0.898565, 0.896846, 0.898684, 0.897821, 0.885168, 0.883633, 0.87329, 0.871779, 0.867576, 0.865305, 0.865356, 0.866354, 0.868713, 0.87041, 0.873173, 0.871398, 0.868165, 0.870953, 0.883211, 0.874422, 0.881717, 0.883448, 0.882657, 0.883366, 0.877182, 0.874193, 0.880499, 0.882485, 0.878537, 0.879178, 0.879257, 0.878358, 0.880007, 0.886226, 0.883258, 0.882151, 0.880783, 0.88618, 0.884435, 0.88435, 0.89119, 0.895088, 0.895997, 0.891949, 0.893206, 0.897296, 0.900374, 0.903204, 0.903877, 0.906884, 0.907846, 0.913263, 0.92163, 0.922524, 0.921974, 0.922435, 0.930776, 0.932318, 0.932516, 0.936791, 0.936347, 0.928537, 0.928528, 0.932694, 0.935998, 0.935159, 0.92826, 0.93052, 0.93426, 0.935363, 0.940854, 0.944227, 0.946213, 0.944747, 0.944278, 0.943389, 0.944947, 0.946519, 0.959758, 1.03849, 0.985345, 0.987701, 0.990196, 0.992413, 0.995846, 0.998536, 1.00229, 1.00195, 1.10896, 1.02192, 1.05111, 1.04962, 1.16426, 1.35353, 1.4004, 1.1202, 1.13203, 1.14401, 1.12696, 1.127, 1.12853, 1.11886, 1.11945, 1.12185, 1.12358, 1.17497, 1.14596, 1.14986, 1.23256, 1.25069, 1.17268, 1.17288, 1.17484, 1.29233, 1.18745, 1.20645, 1.27784, 1.35154, 1.30232, 1.30216, 1.19662, 1.19213, 1.19277, 1.19304, 1.38609, 1.401, 1.5557, 1.44045, 1.59703, 1.63776, 1.2095, 1.19508
0.914777, 0.913402, 0.912438, 0.914977, 0.936898, 0.939265, 0.938481, 0.934018, 0.936411, 0.937941, 0.947048, 1.4706, 0.960564, 0.980777, 0.94973, 0.949643, 0.950975, 0.952989, 0.960457, 0.959209, 0.960718, 0.963319, 0.979463, 0.980488, 0.980495, 0.980512, 0.980821, 0.981436, 1.00189, 0.9962, 0.995535, 0.995528, 1.06732, 0.936848, 0.93216, 0.933797, 0.932388, 0.923743, 0.920018, 0.91533, 0.914895, 0.900866, 0.896737, 0.896997, 0.896965, 0.896248, 0.896172, 0.890531, 0.888154, 0.897342, 0.897407, 0.905296, 0.890783, 0.884718, 0.883098, 0.883981, 0.87716, 0.874963, 0.874636, 0.876416, 0.870924, 0.869625, 0.870469, 0.871175, 0.873668, 0.873178, 0.87135, 0.870907, 0.871086, 0.873055, 0.877528, 0.878536, 0.875549, 1.13332, 0.848662, 0.849008, 0.848837, 0.849103, 0.850984, 0.845948, 0.84561, 0.842532, 0.841865, 0.84067, 0.840234, 0.841194, 0.84518, 0.846246, 0.845124, 0.838942, 0.832593, 0.833113, 0.834229, 0.845274, 0.85976, 0.862594, 0.866255, 0.859649, 0.860166, 0.863674, 0.866871, 0.866386, 0.867086, 0.869314, 0.868448, 0.866141, 0.861255, 0.839005, 0.838554, 0.838364, 0.848698, 0.850173, 0.851115, 0.81281, 0.817103, 0.817923, 0.81803, 0.85651, 0.857235, 0.847647, 0.845838, 0.843032, 0.84095, 0.845106, 0.848948, 0.84791, 0.848408, 0.830345, 0.82618, 0.831965, 1.13886, 0.873396, 0.875618, 1.2816, 0.886649, 0.887705, 0.891023, 0.896103, 0.894477, 0.894331, 0.897384, 0.897348, 0.893803, 0.886118, 0.883381, 0.865475, 0.86508, 0.86323, 0.863255, 0.86136, 0.86651, 0.866413, 0.867497, 0.866717, 0.864942, 0.869421, 0.87088, 0.870395, 0.870982, 0.87748, 0.879388, 0.87706, 0.873864, 0.873239, 0.87616, 0.876803, 0.87533, 0.877094, 0.877988, 0.879437, 0.874129, 0.877204, 0.876254, 0.875201, 0.8739, 0.881489, 0.881926, 0.878977, 0.878532, 0.884096, 0.888377, 0.889826, 0.891257, 0.895919, 0.895704, 0.898623, 0.902976, 0.904038, 0.904809, 0.913066, 0.92186, 0.922754, 0.922048, 0.923183, 0.928875, 0.92916, 0.932578, 0.936769, 0.93833, 0.928052, 0.928796, 0.930963, 0.931049, 0.930894, 0.930692, 0.934253, 0.935201, 0.934455, 0.94118, 0.942281, 0.942502, 0.942578, 0.9425, 0.942378, 0.943605, 0.945523, 0.952801, 1.10935, 1.00372, 0.987541, 0.989201, 0.990993, 0.994668, 0.996117, 1.00081, 1.00109, 1.0066, 1.09853, 1.05103, 1.05615, 1.43037, 1.16798, 1.1685, 1.14254, 1.1504, 1.14665, 1.13679, 1.12662, 1.12573, 1.12596, 1.12434, 1.12239, 1.12298, 1.12714, 1.14963, 1.15041, 1.15284, 1.25315, 1.25397, 1.17387, 1.17463, 1.2034, 1.19023, 1.32635, 1.27501, 1.29973, 1.36483, 1.28509, 1.35157, 1.18742, 1.18766, 1.36288, 1.40319, 1.40341, 1.50588, 1.50673, 1.20221, 1.21247, 0.00474428, 1.21572
0.914404, 0.913153, 0.911714, 0.915624, 0.936919, 0.938353, 0.93789, 0.930341, 0.930659, 0.932883, 0.936373, 0.956909, 0.957425, 0.957274, 0.946551, 0.947414, 0.950496, 0.952305, 0.955934, 0.956544, 0.957761, 1.25239, 1.52704, 0.981208, 0.979874, 0.979823, 0.98029, 0.99254, 0.994372, 0.994246, 0.994641, 1.04554, 1.05345, 0.924039, 0.928906, 0.92834, 0.924885, 0.917682, 0.917396, 0.916151, 1.2878, 0.897315, 0.895133, 0.897199, 0.891306, 0.89425, 0.890669, 0.890193, 0.888937, 0.901018, 0.904253, 0.903436, 0.887299, 0.886897, 0.885143, 0.883694, 0.880662, 0.876641, 0.873995, 0.874714, 0.866499, 0.864713, 0.866123, 0.867736, 0.869932, 0.869101, 0.869113, 0.867905, 0.870437, 0.873525, 0.87451, 0.875485, 0.874994, 0.852714, 0.8504, 0.847449, 0.847821, 0.848679, 0.847784, 0.841999, 0.844218, 0.836907, 0.838194, 0.839172, 0.834315, 0.838184, 0.838575, 0.841886, 0.840861, 0.836485, 0.83169, 0.83156, 0.836828, 1.18113, 0.861588, 0.865536, 0.865945, 0.864657, 0.863662, 0.863356, 0.86541, 0.863684, 0.865545, 0.867648, 0.863175, 0.86321, 0.855704, 0.853321, 0.835223, 0.83576, 0.842599, 0.847963, 0.812007, 0.811538, 0.814139, 0.814385, 0.814567, 0.815118, 0.839739, 0.837832, 0.839561, 0.839971, 0.838993, 0.838732, 0.846556, 0.847556, 0.819683, 0.808244, 0.808039, 0.815341, 0.0045689, 0.87401, 0.876162, 1.1657, 0.884167, 0.887298, 0.888083, 0.889306, 0.890855, 0.894019, 0.895639, 0.893816, 0.892062, 0.881787, 0.880201, 0.866413, 0.856026, 0.85523, 0.857889, 0.856148, 0.858877, 0.860189, 0.862666, 0.862507, 0.860746, 0.860962, 0.865245, 0.864619, 0.86651, 0.866968, 0.870507, 0.873349, 0.868579, 0.86848, 0.871037, 0.871631, 0.867381, 0.875763, 0.876051, 0.87388, 0.873294, 0.873133, 0.873875, 0.874408, 0.871034, 0.870345, 0.879226, 0.878631, 0.874866, 0.875769, 0.881821, 0.88907, 0.894188, 0.894018, 0.894228, 0.897144, 0.899348, 0.901332, 0.902, 0.903985, 0.920775, 0.921149, 0.920938, 0.922105, 0.926333, 0.929133, 0.932417, 0.935974, 0.935779, 0.928788, 0.928236, 0.927195, 0.926791, 0.926392, 0.929565, 0.931996, 0.935498, 0.935213, 0.94282, 0.941902, 0.941097, 0.940417, 0.942292, 0.939747, 0.940225, 0.948635, 0.948, 0.950365, 1.10829, 0.979775, 0.988214, 0.989893, 0.991059, 0.992568, 1.00526, 1.00809, 1.011, 1.01186, 1.03432, 1.0509, 1.05414, 1.06012, 1.09034, 1.14738, 1.09566, 1.09627, 1.15646, 1.13602, 1.12562, 1.12554, 1.12397, 1.12136, 1.12129, 1.12467, 1.13445, 1.20205, 1.25179, 1.25778, 1.18907, 1.17494, 1.17499, 1.18352, 1.18463, 1.2864, 1.33862, 1.20265, 1.31191, 1.31978, 1.44133, 1.18871, 1.18803, 1.3526, 1.40496, 1.21235, 1.21273, 1.20885, 1.57961, 1.30537, 1.24405, 1.21974
