0.542299227038477,0.541292924746908,1.04509332727309,1.02615438940817,0,0.576522636551567,0.576761884464807,0.00444076087573565,0.00444479704282162,0,0.00413048737970178,0.415638459657011,0.415070474153058,0.4134231335596,0,0.394580077491971,0.393780149354571,0.392540991269581,0.392540991269581,0,0.392557428149116,0.364272297948253,0.374827514090038,0.375365365314842,0,0.376231954130358,0.3757561977838,0.370211490420454,0.371384900987302,0,0.370519225331759,0.372638669631879,0.371681677978917,0.371237882231455,0,0.369214319728627,0.360370365378494,0.361513641666193,0.36248889651864,0,0.350279034503603,0.349827020316374,0.349531156484733,0.342610317040267,0,0.342320845328445,0.340664373135246,0.337694776899145,0.337205323152974,0,0.33370244149194,0.331308136039586,0.329721064004426,0.326390769578516,0,0.323689642374831,0.322354602492549,0.323059561992632,0.322881495797663,0,0.325636499439826,0.327422640349363,0.327852738697211,0.329124770541273,0,0.309707336849871,0.311340066883742,0.311699851913577,0.310588536224975,0,0.314753458867304,0.315130593936649,0.3167569318507,0.318389661884571,0,0.318275516887795,0.32446126255303,0.324472220472721,0.321634119272905,0,0.321345560721058,0.305692172443311,0.306894804129334,0.307004383326238,0,0.315489465806509,0.315219170454146,0.332095279937347,0.337420828906885,0,0.337755958617417,0.341751033504544,0.341866091661294,0.346529599649536,0,0.347454630703401,0.371203182152436,0.37189535741288,0.371630541020362,0,0.370905492000846,0.371211400592204,0.65994619231461,0.416430169354642,0,0.417848306794576,0.420399675762492,0.421621483807973,0.435729805409372,0,0.436717844501457,0.435780942367927,0.434551829042653,0.433844130062648,0,0.357263795146264,0.356129650458307,0.357985191525882,0.35540003563892,0,0.356243795455082,0.35679990987937,0.356307716653276,0.354930671412181,0,0.35453253366343,0.359195128491698,0.358542219110145,0.355913231544421,0,0.355706857390252,0.353476920733254,0.352891585189791,0.35463480758054,0,0.353382865255911,0.356152479457662,0.35617165581712,0.349937512673252,0,0.350648864293155,0.351276205195431,0.352100788652134,0.34843262503577,0,0.349026179019,0.348847199664057,0.35526945376261,0.356471172288658,0,0.356088558259468,0.36168896838124,0.361674357821653,0.361845118736828,0,0.361743757979692,0.360459855055966,0.360146641184815,0.368678294823771,0,0.367396218219993,0.372319976800883,0.374199260027788,0.373665061442881,0,0.373585616525125,0.372707156629944,0.373325365932478,0.377007226948455,0,0.387026418185384,0.384648549612565,0.393295261408271,0.393395709005433,0,0.39322129545036,0.430212492845252,0.430898275985877,0.429441785827027,0,0.429607980942331,0.433934532900094,0.432890791049582,0.432201355269061,0,0.431194139817518,0.440281907880762,0.435694192170378,0.434724416277777,0,0.44476187071419,0.445304287738865,0.446042120998019,0.44725753692368,0,0.436537951986539,0.437499509439373,0.461898230790038,0.463722724418491,0,0.465209348856489,0.469187073704107,0.479065638305009,0.480595181261795,0,0.488491275558708,0.488864757988156,0.490944936409385,0.505176534607301,0,0.504236892993848,0.513629656488476,0.514623174540406,0.515140023085803,0,0.517842976609437,0.518578070388669,0.531025353996997,0.535231368838165,0,0.53551079579027,0.526814773355958,0.53006744918406,0.537133481064424,0,0.543625135321017,0.545193030996719,0.553770342634385,0.553734729395391,0,0.555592096782915,0.556748157310253,0.555629536341858,0.554646976209618,0,0.556329016882095,0.557657664644557,0.558273134467168,0.558993617686812,0,0.559831898543129,0.562476409828414,0.562347654272051,0.560363357648113,0,0.571283837779578,0.572585090742814,0.76732102104096
0.547578204849331,0.843019243422267,0.935715025563342,1.13494826873443,0,1.16706410502706,0.00434586529121673,0.598619281607273,0.00374675016374346,0,0.508370768197055,0.397591679086884,0.413969203224172,0.464077943648455,0,0.395412879388442,0.396519629277173,0.381914548649809,0.387780688324073,0,0.365355305677655,0.365667606388832,0.36432160858686,0.37264323543175,0,0.376254783129713,0.376344272807185,0.366529629404477,0.371548356622684,0,0.371735554417395,0.377735015447893,0.37528226775719,0.369223451328369,0,0.368303899234349,0.361850597696673,0.36147163630738,0.362750973431235,0,0.350444316458934,0.349623385642127,0.349057226458123,0.343019412708709,0,0.341688938626299,0.338312073041705,0.336525018972194,0.335134276331487,0,0.328477340119564,0.328778682911051,0.327661888262603,0.327294797952975,0,0.324224754119712,0.323677771295166,0.326798952086984,0.318524809560752,0,0.327653669822836,0.328362281962815,0.328684627433708,0.312119905501709,0,0.313531650821823,0.305761572601351,0.31157657531706,0.311928141907127,0,0.315307746971644,0.314694103468981,0.314200997082912,0.316308570303367,0,0.317951345096954,0.324729731585445,0.325639238919749,0.318560422799746,0,0.308217059771976,0.308095609495407,0.307963201299148,0.306327731785355,0,0.331843247784468,0.332034098219076,0.334397356232307,0.339501007328114,0,0.338262762403098,0.341549225150246,0.342277013649684,0.346889384679371,0,0.346206341018669,0.369480962441093,0.369704686634773,0.370942018399814,0,0.369583236358204,0.668074229244969,0.46559196288568,0.417625495760871,0,0.418148736426088,0.423224992722669,0.423782020306931,0.433539134631265,0,0.43618364591655,0.437831899669982,0.556718023031105,0.359782290355109,0,0.361494465306735,0.359948485470414,0.356412730050309,0.355375380319617,0,0.355366248719875,0.358090204922915,0.355862094585866,0.355067645408311,0,0.353833966283166,0.34720442487047,0.354413822866784,0.354927018772284,0,0.354790957936129,0.353319857217691,0.352221325768728,0.348364138037705,0,0.346441023132038,0.345278570484881,0.345137943848854,0.352550976519415,0,0.352025909534249,0.343374631938673,0.344747111379896,0.347637262698241,0,0.347714881296048,0.347556904620512,0.349395095648577,0.355947018463467,0,0.355913231544421,0.361585781304155,0.360469899815682,0.361709057900672,0,0.363719836163862,0.364996433807794,0.365314213478816,0.367522234296433,0,0.36911935109131,0.371652456859742,0.373869609277101,0.372651453871518,0,0.373086118019237,0.377997092360488,0.374839385169702,0.375970790377737,0,0.385089605880104,0.391222388266835,0.392770194423105,0.392440543672419,0,0.4080537529113,0.427837363752356,0.429039082278404,0.429909323733817,0,0.42917514311456,0.434211220372276,0.434433118246007,0.433901659141022,0,0.431678114603844,0.440844414424869,0.437330574844146,0.43474907159708,0,0.445812917844495,0.447079470728711,0.449986972086566,0.441285470692408,0,0.440143107564683,0.437524164758676,0.466474075420757,0.463517263424296,0,0.467868470701362,0.468521380082915,0.476168181706871,0.48484411462175,0,0.486294212660781,0.488556109916876,0.488694910232954,0.497006492318128,0,0.498872991305394,0.509703068599413,0.511025324242055,0.513804070043548,0,0.5168001479189,0.530910295840248,0.532143974965393,0.532297385841058,0,0.528829204259044,0.527136205666876,0.532109274886373,0.541957705208126,0,0.542828859823514,0.545944561655486,0.550068392098976,0.555142822075609,0,0.555533654544566,0.556857736507157,0.558600958897906,0.553542052640835,0,0.555762857698091,0.557811075520223,0.555174782674706,0.555863305295253,0,0.557427548331058,0.556487906717606,0.561594297293336,0.562691915582325,0,0.571576962131296,0.573818769867959,0.725965832129364
0,0,0,0,0,0,0,0,0,0,0,0,0,0,0,0,0,0,0,0,0,0,0,0,0,0,0,0,0,0,0,0,0,0,0,0,0,0,0,0,0,0,0,0,0,0,0,0,0,0,0,0,0,0,0,0,0,0,0,0,0,0,0,0,0,0,0,0,0,0,0,0,0,0,0,0,0,0,0,0,0,0,0,0,0,0,0,0,0,0,0,0,0,0,0,0,0,0,0,0,0,0,0,0,0,0,0,0,0,0,0,0,0,0,0,0,0,0,0,0,0,0,0,0,0,0,0,0,0,0,0,0,0,0,0,0,0,0,0,0,0,0,0,0,0,0,0,0,0,0,0,0,0,0,0,0,0,0,0,0,0,0,0,0,0,0,0,0,0,0,0,0,0,0,0,0,0,0,0,0,0,0,0,0,0,0,0,0,0,0,0,0,0,0,0,0,0,0,0,0,0,0,0,0,0,0,0,0,0,0,0,0,0,0,0,0,0,0,0,0,0,0,0,0,0,0,0,0,0,0,0,0,0,0,0,0,0,0,0,0,0,0,0,0,0,0,0,0
0.551556842856923,0.548291382789182,0.912430359381202,0.593630688668215,0,0.59722306000672,0.00391846989689188,0.546511633999465,0.00398454615262504,0,0.400162224414259,0.399339467277504,0.397823621720331,0.395419271508261,0,0.382653295068937,0.381068049353725,0.381088138873157,0.380921943757853,0,0.360515557814392,0.364794625453496,0.36526946864008,0.366558850523652,0,0.374222089027143,0.363329003694904,0.368439046910531,0.366559763683626,0,0.378465543427253,0.377363359338393,0.378046402999095,0.36836508095262,0,0.359785029835032,0.362342790922767,0.3653041687191,0.364935252089523,0,0.349395095648577,0.347814415733236,0.347051013994804,0.333911555126032,0,0.342615796000112,0.341074381963662,0.337059217557102,0.330708189936536,0,0.325101387694945,0.326281190381612,0.325840134114073,0.32820247896733,0,0.325128782494171,0.323995550966188,0.320909983413364,0.320131971115345,0,0.321887064585759,0.324166311881363,0.324691378866529,0.31525478369314,0,0.314265831441081,0.3121591713806,0.306924938408482,0.311698025593629,0,0.313749896055657,0.31511141757719,0.316011793311752,0.317368749033414,0,0.319261729659932,0.324864879261627,0.324411038754449,0.318364093405293,0,0.314474945075173,0.309539315414618,0.308499226204004,0.308682771358818,0,0.315695839960679,0.336700345687241,0.338030819769651,0.336557892731265,0,0.338524839315693,0.342181131852393,0.341619538468259,0.349325695490538,0,0.369494659840707,0.372072510447875,0.371299063949727,0.365043918126453,0,0.364140802911968,0.669338042649263,0.472432444252416,0.41667306990778,0,0.41929475219371,0.427917721830086,0.436215606515647,0.437855641829311,0,0.437637396595477,0.436866689577252,0.561646347411865,0.358582398149009,0,0.360371278538468,0.360069022587008,0.357501216739556,0.356721378121589,0,0.352569239718899,0.354096043195762,0.356468432808735,0.355389990879204,0,0.347170637951425,0.348500198873861,0.347144156312173,0.355876705145453,0,0.355482220036598,0.34936313504948,0.349859894075445,0.348670959789036,0,0.346699447404737,0.346708579004479,0.34627391485676,0.346379841413767,0,0.348765928426353,0.346191730459082,0.345669402953839,0.345950656225893,0,0.348088363725496,0.347444585943685,0.347319483027219,0.349392356168655,0,0.353846750522805,0.361647876182401,0.361930042614429,0.360083633146595,0,0.362632262634589,0.364916988890039,0.365050310246272,0.366822753756195,0,0.369669073395779,0.370711902086316,0.375040280364027,0.373485168927963,0,0.37060414920936,0.37094110523984,0.371828696734763,0.377810807725751,0,0.388033633636927,0.389998753901406,0.390493686607423,0.394206595062523,0,0.412852408575725,0.428702126247924,0.429513925464989,0.429628983621738,0,0.431382250772203,0.43501845378947,0.434973708950734,0.43657721786543,0,0.441896374715148,0.440540332153461,0.437390843402443,0.437204558767706,0,0.447294976482622,0.446962586252013,0.448749640321524,0.441170412535659,0,0.440326652719498,0.439293868788677,0.438284827017185,0.467588130589282,0,0.468432803565417,0.46777898102389,0.484519942830909,0.486207462463232,0,0.487536110225694,0.486907856163444,0.493010504271026,0.495770986873035,0,0.4958394738711,0.507120652192374,0.508283104839531,0.513623264368656,0,0.521382384669439,0.5305368134108,0.530664655807188,0.530807108763163,0,0.525670583908284,0.526416635607206,0.541602485978162,0.541507517340845,0,0.544719100970109,0.542973139099437,0.551014425832248,0.551784219690499,0,0.55347356564277,0.554881658322987,0.554591273451191,0.555109948316537,0,0.557693277883551,0.556420332879515,0.555225919633261,0.555395767388462,0,0.557823859759861,0.55722573997676,0.561608907852923,0.567559058244814,0,0.575944606287898,0.578206503543993,0.694801508529846
0.0045502487566423,0.00399909279101405,0.00408274737625057,0.905107729548087,0,0.547943468839011,0.548048482236044,0.548652994138965,0.51333927161668,0,0.397066612101719,0.396821885228633,0.397269333615992,0.397503102569387,0,0.375916913939259,0.380229768497409,0.381798577333085,0.368881929498018,0,0.3682171490368,0.361179425115636,0.360502773574753,0.359030759696342,0,0.364150847671685,0.364204724110162,0.364981823248207,0.367955072124204,0,0.379790538549818,0.37656708384089,0.377419975256793,0.361158422436229,0,0.36012381218546,0.360290920460739,0.365284079199667,0.366333300010024,0,0.512501903920338,0.342784730595339,0.342713504117352,0.333695136212147,0,0.334269513835919,0.319371308856836,0.318210682529627,0.318280082687666,0,0.317677397104694,0.327231789914755,0.32698067092185,0.327236355714626,0,0.326849175885565,0.318301998527047,0.324031164205182,0.323381907463525,0,0.323857663810084,0.323799221571735,0.322057825500934,0.308897363952755,0,0.314393673837469,0.311722680912932,0.313571829860688,0.313390111025822,0,0.314896824983253,0.314716932468336,0.31726556195633,0.320939204532539,0,0.320888067573983,0.321635032432879,0.321825882867487,0.313676843257721,0,0.312000281545089,0.31163958335528,0.304699567551355,0.306425439902594,0,0.336470229373742,0.337248241671761,0.339810568559368,0.338844445306664,0,0.338185143805291,0.342712590957377,0.354346249028693,0.355303240681655,0,0.383115354015882,0.382887064022332,0.371904489012622,0.371172134713313,0,0.368540407667667,0.679751718995047,0.476460392898615,0.429289288111335,0,0.430006118691083,0.432429645262611,0.437418238201669,0.43761639391607,0,0.438196250499688,0.438151505660952,0.574203210217097,0.365179978962609,0,0.361053409039196,0.360200517623293,0.359748503436064,0.357240052986935,0,0.353623026329126,0.35261307139766,0.352820358711804,0.345236565126068,0,0.348010745127689,0.349062705417968,0.347765105094629,0.347986089808386,0,0.347571515180099,0.348681004548752,0.349705570039806,0.349172284614872,0,0.348728488867411,0.348817065384908,0.348742186267024,0.349539374924501,0,0.350613251054161,0.344005625480845,0.345784461110588,0.347692965456667,0,0.349309258611002,0.348685570348623,0.347972392408773,0.349785928117535,0,0.355930581583931,0.353108917263651,0.36104336427948,0.361863381936312,0,0.362792978790048,0.364772709614115,0.365271294960029,0.367261983703786,0,0.36801077488263,0.372222268683644,0.371294498149856,0.371003200118086,0,0.372588445833298,0.371395858906992,0.371545617142761,0.387133257902365,0,0.388061941596127,0.387716767125879,0.392734581184111,0.392761062823363,0,0.407298569612637,0.430086476768812,0.431263539975557,0.431172223978137,0,0.431454390410165,0.433624058508865,0.436104200998794,0.438613564607897,0,0.441782229718373,0.436537038826565,0.437724146793026,0.447573490274754,0,0.448155173178319,0.446884967654206,0.445363643137188,0.453433237829199,0,0.439915730731107,0.432581229818328,0.431934712556594,0.434195696652715,0,0.434680584599015,0.46630514082553,0.46772236510549,0.487488625907035,0,0.488233764445983,0.486028483108289,0.485457758124413,0.49381773768822,0,0.497190950632917,1.37559331673551,0.508394510356384,0.507725164095295,0,0.527338014021175,0.528899517577058,0.532245335722529,0.523148436059543,0,0.522324765762814,0.526811120716061,0.540969666116041,0.541614357057827,0,0.542499209072827,0.543920085992683,0.545353747152178,0.552377773673729,0,0.553033422535205,0.555733636578916,0.555672454860645,0.554592186611166,0,0.550648248682593,0.550477487767418,0.553122912212677,0.556125382207848,0,0.559052059925161,0.56012776237477,0.559179902321549,0.57717554593312,0,0.579389958870557,0.598790955682422,0.84635045100815
0.542325708677729,0.0039891028208963,0.611674729758419,0.548757094376024,0,0.550903020315395,0.548996342289264,0.548297774909001,0.583312894119723,0,0.402980236094642,0.398013558994965,0.397753308402318,0.394493327294422,0,0.379014352571748,0.377484809614962,0.378556859424673,0.372224095003592,0,0.362730883911803,0.363444061851653,0.363590167447525,0.362165637887773,0,0.360957527241905,0.363504330409951,0.362975610784888,0.369295590966331,0,0.378499330346298,0.377872902603997,0.377472025375323,0.361933695254326,0,0.361835073977112,0.362607607315286,0.365418313715875,0.365092315605085,0,0.542248090079922,0.340342027664353,0.334591859306812,0.333927078845594,0,0.320545632583658,0.318145848171459,0.317457325550912,0.320944683492384,0,0.319981299719602,0.314041194087427,0.314106028445596,0.3268373048059,0,0.31012008515821,0.320110055275964,0.321435963558504,0.324287762157932,0,0.323044038273071,0.312502519530899,0.311915357667488,0.311645062315125,0,0.310499046547503,0.312734462164346,0.310571186185465,0.317134980080019,0,0.315943306313687,0.315495857926329,0.330423284024586,0.328841690949271,0,0.323648550175992,0.323709731894263,0.323030340873458,0.315343360210637,0,0.31432427367943,0.308660855519437,0.307191581120949,0.312104381782148,0,0.334671304224567,0.334898681058143,0.334331608714164,0.339287327894151,0,0.33828924404235,0.346226430538101,0.34992838107351,0.387504914011865,0,0.388285665789806,0.387544179890755,0.374524344978603,0.374392849942318,0,0.373271489494,0.672713081913908,0.430826136347915,0.432346547704959,0,0.431773083241161,0.432399510983462,0.43678815781947,0.436505078227468,0,0.437067584771576,0.575468849941339,0.595899891204103,0.357852783329623,0,0.362692531192886,0.356187179536681,0.355757994348807,0.34834130903835,0,0.349900986274284,0.353039517105612,0.352634074077067,0.346646484126234,0,0.347954129209289,0.349750314878541,0.349284603291699,0.349862633555368,0,0.3502260712251,0.350958425524409,0.351395829152051,0.352536365959827,0,0.350417834819682,0.350011478631163,0.353053214505225,0.352499839560859,0,0.345423762920779,0.346383494053664,0.344979054013343,0.349430708887571,0,0.348885552382973,0.349383224568913,0.349405140408294,0.357287537305593,0,0.359293749768912,0.358587877108855,0.359119336213839,0.364142629231917,0,0.365156236803279,0.36569774066798,0.368787874020675,0.368606155185809,0,0.367467444697981,0.370353030216455,0.371462519585109,0.372709896109867,0,0.372642322271776,0.373930790995373,0.374517952858784,0.387085773583707,0,0.38812129699445,0.387374332135554,0.392646004666614,0.394074186866264,0,0.392488941151051,0.397202672937875,0.432458866381785,0.432074426032647,0,0.431647980324695,0.43320765756063,0.434416681366471,0.434841300754475,0,0.44423589056905,0.437683054594187,0.436338883112164,0.449797947971906,0,0.450392415115111,0.447615495633567,0.448190786417313,0.456210157310743,0,0.440274602600968,0.436695928662076,0.43396192769932,0.435666797371152,0,0.433898006501125,0.434686976718835,0.471158586088406,0.484773801303737,0,0.486937990442592,0.485888769632236,0.487353478230854,0.494070683001073,0,0.4958394738711,0.496509733292163,0.505818486069164,0.519027345095975,0,0.527917870604792,0.528921433416439,0.518307775036305,0.517875850368508,0,0.522941148745399,0.538063991078135,0.542307445478245,0.542859907262636,0,0.543062628776909,0.546252296566792,0.546550899878355,0.547046745744346,0,0.548741570656462,0.554251577940789,0.554979366440227,0.55290192749892,0,0.552238060197677,0.548474927943996,0.551487442698884,0.557291487494903,0,0.55846489806175,0.563423356721659,0.572802422816674,0.574534687287732,0,0.58080809631049,0.602369629621314,0.60159253048327
0.535708038344697,0.538155307075555,0.538895879814632,0.549262071841757,0,0.548926028971251,0.549418222197345,0.535338208555146,0.587036760494512,0,0.400135742775007,0.400995939470704,0.400709207238805,0.377422714736716,0,0.377599867771711,0.378598864783486,0.379439885119725,0.359348539367364,0,0.36229987240398,0.352917153669069,0.358229005238994,0.359702845437354,0,0.363674178165152,0.365259423880364,0.36431065066717,0.36168896838124,0,0.377958739641572,0.377907602683016,0.377652831050215,0.357246445106754,0,0.3623628804422,0.364008394715709,0.363210292898258,0.33915674601784,0,0.341518177711123,0.340268061706442,0.330657052977981,0.329434331772527,0,0.322125399339025,0.31908731610486,0.319140279383363,0.317962303016645,0,0.317608910106629,0.313318884547835,0.312799296522515,0.31368962749736,0,0.312927138918903,0.317209859197903,0.322287941814433,0.322381997291776,0,0.317808892140979,0.3146721876296,0.314473118755224,0.310378509430909,0,0.30906355906806,0.309316504380914,0.312178347740058,0.318108408612517,0,0.318562249119694,0.32049175614518,0.328620706235514,0.329387760613842,0,0.330901779851067,0.324495049472076,0.325121477214377,0.310404991070161,0,0.307948590739561,0.3071614468418,0.308736647797296,0.311174784928412,0,0.336708564127009,0.337003514798675,0.337100309755941,0.343242223742414,0,0.349728399039161,0.352590242398305,0.351520932068516,0.38776699092446,0,0.388325844828671,0.388779685335849,0.376177164531906,0.375826511101813,0,0.375368104794765,0.43127723737517,0.431840657079252,0.432860656770434,0,0.433444165993948,0.435453117937189,0.436803681539032,0.436333404152318,0,0.380774925002006,0.381403179064256,0.366851061715396,0.360115593745692,0,0.365570811431567,0.359885477432194,0.359951224950336,0.351951943576339,0,0.34947819320623,0.342010370937217,0.34093284216766,0.34860429911092,0,0.344717890260722,0.34934578500997,0.349592338203005,0.349736617478928,0,0.350422400619553,0.352803921832268,0.352359212924832,0.351963814656004,0,0.353162793702129,0.353813876763734,0.352805748152217,0.351036044122216,0,0.350171281626648,0.34844997507528,0.349424316767752,0.348297477359588,0,0.350270816063836,0.349143976655672,0.354015685118032,0.361263435833262,0,0.36100866420046,0.360340231099346,0.360224259782622,0.362032316531539,0,0.360165817544273,0.367240981024379,0.368651813184519,0.368996987654767,0,0.370606888689283,0.371801301935537,0.374577308257107,0.373947227874909,0,0.370669896727503,0.372492564036007,0.375558042069398,0.38259302651064,0,0.386709551674336,0.387720419765776,0.388087510075405,0.395530677025114,0,0.394590122251687,0.380715569603683,0.430948499784458,0.431187747697698,0,0.419991493254025,0.419860911377714,0.430554014675603,0.430342161561588,0,0.439215337030896,0.436957092414697,0.438655569966711,0.438574298729007,0,0.450310230717433,0.450817947663088,0.450819773983037,0.454343658323477,0,0.427931419229699,0.436311488312938,0.436244827634821,0.438011792184899,0,0.437849249709491,0.595320034620486,0.463578445142567,0.470597905864247,0,0.485847677433397,0.484566513989593,0.484168376240842,0.491638937989777,0,0.491833441064282,0.492257147292311,0.519346951086946,0.517149888189019,0,0.519865625952291,0.518728741784412,0.519161579612183,0.517122493389793,0,0.515702529629911,0.534588504216328,0.538517831585313,0.54041720433165,0,0.544624132332792,0.544265260462931,0.545866029897705,0.547586423289099,0,0.550291203132681,0.5494693591559,0.548978992249755,0.550176144975932,0,0.55256497146844,0.54864751517912,0.555039634998524,0.557535301208014,0,0.561804324087402,0.564537411890184,0.573334795081633,0.573927435904889,0,0.597807482390208,0.59847956813122,0.613007943320751
0,0,0,0,0,0,0,0,0,0,0,0,0,0,0,0,0,0,0,0,0,0,0,0,0,0,0,0,0,0,0,0,0,0,0,0,0,0,0,0,0,0,0,0,0,0,0,0,0,0,0,0,0,0,0,0,0,0,0,0,0,0,0,0,0,0,0,0,0,0,0,0,0,0,0,0,0,0,0,0,0,0,0,0,0,0,0,0,0,0,0,0,0,0,0,0,0,0,0,0,0,0,0,0,0,0,0,0,0,0,0,0,0,0,0,0,0,0,0,0,0,0,0,0,0,0,0,0,0,0,0,0,0,0,0,0,0,0,0,0,0,0,0,0,0,0,0,0,0,0,0,0,0,0,0,0,0,0,0,0,0,0,0,0,0,0,0,0,0,0,0,0,0,0,0,0,0,0,0,0,0,0,0,0,0,0,0,0,0,0,0,0,0,0,0,0,0,0,0,0,0,0,0,0,0,0,0,0,0,0,0,0,0,0,0,0,0,0,0,0,0,0,0,0,0,0,0,0,0,0,0,0,0,0,0,0,0,0,0,0,0,0,0,0,0,0,0,0
0.536360034566277,0.537191010142799,0.539790776589348,0.545044185920924,0,0.634504642273407,0.00404253181098678,0.543019710258122,0.402182134277191,0,0.402430513790173,0.40273642238153,0.400379556488119,0.377990700240669,0,0.378259169273084,0.378569643664312,0.377324093459502,0.35967819011805,0,0.354273196230757,0.352592068718254,0.359051762375749,0.357100339510882,0,0.353993769278652,0.352089830732443,0.352412176203336,0.362992047664424,0,0.361829595017267,0.355673070471206,0.356933231235603,0.355637457232213,0,0.360841555925182,0.364572727579765,0.364836630812309,0.339360380692087,0,0.339853487078155,0.338863621666122,0.328429855800906,0.329222478658512,0,0.321149231326605,0.319604164650257,0.313003844356736,0.316005401191933,0,0.311614014876002,0.310788518259325,0.305527803647955,0.303383704028532,0,0.311738204632493,0.312949054758283,0.318381443444803,0.321243286803947,0,0.314804595825859,0.315696753120653,0.313584614100327,0.305114142179642,0,0.305324168973709,0.30408318456877,0.311798473190791,0.30960049713289,0,0.315345186530586,0.318203377249834,0.330384931305669,0.328304752884441,0,0.325992631829765,0.326197179663986,0.310079906119345,0.311628625435589,0,0.306345994984839,0.305862020198513,0.305243810895979,0.3105310071466,0,0.31037668311096,0.322738129681714,0.335315995166353,0.344440289628565,0,0.344464944947868,0.354822918535226,0.355872139345582,0.389116641366329,0,0.388599792820931,0.38772133292575,0.373309842212917,0.37596713773784,0,0.375364452154868,0.432340155585139,0.432127389311151,0.432271668587074,0,0.432624148337116,0.438354227175224,0.435071417067973,0.36841073895133,0,0.368551365587357,0.381426008063611,0.36737156290069,0.362029577051617,0,0.356781646679886,0.361417759868902,0.356760644000479,0.352689776835493,0,0.337540452863505,0.342737246276681,0.340775778652098,0.343873217284586,0,0.346128722420862,0.340312806545178,0.344616529503586,0.351582113786788,0,0.352731782194306,0.352009472654714,0.351120054839842,0.352143707170921,0,0.34927181905206,0.351076223161081,0.349567682883701,0.34968913316027,0,0.34918050305464,0.348944907781296,0.347152374751941,0.348361398557782,0,0.351123707479739,0.354829310655045,0.356050205540551,0.35892391997936,0,0.360321967899862,0.360531994693928,0.359242612810356,0.359869040552658,0,0.361748323779563,0.36207158241043,0.367518581656536,0.368767784501243,0,0.371339242988592,0.37051283321194,0.374812903530451,0.372921749223881,0,0.372613101152601,0.375725150344677,0.376329662247598,0.38410613258789,0,0.384308854102163,0.384137180027013,0.385097824319872,0.396431052759675,0,0.397157928099139,0.379727530511598,0.379526635317274,0.419228091515593,0,0.422197687751693,0.421861644881188,0.428845492363874,0.429842663055701,0,0.433367460556115,0.436066761439852,0.440325739559523,0.438312221816411,0,0.439777843575003,0.453038752720344,0.453137373997558,0.452213256103667,0,0.428828142324364,0.429660031060861,0.436400064830435,0.437556125357773,0,0.444198451010108,0.454070623491191,0.467147074321743,0.471897332507535,0,0.475969112832495,0.475468701166633,0.47985917432259,0.489032779423409,0,0.490662769977357,0.498246563563093,0.506938933357508,0.518332430355609,0,0.520333163859082,0.520129529184835,0.519511319882302,0.515065143967919,0,0.513596782729404,0.533528325486281,0.538930579893651,0.53982365034842,0,0.545395752510991,0.543126549975103,0.545466978988979,0.545648697823845,0,0.551649985174291,0.547311562136864,0.548754354896101,0.548774444415534,0,0.547243075138799,0.547903289800146,0.555439599067224,0.556268748323798,0,0.5632626405662,0.57161257537029,0.573189602645735,0.775289254975835,0,0.598950758677907,0.599001895636463,0.615936447358013
0.525983797779435,0.535592980187948,0.573111984047928,0.523494523689764,0,0.00456029351635851,0.00465496081088388,0.530961432798803,0.577807452635267,0,0.403243226167212,0.402130084158661,0.400655330800327,0.377340530339038,0,0.3778409420049,0.373086118019237,0.358845388221579,0.356440124849535,0,0.355903186784705,0.355687681030794,0.358191565680052,0.355909578904524,0,0.354320680549415,0.352224065248651,0.3511109232401,0.349206984693892,0,0.355939713183673,0.356128737298332,0.354447609785829,0.353553626171087,0,0.344346234151222,0.344614703183637,0.339827918598878,0.340060774392299,0,0.33959141016556,0.337829011415353,0.328948530666252,0.329998664636583,0,0.31664826581377,0.306437310982259,0.306823577651346,0.310040640240455,0,0.309299154341404,0.311027766172565,0.304303256122552,0.303173677234466,0,0.303256774792118,0.310318240872612,0.313233960670234,0.299978530484738,0,0.312909788879393,0.314459421355611,0.313806511974058,0.312192958299645,0,0.304982647143357,0.30088986413899,0.309521965375109,0.309705510529923,0,0.315368928689915,0.316356054622026,0.329686363925406,0.329295531456448,0,0.328500169118919,0.327260097873955,0.30950918113547,0.308113872694891,0,0.308018904057575,0.306914893648766,0.305199979217217,0.307046388685051,0,0.309904579404299,0.322805703519805,0.324765344824439,0.3459999668645,0,0.344327057791764,0.357157868589256,0.356552443526362,0.383709821159087,0,0.379273690004421,0.37644106776445,0.377136895664791,0.512646183196262,0,0.707231442098665,0.43239037938372,0.425642127174378,0.433256968199237,0,0.435356322979924,0.437302266884945,0.436025669241013,0.370281803738467,0,0.370258061579138,0.374703324333547,0.370713728406264,0.362315396123541,0,0.361527339065806,0.360468986655708,0.359655361118695,0.335810014712395,0,0.334915117937679,0.341444211753213,0.33978500008009,0.340044337512763,0,0.340751123332795,0.340407775182495,0.346187164659211,0.345257567805474,0,0.347360575226058,0.350851585807427,0.350442490138985,0.352607592437815,0,0.352512623800498,0.351512713628748,0.350102794628583,0.350412355859837,0,0.350344782021746,0.350150278947241,0.347208990670341,0.348904728742432,0,0.348753144186714,0.355903186784705,0.355631978272367,0.358658190426868,0,0.35910198617433,0.360645226530729,0.35955217404161,0.358770509103695,0,0.359812424634258,0.367676558332073,0.367029127910365,0.367752350609932,0,0.368218975356748,0.375061283043433,0.372314497841038,0.373690629922158,0,0.37468232165414,0.373486995247911,0.374827514090038,0.384869534326322,0,0.384108872067813,0.384318898861879,0.395341652910454,0.395329781830789,0,0.398302117546812,0.3790691421702,0.38027360017617,0.397937766717106,0,0.420770418712018,0.42151647041094,0.424059620939088,0.425712440492391,0,0.431577667006682,0.438450108972515,0.438775193923331,0.437989876345518,0,0.436967137174414,0.4352403516632,0.452385843338791,0.437441067201024,0,0.43193379939662,0.433989322498546,0.43747941991994,0.439723053976551,0,0.453686183142052,0.454879683228332,0.468864728233214,0.470096581038411,0,0.477652066664947,0.477161699758801,0.479766945165195,0.482870775917503,0,0.488627336394863,0.497953439211374,0.505508011677936,0.519661991278045,0,0.520610764491239,0.520712125248375,0.521800611937623,0.520428132496399,0,0.523068077981813,0.533733786480476,0.53974329227069,0.540188001178125,0,0.542179603081857,0.542650793628545,0.542767678105242,0.545068841240228,0,0.546347265204108,0.545922645816105,0.54836717506704,0.550624506523264,0,0.549692170189605,0.550476574607443,0.554855176683735,0.555148301035454,0,0.567685987481228,0.570010892775543,0.569454778351254,0.835921250942805,0,0.593728396785454,0.879452500072922,0.616615838378818
0.524275275467706,0.523851569239677,1.05190550068063,0.523661631965043,0,0.00399511141352654,0.00379416142960396,0.554793994965464,0.56750609496631,0,0.410404226684893,0.0042485133063672,0.368135877799096,0.374895087928129,0,0.369691902395134,0.37004986110502,0.361532818025652,0.359446247484603,0,0.356970670794545,0.355781736508136,0.354273196230757,0.354674986619405,0,0.353296115058362,0.351078049481029,0.351120054839842,0.350359392581333,0,0.351341039553599,0.358128557641832,0.35727383990598,0.351618640185756,0,0.353418478494905,0.346275741176708,0.339635241844321,0.340315546025101,0,0.339664462963496,0.320765704137441,0.32858509299652,0.327170608196483,0,0.309041643228679,0.306640945656506,0.305825493799545,0.306655556216093,0,0.308497399884056,0.304749791349936,0.303951689532485,0.302375575417015,0,0.310796736699093,0.313286923948738,0.302908860841948,0.306752351173358,0,0.305312297894044,0.313512474462365,0.30022234419785,0.305991688914849,0,0.303748968018213,0.303070490157381,0.303356309229306,0.312497953731028,0,0.315868427195803,0.316170683147263,0.320007781358854,0.320615945901672,0,0.314666708669755,0.314442071316101,0.314823772185317,0.3092178831037,0,0.306777919652636,0.305669343443956,0.305435574490561,0.309022466869221,0,0.308888232353013,0.327339542791711,0.32688935492443,0.330323749587398,0,0.345876690267982,0.358523042750686,0.358487429511693,0.382228675680934,0,0.384478701857364,0.383555497123447,0.377608999371453,0.38945177107686,0,0.389418897317789,0.431380424452254,0.430835267947657,0.426202807398537,0,0.433970146139087,0.433331847317121,0.372239618723153,0.371573925101961,0,0.376679402517717,0.375643879106973,0.363738099363346,0.3624194963606,0,0.362950955465585,0.339199664536628,0.339708294642257,0.339089172179749,0,0.338862708506148,0.33936312017201,0.339629762884476,0.340309153905281,0,0.341771123023977,0.341969278738378,0.349778622837742,0.343787380247011,0,0.344588221544385,0.349701917399909,0.351288989435069,0.351266160435714,0,0.353773697724869,0.356450169609251,0.353048648705354,0.352053304333475,0,0.353158227902258,0.345436547160418,0.345476726199283,0.348638999189939,0,0.35107165736121,0.353526231371861,0.354137135394601,0.352950940588114,0,0.354230277711969,0.354592802221727,0.360218780822777,0.35914125205322,0,0.357608969616512,0.360718279328665,0.368186101597677,0.368529449747976,0,0.372761946228396,0.376346099127133,0.37339111345062,0.373812080198727,0,0.376378059726231,0.375579957908779,0.376648355078594,0.379110234369039,0,0.383750000197952,0.383950895392276,0.396685824392477,0.397298554735166,0,0.397878411318783,0.407063887499267,0.620308657314485,0.403831301190597,0,0.419564134386099,0.422046103195976,0.424130847417076,0.426285904956189,0,0.427080354133744,0.4406663482299,0.43886194412088,0.437794460111039,0,0.437351577523552,0.431548445887507,0.432334676625294,0.438678398966066,0,0.438510377530813,0.438321353416153,0.440311128999936,0.453927257375241,0,0.456792753374283,0.458653773401703,0.465013019462036,0.472476275931178,0,0.478536918679947,0.478529613400153,0.478138780931196,0.485182896972179,0,0.485934427630946,0.493762948089768,0.504465182987399,0.523080862221452,0,0.522930190825709,0.52352831060881,0.526236743092289,0.524193091070028,0,0.524390333624455,0.535269721557081,0.537751690366958,0.541889218210061,0,0.542409719395356,0.545101714999299,0.544199512944789,0.54697369294641,0,0.543839727914954,0.54648880500011,0.545834069298608,0.550227281934487,0,0.548365348747092,0.548678562618243,0.549211848043176,0.550070218418924,0,0.566031341607976,0.570930444869562,0.571569656851503,0.779358295820872,0,0.880790279435125,0.774734966871495,0.629285933020851
0.52403054859462,0.00421887213360465,0.00432743772293736,0.0117713625954249,0,0.00396469405478592,0.00379702875192295,0.561119454106751,0.420459031160815,0,0.420017061733302,0.00423112674045842,0.36749757897713,0.367002646271113,0,0.364689612056463,0.353837618923063,0.353097959343961,0.360315575780042,0,0.362774715590564,0.356941449675371,0.349663564680992,0.345547039517296,0,0.344500558186862,0.345397281281527,0.350451621738727,0.349607861922566,0,0.351320950034166,0.356497653927909,0.354689597178992,0.355349811840339,0,0.346739626443602,0.331307222879612,0.32992195919875,0.328942138546433,0,0.319201461101635,0.317717576143559,0.32080679633628,0.320409571747502,0,0.316917648006159,0.309087301227389,0.308065475216259,0.301060625054166,0,0.301207643810012,0.308102914775201,0.30480275462844,0.298845298956755,0,0.312775554363185,0.311880657588469,0.301550078800338,0.305004562982738,0,0.308032601457188,0.308384168047255,0.302849505443625,0.304669433272207,0,0.305255681975644,0.301737276595049,0.303010221599084,0.317788802621547,0,0.318326653846351,0.318831631312084,0.318401532964235,0.315617308202898,0,0.312481516851493,0.314427460756514,0.314888606543485,0.31049174126771,0,0.308778653156109,0.304550722475561,0.30443749063876,0.311940926146766,0,0.312097076502354,0.32881977510989,0.328678235313889,0.343675061570185,0,0.344378194750319,0.358994233297374,0.384683249691585,0.38585392077851,0,0.386894923149099,0.381459794982657,0.386031986973479,0.39017773325635,0,0.390857124277155,0.403517174159472,0.41331446752267,0.418764206248699,0,0.434975535270682,0.376084935374512,0.376041103695751,0.379413403480473,0,0.378479240826866,0.377291219700431,0.363546335768764,0.363109845301096,0,0.361963829533474,0.360405065457514,0.34133919835618,0.339903710876736,0,0.339275456814486,0.340929189527764,0.340724641693543,0.340507309619683,0,0.345871211308137,0.337501186984615,0.337012646398417,0.340353898744017,0,0.340877139409234,0.35054567721607,0.351336473753728,0.356374377331392,0,0.358448163632802,0.357270187266083,0.352433178882743,0.350790404089156,0,0.349370440329274,0.34558265275629,0.347270172388613,0.352350994485065,0,0.354096043195762,0.355092300727615,0.355836526106588,0.35417822759344,0,0.35384127156296,0.356612712084659,0.356666588523137,0.35709120791114,0,0.357287537305593,0.362916255386565,0.369808786871831,0.371424166866192,0,0.372239618723153,0.373037720540605,0.374399242062138,0.375403718033758,0,0.377284827580612,0.372629538032137,0.377292132860405,0.379280995284214,0,0.381350215785753,0.398414436223639,0.399054561365554,0.400697336159141,0,0.405524299782765,0.405585481501036,0.401907273124956,0.402357460992237,0,0.421642486487379,0.419747679540913,0.424990130952799,0.426396397313068,0,0.437848336549517,0.438440977372773,0.441923769514374,0.440724790468249,0,0.439336787307464,0.433257881359211,0.432323718705604,0.439811630494048,0,0.440680958789487,0.45650967378228,0.455630300727125,0.455572771648751,0,0.456129799233013,0.460701078063861,0.461818785872283,0.471732963712178,0,0.473812228973433,0.478905835309524,0.479928574480629,0.479416291735102,0,0.488390827961546,0.491325724118626,0.654568593226543,0.52622395885265,0,0.526426680366923,0.52491083480975,0.52400863275524,0.525673323388207,0,0.525601183750245,0.536844009352603,0.536540840241168,0.543597740521791,0,0.545792977099769,0.54598017489448,0.54784758704172,0.550611722283625,0,0.551471918979322,0.543411455887054,0.543532906163622,0.551144094548584,0,0.551495661138651,0.549478490755642,0.549557022513424,0.551135876108816,0,0.567094259817946,0.570507651801508,0.571000758187576,0.589925085492909,0,0.882127145637355,0.767027896689242,0.630645628222436
0,0,0,0,0,0,0,0,0,0,0,0,0,0,0,0,0,0,0,0,0,0,0,0,0,0,0,0,0,0,0,0,0,0,0,0,0,0,0,0,0,0,0,0,0,0,0,0,0,0,0,0,0,0,0,0,0,0,0,0,0,0,0,0,0,0,0,0,0,0,0,0,0,0,0,0,0,0,0,0,0,0,0,0,0,0,0,0,0,0,0,0,0,0,0,0,0,0,0,0,0,0,0,0,0,0,0,0,0,0,0,0,0,0,0,0,0,0,0,0,0,0,0,0,0,0,0,0,0,0,0,0,0,0,0,0,0,0,0,0,0,0,0,0,0,0,0,0,0,0,0,0,0,0,0,0,0,0,0,0,0,0,0,0,0,0,0,0,0,0,0,0,0,0,0,0,0,0,0,0,0,0,0,0,0,0,0,0,0,0,0,0,0,0,0,0,0,0,0,0,0,0,0,0,0,0,0,0,0,0,0,0,0,0,0,0,0,0,0,0,0,0,0,0,0,0,0,0,0,0,0,0,0,0,0,0,0,0,0,0,0,0,0,0,0,0,0,0
0.00379397879760912,0.00404330799696485,0.00389575047673377,0.00406769849987574,0,0.00358986014857606,0.665281786043864,0.434224917771889,0.539963363824472,0,0.419369631311594,0.617511648313509,0.357722201453312,0.356218226975804,0,0.369407909643157,0.35486948969391,0.35563471775229,0.354557188982733,0,0.363644957045977,0.346616349847085,0.346350620294593,0.346969742757101,0,0.347319483027219,0.345458462999799,0.345952482545841,0.345408239201218,0,0.345294094204442,0.350598640494574,0.353053214505225,0.351415005511509,0,0.335012826054918,0.334559898707715,0.331722710667873,0.318965865828291,0,0.317486546670086,0.316839116248378,0.316353315142103,0.320822320055841,0,0.318233511528982,0.30804173305693,0.305945117756165,0.303060445397665,0,0.304674912232052,0.304142539967093,0.302547249492165,0.300624134586498,0,0.300804027101416,0.302923471401535,0.302750884166411,0.303732531138677,0,0.308396952286894,0.308836182234484,0.303522504344611,0.306432745182388,0,0.305273945175128,0.301620392118351,0.301677921196726,0.302895163442335,0,0.302775539485715,0.309195967264319,0.306035520593611,0.309378599259159,0,0.307952243379458,0.307260981278988,0.306451008381872,0.307786961424128,0,0.299903651366854,0.300092675481513,0.299722845691962,0.311756467831977,0,0.311089861050811,0.328998754464833,0.329258091897506,0.348055489966425,0,0.348396098636802,0.347584299419738,0.353844924202857,0.355521485915489,0,0.385581799106198,0.385207403516776,0.388252792030735,0.387759685644667,0,0.403866001269617,0.406368059598926,0.414134485179502,0.413098048608785,0,0.418622666452698,0.376298614808475,0.37849750402635,0.381599508458709,0,0.381606813738503,0.372017720849423,0.364831151852464,0.365037526006633,0,0.362546425597014,0.342022242016882,0.340781257611943,0.340104606071061,0,0.338504749796261,0.335000954975253,0.332284304052007,0.332849550076037,0,0.335886720150228,0.33718705995349,0.337387955147814,0.34338924249826,0,0.339647112923986,0.338743084549527,0.33960876020507,0.358013499485082,0,0.357682022414448,0.358671887826481,0.355911405224473,0.347099411473437,0,0.346315920215573,0.346307701775805,0.346589868207833,0.354025729877748,0,0.353326249337511,0.356726857081434,0.354243061951608,0.354331638469106,0,0.354245801431531,0.349304692811131,0.353248630739704,0.356158871577481,0,0.356514090807445,0.362514464997917,0.364811975493006,0.366231939252888,0,0.373026762620914,0.372975625662359,0.369025295613967,0.372879743865068,0,0.373340889652039,0.373419421409821,0.374209304787504,0.378490198746556,0,0.378394316949265,0.384382820060073,0.38661914883689,0.39820166994965,0,0.405440289065138,0.40223418439572,0.404488776372021,0.413517189036943,0,0.414327161934058,0.414791047200952,0.419370544471568,0.423674267429976,0,0.438684791085885,0.437691273033955,0.435359062459846,0.436329751512422,0,0.437488551519682,0.43326427347903,0.432648803656419,0.440687350909307,0,0.44071839834843,0.45978335228979,0.456740703255753,0.457026522327678,0,0.457086790885975,0.456634776698746,0.464400289119348,0.472615076247256,0,0.47359854953947,0.474274287920379,0.478916793229214,0.479701197647053,0,0.489831794400834,0.490386082505174,0.491838920024127,0.659378206810657,0,0.526597441282098,0.525077943085028,0.523586752847159,0.524355633545436,0,0.529254736807022,0.52817172907762,0.534327340463706,0.542305619158297,0,0.542840730903178,0.545108107119118,0.546028572373113,0.550133226457144,0,0.544963827843195,0.534206803347112,0.535659640866065,0.541527606860278,0,0.542224347920593,0.54440406077901,0.544921822484381,0.561617126292691,0,0.567223928534282,0.567779129798596,0.735027118553356,0.588774503925416,0,0.59994701620976,0.88621079704198,0.634812377184713
0.580851014829278,0.617770985746182,0.525744549866195,0.532399659758169,0,0.533182237856059,0.534460661819939,0.00403105339011108,0.417184439493332,0,0.520156010824087,0.615325543335273,0.357046463072404,0.356504959207703,0,0.355666678351387,0.342878786072682,0.344287791912873,0.352100788652134,0,0.351172104958372,0.346891210999319,0.344254918153802,0.343465947936093,0,0.342737246276681,0.345041148891589,0.344769940379251,0.34495439869404,0,0.344214739114937,0.344007451800794,0.346559733928684,0.335381742684495,0,0.333522548977023,0.333360006501615,0.316235517505431,0.312623969807468,0,0.318741228474638,0.309651634091445,0.309923755763757,0.315076717498171,0,0.31793308189747,0.306988859606676,0.307395215795195,0.306302163306077,0,0.305500408848729,0.305136971178997,0.304095968808409,0.302676918208501,0,0.303496935865333,0.30191808226994,0.301847768951927,0.301291654527639,0,0.305414571811154,0.304034787090137,0.304744312390091,0.303734357458625,0,0.30955483913418,0.30205505626607,0.300782111262035,0.290371174396174,0,0.30565929868424,0.306828143451217,0.305944204596191,0.30595698883583,0,0.308113872694891,0.306171581429767,0.306483882140943,0.302228556661169,0,0.300877993059326,0.300115504480868,0.299363973822101,0.320964773011816,0,0.320494495625103,0.333412056620144,0.33387411556709,0.336135099663211,0,0.348345874838221,0.346953305877565,0.355203706244467,0.354436651866139,0,0.383130877735444,0.396321473562771,0.397840058599867,0.397289423135424,0,0.396920506505847,0.408255561265599,0.413229543645069,0.413523581156762,0,0.412506320945503,0.36838882311195,0.381488102941857,0.382169320282611,0,0.380819669840742,0.366668429720556,0.364143542391891,0.36536717675732,0,0.364076881713774,0.337715779578552,0.340557533418264,0.339427041370204,0,0.336213631420992,0.333810194368896,0.333018484671264,0.331858771504029,0,0.324034816845079,0.325400904166483,0.326334153660116,0.331342836118606,0,0.334499630149417,0.339325680613067,0.340001418993976,0.357524958898885,0,0.357701198773906,0.35634332989227,0.345449331400057,0.346062061742745,0,0.349491890605843,0.345962527305557,0.349448058927081,0.350715524971271,0,0.35384127156296,0.357496650939685,0.356972497114494,0.354010206158187,0,0.355262148482816,0.349378658769042,0.352061522773243,0.351330081633908,0,0.353911584880973,0.360726497768432,0.364133497632175,0.365737006546871,0,0.365673085348677,0.367703039971325,0.366962467232248,0.366424616007444,0,0.3732431815348,0.373949967354831,0.375267657197603,0.37753229393362,0,0.378857289056185,0.381644253297445,0.384932542364542,0.403555526878388,0,0.4038276485507,0.402931838616009,0.402858785818073,0.41475999976183,0,0.414564583527351,0.413226804165147,0.41384044766781,0.43721642984737,0,0.437426456641437,0.436433851749481,0.435613834092648,0.435782768687876,0,0.431550272207456,0.432686243215361,0.439238166030251,0.438672006846246,0,0.438648264686917,0.43869027004573,0.450943963739528,0.453738233260582,0,0.456954382689716,0.462375813456545,0.463595795182077,0.467495901431888,0,0.472375828334016,0.473225067110022,0.473468880823134,0.479130472663177,0,0.489221803538068,0.488908589666917,0.488332385723197,0.502532023322016,0,0.509496694445244,0.520120397585093,0.519868365432214,0.521040862839087,0,0.52820003703682,0.529903993548678,0.527973573363218,0.533477188527725,0,0.5423019665184,0.543237042331981,0.543268089771104,0.548300514388923,0,0.533361217211002,0.528436545470138,0.536599282479517,0.541598833338265,0,0.542047194885598,0.541749504734009,0.6799763563487,0.559574387430404,0,0.565066131515246,0.566477876835361,0.585624102014424,0.59080354538809,0,0.691348850667394,0.632985144076338,0.634971267020224
0.527164513626077,0.528213734436433,0.532790492227127,0.531848111133752,0,0.531948558730914,0.531228988671244,0.00406311443680526,0.542809683464055,0,0.523034291062768,0.360438852376559,0.358874609340754,0.356389901050954,0,0.343985535961413,0.343383763538415,0.342956404670489,0.347896600130914,0,0.347319483027219,0.346751497523267,0.345178122887719,0.341752859824493,0,0.338240846563717,0.343762724927708,0.343939877962703,0.345978964185093,0,0.345159859688235,0.344882259056078,0.343983709641465,0.332966434552735,0,0.334458537950578,0.524162043630905,0.314794551066143,0.311712636153216,0,0.312180174060007,0.310227838035166,0.309132959226099,0.308980461510408,0,0.306564240218673,0.306849146130624,0.306972422727141,0.306734087973874,0,0.308396952286894,0.307062825564586,0.305543327367517,0.304516022396541,0,0.30113550417205,0.300410455152535,0.30168979227639,0.303133498195601,0,0.303308824910648,0.304066747689234,0.30193543230945,0.299187733947081,0,0.299831511728892,0.29099851529845,0.29068986722717,0.29132907920911,0,0.290985731058811,0.306125010271082,0.306252852667471,0.308804221635387,0,0.309034337948885,0.301239604409109,0.30288968448249,0.304134321527325,0,0.303412925147707,0.30196374026865,0.314674927109523,0.314785419466401,0,0.320271684591398,0.328769551311309,0.335498627161193,0.335681259156033,0,0.336753308965744,0.340703639014136,0.353807484643915,0.352615810877583,0,0.35679990987937,0.397274812575837,0.397427310291528,0.398093917072695,0,0.406074022087234,0.411768487686348,0.411085444025646,0.411957511801008,0,0.378694746580777,0.381428747543534,0.38227798631954,0.381929159209396,0,0.380973080716408,0.36554980875216,0.365609164150483,0.363832154840689,0,0.358064636443638,0.340055295432454,0.336866540802545,0.335842888471466,0,0.33652410581222,0.337636334660796,0.33341114346017,0.333881420846883,0,0.323778218892328,0.326883875964584,0.327041852640121,0.329055370383233,0,0.336492145213123,0.337409870987195,0.339998679514053,0.346026448503751,0,0.345029277811924,0.343883262044303,0.343123512945768,0.343801990806599,0,0.341235098119121,0.340847005130086,0.349960341672607,0.350605032614393,0,0.359112030934046,0.35903897813611,0.358196131479923,0.354630241780669,0,0.348070100526012,0.35018041322639,0.350713698651323,0.35245874736202,0,0.353220322780504,0.360383149618133,0.361590347104026,0.366247462972449,0,0.367101267548327,0.367504884256923,0.366475752965999,0.366701303479627,0,0.372753727788628,0.375326099435951,0.375868516460627,0.375802768942484,0,0.379178721367104,0.379377790241479,0.385221100916389,0.405520647142868,0,0.405274093949834,0.404768203324127,0.40402763058505,0.413110832848423,0,0.414575541447041,0.414531709768279,0.415367251144673,0.430759475669798,0,0.432068033912827,0.435088767107483,0.431388642892022,0.433545526751084,0,0.432852438330666,0.432859743610459,0.439780583054926,0.439121281553553,0,0.438608998808026,0.448365199972385,0.448912182796932,0.450354975556168,0,0.450437159953847,0.455865896000469,0.463008633318666,0.463286233950823,0,0.466948005447367,0.472942900677994,0.47053124518613,0.4791332121431,0,0.48282237843887,0.482741107201167,0.491862662183456,0.498731451509393,0,0.50397207660133,0.505886973067229,0.510372414860502,0.514509029543631,0,0.516183764936315,0.524337370345952,0.528949741375639,0.535178405559661,0,0.537117044184889,0.543240694971878,0.545889772057034,0.531761360936203,0,0.529912211988446,0.531022614517074,0.530843635162131,0.537974501400663,0,0.539904921586123,0.542007929006707,0.541869128690629,0.563511020079183,0,0.563061745371876,0.569673023585088,0.582540360781549,0.58268190057755,0,0.766759427656827,0.631030068571574,0.633860864491596
0.528872122777832,0.528062149880716,0.517874937208534,0.535348253314862,0,0.52978254327211,0.530025443825247,0.530105801902977,0.552333941994968,0,0.431729251562399,0.357933141407353,0.357966015166424,0.346773413362647,0,0.34570866883273,0.344158123196537,0.342487953603724,0.341501740831587,0,0.347272911868535,0.346401757253148,0.344762635099458,0.333529854256816,0,0.337692950579197,0.345939698306202,0.345538821077528,0.331584823511769,0,0.342994757389405,0.330415978744792,0.329518342490153,0.333731662611115,0,0.334624733065883,0.311574748997112,0.314148946964383,0.315094067537681,0,0.314857559104363,0.309988590121925,0.307942198619742,0.302148198583439,0,0.297181521483762,0.308026209337368,0.308443523445578,0.30786366686196,0,0.309033424788911,0.312790164922773,0.312244095258201,0.303599209782444,0,0.302959997800503,0.302371922777118,0.301329094086581,0.305468448249632,0,0.305293121534586,0.296145084913044,0.296441861904659,0.29584191580161,0,0.297706588468927,0.296976060489567,0.293953500974963,0.291764656516804,0,0.293250367794828,0.294395470402476,0.305917722956939,0.311259708806012,0,0.309892708324634,0.299316489503443,0.300467071070936,0.302316220018692,0,0.305820927999674,0.305262074095463,0.304897723265757,0.318535767480443,0,0.316107675109043,0.340137479830132,0.338696513390843,0.337989727570812,0,0.338498357676442,0.338653594872056,0.346282133296528,0.650595434178796,0,0.399502009752912,0.403729940433461,0.406632875991444,0.41843181601809,0,0.422415019825553,0.422042450556079,0.412625031742149,0.411995864519924,0,0.381121925792202,0.382172972922507,0.381162104831067,0.371208661112281,0,0.369244454007776,0.366466621366257,0.365477669114198,0.357260142506367,0,0.349620646162205,0.340588580857387,0.337058304397127,0.337436352626446,0,0.338475528677087,0.33835225208057,0.343174649904323,0.325184485252597,0,0.325178093132778,0.325674852158743,0.328555871877346,0.332062406178276,0,0.33205236141856,0.336733219446312,0.339978589994621,0.34757608097997,0,0.346141506660501,0.345312357403927,0.34506306473097,0.34161314634844,0,0.340414167302314,0.343348150299421,0.352850492990952,0.353155488422335,0,0.35778247001161,0.359018888616677,0.358496561111435,0.353615721049332,0,0.350485408657773,0.349227074213324,0.355711423190123,0.355636544072238,0,0.35598263170246,0.357481127220124,0.363980999916483,0.364733443735225,0,0.363476935610725,0.368464615389808,0.365853891023569,0.366245636652501,0,0.372933620303546,0.373598400764764,0.377723144368228,0.378044576679147,0,0.380440708451449,0.381047959834292,0.392457893711929,0.402356547832263,0,0.403110817970953,0.404930745799534,0.412053393598299,0.41545582766217,0,0.415524314660235,0.413473357358181,0.421232477658963,0.426330649794925,0,0.427104096293073,0.434336323288742,0.431111042259865,0.433663324387756,0,0.435675928970894,0.435297880741575,0.419914787816192,0.421372191135016,0,0.434171041333412,0.450208869960296,0.450647186747913,0.451736586597134,0,0.452905431364111,0.458159753855661,0.464350065320767,0.463745553417846,0,0.469420842657503,0.472721002804263,0.47367251549738,0.477840177619632,0,0.482972136674639,0.490770522854312,0.497928783892071,0.498898559784672,0,0.500869159008997,0.505168316167533,0.507543445260429,0.514494418984044,0,0.517125232869715,0.517044874791986,0.527011102750411,0.534360214222777,0,0.53580209382204,0.536239497449682,0.537403776416788,0.531379660066987,0,0.530764190244375,0.530590689849277,0.538398207628692,0.537906014402598,0,0.537540750412918,0.539944187465014,0.816937568239149,0.562089229999352,0,0.564236069098698,0.579342474551898,0.583551228872989,0.958544024918357,0,0.789295302660123,0.636775671129244,0.638978212987016
0,0,0,0,0,0,0,0,0,0,0,0,0,0,0,0,0,0,0,0,0,0,0,0,0,0,0,0,0,0,0,0,0,0,0,0,0,0,0,0,0,0,0,0,0,0,0,0,0,0,0,0,0,0,0,0,0,0,0,0,0,0,0,0,0,0,0,0,0,0,0,0,0,0,0,0,0,0,0,0,0,0,0,0,0,0,0,0,0,0,0,0,0,0,0,0,0,0,0,0,0,0,0,0,0,0,0,0,0,0,0,0,0,0,0,0,0,0,0,0,0,0,0,0,0,0,0,0,0,0,0,0,0,0,0,0,0,0,0,0,0,0,0,0,0,0,0,0,0,0,0,0,0,0,0,0,0,0,0,0,0,0,0,0,0,0,0,0,0,0,0,0,0,0,0,0,0,0,0,0,0,0,0,0,0,0,0,0,0,0,0,0,0,0,0,0,0,0,0,0,0,0,0,0,0,0,0,0,0,0,0,0,0,0,0,0,0,0,0,0,0,0,0,0,0,0,0,0,0,0,0,0,0,0,0,0,0,0,0,0,0,0,0,0,0,0,0,0
0.521244497513334,0.519579806880367,0.514620435060483,0.530422668414024,0,0.530818066682853,0.536263239609011,0.535960983657551,0.359367715726822,0,0.359652621638772,0.358455468912596,0.358662756226739,0.346289438576321,0,0.346140593500526,0.345212822966739,0.343686932649849,0.3431719104244,0,0.340941060607428,0.328204305287278,0.328501082278894,0.337442744746266,0,0.315657487241762,0.315578955483981,0.331967437540959,0.33310888750871,0,0.331291699160051,0.331689836908802,0.330830553373079,0.330061672674802,0,0.321490753156956,0.312390200854073,0.312849520321096,0.312748159563959,0,0.314423808116617,0.305364348012573,0.3038201944962,0.298096507777911,0,0.297323061279763,0.298559479884831,0.307992422418323,0.309878097765047,0,0.313812904093877,0.312638580367055,0.313342626707164,0.298425245368623,0,0.299101896909506,0.298075505098504,0.305425529730845,0.306356039744555,0,0.306694822094984,0.291247807971406,0.291231371091871,0.296932228810805,0,0.298034412899665,0.298650795882251,0.29505933770372,0.295283061897399,0,0.292657726971572,0.295615452128008,0.304288645562965,0.304972602383641,0,0.305060265741165,0.298385979489733,0.303096971796633,0.309341159700217,0,0.30886357703371,0.307633550548462,0.306671079935654,0.319608730450128,0,0.322945416995857,0.324774476424181,0.34207611845536,0.343133557705484,0,0.343038589068167,0.346570691848375,0.345926914066563,0.650497726061556,0,0.665908213786166,0.405924263851465,0.406076761567156,0.419932137855702,0,0.418962361963101,0.419823471818772,0.42534900282266,0.418658279691692,0,0.383676034240042,0.383854100435011,0.383508925964763,0.369974981987136,0,0.369176880169685,0.36662368488182,0.357290276785516,0.354192838153027,0,0.346998050716301,0.339789565879961,0.339343030652577,0.337505752784486,0,0.339806915919471,0.343381937218466,0.343375545098647,0.341267058718218,0,0.328805164550302,0.33080681121375,0.332757320918643,0.333413882940093,0,0.334599164586605,0.338540363035255,0.343370979298776,0.342944533590824,0,0.346851945120429,0.345784461110588,0.347567862540202,0.34636523085418,0,0.342284318929477,0.341847828461809,0.351614074385885,0.354566320582475,0,0.359968574989846,0.360011493508633,0.359451726444448,0.352731782194306,0,0.349098318656962,0.355610062432986,0.355058513808569,0.350446142778882,0,0.356271190254308,0.350326518822262,0.362214035366405,0.3631628085796,0,0.363263256176762,0.364333479666525,0.36392164451816,0.365633819469786,0,0.374755374452076,0.374521605498681,0.378583341063925,0.382428657715284,0,0.384062300909128,0.383072435497095,0.393945431309901,0.39434082957873,0,0.406308704200603,0.403019501973533,0.402002241762273,0.413059695889868,0,0.414000250663295,0.413361038681354,0.424167373816044,0.427265725608507,0,0.428208106701882,0.428299422699302,0.420145817289665,0.430355858961201,0,0.433617666389046,0.420800552991166,0.420757634472379,0.420175038408839,0,0.437498596279398,0.438302177056695,0.437956089426473,0.449830821730977,0,0.450828905582779,0.451888171152851,0.457875761103684,0.45717262792355,0,0.463634147900993,0.46402041457008,0.473112748433196,0.474353732838134,0,0.479192567541423,0.485154589012979,0.500742229772583,0.501109320082211,0,0.501140367521334,0.502437967844673,0.506543535088679,0.505377429801625,0,0.513436979733919,0.516901508676036,0.521379645189516,0.525172911722345,0,0.525820342144053,0.538404599748512,0.538564402743997,0.533201414215517,0,0.53186089537339,0.538826479656592,0.540524044048631,0.539904008426149,0,0.539512262797217,0.539105906608698,0.558685882775507,0.559988962058691,0,0.562031700920978,0.57775814199666,0.581063781103267,0.798549265838672,0,0.880462455004387,0.63754637814747,0.639615598649008
0.519623638559128,0.515566468793755,0.514766540656355,0.514654221979529,0,0.530282954937972,0.532073661647379,0.56162351841251,0.360377670658288,0,0.357899354488307,0.357841825409933,0.356925012795835,0.340395904102831,0,0.3342914296753,0.334181850478395,0.33985440023813,0.339624283924631,0,0.324730644745419,0.324021119445466,0.323942587687684,0.32892844114682,0,0.31453521363347,0.315892169355132,0.31569401364073,0.331571126112156,0,0.332120848416625,0.311419511801497,0.314007407168382,0.318164111370943,0,0.316014532791675,0.312400245613789,0.312553656489455,0.314992706780544,0,0.306571545498467,0.30648753478084,0.300277133796302,0.299470813539083,0,0.297487430075119,0.298972228193169,0.306098528631831,0.306997078046444,0,0.311813996910352,0.313628445779089,0.311046942532024,0.299324707943211,0,0.298486427086895,0.298951225513763,0.304196416405571,0.305840104359132,0,0.301224080689548,0.293582758025437,0.29007257108461,0.29006161316492,0,0.299455289819521,0.297788772866605,0.293811961178962,0.295809042042538,0,0.29209430726749,0.290575722230395,0.303086013876943,0.303710615299296,0,0.2991658181077,0.296832694373617,0.298793248838226,0.311212224487354,0,0.309931974203525,0.309031598468963,0.307180623201258,0.326705809769615,0,0.323136267430465,0.323182838589149,0.345774416350872,0.34584564282886,0,0.346520468049794,0.347157853711786,0.346243780577611,0.600510435913842,0,0.660358027462975,0.405522473462816,0.404969098518451,0.418778816808286,0,0.419280141634122,0.418417205458503,0.417725030198059,0.49051575122151,0,0.375843861141323,0.383911629513385,0.383916195313256,0.37109542927548,0,0.367938635244669,0.368213496396903,0.357258316186419,0.350935596525054,0,0.348900162942561,0.343479645335706,0.327418074549492,0.330766632174885,0,0.343322581820143,0.343816601366186,0.342681543518255,0.343186520983988,0,0.330394976065386,0.329484555571108,0.330142030752532,0.333334438022337,0,0.331853292544184,0.331934563781888,0.340323764464869,0.341589404189111,0,0.341814041542764,0.345623744955129,0.348977781540368,0.341333719396335,0,0.341936404979307,0.344135294197182,0.349774057037871,0.355051208528776,0,0.356464780168838,0.360020625108375,0.356904010116429,0.351027825682448,0,0.350036133950466,0.351635990225266,0.350899070126086,0.349392356168655,0,0.348587862231384,0.352757350673584,0.361601305023717,0.361720015820363,0,0.363119890060812,0.364454929943093,0.363936255077747,0.372325455760728,0,0.372635930151957,0.373328105412401,0.376291309528681,0.376044756335647,0,0.382278899479515,0.393214903330541,0.392734581184111,0.393350051006723,0,0.393280650848683,0.400702815118986,0.393979218228947,0.394885072923354,0,0.395295994911744,0.401375814019972,0.428342341218089,0.425934338366122,0,0.427849234832021,0.420083722411419,0.420582307757333,0.420849863629773,0,0.437818202270369,0.4201056382508,0.419967751094695,0.425576379656236,0,0.436830163178284,0.438634567287304,0.438041926464048,0.439623519539363,0,0.449663713455699,0.451681796998682,0.451757589276541,0.453401277230102,0,0.464423118118703,0.466508775499777,0.472636992086637,0.473163885391751,0,0.474759175866679,0.484405797834134,0.483383971823004,0.500480152859987,0,0.500656392735008,0.492508266285216,0.502633384079152,0.507388208064815,0,0.512954831267541,0.513364840095958,0.519123226893266,0.522690942912468,0,0.524323672946339,0.525993842539152,0.52795439700376,0.527261308583342,0,0.537301502499677,0.538748861058785,0.539614536714327,0.539698547431954,0,0.538400033948641,0.555381156828875,0.556812991668421,0.558410108463298,0,0.563748441672475,0.575454239381752,0.579856583617373,0.768147430817612,0,0.772292263940508,0.879994917097597,0.653375093140263
0.503105487785814,0.517003782593147,0.512376801003872,0.51715445398889,0,0.529605390237115,0.529069365332259,0.370917363080511,0.359899174831807,0,0.359596918880346,0.356391727370902,0.355169919325422,0.334542548668205,0,0.334093273960898,0.334057660721904,0.339763997400684,0.339036208901246,0,0.32494158469946,0.324092345923453,0.324743428985058,0.326649193851215,0,0.309827873966466,0.314695929788929,0.323775479412406,0.324876750341291,0,0.330092720113925,0.312651364606694,0.311025026692643,0.315257523173063,0,0.315375320809734,0.306152405070308,0.308838921714407,0.306397131943394,0,0.305818188519751,0.305411832331232,0.304842020507331,0.297060984367167,0,0.296826302253798,0.297805209746141,0.303183721994182,0.306691169455087,0,0.308421607606197,0.309642502491703,0.300026014803397,0.298876346395878,0,0.299344797462643,0.299491816218489,0.299362147502153,0.301028664455069,0,0.293425694509875,0.293027556761123,0.292930761803858,0.293753518940613,0,0.292214844384085,0.293838442818214,0.294001898453595,0.295443778052858,0,0.293902364016408,0.290767485824977,0.296699373017384,0.299946569885641,0,0.299479031978851,0.299521950497638,0.298013410220259,0.309090040707312,0,0.311436861841007,0.310173048436714,0.326977931441927,0.327940402054734,0,0.326147869025379,0.322599329365635,0.327531306386293,0.346905821558906,0,0.34703914291514,0.346830942441022,0.346764281762905,0.366059352017764,0,0.366357955329327,0.367378868180484,0.40502114863698,0.406631049671496,0,0.409065534162715,0.406247522482332,0.4063689727589,0.376218256730745,0,0.376744236875885,0.378246385033445,0.371331024548824,0.368742216021965,0,0.36746927101793,0.365688609068238,0.355979892222538,0.355579014993864,0,0.327579703864925,0.328363195122789,0.327806167538527,0.32881977510989,0,0.329488208211004,0.342914399311676,0.343733503808534,0.338554060434868,0,0.330523731621748,0.331201296322605,0.328589658796391,0.331369317757858,0,0.330788548014266,0.330584000180045,0.331866989943797,0.336476621493562,0,0.33772399801832,0.340198661548403,0.341335545716283,0.340453433181205,0,0.34061962829651,0.346146985620346,0.35017402110657,0.35302399338605,0,0.356800823039344,0.356022810741325,0.356115953058694,0.350149365787267,0,0.351361129073031,0.354327072669235,0.353691513327191,0.350339303061901,0,0.356086731939519,0.354401038627145,0.356504959207703,0.358957706898406,0,0.363538117328996,0.365131581483976,0.364660390937289,0.377692096929105,0,0.376342446487237,0.375071327803149,0.37570414766527,0.379621603954591,0,0.384559973095068,0.38486040272658,0.389502908035416,0.393135458412785,0,0.393578341000273,0.399522099272344,0.391318270064126,0.391802244850453,0,0.397370694373128,0.428085743265339,0.428099440664952,0.428159709223249,0,0.427767050434343,0.420011582773457,0.419556829106305,0.440520242634028,0,0.440613384951397,0.420987750785878,0.422072584835228,0.42391442850319,0,0.437886689268434,0.43727943788559,0.437810896990575,0.44137496036988,0,0.445598325250558,0.447739685390058,0.446282282071234,0.451804160435225,0,0.453509030107057,0.454329047763889,0.472825103041322,0.473161145911828,0,0.475154574135508,0.476669506532707,0.480992405850572,0.498087673727582,0,0.490112134512914,0.492834264396006,0.493268928543725,0.500030878152681,0,0.50918074109417,0.509210875373319,0.513368492735854,0.522846180108082,0,0.524642365777335,0.527292356022465,0.526073287456907,0.521565929824253,0,0.523749295322567,0.539390812520648,0.539253838524518,0.535613069707381,0,0.536335379246973,0.552855356340236,0.555835910496027,0.556753636270098,0,0.563872631428966,0.57333205560171,0.576786539784111,0.768761074320275,0,0.769448683780848,0.763303117154478,0.790610253022972
0.505394779841135,0.514910819932279,0.396632861113974,0.396445663319263,0,0.527580001414338,0.371108213515119,0.36981061319178,0.369220711848446,0,0.356267537614411,0.356157045257533,0.354554449502811,0.336899414561616,0,0.335114186812054,0.33481101770062,0.340694507414394,0.339681813003006,0,0.330090893793977,0.323834834810729,0.322590197765893,0.312607532927932,0,0.30956579705387,0.308849879634097,0.324138917082137,0.324379991315326,0,0.312656843566539,0.308684597678767,0.30898320099033,0.315749716399157,0,0.315743324279337,0.306366084504271,0.28969634917524,0.304572638314941,0,0.305394482291722,0.304149845246887,0.290340126957051,0.291213107892387,0,0.287651783993005,0.287979608423743,0.287964084704181,0.309144830305764,0,0.307756827144979,0.298080070898375,0.300457939471194,0.29881151203771,0,0.297197958363297,0.301699837036106,0.299232478785816,0.298914699114795,0,0.296945013050444,0.294206446287816,0.292544495134771,0.295858352681145,0,0.295369812094948,0.294603670876594,0.294279499085752,0.297338584999324,0,0.297262792721466,0.29698975788918,0.295756991924009,0.299379497541663,0,0.300363883993851,0.300216865238005,0.300245173197205,0.306726782694081,0,0.311803038990662,0.313634837898908,0.321408568759278,0.321670645671873,0,0.326609927972324,0.326332327340167,0.32599171866979,0.332532683564989,0,0.347083887753876,0.355318764401217,0.355147090326067,0.367829969207739,0,0.368166012078245,0.36801716700245,0.754630836879495,0.753127775561961,0,0.405974487650046,0.406598175912425,0.407174379856145,0.379299258483698,0,0.378290216712207,0.376894908271628,0.371922752212106,0.370063558504633,0,0.35518909568488,0.355692246830665,0.355530617515231,0.348662741349268,0,0.330818682293415,0.329983140917021,0.330479899942986,0.325063948136003,0,0.33795228801187,0.343917962123322,0.34305228646778,0.33709574395607,0,0.332269693492419,0.330398628705283,0.330044322635293,0.332027706099256,0,0.332878771195211,0.332651394361635,0.332214903893967,0.334674956864464,0,0.336517713692401,0.339963066275059,0.339437999289894,0.34093923428748,0,0.343300665980763,0.34506306473097,0.3485979069911,0.356309542973224,0,0.356255666534746,0.357435469221414,0.347874684291533,0.353037690785663,0,0.353179230581665,0.351268899915637,0.349816062396684,0.350416921659708,0,0.354582757462011,0.358555916509758,0.359208825891311,0.360101896346079,0,0.365505063913424,0.365799101425117,0.366010954539131,0.377663788969905,0,0.378521246185679,0.377554209773001,0.381617771658193,0.386537877599186,0,0.386306848125713,0.387759685644667,0.389024412208934,0.393965520829334,0,0.397814490120589,0.387791646243764,0.390847079517439,0.392758323343441,0,0.584997674272123,0.429304811830897,0.430413388039576,0.431184095057801,0,0.422028753156466,0.422020534716698,0.422716362617039,0.437494943639502,0,0.441416052568719,0.422971134249841,0.423687051669615,0.422895341971983,0,0.437385364442598,0.436693189182153,0.436381801630951,0.441874458875768,0,0.442518236657579,0.44316840655921,0.446343463789505,0.450838950342495,0,0.4511466852538,0.455699700885164,0.456771750694876,0.457130622564737,0,0.459037300590868,0.483260695226487,0.481264527522884,0.488545151997185,0,0.485328089408077,0.494784774100898,0.495754549993499,0.509913095393479,0,0.510453686098206,0.510120382707623,0.514794848615556,0.515839503626041,0,0.524882526850549,0.526625749241298,0.518315080316099,0.51813062200131,0,0.763325032993859,0.539330543962351,0.539631886753837,0.53661937199895,0,0.536086086574016,0.551753172251376,0.552665419065602,0.559422802874687,0,0.575440541982139,0.576861418901995,0.587717977835266,0.801114332206202,0,0.622478325413186,0.693128599457111,0.706727377792906
0,0,0,0,0,0,0,0,0,0,0,0,0,0,0,0,0,0,0,0,0,0,0,0,0,0,0,0,0,0,0,0,0,0,0,0,0,0,0,0,0,0,0,0,0,0,0,0,0,0,0,0,0,0,0,0,0,0,0,0,0,0,0,0,0,0,0,0,0,0,0,0,0,0,0,0,0,0,0,0,0,0,0,0,0,0,0,0,0,0,0,0,0,0,0,0,0,0,0,0,0,0,0,0,0,0,0,0,0,0,0,0,0,0,0,0,0,0,0,0,0,0,0,0,0,0,0,0,0,0,0,0,0,0,0,0,0,0,0,0,0,0,0,0,0,0,0,0,0,0,0,0,0,0,0,0,0,0,0,0,0,0,0,0,0,0,0,0,0,0,0,0,0,0,0,0,0,0,0,0,0,0,0,0,0,0,0,0,0,0,0,0,0,0,0,0,0,0,0,0,0,0,0,0,0,0,0,0,0,0,0,0,0,0,0,0,0,0,0,0,0,0,0,0,0,0,0,0,0,0,0,0,0,0,0,0,0,0,0,0,0,0,0,0,0,0,0,0
0.505251413725185,0.398594328738557,0.399087435124625,0.515292520801495,0,0.518826449901651,0.373290665853458,0.371748338657033,0.352943635308321,0,0.35192820141701,0.352271549567309,0.338688294951075,0.337897498413418,0,0.335829191071853,0.336905806681436,0.34133919835618,0.331692576388725,0,0.331866076783823,0.324420170354191,0.322866885238076,0.313811077773929,0,0.312876001960347,0.309993155921796,0.326804431046829,0.325640152079723,0,0.307175144241413,0.310318240872612,0.309344812340114,0.315239259973579,0,0.314207389202732,0.293240323035112,0.290060700004946,0.283862170100072,0,0.290888022941571,0.293275936274106,0.293921540375866,0.295319588296367,0,0.28777688690947,0.288921076357143,0.291664208919642,0.290513627352149,0,0.296387072306207,0.30128982820769,0.300939174777597,0.300495379030136,0,0.297897438903535,0.299203257666642,0.301563776199951,0.298864475316214,0,0.298007931260413,0.296184350791935,0.296799820614546,0.297428074676796,0,0.295877529040603,0.296856436532947,0.294628326195897,0.298187823775331,0,0.299744761531343,0.299588611175755,0.297511172234448,0.29765727783032,0,0.301167464771147,0.300273481156405,0.304438403798734,0.304125189927583,0,0.303707875819374,0.322871451037947,0.322665990043752,0.324042122124872,0,0.328494690159074,0.328432595280829,0.328569569276959,0.334210158437596,0,0.341520004031071,0.35753043785873,0.357710330373648,0.360778547886962,0,0.362164724727798,0.362529988717479,0.372282537241941,0.00383243196412271,0,0.408615346295434,0.406382670158513,0.503949247601975,0.381612292698348,0,0.38059320616714,0.376220083050694,0.374480513299842,0.369800568432064,0,0.357822649050475,0.356596275205123,0.356556096166258,0.350151192107215,0,0.33099583532841,0.324977197938454,0.324546186430631,0.326062031987804,0,0.336114096983804,0.342661453998822,0.339872663437614,0.339935671475833,0,0.329507384570463,0.329590482128115,0.330351144386624,0.333900597206342,0,0.333881420846883,0.334585467186992,0.335033828734325,0.336174365542101,0,0.335251160808184,0.336720435206673,0.335498627161193,0.343008454789018,0,0.345053933131228,0.346101327621636,0.346367057174128,0.35324771757973,0,0.359044457095955,0.348313914239124,0.35037400314092,0.353118048863393,0,0.35005439714995,0.350787664609233,0.34290435455196,0.34268063035828,0,0.353796526724224,0.352495273760988,0.361330096511379,0.361701752620879,0,0.367494839497207,0.368486531229189,0.367129575507527,0.378317611511433,0,0.378175158555457,0.379089231689632,0.380879025239065,0.388852738133785,0,0.388575137501628,0.389153167765297,0.393254169209432,0.394959952041238,0,0.398240022668567,0.388794295895436,0.388683803538558,0.389616139872216,0,0.417495827044535,0.419682845182745,0.431237058336305,0.430175966446284,0,0.429372385668987,0.423740014948118,0.436025669241013,0.438687530565808,0,0.438218166339069,0.422046103195976,0.422406801385785,0.437691273033955,0,0.440522068953977,0.438146026701107,0.441247117973492,0.442152972667899,0,0.44385966865968,0.443664252425201,0.443062480002203,0.450945790059476,0,0.453600346104477,0.452205037663899,0.458223675053855,0.458804444797447,0,0.459557801776162,0.467512338311423,0.477103257520452,0.479391636415799,0,0.482538385686894,0.683202550537551,0.495880566069939,0.511740328501855,0,0.511193345677309,0.511168690358005,0.513233345059673,0.511175995637799,0,0.513890820241097,0.519750567795542,0.519215456050661,0.514698966818264,0,0.517569941777151,0.534015952912504,0.535318119035714,0.535577456468387,0,0.550944112514234,0.551766869650989,0.557592830286389,0.559516858352029,0,0.575272520546886,0.583565839432576,0.586992015655777,0.771939784190467,0,0.624980383742495,0.657126354314279,0.8536612097616
0.494870611138473,0.523625105566075,0.521738517059377,0.517470407339963,0,0.519272071969061,0.359554913521533,0.359537563482023,0.350139321027551,0,0.350358479421359,0.351303599994657,0.343404766217821,0.34075660229264,0,0.338653594872056,0.338657247511953,0.33043515510425,0.329698235005071,0,0.327723983140849,0.29772028586854,0.297339498159299,0.302090669505064,0,0.302087930025142,0.310071687679577,0.326772470447732,0.325862963113428,0,0.308550363162559,0.307353210436382,0.31211351338189,0.315492205286432,0,0.315048409538971,0.296065639995289,0.293195578196376,0.285682097928654,0,0.277600632156979,0.277758608832515,0.290607682829492,0.287307522682731,0,0.289147540030745,0.287123064367942,0.290368434916251,0.292207539104291,0,0.295990760877404,0.299010580912086,0.301594823639073,0.299745674691317,0,0.298984099272834,0.300321878635038,0.29897679399304,0.292810224687264,0,0.289278121907056,0.289864370610493,0.289434272262644,0.289716438694672,0,0.293264065194441,0.294789042351356,0.295927752839184,0.297313929680021,0,0.299734716771627,0.30233539637815,0.300482594790497,0.298343060970945,0,0.299805943249614,0.302506157293326,0.304612817353806,0.305316863693915,0,0.305308645254147,0.32082871217566,0.323964503527065,0.32000686819888,0,0.327840867617547,0.322338165613014,0.3263524168596,0.33483293354,0,0.341054292444229,0.769465120660383,0.368805224060185,0.367975161643637,0,0.363400230172892,0.363100713701354,0.363194769178697,0.357713983013545,0,0.355321503881139,0.353473268093357,0.359669971678282,0.365306908199023,0,0.366210936573481,0.371778472936182,0.371126476714603,0.367327731221928,0,0.35802171792485,0.357897528168359,0.355585407113683,0.344464944947868,0,0.344184604835789,0.343486037455525,0.32652865673462,0.326343285259858,0,0.339468133569043,0.339376817571623,0.337839969335043,0.339912842476478,0,0.330607742339374,0.33065248717811,0.333159111307291,0.334065879161672,0,0.335051178773835,0.333591035975088,0.336468403053794,0.335421008563386,0,0.336661992968324,0.337290247030574,0.339966718914956,0.342319932168471,0,0.344699627061238,0.344994577732905,0.345191820287332,0.350483582337824,0,0.357304887345103,0.349602382962721,0.349133931895956,0.349248076892731,0,0.349950296912891,0.349798712357174,0.345957961505686,0.343457729496325,0,0.354183706553285,0.354017511437981,0.362769236630719,0.362630436314641,0,0.371105474035196,0.371810433535279,0.389055459648057,0.377736841767841,0,0.377478417495142,0.381228765509184,0.385473133069268,0.385137090198763,0,0.388028154677082,0.389074636007515,0.399880971142205,0.400921973512794,0,0.398403478303949,0.390241654454544,0.388724895737397,0.391483552019457,0,0.407670225722136,0.418536829415123,0.413313554362696,0.414166445778599,0,0.423865117864584,0.42426873457318,0.433222268120217,0.435664057891229,0,0.419155038717657,0.420143077809742,0.422359317067127,0.437211864047499,0,0.440338523799162,0.438504898570967,0.442497233978172,0.443837752820299,0,0.444401172524381,0.443420438712089,0.439828067373584,0.447478521637437,0,0.447316892322003,0.453267042713894,0.454653219554731,0.456038483235593,0,0.462652500928728,0.467393627514777,0.473221414470125,0.479107643663822,0,0.478621842557548,0.684920204449022,0.504426830268482,0.506729819723416,0,0.510611662773743,0.512606004157397,0.51447615578456,0.507928798769541,0,0.509349675689397,0.502863500392651,0.510036371989996,0.512420632682634,0,0.51476745381633,0.535188450319377,0.536123526132959,0.542860820422611,0,0.5528389194607,0.553384989125272,0.557303358574567,0.558706885454913,0,0.57732986996876,0.583170441163747,0.588297834418884,0.76929709922513,0,0.791683215992658,0.698660522580818,0.860042371661314
0.498139723846111,0.720652154239491,0.719318940677158,0.518015563844561,0,0.516335349492032,0.356935970715526,0.356481217048374,0.3460282748237,0,0.350889025366369,0.350205068545693,0.344284139272977,0.340039771712892,0,0.33964802608396,0.327584269664796,0.325264843330327,0.32754591694588,0,0.299036149391363,0.298830688397168,0.298728414480058,0.297472819515532,0,0.302569165331545,0.302181985502484,0.306063828552811,0.306962377967424,0,0.3083896470071,0.307567803030319,0.306450095221898,0.30777874298436,0,0.306247373707625,0.294100519730809,0.285241041661115,0.281497998926867,0,0.280827739505804,0.279093648714797,0.278223407259383,0.284145249692074,0,0.286069277757715,0.287017137810935,0.286390710068634,0.292977332962542,0,0.291157405133961,0.275538716935234,0.275267508422896,0.275255637343232,0,0.283058589322776,0.283952572937518,0.293133483318131,0.287301130562912,0,0.290237853039941,0.288404227811746,0.28915941111041,0.292380126339415,0,0.292804745727418,0.293811961178962,0.295627323207672,0.297231745282343,0,0.292523492455365,0.298444421728081,0.296553267421512,0.298858996356368,0,0.30017668619914,0.303540767544095,0.30529403469456,0.314641140190477,0,0.315903127274822,0.321130054967147,0.320516411464484,0.308608805400908,0,0.30920053306419,0.323584628977798,0.322133617778793,0.34294362043085,0,0.343579179772894,0.362866031587984,0.368334033513497,0.366514105684916,0,0.364345350746189,0.365512369193218,0.363612083286906,0.356396293170773,0,0.355641109872109,0.353264154459265,0.353502489212532,0.36675426675813,0,0.36681727479635,0.365804580384962,0.368440873230479,0.343917962123322,0,0.343667756290391,0.344094201998343,0.345268525725165,0.344218391754834,0,0.342310800568729,0.341752859824493,0.336305860578386,0.336394437095884,0,0.337592502982035,0.337450050026059,0.338730300309889,0.325631020479981,0,0.326376159018929,0.327892917736076,0.32742629298926,0.332879684355186,0,0.333249514144737,0.33448501958983,0.334071358121517,0.33428503755548,0,0.334590946146837,0.337130444035089,0.336381652856245,0.340416906782237,0,0.340477175340534,0.346062061742745,0.349017047419258,0.352933590548605,0,0.351742829942247,0.349561290763882,0.348460019834996,0.350215113305409,0,0.350493627097541,0.35013475522768,0.352963724827753,0.359598745200295,0,0.355716902149968,0.355802739187543,0.361419586188851,0.362455109599594,0,0.371755643936827,0.371202268992462,0.388146865473728,0.374416592101648,0,0.374411113141802,0.375045759323872,0.386032900133453,0.386363464044114,0,0.38621918476819,0.388213526151844,0.400651678160431,0.401190442545209,0,0.387591664209414,0.387087599903655,0.38726475293865,0.402978409774694,0,0.409806106901791,0.406926000343163,0.407933215794706,0.413758263270132,0,0.416105997563801,0.433635016428556,0.434705239918319,0.434006672538055,0,0.41895779616323,0.418911225004545,0.419084725399644,0.418783382608157,0,0.438175247820281,0.436360798951545,0.440591469112016,0.440952167301825,0,0.435780029207953,0.441114709777233,0.439049141915591,0.442815013649194,0,0.444376517205077,0.445641243769345,0.447728727470368,0.449024501473758,0,0.451907347512309,0.464662366031943,0.473409525424811,0.474273374760404,0,0.479051027745422,0.494785687260872,0.495737199953989,0.504757394179143,0,0.508721421627148,0.508021027926936,0.504031431999653,0.508397249836306,0,0.507014725635367,0.504714475660355,0.504204932394751,0.510983318883242,0,0.516379181170794,0.530433626333715,0.539718636951386,0.551183360427475,0,0.552124828360876,0.553124738532625,0.554680763128663,0.568971716724902,0,0.57766682599924,0.591690223723039,0.820879679847773,0.826558621727327,0,0.819495329326885,0.862233955599395,0.692995278100878
0.498336966400538,0.527696885891036,0.719752691664903,0.528003707642367,0,0.516643997563312,0.358491082151589,0.357612622256408,0.346912213678726,0,0.349942991633098,0.350255292344274,0.344435723828694,0.339692770922696,0,0.328510213878636,0.32796323105409,0.321599419193886,0.308318420529112,0,0.286330441510336,0.28787916082658,0.28810288502026,0.302833981724064,0,0.302988305759703,0.302418493935802,0.296951405170263,0.295833697361842,0,0.303842110335581,0.303102450756479,0.307846316822451,0.306538671739395,0,0.303829326095942,0.284612787598865,0.285975222280372,0.280937318702708,0,0.27582270968721,0.279867095212945,0.277965896146659,0.286093019917044,0,0.286131372635961,0.287250906764331,0.286500289265538,0.284046628414861,0,0.269920043613978,0.272148153951027,0.27248784946143,0.277754043032644,0,0.279701813257614,0.279519181262774,0.279852484653357,0.282635796254721,0,0.289446143342309,0.289540198819651,0.289895418049615,0.289721004494543,0,0.293588236985283,0.293023904121227,0.291547324442944,0.292485139736448,0,0.291790224996082,0.292548147774668,0.293078693719679,0.295707681285402,0,0.29672676781661,0.307138617842445,0.308866316513633,0.315479421046793,0,0.316388015221123,0.309192314624422,0.30917222510499,0.308966764110795,0,0.306529540139653,0.532645299791229,0.326852828525462,0.327940402054734,0,0.530446410573354,0.359034412336239,0.360251654581848,0.362701662792628,0,0.36285416050832,0.36075206624771,0.351269813075611,0.352425873602949,0,0.357103992150779,0.356857438957745,0.361883471455745,0.362914429066617,0,0.362811241989532,0.36251720447784,0.357063813111914,0.343246789542285,0,0.343134470865458,0.343419376777409,0.343731677488585,0.336742351046054,0,0.344192823275557,0.337062870196998,0.336800793284403,0.337320381309723,0,0.336634598169098,0.336938680440507,0.337605287221674,0.327326758552072,0,0.330100025393719,0.327377895510627,0.329164949580137,0.333653130853333,0,0.328070070771071,0.328404287321628,0.33111545928503,0.331876121543539,0,0.335325126766095,0.336129620703365,0.337994293370683,0.340264409066546,0,0.341730943985112,0.343988275441336,0.349322956010615,0.351815882740183,0,0.351509060988852,0.347040969235088,0.347100324633411,0.351740090462324,0,0.350489974457644,0.349921075793717,0.351180323398139,0.359916524871316,0,0.358233571038865,0.359316578768267,0.362364706762148,0.362361967282226,0,0.363472369810854,0.372560137874098,0.38678443079222,0.373744506360636,0,0.3745563055777,0.37483664568978,0.383863232034753,0.387194439620636,0,0.386817304551292,0.393654133278131,0.394709746208307,0.400862618114471,0,0.387506740331813,0.387874743801416,0.387799864683531,0.402814954139312,0,0.40318204444894,0.403593879597305,0.407024621620376,0.414414825291582,0,0.414581020406886,0.426129754600601,0.434778292716255,0.430027121370489,0,0.419053677960521,0.419674626742977,0.420906479548174,0.425832064449012,0,0.426029307003439,0.427257507168739,0.428994337439668,0.43665118382334,0,0.437637396595477,0.435387370419047,0.435605615652881,0.438293958616927,0,0.443365649113637,0.4439226766979,0.442256159744984,0.448293060334424,0,0.46423774664394,0.47289632951931,0.473458836063417,0.474143706044068,0,0.690333416776083,0.495217611928669,0.497337969388763,0.501459973512304,0,0.507001028235754,0.503979381881124,0.505356427122218,0.506614761566667,0,0.499821764518589,0.501585989588744,0.504773831058678,0.506117089380727,0,0.528092284159865,0.532759444788004,0.530435452653663,0.541101161152326,0,0.554167567223162,0.554065293306052,0.561355962540069,0.571292056219346,0,0.576510765471902,0.578052179508353,0.769780160851482,0.768716329481539,0,0.850169286020257,0.661863828260431,0.921515387964523
0,0,0,0,0,0,0,0,0,0,0,0,0,0,0,0,0,0,0,0,0,0,0,0,0,0,0,0,0,0,0,0,0,0,0,0,0,0,0,0,0,0,0,0,0,0,0,0,0,0,0,0,0,0,0,0,0,0,0,0,0,0,0,0,0,0,0,0,0,0,0,0,0,0,0,0,0,0,0,0,0,0,0,0,0,0,0,0,0,0,0,0,0,0,0,0,0,0,0,0,0,0,0,0,0,0,0,0,0,0,0,0,0,0,0,0,0,0,0,0,0,0,0,0,0,0,0,0,0,0,0,0,0,0,0,0,0,0,0,0,0,0,0,0,0,0,0,0,0,0,0,0,0,0,0,0,0,0,0,0,0,0,0,0,0,0,0,0,0,0,0,0,0,0,0,0,0,0,0,0,0,0,0,0,0,0,0,0,0,0,0,0,0,0,0,0,0,0,0,0,0,0,0,0,0,0,0,0,0,0,0,0,0,0,0,0,0,0,0,0,0,0,0,0,0,0,0,0,0,0,0,0,0,0,0,0,0,0,0,0,0,0,0,0,0,0,0,0
0.70735654501513,0.529704011514329,0.53075871128453,0.530213554779932,0,0.528952480855561,0.358835343461863,0.349295561211389,0.349280950651802,0,0.349425229927726,0.351747395742118,0.351030565162371,0.322288854974407,0,0.322429481610434,0.323978200926678,0.323189230708969,0.29805724189902,0,0.289989473526958,0.288465409530017,0.287507504717081,0.286225428113303,0,0.30199844034767,0.288451712130404,0.293684118782574,0.293349902232016,0,0.291494361164441,0.291333645008981,0.302995611039497,0.29952012417769,0,0.303231206312841,0.283958965057337,0.286017227639186,0.285687576888499,0,0.277775958872025,0.275996210082308,0.279568491901381,0.286417191707885,0,0.283696888144742,0.283494166630469,0.282627577814953,0.282803817689974,0,0.273306953958288,0.273210159001022,0.274004608178577,0.272829371291781,0,0.281141866536929,0.281177479775922,0.280570228393079,0.284107810133132,0,0.283362671594184,0.29252257929539,0.288253556416003,0.289595901578078,0,0.294788129191382,0.294147090889493,0.291838622474714,0.290030565725797,0,0.292783743048012,0.29408773549117,0.291709866918352,0.295743294524396,0,0.293919714055917,0.304871241626505,0.305155234378481,0.312315321736188,0,0.308341249528467,0.3088745349534,0.307935806499922,0.306686603655216,0,0.309415125658127,0.308807874275284,0.327639972423222,0.327182479276148,0,0.535933588858325,0.360857079644743,0.361604957663613,0.362664223233686,0,0.36451063270152,0.35337829945604,0.353678729087552,0.353684208047397,0,0.35928461816917,0.361550168065161,0.362840463108707,0.363853157520095,0,0.363278779896323,0.361772065938892,0.358605227148364,0.358676453626352,0,0.344112465197827,0.346215472618411,0.338973200863026,0.339744821041225,0,0.343141776145252,0.342745464716449,0.330446113023941,0.3314067573168,0,0.337052825437282,0.337429960506627,0.33094378520988,0.328629837835256,0,0.329088244142305,0.329034367703827,0.33162408939066,0.334413793111842,0,0.327572398585132,0.32796323105409,0.333016658351316,0.332815763156991,0,0.334946165376801,0.334954383816569,0.338549494634997,0.342781991115417,0,0.340144785109925,0.341271624518089,0.344766287739355,0.351769311581499,0,0.350609598414264,0.349114755536498,0.348048184686631,0.353272372899033,0,0.352918979989017,0.356646499003704,0.358526695390583,0.362569254596369,0,0.361884384615719,0.360721931968561,0.362828592029042,0.363945386677489,0,0.365000086447691,0.375629268547386,0.374429376341286,0.374758113931999,0,0.37469967169365,0.375018364524646,0.385064037400826,0.385548012187153,0,0.386467564281173,0.387193526460662,0.389447205276989,0.391493596779173,0,0.389723892749172,0.390341188891732,0.398220846309109,0.398787005493113,0,0.401898141525214,0.404295186457491,0.409117584281244,0.417248360691526,0,0.415217492908904,0.414157314178857,0.62998358724114,0.422659746698639,0,0.422023274196621,0.421831510602039,0.424816630557701,0.426982646016504,0,0.427311383607217,0.427067569894105,0.428411741376128,0.435806510847205,0,0.433386636915573,0.430086476768812,0.437193600848015,0.43933587414749,0,0.43876423600364,0.443992990015913,0.443794834301511,0.448236444416023,0,0.449071072632443,0.469871943684758,0.472232462218066,0.475497009125833,0,0.476253105584471,0.497903215412793,0.49575911579337,0.498091326367478,0,0.502604162959978,0.504898933975144,0.506389211053039,0.50654810088855,0,0.501474584071892,0.503655210090283,0.505821225549086,0.507322460546672,0,0.508644716189315,0.529492158400314,0.529722274713813,0.550168839696138,0,0.551186099907397,0.557704235803241,0.559947869859852,0.565717214576851,0,0.574731929842159,0.579672125302585,0.880559249961653,0.883377261642036,0,0.773104976317547,0.81799866012917,0.93292988764203
0.710205604134636,0.355495004276237,0.536581932440007,0.53652166388171,0,0.715061788877435,0.342477908844008,0.341586664709188,0.346394451973354,0,0.349640735681637,0.351158407558759,0.350154844747112,0.323840313770574,0,0.322605721485455,0.324542533790734,0.297827125585522,0.297214395242833,0,0.297042721167683,0.288252643256029,0.287749492110244,0.287031748370522,0,0.287573252235223,0.2908834571417,0.289235203388268,0.285192644182482,0,0.286259215032349,0.293514271027372,0.293406518150417,0.300486247430394,0,0.283811033141517,0.284216476170062,0.285624568850279,0.284000057256176,0,0.274856586434506,0.276836317258573,0.276520363907499,0.284193647170707,0,0.27846174201265,0.278325681176494,0.281012197820592,0.283330710995087,0,0.27474883355755,0.274043874057467,0.273748010225826,0.274549764683175,0,0.279920971651422,0.281249619413884,0.280784820987016,0.284383584445341,0,0.286692966020094,0.289971210327474,0.292626679532449,0.290395829715477,0,0.292758174568734,0.295018245504881,0.292113483626949,0.291287987010271,0,0.300329183914831,0.298817904157529,0.293430260309746,0.292460484417145,0,0.2928832774852,0.300007751603913,0.305736917282047,0.307766871904695,0,0.308809700595232,0.308262717770686,0.308824311154819,0.309361249219649,0,0.309245277902926,0.317649089145494,0.330377626025876,0.330353883866547,0,0.345768024231053,0.345322402163643,0.362085279810043,0.357118602710366,0,0.3573368479442,0.356104995139003,0.355084995447821,0.354838442254787,0,0.367643684573002,0.368733084422223,0.363962736716999,0.363705225604275,0,0.363673265005178,0.360287267820842,0.359818816754077,0.347724926055764,0,0.346144246140423,0.346375275613896,0.34075021017282,0.339953021515343,0,0.342749117356345,0.341698983386015,0.332729926119417,0.334854849379381,0,0.333836676008148,0.330562997500639,0.328484645399358,0.327058289519657,0,0.328786901350818,0.329196910179235,0.33152638127342,0.331872468903642,0,0.319129321463673,0.33340018554048,0.33390242352629,0.336275726299237,0,0.336416352935264,0.334374527232952,0.334138931959608,0.340855223569853,0,0.342747291036397,0.342194829252006,0.344216565434886,0.344988185613085,0,0.350173107946596,0.352327252325735,0.351733698342505,0.356751512400737,0,0.354150832794214,0.362393014721348,0.362925386986307,0.365524240272882,0,0.361110024957597,0.361581215504284,0.361772065938892,0.362965566025172,0,0.362714447032267,0.38584296285882,0.374837558849754,0.375548910469656,0,0.375115159481911,0.37742362789669,0.381160278511119,0.383928066392921,0,0.384173706425981,0.386297716525972,0.385974457895104,0.393674222797564,0,0.390741152960431,0.386168960969609,0.398787918653087,0.399087435124625,0,0.398761437013835,0.405837513653916,0.416885836181769,0.417171655253693,0,0.418387984339329,0.415551709459461,0.417405424207089,0.420469989080506,0,0.424563685244847,0.431374945492409,0.432640585216651,0.428899368802351,0,0.425192852467071,0.426887677379188,0.428254677860566,0.428078437985545,0,0.434636752920254,0.423985654981178,0.431686333043612,0.432511829660289,0,0.439505721902691,0.442742874011232,0.447970714863531,0.448752379801446,0,0.457273075520712,0.470999696252895,0.473284422508345,0.474311727479321,0,0.481798726107792,0.489920370918332,0.497268569230724,0.498431021877881,0,0.498329661120745,0.500892901168326,0.499920385795802,0.498110502726937,0,0.499796196039311,0.499813546078821,0.499367924011411,0.503212327502795,0,0.776096488393028,0.525889742302093,0.525973753019719,0.545455107909315,0,0.551288373824508,0.560347833928552,0.562248119834863,0.570338717206281,0,0.848108283958486,0.836431707368383,0.845752331225049,0.783020980477391,0,0.657385691746952,0.658840355585853,0.684914725489177
0.709774592626813,0.714103884064498,0.713746838514586,0.537073212506127,0,0.536691511636911,0.342935401991082,0.342694327757893,0.341766557224106,0,0.351700824583434,0.349164066175105,0.347640915338138,0.320215068672998,0,0.319868067882801,0.321167494526089,0.29755500391321,0.297100250246058,0,0.297040894847735,0.293100609559059,0.289182240109765,0.289408703783367,0,0.289442490702412,0.289322866745792,0.287961345224259,0.28681167681674,0,0.285070280745939,0.293109741158802,0.29237464737957,0.282093379230046,0,0.28351608246985,0.284932393589835,0.285206341582095,0.287186072406162,0,0.271276086175665,0.275772485888629,0.274788099436441,0.277773219392103,0,0.280277104041361,0.280105429966211,0.278810569122795,0.278319289056675,0,0.262932543491395,0.263790000707169,0.264370770450761,0.279892663692222,0,0.274907723393061,0.275143318666405,0.26984881713599,0.269682622020685,0,0.274382656407896,0.276785180300018,0.289227898108475,0.290041523645488,0,0.290824101743377,0.292611155812888,0.292066912468264,0.291659643119771,0,0.29935940802223,0.300008664763887,0.294165354088977,0.291280681730478,0,0.291221326332155,0.298415200608907,0.304156237366706,0.309353030779882,0,0.310232403835037,0.309227014703442,0.308130309574427,0.308441697125629,0,0.306570632338492,0.310994892413494,0.542167732002192,0.330650660858162,0,0.539946013784962,0.590754234749483,0.345835598069143,0.357655540775196,0,0.357885657088694,0.351878890778403,0.354569973222372,0.358109381282374,0,0.36184329241688,0.362821286749249,0.362740015511545,0.360577652692638,0,0.354084172116097,0.359974967109665,0.359100159854381,0.341107255722733,0,0.349154021415388,0.346208167338617,0.342307147928832,0.33996763207493,0,0.341461561792723,0.342297103169116,0.333100669068942,0.332574688923802,0,0.333629388694004,0.331766542346635,0.330211430910571,0.326120474226153,0,0.32855678503732,0.328623445715437,0.327952273134399,0.325110519294687,0,0.320758398857647,0.32004613407777,0.322366473572214,0.329000580784781,0,0.328445379520467,0.328915656907181,0.333747186330676,0.342655061879003,0,0.342765554235881,0.342447774564859,0.341607667388595,0.344580003104618,0,0.352571066038847,0.352131836091256,0.352302597006432,0.356169829497172,0,0.358647232507178,0.360485423535243,0.36285416050832,0.363049576742799,0,0.360942916682318,0.35925631020997,0.35955856616143,0.363149111179987,0,0.340478088500509,0.342735419956732,0.370100084903601,0.374283270745414,0,0.374861301009083,0.374169125748639,0.377672920569647,0.380727440683348,0,0.38063886416585,0.384875013286167,0.387114081542907,0.386479435360837,0,0.377867423644152,0.379710180472088,0.394760883166863,0.395838411936419,0,0.396585376795315,0.403440468721639,0.417223705372223,0.419111207038895,0,0.417657456359968,0.418158781185804,0.419067375360134,0.420643489475604,0,0.423436845836684,0.429632636261635,0.430360424761072,0.432314587105862,0,0.425320694863459,0.426139799360317,0.427815447912975,0.427854713791866,0,0.429567801903466,0.427667515997155,0.431707335723018,0.435748068608856,0,0.438168855700462,0.440751272107501,0.443500796789819,0.445990984039464,0,0.450087419683728,0.458180756535068,0.47007466519903,0.472763008163077,0,0.480322146429509,0.485332655207948,0.486429360336963,0.486043093667876,0,0.492429734527435,0.500997914565359,0.495677844555666,0.498294961041725,0,0.48568970075786,0.488380783201829,0.491196968562264,0.504479793546986,0,0.505781959670196,0.520542277493174,0.524406770503991,0.697183942902536,0,0.546918903347958,0.561523983975322,0.561519418175451,0.57148199349398,0,0.572179647714269,0.741533383369536,0.745071878269563,0.808528278036736,0,0.899584024864148,0.658511617995141,0.685177715561747
