0.874157600834616,0.875301466390642,0.87615171237992,0.876343745741701,0.875663539615339,0.874801596710071,0.889864381523149,0.892229774662607,0.893076547787583,0.895258878489938,0.8957678818396,0.894166829063494,0.891995343884753,0.891294626736807,0.890507746160532,0.890282680952304,0.890886700317271,0.88935615222295,0.887519821068881,0.884949764743358,0.885135336033556,0.887294395297211,0.887693213463373,0.886298822280329,0.882205150329772,0.880896738564209,0.885225194642525,0.885509151535762,0.886887677870555,0.887676670921759,0.889536503351363,0.900342556709424,0.900852212620299,0.901467438660703,0.910892719891046,0.916547124828794,0.923853011109836,0.93056054684243,0.930318621216356,0.938476081962691,0.944669226340067,0.945311706883679,0.960537441188138,0.969910004643849,0.913493972800708,0.860292515455711,0.859877153084137,0.849746961634459,0.849776465831367,0.850481429487495,0.851749267877572,0.852958964860991,0.854721258729606,0.858140088821878,0.86094481962677,0.860787508454817,0.859638746135766,0.859798874297283,0.859998359621925,0.861031971973926,0.849357468012533,0.839630345118383,0.838911073028789,0.838189272419863,0.838937323203774,0.839870200441641,0.840828549959802,0.841564220570813,0.842125069678695,0.841965814664703,0.841504794356452,0.841192624328322,0.841565816885529,0.841444938936129,0.8249646826944,0.824633671325241,0.823511351443357,0.823184339881306,0.822688478953841,0.82262552042082,0.803715430879871,0.803935667471549,0.80515362809091,0.806411918889474,0.802703308707285,0.800790026718842,0.80228153718314,0.803326245957691,0.80385854828327,0.801850151147803,0.800880021540168,0.801284666345701,0.801512998827907,0.801762359192621,0.801786556272292,0.790953386415902,0.790795623507456,0.790717342440226,0.789760034698882,0.794061135710161,0.804757873237403,0.807057445540625,0.807997398601685,0.808106393000744,0.808517739609446,0.819517873355549,0.819557388020457,0.819170490174355,0.819507469082307,0.818245793673057,0.818204516499659,0.80421094621511,0.804276603381631,0.804104523612495,0.805661508253144,0.805368115627201,0.806535824243029,0.811235482234154,0.822733435486291,0.821549660436435,0.819556419980321,0.817311872856994,0.816158295928193,0.814892412791414,0.814102553592713,0.812860315803879,0.811854553669265,0.811008067879436,0.810471843609237,0.810840478805858,0.811311260978629,0.816616291073628,0.820041362781889,0.831415055279418,0.833234096577219,0.835178455705565,0.839526212121327,0.840511218521777,0.841931813560519,0.842837425610315,0.844479479848428,0.847165914687592,0.84947926308637,0.853071827039773,0.855204688018863,0.856629217199008,0.858755341768056,0.864831537317766,0.88150079079635,0.882716730252072,0.883657668407243,0.884705872563153,0.885636837194828,0.885756763839141,0.855662499362329,0.854280824567919,0.85263915212814,0.851350439754205,0.849760434034684,0.848163562315343,0.84607759132992,0.845164833087166,0.847112452286103,0.849117087995448,0.85119053852967,0.85293853156728,0.854082761884936,0.85648234842819
0.872910811196226,0.873762467751014,0.875315113002318,0.876251510350057,0.874355173836633,0.874281984093502,0.88502219673488,0.890344751147688,0.889918230079103,0.886380492279446,0.897025114175497,0.896768091177565,0.89316839516019,0.892109213942136,0.890457517973494,0.890944830620547,0.890874260014396,0.88845204650529,0.886465503572157,0.884458330965414,0.894343445143484,0.890175836818163,0.889453829309353,0.888456244540988,0.880608286558763,0.880747947350839,0.905646294351653,0.894543787844259,0.887426553867411,0.88790653240193,0.892834258613346,0.902057021708167,0.902842759264121,0.902767271393919,0.912856267920918,0.916075829145934,0.929278515482291,0.930635317892997,0.93063205413043,0.933731289600235,0.943333298071837,0.947184199427407,0.954479427472672,0.983350821205954,0.872473064415221,0.859526059234139,0.859054403875154,0.8469109552232,0.840558414373573,0.839410163190296,0.850776654305263,0.850742955950075,0.853888332266054,0.859392511442983,0.861941213296824,0.860668769331476,0.855950931614413,0.857755693410178,0.855664193092898,0.900512816739839,0.833666947330146,0.833106127031589,0.834513789381147,0.83587941502865,0.837077951667747,0.837949390539878,0.838648843768235,0.839466111841681,0.839668818965065,0.840105563916624,0.838469197804386,0.839115645181731,0.839906346659064,0.839370821098712,0.823949623534085,0.823563802054812,0.822973249600001,0.823039323796814,0.822017363503562,0.822675213323189,0.800503261408247,0.802010185955571,0.803695996757945,0.807331140826894,0.796143270817123,0.797771560165952,0.804515957204248,0.80406134503463,0.804942836108848,0.804335642977296,0.802462813390585,0.803596729495032,0.80240172032403,0.802124045871709,0.800825519523422,0.789833772215211,0.789599686579681,0.789634822630994,0.788389875909179,0.795892612699328,0.802507655536955,0.806939563364586,0.808007769257575,0.808863217295675,0.809005020097245,0.817922593359702,0.816743941901145,0.816606801616962,0.815465155357172,0.818610473692129,0.818081688735638,0.80411784402894,0.80339073144294,0.804946400572679,0.80325661288898,0.805750170641922,0.807220362096895,0.810584860296586,0.820794366950053,0.819656468873743,0.818353567514864,0.816134954894616,0.815035726546369,0.814603744841677,0.813185277327439,0.813060023177313,0.811326107566643,0.811722514140062,0.81140682746561,0.812747067816302,0.813699209250778,0.81937516640712,0.819870879152267,0.827850483948077,0.830204938707912,0.832779970422054,0.838561262803212,0.840173982917755,0.84087234696158,0.842279147423614,0.842804230657088,0.847610165300174,0.848669176409953,0.855182798856258,0.85593264962788,0.856836060747596,0.860977943110436,0.863153573396776,0.87912627721831,0.88160005513757,0.8820954910399,1.0181101639609,0.967521658875479,1.1111389281656,0.83754499609187,0.837282328031604,0.83711591758913,0.836398413286519,0.838143595749559,0.83925365429284,0.840394265339932,0.840267757596358,0.84039202039389,0.841853054493353,0.843623750978468,0.844551614525667,0.853206051472382,0.855330317703062
0.872916997473942,0.87255428885648,0.875016807507942,0.875373002121081,0.874893395230865,0.87465742443339,0.88885517375047,0.889693833420177,0.888064785303439,0.885678398095114,0.896592780647002,0.896145252108872,0.89255605147486,0.89069062093638,0.890002670855148,0.88927716784014,0.888524980970334,0.886701323874865,0.884827584891291,0.883551272462631,0.894726538248264,0.892830030843245,0.891426609954096,0.889831831484389,0.888256925128545,0.894981362284582,0.906651494314364,0.907089032832738,0.906698202735479,0.905884766334016,0.904680634968827,0.903503234151707,0.904916111143662,0.906970248535621,0.913132142538957,0.918909588772646,0.930907054797812,0.93164434113617,0.933080710254403,0.934655506686079,0.938385781463514,0.926098983898192,0.911538194928612,0.900810718589433,0.860017910530808,0.858457323968811,0.851620926243223,0.84368083854461,0.840656402270662,0.839238484639978,0.851322596685495,0.853429691889963,0.854929155946222,0.856884592419931,0.856242682832391,0.853098740235689,0.850010115499959,0.84501962785365,0.841367559918325,0.840339499078975,0.832619428291719,0.832842648139915,0.834070076649981,0.834796261027493,0.835603232882839,0.836123168503662,0.837191208014564,0.837512360216067,0.838036263006896,0.837301419990233,0.836522890716889,0.835256746258998,0.833925433299153,0.833069937354681,0.822199612457463,0.822449323581718,0.823023542188637,0.823313560275046,0.82336685084451,0.816325426514687,0.799788610679829,0.799969339184702,0.800067315694886,0.798466092512987,0.797436867119129,0.79831295922945,0.801448292227516,0.802996855324112,0.804401227774868,0.804380105362634,0.803495194304502,0.803513199220684,0.802644937187587,0.801858175991371,0.801259774385466,0.790526481407117,0.789949310791783,0.789723897321381,0.789441314017347,0.801447289565891,0.805565290522509,0.807458400536622,0.809244211230805,0.81006673734243,0.811537337009488,0.815406519759539,0.815158842296123,0.814073251700057,0.815707098440381,0.816548482607446,0.816950306601509,0.802863430242602,0.802644199409856,0.802565329905607,0.803470181011645,0.803421830289248,0.808241231599545,0.809920964039859,0.812411799798992,0.815200044047863,0.816504603085403,0.8148656065659,0.814700602755705,0.81403461026503,0.813684598418263,0.812726145436499,0.812341856784284,0.812596667955096,0.813288349154196,0.814310359070782,0.816160727216879,0.819150368393599,0.820805333000452,0.824401286768141,0.827485735963912,0.835830776123243,0.838719252711133,0.839506313169817,0.840310755331066,0.841859947266913,0.844658124385026,0.847584062959055,0.849258428603836,0.85265078678495,0.856031846437364,0.857153502992526,0.859081818149825,0.861742409313106,0.879370977688349,0.879852085531208,0.880802954378118,0.967521658910079,0.943738668355241,0.894045985126389,0.839299227900643,0.838559099794301,0.83711503788997,0.835359669464224,0.836889961114401,0.838293632740278,0.839092692437078,0.83874193151253,0.839159198839473,0.840320030491875,0.84190885274682,0.844045997556943,0.847098460852148,0.852887351555606
0.86742566598885,0.869092702490545,0.876138905026212,0.875488701606528,0.875664634034571,0.875480379739694,0.88902443111869,0.890033053775086,0.887438300704285,0.88363598347554,0.89456872200317,0.897224978298351,0.889724393035329,0.888647074283621,0.888759794594465,0.888299947517031,0.886581980406614,0.884967337103226,0.882929312906252,0.883045181467062,0.894774114136125,0.894098404088788,0.893177532178867,0.891827916252581,0.887895180793173,0.898430997888984,0.908329420007425,0.909497619532709,0.908255843581307,0.905412028822627,0.903688825858677,0.902043632505811,0.90757716021838,0.911119799221494,0.912283804450507,0.920439682024122,1.26362744569945,0.941178685571418,0.935830921510308,0.934337977707557,0.942798128692878,0.919632101166421,0.899230186274964,0.873699014035451,0.855573560866347,0.856121169026818,0.833676173398083,0.834501150912831,0.829339588961154,0.836946719161932,0.849593484724977,0.854485894674707,0.855631832149763,0.857078697968087,0.857783958101021,0.847184460357309,0.840782901308283,0.838753686160444,0.838929321215785,0.837605711403253,0.831967102852818,0.832128004269416,0.832761326775096,0.834038402832357,0.83321471591839,0.83470159032545,0.835537817458724,0.836104969005159,0.836692119309617,0.836747055396577,0.832806518642339,0.832400187270361,0.83213283706119,0.831279616827259,0.821151291370505,0.821705959225746,0.823517128672578,0.822808898941982,0.823588761273543,0.808031207869626,0.796659444530856,0.798439618196661,0.798566818695732,0.79892184884574,0.791999014718625,0.798613788807252,0.799589778519986,0.802167009200415,0.804848395889024,0.805589019288731,0.803453580135001,0.804797962889167,0.803469025746199,0.816041511589532,0.815694620728085,0.791734597325721,0.78975804558155,0.789943020327683,0.790155864113325,1.03513344478689,0.807745742411304,0.808503662364982,0.81009490057085,0.811590211862168,0.811604491531896,0.818310042594973,0.80904269979768,0.810356928628043,0.808925263774831,0.815374968742714,0.815418909650092,0.803233552574841,0.80168827716737,0.80254476365606,0.800544786754419,0.80187773470973,0.808988112101254,0.809873099342616,0.811821098981168,0.815466265047432,0.814067449805282,0.81464796854816,0.813670745402011,0.814252123566573,0.813695486015358,0.812717115096941,0.812090838013526,0.813309797869208,0.814410748487645,0.815204196343939,0.817449056037071,0.820154085201607,0.820546794250652,0.82142666785252,0.821168190732177,0.836069213997877,0.837946825549039,0.838952710855129,0.838489285386504,0.84051138099325,0.847209954028405,0.847826197784795,0.848671171303135,0.85016729440354,0.85730027731753,0.857823087652084,0.858383161373512,0.861005576472802,0.878190848302864,0.877543394457128,0.87670354811902,1.12082103606428,0.926443988837908,0.848650692675878,0.842059854096706,0.840046736415803,0.829861719079929,0.831589213378022,0.831271462765887,0.832285522179995,0.832693573857494,0.835986356239002,0.837167248607873,0.838229899979866,0.839082855021926,0.837490273790322,0.841284444761869,0.849682270022535
0.867945612621889,0.873227550320428,0.87591376059879,0.876123435723453,0.8760355265355,0.876780297607025,0.892227798105179,0.891900854670589,0.891314663066218,0.892314911957868,0.893691493355096,0.891134834821479,0.888927394946474,0.887908189545352,0.887366847647032,0.886473725415316,0.885069993302304,0.88341647592418,0.882038283029298,0.881994265544106,0.895649033052716,0.8954714347553,0.895015261501246,0.894482259445633,0.89532135097073,0.896381556315275,0.908991024928887,0.909932116830139,0.909565778193481,0.908331650209432,0.909607847962387,0.910210172150802,0.910423722727924,0.912244920610942,0.91297983078822,0.918939304392893,0.95055211985192,0.944745499453173,0.940892824236509,0.921396485548018,0.906959077396505,0.894619934083489,0.882087980349283,0.864818328306858,0.857053705609639,0.847534544680934,0.838580686230286,0.83629753669054,0.836031144308064,0.837301081027899,0.846020441311493,0.854919943620639,0.855395043939086,0.855343809976701,0.854793556203498,0.842689902887426,0.839242184788946,0.837607137628515,0.837026783020739,0.835080331386758,0.831753339958449,0.830955453221057,0.831557188235662,0.8317816268093,0.832192588377779,0.832388313869971,0.833713722026789,0.833470180049498,0.833181515112903,0.832865449753437,0.832583623530046,0.83071833999062,0.830865589020472,0.830517818602972,0.819685518824185,0.819954970909004,0.820327777615536,0.820403851038972,0.818519822490824,0.807225317825953,0.796161007737271,0.796532435641475,0.796501625564124,0.796057286217437,0.79458241040825,0.796252150492274,0.798413564477248,0.800594234982998,0.802831983954507,0.803481280450043,0.80288407418557,0.803503056619496,0.804261919687924,0.818024666548726,0.817536736016824,0.790866473069324,0.790160916835999,0.789930948356267,0.789968665475657,0.801750019332197,0.80816712259492,0.809142078464689,0.81151116412206,0.811733134304103,0.812439900334417,0.812475962962655,0.809825940090056,0.809559751403879,0.809904961455326,0.812563824287746,0.813355059779194,0.801034572635962,0.800435985159004,0.800051433701679,0.799802793314851,0.799699343047023,0.80740529799899,0.807933219188795,0.810177766602332,0.811772981085867,0.813574855388766,0.812686167158523,0.812968425182744,0.812718810566699,0.812995872208795,0.812388027732975,0.812955003447827,0.813684275867794,0.815287431152637,0.816633328445419,0.818449457845698,0.81992952987404,0.820300950383315,0.82059376166523,0.820764161804607,0.829050824946551,0.83858895132635,0.838856226417822,0.838175641336355,0.845260428092183,0.846715925056656,0.846012726483235,0.847185288550714,0.850154550464971,0.852477660708136,0.854463621799255,0.860489296846753,0.860965822602748,0.865339289490738,0.868438667449228,0.871994666816588,0.928879299072047,0.917074348066847,0.847629934230876,0.839092929335241,0.838801664222642,0.829508579238188,0.830523561174743,0.83115169245509,0.832371515259777,0.833238496392832,0.834527096150723,0.835549700651765,0.836499222944427,0.836987416180777,0.83810062162618,0.838937711606611,0.846582059192392
0.858033868743649,0.876427060766285,0.876400186500245,0.87665117851959,0.876513403458623,1.1552421470522,1.24396359004675,0.896539948970148,0.894978255071424,0.895613022629621,0.896768971625373,0.886114647652308,0.887025947055014,0.886631521624138,0.885587342723559,0.885654439325564,0.883523312664483,0.882118047393409,0.880352490667572,0.881877809866099,0.895859455210928,0.896097028927558,0.896087513776475,0.895507312706397,0.895185089456468,0.89560988895012,0.907348543035191,0.910080161784421,0.910928034839495,0.91149832195088,0.91038992586299,0.910358674280327,0.911101757374185,0.914533356242201,0.914947641347876,0.91603296923745,0.960782036305618,0.958471402801838,0.955625575625477,0.876340832393186,0.868106006081803,0.861900377104207,0.859974873563562,0.85945895336698,0.858205947149291,0.841748260527065,0.841253889972928,0.837152712571455,0.835058030568216,0.840387566315718,0.84101901375666,0.852831814539903,0.854619708728219,0.85406803837513,0.854232473722489,0.838017467605174,0.837150242339316,0.836398123149565,0.837324144320947,0.830264272888828,0.829517727561329,0.829353760522921,0.829661631719349,0.831274007371422,0.828451892904647,0.831946119107947,0.831011018468729,0.831918369838358,0.829605251954805,0.832617160134112,0.830005891437567,0.829668840717379,0.828966187118164,0.828219917478054,0.819539300664213,0.818592698562093,0.817981620719028,0.819287091838797,0.817488406218651,0.806723392972951,0.794969804181536,0.795285189364764,0.794789095397272,0.794126937861148,0.793059677715603,0.794823201479061,0.796494164942047,0.799249102952278,0.80214136402975,0.802571329290815,0.801149323987504,0.802460594619552,0.807155558398662,0.818372890808804,0.81828731089403,0.790496817347384,0.78991345297474,0.789811802789852,0.789608442742367,0.795568064277571,0.817449586036634,0.817201975129578,0.814105393098789,0.813132277851635,0.811629713411127,0.813608756639282,0.806992766230082,0.808107906453373,0.807599202868702,0.811663522535737,0.811158455445055,0.800890187119785,0.799841699143701,0.79693760991434,0.796947965991632,0.798498352003761,0.805169447780125,0.805448349646295,0.805125385044369,0.811112845520238,0.811717310364009,0.812840344104598,0.811509131370615,0.812020167878241,0.811756022999606,0.812150119226405,0.812844582943409,0.813819270001275,0.815765998177858,0.818314866554094,0.819024271066303,0.821079796210558,0.820364880348318,0.820910397121944,0.821831328510896,0.824253456440446,0.836750293233266,0.838337663016001,0.837687067556536,0.846597046123299,0.848261176193241,0.841452576066144,0.842525639721924,0.841882281547672,0.843762496547877,0.845058835703876,0.861837245184077,0.861930543813594,0.862248863871073,0.867830751281319,0.868214601180969,0.977059524715621,0.902798196188147,0.844578785714032,0.836851405438381,0.836259930974729,0.830222248801619,0.830005954100246,0.83008237700699,0.832555980033815,0.833427851560714,0.833350704968494,0.834144444275223,0.83453701441945,0.834743723418586,0.831801306181886,0.831949535067369,0.844144768558149
0.856579961361781,0.876141656573502,0.909451290206023,0.938854652091535,0.968347734694216,1.17419995905591,1.19532356568181,0.902814043231743,0.901649579868713,0.899558933561993,0.898010408818125,0.885160179090024,0.88547704709981,0.885166504691903,0.884837919818681,0.884143049544283,0.882570697231739,0.881328184390512,0.880605640339284,0.881870443736641,0.897177414786121,0.896929460381923,0.896715571844147,0.895952848679373,0.895348384671787,0.899557088357378,0.910136096181467,0.911316113686819,0.911951900355995,0.911511700054589,0.909264845141945,0.909691052671856,0.912326529465928,0.914061777653592,0.915057349302607,0.949492408454961,0.961724323540412,0.960429918884921,0.958879438932075,0.875465144241182,0.870980878498839,0.860630390825115,0.858683844547726,0.858034472256071,0.857760730059758,0.840835407883511,0.839797995000826,0.837700386808401,0.836972382406598,0.838836109258466,0.840900686187361,0.841788793268342,0.842571550926215,0.843710123279356,0.843934902489315,0.83672010256306,0.836112889309634,0.833657631373552,0.830955607914832,0.829518121103406,0.828751533969078,0.827813837494536,0.828134954273532,0.827842884128115,0.828433125690334,0.828947951868293,0.830584778983045,0.830443219337655,0.831106404326824,0.830510410967897,0.831160209897134,0.828945137080162,0.828670408397736,0.828576185179931,0.819228935172225,0.816114697057992,0.81579864329362,0.811804402699493,0.810342173503392,0.804941104756426,0.794306271148988,0.794258423784772,0.79393964104007,0.793493848547113,0.793876508902917,0.794540927416505,0.795816284090556,0.797379347260139,0.798909389578651,0.7991110459424,0.798636780020839,0.807677284576131,0.808884785428525,0.809205869489937,0.809374412666322,0.800850055547316,0.790036209324895,0.789831816607253,0.789876812093918,0.800583011574086,0.816773339537638,0.816699109816698,0.815374614192691,0.813642959515397,0.81176085685603,0.810184986648654,0.807952224143459,0.80762258253514,0.80866025823625,0.80947715903677,0.810552598332231,0.801977084697231,0.798734971687568,0.796862074829983,0.796717833501094,0.798576199730257,0.800795860605697,0.803204974491229,0.805053402286962,0.807566467367372,0.80994303117916,0.810333938261949,0.810534869787132,0.810367571558095,0.810843308292262,0.810264471521747,0.811117116594274,0.812288650017891,0.815714069933785,0.81738358776409,0.818675539063279,0.819460661427034,0.819540252393055,0.821320042707822,0.823197762385171,0.825094598840115,0.826451807916946,0.828785556627455,0.833174968978011,0.835745315889111,0.840894862330301,0.840737610934749,0.841454142265765,0.841846525316346,0.842927320338629,0.85106222609842,0.861172766863522,0.861169814039813,0.862166487940251,0.865347943756823,0.866307711748469,0.920298454709685,0.89192011642625,0.843792679222592,0.833946543019177,0.833268949468128,0.830358533417902,0.829841743257096,0.829860843864701,0.831185725932256,0.831645058299144,0.832041287318715,0.832265454688851,0.832704857574056,0.832124359834175,0.830538738781268,0.830035994955177,0.84214707862021
0.855484742600434,0.876315741113179,0.916586934645884,1.27093116345668,1.19939218436561,1.3125717181718,1.28820726529994,0.903504132278873,0.902679731222979,0.904128845816878,0.905279565487295,0.883116914885275,0.88414464000347,0.883748114288021,0.883772590712704,0.884120760509577,0.880922477099757,0.880679740293964,0.879727579985846,0.883791359715682,0.897952066815763,0.89667011105371,0.897237398855371,0.89598759900212,0.895819728192151,1.23305483226697,0.909844746059293,0.911681857575029,0.913924287089293,0.914234560898436,0.903976752083889,0.904729015623464,0.903447558972541,0.901877306618893,0.902180105468099,1.21324129603396,1.20690176531647,1.13208013224043,1.19089927157078,0.873514110756883,0.873192856444888,0.855626833583905,0.8560365282388,0.855780553768674,0.856864287865164,0.841223137673464,0.839845081914778,0.837647621134646,0.836094845954404,0.83740800305008,0.841160215235581,0.842126741257905,0.842953385975245,0.844045455124089,0.844262161482102,0.83170754651864,0.830481040253477,0.831342940060166,0.830205306000132,0.828127058680088,0.826529325006874,0.826736897455784,0.825745545134741,0.826586994676354,0.824133881188065,0.829335739619231,0.828442131716836,0.830357503841241,0.8299179935374,0.832354090098014,0.831077990266166,0.829654798527525,0.827477998097607,0.827229644370448,0.820439103227392,0.814157541686047,0.814464679907042,0.810103704116785,0.806974995607325,0.802659175484791,0.794392585960678,0.794398153767645,0.793459964521546,0.7929890290094,0.793386203421211,0.794666857585404,0.794184528759056,0.795550731428847,0.797147211151437,0.796358280759141,0.796253581917747,0.80942245890426,0.81033036382206,0.810409400489268,0.810919306486189,0.811314799238199,0.790846150545165,0.790146550943289,0.790508324594134,0.944895075522303,0.815167127265433,0.8169356767929,0.815623709495862,0.815208559512388,0.809487657801842,0.809543545189224,0.805413995773941,0.807453322511102,0.806861972451454,0.810357402091931,0.809570956013081,0.804083356842568,0.798617264515011,0.794087511535279,0.794783430780597,0.792798537474531,0.799273894113715,0.801296491129463,0.802538991133525,0.806100241077083,0.808426125228803,0.809722738857407,0.80877913150581,0.810667833625887,0.808776783361038,0.809087119059003,0.80798320284213,0.809123139812569,0.808115956425846,0.817017528849944,0.818604439279241,0.818995003817381,0.81803248953657,0.813839056218831,0.814425249680829,0.814954749164425,0.817231093442745,0.819131949671217,0.821351417331074,0.829152902538646,0.841421130805337,0.839479988617956,0.841632775863698,0.842033386457088,0.84456045086421,0.857530717076046,0.85849922659922,0.859611295065002,0.858489898870935,0.864632458827973,0.864931104719318,1.12665464652934,0.881094612601263,0.841469144212562,0.832239035436469,0.833017892359087,0.827994232334248,0.828601116115823,0.828494217595628,0.829825366183808,0.830577609419429,0.830245228902342,0.830554874007956,0.831124746769502,0.832097690710343,0.8292569716854,0.829128862546653,0.840286311880383
0.855076527894987,0.913992352562592,0.918200669714243,0.977121982812965,1.02712738422445,1.05671543770142,0.973738409520507,0.914054041291487,0.910128025136332,0.907208008529939,0.906413458857906,0.88349083704963,0.883921579421326,0.883637462527869,0.883903251244581,0.883758352833038,0.882228602577643,0.881135822127135,0.880573569263617,0.888168035982933,0.897662545118515,0.897592309948483,0.898647697723106,0.89820876366505,0.897919856292683,0.906378417807459,0.907232447202743,0.912195514984033,0.912797696957662,0.914285807633667,0.908296229017757,0.905237934961699,0.904734455948169,0.903937633833439,0.903271313313745,0.947299906248036,0.976970941278021,1.13213493562127,1.13208011416346,0.871527979924036,0.862534324633805,0.854963163050578,0.853972585242973,0.853333544943477,0.851647635215119,0.839988272957132,0.83792729977416,0.83711937687991,0.836764060588528,0.837455948588563,0.839302126146687,0.841046822752593,0.842122042606231,0.843051117029916,0.84385366517877,0.830485160683316,0.830390202103073,0.83055554871525,0.830021055581012,0.828121148746752,0.82537580095695,0.824143135783215,0.824004911642991,0.823304490537153,0.824137298165278,0.826315983367913,0.828592255728461,0.829253369870427,0.830680277493595,0.830635334871545,0.828193028758119,0.826452715358147,0.825347747010244,0.823521270455503,0.818870931343125,0.811709839370304,0.80917716673463,0.80614537482295,0.802778402689345,0.799677865664513,0.793960992890947,0.793483125021473,0.793066118200818,0.793244249132635,0.793758251069088,0.793603154963337,0.793051534119456,0.793547859198787,0.794059304205695,0.794610484596561,0.794573170846945,0.81098819714008,0.811487018340787,0.811847629026796,0.812049293991547,0.801509059024572,0.790098551836494,0.790036041292459,0.790291585420872,0.807849445138682,0.810188958872775,0.813505304280389,0.814449772314277,0.813644304368027,0.809949530123788,0.806722187034192,0.80619623674774,0.806373596366776,0.807795780696731,0.807245024669001,0.806626264917241,0.805342763511965,0.797295905587699,0.794320680577777,0.794534396177555,0.795046847133815,0.797485066798023,0.799155308380696,0.800740203274299,0.802049181545614,0.801858829319648,0.802872364216965,0.805578632918194,0.80564104636381,0.806833310106697,0.805973765247735,0.806482225366565,0.807963724404796,0.807883795651534,0.808025320922994,0.808466925029476,0.809112143330823,0.810490566189886,0.812352892708673,0.813135596510554,0.814275162857988,0.816274112105722,0.818427012968579,0.819908603905783,0.833598783059278,0.841339779175503,0.841413185937468,0.842972272407725,0.843762493754669,0.844417804047426,0.859224529307286,0.858937846735235,0.858238054155985,0.857251403735233,0.855247907751517,0.854303518557141,0.854595654871893,0.855711558971333,0.842559669689712,0.83046978236637,0.829832371796392,0.827864647482326,0.82700923254349,0.826993176817888,0.827835698340406,0.828187231969819,0.828120582097575,0.828046062191975,0.829049996781737,0.828391907283258,0.827661925861708,0.827124792117395,0.837983681462009
0.85458068526016,1.03386933970561,0.926286925319533,0.929630877982042,0.997584844490776,1.3084235812771,0.922286226477664,0.921574087236032,0.921507300603941,0.918892752426561,1.16867911485553,0.88296044882937,0.883647624170962,0.883400537340625,0.883120620946204,0.885936525981375,0.882444458441267,0.881926643087663,0.88169213721768,0.8962808068686,0.904601217629452,0.904344237947082,0.901580618281741,0.899654612386313,0.900172225977294,0.903311901613492,0.903790441573265,0.912905129064315,0.919157377531531,0.919166990814358,0.939028084278004,0.89308831790683,0.894086401208282,0.894620778912599,0.896362789465639,0.89834357201391,0.891235011420697,1.13222311208644,1.19104909142221,0.868557868569258,0.850954798290499,0.850807131325885,0.85157141428731,0.851558915382522,0.850595148736593,0.833636019576463,0.83484811380941,0.83616334887528,0.836721350999542,0.835577883699785,0.838139745774279,0.839661218819521,0.84109631777501,0.841232643387251,1.05245636510851,0.829669858272582,0.829501253558828,0.830160968958196,0.830535790458079,0.820770351449665,0.82169566042862,0.822426957373039,0.821314384875493,0.821087444663058,0.820121745999306,0.825668325643935,0.827696907885415,0.829024550385245,0.830176837320946,0.833154927345,0.82437772404133,0.824371958533699,0.822807874186046,0.820795879159377,0.816179833686736,0.808859235598106,0.797263177486162,0.794381495815161,0.790456692526418,0.791214694300735,0.792053439963842,0.791001992858237,0.792407140549674,0.793197086103978,0.794656968301132,0.793088545800147,0.790844197586868,0.791463948459423,0.791804779267905,0.792729722212756,0.793409272464507,0.810619805668017,0.811663688346987,0.812468878987662,0.812478968974313,0.790701688861136,0.790186530718819,0.789988188409759,0.790764932852398,0.806137800545415,0.805906204676847,0.813701591410264,0.814154749404544,0.813974818376139,0.809501787242799,0.803398147535419,0.803911621278924,0.806017289077166,0.806364586428483,0.808705666519102,0.805219872413731,0.801420511882006,0.797381725787456,0.793128482000631,0.793749707642246,0.795128936300819,0.796068798878431,0.79763542936132,0.797247997159817,0.799055509481858,0.79998055633341,0.802550846592427,0.803043872084072,0.804134830601262,0.803520603591007,0.804161662474568,0.802500840169277,0.800268649777493,0.798977651856713,0.797884807388552,0.804675459605264,0.809602219335494,0.810561187273407,0.811347255063418,0.811625848913434,0.813438820635585,0.814406274611923,0.8133763181424,0.81106923644177,1.12614900453077,0.976076332084663,0.830979667028608,0.832726478401336,0.834127384871608,0.833387404046871,0.860591252545889,0.859033206092512,0.857280839691485,0.85793540607845,0.856095245727408,0.853795605517679,0.853466049348206,0.85511238124002,1.11598934585565,0.828668413388176,0.829753314368218,0.824673218823137,0.825048920809984,0.824395920274629,0.82632145503186,0.827017731236876,0.82526502817759,0.82548019135257,0.82444428583046,0.826501873955049,0.826572209299989,0.826191576679232,0.835111606223814
0.854396304599928,0.980457191263999,0.923005757458969,0.921121814217205,0.921055348845707,0.920586986851358,0.92125668563555,0.921015115133904,0.920838266433566,0.919876815350198,0.909492434260005,0.88396544985438,0.884244125160588,0.883792484267625,0.884310109421545,0.884340015078507,0.883408537958688,0.882301076343162,0.881797918149476,0.887022044458642,0.904417504611068,0.904018389133512,0.902245734273707,0.900768899306172,0.90012244067883,0.904584878947133,0.908521618627797,0.914441515833871,0.917797240516328,0.918112994038129,0.929309314428548,0.895114771885935,0.894900895972698,0.895266127190292,0.895227561631794,0.895990089968046,0.948551198896011,1.13217913548046,1.13214050283353,0.86359863384646,0.850156962476023,0.849704473018556,0.849696620910373,0.849987914625237,0.850133125102143,0.83688530553132,0.836354249373457,0.836597892504487,0.836871595366458,0.837039700053182,0.837874587951861,0.83929696660984,0.8405935319605,0.841536760620283,0.834967140941292,0.827555284895356,0.827912040219046,0.829565837797517,0.830690286682183,0.820611124719933,0.819977973389511,0.819282736426403,0.819341290329457,0.818474649879675,0.818535705979491,0.826628025026802,0.827542732169473,0.827369558506545,0.827414139056481,0.824549756307346,0.823800982105461,0.82234670715695,0.821445832245085,0.819087476218756,0.816226220961541,0.812558868559712,0.794715524635427,0.792029653828417,0.790356849705211,0.789789619168731,0.790802450716777,0.791300839932343,0.791599963763982,0.792358060053425,0.793043457347406,0.792164586345323,0.78990093763117,0.790139598684961,0.79092284043104,0.792537902402589,0.793046222420969,0.809478078536803,0.810753592094856,0.811988005802314,0.812560401466504,0.790242765969055,0.789236466429199,0.789370780254029,0.789744021182669,0.806720206414427,0.810343933817876,0.812745539618027,0.814007201500155,0.814518712912248,0.813496873879468,0.802061790960911,0.803319692656755,0.804754903223387,0.806368503285691,0.805739420060372,0.803075329504931,0.799653132292408,0.79633595166611,0.793781457759987,0.793395043732867,0.793959721678782,0.795589172246305,0.796421668868293,0.797566401341231,0.798211329007521,0.80019322830324,0.800610246440693,0.801793732774417,0.801647114755841,0.802416935633411,0.801525561943317,0.8010164656436,0.799764839433138,0.799209079590876,0.799529478423206,0.80114555672889,0.803104952442914,0.805309218081751,0.808103150316726,0.810671504070401,0.811750252750988,0.81312884070762,0.813550242331587,0.812865964203003,0.811977956797802,0.825930587032001,0.827981604800021,0.829718790363651,0.831005283381116,0.831707685606463,0.852891294645452,0.852497487609252,0.854461712659101,0.855173736614761,0.855194256548511,0.855292050212992,0.842406510665909,0.833660453239861,0.828623836030701,0.828118382672351,0.827073169480005,0.825539070009246,0.823725310395598,0.823073703091468,0.82207694996081,0.823009346242187,0.822994601177385,0.823089495878391,0.823285166365435,0.824182388004517,0.824759495415557,0.824771917433585,0.832355040769356
0.854720341774477,1.23859816676989,0.922097108840554,0.920004243060998,0.911234044051247,0.918045627305113,0.920174279967572,0.920986897778427,0.933268289280161,1.36879161766278,0.907985739148008,0.884191151692966,0.884371291091652,0.884171710532713,0.883647263998695,0.885700476135108,0.883166428905488,0.883208703493419,0.882295608792736,0.882292125017763,0.904109248073665,0.903900669261081,0.902310654956836,0.899865746477625,0.899641603122414,0.906921428317113,0.914185617139322,0.915126479047691,0.915430904645624,0.917897303436343,0.950869149356167,0.888622248575091,0.893055616715039,1.2052913410488,0.892839620518371,0.894258000936399,1.18941980053791,1.13214050040005,1.20060010695089,0.858607894987017,0.850137383308407,0.847772086916913,0.847660772403113,0.847047719053732,0.848548315332559,0.839296227329431,0.838679942761759,0.837403883534357,0.837613669326366,0.837342847723026,0.837466379251141,0.83850813566025,0.840077708204798,0.84081653999371,0.831036498969117,0.825694621916698,0.825074552890481,0.828354825664887,1.08665274619747,0.815538224348513,0.815563494447993,0.81703207915726,0.816869898680733,0.816518155886711,0.815177743334492,0.826155603280897,0.827162899606007,0.827077165080099,0.826436981465494,0.82537399014515,0.821921958380559,0.822154350768379,0.820148686498944,0.818660128938604,0.815252806073849,1.00732313486515,0.791083888035671,0.789533759846713,0.786252988701757,0.786029125035916,0.791344421441991,0.790472219716115,0.791227456306601,0.790631265925706,0.793651154016083,0.791885674233004,0.78678015226226,0.788643878356361,0.788249208048914,0.794260980896914,0.793149916166135,0.806231448103768,0.808924643894799,0.811425876075043,0.969727715896868,0.786398999978222,0.787625884656446,0.788057016761462,0.788724077696168,0.806615675110978,0.812036197743705,0.81420117004779,0.814015990627133,0.815118511258127,0.814827099480095,0.801727575172058,0.802353700045172,0.804362177054756,0.806075515604224,0.806697681964451,0.801972561933982,0.796227999449739,0.795762360048012,0.790813274212276,0.791482936342388,0.79295343094813,0.79465107174019,0.795975083502165,0.795973556287972,0.798370291549908,0.798691278948939,0.800212073758404,0.800215969888582,0.800731542927671,0.799816543176573,0.801297099433041,0.798378774450136,0.798494486776204,0.797603060418744,0.790361869574444,0.789996937895041,0.79916809094142,0.800904241759607,0.802362779284293,0.810114066837301,0.810186127872149,0.800545358255852,0.802263179835723,0.804056500423124,0.805031925274734,0.824145379381322,0.821842736898039,0.821963785540988,0.821722070649651,0.829152337530206,0.853459321690478,0.85225898996853,0.852611245478103,0.850830684621814,0.853409175673778,1.0273989949568,0.832299225424016,0.830818972076992,0.828180167101662,0.827713611206502,0.826049241623822,0.817208152841178,0.818085266657327,0.817883515836337,0.820615803132808,0.817820005071803,0.819733333753364,0.820378297704172,0.821325105753022,0.821214935786131,0.824734629255505,0.825147030151554,0.830072858477463
0.867854188250227,0.887379191403354,0.891626617140463,0.896938098583782,0.903957414473147,0.913517676643209,0.909615695980965,0.907129566976453,0.904544317705238,0.903092671852567,0.899336502368415,0.884904439298084,0.885110687857738,0.884904777076524,0.885989726462103,0.885459672495673,0.885164729401482,0.884402561184859,0.884118176094322,0.894809805050106,0.905045135648592,0.90442050748909,0.90288294930626,0.901201473341711,0.90042007257231,0.909535368220091,0.915248499360356,0.916315142977013,0.916441073904399,0.917017068634915,0.909106330243751,0.891083055527318,0.892521047729314,0.893611832856452,0.893757726508233,0.894179237625922,0.918563643432405,0.929747978750898,0.949005240397933,0.857203677114557,0.849083411068788,0.847823762124957,0.845141420128195,0.843657646368293,0.840732217536776,0.838634476637104,0.837590066876353,0.837215045568386,0.83710002415261,0.837143809173547,0.837216783827335,0.838466196264934,0.839338478487415,0.840083090287109,0.826535765558438,0.824282941291819,0.823221057067807,0.820617051653323,0.819272660642904,0.815159886046264,0.815771384159661,0.815119407638014,0.815352543152829,0.815136145916583,0.815732360780009,0.82572857840056,0.826191358238912,0.825831602162181,0.825915013560695,0.824232661847213,0.823079152224508,0.821120357713141,0.819746359086707,0.817578738392667,0.815724506505705,0.864764840507143,0.790440759376084,0.788134004724139,0.786348483594961,0.786626703604613,0.789746118682105,0.790776632299723,0.790723622987811,0.791141350868475,0.791220374418892,0.789261392164123,0.787562366993187,0.787954202264478,0.788166961668405,0.786769767853412,0.786965826769077,0.787800138382612,0.788293480728801,0.789662982065311,0.788708262528547,0.787349495074715,0.786099462324275,0.786434387223377,0.786810288143615,0.808110824090612,0.810320766161502,0.812147994225169,0.813212345917365,0.813998322655901,0.8146054734362,0.801035860539889,0.802013284378222,0.803265846333409,0.804681605982208,0.805502340700882,0.800017045572592,0.794320028163156,0.793195145923521,0.791890861040868,0.791928554121265,0.79276795601043,0.794571934752801,0.795689396267667,0.797036973632064,0.799239254420882,0.800272035809782,0.800069485289454,0.800275713096988,0.799775697256227,0.79983388092104,0.798646804895138,0.797943848314054,0.796663476785621,0.795148827280048,0.790841984446093,0.78990406234009,0.789830927769108,0.791346293568487,0.793172058395366,0.795434853330864,0.797560721373515,0.800056130787838,0.80206733781733,0.80348267757856,0.816002742387762,0.823053604986605,0.822706588790202,0.822942049390613,0.823225015763318,0.835325309420056,0.847594414613528,0.848076741195126,0.848665981820253,0.846987338816552,0.844189331982729,0.843059450171381,0.831046531383721,0.830039651303436,0.829463829730701,0.828792311266915,0.819897235435884,0.816517729851092,0.817194005981874,0.817010304461067,0.817703298885496,0.816934729899465,0.817508867823317,0.818637005178567,0.819365135002876,0.821130782009291,0.823433094932183,0.825221676456469,0.827405963843251
0.885689553332986,0.885685576221075,0.884957453919513,0.885736659119438,0.899936719464845,0.944904458829841,0.908568540013456,0.90777169650202,0.901808984216117,0.902739550963617,0.89745260411752,0.885171458796729,0.884996488487184,0.886094235928314,0.886719620093716,0.888100736816869,0.885644041613995,0.886260809718493,0.885319463566857,0.90776386791033,0.906330536931365,0.905528768275648,0.90390564930362,0.901996092278469,0.901472663279482,0.912073632226693,0.920086249834696,0.91824594629916,0.917061935259171,0.979793737078778,0.876438761584181,0.876823293376252,0.878001753802406,0.880125212820755,0.882340615424369,0.883988389389569,0.882640398777714,0.914996121559,0.976572609997733,0.854822536682941,0.841675939042313,0.840334090638267,0.841745079867269,0.841228248584475,0.841500231690067,0.836398789414266,0.836717776409423,0.836443022121089,0.836748376470613,0.836432318668234,0.836003932182766,0.837745793963884,0.837527439001221,0.83867408891649,0.824374100288148,0.823062132179514,0.82197136193917,0.820005777539594,0.817910860418296,0.814236000317526,0.81346231896604,0.814007805207394,0.813685815550172,0.812958016161506,0.817948576051535,0.823359299178662,0.825224731416256,0.824947252705477,0.825578460514946,0.824482483228471,0.822101612568126,0.821995038239224,0.818670417098293,0.816620414193404,0.813762098253517,0.929575059339488,0.783709214759906,0.785034249546152,0.783525904117565,0.783534848292952,0.790960764092569,0.790540401066396,0.790625584777574,0.790910537497546,0.790927090402007,0.785510323593217,0.78621384222913,0.787083702447037,0.772045933490021,0.786288003472161,0.785049084693039,0.784809095726925,0.786471690534392,0.792688547021897,0.782891316596059,0.781453010765817,0.782924400346911,0.78409170733711,0.784026473961068,0.991975963834261,0.808173114777956,0.812026802106874,0.811322839803812,0.812767763444904,0.813004380510167,0.800898410306801,0.800970147162159,0.802907639479838,0.804023345000948,0.804151204709027,0.799425989523081,0.792516640475337,0.791650351004672,0.791086185067984,0.790747314151044,0.792664637025517,0.794864409253771,0.795731355330546,0.79673869601739,0.802577511522929,0.801115331949014,0.801338366790748,0.800026000455199,0.800417739511785,0.798489655950855,0.798298328890228,0.796267249787581,0.795540048214121,0.795056551901773,0.788951807763648,0.788723277655558,0.790729012046794,0.789613334152799,0.790659326323276,0.793732349642833,0.794953420796516,0.792236675322669,0.792694121475248,0.791084359807862,0.821967415929341,0.821701933928649,0.821817910916186,0.823274955684811,0.823799247102591,1.11403232404635,0.847490691408416,0.846692629238468,0.848450957631256,0.847182474233099,0.841144659657664,0.84037902719519,0.830517022000219,0.829359079349727,0.829556039154239,0.827801955816661,0.817010544708189,0.816278424957966,0.815925785642478,0.81545704632023,0.812440540447229,0.813800574068517,0.816818935696395,0.816569224133498,0.818537695186418,0.816778796641281,0.822618791465251,0.826224288852641,0.827270207298624
0.880330951677797,0.882628305302354,0.883515790374353,0.885093833711945,0.891678739002331,0.894748106381189,0.907666158629444,0.906774842306666,0.904989426537596,0.904536479490514,0.890484636940216,0.884514939172291,0.88474243932863,0.885178857841302,0.886968686829971,0.888544398592421,0.888856598735998,0.888496773779598,0.88920718322007,0.908639986864437,0.907492718204693,0.90651286396708,0.904912435953145,0.903513773156956,0.902823699274284,0.915599842947995,0.919285677691669,0.919384999574293,0.919308779120323,0.919923207490826,0.875607142472296,0.875888822074978,0.876758914092814,0.877146021840743,0.876150153711231,0.87649790034532,0.876876201039685,0.864963073633069,0.85869732468506,0.845387047333765,0.839256071334598,0.839016431477771,0.839636978754429,0.840279960912182,0.839966630999749,0.8379324003413,0.836122787188013,0.835836667182255,0.835916649611101,0.836125066232602,0.836293103006885,0.836531447600696,0.833855195947278,0.8300238902525,0.821622588229417,0.820502051178016,0.81969824514134,0.818084551364981,0.816760490277804,0.814238851553094,0.814251024356249,0.812478570639165,0.812595442827675,0.812295121996562,0.81956887635167,0.821959173549611,0.822824670572622,0.822729391777809,0.820426179909457,0.820293575154652,0.820411405993476,0.818567343109688,0.817549195844931,0.816038472408271,0.814877111922134,0.863401444541679,0.783994881276111,0.784585976770151,0.78402578613095,0.785017767931901,0.78876039056401,0.789350941369413,0.788986350055379,0.789346376865888,0.788224291894591,0.786388388773797,0.785541135498663,0.785991246163823,0.785272108647626,0.785202416918317,0.784422008279092,0.784150197414312,0.78443109292851,0.783669045062704,0.782724655635451,0.781909464682629,0.782223892633431,0.782845469637525,0.782726489829644,0.80310886952333,0.805758223539271,0.805495178123565,0.806099812760263,0.803533396014789,0.802414071661728,0.8013226337489,0.801937108489186,0.802548444340644,0.803583240057258,0.80412967614724,0.800666758386451,0.790460293980323,0.790406661491877,0.790468775217716,0.792079963413004,0.793370540829803,0.794952668350686,0.79623444766491,0.798668848702157,0.801049036112637,0.80075828747825,0.799696935698113,0.799544317163561,0.799484470190972,0.798965305553294,0.79742010422034,0.795284998661644,0.793266371232611,0.791102703708952,0.788777028417003,0.788238668999069,0.788389770157748,0.78882511555302,0.78938128178941,0.79023391446962,0.792176824832358,0.793118644709359,0.793438253088924,0.793054316479712,0.822530045978344,0.822707264577423,0.823109028399454,0.823575619341308,0.823751387954999,0.832527091024193,0.832923404592302,0.83326854796349,0.832625011865779,0.833312587229615,0.834346356580571,0.835059179351049,0.828756011341918,0.827507092025257,0.825706365485649,0.825961862737127,0.81735535234146,0.816858512394339,0.816651346233005,0.81542533546853,0.813924928445337,0.813039828237782,0.813163745369355,0.814460262648797,0.816349164984393,0.819013786444194,0.822011221147658,0.823830593693927,0.824584154134015
0.878062957516437,0.87750188876149,0.880719190725063,0.885736654544559,0.881898428861698,0.891522980404807,0.906929742229178,0.906063564097467,0.905930625982734,0.905091152458697,0.885163896482516,0.884446057321358,0.884195676349781,0.884404380482809,0.886184820931352,0.891468729689128,0.891359515557273,0.890816716201325,0.890618902454929,0.910527182976486,0.908871262708302,0.907660421720028,0.906032075746701,0.904066168321654,0.90402543610819,0.924191264634612,0.920921677591833,0.920690406433288,0.920772533822984,0.920648902965152,0.873824633356069,0.873529828796256,0.87426532468064,0.872358650584023,0.874269856738783,0.876558598379066,0.876491827000574,0.860708035866055,0.853292897754832,0.84328642187495,0.838329075551041,0.837347340202119,0.837510997784341,0.839402044608281,0.839121178992384,0.8256289501576,0.834692775208049,0.834272051473931,0.835363589621973,0.835174418401449,0.836827435031121,0.838091917204808,0.830518378484758,0.828056116105403,0.820791859494609,0.819598407250765,0.816670148617831,0.816527005047573,0.814025577030235,0.814817232897514,0.812484396991264,0.811554356526089,0.810597205506776,0.810407421959213,0.819254915528062,0.821226702892821,0.821661913292456,0.821563948869583,0.819064805126999,0.815562571893704,0.814996813133106,0.816010682796258,0.815777125993637,0.815356244929675,0.814309929831917,1.10841407961771,0.783342265739025,0.784067160272731,0.783368479179017,0.783834675517842,0.789393049304199,0.78730233769451,0.788061018761851,0.7865380316192,0.788824969927504,0.783711621472769,0.785147926116839,0.783646000225524,0.783809629982762,0.783031114070741,0.784041685239096,0.783122411365278,0.783350205974801,0.784710755165977,0.776291943990698,0.775504266194877,0.775148581157753,0.783081215383498,0.781101718171228,0.800237957591609,0.804850924230046,0.80519762598547,0.804523002352716,0.804286669954185,0.801943972826401,0.802707727535711,0.801183886287372,0.802719769182975,0.803110212630896,0.804009914662771,0.799968459429872,0.78983071429233,0.789756043463816,0.789842954851941,0.784794006863445,0.785405696401559,0.794983171223217,0.795686918241697,0.801171318758936,0.802057344699576,0.800494878156195,0.797998144482779,0.798676645877987,0.800144947297867,0.799184103121724,0.798691658037529,0.792725369321159,0.791473026092959,0.789662739918744,0.784490743963524,0.78532767742176,0.787314281525881,0.787269813942073,0.787390402103931,0.789310858740816,0.780790687293694,0.779910765089325,0.780105053418067,0.779252695275384,0.879680366695429,0.823098520480125,0.823991674515885,0.824057909798371,0.823618344384555,0.831435689302369,0.832052047007494,0.83598011517598,0.833125877114484,0.833563972023463,0.834606570429916,0.833887253433721,0.822703842606997,0.823195469598602,0.823019177424421,0.823214050357306,0.807131976791693,0.804438628101784,0.802760469343021,0.804612267784052,0.805127482965802,0.807282191246374,0.811540626843171,0.812428374514279,0.811468797090531,0.810708476623199,0.809300745175307,0.822065503754233,0.823612421398419
0.873406791763119,0.876474401424806,0.878556326762927,0.880435020693794,0.880924306434286,0.893604245266579,0.896695771752454,0.900512046479735,0.902914427723516,0.899734786247715,0.883595537053367,0.883322147064981,0.883950205028815,0.88507211141983,0.888048517260659,0.89070308131522,0.891750573205331,0.892295530662094,0.892419726900225,0.908968705245146,0.908492328643379,0.907938226579352,0.906980328299069,0.906227629973508,0.905792183111815,0.923580201375247,0.921994483960193,0.921406132440952,0.920948867919828,0.920589405494496,0.87279178504742,0.87297748073102,0.87381384263721,0.873388265861161,0.874687081985884,0.866426312152147,0.861139640258442,0.857194917487513,0.851618883360656,0.840534668872836,0.838617174144957,0.836434692680077,0.834066041901021,0.831146357284479,0.830361272753863,0.827318081727998,0.830411554117838,0.832600135974261,0.83450511004951,0.835469175040038,0.837031694991138,0.838567204157616,0.828138219020883,0.822756033449391,0.81913385870114,0.817543390892659,0.815986435341586,0.81440706189812,0.813462718681248,0.812105210326265,0.812236453137893,0.810148115109004,0.808596882082395,0.808499784009204,0.807711499279822,0.807945997869432,0.808994488292329,0.810559943084608,0.812890441393433,0.815139633167339,0.815888644788155,0.815166267057314,0.814931666580721,0.814581179135509,0.814554115058225,0.862542917731833,0.784754018494016,0.785109108980419,0.784427965793853,0.785731991313871,0.78681218632403,0.787126157019946,0.786248533596271,0.786635747218221,0.785332762303785,0.783633695152396,0.781546223314331,0.781830287156903,0.781335733260707,0.782384627551648,0.782166462657835,0.782163316511421,0.780835241691518,0.778828204206108,0.776472687401966,0.774812949870508,0.774742672887,0.784718742343282,0.784611552709988,0.800475950820074,0.802720432820329,0.803055250820655,0.803171259203213,0.801870984537142,0.802463860356862,0.801528142366777,0.802221155997052,0.802174850263998,0.803104433334677,0.802772156765785,0.800765131513307,0.793635811617931,0.790303889878867,0.789765752845349,0.788152976314542,0.786919246577172,0.786219520748068,0.786722696203659,0.790063274017526,0.793004646172689,0.795303543375655,0.796923571548462,0.797414949699154,0.796470175801706,0.795034185663898,0.793347892484022,0.791583069249986,0.789793416844805,0.787778727920493,0.785332733391507,0.785098287062012,0.785628755517855,0.786207097589221,0.785944852258019,0.784402814553927,0.782303745449309,0.781175993326073,0.780526258520935,0.779669219704059,0.844014039869278,0.824108695196371,0.824288587223696,0.824644629425603,0.825767974711927,0.82894509594794,0.830309315015534,0.830044284926725,0.831394192721909,0.832396213107069,0.832791895152654,0.833081020904948,0.82123543229768,0.821975812491671,0.821765148307108,0.813577950870635,0.804266453031374,0.803343979182991,0.802357220502421,0.80314471554604,0.803716086860939,0.8044782063462,0.804409698120243,0.805598491618268,0.807454998868008,0.809892610773483,0.810003399309597,0.810253218142349,0.81042745132042
0.871774444490986,0.872303462821403,0.86970326524164,0.868347729619923,0.879912808926475,1.33789127330529,0.895024190972567,0.898300100863302,0.905039068309078,0.896970842989,0.882381212880012,0.881933281178416,0.883172263913748,0.884448879872167,0.890159269134052,0.891308124898372,0.891663071840191,0.893380086839638,0.893876175019039,0.907367370026691,0.908322030300298,0.908077699174103,0.907906500293184,0.907583848289311,0.907298450866878,0.924373004936661,0.92190788444925,0.92178396167163,0.92077764216219,0.920294786221263,0.871014856481977,0.870804189712,0.873027512924162,0.87173017214158,1.0078755955673,0.855649966526553,0.855712194304561,0.851541098850385,0.850156550763,0.833468905417916,0.831328976180297,0.830854183147533,0.831862574320118,0.831475486855494,0.83018564066345,0.823977060657333,0.824354786152844,0.825446412069758,0.824565412290477,0.833400194199116,0.8367329790879,1.0307137591697,0.826618980945299,0.81828624797416,0.816989231043234,0.817315175131168,0.812917157670172,0.813201058120451,0.810059738532482,0.810528907908624,0.812438608200542,0.804607880946965,0.806259837207519,0.805715493002073,0.810590644404317,0.809046902607943,0.810254249503767,0.806369901364037,0.805248290039836,0.807045187301926,0.806794423470297,0.813562657202198,0.813454707462395,0.81361547151196,0.814315470763619,0.932239043572733,0.785381060049999,0.785265383450038,0.785929473190139,0.784223407135118,0.788462838573439,0.784369620519317,0.78555221689249,0.78539077596549,0.785221636848513,0.778460648838884,0.779384221475417,0.779044298064275,0.779806513059002,0.780039790623284,0.782768775776904,0.780657891785265,0.779749988318449,0.779416314338667,0.771314399244398,0.772709772685666,0.773763196867719,0.786748548799383,0.897169025475124,0.798303560510114,0.80089880705085,0.801575142154199,0.801113508728222,0.800182732725812,0.800211769121711,0.802886588674278,0.80085088664165,0.802379674929496,0.802319975184581,0.802971446946431,0.798532904772513,0.797211617756504,0.790660775602364,0.776655639086155,0.776093039505719,0.776412264672803,0.785571435867566,0.785579292536885,0.786875341815819,0.00420028396110102,0.766787154462478,0.761001974319401,0.760215512029628,0.760202362792968,0.794517802718307,0.79305187790086,0.788050741843571,0.788768339808879,0.787074641626738,0.780534843311358,0.782805407750459,0.78581258752567,0.78527979102825,0.78576251852175,0.769165373268226,0.770465760136099,0.770957477859786,0.773088661335358,0.774454401719702,0.875408628178561,0.811717686507217,0.823636167418319,0.82386955129976,0.826959661794345,0.827786652764743,0.828842262062529,0.829926960411669,0.830035787345288,0.830886819245226,0.830363508157815,0.830923605381744,0.818928809884254,0.821081268355697,0.819353559556676,0.806759191643585,0.803440333408029,0.800861587009372,0.800621147037134,0.799480405055613,0.800664351314829,0.802897747197786,0.803734548110419,0.805262019493157,0.806025605545173,0.802975415293919,0.802706409575432,0.804392925518767,0.804206969399321
0.870847987231915,0.870455572052316,0.869403739693149,0.868387817407291,0.872130588055907,0.908087615137074,0.892649728655542,0.89011368108894,0.888192357872318,0.884311034822662,0.883109890057511,0.882259897308676,0.883131258038605,0.884510162269717,0.887619477807998,0.888991872059013,0.890034070901274,0.896266264132654,0.898239457334323,0.909543784389295,0.909428610567363,0.908869332546753,0.908526958404554,0.908419461953446,0.908351213239113,0.924637658838287,0.923223400729488,0.922652584856682,0.921919925809569,0.921070110479353,0.906976971904396,0.867898152830308,0.863677091313473,0.86128146652956,0.859962848053088,0.85274376894191,0.85125343394557,0.850350744127463,0.847915110382411,0.831972439812892,0.830846962381615,0.830606892591876,0.830255610958154,0.829353220882132,0.828271201213475,0.825538016895643,0.824779686943952,0.82475004625642,0.823625064438806,0.836539049249763,0.837377097714865,0.825739233545116,0.82476445644294,0.818325003382157,0.818366843834327,0.816307837885903,0.814850735344059,0.812549967568117,0.810811088919265,0.809122512771575,0.806229414691249,0.804797977104982,0.804598120594331,0.805519657834999,0.805544961583456,0.806563928666974,0.805938619022608,0.805508785396114,0.805330922649653,0.806153143366573,0.807463110768649,0.810364317379221,0.811363901102267,0.811359376041421,0.810358217216213,0.794620034005323,0.786095580168015,0.786095344966316,0.785070530988666,0.786029595068489,0.784774428726318,0.784684207269157,0.783332112603984,0.782661543902488,0.780514284968308,0.777928804145551,0.777732026796101,0.777335664390561,0.777386333323103,0.778917193541839,0.779257530199533,0.779422077852665,0.777738129670071,0.774928652757353,0.772332270371002,0.772234014079985,0.773857881836228,0.789177435485992,0.797745761482183,0.798754896905917,0.80070251919295,0.800883964680905,0.801070724454366,0.799984184823825,0.801178129858842,0.800489839086205,0.801464526452593,0.80139371228397,0.802371793467957,0.801767232589442,0.800453752093512,0.794910140420203,0.790732534970215,0.774252570377026,0.773938275721565,0.774269076875018,0.785612398615857,0.784801500812287,0.783470403083056,0.752688880558286,0.753361294309867,0.754772134534199,0.757392476740522,0.75909087930338,0.781512811487786,0.791052455240736,0.789915833593987,0.788391398399522,0.78532205466448,0.782528471937585,0.78324047631117,0.784120499616903,0.784391134545553,0.784496590982079,0.769889351341481,0.770746278901724,0.771900925645249,0.773458313178102,0.774740237051711,0.811991770164234,0.811899820365044,0.815012017423984,0.820757472232503,0.821536506171306,0.824252247006478,0.826011062642918,0.827262284895657,0.828259281525956,0.828786675191215,0.829406746271609,0.830208669571229,0.824123904727182,0.822807507964095,0.821995848844424,0.812893006803953,0.803359682147145,0.802223676007753,0.801240832829667,0.800365779861151,0.800345137223949,0.799687941343844,0.798886103191333,0.79863211869701,0.798892248188628,0.800655216405485,0.801683867947515,0.802203080983027,0.802925355585738
0.869835514188926,0.86322090657105,0.8636526276947,0.863388144172548,0.864975087469998,0.93246192099681,0.88729967206826,0.888348369948377,0.887885011682448,0.879092398103003,0.878518159343287,0.881853177487214,0.882769418414546,0.883471860520123,0.886059039708042,0.887395099857341,0.888800854272108,0.938356825804369,1.16205895017046,0.909734179812618,0.909587986030954,0.908725209265678,0.90874398700852,0.908893812988891,0.909353617094157,0.925733550156534,0.923294140398486,0.923100427387654,0.922866805062349,1.12245969089331,1.14858452706187,0.860856911391973,0.861218621839082,0.860651387701086,0.856820095652397,0.851530192303589,0.850436063066274,0.848746271752276,0.842379998379257,0.832872642738596,0.828818490941426,0.829814289663556,0.828882830289576,0.827243690213483,0.827668714013754,0.82475145915596,0.82441034270431,0.82482518574177,0.823082383145733,0.836095413471324,0.836922442921349,0.822061479484986,0.821851297600553,0.820864277408813,0.817928176974942,0.818652683088498,0.813905822970815,0.812825412223808,0.809782619079501,0.809108419474314,0.802560106086559,0.801467913470699,0.802453888779984,0.801545762749744,0.803714511726702,0.805278711032631,0.804374304864282,0.804475670540082,0.804015191140412,0.805482792743106,0.806946902036546,0.80868657840832,0.809820148640748,0.810471815693293,0.810032622205565,0.787778311228665,0.786726115946905,0.785963738402511,0.785855435145609,0.784042028167051,0.785819837929173,0.78205888114694,0.781721473932818,0.781057135796728,0.774872367699508,0.77531049870489,0.773044132690949,0.774940019015015,0.776129034673927,0.775818531198662,0.778948294877974,0.777977809539221,0.777196745769295,0.770642814141973,0.770570667717146,0.770398601275897,0.774906612055276,0.791575725194343,0.794595940601898,0.797947035154965,0.801229949569728,0.80112960095139,0.800599336583059,0.800862013049805,0.799029684495427,0.801456235359245,0.799356415239324,0.801397058808142,0.801862699252624,0.802541095384289,0.799818096907591,0.792298927818833,0.790069693366241,0.773228293163271,0.773181724337412,0.772298657808354,0.785008480915534,0.784858441516104,0.783813552999763,0.751925460424943,0.753047269572841,0.753576500710253,0.755495878069611,0.755248248407239,0.776119568266182,1.00777259441944,0.776271777554051,0.776669812708543,0.777118716907779,0.776508017025049,0.77604078371647,0.783550721516826,0.78393240690318,0.783754070245752,0.758076864293824,0.747725891218969,0.747244726566663,0.752913199172791,0.753964583285855,0.811918643796209,0.811462821435012,0.812517653051662,0.820226515191578,0.819579086876181,0.822529930635215,0.822898225228914,0.825826924933483,0.826454962961077,0.826551346887482,0.82868408869371,0.82840303261548,0.827285584404923,0.8237308416372,0.82221459740885,0.81803181496807,0.792567797995578,0.793086430221802,0.793414959755746,0.793277461448746,0.793136717696404,0.794043978587296,0.796238424597938,0.797349437033333,0.79867495320563,0.797315560312647,0.797266128988914,0.8005884222447,0.801207407445956
0.867994487566152,0.864487698997441,0.863646784995242,0.862894021576618,0.8631852372675,0.873221410188782,0.879220197560621,0.878600922836435,0.878108720678401,0.878097174007918,0.879401701687959,0.881728354868627,0.883149358488209,0.883921213183596,0.884958832223996,0.885393066556803,0.931557201365778,0.961216408077877,1.00101672883658,0.971435404796696,0.92632682146401,0.926220519751038,0.925193862955515,0.92363194500806,0.923701612655202,0.923793710728326,0.923108307508797,0.939007202597751,0.955097438968026,0.969790833167743,0.908989526036748,0.86104762751656,0.861104389593883,0.860692114942233,0.855848433051166,0.853441989542226,0.852314876929688,0.845035456032537,0.8407476912311,0.830218968371808,0.82906022351495,0.828569526861562,0.827873323794214,0.827192862816134,0.826602515457434,0.825335052599804,0.825217217538374,0.826812375034715,0.831571597829447,0.835480841715776,0.836109660345862,0.821570669893095,0.821461692266549,0.820329173876707,0.820315455393188,0.818350967585014,0.815507414714824,0.812907229728962,0.810730712685934,0.807338522130779,0.802881497762837,0.802006064290098,0.802143455528188,0.801672539753224,0.802862290067456,0.802732721456493,0.803368831055609,0.803075297712262,0.803279733339632,0.804313264528909,0.806007124280029,0.807490792794672,0.808667516058028,0.809214439293059,0.80925607031602,0.788974178614015,0.78717876232997,0.786605174993811,0.785599352371805,0.785592732776486,0.783590536967225,0.781786985001284,0.778770831658668,0.777686727701244,0.774626059982349,0.774308304357033,0.773261748146434,0.773930424055164,0.773952919593613,0.775318938147683,0.775911461354204,0.776145272096487,0.774840412639292,0.772662738085053,0.77173376046761,0.771696543066237,0.778525452871134,0.794247475610237,0.797276076156777,0.79899973716145,0.801240150415244,0.801283558888703,0.801489531239621,0.800719224405486,0.801149692331438,0.799789682182171,0.800648863395829,0.800517926692136,0.801223493843765,0.800695683834582,0.80019645750822,0.791852016417761,0.788687808073506,0.77964155725812,0.771530357656546,0.771594636075907,0.772829747037752,0.773437334442238,0.774048820987734,0.752373003938852,0.752687641948301,0.75360095073054,0.754337316604238,0.754464983944018,0.761518221704808,0.771788924431638,0.771372880293865,0.771178180733258,0.769978862209832,0.769464945362606,0.769951523090308,0.770970362199517,0.762626777821998,0.757005483890937,0.752615082353842,0.748613481432553,0.749938447196663,0.752603343213918,0.754270360569874,0.811436350387951,0.812005374193233,0.815784862025167,0.818993662398184,0.820371107814073,0.822314901000967,0.824117255611794,0.824885572421621,0.825741045738663,0.826335891096127,0.827563617123601,0.827850973726185,0.826099092199872,0.825423214953675,0.824152083727865,0.82215105143243,0.808197912131472,0.79399216889448,0.794525971183016,0.794144130933473,0.792179510671261,0.79305061270881,0.79438490740828,0.795837065243245,0.796356677318454,0.796817127663845,0.797276978818446,0.799079992029783,0.800089814459802
0.868583774403731,0.862417139325943,0.862459306306933,0.861473318457483,0.861568481687194,0.868677275148577,0.879210493317683,0.879128125541517,0.879694037778535,0.873741892779757,0.872997837856523,0.872994534794356,0.883542976480743,0.884190247995216,0.883979393466543,0.884011358167363,0.983830503393602,0.985145593459678,1.22208052808112,1.18333336912557,0.925134739629666,1.20723899911739,0.924000792655257,0.921254338541745,0.922794793116294,0.921888734851219,0.921666939000602,0.950481944382297,0.98843636882836,0.999317247704846,0.862899004590446,0.860508360455768,0.861589028948748,0.860752989535051,0.854319384629767,0.854123546703297,0.850579034594822,0.841552020591205,0.837794553281607,0.830274991586886,0.828907564948823,0.827734930065771,0.827194650497895,0.826561661121585,0.826711348946636,0.824190997680096,0.824469011138083,0.825765799098326,0.832411776290378,0.835399682490917,0.835421984450526,0.822477062534337,0.82139698188915,0.822020368072217,0.820595161006358,0.820915407698478,0.816570117812983,0.812432221571246,0.812157639075817,0.804690132230344,0.801464703720343,0.802160183806178,0.801091410237552,0.801516863793114,0.800662844171999,0.801820190119055,0.801600342521952,0.801703357966518,0.801633206110769,0.80253399542101,0.805078973988813,0.806694931584394,0.807847211580234,0.808587920356778,0.808639583592361,0.791126298242106,0.786909855052658,0.78657958316175,0.786513111518827,0.785488000896912,0.785527327981488,0.774880404858343,0.775839021309428,0.774838571135357,0.77412884248066,0.771761427092313,0.772955300296178,0.772050823092848,0.772733590278067,0.772830172707708,0.775721135815835,0.774171854023136,0.774230327817551,0.772014612643096,0.772079132932575,0.772856032172136,1.08645610764246,0.798707298417128,0.797526535910109,0.800316535637822,0.80208163833511,0.802620826833205,0.801753744101539,0.80293922257861,0.800100927442436,0.800889351105197,0.799649460785513,0.800130412435143,0.801328448167255,0.798609196091954,0.797805078144395,0.791225913388426,0.78720375215722,0.786312249746947,0.771519689367856,0.770092182744015,0.775520022635492,0.774901571967807,0.775588993027059,0.752539895124882,0.752172340754559,0.752965766156397,0.75353390626014,0.753350558190309,0.75335157673745,0.770833342687262,0.770223940043203,0.77129708695807,0.771219359321199,0.76781617183292,0.768723752771863,0.770266272826069,0.760332281048346,0.753180599017105,0.739478541042544,0.73532210192172,0.733602071741764,0.733174295839951,0.732516481755253,0.80998922538809,0.811170400399244,0.817970688136975,0.819572296580342,0.819271380211423,0.824157075227816,0.823923101427127,0.825459976753396,0.824847348387177,0.825491493810291,0.826799510987569,0.827410736721703,0.822887965690104,0.825281459337551,1.23512467541923,1.24920682852835,1.01358747738651,0.783324717386496,0.784203514673066,0.78562702600323,0.789648128012766,0.79034959850585,0.793681548033429,0.793966990984691,0.795377677709327,0.79596298394263,0.793183450323566,0.799722686156264,0.798862417459593
0.86625856195291,0.863516982731321,0.862059734744083,0.861431087900696,0.862173704276207,0.875232551035259,0.878790588576006,0.878474606691138,0.877937592450726,0.87446834186429,0.874381752470383,0.877830565894544,0.883579591903094,0.884187352498073,0.884833264803403,0.885013054864546,0.985151029073055,0.985654301371548,0.970537263082679,0.959647550651723,0.926936069835822,0.930724566660065,0.933383421374711,0.933812175865599,0.933431208976616,0.941178471194341,0.951470864572011,0.962455985447673,0.976728819295787,0.914054742870107,0.86237006836904,0.861877165471656,0.862385927208002,0.862111008817299,0.852380711691245,0.849082393044604,0.847433547752441,0.838395362801822,0.836752371871675,0.827901432713289,0.827273815431032,0.826509812190986,0.826082232757076,0.825658631180578,0.82570375859238,0.825159042003368,0.825372711653125,0.827010222818403,0.829375963660292,0.828145197684002,0.825023365769038,0.822275412824219,0.821655187899729,0.820524705447831,0.819225526906324,0.81647834516187,0.813441480482941,0.812239283134693,0.811652742164237,0.802002962504339,0.801921922399535,0.801015642075599,0.800950131366559,0.800145406760644,0.800022926212607,0.799687334337608,0.800463396804493,0.800101035782813,0.80137960647903,0.802435404420312,0.805861059459356,0.806772029023005,0.807623103578769,0.8081887760638,0.808465442595004,0.789827670368872,0.787825332064282,0.787230704128825,0.786822438414824,0.786547150672941,0.78419043573413,0.77298059288931,0.772453266229134,0.772825178483664,0.771854976606204,0.771979706580174,0.770712349344536,0.771053089517314,0.771118538844177,0.773105470616454,0.775510849574045,0.775890051881321,0.77500436215733,0.773744962784687,0.773402638965657,0.773593459219261,0.795969400602006,0.797679629592051,0.799275884554445,0.800934691724499,0.802447174576401,0.802258741909901,0.802306604700467,0.802130843102031,0.800435599417743,0.798628908078046,0.799189145679558,0.798659533410977,0.797166386194439,0.797239109913069,0.792439688867431,0.788478918078801,0.786050125804293,0.785111991972276,0.772219582516114,0.771083409401369,0.769242702094118,0.766717948030842,0.766617488575919,0.757723123891533,0.751919450615074,0.752580416006359,0.753376556895335,0.754041339623211,0.755263179183654,0.75632346995842,0.757245779344786,0.758969651629575,0.76192951631852,0.764967332251545,0.76358231670345,0.763065775468848,0.758342899148605,0.746409469593554,0.735989588049967,0.734235680368843,0.732994301822012,0.732790490559038,0.732431817261032,0.772748594117749,0.814764277027153,0.818873977122603,0.820732127616752,0.820996560732942,0.822233877182775,0.823734248245214,0.823561066092942,0.823375312588012,0.82202124415092,0.820646155706783,0.820859733143504,0.81422462589878,0.808552015559121,0.808298472021578,0.807737831292762,0.795021051308469,0.784541634182556,0.784823925798173,0.78523013001961,0.788356378030707,0.789987283160661,0.791071003113577,0.79200830017306,0.791093564734128,0.791316524510367,0.794334502855282,0.795618923780592,0.796640507855511
0.864314036824691,0.862492512999705,0.861509917179245,0.860975545608729,0.864573494908537,0.878645172731939,0.878041999010456,0.878252334325181,0.878125197789786,0.872285302090831,0.872212633886044,0.881950550107481,0.883886697075705,0.885038329346811,0.885387413116212,0.886395894937067,1.1629953242419,1.01382593196885,0.913155726808188,0.940215067729449,0.923904524357346,0.931045735425452,0.932725928971266,0.933282560111103,0.932366977607416,0.961068678367446,0.999532523773544,0.972991126746314,0.996517386025616,0.862569932981234,0.862618533037574,0.861052059554839,0.862251557965138,0.86096418630722,0.850696770948821,0.842655981602953,0.842920464748889,0.835998353840206,0.834674903964611,0.828040892290079,0.827285468354085,0.824573115403718,0.824892768243297,0.823275301420504,0.825631424878831,0.824408338048441,0.824674023006325,0.826884587306019,0.829713694745088,0.830589175526678,0.822152470329484,0.822426415938471,0.821131377611911,0.820650506140563,0.816745834168402,0.810085784583806,0.810534054977348,0.80969027511732,0.809795906804261,0.80200040179502,0.800835642999355,0.801709905550025,0.800001871608967,0.799754429429874,0.797807989258797,0.798038410660685,0.799292432225163,0.798058361540082,0.795745899470553,0.794959798801111,0.805778528155659,0.807332803820474,0.807697316509908,0.80835940437297,0.809095029460905,0.789850169160096,0.787809108772918,0.787394097733284,0.787257094779858,0.787129106899093,0.780194184310016,0.7711086881211,0.770637977926349,0.769576524925352,0.772014735597338,0.769383608928546,0.769896621540988,0.769048227401363,0.768198278366943,0.771600209462985,0.778045899028029,0.778101042012566,0.775757992669066,0.774304389365246,0.77379438774235,0.774435254725574,0.793114990041549,0.795693137144087,0.799134727839705,0.802850957715901,0.802835055907446,0.803318037021823,0.802183429675344,0.803751578187557,0.798350290627257,0.797614009970449,0.797151799745019,0.798155805543053,0.795861467773182,0.795452037112876,0.785163622811548,0.785284379110751,0.783968262146816,0.781886081379051,0.76107874750005,0.760286099293674,0.765661849485919,0.766092842425171,0.767639125828143,0.766619673932685,0.75217037965837,0.752872742331557,0.753489522309505,0.754794043081671,0.757135065272043,0.757031882944118,0.75783005435947,0.759427297792898,0.762972178223719,0.765470448355479,0.762491423595907,0.760898489513608,0.755142758518844,0.736854051118711,0.733264519231334,0.732020917850634,0.730910211194892,0.731647470226115,0.73122015411339,0.00438937534049218,1.18197406603823,1.18297910754158,0.822018310963425,0.819271701303961,0.821020353007024,0.822775756136933,0.822594607827375,0.822313186116404,0.819934919990202,0.81968987238008,0.820539672101382,0.810429594067931,0.807022822076359,0.804447439671397,0.804248930694118,0.777751162335456,0.778051543381466,0.779692255332944,0.782263873930548,0.788627124669804,0.788538223164319,0.789414011327763,0.790468725993239,0.789313977309733,0.789330131373682,0.787220937621383,0.786223799254779,0.785326784917087
0.865201657396324,0.86186897013483,0.860594214371989,0.860063692069462,0.87162548605677,0.879201395931959,0.878507514606298,0.877506620366256,0.876127623661664,0.873224475595663,0.872387430631885,0.884861148918812,0.885676138374844,0.88581574010699,0.885971497620231,0.886020058299424,1.06795165952406,1.03964123351589,0.983197599920539,0.932329465217703,0.926254624891115,0.929769841678275,0.932689984780453,0.93319728632557,0.932988580366122,0.971023314333416,0.97782301276736,0.957725994209198,0.912085583967604,0.861477949319598,0.862193816721882,0.862311037922141,0.863208550687185,0.852128990463102,0.844418195416693,0.839308632822281,0.837040607460848,0.835338358528454,0.832890407003818,0.829929095147891,0.828552477705187,0.825651218196038,0.824509386633704,0.825131656929103,0.826045244200398,0.825181692148468,0.822851271158894,0.820201110910724,0.819291832384488,0.81939194725718,0.81980758198756,0.820372242892512,0.820008634083142,0.817040971494028,0.815394768307807,0.812629462874617,0.810536870642033,0.807233539045998,0.804726093706858,0.80172836900389,0.801208731788787,0.800223552897233,0.799328658120406,0.797503903694587,0.796109370136836,0.795383588764739,0.795991018984166,0.796868050207355,0.795375902949445,0.794023966600789,0.805908236435191,0.806815873574051,0.80698616786993,0.806711555477053,0.80612837640838,0.787613899637051,0.786785420171837,0.787039993886636,0.787514518608184,0.787457995872285,0.779165930967963,0.769736722652892,0.768346463750323,0.768560620364834,0.768647213878541,0.768740765534231,0.767757058121029,0.767844062630682,0.767578228520571,0.774477465421038,0.776853334452247,0.776366976157864,0.775780814336299,0.775173600192587,0.775355986985891,0.776048997972421,0.789976179331863,0.79625260996498,0.799685680990087,0.801092992506203,0.801480363088454,0.800272906019464,0.799219621607424,0.796939555475182,0.796482846623845,0.796239467338094,0.793498094324084,0.789308668780325,0.786688415908972,0.785086661395907,0.784261311613512,0.783333122731413,0.782231760995054,0.781476552442223,0.760506298201472,0.761249502189667,0.763770334131841,0.765155580761527,0.766317230752597,0.766258251881056,0.752496358854859,0.752725431221141,0.753739571550917,0.754899978162994,0.755852154883632,0.756275322903935,0.756874408654432,0.755431671821536,0.754955435015281,0.754211978281485,0.753503613324617,0.752510659263665,0.752077816665921,0.733603678210239,0.732143419232489,0.730708086271909,0.730278983799575,0.730872877218096,0.73112882789747,0.769269366750334,0.79403190595483,0.80519546044598,0.80513613643909,0.821847279631216,0.821245787394026,0.82262309730219,0.822256734322724,0.81952450780846,0.814613613800438,0.811680466915953,0.809501645762613,0.807166112891947,0.806274778701943,0.804447525824139,0.795080126163934,0.777965507390748,0.777588198043872,0.779414335137816,0.781005813205341,0.782997020958224,0.786183669843857,0.788149275663827,0.790457163845295,0.790611261975224,0.789919175925127,0.789022770510912,0.787828705743545,0.786483581311943
0.866704727005045,0.858948417391257,0.859454286263026,0.859036039953563,0.879732044883873,0.879800878021949,0.878323528416694,0.876642569868152,0.875657995980991,0.873302968731976,0.873321613787495,0.88550332398885,0.886592150006601,0.887051241561817,0.885929949709073,0.885981936285712,1.19792207710657,1.06796273882247,1.23671605488629,0.922712082558599,0.922434786082229,0.930731399021351,0.933810544704983,0.93334952642329,0.932728638761046,0.978567096487828,1.16529880445764,0.942943492592913,0.858560496938002,0.859393791700655,0.861804594404021,0.86279142784809,0.863815918889965,0.847332662528382,0.840030689772141,0.83697378866778,0.831131183596764,0.8316612230459,0.830333529262273,0.83066917252645,0.830175950893127,0.82451310650076,0.822389377999219,0.809532535404714,0.809837838690535,0.808667876871315,0.808656095613042,0.818333763214232,0.818232623322991,0.804688589702072,0.802794959563797,0.802069323367379,0.807305398688272,0.814510891686991,0.814623873018186,0.813010085192082,0.811524217942663,0.803339386136281,0.801889071317905,0.800448198602862,0.798863649659473,0.801175949169917,0.798350588059158,0.795752173452784,0.792871247961234,0.792375890395865,0.790336489573084,0.789882598243133,0.788337984927492,0.792109234869945,0.803838927632817,0.805154412703184,0.806138055882575,0.805005483324586,0.804420582299537,0.784294904430646,0.784932753016453,0.785860545733259,0.786791707766059,0.786579794422953,0.777826019944073,0.765995389014781,0.766148261806222,0.765924986392393,0.76797874794425,0.766329855814026,0.766538618185427,0.766481823595545,0.766477810120457,1.00863405856516,0.787291322049826,0.7856882361795,0.776289675866275,0.775782942259818,0.775678805002617,0.77913724638767,0.786773296694498,0.795642563984632,0.796738258007153,0.800788939513631,0.800230997785993,0.798822742946373,0.797272590123793,0.79603563870511,0.793818909587608,0.786443224918251,0.786391372001597,0.78502014527846,0.784861347776936,0.783116955546904,0.784732105257806,0.781535105424111,0.781136144643669,0.780001209249187,0.759561150648952,0.759754899064478,0.763608588865476,0.764122267108802,0.764451570553878,0.764407296230856,0.752917698111012,0.752932875674541,0.753761403443031,0.755845047982148,0.756903560850047,0.750309763049917,0.751659562751731,0.754294143607573,0.755254604337642,0.755608450933654,0.755208908639341,0.752312031590673,0.750775261917876,0.732202745808418,0.729742343037788,0.728292768920732,0.727883986988172,0.729683524309749,0.730584472895488,1.40050660746242,0.00380884214550887,0.803941021384206,0.804970446743406,1.17693793416562,0.814290044226261,1.24627643415569,0.810678842965153,0.812255591322837,0.81287144298717,0.810975433820698,0.804961754724006,0.805383692970517,0.804445311413613,0.800863727869145,0.786953182949964,0.772372686731392,0.773133937846247,0.772950656474823,0.773147185767547,0.779120427502369,0.7854859562115,0.786334222272824,0.782752547570415,0.776067045999545,0.775459281407904,1.16775210452481,0.775240836978469,0.773244114332058
0.864112901406869,0.860162368368304,0.859361396796353,0.858984219659301,0.880925394219899,0.880342444091467,0.877206608986552,0.875275449627207,0.874070934046525,0.873378415771165,0.873275600074356,0.887367277218124,0.887785164881259,0.887503335844107,0.887173055092428,0.886991151680295,1.00822378859176,1.0372285872696,1.06614744347865,0.924118572066909,0.924754772447133,0.926701642337573,0.937289861041882,0.936573597728563,0.95299108424686,1.01155514914986,1.04116035472532,0.930764906211343,0.857983649573821,0.859295364563318,0.860985313521733,0.86290213130419,0.864664089658108,0.849838153593451,0.841233766532285,0.833803174125016,0.832545718069142,0.832814820195222,0.832572536557049,0.832394417344176,0.831738399345072,0.8216857791455,0.821503295041513,0.814800368006336,0.811543874354175,0.810878402470846,0.813130731342151,0.816533978914374,0.817189273628015,0.804261902351455,0.803574970773492,0.803260251887327,0.803630577148021,0.803613098106201,0.802638819554421,0.80116835272172,0.800605745907312,0.801105248861225,0.800880500629301,0.799403046763574,0.800244856191133,0.799639094136619,0.798212671665673,0.795584539252288,0.792701695184582,0.79265975281236,0.791945525051688,0.791536812724246,0.790515041924397,0.790269787275949,0.794667868635533,0.80639124431525,0.806648011592679,0.805942041262421,0.805037379391635,0.784426392551757,0.784050532993625,0.784120361474147,0.783162886088225,0.775823163907886,0.772199914919937,0.764328491254536,0.764424115217779,0.764884757338403,0.765145668850065,0.765422029566143,0.765141143387442,0.765750690412588,0.765789452242276,0.785174190101667,0.785325184950442,0.783565490826137,0.778239840616644,0.776577329510749,0.776397429918946,0.777080921970457,0.787288761613354,0.793988748118287,0.798013262571419,0.799532959591119,0.799030962657143,0.797011152359328,0.795950055050537,0.795348050830196,0.790781869253148,0.787145984663823,0.785784399656221,0.785615894786893,0.785057961506229,0.784535236186347,0.783103320131393,0.780851620834631,0.776989257313397,0.77377824463966,0.759336261415889,0.760424173695827,0.761730188823393,0.762664430541093,0.762198359826131,0.757162234931012,0.753631963339385,0.752545289341302,0.753295875535127,0.754175333336213,0.754364136494394,0.752841644955251,0.752972541553477,0.753827811101941,0.754777594255714,0.754544179402569,0.754297135405986,0.750782734222814,0.749078130300598,0.731607721531024,0.729915693413263,0.728217301566576,0.727367997861277,0.72855032855363,0.729207151353931,0.77684052775393,0.777381070705537,0.7922043823525,0.800567649338519,0.800217138253404,0.799992252916169,0.799393087493663,0.79836743942773,0.797897655910328,0.798057528467011,0.797757527487082,0.796823888003195,0.796032986437265,0.794838930157447,0.792142101676804,0.783599487334025,0.771093213784672,0.771372287839819,0.771597309502655,0.770882920539544,0.770138146635515,0.770190493906828,0.770907231643458,0.771081792604384,0.771008741562367,0.771168006106015,0.771005448024612,0.76994269010493,0.769501542879038
0.858387827330838,0.858370255664335,0.858923917842264,0.858506257732764,0.883335561508656,0.882835034007456,0.87484125583575,0.873472570438329,0.872822101296188,0.873674489945378,0.87483391217585,0.887773929806603,0.888572352764912,0.888017630831835,0.887834705966388,0.887908354316924,0.980130831844411,1.00822434583729,1.46399276950599,0.924046214173611,0.924856547891661,0.92523680324205,0.93863747883374,0.937871639491769,0.97062894988173,1.18647958587543,1.14852834489976,0.918992582865644,0.855621694662527,0.858748278585011,0.859424476903545,1.05280131957704,1.02861509104245,1.03314696092736,1.03463547061057,0.8217248978992,0.816520560487526,0.815540730157246,0.815088877618444,0.820436715302872,0.830079704715471,0.819599283218379,0.820801732400606,0.818981130418663,0.812254720137311,0.809689794519281,0.847728752570808,0.829447537379349,0.919219698483444,0.781373396493204,0.782489672180868,0.792605666989088,0.798567597188162,0.804942814715159,0.804018106087327,0.80272271090161,0.802424804381166,0.800269948055699,0.799071765534424,0.798591452435879,0.799589459857305,0.800128474129066,0.798441028074259,0.788681580977095,0.789515430711495,0.834394507183711,0.772524344814517,0.782615687435214,0.78234786707842,0.787451146947841,0.787112946352644,0.806342001733502,0.807552560940396,0.806943021730289,0.933685741513106,0.784412264593859,0.782805919004042,0.783390544503929,0.782220735156872,0.771980776310177,0.766427281518715,0.763619112421877,0.763667836187271,0.762814104111816,0.763822729894859,0.763165379767119,0.763783222753849,0.764924254614276,0.765013885977116,0.78511309136927,0.786012671047092,0.776191443347351,0.777422297170184,0.776672187998114,0.776515470991912,0.777368137497361,0.78697638428241,0.792339148661822,0.796243395361826,0.799795577952619,0.799540357244119,0.794051499901038,0.794429141808035,0.794337025773826,0.785227224500884,0.786236986816409,0.784779104754074,0.785842488543986,0.785845303247289,0.787064834440122,0.780680409646178,0.773975808070669,0.773153611592495,0.771557561886557,0.75888760056407,0.759496594579401,0.760724392281528,0.761838108233769,0.761426244339588,0.746730347423957,0.745663155809223,0.750445980253513,0.751730415372713,0.754434066195479,0.752976696012726,0.753638995130412,0.752181064273599,0.753939358448704,0.754122922024685,0.754234508642066,0.752285079756298,0.744014338818832,0.746068564887268,0.719430184665951,0.720448929744492,0.722119046132353,0.724746787936182,0.727102297459893,0.727764850588702,0.77679902062307,0.778256650328654,0.789396483475907,0.799875515084417,0.799590443983733,0.799846607784396,0.800134822614395,0.799472684692023,0.799120240971501,0.800235765224943,0.799875054441023,0.798219780721172,0.788082946028258,0.788372404588417,0.788387598296302,0.781074138815704,0.769657555410972,0.769193768581896,0.770091002600094,0.770070962471049,0.770177630225701,0.769436490651646,0.758206077443188,0.7609528973678,0.761180610597109,0.761126938575042,0.766499199940581,0.768811148708402,0.768575285584684
0.857429535371564,0.857920202740989,0.858842218332213,0.85921765693087,0.884262630019303,0.883810806680581,0.872651265634531,0.871351510573782,0.871874210662439,0.872556786721165,0.880453126375648,0.890067320383847,0.890021826212136,0.889433197129812,0.888810375878887,0.888757113796223,0.943267546500513,0.975231787748177,0.989517821159284,0.926819057097416,0.926602451792062,0.926289089904996,0.939076369314382,0.938688793248211,0.977409948414761,1.01257084984825,0.939518101965464,0.905744962139661,0.855571153370376,0.85770091678476,0.916848581697751,1.05220748954545,1.02719707613155,1.02939343549083,0.869650279198459,0.820847463449143,0.818133017404822,0.816264260529972,0.816442020986951,0.817700545992545,0.817169163143406,0.816863546605982,0.816822236200355,0.815660893966451,0.814019462659764,0.813138695479801,0.801001849823923,0.79904865022304,0.793827233341945,0.781877391016972,0.782119225205621,0.787476403576927,0.793419340159879,0.798460632739697,0.798477932305412,0.798838861391802,0.800022747998182,0.798660026103057,0.79820666183202,0.797868167368613,0.799028995248186,0.79844525487407,0.79761075871587,0.793967672670095,0.782911629811504,0.778348403170656,0.776407192198567,0.780737111996971,0.7819046024433,0.793712753670652,0.794479361557819,0.808901411881309,0.809063947977971,0.80868655611543,0.796563343984576,0.781836977788998,0.780710519586555,0.776402747101421,0.772683002155518,0.768673380320797,0.765781288168723,0.764115236475486,0.763138653564126,0.762907431701066,0.763102243025534,0.763576907124211,0.76401466086456,0.765346073122237,0.766232435644167,0.78456459608636,0.784544982309945,0.778249486390919,0.778170278692694,0.777419590679625,0.776834174031082,0.778347625563796,0.786184604485172,0.790589270852049,0.797068065045167,0.797239869974903,0.796082900348057,0.79385486758455,0.792895195493987,0.792056019779678,0.786356599252485,0.786248942900888,0.78633296574526,0.786272486709914,0.787174820464098,0.779923002323647,0.7761172260349,0.774086774331044,0.772592096505179,0.771361682783119,0.757757831411178,0.757170629092737,0.754108649507746,0.751963148663935,0.749977000897762,0.747844079955245,0.747019045787243,0.748910969730962,0.750514991417961,0.75149722467795,0.752907742516256,0.752199688084078,0.752885421141757,0.753114507110162,0.753521243083847,0.753187382499427,0.751578703224258,0.741976345233955,0.743565276356706,0.719299666880173,0.719680524475779,0.721402121078151,0.724558624896721,0.726358069658032,0.727181323381049,0.780650102393528,0.784236902390032,0.794774246230843,0.798821137349805,0.799629723079788,0.800213258388071,0.800159850664503,0.799956648140755,0.799350778906734,0.799963843014458,0.795615811375108,0.792013210827332,0.78599177512887,0.784030879510174,0.783222858202398,0.775887090139597,0.767672957994618,0.768117888932581,0.769402852307217,0.770443882116183,0.77054587690399,0.769492580040452,0.767282722089365,0.76357909097099,0.762049307781766,0.762048602544288,0.761924495646734,0.762498888523846,0.762791808811868
0.856480577871045,0.85647948261601,0.858721911535275,0.859808460035487,0.898489151140655,0.886976531126511,0.86613510884579,0.869156053949267,0.867108771371062,0.873376388597665,0.891494815149155,0.891131370583877,0.891113827393146,0.890372880889278,0.889845141951041,0.889433874620678,0.89316761054855,0.963262467644833,1.02283885281883,0.928146137138852,0.928175238857869,0.926383012120429,0.939087840496469,0.947226718793486,0.989088089515815,1.23968436069276,0.852914114269899,0.892875231624794,0.853160793216528,0.858580323793037,1.02429959688849,1.05353598105158,1.02704926246872,1.03012704735275,0.820763110743289,0.810721182820503,0.811744056486769,0.814813256737248,0.817468577347562,0.817744048135605,0.81072420959967,0.808540977664986,0.808736763786353,0.807675197664011,0.831250186427831,0.861191660364854,0.776684990847324,0.776825401790417,0.776423204932344,0.779179543890824,0.779314616748762,0.783723070538203,0.788532677424723,0.798310412999932,0.797929056364014,0.797708988193674,0.79412806000517,0.795584934296152,0.795421164151654,0.797763662888354,0.797388312613394,0.79706940591483,0.797888779611881,0.960579341218908,0.76173424685359,0.762594180181836,0.763993631045659,0.765418203790894,0.767118471601121,0.873701618035008,0.826689955824076,0.826578752525915,0.820425849163898,0.928299717854188,0.794131443551149,0.780281792646356,0.779402532737217,0.773714661660071,0.766532826321829,0.766379564837775,0.765870958354885,0.76281461833229,0.762591060751509,0.761491667567847,0.763236830662536,0.762721833822427,0.764042438845942,0.765760441169832,0.768170436540065,0.7847775920335,0.78442771629375,0.778339192489942,0.778490996811928,0.778209072625798,0.774921657190768,0.782231409753376,0.785227524510327,0.790212928541178,0.795129368607766,0.797049873644424,0.793428817306205,0.792707680339892,0.791591794266861,0.790490074818185,0.785253090457505,0.788122655099357,0.785761448771767,0.785225456541115,0.787546712669705,0.770307925651746,0.769457880227009,0.767273852840531,0.769384070770824,0.76881433151989,0.757919096307998,0.757697330314783,0.751347412758725,0.748115305384939,0.740265936831794,0.741094701122675,0.742176014246849,0.748406611592616,0.74930001905435,0.750722577638484,0.751577953575644,0.752640699692128,0.751163983581255,0.752333757583416,0.752514412447723,0.752675770808,0.747742905794563,0.741608140336033,0.740915111197788,0.719519709611408,0.717572048242246,0.718036714071973,0.725632426039613,0.725550999300079,0.726498523051609,1.24134174278264,1.36905380240278,0.797679952598812,0.79849188963811,0.799941164755088,0.800332715580271,0.800453945417232,0.800300937280765,0.799342535284687,0.800844674327445,0.79165007497993,0.787490631060867,0.786239297643348,0.783420972003916,0.779908432533432,0.767004601305284,0.766337757294438,0.766604530366586,0.768398374374776,0.853349528030221,0.760440864238617,0.75781772069216,1.02955265532111,0.825693414649969,1.00633994209014,0.757339098689725,0.757903090061294,0.757711523940856,0.758813444076732
0.855985957651798,0.857050360497936,0.858954573609394,0.860541873735534,0.861366708517352,0.862860675463719,0.864328706835709,0.87142279286984,0.874332262300876,0.881229318752733,0.891153377897502,0.892105275659811,0.892213470202074,0.892290651104799,0.891915460077816,0.892563171937281,0.894029475296332,0.953415893258799,0.975622779546431,0.928165510185995,0.928230049407466,0.939824549494261,0.955911723971871,0.963099694160313,0.982557004921526,0.986701629618473,0.990027188109401,0.992469915874635,0.994204163952431,0.995574504590363,0.996873776627088,0.998084327981396,0.998863779960776,0.999704511819557,0.888964320462045,0.859330777897246,0.813109016042023,0.814389808416174,0.813045548048481,0.811828466661116,0.81117754488454,0.81070545645728,0.809895616807078,0.809309680987286,0.816231331689609,0.805930251575771,0.777183251232161,0.7771675485609,0.77649235250388,0.779205390157353,0.78057970066735,0.781577364169425,0.782868713181355,0.784866999614472,0.787248751236533,0.78943975565902,0.791465328938561,0.793559774578618,0.795077636585706,0.796012625170145,0.796945565539424,0.796719574257855,0.785886869113437,0.773983393595721,0.761406815680529,0.76182969489096,0.763149990711447,0.764792667506059,0.76604648745958,0.846549473654253,0.827328510118137,0.827602332094273,0.815258687413364,0.808007143409911,0.801264391349528,0.781508103354245,0.776015388245085,0.77117126568138,0.764080080424955,0.764096789070699,0.763005747756952,0.762584704710345,0.761801597360681,0.761686620961406,0.762218953952126,0.762851046497803,0.76362378418069,0.765743082537967,0.767180948699496,0.783362286867165,0.783067940623129,0.780662700728864,0.779818556821737,0.779157906283773,0.779620844947578,0.780621084125309,0.78803840661628,0.790082170652678,0.792960195887609,0.79337143224138,0.793234921778936,0.791956711666572,0.791528175093254,0.790203889751458,0.788541486826806,0.78840912219542,0.789199354313485,0.780160314120685,0.77895157315694,0.768013357900205,0.767422260796787,0.767290997901806,0.76819899046326,0.767947702017536,0.757117618488345,0.756595524061977,0.747410387158382,0.744351038219955,0.741162627305936,0.742292843646603,0.743932005179832,0.746691442160559,0.748037350832762,0.749143531560585,0.750939519163378,0.752292592336315,0.752272916996192,0.751618758179425,0.751513644768424,0.746891243748028,0.742551543703446,0.73913599651202,0.738271276606314,0.725507631032794,0.71644591160825,0.717923531699331,0.721553987400585,0.72376837356592,0.725031537749843,0.773125903937155,0.777283673988307,0.789866312562401,0.797808869314103,0.797661062608527,0.798213196113063,0.798486483789447,0.798067559707778,0.796401491131517,0.793162676731935,0.79130090430683,0.788936691507279,0.781022319900477,0.778261659431393,0.7736661465847,0.765874036536375,0.766370852425514,0.767372501340101,0.768467982983854,0.795739506697142,0.760105714914222,0.759290220169726,0.791230859328964,0.777164651687214,0.768036602710838,0.758812977411607,0.758761714282519,0.759165198898451,0.759799520434157
