0.724473852622281,0.725194951774857,0.724241057656204,0.723925044070409,0.722875204373415,0.721135451073992,0.717171589223313,0.709639346092598,0.702712064835464,0.702237094908668,0.704258835231963,0.705019184489433,0.00343507832759064,0.678845140493827,0.683633894337288,0.676224589176347,0.675257339357305,0.675754888506186,0.681053265114022,0.742710514494597,0.700199522933631,0.701163588446695,0.70238232865769,0.704412942421448,0.70527795798545,0.736163101747,0.677048109167674,0.677142090364554,0.731427118372535,0.644731424823784,0.64651047503074,0.648147666527814,0.649224523499641,0.650085987833706,0.649884203805695,0.658365657458802,0.658127661066306,0.668171012187662,0.667741763427696,0.667523299226644,0.955741321472367,0.653744189320084,0.647914085700521,0.648879825539047,0.648075682911014,0.648581905073619,0.646998222883821,0.646859544655828,0.787262955899776,0.685114631677361,0.68579363456899,0.685088081109559,0.686125119082949,0.689928555958122,0.830704128305245,0.708110396721386,0.70903189469392,0.709775482012356,0.71066384835324,0.710799148446178,0.712028549539034,0.71222178160911,0.710476268394349,0.7107169699542,0.71043498276642,0.707039369875186,0.704269859733972,0.702815722259209,0.701870332478879,0.699345279167586,0.697507227724769,0.695343079412258,0.693128028595462,0.693168115206045,0.692997021317611,0.697187019705673,0.766343065471585,0.98590112643461,0.788622116313975,0.788539661243939,0.790866797276596,0.588430313787883,0.592753588725864,0.582658911361676,0.576781602665846,0.585555706594483,0.56239166538385,0.597687297707395,0.58617406075606,0.599670347456212,0.60725838858725,0.606714365949493,0.656485429642085,0.659329368594272,0.662858716642898,0.664525710760595,0.697382075989274,0.731966549145246,0.73390271225175,0.733457298798199,0.81337660577577,0.850087317753615,0.852297536169818,0.909685553752916,0.983168858957052,0.986743630005682,1.07497665387601,1.16720451647458,1.16875362211526,1.18010677868682,1.18953807381016,1.19332232008514,1.2117002443263,1.20534418271701,1.19995376775437,1.19218615487177,1.19329473154294,1.19686914533471,1.21187647666029,1.21478732638027,1.21860005062911,1.21847947652113,1.21802209413066,1.22791228425346,1.25057658570653,1.2322462040553,1.24815820763014,1.24645246790678,1.23226887701348,1.23197927863314,1.23053305981294,1.23135147272223,1.23394834318656,1.23760562908886,1.25771601381401,1.25440164141673,1.25371998620362,1.25350340044375,1.28531532848902,1.34615701168831,1.34330153182879,1.34022335250806,1.33573181467228,1.33643739385407,1.31589686115371,1.33089571245274,1.40803095598554,1.4080250614365,1.34891171306647,1.350886959254,1.3660614626817,1.34330121336536,1.34595282987548,1.3451888422782,1.34548071005216,1.33897944289284,1.36575832252289,1.35313752870429,1.33783752553343,1.33925722508789,1.33873366397383,1.35628694283623,1.35502045631266,1.34258873621661,1.34304752536007,1.32474044004242,1.32373625546274,1.32305917507159
0.720826456945019,0.722545504806957,0.721872100014478,0.722390358721729,0.721158762746818,0.719980388807299,0.716906385689532,0.709843238853143,0.702235131540875,0.702085631747587,0.702329843701289,0.692375439617887,0.766800887166246,0.677030813373136,0.670431320269675,0.673332992550226,0.672939390453701,0.672983587295244,0.695129719325152,0.697342753057728,0.69928682394967,0.701079734392144,0.701982890282094,0.704139913682925,0.75503077234061,0.681530725265984,0.676843133362941,0.675472967975515,0.657147224673081,0.643470461283475,0.642746661206271,0.649311958700677,0.649079661438161,0.64932855603382,0.649122294473928,0.656985349436968,0.656666505073237,0.666162300406584,0.665917959835293,0.664960039238782,0.65979958827024,0.652177303853085,0.651809138277344,0.650822046566209,0.651129985484789,0.650199266404772,0.647940691033698,0.718062406326525,0.753525550426806,0.691319050064429,0.685883770975729,0.684879263457657,0.685950643303222,0.687050369391911,0.686570339468402,0.789779280634439,0.709196353943425,0.709933083663206,0.709103828731458,0.707947799424154,0.707734298782407,0.707517864859417,0.707906441716206,0.709827531093171,0.901902840910403,1.00175469732212,0.701930772675702,0.701486771200116,0.700789558853263,0.693445721078643,0.694952670547537,0.693411906506249,0.691541787898743,0.691511329763947,0.691474961735524,0.905598766813652,0.760587836037257,0.768275387625059,0.730132866777877,0.712212009210906,0.711284348360154,0.577792996076446,0.571669881743355,0.572910213162223,0.573405644507527,0.58902499135048,0.580866239003788,0.604579969216963,0.620001073413475,0.625014568846519,0.644296350886575,0.644267125388951,0.649099004476329,0.67818956519108,0.693149606063962,0.715967843747835,0.762294975869943,0.839373899331718,0.822568004982843,0.807534849290264,0.868086014513347,0.917924406964293,0.975160361620703,0.97452356597277,0.9740475433962,1.03516829517864,1.0792608890073,1.16462974185011,1.19726177460427,1.19747713032114,1.18578034503427,1.2524387831694,1.25212088315659,1.25937547128711,1.3009923922181,1.21740608148509,1.20286758120505,1.2133902853105,1.21225066556904,1.2124531133947,1.22793669299939,1.21749654010526,1.21696831132004,1.21592279299897,1.21541306764835,1.21492496701892,1.24884291135585,1.23031344857619,1.23032275648681,1.25016131560502,1.25500476320126,1.29154633092818,1.29149549155754,1.27297651390079,1.26235094292631,1.32933044969312,1.25827067861225,1.30668674351687,1.32706694917777,1.3476544214995,1.34411078619491,1.39447776749103,1.33697319265829,1.33583371622289,1.32606206006596,1.36573893605095,1.36584354910566,1.37789182752851,1.34835377877051,1.345934897515,1.3440487361089,1.34321528779368,1.34665181749466,1.34507033913529,1.34338015159701,1.33920874363324,1.34755636761805,1.36182931801941,1.35708992154242,1.34004580086237,1.3400476347046,1.34766099848458,1.34582011258921,1.34323096576995,1.34247589983242,1.34150263793746,1.34612393461131,1.34001600223592
0.719833586604799,0.720793683874588,0.720780177753298,0.721688475354139,0.720682496224378,0.714206414546532,0.706439525449688,0.705276173302476,0.702542705234023,0.700634629426249,0.701842840744526,0.691315107202665,0.710880723976444,0.674524868987522,0.671840831203155,0.671615572460553,0.671936050755297,0.67316855230663,0.69497438379678,0.696006868513773,0.697028571537304,0.700486377732751,0.766946339708789,0.692037892661488,0.679193078292222,0.680537635879781,0.679874002607256,0.728647245949996,0.640694041874094,0.63979889592379,0.641180397803024,0.647577959762318,0.648070457828884,0.64932198637535,0.650806840174938,0.65094935926451,0.655106070575236,0.665402125687447,0.665001614997,0.662836634051341,0.652977324241507,0.65221611520511,0.652380841788302,0.65186699282917,0.651498367337472,0.650197258596459,0.649745208204776,0.705785082586234,0.690262802108944,0.690537794410947,0.689615205678482,0.68372732076232,0.68392948340821,0.6864034083658,0.686491569566276,0.706116533482678,0.707526314395215,0.70730933864353,0.707613274061468,0.70614206198676,0.705367815957383,0.704228863902075,0.704754328737848,0.702487972526211,0.701850979897318,0.700137964113283,0.698280762992236,0.696074237968507,0.694489819808023,0.692776941976698,0.690950710741967,0.690044961275528,0.689629262915182,0.689682151994748,0.689454234870685,0.634730517290553,0.633990153482976,0.695857454309343,0.720677412655657,0.712435398204191,0.67735949103966,0.571678339347355,0.573321496548014,0.574218326235631,0.558841346691817,0.571967576493013,0.584667993828901,0.601731967820867,0.599203249305884,0.632853423482458,0.639549858434226,0.641851113550177,0.715950156545003,0.710208243294766,0.703753312487924,0.757316135212046,0.787635409583207,0.849410986094932,0.849463448013951,0.900623555704497,0.903809899962334,0.979095189212241,0.977935391929467,1.00880923955411,1.03939469829873,1.05981084506057,1.10242935035698,1.19431420777324,1.20872393113806,1.22063657507136,1.25084610455458,1.25290636317157,1.28160184763934,1.26427569016873,1.27298223265551,1.21574356161674,1.21560887561177,1.20928301607799,1.21057970538196,1.21224795055436,1.21701265249167,1.2178390280886,1.21629177246249,1.21585481793791,1.21587175195108,1.24587128660465,1.24805456842822,1.26073622386297,1.25421822656234,1.28566841406343,1.33253140196665,1.29177680885565,1.29832641074018,1.30329754486445,1.31819158948934,1.26377349283101,1.29296648819333,1.28261747447032,1.281407081953,1.34754923562928,1.34729242793762,1.34145478805228,1.32788791403928,1.33482624943736,1.33458230617567,1.35378964151961,1.35190917583195,1.35150914675629,1.35087934221304,1.34412219235151,1.36199144311779,1.36021862494146,1.36859686918495,1.33826800682947,1.33050615896733,1.35967565636412,1.36781803722801,1.35887933244785,1.35825401528744,1.35733888991713,1.35142810172113,1.35247186789831,1.35259296865148,1.35440108536379,1.43663594939574,1.3903752034926,1.35497571326999,1.34016143180803
0.719302208336304,0.720225683200035,0.720389513882033,0.711077615014249,0.700115614602542,0.703447710523631,0.701689159437986,0.700691013763436,0.700291988446378,0.700257778457814,0.689969358211863,0.690720605216265,0.664289910440474,0.665525904106116,0.664521071720631,0.670352781916053,0.670898888102807,0.676732930473614,0.694715394551326,0.695667110113236,0.00418269883517356,0.855537557861666,0.779904170013907,0.688829008455185,0.678050457684113,0.649687625506543,0.649557410872036,0.668159930599418,0.635553706015457,0.635634487395783,0.63720677914251,0.647023228771661,0.64795729462115,0.64878743317192,0.648230205002308,0.649281597062908,0.651964738434159,0.654058134087884,0.657721987744373,0.657118680440772,0.654303921005481,0.65432319010589,0.653852562272201,0.65288971301231,0.651877920148096,0.650982840839121,0.659103218122032,1.01587524957745,0.689620199804547,0.690607971370776,0.69001960321137,0.683093586367434,0.682852604296569,0.694550881566977,0.705449308416118,0.706605557090488,0.706908981075111,0.706325839704816,0.705825572487084,0.705121033971975,0.704144457568398,0.702631414254391,0.701858871840154,0.701188242764017,0.700573522290767,0.699046766451487,0.69758475746552,0.695891992361692,0.694973583749987,0.690665686349421,0.688878368858377,0.687844580020481,0.688094666104898,0.688167711125651,0.688701308265631,0.690804308086085,0.691951368055544,0.690637441140933,0.688531033332304,0.683353331736444,0.578943275739691,0.572706107146253,0.567690452487274,0.57643432906475,0.577459457745354,0.585745428714505,0.605096341770323,0.617838239155536,0.617668473939142,0.66054676247241,0.66334490838908,0.700331085011581,0.718002302523198,0.747389449988346,0.775998134924463,0.804187113587274,0.788064743965268,0.939479102146962,0.940003566859233,0.938517109606709,0.950472714480794,0.99018486361437,0.968168457592991,1.03810865226033,1.08407193120034,1.09299949733781,1.10371591624456,1.14204081099449,1.20704985977579,1.26491815752496,1.23112450995755,1.2918406738001,1.23393845643124,1.25506628620124,1.26670634077034,1.21592331456978,1.21573119062614,1.20900072988108,1.21982039704027,1.22012078817538,1.22439227224048,1.24633617084684,1.24067831790761,1.23599138608968,1.2545143895199,1.22555329480515,1.24151334331423,1.24639582289401,1.27162856456493,1.27114745350717,1.28252639271704,1.30781058222036,1.3072001859357,1.30614215128361,1.30650205403595,1.28397832416161,1.28269298069482,1.28440617997299,1.28422081509493,1.30030204639295,1.33803406768068,1.31552260453135,1.31325754189233,1.34573816951863,1.35096966338066,1.3618437027547,1.35245832125687,1.35151271650969,1.36887322016259,1.34409652703991,1.34984297749334,1.33760043791805,1.33238786450162,1.33529563857566,1.33237861438126,1.33240521833741,1.38401144825258,1.36758131677385,1.35999510143024,1.36131212553495,1.3554198713957,1.35372662813279,1.35397459225118,1.35554811852065,1.36240762802398,1.35976908440489,1.35318008587081,1.37438309880648
0.720534695064584,0.720428504174761,0.720377824213427,0.701535695237992,0.699340339194496,0.698767903916458,0.69717702433492,0.69988217946486,0.700204781605033,0.692571215885965,0.682531754287354,0.677986038275402,0.658449564222677,0.658335339119454,0.657800106256349,0.657320896503336,0.671829515811338,0.642933559094883,0.640554982274672,0.641102169869867,0.710880204517887,0.649397684449373,0.648593173902107,0.64749917447043,0.63012074904475,0.630544596025951,0.649595294316456,0.638560010550099,0.636252387228347,0.636186942342994,0.636249806392394,0.648065019626025,0.648174772921916,0.648715091639565,0.648227234585895,0.647771170952084,0.645954486072919,0.648447804894089,0.648988258732941,0.652231318885376,0.653668447529405,0.654928236281094,0.654771244185253,0.654011396047602,0.653836018001525,0.664948930868616,0.787895064544776,1.07961668574121,0.688883321359133,0.689232017831477,0.682229869473319,0.682138612494937,0.82823104198219,0.707603145560366,0.706489839313656,0.706941878238124,0.706943209328913,0.7059871705664,0.705555146568701,0.703761994749956,0.702740492931793,0.701112601995272,0.70063143079253,0.699865193381805,0.698540703214787,0.697615917640182,0.69562685549717,0.693372042693394,0.692264837711503,0.691247578327422,0.686737179530339,0.685944487676956,0.686133878009259,0.686264022226629,0.68677419850775,0.692660213873453,0.69238708487251,0.577038428117592,0.68864214014078,0.68875179178406,0.579869402879917,0.565426992951893,0.595995958461664,0.584316515827994,0.58126937531709,0.608154667753696,0.619281103918975,0.632467648998431,0.656198970465647,0.68183325378205,0.697653497960704,0.712290235151999,0.757405279574294,0.772627517073508,0.797709092527369,0.881869280957156,0.939543052407041,1.03182602630875,1.04704296055243,1.06882603070609,1.06837922901462,1.04443389115961,1.07839697521545,1.07264563491267,1.06854922996804,1.09022902698964,1.10056147372549,1.12439243482944,1.14190917769289,1.22227085485826,1.24210484533337,1.3432209851664,1.23628989076567,1.24373098422873,1.23659614131273,1.26125854935306,1.21573442712096,1.20809218604311,1.20710766977813,1.2222419862868,1.22397195334727,1.22471829774621,1.22395455122231,1.22897341273912,1.22342458722813,1.22477695788651,1.23987849459979,1.27660109321479,1.27672058818641,1.27866908782232,1.27885557839614,1.34090390590812,1.31559581422762,1.3345779342885,1.34317268988185,1.29787411234204,1.28226751830147,1.2991407349327,1.29085899552347,1.32603064241356,1.32571251843046,1.3168042655391,1.31975529040781,1.3478714282559,1.39361253361242,1.37161353518815,1.37218084629997,1.38723097808881,1.38528579418201,1.36262989656434,1.36183405321198,1.33986690343906,1.34058090330956,1.33818522768933,1.33289486140686,1.33285969741244,1.35611164729056,1.36742331349975,1.4024723478131,1.40182783304227,1.37687041271831,1.37563681611497,1.38983464427241,1.38432401432872,1.38088575164528,1.4068951081831,1.41538709708565,1.37295897051678
0.720274522990065,0.720139933933992,0.767473977306337,0.695239886436919,0.692511702136473,0.692208170063227,0.695748894847832,0.695087422203565,0.692965166994021,0.6925100293551,0.683440825226087,0.666757648911519,0.657668052943321,0.657897015396399,0.657296250672289,0.647410688854178,0.647192789265586,0.763266769041972,0.640949454782421,0.640878581293381,0.646674325214615,0.646373532577866,0.645189543452107,0.644968204206858,0.630769645132106,0.630770263173166,0.63268617000019,0.63520028496716,0.637182153165936,0.637158361342949,0.648690772021175,0.648378120848925,0.648431101735174,0.639376379608783,0.629006441589131,0.62812442873283,0.735828812140819,0.742388859542929,0.65170414790863,0.652597605748045,0.653237947226507,0.654446487018801,0.65431220676251,0.654724783816983,0.656083175382165,0.670362052857868,0.67100172229665,0.687595443064874,0.688366698014898,0.688943493353588,0.688591910749627,0.681553759183939,0.687049633570348,0.707724497114232,0.706667108976544,0.707511407683265,0.707440787669709,0.707006653078535,0.705342343541204,0.703664167077895,0.701725099121355,0.700466307286467,0.69957344773108,0.698879600693082,0.69771833139366,0.695867711745622,0.694485813151592,0.691011900601943,0.690412207189883,0.690491538284202,0.684312358356755,0.683719823380529,0.683183666705933,0.684139575720087,0.686375666478678,0.698035753120144,0.707677188278881,0.576899845483128,0.577581058809409,0.578980542478025,0.577955543103229,0.565414741921319,0.574642501355591,0.586964694788131,0.588854212940843,0.629620475395592,0.62977196206247,0.648675536587506,0.686634427093198,0.682634696800085,0.747550455987691,0.778215074161727,0.778923486244881,0.788382026683938,0.800357041557819,0.896845054904774,0.89482909601451,1.03232117417045,1.08254470423758,1.05625861902946,1.10587741550694,1.07680756366582,1.07900280619493,1.08128685172383,1.08329134533731,1.10420435990381,1.10870750277928,1.12666783820772,1.12692794568344,1.27862196428116,1.19999271656539,1.2136405043856,1.34590335855988,1.33696104294548,1.33570291299614,1.37421711100902,1.23824980832349,1.20629794690531,1.20549984237686,1.2207696094473,1.24063486440355,1.23986835301849,1.22556628373598,1.23313735813961,1.23772134000517,1.24128682686151,1.2477556725228,1.26829566267033,1.27702500978156,1.35530356144595,1.32892014336555,1.35121204334276,1.33245859015214,1.3349731331191,1.34330082765009,1.34169456010052,1.35000178644268,1.34091650054469,1.34250693592124,1.32995400810951,1.32953407938763,1.34362700154183,1.34365076641049,1.34914690686728,1.36961567647934,1.34461286640237,1.37364266176744,1.35108440062373,1.33895430584581,1.33974406460808,1.38568827313179,1.33642804903483,1.3364100552115,1.33907110242927,1.34699932187493,1.3621430146774,1.38115967529247,1.38150745774067,1.40388500224696,1.38161528871258,1.381617640596,1.38195371036282,1.38271385581656,1.3861682162545,1.39669380619457,1.38873189604807,1.38966682726105,1.36352576878104
0.718356743150005,0.718115969342857,0.686624078476024,0.687045318773111,0.688038904053477,0.689212633722804,0.688999675194921,0.688038252196875,0.687427489617676,0.686336400350169,0.685778228750897,0.647778122514121,0.647588075600817,0.647362600812629,0.647931177108284,0.647243412759214,0.635735271401637,0.634374972051393,0.635649214343624,0.635370500773511,0.642437709029267,0.641733080369038,0.639836244342565,0.640642660623069,0.638539483519851,0.63065429957104,0.633158097013602,0.635015538638366,0.636442898604538,0.636703238065403,0.647944860022949,0.646778190335223,0.75596333928565,0.634318224936857,0.625348542550966,0.62452269293022,0.624277300159021,0.784445881712133,0.650735805477273,0.6520874518668,0.652982087295884,0.654397111415023,0.65510585640773,0.655036173039625,0.663317831211285,0.670907362909914,0.710743085549127,0.686931641219467,0.687084652067073,0.688423615259067,0.688135694725319,0.683554143513497,0.797177376966816,0.707620836503631,0.70590245058535,0.706958444483559,0.707757425167475,0.70742705510174,0.706643953180008,0.704480288273857,0.702842230706164,0.700453342995591,0.699031609887909,0.697919292172781,0.695909736605202,0.69356269595954,0.69218857713593,0.689860649364458,0.689004270349282,0.682849800140244,0.682903862728123,0.682966080507221,0.683348289741936,0.681164793446493,0.67781506327906,0.699633339550438,0.69763868166565,0.585479484436789,0.601110914551404,0.577926433002506,0.591531270954381,0.589270018375903,0.587225320538063,0.590070502990885,0.599820042163422,0.641112307092161,0.632672231923454,0.674705383501852,0.686919345369098,0.702525541680674,0.754061350456824,0.77900308816472,0.785364971297008,0.826203321693499,0.869539627082484,0.907571190768998,0.980852384610091,1.11300159037732,1.11640923079715,1.15145004256646,1.12563276354951,1.11898607253416,1.14531834525206,1.11655474828093,1.09598700511734,1.11105382130996,1.10846496279086,1.118436163796,1.12516010835177,1.14490803046558,1.1535787889326,1.17694993588679,1.3813474594773,1.3398833396026,1.34366472322352,1.36920246763971,1.27805464688351,1.21218270520508,1.20653409025372,1.22327491283668,1.26318385973685,1.26412797854219,1.28551880030512,1.25288524793188,1.23931701390921,1.24961683748132,1.35970233577707,1.26811250126314,1.26801658012732,1.34062577836217,1.34012809374429,1.34375454964334,1.34122963480708,1.33704037667928,1.33441625077781,1.34152672461743,1.35152363882504,1.3468993568234,1.32220348095414,1.35572176972678,1.35727864969661,1.37586750181505,1.35770437906182,1.35227421005153,1.34342302516723,1.34357519652953,1.35171351524224,1.352397122819,1.39258499282535,1.35617367517123,1.38663619478763,1.36392985835729,1.36242499381783,1.36226054698037,1.36223620586634,1.38642539858157,1.39017000993667,1.40169658108052,1.41459545581411,1.41055926786448,1.40972533269115,1.38766871827984,1.3884386465425,1.42316659546393,1.48473598910093,1.38993560476287,1.44446879329684,1.45745023761213
0.716958115996853,0.702434748687068,0.68656377408393,0.686837561901666,0.687277740798626,0.687939414415526,0.687856422679767,0.687339396322613,0.686364095645341,0.685167841636227,0.683678056563729,0.647684618079287,0.647341225247817,0.64711025671944,0.647290339365847,0.641879483520561,0.635062118493842,0.634751341275644,0.635282909980324,0.635206493865622,0.635479485118125,0.636682343623047,0.638163922185647,0.638425253607063,0.637226540010335,0.63498594311797,0.634964262906225,0.635788504959124,0.638155127860156,0.639506548517747,0.641749362324725,0.640981178044385,0.633579731854081,0.631797876701841,0.624736846212417,0.624322802378187,0.624333146410531,0.634603819685887,0.648704678999272,0.6505281897016,0.653185215708578,0.654672646334362,0.655635191414389,0.656447693663393,0.659213184552319,0.675628713487928,0.68395045967305,0.686191615670497,0.686961417938348,0.688224710625077,0.690369166127701,0.692170977179929,0.744183145131052,0.707595264839688,0.706688596373748,0.706970254885739,0.707204056277944,0.707023511225341,0.706046655316735,0.70453470818821,0.703034518539341,0.701150122730148,0.698315423798379,0.697351356946145,0.695544449039828,0.69317257233258,0.69040206141919,0.688684383987875,0.686534942909556,0.683922410884732,0.683017564133092,0.682209857383831,0.681395205198558,0.679956243814754,0.677527192452415,0.676123618532549,0.634683655436853,0.585240911066504,0.586842841358632,0.582686711350272,0.586631600002171,0.58884373389967,0.591175676741411,0.592860859372209,0.602003853664399,0.63977849451156,0.652195492181582,0.671441071975292,0.6930678273265,0.722334081929579,0.769014836247191,0.795738221973862,0.812745804513572,0.855696541509186,0.900768867585271,0.943935643157623,1.02893629680148,1.12488354989622,1.13394133381536,1.14951920346939,1.1486767214893,1.14672262048964,1.14405644846631,1.13315430072843,1.12908449079931,1.12445665595993,1.12318103897048,1.1209356727142,1.12376419033741,1.13364110018298,1.14111913066349,1.16262593934333,1.20599112633628,1.24600891993785,1.30673373616132,1.30863223713954,1.29004044911765,1.22905663331682,1.23161056024376,1.23732325664333,1.25979726683784,1.27142265721235,1.28466542455851,1.28358458454463,1.28191964523163,1.27974687635825,1.27706133185424,1.27440148203852,1.27508255929019,1.34199767744728,1.34098365137387,1.34331313388411,1.34275341767806,1.34253400335962,1.34314888262979,1.34508053507147,1.34839064583537,1.34816129048437,1.34393148842249,1.34841188840081,1.35621680078457,1.36864928244774,1.36395713229161,1.36124470496214,1.35973394047833,1.35834472366389,1.35552742636675,1.35394758727944,1.38984369404635,1.38790006296874,1.38654942046985,1.38391827410664,1.38063436229993,1.37814768901256,1.37904179554093,1.38325761975741,1.40048722384098,1.40322370468497,1.41888609047098,1.42161963882562,1.43020816426629,1.44094547833929,1.45042901924777,1.44912593992073,1.44563681401933,1.44226988424352,1.44160891237579,1.44060071575928
0.715243136526366,0.686363934638011,0.686504666512216,0.686762015359475,0.686830554961226,0.687561073435781,0.687620120537922,0.687425766747626,0.686419359111662,0.684770791559546,0.68002913794701,0.647785231050701,0.647276414734256,0.646727295642572,0.646417008322909,0.635283256029874,0.63521095809841,0.634244318022209,0.63537483447063,0.634948449847319,0.634178658570235,0.634458532402916,0.63718916886069,0.637321336216239,0.63696873822448,0.635666695703767,0.636118072259567,0.635200784917681,0.64041331082982,0.641051364411208,0.645626710640867,0.638693879510732,0.628992102103927,0.628592799851077,0.623916318075223,0.623216116242339,0.623679246250553,0.628940901826583,0.645761786413118,0.645573822062508,0.653752934358059,0.654925832025437,0.656546949307115,0.656694596714552,0.657428910764666,0.678838356588531,0.681090512740636,0.686593006609743,0.686293501603211,0.686341319860492,0.692200298425264,0.692707386647429,0.782776890825253,0.706539452552017,0.705239699667905,0.706427266323472,0.70689304338863,0.707166040882036,0.706115328850407,0.704261237424157,0.703552922773813,0.874311616459242,0.696458373569665,0.6964593569542,0.695045974415475,0.692951598962424,0.686505982614939,0.688811020221472,0.683918873395349,0.683494842955654,0.68311946891384,0.681818153008436,0.680629020627135,0.680807935531432,0.676634416371878,0.676087189698618,0.583762555683467,0.583353734987857,0.589569287237582,0.55830228115637,0.585954668674365,0.574299231481261,0.593315192432793,0.59668362413159,0.602290850288083,0.639281271450616,0.671332236929705,0.668289287018071,0.700259370390953,0.736817437179483,0.782717655187452,0.825201570705436,0.82497285979134,0.88538300903939,0.936695812984475,1.01096973501189,1.1007019936159,1.14473658762319,1.20509526784583,1.23636631131963,1.20071454255136,1.19547277080938,1.13976759351288,1.14871242539785,1.16107021407215,1.12588611028021,1.123948301715,1.11792275447134,1.11465966968856,1.12758639472033,1.11463019970513,1.15223500350157,1.16371691812016,1.20948677798323,1.30460983458713,1.3095754177803,1.31660691836092,1.22534466560617,1.2322984785087,1.2588995909027,1.25716967253858,1.29286812929665,1.2917597278695,1.28369982424384,1.28564781236937,1.28101860246445,1.25797128466377,1.27342842926532,1.29185600816852,1.34428217940219,1.34130750028758,1.3516342305003,1.40868663933403,1.3991067856556,1.40765260280669,1.35768760921295,1.35006683285405,1.36800523784771,1.33756434325903,1.33766645834532,1.35422071763776,1.39143070398387,1.38293591436531,1.37648716629211,1.36177361525898,1.36137425092042,1.3552836625212,1.35381583376338,1.39769592464747,1.42003105179325,1.38706496355376,1.39254511086138,1.3804542623696,1.41385979268772,1.44126988067187,1.38539260989887,1.43974103299919,1.40842831350487,1.46874677513947,1.46440741934175,1.48451842426527,1.47532142480821,1.45981886128067,1.45641380872299,1.43026078175291,1.48217245727193,1.50162566846527,1.43885644535841
0.699706569072301,0.6888034836975,0.687066527842526,0.687079953823842,0.686748398884299,0.688117373128588,0.687640126780526,0.687944758310755,0.687373559854672,0.685346115346765,0.84912288819659,0.649338665547785,0.64739163589961,0.646343248099455,0.646787370872141,0.63126894532787,0.630422119869308,0.630987197372109,0.635528557870566,0.635510819657652,0.634974328592425,0.62716670943971,0.635612347271165,0.636508569210967,0.636207169153237,0.636648711278782,0.637685428373899,0.637277587220189,0.642015531373865,0.641656317275594,0.641246330696616,0.630272405667963,0.629572105422383,0.626832896215071,0.623881968212397,0.623364173717073,0.624405436135993,0.646525090624191,0.645870271256071,0.646557858691295,0.659198599907184,0.659501513527619,0.658247679753399,0.657149473140901,0.657492585759115,0.680610277544751,0.680393230039364,0.676387585240273,0.685902753003128,0.691671046758105,0.693011566908314,0.694206363019094,0.791202529109471,0.70526444899788,0.70278559853891,0.71005263770612,0.709783591087942,0.709526468905556,0.705549420390137,0.704674408318194,0.70422162109708,0.696749979448711,0.696540607683194,0.696315678139212,0.695483582548409,0.691242557459059,0.686075335634713,0.677793542509621,0.680967427821248,0.871665228413156,0.683585300529252,0.67980219213143,0.691235817910319,0.68483046948228,0.68885894283845,0.585480872200051,0.58403739226731,0.583795145711773,0.556937658389571,0.558219709119768,0.550215664694198,0.573941665880966,0.60214694925334,0.602128497909266,0.601632853634262,0.617718812015575,0.67217271326543,0.683176152706964,0.722637184084275,0.772029349237187,0.78704727329323,0.865979795973048,0.867076784264707,0.915039048019141,0.983860035864632,0.989904828002218,1.10372236578832,1.15467675029713,1.19661012949012,1.26173409263678,1.20118641566634,1.18060420949019,1.18210217216626,1.16174603855189,1.14036517616695,1.12661192768074,1.18206222224745,1.14494679900414,1.12385838637922,1.12524090603789,1.12652288758233,1.1298580744306,1.15424709673974,1.16042491397618,1.16968172956903,1.21572713897563,1.22252831469475,1.22126006985543,1.23292591133172,1.26406649239426,1.30413101897782,1.25787228711637,1.26129149145898,1.26571063412638,1.26093669019597,1.33749031062741,1.33833324056935,1.32324731193204,1.28625783601939,1.31966499409434,1.3522965600802,1.35206617789251,1.35098046508796,1.38447502814752,1.38679504985473,1.36104056130095,1.35519363923737,1.36302988923804,1.35144953077053,1.35348301511946,1.49405185376947,1.48486325740142,1.39147988222011,1.39883605327661,1.40648948280367,1.40383212842507,1.40868126764837,1.43288670470765,1.43242692462359,1.4621703810735,1.59435817084291,1.40458652830497,1.40314262746374,1.41848366490692,1.42148407987696,1.42105799135142,1.44458942786093,1.44476421876859,1.4412117259034,1.45173382332858,1.45322281803515,1.47561782576682,1.46043274954351,1.45569147371099,1.49084123168485,1.49043371921624,1.44417047399489,1.4313230398011
0.698422576465724,0.689051301261402,0.686937456917413,0.687347266056966,0.687250517495034,0.688715243394428,0.688084404333727,0.687745092828256,0.686847095527212,0.685515224517898,0.85011730998827,0.652401437829031,0.652371030313455,0.643954558166893,0.629710916791948,0.630044591023798,0.629706975259481,0.630583947459739,0.635856865886005,0.635831260823172,0.623391496300212,0.623248404666381,0.62270519827273,0.632217254460996,0.634973155877811,0.639513486858909,0.639064256238628,0.639085483446283,0.643600729559139,0.643203507951103,0.631387480427494,0.629973014099566,0.625422075951629,0.625448400981451,0.624443989975004,0.623740264262195,0.806000675041097,0.649145284409482,0.647364376196862,0.655381976322215,0.657712923096533,0.659973684327336,0.668312861234657,0.67187997196199,0.677140174439207,0.680967149162857,0.681059708135037,0.686910217040574,0.688869286619194,0.691392501293669,0.693196595226816,0.69433902455435,0.69595048216385,0.698403318171863,0.701085946065817,0.700617055009307,0.710303943300926,0.708792610769474,0.699940742406284,0.704251363049847,0.837079950284673,0.906424065552741,0.907532253535729,0.823938051554638,0.791683827838347,0.683377342404865,0.683650662392401,0.682701388962656,0.680393385332207,0.678025930119511,0.874769627454891,0.676384792926313,0.692752295695987,0.656276018358027,0.584469362785702,0.585095977268447,0.583723138792476,0.583165246990544,0.550792522740264,0.56745316462675,0.579646527050567,0.579951531412291,0.618983499082825,0.619714227330433,0.620350076278342,0.639655079002406,0.678061664788031,0.681573402258049,0.739431786877149,0.784079363231574,0.818527943525421,0.876399630581435,0.938234228027473,0.959008011805651,0.973715576468886,1.05047369930935,1.13199146436567,1.22587983206519,1.29889641692374,1.21297587273008,1.21442973460727,1.19923133561235,1.1973201493875,1.1702659344545,1.16684231543678,1.17355147724312,1.17984058857906,1.13466685918508,1.13532220994743,1.12245655864997,1.11714627956366,1.1174316147986,1.14206550894834,1.15448426510683,1.15173702710267,1.19053700860027,1.24214894926116,1.24146705764661,1.24500124646099,1.30137207241836,1.3438276049933,1.27984989521264,1.26344253475837,1.26956535139721,1.34575891926356,1.30364650428803,1.38816890839557,1.28795555833274,1.28693697393216,1.35790998788007,1.36446077242421,1.3513272019066,1.35025106093144,1.37051303236029,1.34954883303221,1.36464529016235,1.36186239055544,1.36182081769373,1.47167633307386,1.49938719016215,1.38619005418272,1.49684642881916,1.49616279113192,1.4772615773579,1.49551444667786,1.44339855661354,1.47332263735707,1.43958963554306,1.49293283379149,1.4516255258941,1.51058095701609,1.48267585621437,1.43088146654311,1.42896983039875,1.42950422112034,1.42262252547078,1.42313264068268,1.43232099440867,1.44510073558713,1.45819029779836,1.46451982365179,1.46513318534853,1.46462428708069,1.45885408135487,1.462273918021,1.49083596236444,1.44547302972722,1.44130340781191
0.674301070796334,0.674368309851015,0.686637719255376,0.687274346404397,0.686753370137596,0.687538380693146,0.68685537947327,0.686435737057,0.684360568915136,0.684247009563717,0.65292326702341,0.65098743080992,0.650642224729072,0.641540971984541,0.628315195148656,0.628026294143105,0.628104327035112,0.634222337782272,0.634741227026595,0.633997076325625,0.622968600567363,0.622550075727249,0.622128632183546,0.628130365366712,0.630777548079743,0.637927334528958,0.637847918861805,0.638522633571693,0.64214651180632,0.629485319512328,0.630453000382091,0.629706070522545,0.623858077272807,0.624059410345392,0.623813714062976,0.623402176221112,0.650639514730631,0.650402820822208,0.653539543292843,0.655493936392983,0.657631373012721,0.661544232798999,0.668379143229992,0.674457811579415,0.676365366251814,0.676700279375371,0.680351804277612,0.682355270347706,0.687291605818955,0.69083202972973,0.691898849328348,0.694150675819959,0.69638113575493,0.697572693906676,0.698344268147437,0.698158560024466,0.697147609458481,0.704812428089048,0.698024936630576,0.698380919721177,0.881969851775529,0.830752547052287,0.873867632294186,0.86960173065198,0.934874378610516,0.682578045732037,0.681991990511247,0.681004197347231,0.680336655841473,0.836466409194171,0.876598137471365,0.688729288943683,0.682558908125676,0.640037100162698,0.583352725335427,0.58356883135948,0.557955411501942,0.556992350243064,0.554132253969894,0.571838818347062,0.578401327499661,0.576222952188827,0.63761907585455,0.634806024479924,0.641853438958909,0.665964008901419,0.698776113267003,0.714910709171823,0.74613520639966,0.804149670660689,0.880140238996163,0.933874167568546,0.981099947426317,1.01007286062667,1.0881316697026,1.13718073146857,1.13565124243271,1.17869043455213,1.20531507579973,1.20557601435239,1.18512409483264,1.18505532705477,1.20218297778973,1.17285576693218,1.16382171513774,1.17195277766619,1.17091520100105,1.16038488707562,1.14739647879505,1.15300086759581,1.11469057021597,1.11500213305878,1.15145275430967,1.15745050702055,1.16017020537685,1.17700311385013,1.23702665200534,1.23560326381756,1.29813600999768,1.34724788648658,1.34964891836672,1.28084594146885,1.2786371570185,1.27727900998735,1.27446453388231,1.31680897623324,1.38963666788655,1.30642817526175,1.32597793421992,1.38649512388066,1.36030612711361,1.38354402396647,1.34946716466806,1.38316794769254,1.41887118531464,1.38253134684886,1.36105435277507,1.36098867475272,1.38001496305829,1.39299507156406,1.38566246131709,1.40788440996812,1.41151770108439,1.44356392297853,1.44434426913198,1.45499564313488,1.44118967104082,1.44117086998579,1.44232599757818,1.45595471941119,1.46500934287605,1.43782383101145,1.43808395589283,1.4268519737462,1.42743212308994,1.4249942742147,1.43588412906406,1.53322060140015,1.53125769397555,1.57602901857834,1.4672231721379,1.49184608314333,1.47582337910789,1.47589539061302,1.4810140640282,1.4810140935422,1.44096210861793,1.44120507777766
0.673600592890741,0.673861626722267,0.674092710375096,0.673407513869563,0.674825364503163,0.684086969173255,0.685197050387722,0.684714911834919,0.684068101775397,0.866537255919707,0.867308912389536,0.646764025365297,0.645911408506732,0.63916645700288,0.627274980324279,0.626876275397403,0.626715355268212,0.626114305024055,0.633063038002847,0.632599202875684,0.624128043872429,0.623564576479886,0.623260909643273,0.623974163047117,0.623016198851043,0.62003917483075,0.636524019089258,0.636283961075661,0.63520672406856,0.62915537511113,0.622823427942109,0.622262666892035,0.62173393767885,0.6231082509994,0.623017169753361,0.812101603045772,0.650819199744279,0.65131079324312,0.653676425223069,0.654309845394886,0.659549551965226,0.663106022066412,0.667876878688821,0.676934244798692,0.682329928941131,0.68420967283667,0.684626283742369,1.05620318162635,1.0781572144654,0.793805743096145,0.794562022398281,0.695482073051364,0.696168538955912,0.69700059727513,0.697195825573523,0.697080077524773,0.696217553971907,0.694192918071476,0.693248499074007,0.691825605914526,0.690827322782333,0.690116325155491,0.856903979348605,0.86504522074606,0.937562323702431,0.682271497232315,0.680388925685336,0.675134933294226,0.671429232952402,0.671136828349636,0.665391503485931,0.680509705103297,0.688988280488418,0.622888801496964,0.596503983398884,0.595040211216521,0.557515373759126,0.556112164510022,0.576491419333252,0.577840517837235,0.576987098877228,0.604462737567908,0.631404288011837,0.632057997165375,0.630341598466428,0.681883717085761,0.705774921210647,0.722035670262441,0.736613182968108,0.818773290671518,0.888514727934224,0.945922897270858,1.02967878534222,1.04239710881468,1.05642408730607,1.13654205935441,1.16558214688136,1.17649763738966,1.2122010479877,1.30807433470469,1.22273774727248,1.18525787772736,1.18025202438574,1.17580838151023,1.16308113682454,1.17069418885672,1.17001477532864,1.17004344350373,1.15499458777903,1.15342749692844,1.15390817849139,1.13582230351128,1.15746162772192,1.16635713109956,1.17578114898108,1.19830197645894,1.23961890469356,1.23246958996415,1.24431677346752,1.29250363871626,1.33136390636647,1.27778729256424,1.30250641379465,1.30215840292087,1.30093339166525,1.30705540278112,1.3190668075957,1.30887043782235,1.30957184766352,1.3595642979186,1.35937050340651,1.35305134258323,1.39778682367625,1.38900750436456,1.42116419117381,1.38096433544314,1.38002894817817,1.378273412249,1.37706400068848,1.39342993958423,1.38286067352186,1.38218986863664,1.49252574428746,1.44643821595102,1.45330274877182,1.4539950725535,1.44341341907268,1.44194150348266,1.49722082399217,1.44526099524878,1.44689831438039,1.43822407191301,1.42592637758394,1.42589616368621,1.42652175933713,1.42624849765544,1.45035923887782,1.62857109181916,1.64057153065026,1.47253199476831,1.50370991637634,1.50564335045086,1.47531530009902,1.47391707083639,1.47325794127178,1.47372462875851,1.4415052474893,1.44005527208847
0.672958631814988,0.672674365709078,0.672653533656836,0.672514207101628,0.672838680495428,0.684790870244873,0.68475272490056,0.684208614948781,0.709335023921924,0.870495879122385,0.644093941660776,0.643601606329683,0.637098133754933,0.636501457568661,0.628499887801186,0.628094552059473,0.627564886077663,0.63262380403786,0.632899926742665,0.63205248752549,0.626361398779372,0.623949817275833,0.623276048392065,0.62225484526804,0.622052479260222,0.620003452045319,0.61964026936475,0.616748702680559,0.616306311636556,0.624559253887939,0.622581826932287,0.621945064607026,0.621947014252683,0.623290925526435,0.624903614820061,0.651531397330991,0.651027534656257,0.651041160849546,0.656434691381166,0.657275686455072,0.658025391704569,0.67817363744172,0.679026363766834,0.680181748802614,0.681341617257714,0.68525422775963,0.797973090254528,0.70551042746445,1.0900154262833,1.21595916375873,0.728272506306751,0.728150134649431,0.695412649970686,0.696851063024747,0.697853816154793,0.697015741181449,0.695738457288462,0.693362106807657,0.693506517607356,0.926707387547253,0.926825279875845,0.684320731286536,0.78902927573906,0.771851701967052,0.759459097120206,0.680331712687567,0.678154113281457,0.673770376480939,0.671567868103879,0.670320520728134,0.666526036406382,0.70211777476259,0.595950858817014,0.59674965783483,0.597516183680031,0.597335800665783,0.556366703721263,0.579713302771044,0.580591373960054,0.580221345515613,0.603760372140461,0.620144054589849,0.623630776303697,0.653898738737873,0.668673224263778,0.692080932532403,0.730018780635955,0.752174981747699,0.770228990321131,0.825639908465224,0.902371852005248,0.943641680327151,1.0314530649657,1.06171474101312,1.09395768117563,1.15180832635075,1.16997199812103,1.25587201751454,1.23029844819553,1.23092327788876,1.21249655871757,1.21223487909599,1.22794935664108,1.19026546095861,1.17315784120859,1.17175530707909,1.17131609887746,1.21824956065308,1.15837184021548,1.15586019488251,1.15433444629185,1.15484269670732,1.15592424026057,1.1749812699983,1.21605137969183,1.22090414289656,1.23902750101725,1.29713437197401,1.2261366501486,1.25515845867224,1.27466253012529,1.27884226042218,1.28859097557519,1.30586163438181,1.31063011119021,1.31177326021725,1.31449038319755,1.30957375325836,1.30931040463752,1.35954503066159,1.33862513640243,1.36484086136721,1.38259133492389,1.38269092571517,1.38264416968928,1.38188534082146,1.38137669142846,1.44080353989167,1.43897366481933,1.43886738470525,1.4236850070419,1.39313808336863,1.44279431390023,1.44103718646432,1.44163176135815,1.51307437532856,1.44147143889008,1.43750357918203,1.59419901479744,1.48689121367956,1.46442640443161,1.44487832762754,1.42703556030441,1.42623846868767,1.42726650432822,1.42750680661298,1.47798081448341,1.52746016477735,1.61824891421089,1.50928152083535,1.46649686676959,1.48589511432879,1.47639807351114,1.47265359639524,1.48733675951482,1.49140799102105,1.49101582214823,1.55206267417425
0.673069061153348,0.670544536870392,0.671603655286786,0.672106541842408,0.672278870456675,0.678132490205016,0.678607021833659,0.752881929845936,0.689474297789992,0.642336207218486,0.643343272520836,0.635106673178092,0.634938683812122,0.633363935869476,0.629621787780104,0.628969134335546,0.628751396010395,0.634261707154796,0.634038801143661,0.632389530312215,0.624728070349374,0.625360003946395,0.623274864077729,0.619584909337003,0.616468434944769,0.614608352260729,0.614595707447711,0.616153911245645,0.616051352908942,0.616251988516768,0.621376425975804,0.621171907894257,0.621326476779241,0.62795102293978,0.816750687023827,0.651830159911276,0.651259850025689,0.65079138621412,0.656141897719831,0.656571399370057,0.677745587650358,0.678550674064256,0.67877603097169,0.680795294360069,0.683138679666872,0.901796736412804,1.12421539204844,1.04767081059892,0.968217274341964,0.849543614341457,0.727922012753539,0.728016679953705,0.894518524774821,0.888847774380185,0.883167836197648,0.732379023555267,0.738519351280045,0.69031736228426,0.68899729296217,0.684921104261876,0.683974109561417,0.683507117173749,0.683309924183853,0.683430333807618,0.682076352644426,0.674684213509629,0.676763495643781,0.671760841020134,0.670058362294969,0.668793264991838,0.855786015944175,0.72324557054997,0.583157548483299,0.580678337390277,0.567193242857999,0.563871025000677,0.541411673100946,0.578673784508718,0.577015329125944,0.574590580302317,0.581358573406296,0.616748682575823,0.688664294075283,0.687374689042495,0.696023537194687,0.69354419470839,0.715497119023916,0.753760890040199,0.833272516568668,0.823838034888471,0.923454082821958,1.01341719312443,1.06195924723371,1.07435172250332,1.10578045881981,1.11419726898703,1.18568129503597,1.18230674858785,1.20426296754107,1.21331109990105,1.21278630707777,1.21382203364456,1.21426978258426,1.20514416887634,1.20709078996742,1.17169785068466,1.17016090919209,1.18698648770423,1.15504453369206,1.16921597161166,1.15507720799873,1.17440392085347,1.17490496260845,1.18407129000011,1.1937184826299,1.20637055136429,1.29738194586406,1.29719500157034,1.24745237672982,1.24889368777456,1.24993481280411,1.29354931257439,1.34892929256896,1.34028599164601,1.34796211188375,1.31926692452564,1.4006847094688,1.33162888653638,1.33156734839571,1.31972667729215,1.34077693092097,1.36294471422754,1.3817513266528,1.38248367974534,1.38291928649545,1.38214345877813,1.3827103081432,1.38296305741566,1.43796711091922,1.39277134054572,1.43504592048135,1.44346645323747,1.44258081007615,1.44068758596609,1.44291686438736,1.42296426149066,1.42303499717888,1.46283613841603,1.67286561976104,1.47835427246093,1.50335129382019,1.44977759222743,1.42450026311893,1.45329043461122,1.47947513626667,1.490439065208,1.52552757872033,1.60386313652219,1.51555132876355,1.46861689736817,1.46723971391245,1.47749975040999,1.47630295957101,1.4734071346096,1.47521117801174,1.53013951117197,1.46712342974502,1.56080763650955
0.665164192902767,0.662704451798416,0.663072076953864,0.671953394041805,0.676180074798581,0.677400198151353,0.677768101607438,0.641483934439441,0.641512025455414,0.641533689319454,0.6353755224058,0.633515206826893,0.632542353485456,0.631599032175792,0.629301443330669,0.628583419699534,0.628329493167284,0.630908897635428,0.632661024655601,0.631537536323388,0.624923110220533,0.614193883076889,0.615229142279326,0.615108225645311,0.614685789081609,0.613645161434507,0.613836707947096,0.614915357937383,0.615112849383696,0.614268144253077,0.619898032557418,0.619783432561553,0.620338934701781,0.635113900381852,0.647554556380937,0.649589495219657,0.650522038091511,0.650762558291844,0.655073173226955,0.845341934554143,0.677651178662795,0.677906179971191,0.677812659109043,0.68177836488597,0.682972349987437,1.06010205604445,1.08050133760591,0.993726226941222,0.794785583889972,0.766460457744449,0.834569791093908,0.83534673924602,0.937702463586335,0.893853624362664,0.868397071254091,0.840332881099827,0.895041505984439,0.964799834007303,0.685475955183306,0.683912471983032,0.683396180358703,0.678357137804314,0.675009312802883,0.673635273381879,0.672808392780023,0.67316335674291,0.738448454156126,0.813688870140158,0.804672169432038,0.660649059328223,0.722753951709803,0.854626839623287,0.581672133368867,0.577211746942524,0.566495736546285,0.565569302308633,0.550654403951678,0.57114484776536,0.586881897057674,0.599461793527358,0.620017829988402,0.650271240547991,0.650451930168311,0.686992469428224,0.687115150139093,0.71740643259324,0.750615864628363,0.746355044324308,0.839687116137868,0.829024805929687,0.930220067980053,1.07656543479398,1.09042951062851,1.09228453335601,1.14856580887227,1.15082344788336,1.12586118003812,1.18727965175977,1.17630741566295,1.21429413425769,1.21198295331361,1.21336000155603,1.21363627480958,1.2040463972088,1.19800947924075,1.18510129059562,1.17015368341087,1.17131638040026,1.17510750612322,1.17418709061823,1.18767997441907,1.1879359133146,1.19416401223543,1.19594164508658,1.19732002727211,1.23154564786169,1.23104460515838,1.262530816044,1.24006782612965,1.24892994273712,1.24953224787672,1.29373204730927,1.32156726234522,1.32157052026871,1.30640495528739,1.32555678538925,1.33919783810307,1.33951849574334,1.34064599770447,1.33911903277385,1.33992386235965,1.36219409356037,1.36199675283683,1.3660148323976,1.36554029731794,1.37844008224329,1.38227810314772,1.43473529238726,1.39535768313684,1.39359864229093,1.40251574820887,1.39887268212069,1.44182368203749,1.44046119270024,1.44322541982972,1.44628569598699,1.44713390009075,1.46083778802122,1.46328360368297,1.46925529941569,1.48003946914015,1.47337726291141,1.50466581515225,1.4736528670408,1.43835620137152,1.52283963982251,1.52235964538778,1.61251074404962,1.52060121723711,1.46862276000358,1.45518033577876,1.45456911949909,1.47591647108082,1.47303573427661,1.47687981421076,1.47731965119976,1.46648231800327,1.46698738268599
0.656285947738211,0.657973377230546,0.670901369592327,0.671140060974038,0.670612930632598,0.672455634514016,0.706657961307825,0.641990009268376,0.641702474902074,0.64046113363107,0.633919909479272,0.63317705928009,0.632671681848245,0.631422855259136,0.62909340832258,0.627594475509132,0.628266917396168,0.629738397997091,0.629457340011225,0.629274346527296,0.615373046413055,0.613688632546666,0.613344793333088,0.613794846712776,0.613493933787669,0.612650650975358,0.612863836508587,0.613797375634446,0.613146006208422,0.61217245694246,0.617709922996763,0.618647779586072,0.815823169128624,0.650294107431763,0.647198914813012,0.648070619283461,0.649196682093341,0.649852554217885,0.962107507216376,0.678004295925373,0.678682317497916,0.680180150136139,0.684315188649444,0.720390745857129,1.0811993888507,1.26451017198145,1.0013831798018,0.793898727121946,1.01536241934994,0.00372283892341445,0.825332888609957,0.794661312393289,0.939571057132879,0.908734344315604,1.10980301647738,0.937932922336335,0.936011549989526,0.971069580379847,0.913767617120449,0.736539396537712,0.678024347405808,0.672995500897704,0.672904921204781,0.673207407783621,0.672644522740435,1.13917589014627,0.686790370504404,0.659487176239439,0.818726422306996,0.684215462019583,0.684336031361569,0.581080144579301,0.581133912431146,0.573110825159613,0.558542418833889,0.536539664424796,0.536351358274196,0.572357741572318,0.603370191214214,0.623270670184808,0.625678622195023,0.641572198716954,0.650075287594752,0.699846864462385,0.723598072671869,0.727771734526115,0.745215791122161,0.759420206551246,0.79954217023154,0.892565592835493,0.956076935334908,1.06673559243477,1.07812854434244,1.09246357409315,1.09108835854875,1.10944679416598,1.12584701280477,1.13871412520423,1.15515234164704,1.18579705886014,1.24037949319656,1.2374358081939,1.24833241709585,1.20309314634115,1.20247576983378,1.19698641253357,1.18920587153216,1.19014340071026,1.1829935824444,1.18230979059083,1.18388541143209,1.24345891992765,1.29115141173662,1.24468976527545,1.23964739745067,1.23974979572954,1.26349276301984,1.23036276920998,1.23051465905971,1.24580052752805,1.32458641897724,1.32356784765708,1.32432983333586,1.32316380053999,1.33254534803455,1.36869472868404,1.50514315118034,1.35908722868166,1.36527666953954,1.36304657708063,1.36786096555701,1.37566605436977,1.37384184094957,1.36863469524966,1.36706384771066,1.36869116667684,1.38824995596284,1.38748745145244,1.38716332526616,1.39752511892428,1.39981047995163,1.39929476741706,1.39901416380756,1.47160968566627,1.48206467684382,1.48201247791973,1.45695029295175,1.47755379187281,1.48712247909439,1.48373715906511,1.47586415832022,1.47452857153427,1.56944982474105,1.58100878843212,1.58672080088314,1.5764789078098,1.62816084875867,1.51921966849896,1.52092091712321,1.50850338006162,1.45551230105732,1.4550438998667,1.47517048356683,1.47203979206096,1.47667890341231,1.47730916530989,1.46712501095899,1.46670788487732
0.655915028654164,0.656221203011618,0.670328756107807,0.670651886766612,0.670444126381739,0.669824447686175,0.655700170385202,0.643724504852009,0.642603667892669,0.641545583578617,0.634600544706326,0.634225750121222,0.633613382761396,0.632406742484751,0.630891920603369,0.62868242891718,0.628848548576673,0.630111693062465,0.631040013926951,0.630934939097625,0.614403346380631,0.613325128908606,0.612867160956191,0.612774610431563,0.61291610564711,0.612777012079546,0.613001633058353,0.61317480038317,0.613353926618287,0.613904707134061,0.616132046667318,0.662554162372892,0.712628298063433,0.65067332408453,0.649262239403509,0.649383693120914,0.649900207554352,0.650440090901903,0.733022257062428,0.679461912219589,0.680202455240608,0.681876934194605,0.720496988043035,0.73700727332053,0.776491628983845,1.04359801624426,1.02976033141396,0.876014069812759,0.846900081802779,0.827566870421106,0.826867277713541,0.841008084764948,0.867095728554543,0.883752866590646,0.899408775686831,0.914587298009155,0.950506234950875,0.959311756108356,0.927830284071731,0.78725472763855,0.69322286402687,0.702225577983716,0.712962233911436,0.722971300438473,0.731016470367501,0.779070283890629,0.760401260554505,0.770741018468255,0.784337233518507,0.695375993618701,0.686689710008552,0.583154515569119,0.583068522000044,0.568891085006593,0.5596497175978,0.54170948479867,0.545055363218748,0.578974345686386,0.594482548649256,0.613704839452994,0.63478836062318,0.640628282735989,0.675676071544918,0.701408477646914,0.722325639621408,0.730295559800046,0.74899485284583,0.776991337005105,0.79725694054727,0.907315262533342,0.95558706651566,1.06109032473616,1.07269463762086,1.09626000510492,1.10149876404722,1.12374973833534,1.12858018921835,1.14419811151975,1.15395929237937,1.17646900052217,1.21210044926888,1.21217568986061,1.20381216822223,1.20252610886027,1.20056534056552,1.19891973639461,1.19862968409885,1.19712844195075,1.19656588079946,1.20603953250546,1.21255959773722,1.24474472086651,1.24607665644623,1.24692987104621,1.2476437935805,1.24763334019102,1.24701443123615,1.24786683216157,1.24917640557445,1.28279326205755,1.32435640837688,1.32389175088999,1.32536969358476,1.32570262789187,1.32924372147973,1.35250953524703,1.35588265940982,1.36130263263193,1.3631266509999,1.36534537603095,1.36754648046845,1.37060158668867,1.37147478070184,1.37058634760763,1.37105537697229,1.37062574044133,1.38891810552168,1.39049452679241,1.39413105401781,1.39648176968825,1.39808288978087,1.39808692579907,1.43748958043841,1.47685757023344,1.47812210272203,1.47079734247332,1.46701140884743,1.47468597092412,1.47871355795325,1.4784952800982,1.47557155714764,1.51149180231467,1.5756401544304,1.58361915747739,1.59094953335317,1.58442876896216,1.55314516678709,1.54140187698801,1.53194305611952,1.51202860405081,1.5134598417334,1.50749085933696,1.49643011049742,1.46984039524736,1.47205940214214,1.47206225485642,1.46886194831334,1.46684871379967
0.656796827190513,0.656147447760375,0.66887042838451,0.669512213201695,0.670228000939184,0.668866636794907,0.649391191694859,0.646556368936266,0.643392139510341,0.64182580690312,0.635458509612963,0.635128666180612,0.635143073582961,0.633570273932062,0.633356010001553,0.627390371409332,0.628243012662294,0.630469771423134,0.63293884508073,0.631983840464065,0.615519241355364,0.613204235899498,0.612893125958402,0.611831373853999,0.612849626970557,0.612654813779509,0.612871044792421,0.612680025742151,0.613061339418391,0.614187446315715,0.616440653424613,0.818185328974119,0.818477882959182,0.649786285702962,0.648345944657332,0.64953608632787,0.650164566956107,0.651276912756743,1.02446960173373,0.679624679679539,0.680143015370925,0.684824507883116,1.13710687977947,0.741718235187572,0.698757809745451,1.05850261837902,1.13681521632031,1.10192479385028,0.794752645745784,0.827500856390472,0.790802956029231,0.870243710873533,0.820998931692203,0.868960436661309,0.821074198096906,0.855834467251222,0.967041824763978,0.968421000067585,0.937282352340862,1.13630226463682,0.00354709673252202,0.916589173148694,0.741254627496724,0.740477682813603,0.739751817094396,0.829929654717804,0.741867835994218,0.844866064714094,0.821026592156285,0.711200830622782,0.689105193107107,0.563281981634982,0.589574526443942,0.565161408245592,0.561215853789072,0.5385866818153,0.549103028436801,0.584458264738042,0.586400360757783,0.603147720532178,0.643054261373677,0.640024639147771,0.715687562163735,0.716549475182842,0.720958760915782,0.733706359131932,0.752125848408938,0.794442383285598,0.794726108345528,0.932911786923839,0.955121942564223,1.05042709720644,1.06660434441745,1.10003527071636,1.1155450551769,1.13420477099231,1.13102616003959,1.1484555065572,1.15215702201732,1.17088394513503,1.21051662752959,1.21057793078184,1.18981707102619,1.19205134211256,1.19364836283617,1.1831600881481,1.20741185638833,1.20879379418384,1.19811204617426,1.21250155257167,1.22863983218047,1.24364316884349,1.24471703708332,1.24715355651226,1.24783977131443,1.30020377573224,1.24496951428785,1.24597038773603,1.2490165055369,1.30385671870795,1.32512581021216,1.32264133238856,1.32787580386344,1.32594389310975,1.32221305974129,1.32182980538391,1.34875450349915,1.37160648348618,1.36174873440277,1.38224453010548,1.39047864845675,1.38393776388715,1.37327393274245,1.37262769549471,1.37311935376438,1.37311080052583,1.40183847218192,1.3985544443646,1.39657705356571,1.45254275330882,1.39822784633554,1.39705367626732,1.48340719864009,1.48400861652942,1.48401421755306,1.45003729980703,1.4479178810984,1.47376298486866,1.48077055495347,1.48018748473848,1.47934993400005,1.5632519204622,1.56170903692013,1.57118812390569,1.60239572925869,1.57618074064394,1.5225544076341,1.63207790275644,1.59795675139106,1.51735458147031,1.51639196223343,1.52119193308329,1.51050710265803,1.47047869609666,1.47490718377278,1.47669729548239,1.47285336306286,1.47105615111075
0.657583364673903,0.667578690040554,0.666906597920776,0.667595912284418,0.668136167763901,0.668591236576332,0.648856247094864,0.647573082642056,0.644240815997615,0.638554677067036,0.636276152972773,0.635876643685775,0.634821693833226,0.63346069120263,0.633750981812055,0.627948664606288,0.628551510904386,0.631137048748441,0.631054460309889,0.61430467257301,0.613079358069433,0.611210266834982,0.608950161439415,0.609526561245599,0.60923140844886,0.611259207720372,0.612147059552565,0.611991032306316,0.6127416531918,0.614611428142537,0.61703589674455,0.824621174524921,0.647508423995274,0.648614856645297,0.647866116886845,0.648968994656699,0.931323246808347,0.93382539326622,0.680499836701063,0.680348919057575,0.686918031292942,0.686364854642882,0.689828135050723,0.744840114630824,1.14272170266679,1.11486045395402,1.08449799600321,0.919277221434895,0.757996178603642,0.00356405555331754,0.913432768703355,1.11759270640688,1.14847673501341,0.912179237247586,0.88033557693403,0.866513274591675,0.899568423598893,0.956420707539611,0.935313550619131,0.903051380205395,0.876643036203026,0.94776601003922,0.739602312266993,0.73989750110073,0.738829517775112,0.745808016594082,0.650548139682042,0.852302578169775,0.663167073577428,0.729739766770737,0.567202140318456,0.566796600567635,0.542762558806975,0.561048523257738,0.575104027235324,0.537972174119358,0.550799106065867,0.580136308726866,0.602952964715423,0.630279219252769,0.639353872462179,0.645622743022373,0.673434305529976,0.718105488954796,0.720509422126782,0.726783639955167,0.735791365948928,0.80352409995802,0.840411391785207,0.905081661131542,0.971851632941916,1.05792910087377,1.10684176107147,1.10588716986783,1.10628052044078,1.10590129825961,1.16144248658428,1.13589549720492,1.18557011162644,1.14583323694862,1.16757805021426,1.17387104072545,1.177731956552,1.17748967227574,1.17668507079695,1.20910625887959,1.20725967211637,1.22092060666713,1.25764603299658,1.23730922641242,1.38996096402275,1.26784952685802,1.27682045527167,1.2897125528697,1.30834831545398,1.29832557790947,1.29643170118747,1.30786679831906,1.32897314138022,1.32058251992236,1.32309959185377,1.34077233117997,1.3931251333302,1.38779451362572,1.38752550951572,1.38871214646163,1.35962258359595,1.35895285531219,1.36551676445957,1.38645371623077,1.38620442049094,1.38385338602276,1.37341754226678,1.37371214559441,1.37356159707595,1.38025249407171,1.38477851681587,1.38638850278888,1.40848090274977,1.41302858095161,1.41321842760197,1.40227275468118,1.40166583671009,1.48431493740231,1.52501099851351,1.41667171247755,1.50930439624594,1.51047144006286,1.47230024800489,1.51361087348518,1.52402960953707,1.56055712756763,1.61025601428917,1.56623176509945,1.56271854322466,1.56208803961614,1.5193324325601,1.51500938817927,1.51552819267956,1.5191585591949,1.49168269640245,1.52365531909686,1.48081788247362,1.4754763198945,1.47816570408241,1.48006442158223,1.4725173560002,1.47343388970743
0.657284215934829,0.667604828293261,0.666295335813774,0.665789002744078,0.664854526884286,0.652663449038263,0.648285049695781,0.646926536049749,0.646610758648559,0.636288391887983,0.634929173677667,0.635078961083471,0.634346232878846,0.632319023396064,0.628540697697502,0.628337157691444,0.62761883996211,0.626311276371343,0.625420971904035,0.613922862753834,0.608729290811503,0.608372752824208,0.60702576181957,0.607576037740712,0.6075414351426,0.608663527660442,0.609115598546253,0.608957225956617,0.610069316009151,0.614498715585469,0.617862829617529,0.822498419801338,0.647328019593501,0.64855784730394,0.648899564160725,0.650557721684584,0.947486033245845,0.93228695692926,0.679153645399633,0.706576482431169,1.0473082916885,1.17233310616112,0.76691869825134,0.751637323332525,1.04496518025585,1.12353457661103,1.07313481654138,0.800148200913332,0.757083086611672,0.905307252356438,0.867354458830752,0.950595318525561,1.14783422219782,0.935067868544077,0.932512463829746,0.894387037576927,0.931434131311806,0.965460388603926,0.904119171157561,0.916752232112774,0.875066932164931,0.874934839526031,1.02122461398735,0.865664896446889,0.827116956543371,0.651947816353259,0.821712734144435,0.725886929892956,0.658954389033544,0.573653966334379,0.573868221790703,0.565518459565992,0.567165560844012,0.557039075630088,0.540963589190671,0.540427617171537,0.555853678550067,0.589003112870923,0.601594438747681,0.633229263666352,0.636871692549153,0.668993412953051,0.714675233498729,0.719974709867711,0.745051597360707,0.744232244643332,0.756865272262119,0.812863758510503,0.854371479950083,0.916647149554252,1.06859901759451,1.07883916290181,1.10366705155762,1.10422739035414,1.1029647949185,1.1222771450472,1.13008299864051,1.12135627497605,1.12125975152475,1.13344424328955,1.13462800098784,1.19505699812898,1.17252814156337,1.16976681081716,1.16725472532049,1.16630577919495,1.25495328323493,1.24220979158743,1.25515262106688,1.38160998828696,1.38256861553043,1.30975548138171,1.30775560111493,1.31443265760563,1.31812255609379,1.3584461928644,1.36443386978298,1.37326564778101,1.33638285968018,1.35088858272351,1.36236960983992,1.38733992179087,1.38617165928696,1.38729075917859,1.38822169355807,1.38782512034509,1.35303897558529,1.35346572963982,1.36834626580907,1.39621329517525,1.38600797329755,1.41741412870994,1.38024108628616,1.38005642502436,1.37997064136645,1.37698617094209,1.38641747420918,1.38566195804338,1.41012622447673,1.41244794869795,1.40632324194197,1.40569735428574,1.47715579566505,1.48109362027547,1.41663264047582,1.41672307424921,1.44900767724071,1.49957843571067,1.48680385023515,1.50305772618848,1.61266720202182,1.56288245424936,1.54753836206066,1.55276179791831,1.54567036138285,1.55521217304686,1.51670813728778,1.51507925432713,1.51480173192681,1.51909584833327,1.49143472045965,1.48578362135882,1.48076346781961,1.4782861047379,1.48021899355505,1.48055646087755,1.51154113930688,1.52293914944149
0.665440121504608,0.665941002857156,0.665291398482281,0.664174076167669,0.6590557935965,0.650784975350836,0.648833669690484,0.646980941552174,0.641041995905096,0.632596382304298,0.634383217102248,0.634787063925899,0.634108675501449,0.632117152111104,0.63039484610527,0.62877660291483,0.627166094490077,0.624673898980321,0.623013981275273,0.614614119477287,0.607522936324356,0.606596708845613,0.605853603548187,0.605996815224507,0.60615916566558,0.607209222786894,0.609187961918406,0.608205907674816,0.61000849199977,0.614068752428742,0.824773513711077,0.827189422330794,0.647652540446916,0.648974003808168,0.650379956539741,0.86469074303683,0.870286741970398,0.93355108381403,0.77074703448745,0.690025797957347,0.75752216639487,1.26232621659427,0.706078019679988,0.747949244687776,0.720542403666551,0.931894647902535,0.726668268946171,0.926014770817703,0.758183331493803,0.81121974273025,0.796410012230105,0.796285484405005,1.13515162865287,0.937394593945153,0.931792907376212,0.950667238613061,0.952967878547132,0.904794045126255,1.1916085032879,0.873352328937737,0.873678306330154,0.873865660929353,1.07088086419249,0.971248935779147,1.02474377987223,0.812550494167556,0.852251469623105,0.725499335940329,0.728425662485371,0.573563408151446,0.564264598525284,0.558810870560378,0.54948931717913,0.54901853075934,0.549325084292483,0.542677633196956,0.572590794942731,0.613598051426516,0.592083602758458,0.640799520781003,0.653586189408835,0.72255580391695,0.718549951049202,0.721357130615316,0.72137982908326,0.763951169818704,0.793522888673949,0.829231980496067,0.877369328987391,0.901884429521946,1.07560357016559,1.11322326839493,1.13092520556901,1.12986762070745,1.14671175526837,1.14840940469874,1.12400323738153,1.14382392746719,1.12682625932664,1.13627013224572,1.13646941398014,1.13255310759597,1.14268652997351,1.14566285907259,1.15596849347931,1.19038248460108,1.16963816176518,1.19654218735795,1.2866246681395,1.27488418011116,1.27711420341474,1.31557957365121,1.37091401352653,1.31608513135658,1.31887700189343,1.32359909821324,1.41121395461632,1.41124342779035,1.35288330255529,1.36908286367776,1.37045226442833,1.38770481875873,1.38597565571014,1.3858506476557,1.38414836399963,1.35426395434376,1.3537634456324,1.35314281368725,1.35137940400328,1.36111695515229,1.37150472291412,1.38030863768178,1.3805262199229,1.3813903716744,1.38004816817323,1.50051882459129,1.39190176435372,1.3924297087451,1.4067541872845,1.41329049356014,1.41382617100906,1.40577976270221,1.48208127768459,1.47665301619335,1.46529363313462,1.46269133558121,1.44548878542756,1.45985326879724,1.47344486089834,1.50503046284015,1.61273222232528,1.54996392825094,1.54963610655408,1.55140229132486,1.54866739187103,1.58765609185378,1.51733840577958,1.51628985033149,1.52644377268502,1.50421337862942,1.48089342976726,1.48953288622518,1.48079412962113,1.4794482815132,1.48063621871392,1.52969001028967,1.51167065795279,1.48781536839179
0.665270125766343,0.665765582659421,0.665768480279276,0.66297102125526,0.659724585300627,0.65023425613467,0.649702763452027,0.638796703584386,0.637842938991324,0.631988882493436,0.63241934450295,0.632964485248887,0.632455274901806,0.631850637998775,0.631936047508338,0.629495293368577,0.626640828161889,0.625092014665436,0.624246747567039,0.604056490243241,0.603186185231863,0.604331226287909,0.603890750819115,0.604666584910506,0.605359757191544,0.60648206242733,0.606432498459736,0.607538571130207,0.608369690015124,0.828430468162067,0.82304681813583,0.827729102640142,0.65871535551577,0.667012989663972,0.673019855735521,1.06625653760343,0.679924550120786,0.945981662380396,1.05140771474911,0.689172264413561,1.02019875474677,0.757843126857598,1.19364214595612,0.859365413918979,0.928561242311575,1.11117344741795,1.109829474926,0.767812484582915,0.769326697068209,0.859012467501987,0.797016175344936,1.14916728192389,1.07183578713954,0.940047291065192,0.902034950475818,0.9596298228693,0.851828131757973,0.85267926198318,0.930985825854398,0.915861525364019,0.873761293817609,0.873401984014592,0.974486360423079,0.953549889111473,0.861434474831062,0.854859468879753,0.818024795492168,0.726436233759223,0.73374506623621,0.572401548633535,0.572666970472638,0.571422904514069,0.549420339621072,0.548319280779888,0.547274543239503,0.53536083643055,0.558099000750597,0.595981494642955,0.625995124895788,0.658375963960325,0.651983841529343,0.688837112176946,0.713519241508664,0.724047402633396,0.727593937339225,0.796826629922467,0.811404990190583,0.848316381804811,0.884769772343055,1.00218843263544,1.08363889830632,1.12395787464758,1.13118462076834,1.13016607137127,1.12206956588263,1.12137568367842,1.11898392677929,1.11856463090867,1.10689990894254,1.10597003291509,1.14262787838119,1.11802719302865,1.13353445381825,1.14122182623681,1.15537147451166,1.16396750633224,1.19839915506116,1.22463313228091,1.29552038030995,1.2462303362811,1.24632852481516,1.32832813011048,1.2890534849488,1.31249868685638,1.33032928337107,1.41128611967757,1.46318821874239,1.3613313250978,1.36020696899175,1.40315196984074,1.35456312705115,1.35483505073251,1.36164544632966,1.36109708912972,1.35798667154989,1.35529629524372,1.35419387954241,1.35239485589424,1.35235904215351,1.36215979373109,1.37116559916512,1.37081361774587,1.38776837007271,1.38488750015755,1.38951171733221,1.38968686567572,1.41461871717083,1.46522489909128,1.46452357185317,1.41463175134381,1.41461557483432,1.42586387894227,1.42576469120401,1.42421201003354,1.42543737180034,1.46204137268558,1.47461681750823,1.47598616960577,1.49022843628915,1.51589629210782,1.62531582146438,1.5511126565846,1.55357427892514,1.55208424265112,1.55108956056042,1.62824148735145,1.53358141930558,1.52740833271091,1.50324877348349,1.52478262572606,1.52276667179505,1.49162421055511,1.48986828856099,1.47974239708935,1.47120289591375,1.47099890349285,1.45083607378679,1.45126246359797
0.663561430885106,0.663155708432587,0.660883719965803,0.661828995966687,0.91930375001256,0.637067399837722,0.635297444708409,0.636209800014617,0.625100354104514,0.624167399167458,0.623432531984457,0.622494396691893,0.628461948064872,0.630941900258705,0.633256294610172,0.62443273260965,0.62427924367356,0.622499908840671,0.602097486652547,0.600088040382863,0.597927479411413,0.600620493287578,0.603068281480769,0.603887135760554,0.605205930759735,0.604745338424575,0.604875100299776,0.605912525861771,0.824250905189371,0.83219676071277,0.825419935633924,0.66574994304926,0.674038186052232,0.674177793805983,0.673983696717475,0.674367612903662,0.81062559794936,0.679251679655342,1.03927068468468,1.038023786707,1.00738627788764,1.25844461167535,0.716513087299618,0.833349033556625,1.09686717219947,1.13695906102507,1.15081934839734,0.833781704233488,0.00346522930721146,0.932744822786708,0.929361736565209,1.14166045123824,1.38747481801191,0.942978698292493,0.950107905511134,0.848505945601253,0.849674538993267,0.99387654246391,0.919175210823658,0.924296340160253,0.873070841267469,0.873403547642165,0.920115976915556,0.94031790858162,0.737333398641414,0.855169487481896,0.805824500854263,0.749277471017813,0.753056509646572,0.569642251760407,0.569650141981541,0.564086344591666,0.550419309278339,0.54313351331414,0.535158794570359,0.535805379176265,0.556971055907395,0.581172056116329,0.626500292852854,0.644791173527872,0.681363417857133,0.689813260909257,0.745005530975531,0.749311429608995,0.753760374868507,0.772726386982559,0.855882013318585,0.870775685207382,0.922486840080833,1.01043698070977,1.05704284855304,1.10356161780329,1.109302730608,1.13774292162934,1.19842562638245,1.14383582683792,1.12094227856728,1.13313124274355,1.12459434913651,1.0965573774808,1.10595075716266,1.13595218080923,1.13560903848391,1.13456056627123,1.1261350296248,1.19874284777829,1.22591881494046,1.2462805526738,1.35745648384398,1.24913030842079,1.25052081628043,1.29536857158426,1.28913501026554,1.30934303428267,1.32971563932641,1.31338800755273,1.38309813713344,1.32505043705303,1.35983489288913,1.35020659150673,1.35710298077181,1.35693604333482,1.36401804147336,1.36245304108597,1.36083113132396,1.35815784120641,1.35308572405015,1.35235124375449,1.45511558415613,1.45126050491935,1.37114121894415,1.3708010018565,1.36942928734387,1.38429092847897,1.38259226806596,1.43060341981519,1.42177617294468,1.42049948328837,1.47445896444157,1.46671725628408,1.43205466169021,1.42983407716187,1.42686091743015,1.42458180950998,1.42553526990334,1.50891899301787,1.48066421302797,1.47862782821993,1.4935645327545,1.52730211697345,1.55770079427321,1.55210475276552,1.55240487955144,1.55253113196685,1.55177299765769,1.60326978292929,1.57954783667277,1.53090280657343,1.52944431346424,1.62217486577437,1.54216357090704,1.54239764656792,1.48520046672016,1.48029071631574,1.49988673443816,1.48775058222308,1.45314284592856,1.45302867259401
0.660663944879722,0.657296550455521,0.657783413706888,0.660730713181736,0.815009710659467,0.629568243068326,0.630349132929606,0.632279503971319,0.624003203249948,0.62335155894126,0.622425138527681,0.621149824077852,0.629497423342473,0.629797592729153,0.630519582693525,0.623482788816704,0.621963196184408,0.727998984212627,0.598846541524568,0.597513121047038,0.597114386724156,0.598121026097519,0.598305749438841,0.598189067764203,0.599569247743171,0.601918755970298,0.604121293332877,0.604558119382347,0.82988664103635,0.825671381355369,0.672765118682102,0.673027479149472,0.673921106801848,0.674449574925251,0.673899617359261,0.673550569912783,0.800190047234279,1.03854806228462,1.03854860894757,0.846970747175063,1.45450544874154,1.15086491172251,0.716912046271565,0.810180153585747,1.1297788165335,1.126688615592,1.09531987646369,0.840320402915591,0.828349981834484,0.827686248587667,0.930390801392517,0.919148082656394,1.14866327388791,0.930022834684816,0.907959772145363,0.845277540163009,1.13885758085907,0.849270495842173,0.984017829905444,0.888174004922325,0.897840955407818,0.882310714370346,1.033037426788,0.961847324628592,1.00772673109877,0.910912814560887,0.887932547565249,0.714079139441126,0.58518056926327,0.584546688795963,0.571028093590344,0.529840733189166,0.515595532198601,0.516442117565676,0.513461113551444,0.549465838512631,0.565588135328149,0.579923576694154,0.638274935944692,0.665855206131392,0.672056995101815,0.727986996387317,0.753601625925552,0.75050904721081,0.75861274808034,0.80538172021756,0.840708638141207,0.879878601305484,1.08377261669797,1.03924411853822,1.08171231554861,1.12186898687751,1.10624630819648,1.14070624189537,1.24017078124404,1.27012508799468,1.19571980395773,1.1238261071835,1.12497175988783,1.149068812681,1.14962290616377,1.11500516872299,1.13509030692765,1.13293591354661,1.12921407048357,1.20764920851849,1.20668497556436,1.23430660036515,1.25575094328191,1.2483896251802,1.24862078865472,1.2975964088452,1.29346910991248,1.30689380675413,1.30144259951,1.31241076082148,1.32602154593769,1.41868681200684,1.34195525895507,1.34377545407869,1.3531838230931,1.36750456550192,1.36403305342578,1.36280305255078,1.36164035161194,1.35764103296986,1.39452443498759,1.41527237646972,1.40620674908329,1.56057317677644,1.43689248513324,1.38501691180867,1.38372540770814,1.38439655155038,1.38551239482464,1.38625333424177,1.38625923358526,1.47196099587317,1.47267595429055,1.43445031480004,1.43404154824253,1.43235417771724,1.43140567222884,1.42998526231852,1.45692460225216,1.43535126258779,1.46569024383131,1.48428871254748,1.49289247229416,1.52538052691899,1.65985914860905,1.553502487559,1.55127910684017,1.5529110058206,1.55110887869434,1.64246104171069,1.62792825066692,1.53310804979131,1.60163517397405,1.54561808820071,1.54602900246848,1.48518388621853,1.48428796705713,1.4805973440771,1.48331726172774,1.47716226495515,1.47728404156997,1.45005546860796
0.639332147545628,0.714104846494898,0.62862347740911,0.629612021418965,0.629878224904037,0.629742540146988,0.629609907869014,0.631035855745578,0.618329378199898,0.61929893470797,0.620701182539317,0.619786823095306,0.627326194154924,0.627844333441361,0.627979458110257,0.6273366648326,0.620359206635215,0.590776296124076,0.591453924182269,0.592122219378474,0.595194224180428,0.595102083754144,0.594015763190206,0.595355804981562,0.594556824674215,0.596248501245883,0.596818114823641,0.606216841292645,1.03251575316019,0.672945330055594,0.664765110135813,0.675265734129966,0.675285763595194,0.675243167202706,0.674673987987555,0.674600253473514,0.68534226110486,1.06648922693726,0.848523614439403,0.849874972875386,0.992921613200443,0.71590418144342,0.717091367839739,0.791101093747593,1.12942306758282,1.08164226615637,1.07095957838226,0.926244659456593,0.849495960036028,0.763770180149726,1.03167560025072,1.05472683653344,0.904221631005329,0.906926600683149,0.909660727321701,0.843384799277798,0.843329428774093,0.848983117669911,0.850974819646731,0.86057288810467,0.860358500849773,0.860745146227934,0.845820781016911,0.893981565023822,1.02173378876721,0.832036939457741,0.848223990887345,0.585025666932629,0.586722947705073,0.585135770278884,0.557015563999002,0.531058980077578,0.528757533419123,0.519408080995467,0.521866057553061,0.555680480699311,0.567548500765569,0.607443413608306,0.657123067666956,0.681185833841542,0.68066385362137,0.721943589534015,0.751682676997134,0.749462341571456,0.796009881666744,0.812509445432266,0.862559966728635,0.906252113464753,1.02653247411094,1.07093400058326,1.08298555255747,1.10611481573172,1.15209174425273,1.15477909840262,1.24071140021735,1.2410903388639,1.19380898158791,1.15101162871664,1.12719019356789,1.1278293717256,1.12102268889122,1.12157982360453,1.11368122078801,1.12349221354052,1.13010526257481,1.15454399078461,1.2242296423942,1.23358793900096,1.25598809611162,1.30130870865766,1.30076623549582,1.28250936419033,1.33467157455131,1.32055822904842,1.337875316673,1.3137678231313,1.31825576975267,1.31910018809747,1.34437054498882,1.34303709424977,1.3464838275695,1.3621082007346,1.36233590361852,1.36175795406216,1.35848774025592,1.44513300880639,1.36971673694733,1.42968536961794,1.40896339315635,1.41331680509305,1.40750573671736,1.38225399308083,1.38215606532663,1.38320087411957,1.38225982653827,1.38337747428398,1.38566577216432,1.4153966998444,1.47941034105374,1.43485212731261,1.43444151557765,1.43312091519271,1.43978948827876,1.43532226059111,1.43979972119977,1.44126706487332,1.44108076179242,1.47521646447063,1.48695597377884,1.51241030799065,1.54582454338807,1.58750767202862,1.54798087046612,1.55316868552425,1.54761138503017,1.58256959450298,1.58198010734975,1.57919150581365,1.50844568875798,1.50798593698697,1.50759375167232,1.51714063673416,1.48381164675086,1.47966940389897,1.48232145493007,1.47824225853976,1.47778041762586,1.45044495773727
0.638603495269165,0.638436608136126,0.621711077757509,0.622017290118381,0.622709030334036,0.629228589288634,0.629289550727839,0.620097981787246,0.61829416229266,0.617932315420204,0.619080607103531,0.619099356433093,0.62477990314411,0.62580730374098,0.625805757034099,0.618377030430967,0.618376892184946,0.590128478973116,0.589004316428346,0.589462372907471,0.592483222582364,0.593354898612762,0.593819508845171,0.594523497094667,0.594398049684633,0.594043900135173,0.602275401875493,0.830569729648783,0.894625936928015,0.826432593107641,0.666555695618359,0.677022249590405,0.676735770710796,0.676165507039249,0.675639642844442,0.675281414359116,0.686259479416397,1.05390171447015,0.848454006150974,1.39079053975358,0.717170229553093,0.717087429317999,0.719273995333311,0.787447305219854,0.785480862407817,0.742355822987381,0.762806962564369,0.819149472199297,0.859225688083229,0.764534369055458,0.765016334897593,0.76875598869925,0.760504176019743,0.789978015765022,0.758860059201292,0.749577463615835,0.84295432856474,0.746682849742514,0.8641372450001,0.861122400280684,0.860165442191985,1.06276397736887,0.844072797035116,0.83832410787326,0.837026944354873,0.824348303560663,0.560135190571013,0.563421211243671,0.588638625487404,0.533166217102298,0.510286730742496,0.510734903128836,0.509898033978472,0.508746174296728,0.509079954919912,0.54137322357672,0.586296344460414,0.588492026743543,0.588326568479632,0.681435206963653,0.697490248132615,0.732459222153174,0.746942603005821,0.746761800379408,0.781484263031097,0.824808718050249,0.863491234028637,0.913141175886593,1.01971973981594,1.07158227955254,1.17197956591071,1.21542877799231,1.16624108178565,1.15560590751238,1.15388366231973,1.15342211816763,1.19447494877712,1.15487859658276,1.13472013514688,1.13675316392132,1.13102138906605,1.13002041982458,1.11377805927269,1.11374228224164,1.1129016945957,1.14697094806334,1.14861247991894,1.2136044945068,1.2135927055154,1.28890398249846,1.23011265626172,1.25925980061023,1.30918456357152,1.30026965955672,1.29272379676676,1.32933948491413,1.31901109168028,1.31904904585885,1.36087173635183,1.34207026979779,1.37735376189902,1.3897425641268,1.35104920186287,1.34556865013688,1.34041411276487,1.38115366543423,1.40078583394231,1.4022753187815,1.36548371602574,1.4607745417606,1.40476569310722,1.40462614215301,1.40502886751139,1.40043373020791,1.42080142640914,1.3795364636252,1.37899897394228,1.44875930724392,1.41134375588104,1.42910791641945,1.43279863801262,1.52177481143656,1.4561311450922,1.45263102380137,1.45588976287813,1.44172072296011,1.4415936578999,1.48173179663558,1.48687058791091,1.49636297876657,1.58577460041522,1.58681724793502,1.58719946745749,1.58371915452036,1.57975192314644,1.59231013318219,1.4965353339044,1.49609761993398,1.52152934329775,1.50718028227408,1.50161514468972,1.50123722835309,1.48349545257265,1.4781919592955,1.48311483455448,1.47902804031347,1.47828735102151,1.49656573071469
0.638991577488154,0.630089375414935,0.621314079168334,0.621620535624602,0.622936354006179,0.625705413804319,0.621696859954838,0.61995337864643,0.618660945797678,0.618194868365168,0.618722344086368,0.620130866169051,0.622813365200585,0.624020584664907,0.623944566135107,0.618594590738955,0.618550089481784,0.58943354984978,0.58898178879668,0.589492923289654,0.591424976843853,0.59234101548216,0.593215069541414,0.593942917241448,0.594255885140226,0.594614405983909,0.649138473383417,0.732058532679012,0.733368915417642,0.734472647108255,0.677007936869451,0.67712959985809,0.677042800116154,0.676801084376271,0.676650897497275,0.676762606972424,0.691927882629522,0.737950042860502,0.799377080330648,0.769670421212464,0.717335844437723,0.718150153192958,0.720319626692151,0.789097801468856,0.786530540907947,0.784157112016918,0.781146240539528,0.779994677902049,0.779180806281343,0.773352555343249,0.769801433470197,0.76833810162858,0.767995646216929,0.804147720253302,0.815132774869585,0.825624687118561,0.842250875383155,0.84213103586335,0.853529510722117,0.855196648979824,0.85675107473753,0.905544321356534,0.836562023676449,0.833060012517185,0.830766215534885,0.827450352931794,0.57290473507956,0.576834942823585,0.580348986396235,0.53119794814152,0.510927579502761,0.510258668730473,0.508919495403726,0.507566466990709,0.508059182916962,0.534471257572077,0.586671945349435,0.587306597764385,0.587401277308634,0.672674648859604,0.713496122574523,0.73612464544375,0.739121168867898,0.743107848856843,0.784071997044181,0.821533285243662,0.8527615697656,0.914368064631195,1.01683538439166,1.07390932565855,1.14116334170366,1.14680391313882,1.16088042937044,1.15650478468984,1.15447807993627,1.15324523730521,1.15243286775791,1.15308235315799,1.14382354095141,1.14143322768668,1.13325959928403,1.12281674885425,1.1161840394883,1.1151581480783,1.1133384890639,1.14543390213875,1.14625899974427,1.18226810848342,1.19960065069752,1.2303998306087,1.24142919839747,1.25920900012978,1.30065520467566,1.29805616809503,1.29546541797589,1.31832011068435,1.31833947935782,1.31848009935864,1.37083145665784,1.3790595388131,1.38190572525499,1.38515609650065,1.34617567658901,1.3438523966884,1.34169022413048,1.39802082220766,1.40129404365227,1.40195627450146,1.40823530314071,1.41245462263214,1.4039859724898,1.40317548440649,1.40188181888757,1.39977267991536,1.39957608634033,1.39842569059079,1.40742469717261,1.42310598648459,1.42398940768013,1.42680569646209,1.46113505371482,1.49801216571925,1.49389084362977,1.47699807917702,1.46212819527106,1.46286608801966,1.46373646536329,1.47797165695896,1.50717802759492,1.51196871313146,1.58219280293229,1.58227673511416,1.59156906345956,1.58655390565046,1.58530966742467,1.59833341314457,1.49357134345662,1.49352467167522,1.49719589847103,1.50008792031709,1.49931580677525,1.49892051385222,1.47639996568311,1.47492043172158,1.47900104445488,1.47963108328282,1.48051172277663,1.49046427418558
0.638428949950019,0.621380867189348,0.620660033024022,0.62025448224219,0.621103303566531,0.628009630232742,0.620099392304103,0.619223048722004,0.618322368460401,0.617486459889228,0.617430707871222,0.619753376544432,0.621802426762914,0.623307651189306,0.624704148193822,0.615719690219638,0.745390165795809,0.5889879419572,0.587789029054831,0.587823231622422,0.591306701837182,0.591351916608213,0.592454864421068,0.593585925390814,0.593841067462919,0.595350963769792,0.830087846157526,0.730609085622664,0.69411812882003,0.734901889503164,0.675355078383879,0.676641916605997,0.677004634597564,0.677077341768419,0.677289392611802,0.678303418087459,0.694809132401164,0.689471288039559,0.851196171459372,0.708126948350225,0.715942478822206,0.716837844603078,0.723012376040932,0.794267374581524,0.914265325918394,0.915509089985048,0.778974752970364,0.00393945735442036,0.7853272605224,0.889099735286549,0.806946451456789,0.889603725058139,0.759408788442586,0.820703342354607,0.913105713610033,0.885624821278399,0.842083321296101,0.842604710608958,0.851577511934731,0.851117140241807,0.854409053356843,0.950834027989587,0.727468463257134,0.827409362438262,0.822894213296032,0.895492446909219,0.566099653375829,0.58378013725207,0.584807428615318,0.528819424633147,0.487020686660109,0.5038177386835,0.503938578428637,0.504775753426958,0.497532030443703,0.527958610799009,0.586303474806622,0.586778430025529,0.586794922406401,0.662280102094745,0.742175077903358,0.761504278844868,0.735756735929586,0.739264919995265,0.787097176106734,0.817684782340273,0.843704468390409,0.914796403271532,1.01462104772232,1.07640711155608,1.13484468119097,1.13922489596488,1.16394891349645,1.15427175323432,1.15385777460933,1.15236414841122,1.15118097708022,1.16749402762014,1.14869558107595,1.14785795717688,1.13525059595998,1.11975856934428,1.11940166695944,1.11833313453777,1.11025877229605,1.14338674753956,1.1436782836772,1.1587847135181,1.16314263623672,1.21021198988322,1.25905724394636,1.2591805577888,1.3027362161653,1.29418748296088,1.27906784782935,1.30813132357923,1.33765768806424,1.31894374944775,1.43210832691148,1.43606382193037,1.43541365079806,1.39179550188717,1.33625775394561,1.33671587379615,1.33726677464784,1.40449877734471,1.40193015393616,1.40269647379828,1.4242878612988,1.41994886876889,1.40412849450161,1.38876665604493,1.38849920339076,1.40041432727704,1.4019383613462,1.37772531813747,1.41229617091091,1.40612615615742,1.46059024639286,1.42851952952587,1.49274711022286,1.49890194001372,1.5695742560645,1.47530015368108,1.46550977790016,1.46554138714678,1.46537481964144,1.47952394512423,1.51806214927655,1.5161008833658,1.60486237732053,1.53057116526661,1.59535731314361,1.58206018938936,1.57055094087356,1.60116651537907,1.49957220862932,1.49690528182577,1.50423813744746,1.50240999781172,1.50221988712716,1.5018698382454,1.48618094602742,1.48034212415585,1.48650099786108,1.48540989091962,1.48504261431354,1.4833439523219
0.626389707316841,0.624752920942293,0.618630351452361,0.617958542550433,0.617276931111138,0.618134056150462,0.618526274190495,0.617788440970785,0.617562244053895,0.616873852207508,0.616918082167704,0.62057374365642,0.620776297907318,0.620585963485077,0.61749032926108,0.606786816054608,0.601517557359087,0.7455395943223,0.585572769895596,0.586738263954978,0.590551336184135,0.591357252369045,0.592395547301317,0.593856009297942,0.593462040761244,0.61043231080947,0.610672567184032,0.832179108000418,0.832986080989635,0.72461879675772,0.674903432218809,0.674855248041814,0.675282587432421,0.677092156257125,0.677993352501876,0.679826980587707,0.685264586792714,0.688095631479323,1.28208117025636,1.28255273890093,1.32349488575448,0.720229127655674,0.764348872545586,0.798004278382654,0.808400715672249,0.770435877650327,0.781185234171311,0.782132450804641,1.19802773917791,0.797952398191159,0.894307629002063,0.779979711037721,0.849072543566888,0.847531550694506,0.84868600528726,0.840430244308151,0.841561657493359,0.843119303110288,0.849953378581138,0.850450836395783,0.901584441005426,0.977430585126595,0.900081449485544,0.849888391002833,0.882500388105633,0.587342643321987,0.583318860887516,0.583038562417229,0.513638681359808,0.524936952508755,0.525336957282351,0.485398019777584,0.505499587264728,0.503782816573929,0.519199312450577,0.528177667592618,0.584105769276974,0.596433623436118,0.66859425754052,0.66997804919503,0.749210580476197,0.74813609890636,0.72135421523847,0.736605538366201,0.766709043980895,0.805869181095606,0.832829226209886,0.907150405651361,0.946925250354924,1.04828083657158,1.13432956078886,1.13944897974572,1.15147741531072,1.15238519244428,1.15190662843418,1.14980186614087,1.14802630091908,1.13891880573212,1.13951906028736,1.13197940083722,1.11865310758943,1.11893275758912,1.12000210819185,1.12137755594135,1.12344017306475,1.16652375866487,1.13889193438806,1.12670260512856,1.1629242111946,1.18271447280681,1.19130402851457,1.23090486090898,1.25001952523227,1.28404649744938,1.28866087916272,1.28749254191981,1.29939811613545,1.30408412196295,1.33738973704152,1.32320746395812,1.38259805520942,1.38276247110307,1.33699635823446,1.33685774464483,1.33723543192956,1.33778504078452,1.34672164804281,1.40511742860287,1.42693668797972,1.40468249526751,1.40453048470653,1.4056771162305,1.40672304531229,1.40237560112894,1.37699484650299,1.37696873837322,1.41956568851854,1.41917190843152,1.44786530784107,1.49726355951758,1.4921477279403,1.48309816841438,1.47558152126034,1.47647242468552,1.48053917710084,1.49891206501341,1.51270389750221,1.48045401187888,1.49705947334959,1.5172415900438,1.5316886838299,1.53109754403179,1.53002129574078,1.52822635043257,1.53131866728676,1.49749273907868,1.49774136403313,1.51222721260593,1.48066674448087,1.5160540564128,1.50482359318432,1.50465667377935,1.48639024344166,1.48320226432056,1.48732056361189,1.49512640543451,1.47532607438961,1.47774415692555
0.625318680005089,0.625212079445776,0.617518883834499,0.614399915607018,0.611662318814623,0.613545990997961,0.616333106041021,0.616315842336011,0.616586049876946,0.614559835709599,0.614346428076787,0.608354190876417,0.611689650399636,0.611120831237249,0.611320400983756,0.583026742500543,0.582939625132929,0.583280033817642,0.584349785595761,0.58650885996426,0.587073699811485,0.591283032660064,0.593308575597958,0.595638365273516,0.598060671124378,0.609409152340596,0.610308049549989,0.72658604185071,0.658608273385071,0.883514291629192,0.675096312375783,0.675052425256006,0.675545687099226,0.677964676765263,0.680391292726677,0.680822734430993,0.685414137991545,0.77071520355873,0.848465663837447,1.30440799854011,1.2759322180816,0.721197788333199,0.801236367729757,0.799878017280039,0.766499660716367,0.769469814049875,0.831901541578184,0.784949759707111,1.29403335836929,0.797266119399819,0.804001477183895,0.897806603309569,0.796871937029734,0.845440455030443,0.843687233816606,0.84328040742524,0.879926572061986,0.847361221947947,0.849520289340007,0.853157873442465,0.934724154303287,1.10485153867649,0.860753389739364,0.834751309849024,0.602451513645731,0.598612421465889,0.512183100924463,0.582854022472068,0.518307296821007,0.503327129122412,0.502114450031354,0.501111595834339,0.501973776776768,0.502272632757465,0.502105120053478,0.553935909508405,0.583624848499483,0.570753388545089,0.629352200183114,0.653375667626078,0.700360087330864,0.698110026944284,0.710136717838737,0.735807469144232,0.747693644943125,0.790764281446215,0.849005035683232,0.894641248253631,0.974197390514963,0.974138444466184,1.1340009213526,1.13378248997779,1.15000353429849,1.15177661861616,1.18816939014435,1.12606687589067,1.12621292186714,1.19318247676729,1.12339190307356,1.12628266144701,1.12003581880962,1.11963266340657,1.12884076126095,1.1316110471077,1.15155361539538,1.1543643975904,1.13656701247793,1.13631447087517,1.16076738636111,1.2060946550357,1.20512985073329,1.23500639057727,1.25842374915641,1.2777220445372,1.27805285486711,1.29086987565448,1.30299230595938,1.29036012611565,1.31584650434357,1.4523362291945,1.45197076297586,1.3496488460398,1.40217914987634,1.378293808189,1.40735293641783,1.40599428096786,1.33605150961614,1.33551848002395,1.43814651656988,1.4050259127667,1.40458936844185,1.40471103052976,1.47298227729379,1.41230027862106,1.39213483795277,1.40647985780969,1.40689478181221,1.43041477770939,1.42506968882934,1.49741452822142,1.51227218196599,1.48339077026279,1.48265810791193,1.47866582429236,1.48089573008329,1.48816989055148,1.53589185367273,1.52568632157527,1.52415560974391,1.53906966102847,1.53278450292394,1.53270845603173,1.5328995182768,1.53026188148369,1.53244961127842,1.4861858200787,1.48578176171737,1.47481969856291,1.48131013245599,1.50764667207473,1.53075521277989,1.53094134366788,1.48810476677968,1.48454212333825,1.48798855611335,1.47763394823969,1.4753547754393,1.47559394368209
0.624547649979779,0.624716629165432,0.611127834927047,0.611716829398421,0.611204633659959,0.612457901197255,0.613971681718967,0.613945905768516,0.901504955703269,0.72001560904928,0.599007716381851,0.59901360990013,0.59821908764933,0.59830556211434,0.598543010068737,0.594332214361745,0.584597518280944,0.583833113466109,0.584690550921239,0.586428379210305,0.586583474350303,0.597728217347712,0.597962418734244,0.597166311118902,0.597315336478807,0.611251365803788,0.734310348621974,0.831277085022205,0.66611574471454,0.67390097278659,0.674693060178743,0.676551313395788,0.677152066787727,0.678753006673978,0.681046412143429,0.68198584141646,0.688491327413908,0.849621228947184,0.907508741024839,0.710995957513872,1.32604124795226,0.741379238498595,0.742088793828844,0.801135926484248,0.830572492839957,0.750663533736311,0.808746057646165,0.786603638610288,0.798022409699332,0.994911046245445,1.10488690637507,0.877023932610347,0.938041535217016,0.854145275029718,0.787824586088054,0.788182840074126,0.852009235312735,0.91357808447812,0.916084971312725,0.936193396613016,0.849106695774809,0.848572054116298,0.821664493806376,0.827751930584773,0.522316010694848,0.522143575365442,0.509747693156526,0.508977062147727,0.51882691860016,0.503590952388667,0.515858553845637,0.491597974777294,0.525046179542398,0.525273316092997,0.543775072933371,0.580323260257881,0.569722376185449,0.569772210948873,0.63906153520218,0.638633317586463,0.660089639360593,0.70734555301935,0.711208408985695,0.736012420844444,0.742619298842241,0.769372505438177,0.850833287676156,0.894711952301814,0.941180110070796,0.993329081819301,1.07210970040321,1.14014988083219,1.1670716339764,1.14527763744321,1.12698225083374,1.12637486264104,1.12644900446924,1.12731564818875,1.12181224989771,1.12438563020319,1.11217765293369,1.12159361552134,1.13460996837724,1.13659359169307,1.13949873323335,1.19256197894429,1.17801159421788,1.17413970699914,1.18798210161105,1.19487656844687,1.24732621126307,1.24335534941887,1.27641847512118,1.27705021970055,1.27700002787227,1.28878531054591,1.30147777630751,1.29122001087779,1.2919178010718,1.3198254597797,1.39357574461472,1.32905328323129,1.33395765791447,1.36232767838221,1.4068784734323,1.40514878890012,1.33692729335063,1.33651115766959,1.39907275043824,1.40083369358519,1.40162535242165,1.48164215097376,1.47378280014265,1.41397234425631,1.41919194775381,1.41985969883821,1.40340997284912,1.42514318968596,1.48771949683863,1.49672966083938,1.48022885070715,1.4834093815792,1.48409572418565,1.48295383550706,1.48740479699879,1.48880592182556,1.48886977122058,1.50324255735851,1.50369645790526,1.55054418834885,1.64738322711737,1.60727618716495,1.51483712631839,1.52984002287021,1.51334496955939,1.50886430305993,1.49650446332422,1.47517408583083,1.47409694137335,1.50300455585731,1.51753958568482,1.54159606104928,1.49067409646746,1.48315208233027,1.48038739588139,1.47971372076378,1.47168179915809,1.49688844871775
