0.814596220807473,0.825248064729005,0.809853249133933,0.80814967859192,0.979786921823018,0.794089002250839,0.794008914771778,0.7936516734703,0.792744189025916,0.948578988817157,0.947289351403059,0.956638405274969,0.907287070427347,0.88164260736776,0.00400725706454669,0.883821983529039,0.900414013982565,0.564550672412586,0.564491021651878,0.532917149855766,0.533897807693972,0.533686716866643,0.533379912017601,0.532434623392362,0.515421797236597,0.515810049431613,0.517746970044031,0.518044636506683,0.509561869262063,0.510118956042234,0.509546404940061,0.504168960185541,0.488665451819494,0.4913769652944,0.485042371593753,0.479980078470279,0.479354040103312,0.478922125365838,0.470031418963948,0.471238431412375,0.473307341818307,0.502380384350884,0.494050292763256,0.474824382953359,0.450688896682818,0.447528649292111,0.416864310384612,0.434936785446663,0.449562550489024,0.450093604535239,0.469047507545273,0.468092427155832,0.498857871043484,0.499043473421585,0.498411117600351,0.518990257070698,0.549783636796085,0.57333182982102,0.589049938804397,0.644798732296935,0.659094804964668,0.693649974707336,0.747597916533732,0.870412864673652,0.861799759089943,0.915357507061593,0.991912033632289,1.08259040895567,1.08947837992017,1.11948764923641,1.13954491067671,1.13407823851703,1.12500489345109,1.17810834068191,1.17839401389277,1.15600610948222,1.16028916539619,1.15936750409369,1.16992209772826,1.15264798222631,1.17645151265677,1.17722161254498,1.17706796071671,1.2062900290923,1.20739823464935,1.27323675741365,1.22063123354774,1.22252551468842,1.26215338529303,1.28881202783517,1.29988452098199,1.34189269145742,1.33899628336152,1.33858271820964,1.37416340856195,1.33808739581123,1.33563472829061,1.33720507624708,1.33740250103058,1.34086421676367,1.34047711829384,1.4168097912204,1.37504073627382,1.37544800465463,1.46872235576933,1.39899550438887,1.47088661772675,1.45503367201158,1.45150400829466,1.4020770074073,1.40091237764208,1.45751422400361,1.43474233280166,1.39314855795234,1.38266461951062,1.39906111630388,1.3952767721243,1.36343207613673,1.37803323167012,1.38981455032198,1.43352591647398,1.39907761308284,1.39499322571269,1.40535843951763,1.40031265801902,1.39282819778588,1.39242139027363,1.37588053194463,1.36676444970245,1.33665787403452,1.36779810629462,1.36627688898648,1.38027679755541,1.31804946136553,1.31630705462653,1.32828443961836,1.31133311345664,1.31194825390678,1.30251311098351,1.2917120226014,1.29165899952841,1.26869058363208,1.27311272417572,1.28571981743353,1.33793749828125,1.27522609251116,1.28982136789161,1.29146078257863,1.23232007696763,1.23247971170557,1.22513495143184,1.22552888847364,1.22606368886537,1.22491556182284,1.19794793061584,1.20806336054012,1.1928746213711,1.18737555297537,1.17102788804027,1.20059687141611,1.20068174904725,1.12258507170165,1.07212357602403,1.0508155359916,1.06668918650229,1.04105712273625,0.942878918729208,0.945088682547345,0.945463420359059
0.832909032507082,0.829276439458291,0.811958899719001,0.80097701708897,0.796986555456233,0.793829118808094,0.794479794553895,0.79519015982771,0.788317058306074,0.782556805783624,0.781429342402068,0.775204022647239,0.775587415674775,0.619161760521504,0.576589226001631,0.576228086865531,0.564364080979782,0.560952186672474,0.557715728635167,0.532438818702803,0.533111347034042,0.533408944074823,0.533406673655739,0.533202993306668,0.515824522929611,0.516118969479511,0.517277182050636,0.518054808183172,0.508065403653188,0.508469346919627,0.508081721103059,0.50193350922701,0.492890963123882,0.490673481107177,0.482640920895013,0.48066731947436,0.47979392833115,0.479715554069034,0.469984228041649,0.469677994123096,0.468779547292647,0.468482296963401,0.4576649917081,0.454794903161515,0.44930097303722,0.442902820354356,0.426328657918343,0.433123836693157,0.43779681777006,0.452817152623444,0.470156318432876,0.469156479066298,0.489964019786877,0.501170652193939,0.503448806250749,0.532177471153748,0.546687224134727,0.565145991144199,0.595792518630641,0.624696446676471,0.651809394979223,0.682468004829549,0.760954228928997,0.810917904137335,0.874810054785076,0.910276974036998,0.962257203476801,0.996525981869214,1.02906573243787,1.05704516832393,1.08385029164581,1.11072865810721,1.11479387832178,1.16865763582888,1.1647455173017,1.15593730122316,1.15788075368458,1.15913358219043,1.15639960937573,1.15418555901166,1.1741320177471,1.17952238442357,1.20129505332435,1.21005818149691,1.21325011593503,1.2247480496212,1.23137325864803,1.23831708683548,1.25469985949283,1.29165839512486,1.29776575021977,1.29971764824954,1.31148724902596,1.32561481196443,1.32828660251695,1.32974444305934,1.33252468374275,1.33814875587494,1.33745696634089,1.36372451923059,1.36939006606527,1.37828739405392,1.37677548997479,1.37672306780389,1.43309804946149,1.43361423151363,1.44251773287491,1.4378463043766,1.43568906119465,1.41884733573279,1.4160065610293,1.41376450748613,1.41290304973942,1.39173401759527,1.38999281976605,1.38691460304503,1.38522247148675,1.36518101859558,1.36686118312209,1.3813786539429,1.3870613246126,1.39439161621517,1.39824459668156,1.40265333396708,1.40115574935373,1.3918682675628,1.38838964415314,1.37319668292179,1.37198954345562,1.35610913295617,1.36864365401339,1.36653020018801,1.37459524801868,1.31900468690464,1.3212218175408,1.32371700440583,1.31638209082657,1.30944592696233,1.30770378258302,1.28688057626463,1.28186536690508,1.27016188529215,1.27072480960875,1.28341250009201,1.30168006823533,1.29271972721271,1.26518391182846,1.25206686533658,1.23038331661338,1.22751634674384,1.22457364389054,1.2242194709978,1.22416139905394,1.22386805502632,1.20846514408601,1.20425448961329,1.18652953715559,1.17574819358418,1.16801068915989,1.14950979717316,1.13263887783996,1.11370162938115,1.05515871051112,1.04661888743427,1.02028118640436,0.983135753341997,0.930704762448659,0.917187153177449,0.891968369666738
0.84111167725893,0.852266488265002,0.814360598102703,0.798495410223013,0.794044738129017,0.79431037468301,0.794788099072462,0.795323030763647,0.78204194651371,0.779645730151091,0.778802403699999,0.773644914652171,0.773575968713081,0.00447551612324999,0.575459489214233,0.573447198326661,0.558901632684428,0.558132765160398,0.553804581497953,0.531770837361379,0.532924925337316,0.534011656031939,0.533621395825078,0.533459720906715,0.515930870814515,0.515717802868888,0.516653568499622,0.516806968683344,0.507862839806854,0.507774634989368,0.505806373633552,0.500545232795624,0.499734186224461,0.489074452508234,0.482551554037946,0.481611499542581,0.479217288044291,0.478931533835383,0.471825400617592,0.468119425663894,0.46729905576846,0.466186647239113,0.446982048085903,0.447462934745257,0.447786163203774,0.436594960936837,0.411055628039059,0.43022704423694,0.434739340024197,0.45578926576906,0.470831123954301,0.460190950530537,0.480950286471727,0.511663126150882,0.505379415638998,0.546213281739508,0.543519561882176,0.560575149071908,0.602238255635227,0.598287007370712,0.64307153153281,0.672819644819431,0.773406529287197,0.772795728584024,0.884751709700073,0.904977452955797,0.921089713480765,0.960671925524369,0.999958141170898,1.03424790750698,1.05047347575348,1.09810709373116,1.11065424216105,1.1740498888936,1.14015637700843,1.14721984195981,1.14604686963761,1.15152178111599,1.15397256299714,1.15399802905592,1.17176221389693,1.18254191827946,1.25518967784408,1.25136227513246,1.21936036060171,1.20547924633964,1.29678173583605,1.24649543826175,1.24692183380176,1.29563050271278,1.26297942363585,1.27107652865184,1.28905268748279,1.32301677363468,1.30755683663407,1.32217472273079,1.32332607942075,1.33811836827664,1.33685491108222,1.41574062194446,1.41426110147498,1.37737133520077,1.37778805492111,1.37935912658104,1.43587271434465,1.43606211293787,1.45306403431482,1.43575345703179,1.43514929881513,1.42391076950508,1.46049733825759,1.38251321192524,1.38318151907902,1.38643546410732,1.41887207319102,1.38877618008972,1.38566497307513,1.363410363899,1.36390593220629,1.36429678486749,1.38014388422571,1.44140360140559,1.43333547931709,1.43315648968882,1.40207793171002,1.39024441209438,1.35684092945134,1.35644777292404,1.37475937748553,1.33740291575506,1.3720248726135,1.31952530459491,1.382543679736,1.31899996993431,1.32309036588026,1.32311469550619,1.32276200476668,1.30961258263259,1.33656820023951,1.26572257681175,1.25388287922058,1.26782092457837,1.26575196603075,1.28147563856499,1.317484572071,1.31501236757644,1.19933709061588,1.1993931799284,1.22700697113984,1.22310810313195,1.22176069812226,1.22295556697285,1.22282268548966,1.22262292806191,1.24238983421712,1.19981574093464,1.18005975686997,1.16568098750859,1.16331457629024,1.10461413769434,1.10854645390961,1.1027859454669,1.01899251643223,1.03813420855357,0.998912086609585,0.936908044831627,0.922747822278816,0.884221982758574,0.861548055268498
1.21316316848445,0.985923937819099,1.35695467043936,0.00378818286697779,0.841116131113913,0.792390816639142,0.874305924412142,0.783326091562631,0.783015083701844,0.781423937300512,0.779948459441169,0.614699838816791,0.613532484345689,0.570831910506303,0.573501792495896,0.560382113822404,0.558890998004459,0.557035066955296,0.552592636807065,0.53089860106162,0.531320002989178,0.531104668489491,0.533768232546368,0.53276300349136,0.516727978990355,0.516000618492521,0.516671525826726,0.516798802232976,0.508096801912682,0.50689142265774,0.504364048735877,0.500972718526902,0.669478112442467,0.487960789025668,0.481127945299915,0.479523848833833,0.479037442794518,0.477710949778072,0.470719602760417,0.469196236105096,0.4686073980943,0.465472175395319,0.447747904661535,0.450181545049845,0.489317432428963,0.413868613427319,0.420856750383527,0.447036830306723,0.434672612765761,0.418283100479341,0.416965207161001,0.441993260140841,0.441391984847875,0.517320259743499,0.517820172805045,0.518569857256068,0.561098395700533,0.548469149247528,0.569850892335703,0.600777453295279,0.651184372211535,0.671565214507356,0.697694639837083,0.743730529491196,0.786118132742016,0.83743159599221,0.837555810277786,0.8456287053899,0.893895652514801,0.935205725219476,0.997776654902417,1.05335349696091,1.08445019711726,1.13896553899148,1.15199224400455,1.1470287149451,1.14550337608984,1.18561837319923,1.12893533562224,1.13376268923306,1.14476621745375,1.1450753685625,1.17941007685223,1.25733278060964,1.22287202457337,1.22763393999651,1.29600140846646,1.29600356977648,1.22065677304813,1.22075752710345,1.33127322905074,1.2720180285537,1.27440621984777,1.26812586066183,1.26479581389394,1.35680626047932,1.31123057802314,1.3316808342215,1.3345360550563,1.33421335948273,1.31905849072642,1.31862382613161,1.33747069807741,1.32963096822202,1.33046552313812,1.46913917237664,1.3647878129683,1.36611148696927,1.36952528960994,1.35827611611471,1.35870190978089,1.3580722241113,1.40128586239511,1.41386568624879,1.37606479429244,1.40342467751437,1.35378735900973,1.35507130079991,1.35034431407832,1.35020654981079,1.36679446869026,1.37976212112402,1.37768142466,1.37742569970863,1.43076618739967,1.36716919291603,1.3560945363202,1.40686694653148,1.36724858379051,1.34937804841742,1.29209673371458,1.29180360968914,1.29057558186878,1.35072191403544,1.31024927173137,1.32885644307448,1.30898993233628,1.2470974040511,1.24771428223906,1.25122164759701,1.22853416964795,1.22783069596428,1.23576127191226,1.23341674986523,1.28475622072074,1.22937692775266,1.1998065717632,1.19211297185152,1.210088012967,1.23992660024771,1.25910226639879,1.21941382828999,1.26550344798167,1.22297109767017,1.24070095915249,1.20623660088966,1.24262600986941,1.19973482995998,1.1486823705367,1.09464001871209,1.10609123403285,1.04250677020009,1.01940004317712,0.964882582985771,0.991325698207373,0.914194360124669,0.897117721733261,0.884146375729318,0.862989057036583
0.760140649955933,1.33109750950723,0.829026395955741,0.830894960378158,0.77220087116657,0.772718965497712,0.782225286754044,0.782912736700584,0.783747338099194,0.829262156311208,1.10251000754883,0.613087494550269,0.570288964574619,0.570531428002096,0.570593962575827,0.560901541317194,0.553908395742395,0.554644230131636,0.530429062006092,0.531011450082088,0.53029028776267,0.530632484294067,0.52927870989217,0.521476806118812,0.516251065002841,0.515704972445448,0.514741536716272,0.506194729302112,0.506160935625292,0.506450441520751,0.499385915565527,0.495494016025782,0.485776048028486,0.485676908807608,0.482283998152308,0.480405258696596,0.478494139937424,0.478607051874628,0.478065692645708,0.46944645397974,0.468603769108979,0.466365494317111,0.460396060332405,0.468187097794626,0.499422097653793,0.45148744242655,0.427959312048113,0.43502232349569,0.447353209765396,0.410159001399866,0.409322090765891,0.42065220984657,0.441299698340777,0.466526714277707,0.49154027827806,0.515856385329836,0.515529965102708,0.550418443099986,0.557699520469217,0.59303735138574,0.65212442769549,0.673403318333741,0.701803677666196,0.702508518892934,0.75464756915903,0.793001101774774,0.795329551762409,0.793233981931356,0.825193184340898,0.891067075281919,0.911548068630018,1.00487840253608,1.14142262919958,1.10306746075362,1.11059333390535,1.16478275281349,1.1177685031124,1.11531105098841,1.11250681758235,1.1125791669852,1.12661295802897,1.13785489032107,1.16049402310669,1.16796356317011,1.2228319152643,1.3150524706381,1.19689557574217,1.19737620506085,1.18759618758296,1.20675402928584,1.34203464845604,1.34162384058165,1.31309462070801,1.3400421664226,1.26375413891674,1.28600484197087,1.3075527184648,1.34365535397876,1.35343362350413,1.36850900897028,1.31847484167513,1.31796463855593,1.35399367246365,1.3178095524832,1.3341526789058,1.35030008429112,1.36832157198249,1.36889701532563,1.36283106882233,1.35713142547983,1.35708194017374,1.35751304228674,1.39412138676982,1.39466584095083,1.39435837746903,1.35668594904632,1.35147922899173,1.35446921883849,1.35018520073885,1.34993596241107,1.34941794313092,1.34958829335324,1.36480339457616,1.36579384768189,1.37901788814993,1.36620211706841,1.37310261405904,1.37263463190328,1.31929578276059,1.29182727837886,1.29160675964403,1.29192671356342,1.32806689038911,1.30427232329795,1.30398246765187,1.33572558703507,1.300326995503,1.24991966674465,1.2501004997768,1.21963846804802,1.25464801508941,1.21420247470063,1.2171275325931,1.27156613238548,1.20542128858704,1.19540939669491,1.19468291392417,1.16967149579321,1.18389205907437,1.18389690681122,1.22194720593593,1.24235389204669,1.21829568297032,1.25697081045569,1.27020168802128,1.27007680629723,1.2350578263108,1.1619751318145,1.14869214500074,1.11028935625538,1.07899182194813,1.03068668694841,1.01096483694838,0.965314234301656,0.916848681412289,0.915426824479537,0.841778713005505,0.84384704857158,0.802526037117769
0.760345608099079,0.758868619133096,0.760286388228777,0.852780625358437,0.772658948854174,0.772996004331003,0.845289088171151,0.888639325001866,0.0042092619286891,0.831283726035071,0.00429034307414902,0.00433158743907976,0.57040269419433,0.569689420838778,0.569529077426453,0.560440386749418,0.553206456658893,0.542070237234996,0.529537227247074,0.529446265473589,0.530929541815405,0.530242532482026,0.522181770586717,0.520732164482765,0.519858873483592,0.514432170351035,0.51380664491463,0.505912318943288,0.50558985382579,0.505031881358702,0.497473371470253,0.496042018565069,0.487300988463824,0.486122576885387,0.485341175065786,0.479432508113753,0.479295913346731,0.478031715597389,0.476986833639169,0.469443532124223,0.469233099939061,0.464332139290895,0.462836999828712,0.681485921107624,0.465807824334409,0.440610222880508,0.446301646727665,0.460636996470224,0.427400189675539,0.428656452956497,0.415251345018531,0.42176036949351,0.420351024782093,0.469522373630945,0.467505927421909,0.515726183321032,0.505509982168682,0.522172740810988,0.555703096817941,0.570750036324396,0.597320470167964,0.596954982150654,0.635607785754426,0.69552363226786,0.695751859203803,0.740739599515336,0.77344632714228,0.763834629133576,0.796971038643937,0.855702038213196,0.912900269827006,0.913082796335905,1.01206157019428,1.12152994370269,1.08332970616559,1.14306115329869,1.11001420040017,1.10339659553487,1.09255677431444,1.1031200464324,1.1286729725872,1.11645032671014,1.14327732451875,1.16229585988062,1.16703752025173,1.23586804663038,1.2345512764007,1.23669903835923,1.20113713098135,1.20080778730125,1.20901454187254,1.33643783168568,1.26050315030824,1.26099911615915,1.31998404850589,1.2749012815951,1.29319177424708,1.2727670747637,1.28880487706316,1.30906784826918,1.30814432257866,1.29910818832663,1.33921998325573,1.31408803525452,1.31204840177041,1.31331477320455,1.34182298327674,1.3536141994522,1.35399609248972,1.35634802825356,1.35599636792634,1.42243073847695,1.34232576804958,1.33515205725989,1.40467339016272,1.39706417339454,1.36036039541386,1.42046479541673,1.35942600193082,1.34984962620513,1.35912118125595,1.33149815647334,1.33077578741241,1.3400525189779,1.33956048164926,1.3416924668626,1.40346852501922,1.30807665026604,1.30263701240799,1.2932411524816,1.33825871813089,1.31273802598948,1.31437249551053,1.34072255593618,1.33838056049343,1.32188198560201,1.27605093889731,1.26278232051856,1.22030076064246,1.21945018937768,1.23134485866369,1.22283049779624,1.22200544684837,1.21251197407208,1.19997677337012,1.19909252619856,1.17752634592485,1.17652517081344,1.18461200426149,1.19656201475931,1.23687932396324,1.23767528735414,1.23919662041977,1.22171441106042,1.25929886110514,1.25966129784776,1.20626131637747,1.23638103877924,1.19113030393643,1.14175550217143,1.07719671877475,1.04039063995407,1.02706824022113,0.968135798705216,0.902892579264184,0.857929141612851,0.863228016315577,0.838803410047271,0.818696453884089
0.746023877817392,0.854584269680104,1.22255976276037,1.06931354097285,1.15854015211067,0.00416600607255142,0.874686145851949,0.00402815707020172,0.003878943064482,0.00452235880038929,0.841818262132154,0.573549396894431,0.571750486514695,0.570268895796505,0.553950356988373,0.54725122372826,0.546821740734049,0.545260264675251,0.542479402988864,0.53088256620125,0.52896254439423,0.528054561227555,0.523725542546808,0.518695420957822,0.516801557226414,0.51472347467587,0.506269220255428,0.506343266747606,0.505167587959391,0.498498487990092,0.497297112482191,0.496650177883901,0.488278414902171,0.487628409851702,0.486263614371687,0.478667178253495,0.478257617979938,0.477532408582792,0.475985111474311,0.469668149027046,0.467107144418257,0.465737883746282,0.464100719693884,0.46308187832995,0.440585241558206,0.454054709653813,0.454072413558,0.436659479527388,0.451983285816252,0.427253289837198,0.439450184818572,0.437854763473541,0.435666217306952,0.46133800445364,0.467870576147904,0.489082792447871,0.501429763450154,0.518549084031349,0.556377180326037,0.557766686579862,0.584602381817525,0.60683299237052,0.606850068627065,0.674594267370052,0.664888386232791,0.692493741128755,0.760106640132624,0.746903224227671,0.783902171035076,0.818931316973375,0.911255184862127,0.913719809468129,0.999838249168335,1.11192685350297,1.11297365352694,1.15754371010309,1.11060503795659,1.10594156565096,1.09278196790348,1.09496002578123,1.09524360983247,1.12886965069441,1.13336611728696,1.14490541633167,1.13723543231865,1.13751255334404,1.14578208394486,1.1461974659495,1.14744807438011,1.18353627140828,1.21126746383568,1.24430673665635,1.33865276190957,1.26458707890857,1.2659952183601,1.26623046201671,1.27151648123941,1.27367300195561,1.27489944886272,1.27684403460179,1.27591707702263,1.30564686793968,1.30197251870256,1.30086117998668,1.32423410489761,1.32731609560675,1.34047671475099,1.35397304541321,1.35399134487469,1.37621409338275,1.37581377800478,1.40227394248225,1.33059080690591,1.32536413569958,1.34408069423502,1.30841788860885,1.31112799374039,1.38261462622415,1.35999227160298,1.35999250783476,1.36998204156662,1.3317141985494,1.33113766982684,1.35310823652661,1.37944443293729,1.31656966634669,1.31709847619259,1.31709316314377,1.29532690397959,1.3110565549628,1.33864946950692,1.31232403015342,1.33397346056469,1.3335895640992,1.27298744631203,1.27241205993624,1.27165020225699,1.26324438472742,1.25510367807437,1.22709050348794,1.19986684994327,1.19890925812195,1.20059500473335,1.17835171098292,1.19376390394841,1.20224157554991,1.17887789046664,1.18723630343341,1.17118056395187,1.18086034795073,1.15965491398241,1.19095126347432,1.19746346338998,1.22166856588933,1.19846053133703,1.24546004595862,1.15700702788141,1.15607619983168,1.14544265523567,1.15021841313805,1.09134920676898,1.01734386027223,0.9810927905868,0.885797187742914,0.861559031314875,0.8582777042355,0.828421326776075,0.77900992644967,0.77881007342538
1.16464956800504,0.866066244390058,0.00416498633229896,0.826336328677249,0.836797797653968,1.02814942128895,0.859288320834179,1.13405532985519,0.0045393576990785,0.00699126640896616,0.0045209129562911,0.581361436902543,0.571229148457375,0.91059283279987,0.542846431120431,0.546345517675709,0.545443397525194,0.544885967559972,0.526828198140495,0.529155723657731,0.528568168429648,0.527468532946891,0.518480426626008,0.517931897374538,0.517898855914814,0.512336069907159,0.505393871204275,0.50462324228981,0.504960476136622,0.499308232539996,0.498160371856246,0.496198129231181,0.489906909836311,0.488550310009716,0.477910160774115,0.477495827867275,0.477655961931133,0.477067813372681,0.475148981952113,0.472932882350213,0.465815084399443,0.46562847457169,0.46379446420418,0.463707474932908,0.465300488707867,0.469216987382054,0.462003914233847,0.457776906845932,0.447085780256299,0.512573827002757,0.426926870096918,0.426865949397719,0.42705132450315,0.465738819860613,0.466419773352755,0.489725264606611,0.496228510910311,0.511114653627871,0.520231642731639,0.541150992214006,0.55816966261284,0.587348978032985,0.61910626532242,0.626414840626839,0.662201098473321,0.665092428949378,0.682051774390887,0.734047277266432,0.779480410168986,0.798170099112481,0.879833543791158,0.982894275915473,1.05720851190565,1.13712517706906,1.08650279397712,1.13605044090455,1.09064281355514,1.08467531962691,1.08616541115055,1.09669640695134,1.12130774995498,1.11763714368929,1.12570635356735,1.13565261653285,1.12811325466034,1.12827495302741,1.12830008655444,1.12857216948757,1.13891783678419,1.15771290546248,1.17170190606595,1.24929403860847,1.31704423349857,1.26569415070175,1.26659865280389,1.28772823903746,1.28376892983423,1.28541221045388,1.27596031334981,1.27645260476724,1.27635474546213,1.27758104027723,1.29671690575863,1.31841973163719,1.30411945455754,1.31190280534664,1.37296884139283,1.31561054118163,1.31570027805307,1.35799432577126,1.37542637707014,1.35742944988555,1.30000941608089,1.30397443255429,1.3030440033248,1.30161440960422,1.30765617453004,1.32518476132165,1.36072089582866,1.36005308732196,1.3514422723984,1.38709243825582,1.32241088827275,1.31153667317567,1.31056172469283,1.30969607809852,1.33750030887943,1.33831693104837,1.30005027216381,1.29956639176574,1.34904495091943,1.34951066346514,1.35999267809161,1.35944525580489,1.26111933817798,1.2636180550318,1.24661765630751,1.26472687369906,1.23500649926468,1.20557143894274,1.20102541250198,1.16793530482008,1.16796816580775,1.17033598887371,1.1686269984202,1.15799595006849,1.15617574242199,1.15669041102856,1.15805571910287,1.15927681165707,1.14151767099467,1.13053651187511,1.1668392752282,1.17796700875835,1.18526401734098,1.15230597982691,1.12801365967419,1.13087949287834,1.11608986830541,1.10007137279313,1.04424966036151,0.982384755598905,0.98196522929719,0.888698300500226,0.863133567688427,0.776711567448347,0.777253895991609,0.754556303338096,0.754816874805671
1.33110695332058,1.00531281794984,1.21402255549863,0.00411186552670401,0.985897800394016,0.00415247563012765,0.979050304382293,1.14405906917613,0.830898806850108,0.00463433738728119,0.0144513780422801,1.02199205498955,0.792716312081494,0.538736380381114,0.538391919733848,0.538923568392567,0.543760197229777,0.526070854491435,0.525081828319617,0.524095511655352,0.521461215337842,0.519087111975464,0.517756879709423,0.517612939346919,0.516158343938681,0.511989071593986,0.503427068538284,0.503723778578526,0.501855223521667,0.500152218393722,0.497210938563042,0.488537920676544,0.487413234978326,0.475992722437567,0.476323938989065,0.476141675982174,0.476462794271827,0.463717286303996,0.463905464329444,0.461873980438611,0.464613910997735,0.464951271208443,0.464437434910798,0.462934543227013,0.463376281720358,0.462855073083217,0.470455680668853,0.457926555568141,0.447055401191737,0.446305412715334,0.450509202955413,0.444881117048997,0.435680625203392,0.460017141503338,0.473345921258777,0.471727253243558,0.489863045689266,0.508641562559934,0.512957300865028,0.525017838335454,0.55790422726205,0.583654241991953,0.583691107171097,0.601097748349674,0.601308605036017,0.665837185606333,0.666055782691062,0.682673477398416,0.744329077723623,0.807149649803605,0.806876893898848,0.940060266933562,1.05951909823681,1.0964162341079,1.11882361306236,1.13413817049639,1.050376136278,1.06906217635682,1.08751228710585,1.1324456926185,1.12084120989082,1.1235013768501,1.13897695373461,1.13638465880133,1.12857196621966,1.12858790801635,1.12898787331212,1.13214468710288,1.13258138125138,1.1435248778728,1.20965019311499,1.2650136028962,1.26532702803895,1.25376289044981,1.2854520760849,1.25343340737891,1.28369101084103,1.30159980045731,1.27544391266037,1.27554022187716,1.2753839823349,1.3011667482623,1.33701599659752,1.33035493345297,1.32825450243203,1.3081045243954,1.37367397240981,1.31598987827965,1.31491072348884,1.31204653960367,1.35749450548848,1.29480015637091,1.29512482763023,1.34028058557588,1.27650674347069,1.28457715562952,1.28226181278564,1.28727557271681,1.36137868997293,1.35921644956635,1.32057184637775,1.33322193390422,1.3864065402379,1.38680947179964,1.30755789902697,1.30137875357196,1.30151767196108,1.31178366760316,1.3258896969696,1.34748307755762,1.30021490981526,1.32015484604685,1.31199744502103,1.30292539636682,1.24976868177985,1.25687248588183,1.23079993309909,1.21820400525343,1.20659439965556,1.22411314274107,1.2379793012928,1.15116773519482,1.14493926295315,1.14287689508862,1.13960820293148,1.13834657260055,1.13592406384471,1.13562121960718,1.16908930079857,1.14239499543118,1.13601732170727,1.09888274198598,1.08154131836779,1.07129075253261,1.06958824646394,1.05462080425657,1.04955599265542,1.04937320080913,1.10421860098489,1.06389259584708,0.970094564285232,0.97438301683344,0.914682430063268,0.865648523689508,0.826131948873809,0.789734504536254,0.761528128382597,0.758725396211578,0.735394300626405
0.875340661102218,0.960898095451183,0.992017201465519,0.00411227831046233,0.00434281180822092,0.838351805691119,0.871938719474153,0.852591185450771,0.88611972343482,0.00433063135208143,0.00398156560007996,0.00373635410845973,0.541153246727369,0.540027385900317,0.53709007015778,0.534438343365335,0.534698860016384,0.52530941564094,0.525512302588788,0.52276834861455,0.521108412541186,0.518827892693955,0.518415060463712,0.517762701601112,0.512958715793072,0.511994081691866,0.495158963738211,0.493881510552981,0.491464368870878,0.50056920851201,0.497442799444548,0.488866124495149,0.474746032018342,0.474643632394004,0.475112424412148,0.467637213737771,0.466157351472778,0.464586682850781,0.462993478841488,0.461487376258918,0.461604121018504,0.464458379241927,0.465859917249578,0.465060653452921,0.463419428840796,0.463466886279504,0.462275326303466,0.456581169176452,0.455565481779118,0.453975041106238,0.450170340923668,0.441127267563318,0.435087866099201,0.456341371508138,0.476643043999059,0.453360991871239,0.490929186273911,0.47661578614123,0.528687875479318,0.511129785977811,0.547427012512636,0.564266409677659,0.555431092913345,0.594716385933389,0.600540230840781,0.599810487243604,0.665807982694209,0.628550429443896,0.735141235707111,0.788681711375503,0.808240682900247,0.949504627282726,0.950145692190242,1.03529710865701,1.03667273900387,1.03673228317451,1.04536164711605,1.0664073059488,1.07472671791885,1.1058825652332,1.13116490845877,1.18893090927883,1.19047970612334,1.15368848350536,1.14448134290954,1.14810014416862,1.13359430059201,1.13464102937451,1.1351259425304,1.13032441826759,1.13920179625406,1.21818476119911,1.23718915226774,1.23743847104837,1.24672578554496,1.2955506703288,1.25257417338672,1.26568666514799,1.26575266665784,1.27706105377537,1.27527530209138,1.29301114275322,1.32124885289093,1.31917248110198,1.35798697437398,1.33983492159701,1.34034866054134,1.29579477009824,1.29667528136158,1.31467193570345,1.35996250581117,1.27903267150648,1.25613561887257,1.26938336129101,1.27747516742611,1.28497217851597,1.28395659660212,1.27485037914492,1.27177787435648,1.36306338983873,1.33392739380272,1.3220048099186,1.32116700008302,1.28913458629581,1.301141294267,1.26844832434751,1.24960756615729,1.29169445773061,1.26894560680931,1.28992773326793,1.29171592423183,1.29457309290662,1.25137702555642,1.2506228613674,1.24190646255736,1.18965621652784,1.15646926604271,1.14979012478253,1.1489583071834,1.19228557692403,1.17813475302719,1.17935391005365,1.14302455362039,1.17656757789331,1.14729634455485,1.17038154550134,1.13751456073056,1.1903576275132,1.12938410054602,1.13757192724656,1.10402876160126,1.0474315170848,1.05511169682394,1.03858966967372,1.02554573437638,1.02705699995652,1.02494649562948,0.992754539344538,1.00186424839445,0.969247159221559,0.988204988856016,0.929755713006354,0.869126218151604,0.869717817016555,0.82651851811675,0.812031182776201,0.765340168310891,0.74585128221812,0.747784582889318
1.18102393204143,0.920836465067879,0.939569492070467,0.884181255659109,0.93926576580168,0.842011592480161,1.45395207728153,0.00394453359698138,0.900436976771254,0.58724361750089,0.576798051360108,0.00406118411858417,0.542292384567907,0.533730001890685,0.534333559907939,0.533252099337826,0.534087822955013,0.534073590828544,0.526950737721047,0.520109175347314,0.514304550659944,0.517941874536563,0.517587260915292,0.517471928185958,0.515660354344564,0.510678281301344,0.494469870120958,0.495517222588893,0.489765611876735,0.489261215754174,0.486929848992523,0.487665415918474,0.474880147269543,0.474666488890521,0.474812346291317,0.466957868107228,0.466227839291526,0.465804854425706,0.464542618543399,0.46269360140978,0.46280287678585,0.464423473667765,0.465727835793959,0.465417802034381,0.464248340922146,0.463570748981768,0.463196411665995,0.462502973335425,0.460658063039554,0.456947900375121,0.452700070175133,0.448417454094815,0.436980916631066,0.425007204784033,0.45101051660498,0.479234169344551,0.486062401109553,0.474504511667412,0.491759473961772,0.519983766170255,0.547358121026816,0.528643337943073,0.556811135036195,0.556400532195779,0.570784764439121,0.620763465720323,0.620920272866206,0.628823420718896,0.730555249581453,0.744520605593464,0.816444026344662,0.949391414858856,0.93890786711111,0.987389152032603,1.00158273255278,1.00148681092303,1.01862279335023,1.08564665976813,1.13186988257916,1.12096379980546,1.18068114147203,1.14216262956151,1.14556508455228,1.14591254650138,1.19872488403248,1.13912422175919,1.13406836674427,1.12909860316478,1.12906491566182,1.12967276177167,1.15691575769906,1.2197717669816,1.20429793117537,1.24772505826132,1.24791065014542,1.2527674345576,1.28471458821117,1.29285157506041,1.27754667106483,1.27688659062224,1.28306022226963,1.2911519987866,1.30324215635731,1.31190149256302,1.28548010411096,1.28591889102338,1.3029545468369,1.29400352358898,1.29720250672554,1.27896838402759,1.3005124817165,1.31583923974408,1.24629255601854,1.24664115797726,1.24843333642801,1.2552854777346,1.25671308302269,1.26289672078185,1.27539906611154,1.29293371315668,1.31681860810984,1.31035107976403,1.29121489943446,1.28927797709686,1.29567848797736,1.24395693603441,1.24492968966461,1.25653851394874,1.25513472523043,1.2732585549054,1.25670898407304,1.23019797035618,1.32417533468034,1.25070432865146,1.16403398859182,1.1551989804638,1.1212751749436,1.13334202406923,1.12483666439737,1.1146165343497,1.11588027390934,1.11747479511344,1.11919511102014,1.16203338927322,1.10832641669594,1.16884549670222,1.15155429021818,1.13803094171824,1.12964027972639,1.14075854617306,1.05147317078629,1.05018558231268,1.03197285702911,0.985486613470222,0.971589181198174,0.979841373845462,0.972023755090481,0.971595086534436,0.963842006191067,0.991053527668215,0.914727774360784,0.895290603782017,0.871177674849942,0.831406718440426,0.828613085624022,0.762863275899447,0.750905361802943,0.755762212648678,0.714981460989699
0.942532068979925,0.928880047589791,0.934636809575988,0.908249416565601,0.948774637898202,0.95363502736126,0.957158237369383,0.587043931839819,0.585372212086711,0.58298445131431,0.564880155733501,0.549188872865847,0.546127274580667,0.532837660926512,0.53278802113272,0.532634113385972,0.533671113656299,0.533249722544902,0.530554840420394,0.517569645880152,0.515990070610546,0.516905108755057,0.517231234358451,0.51696981527171,0.516475985953097,0.501739297856525,0.492970282439436,0.491074563996134,0.489134501650435,0.487929619217004,0.486815357978376,0.486489333038882,0.473584058372766,0.472232412831562,0.469625353901434,0.467716184558873,0.466436006622964,0.465477969657963,0.464243549074519,0.463501842960576,0.463380405777435,0.46416215960711,0.464558743270408,0.465215038132099,0.464602434517763,0.463792968810767,0.46276403578726,0.461438246065783,0.459517254749082,0.457289182844259,0.455149229079686,0.446032570485883,0.440329837011603,0.433113939480461,0.443371566204558,0.462153589073009,0.480237626777164,0.481254386801669,0.486160814457892,0.498787062926701,0.510493641564181,0.523322243398756,0.537251167712017,0.54869279010549,0.56138873716603,0.620081523412612,0.620884446418271,0.636601064586155,0.725012816775183,0.748741733175081,0.803911642577403,0.862893306636372,0.890697339870832,0.919582425961197,0.956323273569574,0.982708748947341,1.01440123861492,1.07263717272487,1.11226421585988,1.11640543298901,1.15039417284593,1.14803042690096,1.14633835062015,1.14597670180181,1.14635934962714,1.14164536604178,1.13218979221751,1.13065479093256,1.12952006573156,1.16175090898679,1.17985258610363,1.20873298199013,1.21108759913055,1.23220438561222,1.24619436185471,1.24987322368144,1.26296780213561,1.27529813313175,1.27850192154216,1.28056382346835,1.28355664436643,1.28704415761876,1.29634524659235,1.29163713323598,1.28676814992181,1.28584880495783,1.28560133598258,1.28545453235668,1.28500759235322,1.27962670206037,1.28125054284525,1.28297792039673,1.2477449852944,1.24831999678831,1.24949718686704,1.25235223144287,1.25874638037707,1.2608944851524,1.26708770738926,1.30850459670394,1.31624408876976,1.31343976665177,1.3069208579774,1.27564922424833,1.26067186508312,1.24438917959032,1.24451887596984,1.25126695319827,1.25247982624253,1.26773673275818,1.26529955426797,1.22108558915979,1.21726673028396,1.20459228086337,1.15908430889394,1.14492823805951,1.13461190737408,1.12358341496434,1.12161266208679,1.1138895073207,1.11447077996932,1.11360084209348,1.11228206826189,1.11078963789478,1.10836731832122,1.10743874332799,1.10729275246447,1.10841281737967,1.11027452674645,1.07613174704602,1.03843301286842,1.03034664090401,1.0202331446635,0.974709952020364,0.96904549137718,0.959364220957251,0.949252282543585,0.938840169962755,0.92896584006383,0.920915177042391,0.916694026163674,0.891597535616043,0.849838103137377,0.826685051512354,0.800425479210284,0.764352215638505,0.738956282063715,0.729262933473843,0.718591765184474
0.76386066177011,0.764426528714035,0.93956817952909,0.00419200000694962,1.07411172948922,0.979049383378213,0.988665534067622,0.588417896701177,0.00387463096489844,0.577188882158272,0.548643401198173,0.552316064894143,0.552067594153821,0.531731818969985,0.530945309013154,0.530342586444207,0.534697642038664,0.534153009266114,0.534391756730407,0.515267224666288,0.515755523953249,0.517288860938917,0.517565122963353,0.516948893214415,0.516356671508481,0.48917154507749,0.488927755808663,0.487070279147598,0.488179557256799,0.486116027505749,0.486332082855942,0.485527775415311,0.472500752941701,0.46968940995095,0.468088329369887,0.466404772414743,0.467164939400764,0.464544489362199,0.464446982535963,0.462743355451968,0.464013039649604,0.463316813451326,0.464028316068196,0.465550475309417,0.465662110782825,0.464017155743938,0.462668864691089,0.461555050600286,0.459228519364639,0.457099904286707,0.456147101548704,0.443404826759097,0.443609906045015,0.427772567215442,0.440105555380122,0.447744523273343,0.481521136166009,0.481770807018453,0.469115744991547,0.482155798852055,0.479844754482022,0.499767882906448,0.508390316883601,0.542673807144572,0.554728611537516,0.618949092076161,0.614944204990554,0.65324670690192,0.71554898551488,0.753109843724446,0.792822747464976,0.83807069356774,0.853657028006402,0.885084617914857,0.931056756489841,0.956337230045895,1.0101757170191,1.06114189882845,1.10776649431908,1.1064574337762,1.15380486008111,1.16824288112394,1.19375001885678,1.14556468515333,1.14581162456713,1.14475634673935,1.13151652228344,1.13063181288782,1.13015211079647,1.19905336412722,1.1962757759448,1.20736657945495,1.21348668442048,1.2196622256575,1.24456297253672,1.23598655220568,1.23770512539117,1.27196853558802,1.30094718061,1.32484444429017,1.3410351066959,1.27561467923446,1.32750591158319,1.28156815787314,1.29090561145647,1.2850941401382,1.28582895638022,1.28551537217242,1.28463207201882,1.27244484436482,1.27416752254585,1.28327815313226,1.24878649689116,1.24923029862858,1.24898108854462,1.24864312123656,1.29380485776211,1.25992438236944,1.2471099463046,1.34069617753326,1.34201205487854,1.34812833800809,1.34827070203182,1.23243770542185,1.232440990004,1.23092664189663,1.21080890248257,1.22617048483709,1.23488759230573,1.27551457412322,1.28428034609038,1.22020797532772,1.20953593575916,1.18280928185419,1.15367266085061,1.13433349830421,1.14828100813845,1.11874999448436,1.11616956721458,1.09292560368055,1.09473678522283,1.09521311226746,1.09555868555047,1.09262325608582,1.10623376275482,1.10647155339854,1.10621007047153,1.08748754869363,1.11214405265882,1.04078940162053,1.02514812377426,1.01718785863874,1.00531383249855,0.938917592348473,0.939009981839733,0.931062462913407,0.934048023647656,0.916753559585505,0.897041996291412,0.904335421911636,0.918675334901089,0.887765093369006,0.813181528645924,0.825324917243381,0.778546865999049,0.766075214538783,0.720153792084331,0.711354894572848,0.721640885514479
0.761401670088604,0.961636204861985,0.952534398929677,0.953739588281202,1.15117397770341,0.927381525865105,0.874091975935303,0.00447906682462741,0.00438868205480564,0.549896946826548,0.548274860449396,0.547200309278577,0.532417292608334,0.531055523861108,0.530630891434382,0.528686485584624,0.527408909079841,0.533596874847641,0.53440894005983,0.516355296585179,0.514741989511143,0.516468312718291,0.516307837993311,0.515615205941014,0.502489357684418,0.489566380828129,0.488574151566708,0.488525894787412,0.487058969530794,0.484087673988005,0.485021338497118,0.484625091936788,0.467209777863465,0.468475626951586,0.466905432859953,0.466648909734632,0.464911980705198,0.464832866036062,0.463207527228973,0.464166454359232,0.462650209078812,0.46372591992515,0.464821281079836,0.466754422010335,0.465462101587447,0.46433527421019,0.462465183965694,0.461624817411376,0.458902945526707,0.482990680534123,0.435311672990225,0.458754061415838,0.466338911369003,0.443726361484379,0.442886882762498,0.449388212853771,0.44973097353183,0.480074392642606,0.478128511607591,0.483781603453031,0.480036503147065,0.49314547718304,0.52243652929859,0.520474398942182,0.573785654906476,0.60328480173557,0.602660066169487,0.633663856638377,0.729186178227474,0.726734546571438,0.79481250638129,0.795857105442604,0.814658510892448,0.835640057891716,0.86764185088936,0.914116243446994,0.914716382550359,1.03020616547219,1.07715144564139,1.09340180022266,1.16703929091668,1.13081055480634,1.13928240026456,1.13902591071144,1.12866928819943,1.12867112030102,1.12904441042886,1.12859810910318,1.15104225284531,1.157216761761,1.19637412783498,1.25118402723766,1.22085163079613,1.20770577694601,1.23929929382295,1.22733873220985,1.22633075279375,1.22660525891288,1.25794813378231,1.27500845369719,1.2755071418991,1.27465109126186,1.27249842261461,1.2728990877921,1.26116696163866,1.25271473559857,1.26057802514503,1.25994713895386,1.24853791806671,1.24777376032511,1.2477149976926,1.24697239906853,1.24888936314352,1.2488463138458,1.27578754443106,1.23442744340379,1.25243273841634,1.25272796652996,1.23833746797012,1.32852931615516,1.34133903989878,1.33312130693744,1.32266168157314,1.24550865485506,1.23114135237231,1.22288070329153,1.22248732622602,1.21345167279051,1.19743202176152,1.22655380260235,1.21963904489081,1.20371743984927,1.18020311699529,1.15566630083797,1.1386032250359,1.16358710736797,1.16446814358003,1.25213778614949,1.13302525443154,1.10298675277779,1.12016581493132,1.09487953252761,1.10372212515858,1.15153959334073,1.15126258518995,1.11869380190037,1.10219105714963,1.08431553138198,1.03459881629508,1.00610724906421,0.97488632620144,0.968156132783649,0.920694017634203,0.895388846872443,0.896462878893735,0.882859997139894,0.884998205293465,0.866929349433287,0.887644511392856,0.859325932609295,0.86017072767837,0.845264429554939,0.825499657874106,0.817968435097528,0.761297243982667,0.734235964546837,0.721062086632393,0.706921098273944,0.714833338718991
0.76752362111927,0.923348112583625,0.889911285700271,1.05706637774409,0.00398476205625154,0.00395069797243252,0.589660405148433,0.586502638421997,0.0041509837876321,0.548727011539629,0.547580082502624,0.547216667225593,0.530366747743461,0.530489937967916,0.529418536597119,0.527646836601362,0.529447707182585,0.530972113588751,0.529257799350657,0.520195996285198,0.51301985012899,0.514843514865081,0.509968149488779,0.509309975454912,0.497355065437653,0.490027070990799,0.490001532636207,0.48844674325565,0.488701774019562,0.481518315678939,0.47976154034512,0.467937217168326,0.468150774078839,0.466831601162636,0.466609467336382,0.465545528762113,0.464089768610235,0.463391206937835,0.465704331315632,0.46332015109928,0.46440072910382,0.462982686313545,0.468778005330732,0.467764483564962,0.468680397168342,0.466836303656509,0.462156791985125,0.462008623746532,0.46199340441966,0.442376582885867,0.483693479865236,0.464204367842578,0.464433087640949,0.434601901293665,0.434103259215489,0.44990136763192,0.460920093492746,0.440327891133795,0.440115514951571,0.456527694282173,0.478107074011605,0.494310243781767,0.505805107962277,0.503298435154996,0.565635588856504,0.564434433975829,0.601462937773407,0.643189656142365,0.660765299005244,0.708817272248932,0.751816831912345,0.750995881507697,0.783443221768693,0.805536541010696,0.785454297265471,0.839050574506695,0.897061316362645,0.978010753576288,1.07552709722147,1.11477526787045,1.14029244397101,1.20431503440788,1.17111046464315,1.14098438719225,1.18981879671239,1.12906871857886,1.12854101761302,1.12917333210487,1.15973633791292,1.19345844947578,1.20748588233503,1.21952689516255,1.21949354701839,1.22622389203852,1.21493464663577,1.21651083784974,1.20033448301807,1.22848296386625,1.20832519717392,1.22395420054517,1.27313870958996,1.30432422421858,1.25741672430779,1.24720664858302,1.23951015583184,1.24150879541374,1.23066262896458,1.2303250443889,1.25709965975064,1.25688780233027,1.2803065604427,1.24670283391277,1.24677506998451,1.24916637712378,1.23789865839535,1.25916445325665,1.21639646103955,1.21643735619351,1.23809384736616,1.24457781941027,1.34288206208019,1.29471862523721,1.26058828773375,1.26136931775879,1.25930035335287,1.21288678625742,1.21289098586878,1.23399314240074,1.19830456774053,1.22852202914477,1.24278607318185,1.14818964519255,1.16499772415164,1.15475382619767,1.16322003779774,1.14859388981506,1.14744272373559,1.14605924237091,1.12293411641526,1.07658836855892,1.07744151419251,1.07053914316686,1.07687047850236,1.12604312738966,1.07941687845238,1.09370970469578,1.10183558365161,1.08413486923712,1.02834550389798,0.998955721707946,0.974690816613387,0.941093113333399,0.907217379841783,0.870667231636235,0.870756419774456,0.850866823305696,0.850683339187124,0.83600849966074,0.834997929173819,0.828420489627916,0.810496997886323,0.807831816349539,0.80869334452092,0.769053875440641,0.753889667983643,0.727023837179029,0.711049530582732,0.684760273059316,0.650496597731692
0.83545827993193,0.852650010783876,1.04121614948729,0.955346449191363,0.972646551298598,0.00408309252778853,0.589588554426269,0.00386852518001605,0.539661219550164,0.539314297700696,0.538244750167761,0.529327577682348,0.530634938980937,0.530342281885372,0.53026481227405,0.528000920248094,0.527447198514936,0.525651852042935,0.521286198314425,0.511686698581368,0.511573631605421,0.511102041859737,0.509758194609748,0.504344266411724,0.490656771420398,0.490445191622341,0.489403645914192,0.488850402332698,0.481341936354617,0.48040103812547,0.478699236899654,0.46832062972361,0.468257903562496,0.457612392181976,0.457253412935007,0.456818085413318,0.461942420983206,0.463012467306513,0.465834397441695,0.465565663334251,0.46395849368795,0.464773887757746,0.469033798058244,0.470196993853779,0.468988280303944,0.470183912717587,0.461835129615015,0.472141869596041,0.51208197409821,0.465709530630594,0.485797605925972,0.469312298109268,0.48241494760271,0.482074930294739,0.458380822547077,0.459327840391359,0.450902538418812,0.44403133410836,0.441335708669769,0.458658338344627,0.492044731504946,0.523920850118264,0.500164738398184,0.50070239476381,0.541962637305119,0.5574502699802,0.600040100764364,0.623706154734533,0.640455526168701,0.659595596891127,0.681207909768115,0.6908192752108,0.731378013082786,0.779815783029773,0.784404271291137,0.822762476123078,0.916738997588878,0.916485314497322,1.01096796261004,1.0085547433683,1.09303776071375,1.05633352624934,1.06555113007619,1.06606149414073,1.08986340155789,1.11863669105154,1.12596954921087,1.1517857718558,1.15876769975156,1.16889423389518,1.32421296958046,1.22015498844882,1.22021050599715,1.25281771465554,1.21437250441426,1.19575977747927,1.19354644917674,1.21315545993754,1.1986377748972,1.22784337853675,1.26628019123563,1.23998820235695,1.24246409201893,1.23978371580878,1.22908795430591,1.23795518110622,1.23236678185035,1.30585595009209,1.27378612118317,1.27362454228382,1.3044783617601,1.24735817249552,1.24645592932213,1.24108276696649,1.25898807399161,1.21967393753841,1.21889754600245,1.23782373839149,1.22528301950049,1.2924719741057,1.31203953370119,1.2476799039054,1.26075175911711,1.26372357752091,1.21439307961875,1.2107456506784,1.20418326783923,1.19738829934593,1.1886382668301,1.17053469389554,1.18094569544869,1.15018434137545,1.14494341728638,1.12242089895243,1.12960505715818,1.18108895406913,1.18159892268,1.13361573546418,1.0821578569413,1.06353943939507,1.0467152474289,1.047326477865,1.04857848829555,1.05702414510873,1.05688739180129,1.09495456885527,1.04939786194801,1.04484937022672,1.01056868268926,1.01137989214195,0.95509772976248,0.933470284102178,0.888101473244206,0.838300781526221,0.84678314692319,0.848104893648411,0.819816527222346,0.811700620136075,0.796460899757726,0.760590826013184,0.770602189435716,0.799352886255517,0.777501311305508,0.777838509557155,0.741349690227347,0.738520898718217,0.711947847708615,0.687042505711734,0.648349442135842
1.1907341117957,1.03333302945853,1.0339125082364,0.857270868652426,0.00453442500690796,0.675570316429799,0.558215861551963,0.551347232159354,0.546790466979188,0.540723971337667,0.528311330967961,0.529576170532835,0.529844016817346,0.530915105002335,0.529672539358702,0.528463809844681,0.525747436469542,0.523176857371111,0.521027030959273,0.511161650947115,0.512044173167011,0.505968040680619,0.501974552269878,0.499781730445244,0.491494373101341,0.490364525149417,0.485474887119449,0.475814852842285,0.476538425118469,0.477172539389945,0.477352231767965,0.461105120331485,0.461884975899146,0.456996584236587,0.45797737675836,0.456364867236117,0.460312077993235,0.459100285829822,0.464379945622331,0.462681490615578,0.463860777459506,0.468181987757579,0.469945693959885,0.469362276665014,0.471435205237305,0.470538707339705,0.473580394376641,0.474581495587115,0.466437059071184,0.466723850257734,0.468735239081476,0.487071533333717,0.469996076617839,0.455917994488867,0.457010619802792,0.482749784276321,0.44649112646087,0.415582735564293,0.437686979864286,0.437507769562437,0.476200149394099,0.473516639980642,0.488871475008269,0.519549648332123,0.543237527500702,0.540366250567333,0.562725552236305,0.57469129873114,0.613221709192946,0.613543364339858,0.638556255944988,0.678800687526732,0.68982184367977,0.715339140123566,0.788097424614519,0.822827797139286,0.878825536934736,0.893536205850411,1.03533548294837,0.985563786649157,1.03439128787913,0.968215929914622,0.968322960261382,1.02188662128327,1.05644827378354,1.04968840677035,1.05116703602206,1.09714473570238,1.1475092207069,1.16162329915152,1.21939556756964,1.26198683376888,1.26259919773378,1.21898652999206,1.1860594149277,1.17378413885031,1.19631954587216,1.18157020919221,1.202191822821,1.19279029244364,1.22134770140048,1.27300821789773,1.24670528224019,1.24814011993891,1.24598751359988,1.25848421911249,1.22734182933869,1.22702969182641,1.24879997924212,1.24941914460819,1.23753464959325,1.28195799241382,1.24416879292087,1.24325692522455,1.22483054283225,1.23484129928321,1.24132430671269,1.2093448180299,1.22771072814264,1.26385775825389,1.25471827068572,1.25432846207807,1.24674349020783,1.23428992174555,1.22424607363357,1.21750969950989,1.20394215983054,1.18654910820548,1.17362363283492,1.19814001184078,1.14830163254124,1.11231932570287,1.1117841472274,1.07460169693681,1.09526645866037,1.10972095656694,1.09873382628055,1.07644040220577,1.06331988436111,1.02644348350652,1.02151695832538,1.02417560145079,1.02567082556991,1.03302473245149,1.0316225694065,1.02929334939385,1.04077963675208,1.03406671159378,0.99741211505741,0.985167995913736,0.946861766708665,0.879703185459604,0.853362874308974,0.819804692193415,0.821238091064929,0.808935033842107,0.808001141602854,0.79926625250982,0.782615562952617,0.763441014555952,0.765612535975258,0.730630686087906,0.72501833661615,0.726895802758966,0.702403036413826,0.660280693615844,0.664024114736156,0.647903817704862,0.646411599569416
0.894681377784909,0.949009549151884,0.876213255023425,0.944845024917449,1.05587645726292,0.00399371718008354,0.554547670724144,0.553497254612331,0.546938600403148,0.546186664830437,0.528817578063243,0.529299682529339,0.531022930174452,0.530519810641613,0.531217736353327,0.5249825626423,0.523866474812115,0.521718115187703,0.518377768292947,0.508631074088278,0.506292820405786,0.505511618061425,0.502257154441919,0.499879441723183,0.489262462703233,0.489177908129138,0.47416366842637,0.474011182686436,0.475179187349931,0.474077467934178,0.460603388410329,0.461406584301302,0.460788009140422,0.457197278357516,0.455354125184649,0.457788830773527,0.457533188465682,0.460219548055233,0.462076731527399,0.464844282564893,0.462714661986232,0.464328902752439,0.469458678493616,0.471180791010842,0.470811733339298,0.473722061037558,0.473507756267179,0.474415681084144,0.473743104862014,0.485058834478452,0.467266101398861,0.495437466932232,0.487978992114345,0.488282144514363,0.487529492614506,0.480968389440853,0.437561823610103,0.430536575547191,0.439245653518872,0.437522920677325,0.447155928396682,0.471539751639584,0.492557365299039,0.509937132238408,0.527889498150435,0.531297843728616,0.544012528129351,0.543666556443219,0.593523204057264,0.612054344755327,0.600988008441937,0.617579851245032,0.648583915614034,0.697936359343652,0.697399369260534,0.733731803195878,0.807119870991233,0.80887460586659,0.95505556678701,0.954803749664481,0.981138833668148,0.946659446264459,0.954722431894432,0.955082683518268,0.962667128591716,1.03107318433083,1.03623348753362,1.08079426884519,1.07159740074521,1.18943210504556,1.21419977112605,1.21365507314737,1.24453635387714,1.2749081504591,1.19635344200929,1.16763716347572,1.18373805954669,1.17393386232503,1.17284189165743,1.18131098930868,1.2750797869712,1.24225009667833,1.24084901161399,1.25190782869783,1.2350464109803,1.22946295680461,1.23002544044385,1.24097629239888,1.1969239942979,1.18946037819705,1.2136719664102,1.22980093229288,1.25518147472479,1.24285133174462,1.22924657479851,1.2162913732815,1.20852993216467,1.19319672922027,1.25025048277371,1.21891738078784,1.25123432558261,1.2475328667982,1.20827469037292,1.20958234706892,1.20983243089821,1.20840748649262,1.20078621962986,1.18986684683601,1.16947089055972,1.17312938340449,1.12253869566186,1.0865679906284,1.06117487846204,1.05779550630898,1.06424566551647,1.07857802071619,1.07112501954969,1.06061741144536,1.03077855221919,1.00450611085702,1.00513168551406,1.00944030814666,0.995366161664416,1.01815864063448,1.01971889223972,0.997707572855293,0.998593675050191,0.990177019027061,0.97230727934824,0.97211885123129,0.939306410940463,0.89087946160444,0.861566795936612,0.805866387239096,0.797647665591143,0.809400486281332,0.772230455751045,0.769180618421792,0.756698885575787,0.736728276392798,0.714002382571694,0.724625932382477,0.691517648716252,0.69139234681108,0.669009029218815,0.648676081506644,0.657658576551407,0.657745316538458,0.615181821909892
0.795515949125922,0.877288706751783,1.05183450515227,0.874707396129781,0.875568767105252,0.567285660910251,0.555246795503706,0.554352407193428,0.548487107480604,0.531277893663742,0.530122569401483,0.530417218611105,0.530429682122086,0.531218418689806,0.531320099703959,0.525107339314686,0.516746139905612,0.516266557278626,0.515690213123659,0.505306935242351,0.503566297422052,0.501955845958797,0.496416081471524,0.484857779968258,0.483216740197677,0.478004883578986,0.473836269901198,0.471502580352871,0.471077607951884,0.461782808508442,0.461845852792986,0.460665633471173,0.461624841111706,0.455630523229664,0.457293929066437,0.455995389611612,0.459408404268373,0.458087346104803,0.465103993935653,0.464056422447077,0.465679102353329,0.466740001453546,0.469893905370923,0.470164953154615,0.47432813121464,0.474019413500228,0.475560530997515,0.474806300340771,0.475369800362249,0.47548047738108,0.466925330438928,0.492608225265994,0.490879576804338,0.450807090857632,0.450487978265539,0.464273283364631,0.47978198776728,0.451693230740796,0.429128309180408,0.445818689622338,0.441199746433708,0.473107266982184,0.510266507724257,0.511575614695425,0.512160383697156,0.509076600136554,0.508442221986675,0.532214498812964,0.563147690438788,0.588606928693648,0.584438123685601,0.60664259742514,0.634484070301327,0.651847655686999,0.67818675472,0.710240007620516,0.739755352332985,0.796719027714314,0.887260648631848,0.887446405599015,0.922930035187591,0.949116039813545,0.918571463496084,0.918410289855379,0.940535474504302,0.941979141222818,0.988541069048504,1.04100990929487,1.06087522496359,1.08323400627582,1.21539745426681,1.22968651694864,1.25967693014961,1.22063933810084,1.20663955143131,1.21878579790046,1.19422968624608,1.16806528185237,1.1793740826755,1.16096373664062,1.17898135728545,1.24202603063574,1.24187817587266,1.24334831285425,1.23340320820103,1.23388637531101,1.21123560564341,1.21282861385308,1.206744288878,1.17495600311119,1.18070326457548,1.22580095452253,1.22422376125206,1.21692318324738,1.21718017383548,1.21568649541103,1.22257028585158,1.22849907902363,1.23549015948786,1.21711935825325,1.23451190062591,1.20757480290969,1.20753319867178,1.22276768895928,1.21229858601504,1.26230961614005,1.21783731837032,1.14283398666154,1.12206635008136,1.08331956622169,1.06332255198485,1.04970701611962,1.08262293771031,1.04266403451583,1.05060326001346,1.04800229707604,1.06949285384909,1.0466759875342,1.0197068048495,1.0013035682703,1.0145220584489,1.00482621757143,0.991034724152132,0.970009455418375,0.971201695481502,0.973054708993151,0.966553791781461,0.958871238520948,0.93712207988977,0.899146038391946,0.901284700084817,0.872087516152965,0.836943311221592,0.799969534796949,0.773981141399946,0.763363723591869,0.740027955068623,0.753810649819814,0.720851680664593,0.725672279617581,0.700498555235932,0.68309587170497,0.661554841133426,0.653271314142918,0.654973386914288,0.650979984293665,0.66585626309178,0.612202363041907,0.626899363015381
0.790111835155037,0.790175122492418,0.817983008386549,0.887123613630448,0.875677065822848,0.557612685118493,0.554792421271184,0.55346495251692,0.544556839407584,0.532196305071089,0.531269999989297,0.531455756399728,0.531806658434244,0.53160564232086,0.531785370913391,0.518325845429369,0.518129589786042,0.513534555632695,0.514464752514282,0.499929674821942,0.500400768666472,0.492714678782136,0.492669887672748,0.48238429559313,0.48239972120523,0.481810852391359,0.473790758070172,0.471680821648525,0.472040137156911,0.462697508025225,0.461771440321629,0.461532967916595,0.456403814658354,0.457069503179092,0.455605564109835,0.459209336666588,0.45868768972349,0.465522888316006,0.464126561154228,0.465856498998903,0.46605420383809,0.469474670341873,0.468399675304871,0.470383209003801,0.47127247111094,0.47690084262314,0.475853678300955,0.476221425469249,0.475400784171864,0.47487884008678,0.478238794536748,0.477664894507574,0.452282177986986,0.45239453195501,0.452793199349646,0.45301672148615,0.448117237964459,0.431166139401621,0.439434600568829,0.426857551033091,0.440954920378572,0.44563551280045,0.468306946382591,0.493450590009498,0.515744147147605,0.507120328233435,0.507343632975569,0.517845644120462,0.562896017176893,0.558734053928655,0.594002754960159,0.618391478459986,0.617832384504528,0.633939025052557,0.642035316192773,0.697427510559198,0.723199021333439,0.777094183593521,0.86507572752831,0.86511606788618,0.848484225640911,0.858341728801554,0.84793908947037,0.880170082641094,0.887092713281697,0.921454450934787,0.970839946177848,0.982216773081592,1.03422522772271,1.03492411404756,1.08958703106763,1.23178897123171,1.23700364465429,1.19428123845871,1.23922961564395,1.20814142216458,1.14881911409441,1.13192171446564,1.13906950324483,1.16133819065912,1.18285265134658,1.19764589527413,1.23981448066445,1.24052469855136,1.258503943,1.23674417088483,1.2153858946808,1.17197149527863,1.17245387911096,1.17208764540268,1.17894386664168,1.2007598347271,1.20051166146447,1.21325613809074,1.21326462206091,1.21364343616483,1.21329446154217,1.202121793336,1.17972509463456,1.18191126063736,1.17312939720151,1.18292752205387,1.15963139644358,1.20208651265736,1.1906361487332,1.20987652698471,1.14612393595273,1.08838185526255,1.09760435543263,1.05907122704868,1.0473287622833,1.03488579688089,1.00800091275394,1.01598940423246,1.02181655365965,1.05244070478775,1.01687519374996,1.03530322703902,1.01248043232237,1.03018729930816,0.952971082840298,0.926682101328292,0.92008055066262,0.925903482480835,0.9359773628719,0.91700754271192,0.956195365539301,0.940178287516789,0.936046067093558,0.882211032740588,0.862191982160749,0.847763869218397,0.796954219649864,0.756658241214672,0.755533467276223,0.73073489877774,0.731198179624749,0.71421930019958,0.714279459557226,0.713383089264489,0.695414031440005,0.681740535157064,0.681643460222338,0.654168555134528,0.622587851958546,0.611839404799816,0.612824554943369,0.612671370032904,0.60399171123793
0.790227758380001,0.790192213429328,0.00398292492907842,0.961891626877046,0.00423657587483699,0.55441232170732,0.553930772152302,0.547999768131446,0.531465595525639,0.531584768071183,0.531114242372668,0.518373969050188,0.51991723579062,0.520247620638258,0.520575931180256,0.518590517409337,0.515155151101813,0.510049199129842,0.662545409067641,0.495164217470688,0.49479153944038,0.49321291929932,0.481832243667891,0.481222073251541,0.480401505856885,0.468240307025685,0.466967213384017,0.465867299771753,0.464979917866571,0.460990445909115,0.460124985993323,0.459644259825671,0.45504993604674,0.454108199038035,0.454647423816408,0.459080023098567,0.460671913775078,0.462370839524673,0.465265042801857,0.464487104770929,0.466757240761383,0.467563921947534,0.468608364751395,0.46804400554242,0.475967153583308,0.475746696070007,0.476368712248403,0.475279818132205,0.475415663996452,0.480551503735995,0.477864340268001,0.477715868602597,0.45189595898329,0.451865504404373,0.451515777647951,0.452612939535415,0.448071376698136,0.446256421498175,0.434074269308645,0.441373825703311,0.455994522257142,0.479377505047022,0.48423578243388,0.494877392113263,0.494002950006428,0.518683385382014,0.510267983497537,0.510202260320719,0.509130591340544,0.522616935225505,0.543755125847236,0.574099604782876,0.576382214460371,0.627194661968411,0.626622492033506,0.695465452845248,0.704155293877406,0.748074694067686,0.775653746057865,0.842669164445975,0.818766539478721,0.819052932122225,0.841308043099802,0.84428530732535,0.843921232031978,0.880480578076219,0.949117038444523,0.96035811729509,0.998378608227621,1.00827887272616,1.11247150818087,1.16471326251065,1.2091584992872,1.15117608754712,1.18027189228364,1.13166650898534,1.13024995980348,1.13357924214256,1.13303753615117,1.13032699789578,1.14680192039122,1.19779583995828,1.17735663890349,1.24285853427915,1.18348465143368,1.18105092579829,1.21226103750871,1.15915170720988,1.14760094768782,1.14741167183495,1.17855331104127,1.18420008759645,1.18560813777417,1.21401205342057,1.21332018477776,1.21321264746158,1.26384909159264,1.16994239988609,1.17193859446957,1.17774557627701,1.17697529548494,1.16338639458193,1.12858102739962,1.13666124021111,1.23796385324555,1.17027774353568,1.13464495296661,1.07944398700689,1.06099340505926,1.02927209285881,0.981358206723216,0.980991261202421,0.982030158143979,0.956005328477686,0.962782130779924,1.00455112147788,1.01706478797103,1.01533565946784,1.00930879973748,0.94064639946478,0.940131510921287,0.890694232160888,0.889160765891454,0.847024446200779,0.89321945849162,0.846983619690377,0.878857524824635,0.903610805202334,0.910712603508182,0.893061697898621,0.852044331434298,0.825738481352712,0.779811723537171,0.75795694243913,0.743184228270925,0.730671812008337,0.715024297051672,0.707253484066728,0.717102533458159,0.68628146429394,0.650618708194772,0.636429450324795,0.625457040027886,0.587196189662245,0.590416766442005,0.600121610138612,0.587048127258601,0.607692555249561,0.59353933316828
0.789002143530664,0.790421458602968,0.45526725552543,0.455185048220676,0.455185048220514,0.455267255525031,0.543282344880008,0.536421949062661,0.531030569723871,0.53104438304423,0.526264214124167,0.51822619411162,0.518851998783276,0.519634481224479,0.519987612983854,0.516260219848085,0.512052583549607,0.510039526807465,0.496054626421394,0.493531709209896,0.491921817171481,0.488627956414148,0.479846114495119,0.479262983244796,0.47862780497795,0.46742922728891,0.46675157066406,0.465167696170038,0.464066355778677,0.461291076378618,0.459439741023231,0.457208372510246,0.454972602399073,0.454831317758898,0.456671838990069,0.458425309816129,0.459401267521874,0.461093996275756,0.462580806441473,0.465126722649933,0.466521406312066,0.467650048737996,0.467984824262556,0.469046581809497,0.472246910736458,0.474536119332107,0.474862549716582,0.475235015898519,0.476002664639279,0.477878193403503,0.477785384472356,0.47781131639465,0.46861259388062,0.459842395322897,0.451813166355807,0.451671862328445,0.449779444508064,0.444887533218384,0.443662168869163,0.442542088556463,0.445555297293841,0.45993310398937,0.473528744591619,0.481007968663444,0.490737507110301,0.494325825421696,0.500534878934951,0.505759811242414,0.517327646412879,0.523066972143511,0.541353752371199,0.561895048426442,0.57560075205134,0.603273589405935,0.626727832956874,0.665122160226457,0.696368803767765,0.722386747951355,0.751409388036585,0.780697039237401,0.794147785737518,0.809151240362457,0.821627519426074,0.831868848555432,0.843597062898768,0.874513336279962,0.939704492328259,0.945622317979164,0.987093426149122,1.01575518285604,1.12758000140957,1.17498047047667,1.17827932922878,1.14636303087194,1.13958790498788,1.13051511847464,1.13036274984963,1.13139572370918,1.13160784915338,1.14013845808617,1.15069108070977,1.15836854418527,1.16500657754753,1.17016478142339,1.17381293335034,1.19342144841306,1.20453735995401,1.15565992962669,1.15416222419835,1.15132966844596,1.17445193193085,1.19670969392919,1.20385075088952,1.21274718127282,1.21265170265028,1.21337374319513,1.22768992830515,1.16165774753381,1.15589794219555,1.14938176225299,1.1490770176791,1.145984758007,1.12947885420895,1.13261474666093,1.14537532516796,1.1522549890429,1.13331166422211,1.0864431032784,1.03322711432426,1.00642266226967,0.979689343233636,0.973374441714674,0.966360461353834,0.953810817175027,0.953118089678824,0.953753917877474,0.943362932204741,0.943720447890942,0.936204952090505,0.93499729686281,0.913924530981161,0.878936989680434,0.871389610631875,0.84418086043775,0.840987070864231,0.836795928600603,0.834557973608824,0.832360834747383,0.831002579655535,0.829487844451605,0.828904253457985,0.802707336791671,0.780910853825011,0.74808516961802,0.729411830766305,0.717550463123726,0.7077586612993,0.699266222559545,0.693116512665825,0.686684520590742,0.635668050519574,0.624691507965856,0.618498649241336,0.596560573933048,0.594224012202801,0.590018034829925,0.587356756367141,0.58611310313404,0.584031231148467
1.25337492569738,0.793212155312435,0.906941854561609,0.00423664196911262,0.658592228802416,0.00427962213234569,0.552246683280513,0.530098713292161,0.530461458101191,0.530285811649219,0.515286554661556,0.51527292533897,0.517897246645434,0.520246359014357,0.520453516475867,0.51421112097537,0.508874027360642,0.508340884300556,0.492951771476686,0.485438177368277,0.486404140006927,0.486175946078007,0.47776613246386,0.477934348357023,0.477391206930844,0.466765745539134,0.467132434384896,0.464897291542073,0.465488589656494,0.459983470020752,0.459733142668295,0.454368419028403,0.453971366723438,0.453456431082044,0.458345116097422,0.458117500460972,0.458473663824968,0.459136663680878,0.460541839804015,0.465863060440982,0.4674525694678,0.46765530522762,0.467738553591193,0.467159927669534,0.466575211093503,0.474848192585769,0.474561463816497,0.474002457271969,0.475020383699946,0.47767112181576,0.477162740580414,0.489529979533073,0.502496293185046,0.504917503981931,0.452199611728534,0.452409483455526,0.450077506457004,0.424481396429971,0.442632356405442,0.443170378326133,0.438959797201391,0.438868837493278,0.462980407405184,0.469031451477008,0.48243463993046,0.493028980463861,0.484660556938678,0.486300710830458,0.534461304425586,0.522912359499866,0.539155427060797,0.550940799519372,0.57524987565125,0.574115766065476,0.626786250798874,0.633202520981747,0.688389446714624,0.688608890211272,0.729782643987011,0.772554581322921,0.752983628790552,0.795848089923276,0.810041146192521,0.809917062493927,0.843694118444434,0.868392325739651,0.925036021019804,0.926123946662339,0.975721137768622,1.02562169100516,1.1499565081362,1.18061671633065,1.18288727830079,1.09030329033202,1.0854662137219,1.07722418815633,1.07950486211056,1.10665379093686,1.11295586090995,1.14864208292214,1.15409481617151,1.14028870769186,1.16319850116517,1.16461030644781,1.1707808301374,1.20281289821068,1.21919756545477,1.1549123917644,1.16763708791149,1.14741377499374,1.16800506560769,1.24537496805781,1.27547451779857,1.23721692053424,1.23463010036198,1.18117836481158,1.23270578160012,1.14427505658927,1.12190143236609,1.12006932412719,1.09710652557299,1.09093051471108,1.06989945706918,1.07443418846579,1.07536266997154,1.18471134993206,1.13153158292099,1.09326715455498,0.98549119168728,0.963754552429575,0.978030964522678,0.942837447670239,0.944093620506714,0.947042763241149,0.945071701698132,0.953611177871679,0.934481469240176,0.942612190613285,0.931979775753524,0.927186698367774,0.897048397426974,0.864877131071679,0.860711093438333,0.834015591511338,0.826325102199473,0.826366900635676,0.827150690410311,0.825417118976649,0.831970188863712,0.827264095518751,0.829282749868364,0.774994366085854,0.78285811315944,0.741912726056603,0.717706270242605,0.704358855625044,0.691372513107047,0.689296543854746,0.675322898187463,0.686068540146358,0.618759791270715,0.61123133394143,0.609696144916085,0.599086042443351,0.59981966505295,0.56326326772108,0.587731724015405,0.570421302599581,0.570130872667296
0.78225231882025,0.782420338794593,0.00442341494998108,0.867134292559747,0.547771609042509,0.535513353208433,0.527929880539384,0.528326173581522,0.528021651374593,0.528602718962447,0.516012045225313,0.515773733632196,0.516816932827032,0.509322981478684,0.510255634784651,0.509897163980054,0.502264943134741,0.49025403782512,0.488117994241229,0.483433384287029,0.483765744855969,0.483574644853209,0.477208807721464,0.477766246036832,0.47772412892639,0.464382095384544,0.465768289771587,0.463972530958847,0.4632180525068,0.46112434085352,0.456841666265614,0.447153175001722,0.442179657288328,0.443063780036043,0.458931811374133,0.45918793155462,0.45927645729258,0.459330077589148,0.450918428489047,0.454235908729541,0.446282700918725,0.46894275426932,0.468723067278862,0.468561780036311,0.468148000009448,0.769913067341356,0.473161559450777,0.473329451164474,0.463742544465813,0.462398564259187,0.474436381033185,0.44578478019876,0.445977603776275,0.445578627026317,0.445267071009878,0.458272103329095,0.456985702190518,0.4795803695901,0.442556638490719,0.434504661247236,0.453702475005951,0.444129849657,0.461766652215197,0.480200522522879,0.495808885786492,0.465063727356797,0.480996315796567,0.474383920337546,0.490021495057596,0.492688802170015,0.518613579840294,0.544732716728127,0.547538401876093,0.574685680869327,0.605880423532402,0.642635289113903,0.689398027811807,0.662770497257219,0.702419881530972,0.724570221831277,0.724502874600217,0.757233087499277,0.759339754206959,0.81891543015082,0.832963695634926,0.918053315678309,0.918633652369899,0.912962210056893,0.962155693475588,1.12615776227198,1.13168196041474,1.06311055778834,1.04771730977487,1.04116655509101,1.05347712144622,1.04475429109984,1.04646252122321,1.05691867827528,1.06613727886658,1.10455142549049,1.10501735672083,1.15208481912149,1.14762081783318,1.14713362354184,1.2010745302001,1.20121298423722,1.20107333019253,1.24684071314558,1.1417846161141,1.14204894450985,1.11924614690411,1.15162612028188,1.20059476993293,1.19084322707501,1.19570826912415,1.2334506992703,1.12215464606356,1.14012379904874,1.04624580492815,1.04591839828754,1.02502211668461,1.00515528861738,0.997659791631706,1.0149253473674,1.03990537096755,1.05702770594449,1.14441445103541,1.09262061089102,0.959629440874771,0.94627764053308,0.925302079816039,0.913810115094306,0.910291607454934,0.904046160525932,0.898657664267673,0.900454984107299,0.894111859608382,0.896396146587707,0.898911467837266,0.885199166382638,0.866733301340348,0.851169554741269,0.823487328278165,0.8249610703984,0.818177457896045,0.794899623188381,0.801923594786109,0.794311488365094,0.745394589297708,0.73708078280705,0.772283968608073,0.74034133239831,0.735263111811223,0.699616718255676,0.702357611248219,0.689156969183206,0.689797937210957,0.663490137440529,0.646498724042276,0.639365771365514,0.628448729145029,0.60671995854033,0.61169751985013,0.581331745473744,0.581243735321047,0.570871388143808,0.564728466530962,0.581241278198396,0.567261945405782
0.782403418853516,0.784438936540928,0.785869447169947,0.00414884988700781,0.520439866875315,0.521891125890919,0.521039532836216,0.520683969135112,0.527684932627556,0.527645763488186,0.516305473681618,0.515712620095363,0.507591340023569,0.508180678854079,0.510878776576823,0.498346648389588,0.495771781062864,0.493299494552379,0.48424915948195,0.483989105502379,0.483703635079432,0.484748059264259,0.475512118659076,0.476244588128615,0.476650595223703,0.464377286960801,0.464318673386705,0.464599653782933,0.46345046034151,0.460461650988879,0.444083629725473,0.443903335988236,0.442351644438633,0.442495399993558,0.459266731013077,0.459108478506808,0.459322928751702,0.457732874060735,0.457898448056459,0.455708544003406,0.454852718069932,0.453613090371651,0.468689726817581,0.468672646207986,0.467866286055076,0.467390914445954,0.468186570595554,0.468352771266764,0.464186941017151,0.46353687687167,0.449667540265795,0.44814072789997,0.447059817879843,0.446073774202132,0.445860315678949,0.454829191189337,0.482599456089718,0.466416300838038,0.440372082976285,0.454992238613717,0.46429620165694,0.443910297739631,0.460316801070214,0.465812769542972,0.479437373683243,0.468231124647305,0.465031007666831,0.464072772161484,0.497167845448169,0.494153540631011,0.496067747162509,0.505621591347111,0.532511383524286,0.532073230439169,0.571278934247818,0.629789122188761,0.588674797353804,0.63620153458457,0.646082024277555,0.636435736552394,0.660181888721744,0.711780738291804,0.727129899398077,0.818002630486374,0.791601944835863,0.841614054641151,0.886718581395337,0.88859489713148,0.943636198109084,1.11886349953733,0.990439474277281,0.964494026531355,0.962529927276194,0.988622044471874,0.961205572033973,1.00442633341772,0.983345248255547,1.0196249292495,1.02047489637054,1.05415318367732,1.05504722845009,1.12455661299544,1.12545038544917,1.1318792488101,1.1596777339568,1.15985459238589,1.18758711308081,1.20911885482869,1.12160054283606,1.11587278171412,1.10232590453433,1.08649309098469,1.09362614134353,1.14688505508786,1.16851205634354,1.12763853217695,1.07104175881455,1.01910091026979,0.983981500233247,0.987478910717429,0.974319440356965,0.972784199618616,0.973119934521791,0.984879623987242,1.00001623335272,1.02712825790384,1.09545474764357,0.995651918500897,0.962028125156799,0.90363698114884,0.905750891265416,0.873281399539647,0.874015094853109,0.877113413728718,0.871498573505943,0.874400624258191,0.867995129401375,0.842095508418713,0.84227428461366,0.806623655677978,0.759481621401867,0.782478722247549,0.801641019637169,0.747808910271325,0.763652638827536,0.714223577693343,0.711657471034836,0.713074680220698,0.746641061133508,0.70109937553884,0.69916990835601,0.718019640149707,0.717397195368697,0.685356141182472,0.685025804112395,0.663003730869908,0.657579705749786,0.658083646613379,0.659258462476466,0.619176565507142,0.606952440855154,0.581110700626696,0.580250190034417,0.584503998246334,0.57880206235458,0.578644792668836,0.545596834153088,0.546643342549333,0.558147974606402
0.78047559552332,0.802889026723295,0.551537978372085,0.537805694806711,0.518178782506174,0.517646773536074,0.519934483497663,0.522075549218793,0.52555577780797,0.518878060850313,0.516055571652944,0.506186577642653,0.507038241732496,0.506660755530505,0.505517203359114,0.497225025563694,0.486471288655399,0.483789494066431,0.484598747773514,0.482768480552741,0.483343273116133,0.474561127510905,0.474919836769574,0.47453808690786,0.464420471707815,0.463428397430408,0.464201269995453,0.463615880044682,0.463707902228189,0.444500161278635,0.445674203090678,0.442209527945558,0.441870243500792,0.440610875733293,0.441420305848722,0.457581488907626,0.4568450657595,0.450867079714741,0.454749147006369,0.458159612310727,0.455349109886934,0.454536222644601,0.453897327560344,0.465003847378237,0.466672124789126,0.467499079294397,0.46645802615387,0.466122015901726,0.463661843833225,0.45661970582296,0.453626072488611,0.447897329943632,0.447768444151172,0.446920186041079,0.446322264290369,0.466468467798261,0.46663322440196,0.467177301283646,0.467490235116059,0.455351986112857,0.455472599271692,0.458668815355894,0.453697020694397,0.428269670757012,0.438299171253762,0.439204476677493,0.485424253850828,0.476647261829103,0.477337547742466,0.478744560466862,0.479305030022249,0.492120096575818,0.488162850521018,0.510976190313489,0.523423468491074,0.54410774888188,0.571640216424267,0.580678125535467,0.610649086157286,0.615547201363121,0.633183651037149,0.704360988559095,0.696280203061659,0.694949616828379,0.749736786220862,0.824163832100011,0.822560317195383,0.876607078946822,0.91961901556248,0.958267599819439,0.968856966633025,0.959464630673795,0.947292431653374,0.940131607172888,0.951383872371501,0.941100159358519,0.951365166234613,0.963700089401183,0.969910661990709,0.989218029228408,1.02471067676414,1.06841682915951,1.11375202738632,1.19100423679782,1.18812131103997,1.1429202843206,1.14398549491993,1.14493738498279,1.07301262012755,1.10647589223039,1.03411777484895,1.02415872519986,1.04447753220998,1.06110021676333,1.0948704799762,1.0704558464672,1.03504249166392,0.984203033366424,0.983970413524188,0.927477604801012,0.917664553817532,0.935517233085097,0.940320883281783,0.950978791270561,0.930927858064146,0.965081767910958,0.988294458175145,0.973356895251827,0.930529030570372,0.864521097077426,0.90286692979798,0.854926128880343,0.841567830114312,0.842188612240291,0.822428415053033,0.815371399863782,0.838421179827844,0.821789438466385,0.793959217972161,0.783641808705332,0.759256013774298,0.727954190745837,0.712556920281298,0.694144249192766,0.717279423598032,0.707433112274979,0.709923718825589,0.711633371465357,0.679632837462919,0.646057752255353,0.645687596298837,0.64284039694915,0.684679170369334,0.684681060219164,0.646260945080429,0.63925442431211,0.629666782744458,0.62817252542537,0.610631117615203,0.608966186339933,0.621148768777735,0.579896513895689,0.589486007182042,0.588662736042191,0.555556419112477,0.545502846824199,0.547848052318872,0.542304636310833,0.542949792026656
0.777908148423998,0.00403623468338726,0.516031472380639,0.515564978988119,0.517624993326638,0.515880027794994,0.518050607541393,0.524865225524679,0.524300625345087,0.521854567612494,0.504072251812363,0.50463069411185,0.504557891942789,0.504904780321884,0.505540182855976,0.486402981453349,0.482617457792712,0.482559679726825,0.482957760261906,0.484079431622591,0.482537918429312,0.475696691673118,0.474246600252474,0.475389514410578,0.464077257248741,0.464347457735881,0.462740330700594,0.464428408196684,0.46302667125455,0.452091429257358,0.443964492482465,0.443518524042074,0.441915151430691,0.442736060508047,0.444550713356187,0.455506445170246,0.454691872954512,0.451072687203173,0.458299802265454,0.456727185998476,0.456978476571546,0.45350845117628,0.453354957318694,0.452894780455827,0.466216414347256,0.46630280149372,0.466115717992886,0.465862754456743,0.456610837315811,0.447639847759058,0.447942055568358,0.448178813670891,0.448976357071531,0.452146945787001,0.453337886844997,0.46682098518121,0.467046006244116,0.467184212399492,0.46698491359279,0.466085908805413,0.453369685641407,0.455294510790589,0.441066887562194,0.440630920761903,0.440325847270593,0.423321513742107,0.4292579041677,0.429474214500055,0.450870114854282,0.421772320311096,0.457063518018766,0.472320566227256,0.503615094127076,0.522957450318147,0.496968286020252,0.529435133888443,0.518738577701331,0.531184400718588,0.617131082917106,0.626343386162236,0.612839455712315,0.613143237031385,0.652595139559868,0.67306756054157,0.710060849384608,0.746258522994136,0.799783326660248,0.829267288565327,0.939616670190913,0.972023582045851,0.946106597613585,0.923063103832387,0.904121052063457,0.904735228128454,0.920789301589834,0.912485144454456,0.912729322455557,0.937148138861409,0.962841093546692,0.991047564941678,0.996746889733816,1.05018936849982,1.15821612942215,1.14493395889811,1.08331936539556,1.08118342011653,1.09278907271527,1.09991362942277,1.0103280822739,0.990826991355258,0.984998420729855,0.955448164753048,1.00701270435151,1.05079744985146,1.03470291724687,1.0560287689213,1.01958180781582,0.943547958846931,0.924623017208895,0.903146646044873,0.890473423265691,0.865752233453009,0.86484878941135,0.907282659276495,0.907017622536877,0.926552289341341,0.948780897766148,0.935633503035518,0.88981138922849,0.862270927142363,0.822466764452024,0.817884915335231,0.790137670573052,0.789134163365175,0.796851246265737,0.788477684029434,0.754554142945317,0.804900976255361,0.713637787519864,0.714238362246283,0.715540084903113,0.693478760602689,0.68103348073884,0.68122858165756,0.696739607505597,0.711629359595455,0.685839548340116,0.665869954925554,0.665912747628074,0.634292740057173,0.634606184989911,0.629827229333933,0.615302262461055,0.62313054754726,0.622349016934065,0.602445260070804,0.600685981809958,0.619761166684911,0.60082330579984,0.604741111691485,0.567489038617238,0.58237045915592,0.559790604718786,0.558187117601311,0.531589018830528,0.548016584502812,0.538889466286184,0.538002484621309,0.546499693343001
0.772409819563355,0.771491226830916,0.516642374658428,0.515471468611055,0.515896170721281,0.515135214362542,0.513690945412605,0.514247673202039,0.524855125028994,0.519080775857642,0.505316372649702,0.504470106475803,0.504622010418364,0.503532752780143,0.501599205193942,0.484741391566205,0.47849573515594,0.479708224461643,0.482133425493649,0.482441441159951,0.475651586450035,0.47402088634891,0.475289759336547,0.474893573982359,0.46951461689742,0.464137212637532,0.465348029306504,0.464674342511654,0.453151254183425,0.452828332050371,0.444795421171246,0.443309165001332,0.444055537424262,0.445572975664839,0.446203084986612,0.454005953302851,0.452098414232496,0.451641024750594,0.451910146200557,0.455722391569006,0.455299542808289,0.454833890844881,0.452768389861458,0.442105978810333,0.442786173754316,0.443012549672726,0.457668700549349,0.4561794888431,0.450068156313116,0.449713326777609,0.448638246901726,0.449771123082159,0.450811246804955,0.453126108459403,0.453166733319476,0.467491915929933,0.46734407903996,0.467043802803703,0.467034309467298,0.466152747308173,0.465628030204931,0.446959024510516,0.447168000330016,0.46562981839618,0.423722533913856,0.431987132625083,0.447476794842744,0.431409088700277,0.405719456608172,0.468792353726509,0.471591585123278,0.46104822696641,0.464856685595389,0.462547893260676,0.463292664089798,0.477188406773856,0.47691357511037,0.500580287894019,0.549097317894126,0.557089181735272,0.57396695349386,0.63966408881111,0.639666705538129,0.684976353804961,0.685191783507592,0.731705455274422,0.770188693599959,0.809070948410457,0.838592138550466,0.930490732194017,0.891709171665752,0.890860713015752,0.885176162886209,0.887642846604803,0.879865230911227,0.90394369821523,0.904368505977955,0.923517498687584,0.940029732755944,0.971491214424795,0.971365338303532,1.01514406915227,1.12944280060332,1.02509056277084,1.01071868484859,1.03849952299292,1.00877863337426,0.985414814154648,0.963868846383864,0.946400112142912,0.946967109461871,0.948516221463538,0.901157997428145,0.990589912948674,1.03892461586159,0.995613892427952,0.872322783158198,0.866897492255829,0.865731107198383,0.838352899315786,0.837212833642196,0.820152522436586,0.830207145093833,0.827190964604844,0.823232968166826,0.834050475493969,0.875702560644387,0.890825873444962,0.907621016998906,0.858072126176043,0.79668802105307,0.785792220336571,0.769086923197948,0.760651677091661,0.747136492537026,0.748951371397523,0.754945115087889,0.712361660476921,0.713982472872537,0.697299982303971,0.674595792247939,0.684502115692617,0.644861225360189,0.645661893169164,0.66172531923483,0.633834782482261,0.645574721074137,0.619587994526372,0.627684489045021,0.635098469363012,0.598110046210302,0.597395472277864,0.607584621812345,0.604995492510136,0.59930167164299,0.587176437503757,0.588685467016729,0.579824131733716,0.613316978287635,0.587215861223877,0.567798200696748,0.567030317844094,0.532676324076903,0.544395862162025,0.531607446064624,0.540659967045341,0.528877027461591,0.528488571988429,0.530668828229804
0.773116897180551,0.772223048481888,0.528737427134043,0.505678276003114,0.505161671147972,0.513404088405264,0.514310310990075,0.513957672443748,0.514466932484486,0.514149447960912,0.508919184497803,0.503156392396453,0.503112574900631,0.502848880554532,0.484049588306117,0.482154840693312,0.478402403152895,0.479173943421824,0.480342163938151,0.481968368440486,0.475252533390592,0.47518735041365,0.474267931523983,0.474823382594697,0.473999763239581,0.473770766817853,0.464693467803869,0.464823147841405,0.462968160035763,0.452489197451892,0.452582427817201,0.444548723100668,0.444702787489078,0.447399585473522,0.447087085685131,0.448029104511005,0.450722035854427,0.449552833025265,0.45543256933739,0.455979237956529,0.456354907733874,0.4545036087173,0.452791113066441,0.442245820760958,0.443273106143225,0.44337951350287,0.451918119317413,0.453568317339783,0.451980917662088,0.449446194496111,0.449549885726415,0.449160290741215,0.450505810117597,0.453987345453139,0.454011635218002,0.467625899501291,0.467310486465465,0.467277574394309,0.467262038068005,0.467045554254462,0.433946860765605,0.434402263694758,0.472792532100007,0.46606475054032,0.459875438659323,0.441384000112067,0.406949776310524,0.41419414973409,0.406895503032392,0.407255500587056,0.417558044827736,0.473410628057713,0.460569384193414,0.460190929103973,0.457365005373388,0.478536140401473,0.490867401004782,0.502803521963143,0.508973399896952,0.527986572009252,0.576943648172844,0.577831345851478,0.639027841852268,0.642882239449374,0.643557879936999,0.731512220491498,0.752485376356766,0.774101159376812,0.81940238501942,0.846200554690824,0.88747476206519,0.846889267850313,0.83975717387173,0.848086009520585,0.855466711699806,0.86407853108855,0.863729427014348,0.900177831346225,0.917654204111876,0.917688213334629,0.951152557974659,0.991628490903605,1.06211853502044,1.03477943965407,0.962906689892929,0.962526551330369,0.970777073451351,0.900339402736917,0.917039429395008,0.917153816115178,0.867192711462267,0.876001242641035,0.872935623058308,0.874988162332154,0.881168415714336,0.880328298944127,0.872129118493241,0.868724143381591,0.860386373379022,0.82884301652346,0.8297718945626,0.831743065705143,0.796548670714039,0.795799433418787,0.786925713037255,0.810412092412658,0.823578567242506,0.858122999698962,0.846237046077077,0.794457315290245,0.798221612384387,0.768958028791279,0.781232403951791,0.7406114963552,0.726366892090613,0.733985462191737,0.727773927706076,0.723624389650972,0.660016455350824,0.659576324275421,0.639901420839586,0.640210021136529,0.610608540234908,0.609351326791125,0.627248782685876,0.63933128648697,0.620371918576848,0.610473975395417,0.611350664305627,0.621738393310538,0.622701694851906,0.620649747187734,0.602581245123586,0.597901712547934,0.587423988474405,0.57861641453497,0.566757240212952,0.565234164415455,0.564431612610375,0.580879485058368,0.561771490566569,0.544817739167947,0.544637454431765,0.551583676850198,0.512525014109223,0.529090742353701,0.52883514088684,0.527223487552653,0.517876586198108
0.774025642785107,0.773650098035907,0.509048274797431,0.50378938910818,0.504154769783412,0.504030991106336,0.509401746639839,0.508956421766633,0.506962205155184,0.50518958851006,0.504504225027827,0.496954735194653,0.496752147268132,0.49628711136205,0.488178405661062,0.483003824676519,0.477303513696191,0.477610565023699,0.478929176682296,0.47869708219664,0.476402707605318,0.474590371995844,0.477410234026311,0.476722289671799,0.475106973941866,0.47385232173819,0.466008718387754,0.46396726641728,0.453014011230469,0.452874260274114,0.453114888366046,0.451447649116346,0.447945528664896,0.447619413855909,0.447879526486986,0.448557985219524,0.446768199919932,0.447769736710756,0.453335521386178,0.451416219792905,0.453809887334458,0.449749640427164,0.45010321922718,0.442413364207467,0.441609344490279,0.452411834596967,0.452027351973013,0.453239506504914,0.451909831224997,0.449508499172872,0.446194198468608,0.447892892240579,0.451981374526415,0.452814802118342,0.762921812323806,0.447405706117402,0.466113303024623,0.465897806657677,0.465636177670916,0.46582225873047,0.485810126211447,0.486540087384269,0.452701742947289,0.46935911277255,0.421565168204854,0.429577416040443,0.395064514840924,0.42465289099991,0.388753096655206,0.391008419054576,0.414268647166511,0.392129142106398,0.433471648906254,0.44995006209643,0.450827923335771,0.47724517187035,0.459716370208914,0.465161298189126,0.491836997684825,0.500484817031809,0.534638100224619,0.553502369679817,0.587342632927449,0.620804088845326,0.666531473747973,0.630000386209081,0.699144389096197,0.734575688280601,0.786101149850343,0.776518480506888,0.831009859031206,0.805810475020307,0.798383608081231,0.832389048255523,0.838254314535244,0.838605657529836,0.849353882922578,0.865937906351969,0.862710450652379,0.896352918072769,0.92702970005994,0.946317704025819,1.02521190202468,0.986793261961337,0.942517409603525,0.942560198265874,0.917950492168787,0.86185330699572,0.861768896136505,0.850205142436921,0.848818564863986,0.84968278991583,0.839389450671006,0.868801077250248,0.861625447277365,0.833075298167699,0.871077319388242,0.808361276516515,0.819722484162593,0.802135790016545,0.776471090039116,0.776004087487233,0.773716634799781,0.773784530554258,0.758364617904648,0.774968408568184,0.749620964905978,0.790541176937201,0.766453011214543,0.757127362039292,0.756942311914688,0.756940059485983,0.724603946970427,0.711087151516143,0.717564816453049,0.707893887580542,0.682470652810911,0.708461021728388,0.628877534543592,0.659164833755076,0.643983573146722,0.608053345482711,0.590555271753725,0.592204265729919,0.591317221905114,0.570558404555673,0.579731743897917,0.581412135309082,0.612424929659568,0.596750446648964,0.580115896102618,0.592945512462462,0.554268808178582,0.555408660040142,0.571778378902178,0.556947229076366,0.543634873637551,0.54462879986452,0.545458989570168,0.547588383044675,0.514566516188225,0.525666987827933,0.507432115258214,0.515569976165204,0.499740963205661,0.51440177062475,0.531684564007312,0.522073123415437,0.502488655756334
0.77436555359282,0.502673004020654,0.502878612590525,0.503078176330956,0.504367681679567,0.504804238049915,0.507563561787207,0.507444392939215,0.506051349382898,0.505023233852858,0.503271509050107,0.49725720986961,0.496932301515239,0.496067562488942,0.48249939477759,0.482366743150538,0.47624140629964,0.476256542726909,0.475188324961339,0.473884800217445,0.473965486230964,0.47487476954445,0.475785111371729,0.476257551970269,0.475000974819346,0.473991992783163,0.46880364353811,0.4664671868303,0.463056182930732,0.456019136762873,0.455518603695762,0.454021228398712,0.454769661304155,0.446304572755087,0.446003864989781,0.447063913124737,0.447777514761227,0.450069744228997,0.451491825387114,0.449382766133607,0.447823250629326,0.449175033089471,0.449114282699743,0.44837707502586,0.438633916960866,0.450947843949642,0.449872694588112,0.446898780554102,0.445996298857001,0.445970079182098,0.445767259904319,0.445095510931941,0.445835983907095,0.442530269136641,0.443946581220237,0.444669506012735,0.444155821461965,0.464391142037526,0.464002784890444,0.462323216803149,0.461753146523731,0.454621520269467,0.452811836446074,0.423852932176141,0.42454981711263,0.413862755364148,0.398283418580232,0.399047581913782,0.385146734758623,0.377571878365237,0.400300167041852,0.409878159671487,0.388922251972666,0.389839600612364,0.439255674439503,0.451921552531335,0.473253142944571,0.463997211759814,0.49163972642169,0.506113110905932,0.550929174863065,0.556991909296057,0.573174544474728,0.59587545254214,0.60696065912125,0.66202002589146,0.661280169477586,0.707772012608431,0.689109900541627,0.747376394750494,0.75072718688887,0.762933250010182,0.773177962831067,0.771618893396024,0.771305882089681,0.766048746605059,0.803316985407879,0.81906677682069,0.860225449761518,0.859084620622914,0.90004371149733,0.897774085891551,0.965947396588296,0.955831574722212,0.879284276620835,0.880008887642234,0.828098742194308,0.857544519646178,0.858092562362949,0.811194173039754,0.829312376354532,0.794355865783457,0.780612832457084,0.796363153849138,0.809346319093589,0.82407473413674,0.836042211723516,0.812311652024638,0.811478900835517,0.77643154912402,0.733189113500666,0.747751734874319,0.75453506657597,0.756419085630707,0.741702318429211,0.744541424016514,0.745088717435967,0.763759876719156,0.693727970977235,0.744394942978613,0.698772989345684,0.689476097663221,0.68825346848677,0.688760791533562,0.688554293850987,0.679477629654014,0.685213089579868,0.627415091687499,0.628188249376671,0.628356004123104,0.586491458795216,0.602715535750732,0.581053949111498,0.54175863071688,0.567055907003395,0.565288941936997,0.577056735521451,0.569992226945569,0.561879080145789,0.557064227702337,0.549100971060679,0.54319042035193,0.554122356202515,0.555945961818553,0.535659430210439,0.544907807047102,0.544390702444532,0.532509587289499,0.527316464306831,0.511625132535077,0.523494521494231,0.503518643167896,0.505310959611733,0.514991821040019,0.500144317276867,0.497005825747563,0.516380288028166,0.517907684102092,0.516503683993141
0.564848689834675,0.503663960527672,0.503333557297356,0.503143428054816,0.503407476533429,0.504867495489036,0.506136073936736,0.506157538767907,0.505226616047669,0.503892562324652,0.502282955372311,0.499095490461475,0.497342069460889,0.493601020065513,0.482230012033297,0.480813179224475,0.476456410589847,0.475464791822607,0.475192401473832,0.474890054766578,0.474646959100948,0.474594947722707,0.474959930593833,0.475058904947391,0.474660994656592,0.473830859036315,0.472295610490948,0.465310594901926,0.465261227473079,0.455985207192464,0.456374325460073,0.456073389519748,0.456912467556619,0.444236114349729,0.444826594945857,0.446027302182896,0.448772859796989,0.450413199314374,0.451010625284534,0.44972368632583,0.448477121595106,0.4482721463188,0.447749187479305,0.446146440755237,0.443729409838239,0.445999338870962,0.447090128771261,0.445337296653734,0.444768827542332,0.445224118296085,0.445171492474765,0.444996273284674,0.444285052287993,0.442606139482092,0.443858877409335,0.445232839502444,0.445828753748831,0.447669252837809,0.450138467484607,0.452551742836404,0.454439095237171,0.453208083310509,0.455073627176226,0.430803524251033,0.427941836153008,0.417016898980389,0.394962081182644,0.391455399488323,0.387786843761982,0.386913533484265,0.386602189689032,0.386636519615888,0.387183729736424,0.394498748325115,0.420695481585729,0.435475371008587,0.450471351006171,0.455426499284579,0.489800421792424,0.493427512536884,0.542804258176138,0.547013170255575,0.558150721411337,0.574659083112695,0.591476866711834,0.617010830539234,0.636007723030438,0.655653303734488,0.673007830142934,0.693921865713438,0.710069239478536,0.724092156570233,0.736899117774507,0.752298118004118,0.766339637830866,0.766339138226114,0.791123071788832,0.804428612054757,0.825934057727863,0.843902697336977,0.854320753535522,0.853881124213034,0.854357706987231,0.857506905218362,0.860495784180987,0.847292641368354,0.822395306020984,0.81908380813701,0.818990056360484,0.806911117927459,0.797233248366126,0.787516207909575,0.782266026923494,0.783587919902026,0.772386971460745,0.769237924041046,0.766774749471395,0.763748813999989,0.756274806457353,0.747299612614796,0.730413607728331,0.728018078244174,0.726402661620951,0.725841726070753,0.725808987800001,0.725398666091784,0.72432159428629,0.715331399694508,0.69292844902189,0.692937031439046,0.691388711666556,0.690283323105229,0.68891726207957,0.68720633831686,0.684996817611989,0.681879513363395,0.64669558926073,0.618218364941115,0.61102393954271,0.60135314656963,0.583866179504199,0.578521870657447,0.569011895170342,0.546158762231222,0.552117149075706,0.556395700459714,0.557777360036844,0.558405426731769,0.553946454828721,0.552553765082925,0.546104059128625,0.544688227501358,0.546124237911835,0.542467251920913,0.534029782679581,0.535334888630963,0.535001092142565,0.534411156195902,0.522248869315909,0.511236104764472,0.511071383990643,0.503151158036696,0.502221833980516,0.501563243255671,0.498769921819763,0.496587255047918,0.493981664487387,0.491823636772866,0.490629655085531
