0.903012, 0.907837, 0.914614, 0.94276, 1.12644, 0.929426, 0.92913, 0.936523, 0.936947, 0.932118, 1.35399, 0.954055, 0.956312, 0.958287, 0.966777, 0.967642, 0.951148, 0.948835, 0.953775, 0.94666, 0.942239, 0.943406, 0.95098, 0.948227, 0.941978, 0.939984, 0.941477, 0.948349, 0.947523, 0.952267, 0.960992, 0.960712, 0.964648, 0.98082, 0.978141, 0.992843, 1.00898, 1.0088, 1.00609, 1.08827, 0.943439, 0.922745, 0.917339, 0.913051, 0.904434, 0.90775, 0.90922, 0.914133, 0.921473, 0.919577, 0.918804, 0.919053, 0.91866, 1.09086, 0.895022, 0.895209, 0.895707, 0.895671, 0.899575, 0.9007, 0.902631, 0.899297, 0.898188, 0.898035, 0.89714, 0.882162, 0.882433, 0.885973, 0.884859, 0.857982, 0.858531, 0.86145, 0.861133, 0.852914, 0.853497, 0.86303, 0.861485, 0.850208, 0.852857, 0.855837, 0.855961, 0.856903, 0.84675, 0.844585, 0.848049, 0.854683, 0.859155, 0.86385, 0.865834, 0.872147, 0.876696, 0.878308, 0.879349, 0.880965, 0.860477, 0.857063, 0.859009, 0.860634, 0.866486, 0.877038, 0.879559, 0.881692, 0.881156, 0.871897, 0.870451, 0.870196, 0.865701, 0.861526, 0.861579, 0.865602, 0.865236, 0.870299, 0.888788, 0.889434, 0.895919, 0.89854, 0.900761, 0.900601, 0.904493, 0.908106, 0.913274, 0.915868, 0.916564, 1.13289, 1.23088, 0.943766, 0.943826, 0.943199, 0.914092, 0.914754, 0.894549, 0.901431, 0.905127, 0.904594, 0.901152, 0.901683, 0.912372, 0.916438, 0.916097, 0.916489, 0.916484, 0.909805, 0.907779, 0.908333, 0.908976, 0.910728, 0.89718, 0.894874, 0.894847, 0.904827, 0.905315, 0.908709, 0.907834, 0.916431, 0.919029, 0.924678, 0.92515, 0.926684, 0.925363, 0.929387, 0.929222, 0.928362, 0.920539, 0.921551, 0.926017, 0.932187, 0.945056, 0.946238, 0.94658, 0.962423, 0.962977, 0.948054, 0.950996, 0.95423, 0.971652, 0.973366, 0.967928, 0.969993, 0.970153, 0.970734, 0.966005, 0.953144, 0.947974, 0.948976, 0.94475, 0.945568, 0.935644, 0.937219, 0.938649, 0.939525, 0.940267, 0.942302, 0.943426, 0.938855, 0.946171, 0.95408, 0.963786, 0.964519, 0.976429, 0.978514, 0.98968, 0.990684, 1.30535, 1.31398, 1.08135, 1.06075, 1.0601, 1.06124, 1.06421, 1.07613, 1.07772, 1.09565, 1.34623, 1.12283, 1.27697, 1.12986, 1.56875, 1.46137, 1.17065, 1.15375, 1.18113, 1.17793, 1.32917, 1.18311, 1.18409, 1.18663, 1.18543, 1.22214, 1.2186, 1.15136, 1.14991, 1.14887, 1.15043, 1.20422, 1.20581, 1.2063, 1.21277, 1.15615, 1.26242, 1.42129
0.903748, 0.904017, 1.00725, 0.942841, 0.942833, 0.931253, 0.931794, 0.935472, 0.935434, 0.933585, 0.938475, 0.952639, 0.946144, 0.95834, 0.958986, 0.957407, 0.951539, 0.952067, 0.953054, 0.954345, 0.942233, 0.944947, 0.952969, 0.950354, 0.941222, 0.942451, 1.26091, 0.94824, 0.947741, 0.949149, 0.967058, 0.964904, 0.965476, 0.977039, 0.97742, 0.99154, 0.995561, 0.99593, 1.00512, 1.0379, 1.0286, 0.922484, 0.916733, 0.917167, 0.895595, 0.908065, 0.907768, 0.916984, 0.921399, 0.921385, 0.91737, 0.91302, 0.914895, 0.894448, 0.890184, 0.891685, 0.893545, 0.895263, 0.895954, 0.898454, 0.897955, 0.898163, 0.895932, 0.897638, 0.896249, 0.880375, 0.879752, 0.882975, 0.879452, 0.856033, 0.857599, 0.863155, 0.852825, 0.85235, 0.852322, 0.861914, 0.861076, 0.856374, 0.856649, 0.856172, 0.856034, 0.853949, 0.844451, 0.842131, 0.842521, 0.856979, 0.858243, 0.860356, 0.864596, 0.873532, 0.873948, 0.873259, 0.875308, 0.915022, 0.858846, 0.860984, 0.861128, 0.860307, 0.861938, 0.875947, 0.876507, 0.876671, 0.873564, 0.871503, 0.870307, 0.87062, 0.864722, 0.865297, 0.860942, 0.868171, 0.870445, 0.87635, 0.887119, 0.888823, 0.895566, 0.898344, 0.900497, 0.900323, 0.901292, 0.909127, 0.914281, 0.915051, 0.920927, 0.923306, 0.94024, 0.942973, 0.940411, 1.18727, 0.911718, 0.895396, 0.894941, 0.896296, 0.901941, 0.900858, 0.898713, 0.900487, 0.902576, 0.904002, 0.910356, 0.916917, 0.917908, 0.910935, 0.905503, 0.907916, 0.907493, 0.90558, 0.904813, 0.890978, 0.890916, 0.904846, 0.905517, 0.90573, 0.908799, 0.91474, 0.916058, 0.919923, 0.925528, 0.919518, 0.916511, 0.928917, 0.933011, 0.931597, 0.918755, 0.91989, 0.929693, 0.932881, 0.93945, 0.942356, 0.940201, 0.940887, 0.949206, 0.944176, 0.947164, 0.956297, 0.971007, 0.972078, 0.969744, 0.971369, 0.975211, 0.968303, 0.969624, 0.947846, 0.947115, 0.942822, 0.941022, 0.938845, 0.938262, 0.93685, 0.942233, 0.941076, 0.938707, 0.938781, 0.940452, 0.935876, 0.943943, 0.954493, 0.963733, 0.96807, 0.968956, 0.985023, 0.98847, 0.991144, 1.39961, 1.31255, 1.07404, 1.0601, 1.05957, 1.06157, 1.06176, 1.06505, 1.08123, 1.0957, 1.10896, 1.11758, 1.13572, 1.12784, 1.57301, 1.46797, 1.15741, 1.15941, 1.16543, 1.17054, 1.17224, 1.21677, 1.18643, 1.18701, 1.26449, 1.26699, 1.26416, 1.23161, 1.15419, 1.14951, 1.15084, 1.31706, 1.33289, 1.16657, 1.11873, 1.11867, 1.10961, 1.10696
0.902832, 1.20575, 0.926791, 0.937489, 0.936286, 0.926131, 0.932874, 0.934947, 0.93437, 0.936378, 0.94087, 0.950511, 0.942837, 0.956002, 0.956913, 0.959084, 0.951644, 0.951401, 0.951009, 0.94445, 0.94471, 0.944819, 0.954814, 0.949232, 0.946123, 0.944076, 0.961686, 0.960868, 0.969409, 0.967331, 0.961399, 0.96805, 0.997701, 0.980563, 1.01446, 0.995665, 0.995935, 0.999668, 1.0397, 1.10922, 0.932344, 0.964577, 0.906106, 0.897082, 0.895403, 0.905585, 0.909983, 0.912372, 0.919861, 0.909716, 0.907694, 1.2198, 0.900582, 0.894353, 0.888277, 0.890954, 0.893234, 0.893066, 0.894398, 0.896625, 0.898196, 0.897313, 0.892155, 0.888471, 0.879613, 0.878768, 0.880577, 0.879619, 0.876433, 0.855933, 0.854591, 0.856982, 0.849457, 0.850934, 0.853822, 0.861788, 0.85995, 0.859173, 0.857796, 0.860488, 0.865859, 0.856631, 0.843106, 0.845054, 0.844079, 0.856116, 0.862671, 0.866862, 0.86755, 0.874649, 0.874506, 0.866967, 0.874493, 0.873082, 0.860577, 0.859436, 0.858204, 0.857309, 0.862149, 0.87184, 0.873445, 0.873718, 0.873164, 0.870749, 0.870546, 0.870375, 0.868167, 0.867952, 0.870567, 0.869722, 0.870709, 0.880426, 0.882528, 0.888143, 0.895371, 0.897127, 0.898471, 0.900366, 0.903152, 0.913686, 0.91512, 0.915748, 0.916942, 0.937876, 0.939271, 0.939872, 0.976707, 0.912945, 0.912291, 0.897012, 0.893727, 0.892459, 0.88965, 0.897745, 0.898242, 0.898386, 0.901059, 0.897172, 0.90123, 0.914275, 0.91621, 0.909073, 0.906668, 0.906787, 0.906426, 0.904344, 0.90233, 0.894299, 0.892945, 0.905007, 0.905031, 0.900735, 0.906113, 0.910751, 0.908899, 0.909922, 0.920086, 0.914563, 0.914965, 0.928483, 0.93141, 0.931648, 0.918018, 0.919883, 0.932039, 0.93438, 0.942443, 0.940883, 0.939546, 0.939999, 0.946673, 0.94279, 0.943363, 0.951335, 0.97266, 0.973088, 0.969843, 0.970009, 0.9692, 0.966887, 0.959988, 0.946167, 0.947447, 0.946438, 0.940124, 0.94231, 0.935545, 0.936562, 0.941869, 0.939537, 0.938818, 0.93729, 0.936006, 0.939007, 1.10353, 1.2137, 0.965642, 0.967807, 0.971757, 0.985759, 0.994611, 0.998348, 1.38325, 1.31662, 1.40312, 1.07458, 1.06235, 1.065, 1.06699, 1.07068, 1.07902, 1.0843, 1.09894, 1.116, 1.13597, 1.58932, 1.57617, 1.5199, 1.16014, 1.16129, 1.16406, 1.16487, 1.18245, 1.17876, 1.24979, 1.17657, 1.19773, 1.17545, 1.19832, 1.22096, 1.19397, 1.3001, 1.20914, 1.19803, 1.19522, 1.19273, 1.12327, 1.13191, 1.10898, 1.26791
0.908312, 0.922871, 0.928463, 0.93558, 0.934128, 0.919314, 0.926825, 0.923976, 0.935754, 0.935018, 0.935774, 0.948013, 0.942777, 0.943005, 0.955141, 0.948141, 0.948922, 0.948984, 0.948647, 0.941985, 0.941977, 0.948936, 0.954993, 0.953855, 0.946586, 1.17821, 0.966672, 0.969712, 0.969264, 0.966446, 0.962632, 0.974004, 0.976949, 0.982965, 0.983672, 1.02106, 1.02958, 0.99613, 1.02291, 0.933344, 0.932503, 0.912989, 0.891532, 0.88658, 0.885675, 0.907626, 0.905363, 0.912512, 0.916593, 0.904904, 0.903734, 0.896103, 0.896224, 0.888185, 0.887442, 0.88888, 0.8902, 0.889244, 0.893358, 0.893668, 0.892291, 0.889528, 0.887892, 0.886931, 0.880384, 0.877321, 0.878508, 0.879916, 0.86349, 0.850207, 0.851469, 0.85455, 0.844426, 0.843095, 0.853637, 0.859659, 0.861698, 0.857631, 0.858396, 0.864028, 0.872601, 1.05379, 0.84339, 0.84327, 0.845208, 0.860646, 0.862749, 0.866238, 0.86647, 0.867073, 0.867327, 0.863172, 0.871047, 0.87075, 0.860462, 0.857532, 0.855672, 0.854881, 0.859173, 0.866853, 0.87108, 0.871117, 0.869193, 0.8699, 0.869725, 0.869439, 0.867292, 0.869962, 0.870008, 0.872593, 0.874359, 0.876977, 0.877159, 0.891105, 0.896011, 0.895075, 0.894766, 0.898901, 0.905965, 0.906633, 0.915457, 0.916324, 0.916046, 1.13061, 0.937048, 0.935338, 1.1958, 1.16855, 0.905101, 0.899818, 0.886896, 0.887149, 0.890517, 0.888304, 0.891365, 0.892077, 0.896309, 0.893499, 0.897515, 0.913237, 0.91486, 0.913751, 0.905061, 0.905347, 0.905387, 0.89902, 0.897995, 0.890081, 0.890576, 0.903239, 0.903605, 0.898232, 0.906023, 0.906158, 0.908655, 0.910326, 0.918054, 0.910285, 0.910147, 0.910448, 0.928469, 0.928523, 0.917984, 0.918793, 0.93034, 0.932378, 0.939641, 0.939957, 0.936677, 0.941533, 0.94305, 0.940418, 0.94048, 0.955364, 1.18484, 0.966246, 0.96212, 0.963997, 0.966702, 0.96765, 0.957199, 0.951222, 0.949864, 0.94096, 0.941418, 0.936332, 0.935156, 0.938598, 0.942394, 0.942258, 0.937717, 0.945982, 0.938531, 0.937021, 0.974239, 0.971295, 0.971797, 0.969983, 0.97168, 0.985239, 0.99277, 0.996463, 1.31296, 1.33241, 1.33428, 1.07443, 1.06479, 1.06975, 1.06966, 1.06919, 1.07437, 1.0809, 1.10567, 1.44089, 1.12221, 1.29688, 1.14324, 1.18775, 1.1616, 1.15913, 1.1638, 1.16407, 1.1673, 1.17062, 1.17335, 1.17431, 1.17224, 1.17335, 1.17012, 1.16713, 1.3608, 1.21477, 1.19728, 1.20473, 1.23095, 1.28835, 1.17805, 1.21858, 1.17146, 1.16832
0.908475, 0.911943, 1.33595, 0.928039, 0.91522, 0.916517, 0.923214, 0.922858, 0.935642, 0.934906, 1.1606, 0.955999, 0.954048, 0.95636, 0.956062, 0.945442, 0.944915, 0.94444, 0.944041, 0.939155, 0.939853, 0.952861, 0.95576, 0.954865, 0.954582, 0.955203, 0.966075, 0.968473, 0.969839, 0.971867, 0.973103, 0.97435, 0.976634, 0.976934, 0.97348, 0.972611, 1.02621, 0.987746, 0.919853, 0.918659, 0.915149, 0.895777, 0.89557, 0.88916, 0.889161, 0.900419, 0.905325, 0.911546, 0.91375, 0.90234, 0.89729, 0.893562, 0.893505, 0.885499, 0.885968, 0.885951, 0.887757, 0.886887, 0.887742, 0.885381, 0.887271, 0.886852, 0.886124, 0.885691, 0.876901, 0.8755, 0.874825, 0.874093, 0.868016, 0.857485, 0.849317, 0.85027, 0.84564, 0.846708, 0.850356, 0.851043, 0.858739, 0.854811, 0.855593, 0.873831, 0.873231, 0.873527, 0.843199, 0.842633, 0.848567, 0.869951, 0.872981, 0.867401, 0.867845, 0.867067, 0.86009, 0.860764, 0.864437, 0.866492, 0.860468, 0.851352, 0.851344, 0.852402, 0.857786, 0.862782, 0.866567, 0.867967, 0.8668, 0.86714, 0.869257, 0.868091, 0.867082, 0.869767, 0.874638, 0.875465, 0.876411, 0.876895, 0.876436, 0.879105, 0.892224, 0.893307, 0.8952, 0.905062, 0.906586, 0.899082, 0.901896, 0.902265, 0.917655, 0.921961, 0.926838, 0.927168, 0.928813, 0.91155, 0.900931, 0.894873, 0.886296, 0.886319, 0.890394, 0.889875, 0.889104, 0.890982, 0.891462, 0.889789, 0.881156, 0.898263, 0.911158, 0.911072, 0.905929, 0.905265, 0.90463, 0.899772, 0.898407, 0.886721, 0.887928, 0.898094, 0.896113, 0.896295, 0.903764, 0.904954, 0.90588, 0.906933, 0.914327, 0.907989, 0.908469, 0.909848, 0.925409, 0.922197, 0.920611, 0.919675, 0.928061, 0.928606, 0.939295, 0.937179, 0.936144, 0.93686, 0.940697, 0.936666, 0.939371, 1.33241, 0.959889, 0.960383, 0.959921, 0.966066, 0.967804, 0.968435, 0.956026, 0.949774, 0.950243, 0.941274, 0.93873, 0.939655, 0.942431, 0.943263, 0.943856, 0.945723, 0.942274, 0.945455, 0.944909, 1.00244, 0.970208, 0.972294, 0.971818, 0.971722, 0.971789, 0.990349, 0.990901, 0.997332, 1.23137, 1.33739, 1.31276, 1.07148, 1.07648, 1.06818, 1.06679, 1.07076, 1.09019, 1.10569, 1.10902, 1.11862, 1.1377, 1.16038, 1.5711, 0.00447517, 1.15888, 1.15982, 1.1654, 1.16592, 1.17794, 1.17135, 1.17333, 1.17549, 1.17738, 1.17833, 1.18474, 1.22338, 1.24468, 1.23259, 1.21868, 1.20266, 1.19101, 1.18566, 1.28618, 1.285, 1.12541, 1.15012
0.909979, 0.911961, 0.921785, 0.922451, 0.914922, 0.915383, 0.934088, 0.934698, 0.937286, 0.943599, 1.3345, 0.960227, 0.957569, 0.961818, 0.960681, 0.945994, 0.945237, 0.945502, 0.946239, 0.937002, 0.936959, 0.950694, 0.95596, 0.955878, 0.955724, 0.95656, 0.966305, 0.97074, 0.973544, 0.964138, 0.964094, 0.974927, 0.977263, 0.977018, 1.21462, 1.03275, 0.934349, 0.933941, 0.92097, 0.918936, 0.916339, 0.913392, 0.900326, 0.897438, 0.895237, 0.896614, 0.899332, 0.906555, 0.907501, 0.894982, 0.886805, 0.886593, 0.886673, 0.884185, 0.882978, 0.88745, 0.882741, 0.88354, 0.887164, 0.884952, 0.887698, 0.887472, 0.886387, 0.882411, 0.873143, 0.874369, 0.870859, 0.869352, 0.863391, 0.856562, 0.848695, 0.847416, 0.846696, 0.848951, 0.849371, 0.849011, 0.855879, 0.853039, 0.852658, 0.871993, 0.872333, 1.0531, 0.843754, 0.843249, 0.843515, 0.873057, 0.873543, 0.873191, 0.867446, 0.866654, 0.860956, 0.860369, 0.865226, 0.866086, 0.856765, 0.85543, 0.851115, 0.851913, 0.858398, 0.859296, 0.859993, 0.867132, 0.865206, 0.866257, 0.866362, 0.86939, 0.864451, 0.869081, 0.872528, 0.8738, 0.876896, 0.876861, 0.870243, 0.870477, 0.880627, 0.890347, 0.895214, 0.904369, 0.903607, 0.899147, 0.90139, 0.902268, 0.91979, 0.920488, 0.92222, 0.928808, 0.928998, 0.902076, 0.900326, 0.892991, 0.88557, 0.884383, 0.888896, 0.890308, 0.890963, 0.890621, 0.891992, 0.888084, 0.888619, 0.889226, 0.908734, 0.907756, 0.905451, 0.905002, 0.905779, 0.90051, 0.899842, 0.887978, 0.887311, 0.890033, 0.894427, 0.894237, 0.898104, 0.900855, 0.90474, 0.905113, 0.911158, 0.907753, 0.908539, 0.913682, 0.924355, 0.919556, 0.919172, 0.919046, 0.92483, 0.926138, 0.928644, 0.930004, 0.931817, 0.93301, 0.941106, 0.932829, 0.934323, 0.945154, 0.953736, 0.956128, 0.957835, 0.964042, 0.966766, 0.956562, 0.956025, 0.945952, 0.945884, 0.94078, 0.940063, 0.94739, 0.953144, 0.952316, 0.947017, 0.947463, 0.943176, 0.94486, 0.946553, 0.967068, 0.9669, 0.964174, 0.964671, 0.971983, 0.977384, 0.986226, 0.996447, 0.996968, 1.3641, 1.35533, 1.37162, 1.0712, 1.51689, 1.06921, 1.07219, 1.0738, 1.10185, 1.10927, 1.11824, 1.1305, 1.13979, 1.13916, 1.14367, 1.76047, 0.00440871, 1.21089, 1.16657, 1.16799, 1.17062, 1.17391, 1.17528, 1.17783, 1.17797, 1.17894, 1.17789, 1.17473, 1.17285, 1.31261, 1.20108, 1.31263, 1.34052, 1.25086, 1.19766, 1.27159, 1.26868, 1.21381
0.911373, 0.911062, 0.921766, 0.924958, 0.914769, 0.914318, 1.1059, 0.936732, 0.945579, 1.40308, 1.37601, 0.963897, 0.964538, 0.96738, 1.04618, 0.943113, 0.944178, 0.945462, 0.944164, 0.939341, 0.940258, 0.94605, 0.958891, 0.956846, 0.956418, 0.957984, 0.970683, 0.978214, 0.977059, 0.964878, 0.965052, 0.963882, 0.962965, 1.01279, 1.29016, 1.27221, 0.934584, 0.932618, 0.912844, 0.914374, 0.914732, 0.915021, 0.898201, 0.892244, 0.894138, 0.89554, 0.899981, 0.901599, 0.902753, 0.888976, 0.88829, 0.887139, 0.88376, 0.884296, 0.883018, 0.88392, 0.88051, 0.887492, 0.885753, 0.887643, 0.888391, 0.888645, 0.887389, 0.884172, 0.877384, 0.87077, 0.86988, 0.866993, 0.859311, 0.857047, 0.848822, 0.847315, 0.84804, 0.849662, 0.848937, 0.849046, 0.85355, 0.851414, 0.852856, 0.866587, 0.867841, 0.867535, 0.845908, 0.845512, 0.846509, 0.871039, 0.875349, 0.874644, 0.865674, 0.865426, 0.861586, 0.861451, 0.865013, 0.866352, 0.864089, 0.853821, 0.849575, 0.849399, 0.847802, 0.853293, 0.860072, 0.86319, 0.865404, 0.866766, 0.866076, 0.865768, 0.864167, 0.864383, 0.867375, 0.874296, 0.876547, 0.87094, 0.870639, 0.871137, 0.873497, 0.873899, 0.887503, 0.899004, 0.899394, 0.898271, 0.903396, 0.903822, 0.917914, 0.917847, 0.925731, 0.925075, 0.0044212, 0.904522, 0.891416, 0.890267, 0.889204, 0.88536, 0.887673, 0.888367, 0.88875, 0.888323, 0.891389, 0.887503, 0.886931, 1.13291, 0.905291, 0.904381, 0.905477, 0.905649, 0.905418, 0.898657, 0.901245, 0.889784, 0.888879, 0.889196, 0.890225, 0.891407, 0.891931, 0.90353, 0.904047, 0.903481, 0.905444, 0.901324, 0.90358, 0.904156, 0.92194, 0.916371, 0.915856, 0.917579, 0.922226, 0.923164, 0.925535, 0.926384, 0.929481, 0.931703, 0.938386, 0.932676, 0.9335, 0.942502, 0.951082, 0.951591, 0.953384, 0.95232, 0.952512, 0.95341, 0.954124, 0.946226, 0.945126, 0.941675, 0.943402, 0.945204, 0.952662, 0.950033, 0.947533, 0.949117, 0.94574, 0.945533, 0.945791, 0.947692, 0.965505, 0.96181, 0.963251, 0.976387, 0.984036, 0.98636, 1.00113, 1.00139, 1.37792, 1.10743, 1.40944, 1.08755, 1.06224, 1.07861, 1.10935, 1.10432, 1.10537, 1.10173, 1.1239, 1.36453, 1.63533, 0.00469429, 1.17422, 1.59056, 1.59075, 1.1678, 1.16885, 1.16923, 1.17129, 1.17219, 1.17214, 1.17977, 1.17892, 1.17919, 1.17527, 1.17395, 1.17227, 1.17195, 1.16872, 1.16675, 1.34875, 1.18649, 1.37973, 1.23015, 1.24778, 1.13673
0.910032, 0.916257, 0.916611, 0.917628, 0.914585, 0.915196, 0.939309, 1.11234, 0.961947, 1.41241, 1.40715, 0.980627, 0.978877, 1.30183, 0.971223, 0.944372, 0.94342, 0.947197, 0.949045, 0.940906, 0.941846, 1.23672, 0.964407, 0.957881, 0.957637, 0.96361, 0.965585, 0.977459, 0.983646, 0.983823, 1.02219, 0.958535, 0.961175, 0.961573, 0.954454, 0.95029, 0.933415, 0.928535, 0.911127, 0.912507, 0.912156, 0.896966, 0.892006, 0.891992, 0.895376, 0.897723, 0.898204, 0.899959, 0.901022, 0.890514, 0.886655, 0.886919, 0.878123, 0.878552, 0.879048, 0.881262, 0.877326, 0.878629, 0.888368, 0.89023, 0.890996, 0.890158, 0.883948, 0.882116, 1.12309, 0.868075, 0.866751, 0.858662, 0.847558, 0.847445, 0.848635, 0.847128, 0.851338, 0.85181, 0.846505, 0.846698, 0.849275, 0.850235, 0.851051, 0.866325, 0.866427, 0.866466, 0.845243, 0.845735, 0.846099, 0.870546, 0.871712, 0.87209, 0.866489, 0.866336, 0.859563, 0.861105, 0.865487, 0.863602, 0.8609, 0.850028, 0.849041, 0.850426, 0.848508, 0.85297, 0.854663, 0.859175, 0.859323, 0.859234, 0.860632, 0.862691, 0.860991, 0.863679, 0.856364, 0.870561, 0.871859, 0.867238, 0.869229, 0.870163, 0.873181, 0.874027, 0.877991, 0.894427, 0.895387, 0.891257, 0.891565, 0.921202, 0.921102, 0.917982, 0.922316, 0.924397, 0.963255, 1.12554, 0.888919, 0.888333, 0.884791, 0.883584, 0.884718, 0.885014, 0.885173, 0.884803, 0.885792, 0.886517, 0.885238, 0.895794, 0.902252, 0.904164, 0.901476, 0.904282, 0.903854, 0.899004, 0.899803, 0.899379, 0.883973, 0.885751, 0.88724, 0.887073, 0.8944, 0.904996, 0.907518, 0.903114, 0.900025, 0.900335, 0.901857, 0.908075, 0.917994, 0.919226, 0.911217, 0.911939, 0.914536, 0.916377, 0.918358, 0.924351, 0.925142, 0.928512, 0.931538, 0.932657, 0.931724, 0.937787, 0.946593, 0.951862, 0.952474, 0.948254, 0.943739, 1.15336, 0.952329, 0.946529, 0.942223, 0.945993, 0.947453, 0.942135, 0.946696, 0.947369, 0.945089, 0.946196, 0.945298, 0.944326, 0.943689, 0.948178, 0.947424, 0.947027, 0.963327, 0.969749, 0.983055, 0.987856, 0.998903, 1.00493, 1.23727, 1.36247, 1.40175, 1.37483, 1.06561, 1.07011, 1.11963, 1.10473, 1.10703, 1.10431, 1.1043, 1.50348, 1.49252, 1.14662, 1.17753, 1.17426, 1.58519, 1.20603, 1.16965, 1.17015, 1.17103, 1.17134, 1.17222, 1.17309, 1.17723, 1.17369, 1.17387, 1.1733, 1.17296, 1.17034, 1.17067, 1.17204, 1.17061, 1.33169, 1.36359, 1.26446, 1.14352, 1.2196
0.907648, 0.915127, 0.917336, 0.91704, 0.911331, 0.91326, 1.0021, 1.32911, 1.32853, 1.37218, 0.983068, 0.985481, 0.985333, 1.33489, 1.24837, 0.943811, 0.943258, 0.948609, 0.947238, 0.942236, 0.946809, 0.963623, 0.964086, 0.961297, 0.961127, 0.964296, 0.965858, 0.976698, 0.981894, 0.982748, 0.952193, 0.952001, 0.954631, 0.959275, 1.26068, 1.30344, 0.932264, 1.02261, 0.90888, 0.909174, 0.908434, 0.888531, 0.889732, 0.892012, 0.89362, 0.89378, 0.896502, 0.900389, 1.1243, 0.886676, 0.886563, 0.887511, 0.87635, 0.876728, 0.877914, 0.876498, 0.875706, 0.880347, 0.883155, 0.887144, 0.887583, 0.880416, 0.879223, 0.877434, 0.873778, 0.864402, 0.862863, 0.99241, 0.845382, 0.846075, 0.845316, 0.845834, 0.853087, 0.850894, 0.847403, 0.843078, 0.846767, 0.848949, 0.847611, 0.869684, 0.869244, 0.84591, 0.84443, 0.845509, 0.847769, 0.860784, 0.864583, 0.870463, 0.869847, 0.864682, 0.857978, 0.860535, 0.86443, 0.863963, 0.857496, 0.847111, 0.847235, 0.849251, 0.850208, 0.85229, 0.85293, 0.854783, 0.855717, 0.858765, 0.858549, 0.859297, 0.858233, 0.855453, 0.850449, 0.856366, 0.858647, 0.86679, 0.867092, 0.869235, 0.868256, 0.867369, 0.867603, 1.10063, 0.885644, 0.885729, 0.890165, 0.917346, 0.920918, 0.915679, 0.91556, 0.915803, 0.910353, 1.18479, 0.884489, 0.885658, 0.881819, 0.879157, 0.880936, 0.880057, 0.880278, 0.881311, 0.8819, 0.883604, 0.883808, 0.89557, 0.898667, 0.899983, 0.898726, 0.89827, 0.898013, 0.895566, 0.897138, 0.893714, 0.88389, 0.883155, 0.883947, 0.885413, 0.895427, 0.899842, 0.902758, 0.902201, 0.895084, 0.897749, 0.896514, 0.904253, 0.921335, 0.908879, 0.909883, 0.911741, 0.911264, 0.910329, 0.911488, 0.917416, 0.919043, 0.919413, 0.92591, 0.928189, 0.929235, 0.932777, 0.939953, 0.946797, 0.944968, 0.938669, 0.937345, 0.936644, 0.935571, 0.935693, 0.937766, 0.944062, 0.943643, 0.940257, 0.943608, 0.943533, 0.941841, 0.940441, 0.940649, 0.941931, 0.944834, 0.946157, 0.943302, 0.945348, 0.960185, 0.971718, 0.990995, 0.992103, 0.998885, 1.01947, 1.01518, 1.01996, 1.30488, 1.40753, 1.07365, 1.08927, 1.098, 1.10595, 1.10599, 1.10472, 1.14181, 1.13246, 1.11377, 1.23172, 1.14087, 1.58659, 1.49729, 1.16157, 1.16599, 1.17115, 1.17068, 1.2513, 1.16765, 1.17006, 1.17242, 1.17151, 1.1722, 1.17096, 1.17106, 1.17207, 1.17279, 1.17254, 1.17021, 1.16811, 1.30868, 1.18164, 1.21539, 1.17815
0.910897, 0.911893, 0.912159, 0.909749, 0.908737, 0.908949, 0.998351, 0.993957, 0.961214, 0.980821, 0.981658, 0.98565, 0.986904, 1.00216, 0.944997, 0.94278, 0.943665, 0.946211, 0.946068, 0.942104, 0.942529, 0.963936, 0.963658, 0.966949, 0.960156, 0.967663, 0.967259, 0.976681, 0.980118, 1.01528, 0.947995, 0.949815, 0.952638, 0.952815, 0.00464164, 1.124, 0.918321, 0.910318, 0.906988, 0.904867, 0.906859, 0.908172, 0.893683, 0.895196, 0.887132, 0.894592, 0.89468, 0.898029, 0.888087, 0.882029, 0.880481, 0.8805, 0.870864, 0.870338, 0.875727, 0.873197, 0.871084, 0.879927, 0.882417, 0.884588, 0.883702, 0.880215, 0.87968, 0.876069, 0.874973, 0.869548, 0.993166, 0.840106, 0.839687, 0.844722, 0.844522, 0.842798, 0.850606, 0.847342, 0.839038, 0.839745, 0.848503, 0.845918, 0.846737, 0.865657, 0.867048, 0.840773, 0.841032, 0.842234, 0.843312, 0.868079, 0.870971, 0.871274, 0.866623, 0.865396, 0.857271, 0.860144, 0.86288, 0.862434, 0.854442, 0.848015, 0.846188, 0.846269, 0.848208, 0.849411, 0.850683, 0.852397, 0.854141, 0.854697, 0.855745, 0.856379, 0.853551, 0.853087, 0.844636, 0.844076, 0.855297, 0.857523, 0.864849, 0.865313, 0.858297, 0.861265, 0.861148, 0.883212, 0.877546, 0.877851, 0.884538, 0.910208, 0.910938, 0.913126, 0.911716, 0.912567, 0.904404, 1.17137, 0.88431, 0.881134, 0.873949, 0.873682, 0.874665, 0.874469, 0.874511, 0.87665, 0.876968, 0.877626, 0.883128, 0.891868, 0.895079, 0.894426, 0.892051, 0.890807, 0.891309, 0.890552, 0.888641, 0.881215, 0.881141, 0.879795, 0.878829, 0.877802, 0.886705, 0.887279, 0.89833, 0.900382, 0.891273, 0.893154, 0.894064, 0.894994, 0.918047, 0.913972, 0.906029, 0.904615, 0.904453, 0.904843, 0.908321, 0.91414, 0.915341, 0.912978, 0.914675, 0.92273, 0.926257, 0.929419, 0.939401, 0.942273, 0.933859, 0.932971, 0.931347, 0.933015, 0.933863, 0.93105, 0.929911, 0.941495, 0.942674, 0.940597, 0.945168, 0.945468, 0.940581, 0.940504, 0.937891, 0.938926, 0.941111, 0.940252, 0.940751, 0.955046, 0.956577, 0.963316, 0.988207, 0.991107, 0.992865, 1.0127, 1.01459, 1.40876, 1.47251, 1.40644, 1.07072, 1.47446, 1.09287, 1.11724, 1.13595, 1.08329, 1.07987, 1.11193, 1.10928, 1.16571, 0.00434119, 1.18781, 1.17891, 1.59075, 1.16365, 1.16534, 1.16572, 1.16627, 1.16679, 1.16664, 1.16756, 1.16819, 1.16865, 1.16934, 1.17236, 1.17098, 1.16952, 1.17332, 1.17402, 1.21529, 1.24757, 1.25075, 1.25209, 1.23459
0.911823, 0.911298, 0.910654, 0.908506, 0.910001, 0.913614, 0.946207, 0.948191, 1.39257, 0.972346, 0.975274, 0.975693, 1.42378, 0.961381, 0.943949, 0.943958, 0.945141, 0.946336, 0.944674, 0.943976, 0.942124, 0.966945, 0.966257, 0.96205, 0.961169, 0.973351, 0.974713, 0.976448, 0.976609, 1.04367, 0.937487, 0.938948, 0.939668, 0.949231, 0.948338, 1.31583, 0.914242, 0.907779, 0.90412, 0.900391, 0.904953, 0.90559, 0.8954, 0.894529, 0.89194, 0.892177, 0.893936, 0.89535, 0.888714, 0.880268, 0.879128, 0.878127, 0.869419, 0.867233, 0.871583, 0.86919, 0.868401, 0.877901, 0.883102, 0.883455, 0.883371, 0.880049, 0.878487, 0.873716, 0.869943, 0.866586, 0.843278, 0.83671, 0.835914, 0.842784, 0.844852, 0.843992, 0.847827, 0.846709, 0.83775, 0.83711, 0.845138, 0.842795, 0.842965, 0.859534, 1.04146, 0.835725, 0.837, 0.838659, 0.842052, 0.866154, 0.869707, 0.869421, 0.868085, 0.866665, 0.856817, 0.858486, 0.861623, 0.86274, 0.852892, 0.843649, 0.843835, 0.845195, 0.848021, 0.84927, 0.851632, 0.856423, 0.855025, 0.853995, 0.854457, 0.855823, 0.850976, 0.852946, 0.843117, 0.842822, 0.844087, 0.856707, 0.857953, 0.856171, 0.854882, 0.859509, 0.854456, 0.880435, 0.876479, 0.877169, 0.882243, 0.908425, 0.911375, 0.9065, 0.905884, 0.899439, 0.897658, 0.890221, 0.884058, 0.880224, 0.870537, 0.871709, 0.870124, 0.869981, 0.87233, 0.873753, 0.874888, 0.87485, 0.880081, 0.881876, 0.89046, 0.890237, 0.884242, 0.884482, 0.89006, 0.890191, 0.883326, 0.879956, 0.880612, 0.883638, 0.880776, 0.880939, 0.885721, 0.885688, 0.884963, 0.885682, 0.893745, 0.891624, 0.894799, 0.894465, 0.911453, 0.904665, 0.900369, 0.90114, 0.901026, 0.896195, 0.897312, 0.913518, 0.91437, 0.90882, 0.911261, 0.913011, 0.924834, 0.929935, 0.933204, 0.93867, 0.929487, 0.928646, 0.926997, 0.929633, 0.93015, 0.923147, 0.928728, 0.933706, 0.935011, 0.938574, 0.945106, 0.945404, 0.939863, 0.939071, 0.938212, 0.937586, 0.939953, 0.940801, 0.940825, 0.952563, 0.954389, 0.999346, 0.990158, 0.991964, 1.01335, 1.01486, 1.01684, 1.02602, 1.41051, 1.35928, 1.11189, 1.0831, 1.08904, 1.08985, 1.087, 1.08252, 1.08396, 1.1505, 1.11413, 1.11763, 1.1673, 1.1831, 1.1827, 1.16439, 1.2289, 1.1683, 1.16691, 1.16533, 1.16601, 1.1688, 1.16671, 1.16782, 1.16803, 1.1695, 1.1708, 1.17108, 1.17401, 1.17635, 1.1792, 1.19621, 1.24265, 1.23685, 1.21876, 1.17814
0.912076, 0.911562, 0.907647, 0.907365, 0.911246, 1.08815, 0.946365, 0.945804, 0.946552, 1.18222, 0.969816, 0.968087, 0.963006, 0.96093, 0.94451, 0.946186, 0.946658, 0.949058, 0.946588, 0.947258, 0.950848, 0.967819, 0.967808, 0.966906, 0.962581, 0.97508, 0.986922, 0.978945, 0.978131, 1.04011, 0.935458, 0.939599, 0.941076, 0.943766, 0.942831, 1.04592, 0.918314, 0.911969, 0.89735, 0.897276, 0.899431, 0.891161, 0.892131, 0.893784, 0.894115, 0.893397, 0.894536, 0.895318, 0.881852, 0.88012, 0.879111, 0.876871, 0.868448, 0.868401, 0.870447, 0.868253, 0.868765, 0.876669, 0.881446, 0.882238, 0.880569, 0.878364, 0.878116, 0.871966, 0.872429, 0.99265, 0.99346, 0.835426, 0.835816, 0.844607, 0.845905, 0.844328, 0.846356, 0.8452, 0.838806, 0.84005, 0.840983, 0.839057, 0.837959, 0.84847, 1.03956, 0.835588, 0.834215, 0.83859, 1.0596, 0.862616, 0.863696, 0.867767, 0.868309, 0.856369, 0.855285, 0.857836, 0.859517, 0.854263, 0.848789, 0.845987, 0.843772, 0.845816, 0.848099, 0.849784, 0.8579, 0.859562, 0.856684, 0.855967, 0.855528, 0.852744, 0.851053, 0.85075, 0.842806, 0.842218, 0.843654, 0.844661, 0.846412, 0.847831, 0.844172, 0.843602, 0.950141, 0.877019, 0.876996, 0.878483, 0.880886, 1.0649, 0.904353, 0.904164, 0.898738, 0.898344, 0.895508, 0.886857, 0.884707, 0.882486, 0.872922, 0.870152, 0.865253, 0.868955, 0.870643, 0.87392, 0.872598, 0.872269, 0.879057, 0.886098, 0.886834, 0.884364, 0.884698, 0.885182, 0.890231, 0.890932, 0.884115, 0.880873, 0.883796, 0.884884, 0.880126, 0.880687, 0.885097, 0.884177, 0.884034, 0.893675, 0.893977, 0.888319, 0.893035, 0.893716, 0.894584, 0.896107, 0.897941, 0.899316, 0.908025, 0.906816, 0.906135, 0.909593, 0.913618, 0.909917, 0.909517, 0.91284, 0.924069, 0.927642, 0.928961, 0.932529, 0.934622, 0.924009, 0.924049, 0.931646, 0.927849, 0.9217, 0.924667, 0.92557, 0.929011, 0.932799, 0.942878, 0.941596, 0.939082, 0.938021, 0.937248, 0.937311, 0.93875, 0.943683, 0.947739, 0.954276, 0.964845, 0.966924, 0.988772, 0.996525, 0.998148, 1.01583, 1.01898, 1.33359, 1.34727, 1.422, 1.07063, 1.12676, 1.10979, 1.0915, 1.08643, 1.08809, 1.14348, 1.14321, 1.1257, 1.11879, 1.16861, 1.16792, 1.16473, 1.1927, 1.23275, 1.16938, 1.16827, 1.16693, 1.16801, 1.16596, 1.16356, 1.16323, 1.1686, 1.17039, 1.17322, 1.31291, 1.24801, 1.34208, 1.23951, 1.23965, 1.22955, 1.20596, 1.21093, 1.22356
0.910909, 0.910207, 0.910256, 0.904815, 0.911486, 0.939505, 0.939723, 0.94116, 0.943647, 1.17944, 0.967671, 0.967161, 0.963974, 0.963517, 0.946295, 0.943139, 0.945562, 0.952479, 0.95034, 0.948193, 0.953729, 0.972185, 0.970887, 0.965987, 0.965346, 1.42325, 0.981353, 0.982733, 0.983138, 1.03413, 0.933077, 0.931374, 0.930248, 0.941648, 1.33013, 1.3369, 1.28507, 0.901015, 0.895458, 0.895034, 0.896913, 0.891287, 0.889123, 0.890606, 0.892174, 0.891831, 0.896356, 0.895155, 0.883217, 0.876952, 0.87826, 0.871019, 0.868421, 0.869942, 0.870578, 0.866161, 0.867519, 0.876281, 0.88029, 0.882341, 0.876374, 0.873349, 0.871423, 0.871042, 0.870353, 1.18815, 0.990632, 0.835685, 0.835634, 0.845645, 0.845395, 0.843497, 0.842324, 0.838391, 0.838754, 0.838396, 0.838299, 0.836366, 0.836804, 0.842535, 0.836496, 0.830406, 0.831565, 0.832618, 0.853219, 1.12193, 0.86302, 0.865668, 0.865852, 0.859621, 0.855729, 0.859018, 0.858942, 0.856912, 0.843362, 0.844722, 0.844077, 0.840264, 0.848457, 0.849053, 0.858276, 0.858529, 0.856285, 0.855488, 0.856134, 0.852555, 0.85058, 0.848495, 0.839738, 0.840001, 0.84135, 0.841476, 0.843407, 0.845866, 0.832669, 0.833299, 0.944414, 0.877663, 0.875806, 0.880027, 0.884676, 1.26283, 0.897363, 0.892185, 0.893073, 0.893135, 0.884334, 0.880067, 0.879843, 0.880296, 0.870849, 0.861811, 0.861607, 0.86129, 0.866264, 0.868547, 0.86974, 0.868836, 0.880101, 0.883865, 0.884373, 0.878128, 0.877014, 0.874475, 0.884259, 0.888271, 0.88377, 0.878196, 0.877947, 0.878312, 0.875156, 0.876539, 0.878379, 0.880797, 0.878757, 0.888566, 0.88908, 0.8856, 0.890679, 0.889357, 0.88703, 0.890022, 0.891829, 0.898491, 0.905667, 0.904406, 0.904109, 0.903968, 0.905743, 0.909701, 0.909004, 0.912229, 0.92151, 0.924638, 0.926417, 0.930581, 0.923034, 0.92176, 0.921631, 0.927508, 0.928743, 0.920514, 0.921618, 0.92253, 0.929106, 0.932059, 0.937916, 0.939101, 0.938652, 0.938893, 0.936305, 0.937464, 0.936652, 0.949693, 0.955587, 0.957865, 0.96667, 1.20801, 0.982592, 0.99575, 1.25703, 1.01478, 1.02186, 1.02563, 1.31647, 1.37942, 1.36754, 1.39882, 1.09437, 1.09348, 1.12447, 1.15427, 1.14376, 1.1031, 1.10777, 1.15309, 1.15305, 1.1906, 1.21247, 1.15693, 1.23281, 1.25213, 1.16583, 1.16689, 1.17042, 1.1668, 1.33256, 1.27783, 1.25092, 1.33328, 1.34962, 1.37978, 1.38125, 1.18965, 1.18901, 1.18804, 1.49323, 1.23462, 1.24099, 1.21167
0.908108, 0.909517, 0.905451, 0.904552, 0.91251, 0.933518, 0.935456, 0.934565, 0.936672, 0.942215, 1.43363, 0.967173, 0.967044, 0.950832, 0.942798, 0.943008, 0.944316, 0.953598, 0.952901, 0.952514, 0.954008, 0.970842, 0.970409, 0.966035, 0.965275, 0.969021, 0.981293, 0.982051, 0.98248, 0.929902, 0.931108, 0.92883, 0.930814, 0.933465, 0.913752, 0.911524, 0.909912, 0.893284, 0.890321, 0.890558, 0.891768, 0.88187, 0.880723, 0.881749, 0.888462, 0.89383, 0.894637, 0.881622, 0.877951, 0.873823, 0.874013, 0.870085, 0.867528, 0.867501, 0.863245, 0.864378, 0.866353, 0.872294, 0.87161, 0.870959, 0.869602, 0.867726, 0.869373, 0.869762, 0.871269, 1.18398, 0.832408, 0.834302, 0.835116, 0.843138, 0.840882, 0.839858, 0.840154, 0.835868, 0.836212, 0.83474, 0.835873, 0.837268, 0.836838, 0.833921, 0.82953, 0.827995, 0.82815, 0.83061, 0.852229, 0.854597, 0.858106, 0.856042, 0.856626, 0.857506, 0.856696, 0.858609, 0.858524, 0.852402, 0.851218, 0.842598, 0.841997, 0.834749, 0.833617, 0.850719, 0.856195, 0.857929, 0.837515, 0.852646, 0.852919, 0.85214, 0.84418, 0.842528, 0.837002, 0.838364, 0.839205, 0.839868, 0.841061, 0.835167, 0.831338, 0.831916, 0.830053, 0.87685, 0.877393, 0.880236, 0.887645, 0.888315, 0.889589, 0.89041, 0.890035, 0.887817, 0.878929, 0.877477, 0.880721, 0.863224, 0.858256, 0.8586, 0.859168, 0.858826, 0.863621, 0.867392, 0.861953, 0.863007, 0.872075, 0.875318, 0.877853, 0.878352, 0.870885, 0.872257, 0.872676, 0.867431, 0.867894, 0.880103, 0.869829, 0.867416, 0.871876, 0.87239, 0.873604, 0.875885, 0.872803, 0.883986, 0.884688, 0.879569, 0.880444, 0.884249, 0.885057, 0.884465, 0.883736, 0.886527, 0.89128, 0.901652, 0.90107, 0.900512, 0.903581, 0.911121, 0.910702, 0.911647, 0.918983, 0.919501, 0.923306, 0.92941, 0.921408, 0.917588, 0.918972, 0.924903, 0.926316, 0.918537, 0.91976, 0.922995, 0.925894, 0.930278, 0.934684, 0.935324, 0.934638, 0.93508, 0.935446, 0.936379, 0.941052, 1.03325, 1.01448, 0.974283, 0.97622, 0.977923, 0.987096, 0.993876, 0.994874, 1.0784, 1.02204, 1.02302, 1.15302, 1.34884, 1.14623, 1.12334, 1.12137, 1.09859, 1.12372, 1.11217, 1.10488, 1.10408, 1.10489, 1.14616, 1.15066, 1.17081, 1.22049, 1.14377, 1.14689, 1.1637, 1.25943, 1.16713, 1.17143, 1.17667, 1.30878, 1.24715, 1.18402, 1.1874, 1.18537, 1.18389, 1.42592, 1.18948, 1.18891, 1.18807, 1.44357, 1.55608, 1.29859, 1.24029
0.905542, 0.906702, 0.90346, 0.909055, 0.910371, 0.930735, 0.932204, 0.926573, 0.928792, 1.42878, 1.43719, 0.958393, 0.977575, 0.949585, 0.940689, 0.944452, 0.951523, 0.951599, 0.952084, 0.953523, 1.31604, 0.969657, 0.96957, 0.969333, 0.968062, 0.967655, 0.982584, 0.98216, 0.981922, 0.928775, 0.928618, 0.927859, 0.931732, 0.934741, 0.913043, 0.91019, 1.32312, 0.887415, 0.88732, 0.887264, 0.889261, 0.887304, 0.87964, 0.879517, 0.88758, 0.891266, 0.893739, 0.874933, 0.873129, 0.872059, 0.872413, 0.866746, 0.864221, 0.868331, 0.859714, 0.859953, 0.86241, 0.865003, 0.86643, 0.869578, 0.862972, 0.861644, 0.868296, 0.86871, 0.8685, 1.14, 0.838857, 0.835662, 0.837998, 0.840121, 0.839499, 0.839078, 0.838828, 0.831624, 0.831608, 0.831693, 0.833448, 0.836533, 0.836184, 0.832396, 0.823939, 0.823863, 0.826361, 0.829184, 0.851275, 0.856207, 0.855887, 0.851533, 0.853815, 0.856853, 0.855763, 0.858065, 0.858846, 0.852371, 0.852671, 0.847128, 0.829825, 0.83027, 0.832838, 0.83975, 0.840441, 1.09168, 0.818923, 0.817668, 0.852801, 0.849259, 0.843175, 0.839881, 0.837113, 0.83421, 0.83781, 0.840677, 0.841856, 0.822756, 0.823615, 0.828158, 0.828877, 0.866511, 0.878447, 0.883155, 0.884043, 0.886376, 0.886708, 0.887716, 0.886858, 0.887603, 0.887107, 0.874036, 0.872764, 0.8612, 0.857062, 0.854339, 0.854944, 0.856844, 0.858286, 0.863131, 0.860862, 0.857353, 0.860018, 0.867426, 0.864546, 0.871836, 0.871762, 0.872082, 0.866658, 0.863307, 0.86988, 0.872299, 0.869569, 0.867938, 0.867505, 0.867908, 0.871698, 0.872081, 0.870741, 0.869846, 0.873386, 0.873145, 0.879687, 0.881526, 0.884886, 0.881186, 0.882163, 0.885851, 0.889443, 0.891887, 0.8947, 0.896275, 0.9016, 0.910623, 0.911116, 0.911082, 0.918418, 0.920089, 0.921774, 0.924496, 0.925128, 0.916844, 0.916741, 0.923601, 0.92483, 0.916374, 0.917244, 0.921964, 0.923334, 0.931479, 0.932333, 0.934289, 0.932897, 0.932597, 0.93276, 0.934213, 0.947529, 1.02621, 0.973909, 0.976641, 0.979039, 0.983371, 0.985526, 0.991107, 0.990733, 1.09566, 1.00965, 1.03467, 1.31554, 1.34125, 1.22952, 1.10917, 1.12225, 1.1294, 1.11588, 1.11646, 1.11692, 1.10726, 1.10979, 1.11206, 1.16384, 1.13416, 1.13904, 1.17353, 1.24511, 1.16092, 1.16147, 1.27973, 1.17532, 1.30916, 1.26656, 1.25437, 1.28971, 1.1875, 1.18145, 1.18116, 1.18118, 1.18404, 1.48147, 1.54052, 1.49531, 1.58209, 1.59679, 1.18721
0.905668, 0.904977, 0.903022, 0.905197, 0.928769, 0.929318, 0.928437, 0.922691, 0.926621, 0.931611, 1.45842, 0.950527, 0.970334, 0.940229, 0.940438, 0.94343, 0.945571, 0.94926, 0.949686, 0.952753, 0.969023, 0.970468, 0.970777, 0.970763, 0.972134, 0.991577, 0.986537, 0.986264, 0.986378, 1.20552, 0.922293, 0.924113, 0.923145, 1.07399, 0.911015, 0.904642, 1.28104, 0.888294, 0.885659, 0.888335, 0.886506, 0.886747, 0.881235, 0.878454, 0.887142, 0.896464, 0.894832, 0.875084, 0.872946, 0.874161, 0.87291, 0.864953, 0.865161, 0.866681, 0.860308, 0.859662, 0.86207, 0.863158, 0.863549, 0.861418, 0.861121, 0.862912, 0.864427, 0.869465, 0.867213, 1.12274, 0.837933, 0.839913, 0.839054, 0.841736, 0.838431, 0.835251, 0.828521, 0.831845, 0.831182, 0.83143, 0.831891, 0.836997, 0.835635, 0.835205, 0.822915, 0.823297, 0.825876, 0.853342, 0.851256, 0.856084, 0.857346, 0.850118, 0.855081, 0.856873, 0.856549, 0.857871, 0.859351, 0.856736, 0.851403, 0.849151, 0.828618, 0.828364, 0.836343, 0.839768, 0.842324, 0.804902, 0.807606, 0.808292, 0.809372, 0.847152, 0.838576, 0.837257, 0.832778, 0.832066, 0.839988, 0.838725, 0.838354, 0.82217, 0.80833, 0.822895, 1.14433, 0.865686, 0.868108, 0.876461, 0.876947, 0.881831, 0.885103, 0.882743, 0.886099, 0.888829, 0.887918, 0.876454, 0.874128, 0.854783, 0.855787, 0.853984, 0.854106, 0.853141, 0.856509, 0.856983, 0.857955, 0.8557, 0.859363, 0.860703, 0.860584, 0.862931, 0.869842, 0.868172, 0.865444, 0.863922, 0.866328, 0.866382, 0.866852, 0.868336, 0.869866, 0.864783, 0.863929, 0.866147, 0.865388, 0.864089, 0.87289, 0.870913, 0.869516, 0.872874, 0.875133, 0.880457, 0.882129, 0.886569, 0.887844, 0.889769, 0.893723, 0.894908, 0.895357, 0.911628, 0.913277, 0.912432, 0.913735, 0.919225, 0.920378, 0.926775, 0.927827, 0.917019, 0.918956, 0.920489, 0.925043, 0.920863, 0.921086, 0.92611, 0.923934, 0.931894, 0.932428, 0.93252, 0.932695, 0.932213, 0.932276, 0.93485, 0.942434, 1.09945, 0.978756, 0.978938, 0.97987, 0.983797, 0.985382, 0.990569, 0.991422, 0.997055, 1.08795, 1.04526, 1.0464, 1.41904, 1.29995, 1.13287, 1.14056, 1.14801, 1.11548, 1.11707, 1.11683, 1.11524, 1.11324, 1.11486, 1.11513, 1.14055, 1.14915, 1.14323, 1.24238, 1.1613, 1.16443, 1.16676, 1.19254, 1.32289, 1.26419, 1.29497, 1.35367, 1.34145, 1.33378, 1.17735, 1.37394, 1.37177, 1.39265, 1.49418, 1.4955, 1.21814, 1.58225, 1.20574
0.905506, 0.906133, 0.903233, 0.907753, 0.928419, 0.930976, 0.922227, 0.921632, 0.921923, 0.928608, 1.0045, 0.945808, 0.943281, 0.938338, 0.93983, 0.942743, 0.944533, 0.948183, 0.948476, 1.52923, 0.971471, 0.972345, 0.970896, 0.971262, 0.983333, 0.982495, 0.986464, 0.986835, 1.03972, 1.04409, 0.920164, 0.91968, 0.922094, 0.909005, 0.908746, 0.90741, 1.27824, 0.888604, 0.886946, 0.885247, 0.883654, 0.88278, 0.882094, 0.880596, 0.891545, 0.895624, 0.878811, 0.877665, 0.876773, 0.87664, 0.87109, 0.869474, 0.865225, 0.865744, 0.857849, 0.855124, 0.859113, 0.857785, 0.859494, 0.858938, 0.858069, 0.86218, 0.864824, 0.866635, 0.866133, 0.840819, 0.842227, 0.838868, 0.838843, 0.839707, 0.837912, 0.83302, 0.828907, 0.828719, 0.828366, 0.827122, 0.827884, 0.831365, 0.832372, 0.828703, 0.822848, 0.823774, 0.827115, 1.18834, 0.852161, 0.856969, 0.857121, 0.855754, 0.855356, 0.856177, 0.855962, 0.856947, 0.859108, 0.855951, 0.852228, 0.846062, 0.826719, 0.827595, 0.833099, 0.839057, 0.80358, 0.804186, 0.805363, 0.805243, 0.805539, 0.83171, 0.829057, 0.82885, 0.831274, 0.829823, 0.834677, 0.837329, 0.810848, 0.797519, 0.799419, 0.806799, 0.932689, 0.868168, 0.869895, 0.873609, 0.879225, 0.879829, 0.88066, 0.883296, 0.886932, 0.887064, 0.884418, 0.874099, 0.872235, 0.860832, 0.84686, 0.844257, 0.847573, 0.848259, 0.850288, 0.851415, 0.854461, 0.852395, 0.852482, 0.856569, 0.85381, 0.858619, 0.859299, 0.860617, 0.861067, 0.85924, 0.860051, 0.85741, 0.860278, 0.867182, 0.869856, 0.864837, 0.865521, 0.865976, 0.864019, 0.861872, 0.866468, 0.870974, 0.866308, 0.86634, 0.867423, 0.88038, 0.886602, 0.886689, 0.885986, 0.888029, 0.890735, 0.892754, 0.895244, 0.912865, 0.912081, 0.911225, 0.915773, 0.918041, 0.922919, 0.927894, 0.927011, 0.918318, 0.919522, 0.918255, 0.916892, 0.918077, 0.921056, 0.924252, 0.926276, 0.933528, 0.932258, 0.930353, 0.931972, 0.931991, 0.930544, 0.934712, 0.937891, 0.940406, 1.09791, 0.971103, 0.979984, 0.980608, 0.982687, 0.987955, 0.995631, 1.00115, 1.00192, 1.02724, 1.03265, 1.04898, 1.07419, 1.12389, 1.13703, 1.08755, 1.14666, 1.12948, 1.11389, 1.11484, 1.11274, 1.11177, 1.11381, 1.12428, 1.19338, 1.5515, 1.14942, 1.18286, 1.16685, 1.17444, 1.17393, 1.27483, 1.32811, 1.19427, 1.19498, 1.31049, 1.33923, 1.179, 1.30505, 1.39394, 1.20476, 1.20489, 1.49896, 1.56736, 1.36551, 1.23781
0.905262, 0.902794, 0.901129, 1.19934, 0.927694, 0.928026, 0.926552, 0.919732, 0.918834, 0.922639, 0.93911, 0.939894, 0.939251, 0.932051, 0.931798, 0.942696, 0.944187, 0.944634, 0.944234, 0.961157, 0.961029, 0.971506, 0.971985, 1.28225, 0.982544, 0.983305, 0.98312, 1.05352, 1.05883, 0.923311, 0.915972, 0.917858, 0.917819, 0.912704, 0.909141, 0.904952, 0.89121, 0.886698, 0.885988, 0.882719, 0.883854, 0.882311, 0.880237, 0.884592, 0.891199, 0.893674, 0.878569, 0.877804, 0.877377, 0.876834, 0.875148, 0.870111, 0.867317, 0.859263, 0.856521, 0.854818, 0.855258, 0.856822, 0.857393, 0.857273, 0.85599, 0.857192, 0.862795, 0.863113, 0.862867, 0.853345, 0.841567, 0.838578, 0.839064, 0.838812, 0.830545, 0.829319, 0.825486, 0.826908, 0.825436, 0.82496, 0.825247, 0.826573, 0.828635, 0.824319, 0.824058, 0.823218, 0.828494, 0.850216, 0.851474, 0.858418, 0.859082, 0.855648, 0.856232, 0.856534, 0.855666, 0.855958, 0.854103, 0.852063, 0.84704, 0.843707, 0.823968, 0.825123, 0.82904, 0.832141, 0.803457, 0.805561, 0.803883, 0.80395, 0.804549, 0.827978, 0.821985, 0.824787, 0.828849, 0.826889, 0.82515, 0.804915, 0.804233, 0.788495, 0.782231, 0.783137, 1.05342, 0.864129, 0.873518, 0.873945, 0.877064, 0.87967, 0.881624, 0.882289, 0.882852, 0.883249, 0.883703, 0.87683, 1.33391, 0.844655, 0.838903, 0.839159, 0.840891, 0.843914, 0.847056, 0.848729, 0.850311, 0.851179, 0.853443, 0.853482, 0.848561, 0.853747, 0.85296, 0.856661, 0.855837, 0.856507, 0.856239, 0.857622, 0.859235, 0.862366, 0.866889, 0.866094, 0.866343, 0.866247, 0.866133, 0.860777, 0.866624, 0.86831, 0.864327, 0.86471, 0.866665, 0.873295, 0.884677, 0.884888, 0.885254, 0.886831, 0.886931, 0.889555, 0.891739, 0.877576, 0.911576, 0.910754, 0.912391, 0.914601, 0.923591, 0.926607, 0.921131, 0.9186, 0.917707, 0.912541, 0.914589, 0.91802, 0.917938, 0.924961, 0.924961, 0.931396, 0.930338, 0.93095, 0.929563, 0.931281, 0.931765, 0.933966, 0.933946, 0.937458, 0.942509, 1.10929, 0.97643, 0.976878, 0.981877, 0.99704, 1.00129, 1.00293, 1.34563, 1.03121, 1.03372, 1.03658, 1.07078, 1.14353, 1.13571, 1.08481, 1.11832, 1.09952, 1.10374, 1.10575, 1.11152, 1.11052, 1.11328, 1.17833, 1.15462, 1.14412, 1.14843, 1.18189, 1.17472, 1.21647, 1.2707, 1.18483, 1.29258, 1.19255, 1.19479, 1.196, 1.39176, 1.3959, 1.39458, 1.3929, 1.20444, 1.20345, 1.51812, 1.51771, 1.23817, 1.22411
0.906871, 0.897026, 0.897579, 0.929437, 0.929859, 0.92832, 0.919061, 0.918516, 0.917922, 1.174, 0.938568, 0.938255, 0.938293, 0.930674, 0.931498, 0.942233, 0.943754, 0.944712, 0.943722, 1.2394, 1.31613, 0.981574, 0.997118, 1.28122, 0.993731, 0.985731, 1.0233, 1.06281, 0.927038, 0.919399, 0.917928, 0.917429, 0.912069, 0.911254, 0.911777, 0.891376, 0.887695, 0.886772, 0.885379, 0.878639, 0.882933, 0.880775, 0.879846, 0.878963, 0.89052, 0.890963, 0.876106, 0.875429, 0.876963, 0.875618, 1.1013, 0.866482, 0.857929, 0.852861, 0.853973, 0.855962, 0.853561, 0.852799, 0.853638, 0.853074, 0.85281, 0.856726, 0.862976, 0.863793, 0.863899, 0.843323, 0.842615, 0.838956, 0.839135, 0.837197, 0.826081, 0.826142, 0.824349, 0.824712, 0.8204, 0.82157, 0.824397, 0.826443, 0.828126, 0.82509, 0.823392, 0.827619, 0.830587, 0.849776, 0.852157, 0.859651, 0.857855, 0.85853, 0.855836, 0.854024, 0.852017, 0.855492, 0.851274, 0.84877, 0.845869, 0.842792, 0.822356, 0.821522, 0.821091, 0.824719, 0.820988, 0.803563, 0.803638, 0.804787, 0.811082, 0.812942, 0.809992, 0.821496, 0.818045, 0.817307, 0.817847, 0.81531, 0.787548, 0.784516, 0.781446, 0.781784, 0.00482631, 0.864062, 0.866517, 0.873348, 0.874859, 0.879033, 0.880211, 0.879669, 0.877228, 0.87653, 0.875276, 0.867577, 0.862618, 1.10859, 0.83444, 0.835009, 0.836088, 0.842479, 0.846666, 0.849002, 0.848506, 0.845418, 0.84674, 0.845757, 0.842189, 0.842613, 0.848729, 0.847536, 0.853346, 0.850819, 0.850177, 0.852044, 0.85339, 0.86303, 0.866276, 0.864657, 0.865629, 0.864071, 0.863024, 0.865077, 0.867072, 0.873849, 0.87107, 0.866498, 0.868229, 0.872818, 0.873976, 0.883904, 0.88475, 0.886919, 0.88655, 0.887981, 0.886689, 0.874445, 0.91186, 0.911608, 0.912223, 0.913404, 0.924556, 0.925898, 0.91942, 0.920167, 0.914242, 0.911337, 0.91104, 0.911801, 0.917074, 0.920279, 0.926592, 0.925589, 0.925429, 0.927885, 0.92364, 0.926226, 0.928927, 0.932658, 0.934171, 0.938239, 0.942083, 1.10424, 0.972214, 0.977901, 0.99432, 1.00169, 1.00356, 1.00462, 1.36439, 1.03119, 1.03619, 1.04008, 1.4349, 1.06455, 1.07254, 1.07963, 1.09533, 1.47192, 1.10134, 1.10099, 1.10109, 1.11231, 1.11292, 1.12344, 1.18656, 1.18267, 1.14769, 1.23681, 1.28828, 1.22186, 1.22089, 1.18388, 1.32929, 1.19542, 1.19622, 1.19857, 1.36168, 1.36104, 1.38805, 1.20145, 1.2018, 1.20127, 1.19484, 1.22657, 1.53148, 1.21358
0.903493, 0.896834, 0.895342, 1.15991, 0.926796, 0.925825, 0.920944, 0.918719, 0.918586, 0.935576, 0.936295, 0.936612, 0.93612, 0.929655, 0.931599, 0.942686, 0.944106, 0.946088, 0.947883, 0.974263, 1.455, 0.984356, 0.986284, 0.995268, 0.994737, 0.992984, 1.06436, 1.06161, 0.919499, 0.920041, 0.918, 0.917519, 0.906861, 0.905171, 0.898343, 0.891244, 0.883914, 0.882819, 0.878088, 0.877255, 0.87647, 0.880833, 0.878304, 0.883846, 0.88625, 0.878595, 0.877232, 0.8671, 0.87177, 0.869278, 0.863342, 0.863362, 0.857012, 0.855467, 0.854796, 0.854051, 0.850876, 0.849616, 0.853122, 0.848169, 0.848621, 0.857847, 0.860443, 0.862708, 0.86311, 0.8457, 0.841923, 0.83991, 0.839474, 0.831791, 0.823554, 0.823461, 0.820923, 0.823742, 0.820417, 0.819423, 0.819707, 0.829284, 0.835567, 0.827644, 0.825389, 0.826331, 0.838616, 0.846053, 0.854143, 0.85827, 0.857592, 0.857465, 0.854675, 0.849869, 0.850348, 0.849111, 0.84788, 0.848966, 0.838393, 0.833531, 0.812333, 0.811625, 0.818095, 0.819892, 0.818879, 0.804129, 0.803779, 0.804267, 0.810193, 0.809663, 0.808188, 0.814608, 0.815651, 0.812031, 0.811847, 0.81001, 0.786304, 0.782945, 0.779773, 0.780249, 0.00549183, 1.26045, 1.26399, 1.28385, 0.874195, 0.875162, 0.876971, 0.876803, 0.874072, 0.875395, 0.863403, 0.861166, 0.85729, 0.856946, 0.829307, 0.833096, 0.834564, 0.84155, 0.84186, 0.842581, 0.841542, 0.842455, 0.838846, 0.835076, 0.829312, 0.836158, 0.838647, 0.839968, 0.843017, 0.843377, 0.844633, 0.846785, 0.848116, 0.850063, 0.863008, 0.859828, 0.862765, 0.862573, 0.864727, 0.86393, 0.871372, 0.872078, 0.868578, 0.868475, 0.869123, 0.872271, 0.873239, 0.876419, 0.883155, 0.884369, 0.884283, 0.885341, 0.883532, 0.891364, 0.894933, 0.896509, 0.896986, 0.89932, 0.916343, 0.918624, 0.909924, 0.910911, 0.910374, 0.911052, 0.911336, 0.909453, 0.912991, 0.921617, 0.928125, 0.928758, 0.922993, 0.92033, 0.918493, 0.920375, 0.921655, 0.934255, 0.935762, 0.938835, 0.941619, 1.10477, 1.25344, 0.985033, 0.998131, 1.00164, 1.00641, 1.00625, 1.0948, 1.03681, 1.0365, 1.03872, 1.44167, 1.06464, 1.07438, 1.0754, 1.13646, 1.12898, 1.09611, 1.09917, 1.10032, 1.11881, 1.15272, 1.12467, 1.19979, 1.18516, 1.21904, 1.15671, 1.16055, 1.30247, 1.27267, 1.22577, 1.31063, 1.19697, 1.29656, 1.29592, 1.20322, 1.20396, 1.20191, 1.20168, 1.2031, 1.47791, 1.5942, 1.2622, 0.00431557, 1.23628
0.901138, 0.896438, 0.896225, 0.926944, 0.928682, 0.92791, 0.918332, 0.915617, 0.922765, 0.942528, 0.936622, 0.936298, 0.932676, 0.932325, 0.934513, 0.947483, 0.946882, 0.94465, 0.9661, 1.21165, 0.995053, 0.987299, 0.985466, 0.994847, 0.994984, 0.996208, 1.36422, 1.3973, 0.918086, 0.920194, 0.920515, 0.917947, 0.966312, 0.895263, 0.888858, 0.887659, 0.886997, 0.884029, 0.877331, 0.876909, 0.866491, 0.869495, 0.874115, 0.878562, 0.968468, 0.863041, 0.857118, 0.866651, 0.870606, 0.869471, 0.868609, 0.863559, 0.852789, 0.85224, 0.856415, 0.853119, 0.848006, 0.846793, 0.846698, 0.843718, 0.846733, 0.852832, 0.859158, 0.860617, 0.859185, 0.847322, 0.84164, 0.839578, 0.839966, 0.829904, 0.819878, 0.820651, 0.820142, 0.821201, 0.819287, 0.818866, 0.821841, 0.837609, 0.836401, 0.828086, 0.827822, 0.8303, 0.840349, 0.852086, 0.853529, 0.858921, 0.858175, 0.851748, 0.850104, 0.847215, 0.847968, 0.849064, 0.843671, 0.842459, 0.836418, 0.835475, 0.811476, 0.812786, 0.816453, 0.817714, 0.81817, 0.815961, 0.803804, 0.805425, 0.808837, 0.808314, 0.803758, 0.80459, 0.809713, 0.809357, 0.80944, 0.806092, 0.783599, 0.781399, 0.776899, 0.778641, 1.28462, 1.23565, 0.863708, 0.864684, 0.870053, 0.872457, 0.87494, 0.871837, 0.871602, 0.866675, 0.860799, 0.858971, 0.858609, 0.831303, 0.828036, 0.828411, 0.832323, 0.838598, 0.839277, 0.831715, 0.83203, 0.832128, 0.830405, 0.827317, 0.826935, 0.832528, 0.834976, 0.836863, 0.83626, 0.838706, 0.839087, 0.839165, 0.843426, 0.845876, 0.85775, 0.857823, 0.855925, 0.860528, 0.865613, 0.863917, 0.864829, 0.867594, 0.867965, 0.865954, 0.86624, 0.865416, 0.873345, 0.874458, 0.881699, 0.881855, 0.883963, 0.88397, 0.879161, 0.884769, 0.895056, 0.895734, 0.891447, 1.25488, 0.913903, 0.916032, 0.908369, 0.907803, 0.907722, 0.909774, 0.907878, 0.908901, 0.91515, 0.922043, 0.929352, 0.928675, 0.919207, 0.916498, 0.917709, 0.919339, 0.923558, 0.939575, 0.943311, 0.941138, 0.942873, 1.08069, 1.27245, 0.997288, 1.00437, 1.00685, 1.00842, 1.00935, 1.01642, 1.03463, 1.03619, 1.03665, 1.44447, 1.34527, 1.07622, 1.07421, 1.07731, 1.0814, 1.08561, 1.12218, 1.10668, 1.11161, 1.15002, 1.18044, 1.20781, 1.20908, 1.20598, 1.29631, 1.27387, 1.24587, 1.24756, 1.24445, 1.29876, 1.29031, 1.19604, 1.20215, 1.20402, 1.20531, 1.20376, 1.20356, 1.47791, 1.48739, 1.48814, 1.36831, 0.00450966, 1.58984
0.901459, 0.896713, 0.896768, 0.928656, 0.927586, 0.925685, 0.91872, 0.917863, 0.921466, 0.940918, 0.938421, 0.937991, 0.932453, 0.935183, 0.935051, 0.946954, 0.946974, 0.945824, 0.949958, 0.971391, 1.01437, 0.991237, 0.987015, 0.995165, 0.995628, 0.99616, 1.24882, 0.915863, 0.91494, 0.91943, 0.918702, 0.965623, 1.11343, 0.892924, 0.885497, 0.882464, 0.885042, 0.887034, 0.883982, 0.879624, 0.863174, 0.863012, 0.863019, 0.977436, 0.857473, 0.856036, 0.854626, 0.857475, 0.869155, 0.867727, 0.865976, 0.854809, 0.852963, 0.851541, 0.856557, 0.849979, 0.84609, 0.843864, 0.838989, 0.842008, 0.84327, 0.849385, 0.859363, 0.859636, 0.859239, 0.839362, 0.8387, 0.837924, 0.838732, 0.831672, 0.818662, 0.817996, 0.817982, 0.818307, 0.818247, 0.817894, 0.819629, 0.840682, 0.841122, 0.828523, 0.828749, 0.829839, 0.838738, 0.852461, 0.854566, 0.855837, 0.853641, 0.851563, 0.848891, 0.846744, 0.840193, 0.840222, 0.837051, 0.837161, 0.833614, 0.830628, 0.81123, 0.814397, 0.814848, 0.81627, 0.81489, 0.801007, 0.802169, 0.808232, 0.809852, 0.800743, 0.802773, 0.803218, 0.80886, 0.808251, 0.807407, 0.802757, 0.777909, 0.77911, 0.777117, 0.779994, 1.44044, 1.32112, 0.856449, 0.856588, 0.863399, 1.35385, 0.86496, 0.865881, 0.861022, 0.862908, 0.859036, 0.84871, 0.842294, 0.827941, 0.825418, 0.825275, 0.828898, 0.833585, 0.832737, 0.828107, 0.825451, 0.824852, 0.827312, 0.824636, 0.823398, 0.825203, 0.828449, 0.824168, 0.831992, 0.83458, 0.836384, 0.838654, 0.840903, 0.841939, 0.842114, 0.849262, 0.849251, 0.849694, 0.861125, 0.860794, 0.857987, 0.864218, 0.864416, 0.86423, 0.865134, 0.866779, 0.871913, 0.876523, 0.87806, 0.8808, 0.881548, 0.880307, 0.876923, 0.879962, 0.892139, 0.893359, 0.88794, 0.88799, 0.914018, 0.915332, 0.917331, 0.903922, 0.904133, 0.905103, 0.907593, 0.908073, 0.909487, 0.921636, 0.928255, 0.928039, 0.916428, 0.915336, 0.917904, 0.91987, 0.92062, 0.940217, 0.945295, 0.943885, 1.10135, 1.09794, 1.05683, 0.996816, 1.00213, 1.00464, 1.00708, 1.00848, 1.01837, 1.02886, 1.03419, 1.0349, 1.03925, 1.35769, 1.35926, 1.10986, 1.08165, 1.08083, 1.08718, 1.09391, 1.12399, 1.11217, 1.16102, 1.16374, 1.30535, 1.2954, 1.17867, 1.28283, 1.23532, 1.29303, 1.28224, 1.48283, 1.29392, 1.19651, 1.1961, 1.19728, 1.19765, 1.19981, 1.19388, 1.19573, 1.50519, 1.58907, 1.25067, 1.17047, 1.25731, 1.27038
0.898146, 0.897334, 0.896615, 0.927301, 0.926557, 0.925633, 0.917649, 0.91756, 1.12387, 0.944227, 0.943139, 0.934112, 0.932088, 0.935278, 0.935466, 0.949051, 0.948507, 0.947996, 0.948702, 1.05763, 0.987435, 0.987287, 0.987656, 0.988037, 0.999524, 1.0226, 1.26499, 0.914019, 0.916485, 0.917843, 0.917512, 1.12394, 1.10577, 0.879553, 0.875535, 0.871839, 1.15532, 0.876687, 0.883818, 0.875343, 0.874117, 0.867522, 0.862666, 0.981675, 0.834988, 0.835871, 0.843677, 0.854453, 0.86027, 0.86132, 0.859182, 0.854963, 0.852138, 0.853248, 0.856326, 0.841844, 0.842647, 0.8382, 0.827808, 1.03774, 0.837076, 0.841913, 0.860336, 0.862021, 0.86269, 0.839727, 0.838094, 0.83503, 0.834921, 0.824691, 0.816157, 0.814834, 0.81494, 0.816089, 0.814842, 0.816054, 1.07426, 0.841011, 0.842362, 0.831501, 0.830739, 0.830573, 0.838831, 0.849281, 0.856747, 0.855674, 0.850649, 0.849162, 0.848773, 0.840654, 0.838516, 0.839127, 0.841693, 0.835302, 0.829742, 0.826209, 0.811279, 0.812177, 0.813413, 0.81413, 0.813994, 0.797882, 0.80162, 0.807069, 0.807246, 0.804971, 0.804242, 0.807149, 0.807346, 0.805715, 0.802305, 0.797412, 0.771223, 0.772799, 0.773267, 0.778334, 0.00460574, 0.832057, 0.840255, 0.853879, 1.38245, 0.856043, 0.856327, 0.856025, 0.856219, 0.855633, 0.844041, 0.842683, 0.835963, 0.823519, 0.82238, 0.823389, 0.823714, 0.832077, 1.08598, 0.811547, 0.821881, 0.818362, 0.822254, 0.819888, 0.819591, 0.821348, 0.821283, 0.821769, 0.827529, 0.830743, 0.835003, 0.837591, 0.838521, 0.838913, 0.837739, 0.845835, 0.845597, 0.846163, 0.849782, 0.843157, 0.845875, 0.855967, 0.862931, 0.863018, 0.859983, 0.865474, 0.86908, 0.873817, 0.874801, 0.879876, 0.87842, 0.872459, 0.873041, 0.881374, 0.890747, 0.89337, 0.887699, 0.894587, 0.910145, 0.914638, 0.916359, 0.899469, 0.898673, 0.903389, 0.905691, 0.904838, 0.907314, 1.05811, 0.923798, 0.922293, 0.918653, 0.918123, 0.918562, 0.921461, 0.926184, 1.02511, 0.950361, 0.952385, 1.00983, 1.09782, 0.994419, 0.99661, 0.998876, 1.00765, 1.00759, 1.00786, 1.01412, 1.02956, 1.03069, 1.0324, 1.04248, 1.355, 1.15334, 1.08742, 1.08783, 1.08445, 1.08939, 1.09471, 1.09897, 1.1062, 1.11994, 1.18928, 1.18384, 1.19417, 1.19966, 1.29615, 1.28192, 1.27439, 1.28202, 1.29471, 1.29456, 1.33243, 1.43728, 1.19641, 1.39017, 1.19993, 1.19389, 1.19054, 1.18965, 1.17361, 1.17512, 1.25859, 1.25792, 1.12444
0.897345, 0.898158, 0.903592, 0.92663, 0.925807, 0.926355, 0.917692, 0.919403, 1.13323, 0.944105, 0.933321, 0.929894, 0.930019, 0.934153, 0.950583, 0.952401, 0.949127, 0.94898, 0.952017, 1.06172, 0.980891, 0.991618, 0.987267, 0.987656, 0.998577, 1.0746, 1.2148, 0.908329, 0.917079, 0.916952, 1.1158, 1.12862, 0.886898, 0.875965, 0.867498, 0.867007, 0.87403, 0.873204, 0.867645, 0.870876, 0.86835, 0.865603, 0.986514, 0.830819, 0.832354, 0.833683, 0.839525, 0.84013, 0.854129, 0.853021, 0.852317, 0.85242, 0.85189, 0.8533, 0.850014, 0.849262, 1.02314, 0.821987, 0.821295, 0.821719, 0.930077, 0.969564, 0.862346, 0.864575, 0.864041, 0.843188, 0.835257, 0.833588, 0.82445, 0.821571, 0.815641, 0.813963, 0.814116, 0.813449, 0.813388, 0.816404, 0.838125, 0.839416, 0.839069, 0.830477, 0.830366, 0.828757, 0.839485, 0.850451, 0.851893, 0.849509, 0.848978, 0.840627, 0.84047, 0.840988, 0.839319, 0.839699, 0.83995, 0.829512, 0.825065, 0.824076, 0.813213, 0.811158, 0.81106, 0.790356, 0.792307, 0.793405, 0.792276, 0.804159, 0.806346, 0.804473, 0.804102, 0.805164, 0.807336, 0.801963, 0.794475, 0.793728, 0.767725, 0.770129, 0.773889, 0.774377, 0.829741, 0.831598, 0.852352, 0.856645, 0.857231, 0.855475, 0.856313, 0.855865, 0.856281, 0.852841, 0.840239, 0.838335, 1.24501, 1.09506, 0.818749, 0.818423, 0.817677, 0.817097, 0.810943, 0.813436, 0.811081, 0.810774, 0.817445, 0.815453, 0.814256, 0.815252, 0.816565, 0.820501, 0.822897, 0.826858, 0.831652, 0.832274, 0.835407, 0.83274, 0.833807, 0.8415, 0.842326, 0.84252, 0.841246, 0.841402, 0.844764, 0.84937, 0.854401, 0.855127, 0.857936, 0.862707, 0.868389, 0.86993, 0.871904, 0.876747, 0.877259, 0.877682, 0.871732, 0.881102, 0.885919, 0.891389, 0.886711, 0.890428, 0.909215, 0.913369, 0.914317, 0.898033, 0.895132, 0.896566, 0.904166, 0.904269, 0.906151, 0.90916, 0.921357, 0.921775, 0.919026, 0.92099, 0.921564, 0.921437, 0.930173, 0.938972, 0.949776, 0.955927, 0.984461, 0.997989, 0.995587, 0.998604, 1.00084, 1.00204, 1.00476, 1.00666, 1.00706, 1.07824, 1.03352, 1.03395, 1.04645, 1.36068, 1.06793, 1.08605, 1.08855, 1.08871, 1.08997, 1.09527, 1.10474, 1.14691, 1.12237, 1.14423, 1.24382, 1.20127, 1.209, 1.2222, 1.28751, 1.258, 1.26492, 1.27304, 1.21698, 1.34069, 1.26792, 1.49025, 1.39079, 1.24083, 1.46149, 1.45667, 1.59523, 1.17576, 1.28087, 1.30895, 1.30822, 1.32731
0.886273, 0.887398, 0.990816, 0.924842, 0.923676, 0.919545, 0.915036, 0.913869, 0.949408, 0.933252, 0.92384, 0.924806, 0.92987, 0.94646, 0.952903, 0.950651, 0.94993, 0.949429, 1.23941, 1.26782, 0.991581, 0.991009, 0.993026, 0.988984, 1.03227, 1.3237, 0.911236, 0.910468, 1.08538, 0.916238, 1.12337, 1.12585, 1.10912, 1.09455, 0.86342, 0.866392, 0.87319, 0.864823, 0.865112, 0.861889, 0.861423, 0.92104, 0.922441, 0.826824, 0.828931, 0.831818, 0.83262, 0.839165, 0.852515, 0.852397, 0.849173, 0.843087, 0.850814, 0.852153, 0.852257, 0.92316, 0.812023, 0.814235, 0.813962, 0.81751, 0.82326, 0.883489, 0.882277, 0.881939, 1.02911, 1.1746, 0.831579, 0.819331, 0.818899, 0.818857, 0.815912, 0.812973, 0.813865, 0.814812, 0.815158, 0.81504, 0.83919, 0.838452, 0.838563, 0.830937, 0.831266, 0.83338, 0.83694, 0.848915, 0.852389, 0.845399, 0.845072, 0.844408, 0.837672, 0.839295, 0.843499, 0.844116, 0.829005, 0.823126, 0.820358, 0.819569, 0.819618, 0.810363, 0.808841, 0.789291, 0.790735, 0.792704, 0.792653, 0.800789, 0.80334, 0.802869, 0.800653, 0.802772, 0.804103, 0.804845, 0.7968, 0.767467, 0.765885, 0.765168, 0.767405, 0.775505, 1.32434, 1.45434, 1.45729, 0.855798, 0.856181, 0.856112, 0.855875, 0.857066, 0.848039, 0.841962, 0.841128, 0.832461, 1.17779, 1.12703, 0.814411, 0.912285, 0.912467, 0.811657, 1.09859, 1.09914, 0.809371, 0.810138, 0.807818, 0.80977, 0.811715, 0.811798, 0.811731, 0.812407, 0.819251, 0.823919, 0.823653, 0.82622, 0.828898, 0.8286, 0.827928, 0.834117, 0.83539, 0.83395, 0.831698, 0.836148, 0.839477, 0.841225, 0.852148, 0.852413, 0.852919, 0.862531, 0.863458, 0.862949, 0.867998, 0.872319, 0.87569, 0.877253, 0.870209, 0.871054, 0.882598, 0.887993, 0.88319, 0.886723, 0.907264, 0.910277, 0.911002, 0.896409, 0.892778, 0.893452, 0.895096, 0.901846, 0.902947, 0.908195, 0.911788, 0.918535, 0.921495, 0.921771, 0.921101, 0.921255, 0.923031, 0.93979, 1.02468, 0.959551, 1.03885, 0.99467, 0.996481, 0.999619, 1.001, 1.00294, 1.00002, 1.00355, 1.08862, 1.4224, 1.03634, 1.03901, 1.04278, 1.36124, 1.47135, 1.56815, 1.122, 1.09766, 1.09758, 1.09739, 1.13648, 1.12294, 1.11721, 1.19497, 1.13871, 1.20608, 1.21368, 1.29645, 1.31037, 1.28494, 1.26463, 1.21903, 1.22142, 1.22165, 1.57788, 1.34423, 1.29588, 1.28973, 1.23412, 1.21647, 1.58911, 1.19245, 1.17599, 1.30266, 1.59703, 1.52462
0.896124, 0.897026, 0.921671, 0.922178, 0.92323, 0.921397, 0.914235, 0.91547, 0.919064, 0.918578, 0.920494, 0.921679, 0.954233, 0.95031, 0.952222, 0.952228, 0.9525, 0.953402, 0.95607, 1.29127, 0.990504, 0.990965, 0.994265, 1.12244, 1.0358, 0.916176, 0.911478, 1.0915, 0.900901, 1.1187, 0.891301, 1.12079, 1.10334, 1.10786, 0.853273, 0.915957, 0.872765, 0.863791, 0.863518, 0.855095, 0.878545, 0.827832, 0.822894, 0.823232, 0.826104, 0.824729, 0.832503, 0.829377, 0.831514, 0.84851, 0.845269, 0.843909, 0.848981, 0.852342, 0.851621, 0.84651, 0.813085, 0.811667, 0.813791, 0.813276, 0.813311, 0.884392, 0.883039, 0.884307, 1.00831, 0.835725, 0.824866, 0.818689, 0.816753, 0.818718, 0.811927, 0.811379, 0.812452, 0.81473, 0.814589, 0.818023, 0.836368, 0.837209, 0.836626, 0.832378, 0.832008, 0.835008, 0.837296, 0.848664, 0.84753, 0.845911, 0.8454, 0.847004, 0.840644, 0.846537, 0.845835, 0.845136, 0.823683, 0.819004, 0.819113, 0.820375, 0.808456, 0.809316, 0.805836, 0.786623, 0.786553, 0.794689, 0.79722, 0.799119, 0.799685, 0.800902, 0.793647, 0.7977, 0.804177, 0.795796, 0.787472, 0.786613, 0.761499, 0.764402, 0.763859, 0.771489, 0.810445, 0.82263, 0.841712, 0.841651, 0.850221, 0.853301, 0.853346, 0.851876, 0.846965, 0.840601, 0.832255, 0.825821, 1.13705, 0.809475, 0.910753, 0.911286, 0.907978, 0.79324, 0.836317, 0.794114, 0.801575, 0.801099, 0.801619, 0.801593, 0.808218, 0.810967, 0.811151, 0.811678, 1.34397, 0.821627, 0.820607, 0.82342, 0.825899, 0.825206, 0.824606, 0.826712, 0.829773, 0.831549, 0.829001, 0.83848, 0.84031, 0.839528, 0.848297, 0.850015, 0.850823, 0.859872, 0.860047, 0.859724, 0.866536, 0.872343, 0.876411, 0.877162, 0.870133, 0.871634, 0.880075, 0.882193, 0.883336, 0.888118, 0.897359, 0.904359, 0.902869, 0.893169, 0.887178, 0.888746, 0.896912, 0.900499, 0.904014, 0.904769, 0.918436, 0.920747, 0.919183, 0.920854, 0.919777, 0.917732, 0.919218, 0.942166, 0.946206, 1.25786, 1.08465, 0.998219, 0.999276, 1.00122, 1.00517, 1.00716, 1.00196, 1.01299, 1.02027, 1.38737, 1.03984, 1.04032, 1.04311, 1.49826, 1.36244, 1.35418, 1.119, 1.09634, 1.09657, 1.09793, 1.10034, 1.1121, 1.1129, 1.13299, 1.13481, 1.1363, 1.21661, 0.0037341, 1.29158, 1.28966, 1.29513, 1.22178, 1.2254, 1.22534, 1.31787, 1.34663, 1.23543, 1.29544, 1.40184, 1.23911, 1.28564, 1.65433, 1.18105, 1.17043, 1.1361, 1.39128
0.896786, 0.898152, 0.926812, 0.926725, 0.926514, 0.916613, 0.913228, 0.916216, 0.919907, 0.912605, 0.912494, 0.920677, 0.955786, 0.947301, 0.953905, 0.95518, 0.953925, 0.954888, 0.954946, 1.32092, 0.988169, 0.988193, 1.02887, 1.15719, 1.06048, 1.092, 0.89388, 1.08605, 1.0982, 1.13351, 0.897413, 1.12504, 1.0674, 0.838956, 0.836842, 0.92552, 0.883273, 0.856127, 0.884554, 0.854006, 0.936382, 0.817957, 0.820576, 0.819956, 0.824503, 0.821076, 0.821527, 0.825277, 0.82672, 0.892282, 0.841899, 0.842739, 0.848988, 0.849662, 0.848608, 0.846911, 0.809824, 0.809885, 0.811176, 0.816306, 0.81696, 0.873126, 0.873029, 0.859115, 0.858714, 0.8325, 1.02231, 0.812301, 0.811368, 0.809526, 0.810098, 0.80995, 0.813501, 0.813959, 0.811566, 0.817333, 0.831636, 0.83673, 0.836497, 0.830846, 0.833359, 0.831846, 0.834006, 0.845381, 0.845406, 0.845386, 0.845732, 0.847114, 0.844264, 0.844466, 0.84547, 0.838932, 0.815971, 0.81556, 0.821828, 0.820999, 0.807737, 0.803101, 0.800649, 0.783426, 0.785212, 0.785741, 0.795072, 0.795921, 0.797531, 1.33295, 0.786648, 0.78594, 1.25467, 0.789232, 0.78413, 0.786563, 0.762261, 0.762329, 0.762903, 0.766796, 0.80432, 0.815282, 0.976425, 1.68899, 0.845169, 0.847752, 0.84922, 0.848657, 0.847248, 0.767302, 0.775013, 0.811911, 0.728465, 0.00460775, 0.736725, 0.721072, 0.738775, 0.729253, 0.746234, 0.792183, 0.726617, 0.74565, 0.750657, 0.708092, 0.704405, 0.723864, 0.795296, 0.795645, 0.79546, 0.814429, 0.816086, 0.817335, 0.817244, 0.818462, 1.31611, 0.823257, 0.823779, 0.824524, 0.82496, 0.826126, 0.839104, 0.836994, 0.833424, 1.06021, 0.851084, 0.851767, 0.853993, 0.859922, 0.861665, 0.872991, 0.874462, 0.876017, 0.868875, 0.867026, 0.874837, 0.877575, 0.875782, 0.878119, 0.882708, 0.890507, 0.879227, 0.883508, 1.18528, 0.881223, 0.89242, 0.900931, 0.901275, 0.903064, 0.910582, 0.921196, 0.918978, 0.913635, 0.912895, 0.913495, 1.1885, 0.934303, 0.946203, 0.956306, 1.07982, 1.04938, 0.998929, 1.00119, 1.00689, 1.0083, 1.01285, 1.0158, 1.02339, 1.43717, 1.0424, 1.04135, 1.16783, 1.05678, 1.06737, 1.09581, 1.09195, 1.09665, 1.09622, 1.09717, 1.10008, 1.10235, 1.11322, 1.12525, 1.20544, 1.13888, 1.22184, 1.22155, 1.2956, 1.30616, 1.29713, 1.2974, 1.22593, 1.22722, 1.2297, 1.23569, 1.23738, 1.25848, 1.26656, 1.28201, 1.57522, 1.26778, 1.33176, 1.16809, 1.23901, 1.12026
0.895672, 0.899548, 0.92648, 0.926156, 0.925542, 0.914483, 0.910078, 0.916611, 0.91539, 0.910891, 0.910877, 0.934323, 0.939553, 0.945859, 0.953187, 0.95307, 0.95415, 0.952926, 0.953444, 0.995104, 0.984256, 0.985642, 1.01015, 1.11206, 1.11023, 1.0951, 1.11032, 1.10489, 1.11728, 1.11837, 0.869405, 1.02043, 0.845124, 0.839179, 0.831983, 0.965483, 0.946488, 0.867229, 0.865075, 0.826353, 0.817501, 0.815776, 0.816225, 0.817758, 0.818806, 0.820997, 0.814429, 0.802932, 0.806023, 0.807239, 1.0858, 0.825903, 0.829875, 0.836198, 0.835538, 1.02368, 0.806725, 0.806468, 0.80674, 0.813218, 0.815849, 0.871476, 1.00601, 0.839619, 0.840573, 1.34098, 0.810889, 0.811943, 0.811069, 0.808351, 0.809595, 0.811118, 0.812669, 0.808582, 0.808511, 0.808867, 0.830673, 0.832476, 0.833976, 0.831707, 0.832911, 0.832319, 0.8333, 0.839881, 0.843517, 0.845137, 0.845357, 0.844347, 0.841928, 0.842008, 0.839084, 0.836709, 0.811069, 0.811167, 0.818675, 0.816046, 0.814766, 0.797113, 0.800415, 0.790883, 0.785323, 0.792026, 0.792814, 0.791555, 1.34023, 0.784072, 0.784158, 0.780555, 0.779673, 0.780184, 0.779301, 0.77473, 0.766209, 0.760318, 0.759576, 0.760364, 0.932541, 0.976656, 0.976931, 1.60189, 0.841095, 0.847338, 0.847483, 0.849707, 0.7648, 0.773553, 0.739898, 0.726086, 0.728227, 0.733365, 0.718865, 0.720268, 0.723275, 0.728325, 0.726935, 0.734558, 0.717493, 0.728362, 0.745438, 0.708801, 0.709598, 0.721379, 0.708132, 0.796635, 0.791981, 0.790195, 0.756662, 0.809011, 0.812417, 0.815256, 0.814825, 1.32984, 0.817732, 0.821614, 0.822663, 0.828637, 0.830913, 0.830754, 0.831745, 1.05297, 0.842425, 0.848562, 0.849718, 0.854944, 0.859626, 0.863852, 0.871573, 0.869299, 0.864433, 0.863942, 0.86934, 0.869553, 0.87042, 0.873642, 0.876404, 0.874707, 0.876636, 0.877108, 0.872001, 0.874153, 0.890387, 0.893028, 0.8947, 0.901135, 1.1324, 0.914865, 0.914986, 0.913843, 0.914398, 0.911468, 1.23291, 0.935329, 0.947276, 0.952494, 1.08383, 0.98407, 0.999357, 1.00241, 1.00689, 1.00917, 1.01475, 1.01571, 1.02575, 1.03006, 1.04742, 1.04808, 1.04962, 1.46103, 1.07308, 1.08407, 1.09221, 1.1325, 1.09941, 1.10088, 1.10162, 1.11229, 1.11816, 1.11889, 1.13055, 1.1307, 1.21758, 1.2048, 1.66485, 1.35999, 1.29532, 1.23393, 1.22336, 1.22604, 1.23271, 1.23905, 1.23748, 1.23949, 1.27715, 1.28839, 1.28968, 1.25451, 1.21658, 1.71708, 1.54814, 1.16714
0.894572, 1.18771, 0.922274, 0.925843, 0.925138, 0.915328, 0.907777, 0.914522, 0.913483, 0.910556, 0.910184, 0.936789, 0.938538, 0.956718, 0.954227, 0.955525, 0.955936, 0.955757, 0.97203, 0.965121, 0.983294, 0.98341, 0.00417556, 1.0746, 0.912012, 0.902394, 1.11044, 1.1231, 0.867268, 0.864299, 0.858407, 0.856285, 0.846004, 0.796586, 0.793784, 0.79338, 0.795515, 0.889104, 0.81911, 0.815167, 0.814033, 0.811461, 0.812953, 0.812263, 0.810017, 0.812002, 0.808222, 0.802923, 0.803911, 0.802456, 0.802641, 0.821385, 0.82176, 0.819554, 0.828195, 0.797876, 0.801493, 0.801829, 0.807175, 0.807155, 0.86926, 0.867218, 0.866213, 0.839389, 0.839184, 0.826145, 0.810049, 0.810894, 0.81105, 0.808191, 0.807437, 0.811743, 0.810007, 0.805364, 0.806052, 0.81978, 0.829283, 0.831792, 0.832135, 0.831275, 0.832067, 0.834873, 0.836122, 0.836509, 0.842631, 0.842599, 0.844257, 0.840842, 0.839971, 0.839481, 0.829536, 0.814376, 0.807524, 0.807514, 0.814548, 0.814535, 0.794581, 0.792346, 0.789291, 0.784311, 0.780319, 0.781122, 0.783391, 0.777037, 0.777885, 0.773692, 0.780193, 0.776412, 0.776405, 0.773725, 0.773143, 0.771831, 0.764176, 0.758806, 0.758992, 0.754345, 0.912982, 0.716668, 0.976773, 0.739708, 0.747177, 0.738615, 0.735856, 0.7687, 0.715931, 0.745697, 0.721723, 0.724186, 0.721102, 0.723415, 0.704392, 0.70454, 0.710163, 0.708873, 0.706278, 0.697784, 0.715045, 0.707672, 0.717289, 0.719382, 0.708469, 0.700092, 0.688562, 0.701182, 0.724582, 0.75273, 0.750845, 0.744223, 0.810261, 0.755256, 0.77138, 0.809849, 0.810977, 0.810866, 0.817482, 0.825638, 0.828447, 0.828344, 0.829137, 0.836754, 0.83658, 0.83967, 0.839976, 0.844044, 0.836992, 0.844495, 0.867591, 0.867775, 0.862412, 0.863166, 0.861232, 0.861422, 0.865229, 0.871956, 0.873405, 0.870297, 0.874046, 0.874342, 0.871754, 0.871965, 0.890165, 0.892348, 0.894238, 0.897119, 0.903459, 0.915558, 0.915494, 0.914286, 0.911347, 0.911285, 0.931215, 0.934249, 0.945423, 0.947685, 1.09224, 1.09537, 0.997778, 1.00499, 1.00867, 1.0151, 1.02035, 1.02283, 1.02572, 1.0287, 1.04685, 1.05282, 1.05527, 1.06199, 1.07422, 1.08198, 1.0923, 1.13531, 1.10269, 1.1055, 1.10381, 1.13665, 1.11823, 1.11882, 1.23989, 1.26712, 1.26073, 1.24033, 1.25033, 1.23167, 1.28495, 1.24109, 1.29491, 1.22907, 1.23083, 1.23299, 1.23433, 1.23481, 1.27097, 1.29951, 1.3019, 1.24773, 1.21044, 1.22926, 1.14662, 1.61271
0.895514, 1.19793, 0.924764, 0.924842, 0.924955, 0.915137, 0.915242, 0.916322, 0.911583, 0.908886, 0.916514, 0.934197, 0.940186, 0.950162, 0.955609, 0.954554, 0.957125, 0.956747, 1.34044, 0.977229, 0.977294, 0.985533, 1.03628, 1.39272, 0.901838, 0.902008, 1.10618, 0.873281, 0.867229, 0.863482, 0.859327, 0.85479, 0.854468, 0.799308, 0.798562, 0.797077, 0.795026, 0.82248, 0.815762, 0.811885, 0.808092, 0.807137, 0.806394, 0.804134, 0.804247, 0.802176, 0.808593, 0.808177, 0.803689, 0.802327, 0.801969, 0.803883, 0.818484, 0.817535, 0.812406, 0.809876, 0.79895, 0.798704, 0.802997, 0.803304, 0.866099, 0.866535, 0.866171, 0.837, 0.829313, 0.823649, 0.808327, 0.810257, 0.809866, 0.80746, 0.805647, 0.810937, 0.811082, 0.80978, 0.810053, 0.824221, 0.828757, 0.831869, 0.832379, 0.831563, 0.835113, 0.83494, 0.833912, 0.834969, 0.840671, 0.842132, 0.845895, 0.839025, 0.840019, 0.829845, 0.815237, 0.816155, 0.805166, 0.8046, 0.811057, 0.80822, 0.805553, 0.789298, 0.784887, 0.779288, 0.780576, 0.781906, 0.780138, 0.778491, 0.773785, 0.773626, 0.775106, 0.773821, 0.772433, 0.77253, 0.772021, 0.770186, 0.767027, 0.719386, 0.718692, 0.696886, 0.709192, 0.708766, 0.708294, 0.711358, 0.742171, 0.733772, 0.728938, 0.707538, 0.717154, 0.717139, 0.729464, 0.734779, 0.736724, 0.715328, 0.707051, 0.718725, 0.721542, 0.694977, 0.70755, 0.681159, 0.696297, 0.70668, 0.711807, 0.708577, 0.708568, 0.694207, 0.694112, 0.68815, 0.700778, 0.732039, 0.746445, 0.735865, 0.810095, 0.755878, 0.751967, 0.730354, 0.731562, 0.748493, 0.724465, 0.72296, 0.823482, 0.826661, 0.828395, 0.832533, 0.83581, 0.83601, 0.83727, 0.836324, 0.837073, 0.84073, 0.840974, 0.854687, 0.857778, 0.856731, 0.859723, 0.861039, 0.862417, 0.871698, 0.873151, 0.869749, 0.870001, 0.869821, 0.867386, 0.872329, 0.874719, 0.891455, 0.892024, 0.892895, 0.899782, 0.918228, 0.918804, 0.912024, 0.922612, 0.924056, 0.924939, 0.93653, 0.945331, 1.2358, 0.959507, 0.966665, 1.09135, 1.00825, 1.01245, 1.01957, 1.02055, 1.02675, 1.02894, 1.03792, 1.05427, 1.05485, 1.06364, 1.41324, 1.07744, 1.08201, 1.15327, 1.10767, 1.13134, 1.11579, 1.11638, 1.11949, 1.12064, 1.14151, 1.1393, 1.14076, 1.23655, 1.31292, 1.29892, 1.26525, 1.27883, 1.61066, 1.22252, 1.22641, 1.23327, 1.235, 1.23552, 1.23638, 1.29472, 1.26718, 1.2932, 1.24354, 1.1943, 1.29192, 1.19806, 1.14643
0.900724, 0.974495, 0.931324, 0.928634, 0.926747, 0.918064, 0.923599, 0.927325, 0.91412, 0.913362, 1.22681, 0.942204, 0.942009, 0.956718, 0.95681, 0.954924, 0.955784, 0.95769, 0.967086, 0.977192, 0.977593, 1.03586, 1.05171, 1.24086, 0.902296, 1.11237, 1.11682, 0.866105, 0.865692, 0.860959, 0.857967, 0.854732, 1.10501, 0.798974, 0.800872, 0.796136, 0.798732, 0.803745, 0.804475, 0.803542, 0.803183, 0.806608, 0.805659, 0.800997, 0.798066, 0.79701, 0.795144, 0.806655, 0.805538, 0.799981, 0.798112, 0.801249, 0.808732, 0.809282, 0.811467, 0.802945, 0.797153, 0.799005, 0.801606, 0.803078, 0.867698, 0.867554, 0.866462, 0.833447, 0.831591, 0.80716, 0.808314, 0.808298, 0.808678, 0.804591, 0.803921, 0.813284, 0.814262, 0.81183, 0.811595, 0.821163, 0.829181, 0.830426, 0.832968, 0.832908, 0.834793, 0.833923, 0.831665, 0.831672, 0.831309, 0.828679, 0.83194, 0.83205, 0.916142, 0.818746, 0.815305, 0.813828, 0.797741, 0.798183, 0.802558, 0.801438, 0.783861, 0.783556, 0.784307, 0.779873, 0.779759, 0.780784, 0.777992, 0.77557, 0.770736, 0.77267, 0.771102, 0.771145, 0.770358, 0.768203, 0.766789, 0.76221, 0.758949, 0.69829, 0.687258, 0.686997, 0.690799, 0.7109, 0.705265, 0.697851, 0.696727, 0.725137, 0.721628, 0.697331, 0.69699, 0.694516, 0.715742, 0.730749, 0.735467, 0.731929, 0.704168, 0.690335, 0.690745, 0.690716, 0.706283, 0.699889, 0.702374, 0.753475, 0.729316, 0.743485, 0.712105, 0.697694, 0.695838, 0.672844, 0.700694, 0.700825, 0.726385, 0.732597, 0.731667, 0.745591, 0.725393, 0.70391, 0.735336, 0.739487, 0.732535, 0.716759, 0.721928, 0.826686, 0.826367, 0.828187, 0.827886, 0.828627, 0.828226, 0.831295, 0.833897, 0.838066, 0.840093, 0.845935, 0.848853, 0.84966, 0.855887, 0.855642, 0.860746, 0.861074, 0.869323, 0.866864, 0.866811, 0.868362, 0.866111, 0.868045, 0.869263, 0.88686, 0.888297, 0.891828, 0.898012, 0.91828, 0.917251, 0.914373, 0.921273, 0.920638, 0.925336, 0.936508, 0.943126, 0.947049, 0.956037, 0.958041, 1.09457, 1.09597, 1.01543, 1.02021, 1.02239, 1.03048, 1.03377, 1.04372, 1.3609, 1.06324, 1.06748, 1.07169, 1.08334, 1.33494, 1.09681, 1.32236, 1.14594, 1.12035, 1.11977, 1.11985, 1.13676, 1.13619, 1.13787, 1.18773, 1.18111, 1.26427, 1.22938, 1.28126, 1.22509, 1.27398, 1.22349, 1.22566, 1.23438, 1.2355, 1.23442, 1.23601, 1.22946, 1.34744, 1.30353, 1.26422, 1.20807, 1.2502, 1.11451, 1.56781
0.900953, 1.10797, 0.932243, 0.931565, 0.930462, 0.920783, 0.924817, 0.926417, 0.914434, 0.914835, 1.23281, 0.938885, 0.939719, 0.959684, 0.958051, 0.953219, 0.95414, 0.969461, 0.971898, 0.971739, 1.01601, 1.00993, 1.02376, 1.05279, 1.24357, 1.04516, 1.12866, 0.865361, 0.865715, 0.856993, 0.855385, 0.851386, 0.849843, 0.811541, 0.807245, 0.799032, 0.798487, 0.800568, 0.801511, 0.801049, 0.799016, 0.802229, 0.798351, 0.792159, 0.791115, 0.792685, 0.806338, 0.807643, 0.807487, 0.79437, 0.792441, 0.797724, 0.799417, 0.811514, 0.818153, 0.797438, 0.795354, 0.797178, 0.797198, 0.799031, 0.868425, 0.867403, 0.867204, 0.83109, 0.829029, 0.807406, 0.807126, 0.80963, 0.802396, 0.801778, 0.80091, 0.814525, 0.814061, 0.811199, 0.812895, 0.820072, 0.826691, 0.828235, 0.828942, 0.831533, 0.832753, 0.831922, 0.830664, 0.826973, 0.826083, 0.824634, 0.822707, 0.823164, 0.912621, 0.809943, 0.808861, 0.805706, 0.796763, 0.79595, 0.797862, 0.796891, 0.78715, 0.777445, 0.779945, 0.774101, 0.774202, 0.778457, 0.775565, 0.77398, 0.770436, 0.770474, 0.763302, 0.770505, 0.766215, 0.761651, 0.76251, 0.756563, 0.757013, 0.684891, 0.686147, 0.704249, 0.704712, 0.718019, 0.714607, 0.69815, 0.694228, 0.708344, 0.735611, 0.736047, 0.745589, 0.710656, 0.725734, 0.721912, 0.74197, 0.739569, 0.745695, 0.708883, 0.700066, 0.702379, 0.733847, 0.733538, 0.743418, 0.72814, 0.759986, 0.769983, 0.731776, 0.705063, 0.698485, 0.707863, 0.684662, 0.725563, 0.715938, 0.723026, 0.708347, 0.732859, 0.725755, 0.697959, 0.701008, 0.703746, 0.709678, 0.705463, 0.711829, 0.707668, 0.707262, 0.819572, 1.0643, 0.775088, 0.825141, 0.825838, 0.830318, 0.834187, 0.834915, 0.842216, 0.841876, 0.844011, 0.850083, 0.851959, 0.859677, 0.859066, 0.85773, 0.862617, 0.864509, 0.862867, 0.86241, 0.864378, 0.866947, 0.877772, 0.883159, 0.885925, 0.896436, 0.910627, 0.901941, 0.907585, 0.914924, 0.918789, 0.921607, 0.935216, 0.933964, 0.921564, 0.935725, 0.93677, 1.11473, 1.11686, 1.01493, 1.0204, 1.02398, 1.03049, 1.30647, 1.04936, 1.35772, 1.0696, 1.06919, 1.07682, 1.08539, 1.09145, 1.10213, 1.11271, 1.12209, 1.12179, 1.12238, 1.12416, 1.12696, 1.13391, 1.19207, 1.24065, 1.1162, 1.11506, 1.2814, 1.26823, 1.2878, 1.5562, 1.32893, 1.27874, 1.23652, 1.23566, 1.23445, 1.23586, 1.22881, 1.26796, 1.30277, 1.2472, 1.2641, 1.19841, 1.20537, 1.16854
1.25916, 0.984329, 0.930901, 0.930429, 0.922189, 0.921656, 0.924974, 0.924988, 0.910779, 0.909581, 1.40859, 0.942798, 0.943061, 0.957867, 0.956612, 0.954562, 0.959908, 0.968899, 0.969767, 1.01785, 1.02178, 0.921707, 0.912608, 1.41998, 1.13695, 1.14001, 0.866696, 0.860197, 0.85637, 0.85102, 0.851456, 0.850202, 0.849501, 0.81038, 0.809822, 0.799036, 0.798436, 0.799914, 0.800803, 0.798591, 0.794127, 0.793714, 0.793484, 0.7937, 0.789358, 0.791677, 0.80613, 0.805483, 0.805118, 0.794188, 0.791555, 0.796055, 0.797733, 0.811886, 0.812173, 0.796386, 0.79556, 0.796642, 0.796337, 0.796489, 1.152, 1.03097, 1.02933, 0.833418, 0.824664, 0.808544, 0.805197, 0.802765, 0.803132, 0.801279, 0.798909, 0.813061, 0.81316, 0.810031, 0.81489, 0.821206, 0.823779, 0.828741, 0.828831, 0.831128, 0.83066, 0.82948, 0.83036, 0.824591, 0.816976, 0.814769, 0.815058, 0.799422, 0.795849, 0.804708, 1.31664, 0.802832, 0.793454, 0.790308, 0.789725, 0.78793, 0.773403, 0.772161, 0.764491, 0.763036, 0.764024, 0.774524, 0.770594, 0.769317, 0.76406, 0.755645, 0.761095, 0.76201, 0.740215, 0.69792, 0.714231, 0.69133, 0.69915, 0.684549, 0.693969, 0.698379, 0.691039, 0.692809, 0.691437, 0.725009, 0.727622, 0.73955, 0.728041, 0.750264, 0.742997, 0.759906, 0.733103, 0.739254, 0.777818, 0.769914, 0.749534, 0.753343, 0.715806, 0.72926, 0.737718, 0.755909, 0.767534, 0.759938, 0.808196, 0.789058, 0.798475, 0.721985, 0.697113, 0.702486, 0.698454, 0.704913, 0.70921, 0.712828, 0.704212, 0.715484, 0.700596, 0.697067, 0.708467, 0.739678, 0.71323, 0.699302, 0.707981, 0.694605, 0.709212, 0.74284, 0.718805, 0.780937, 0.824509, 0.824981, 0.82845, 0.829878, 0.831642, 0.83743, 0.839352, 0.840952, 0.84699, 0.847775, 0.84964, 0.850633, 0.854593, 0.858957, 0.859914, 0.860526, 0.852498, 0.859632, 0.86842, 0.873659, 0.878082, 0.882334, 0.890711, 0.906079, 0.900829, 0.901549, 0.908495, 0.914365, 0.925089, 0.915059, 0.91206, 0.915992, 0.918602, 1.13983, 1.0111, 1.11948, 1.12914, 1.02044, 1.02263, 1.02996, 1.04767, 1.0504, 1.05225, 1.06827, 1.07553, 1.07631, 1.10877, 1.56537, 1.55705, 1.13646, 1.13741, 1.13055, 1.12695, 1.12689, 1.13483, 1.13443, 1.13538, 1.1113, 1.11012, 1.11179, 1.26853, 1.29961, 1.2922, 1.28548, 1.31357, 1.23022, 1.23683, 1.23503, 1.23535, 1.23596, 1.26884, 1.46532, 1.30179, 1.25469, 1.22614, 1.18085, 1.12832, 1.17429
1.27049, 0.932054, 0.932197, 0.931804, 0.932197, 0.923383, 0.924009, 0.925247, 0.911419, 0.910713, 1.22941, 0.959926, 0.9481, 0.957694, 0.957376, 0.959018, 0.960613, 0.966334, 0.969376, 1.02329, 1.03004, 0.918063, 0.909721, 0.894654, 0.89154, 1.15685, 0.863424, 0.855996, 0.852985, 0.848868, 0.849336, 0.849842, 0.848068, 0.847818, 1.02983, 0.798877, 0.798397, 0.800162, 0.795909, 0.794699, 0.793443, 0.792211, 0.793276, 0.790898, 0.788411, 0.805099, 0.806595, 0.803244, 0.803791, 0.797572, 0.798332, 0.796188, 0.798197, 0.811414, 0.809345, 0.796342, 0.794535, 0.794132, 0.794406, 0.794075, 1.11478, 1.0758, 1.03263, 0.833172, 0.00447289, 0.801449, 0.803181, 0.801501, 0.804446, 0.797668, 0.798097, 0.802933, 0.804147, 0.805784, 0.812948, 0.822818, 0.822988, 0.828832, 0.827127, 0.829379, 0.828585, 0.827285, 0.828714, 0.811092, 0.811711, 1.396, 0.803894, 1.34289, 0.78703, 0.922767, 0.790149, 0.794214, 0.787954, 0.787447, 0.784122, 0.783448, 0.773673, 0.770573, 0.759667, 0.757057, 0.757219, 0.757135, 0.765961, 0.759718, 0.758743, 0.733138, 0.700426, 0.698989, 0.71978, 0.696141, 0.69758, 0.673728, 0.674466, 0.668619, 0.657421, 0.686331, 0.694845, 0.696715, 0.703803, 0.753529, 0.742473, 0.745774, 0.743502, 0.759966, 0.756824, 0.752224, 0.76741, 0.754272, 0.789253, 0.789024, 0.764227, 0.759414, 0.759847, 0.76043, 0.765361, 0.762832, 0.788328, 0.816516, 0.829914, 0.790242, 0.733499, 0.728667, 0.718403, 0.714518, 0.707623, 0.705224, 0.713705, 0.712775, 0.73903, 0.71483, 0.708285, 0.695247, 0.694011, 0.693833, 0.694934, 0.698165, 0.697517, 0.707619, 0.733881, 0.718596, 0.718076, 0.711053, 0.752572, 0.753753, 0.817592, 0.830202, 0.828968, 0.832469, 0.835687, 0.837414, 0.845049, 0.84811, 0.847904, 0.849099, 0.852584, 0.856273, 0.85561, 0.852278, 0.852326, 0.85119, 0.869445, 0.872377, 0.873493, 0.887543, 0.88928, 0.909186, 0.909623, 0.904583, 0.911038, 0.914881, 0.921237, 0.921558, 0.91445, 0.913696, 1.13257, 1.13326, 0.942734, 1.13673, 1.0446, 1.34026, 1.03871, 1.03863, 1.05112, 1.0515, 1.05235, 1.07087, 1.07425, 1.07893, 1.12314, 1.12136, 1.10557, 1.45236, 1.12836, 1.12977, 1.13038, 1.13246, 1.13559, 1.23793, 1.1101, 1.11046, 1.11147, 1.12579, 1.26925, 1.66552, 1.28716, 1.28812, 1.32043, 1.30617, 1.23949, 1.23595, 1.23629, 1.26425, 1.27089, 1.29765, 1.28659, 1.28221, 1.2126, 1.17752, 1.17196, 1.62936
1.2017, 0.929004, 0.934028, 0.934023, 0.933753, 0.924442, 0.926536, 0.916255, 0.914688, 0.921662, 0.921787, 0.953209, 0.956329, 0.966652, 0.965879, 0.963586, 0.963185, 0.962881, 0.963497, 0.916432, 0.915662, 0.909609, 0.909605, 1.15799, 1.13775, 1.46842, 0.857181, 0.850622, 0.849432, 0.84592, 0.845791, 0.849082, 0.84955, 0.849887, 0.958193, 0.798014, 0.797558, 0.797544, 0.797453, 0.792969, 0.792977, 0.793591, 0.793423, 0.787999, 0.787994, 0.80232, 0.803978, 0.802234, 0.799382, 0.798476, 0.798924, 0.797989, 0.798679, 0.814534, 0.813963, 0.791152, 0.793621, 0.793431, 0.793398, 0.881618, 0.881024, 0.994672, 1.00118, 0.996054, 1.02908, 0.800517, 0.781685, 0.78202, 0.798249, 0.796996, 0.801259, 0.801713, 0.803539, 0.805097, 0.811719, 0.818731, 0.821117, 0.825972, 0.824705, 0.829074, 0.833412, 0.827475, 0.825821, 0.801654, 0.798943, 0.798242, 0.795164, 0.7754, 0.776779, 0.787038, 0.786717, 0.777343, 0.78387, 0.784366, 0.781069, 0.770335, 0.770531, 0.769463, 0.75982, 0.761062, 0.753783, 0.754864, 0.755168, 0.754606, 0.726291, 0.702752, 0.704355, 0.698036, 0.708844, 0.677297, 0.667844, 0.667343, 0.676728, 0.660957, 0.69724, 0.70789, 0.701292, 0.705678, 0.715918, 0.755093, 0.757217, 0.751763, 0.767654, 0.768974, 0.781683, 0.796766, 0.783417, 0.804042, 0.795801, 0.818474, 0.807258, 0.768729, 0.771101, 0.771346, 0.78268, 0.795195, 0.808076, 0.81516, 0.840002, 0.770914, 0.754635, 0.733529, 0.753678, 0.760799, 0.760431, 0.759843, 0.761022, 0.739682, 0.739054, 0.76076, 0.780242, 0.772308, 0.694766, 0.695604, 0.704421, 0.694037, 0.694473, 0.72146, 0.721435, 0.705486, 0.721012, 0.748823, 0.750385, 0.729461, 0.817189, 0.813298, 0.81289, 0.834041, 0.83409, 0.833866, 0.843761, 0.845529, 0.84538, 0.847795, 0.848085, 0.854062, 0.855558, 0.853982, 0.851162, 0.850311, 0.862488, 0.871109, 0.873355, 0.887513, 0.894465, 0.910493, 0.913956, 0.910569, 0.911511, 0.913566, 0.919243, 0.921234, 0.914922, 0.913095, 1.15128, 0.941292, 0.944541, 1.13519, 1.13993, 1.26763, 1.03876, 1.04148, 1.08015, 1.08406, 1.39514, 1.07826, 1.07856, 1.08285, 1.11848, 1.10193, 1.10902, 1.22372, 1.12993, 1.12983, 1.13091, 1.13469, 1.29398, 1.24095, 1.11439, 1.11424, 1.11133, 1.1255, 1.28214, 1.28914, 1.20635, 1.29138, 1.21988, 1.21833, 1.23268, 1.23566, 1.23683, 1.32636, 1.32905, 1.25093, 1.31486, 1.24683, 1.16097, 1.15821, 1.15617, 1.09574
1.27852, 0.93419, 0.933737, 0.940175, 0.941615, 0.949485, 1.29191, 0.916205, 0.915789, 0.922458, 1.21382, 0.961088, 0.960058, 0.96737, 0.966445, 0.968302, 0.966649, 0.963774, 1.02533, 1.33683, 0.908891, 0.909421, 1.16782, 0.88779, 0.881654, 0.867268, 0.851476, 0.848592, 0.844118, 0.839475, 0.838013, 0.842707, 0.921528, 0.845438, 0.801587, 0.794905, 0.796928, 0.793974, 0.78484, 0.78396, 0.787244, 0.788055, 0.788396, 0.788306, 0.78973, 0.800427, 0.800188, 0.797481, 0.797538, 0.799643, 0.798599, 0.793546, 0.814442, 0.815172, 0.814968, 0.789046, 0.793746, 0.79299, 0.793598, 0.881963, 0.881523, 0.881142, 1.036, 1.01651, 1.01557, 0.787153, 0.784436, 0.781368, 0.787421, 0.800305, 0.798642, 0.800341, 0.803666, 0.804097, 0.806406, 0.818658, 0.820877, 0.819781, 0.821329, 0.833278, 0.82632, 0.823944, 0.805145, 0.802445, 0.790652, 0.78869, 0.784094, 0.776103, 0.776415, 0.781714, 0.78027, 0.776103, 0.776573, 0.781489, 0.77966, 0.779596, 0.765908, 0.7625, 0.750674, 0.750049, 0.747357, 0.718613, 0.712226, 0.72445, 0.734302, 0.71981, 0.690016, 0.694015, 0.690901, 0.675034, 0.673528, 0.681075, 0.711197, 0.707816, 0.716859, 0.707225, 0.735514, 0.724543, 0.775766, 0.770634, 0.772429, 0.783192, 0.784165, 0.80419, 0.827315, 0.810282, 0.801687, 0.846827, 0.853566, 0.848054, 0.824605, 0.836161, 0.816125, 0.832877, 0.828937, 0.82566, 0.84926, 0.902061, 0.89888, 0.821106, 0.820558, 0.822173, 0.80887, 0.77415, 0.807845, 0.78147, 0.758625, 0.787743, 0.804781, 0.815383, 0.770235, 0.777002, 0.784547, 0.750839, 0.719338, 0.725513, 0.712514, 0.741952, 0.722824, 0.741858, 0.726001, 0.725585, 0.725932, 0.72283, 0.738037, 0.739779, 0.761436, 0.748295, 0.830179, 0.831728, 0.830708, 0.839258, 0.839677, 0.843784, 0.845828, 0.847486, 0.851591, 0.855359, 0.851049, 0.851764, 0.85706, 0.87012, 0.873603, 0.88124, 0.906422, 0.908658, 0.911857, 0.905457, 0.908265, 0.908593, 0.919049, 0.92916, 0.939759, 0.945803, 0.949856, 0.951152, 0.950616, 1.13632, 1.32391, 1.06424, 1.03353, 1.23023, 1.07708, 1.05671, 1.06323, 1.07504, 1.07826, 1.08092, 1.0859, 1.09743, 1.46575, 1.5666, 1.15622, 1.13471, 1.1365, 1.13728, 1.14724, 1.15674, 1.13113, 1.12852, 1.12213, 1.18844, 1.27901, 1.2783, 1.65762, 1.29772, 1.29908, 1.32342, 1.23712, 1.23475, 1.23493, 1.26411, 1.28985, 1.29994, 1.24599, 1.29259, 1.19287, 1.15441, 1.15372, 1.12241
1.19668, 0.932382, 0.936267, 0.943362, 0.947277, 0.946428, 1.41664, 0.919959, 0.923494, 0.928705, 1.21297, 0.964977, 0.96236, 0.9699, 0.967477, 0.966803, 0.966286, 1.05266, 0.926891, 1.0242, 1.03712, 1.07551, 1.18723, 0.873436, 0.867515, 0.865815, 0.849097, 0.838305, 0.838705, 0.839896, 0.839435, 0.932043, 0.815215, 0.803201, 0.8031, 0.793511, 0.788848, 0.788813, 0.785732, 0.784354, 0.784913, 0.784122, 0.783559, 0.783994, 0.793512, 0.793564, 0.790781, 0.792053, 0.791952, 0.797081, 0.794312, 0.793528, 0.814614, 0.81437, 0.810286, 0.787609, 0.791395, 0.791657, 0.792796, 0.880657, 0.87863, 0.998972, 0.887671, 0.888338, 0.887684, 0.791422, 0.788258, 0.790479, 0.786505, 0.786856, 0.785869, 0.798474, 0.804256, 0.80802, 0.809308, 0.816753, 0.817792, 0.818528, 0.818237, 0.824147, 0.824034, 0.80988, 0.808587, 0.794637, 0.787001, 0.784885, 0.77695, 0.775434, 0.776425, 0.783218, 0.780994, 0.781148, 0.782755, 0.778171, 0.777255, 0.766104, 0.762867, 0.748288, 0.712166, 0.690243, 0.70436, 0.704291, 0.714448, 0.687669, 0.701319, 0.696293, 0.70474, 0.682149, 0.680888, 0.680101, 0.697833, 0.716184, 0.714972, 0.7314, 0.724434, 0.714951, 0.756654, 0.778398, 0.787134, 0.800648, 0.812753, 0.814556, 0.815212, 0.841545, 0.853326, 0.862774, 0.887908, 0.890937, 0.88147, 0.850877, 0.877096, 0.842072, 0.842629, 0.842619, 0.836161, 0.862487, 0.909928, 0.944638, 0.91809, 0.897729, 0.857464, 0.832402, 0.818814, 0.822288, 0.822005, 0.807982, 0.80843, 0.833875, 0.820352, 0.816593, 0.826901, 0.770819, 0.791564, 0.762251, 0.748787, 0.767047, 0.752527, 0.746187, 0.754157, 0.772046, 0.75358, 0.746911, 0.748811, 0.726817, 0.735646, 0.734982, 0.729477, 0.774144, 0.758511, 0.827998, 0.827006, 0.830152, 0.839579, 0.840512, 0.838838, 0.83889, 0.840718, 0.848779, 0.849128, 0.848994, 0.85482, 0.857884, 0.870829, 0.878698, 0.906094, 0.908675, 0.908204, 0.903547, 0.907359, 0.909027, 0.914876, 0.934746, 0.936816, 0.947148, 0.953876, 0.955644, 0.95629, 1.12015, 1.25661, 1.06762, 1.06824, 1.04319, 1.05367, 1.05717, 1.06042, 1.07404, 1.07522, 1.07904, 1.11485, 1.16282, 1.1548, 1.15483, 1.15447, 1.13614, 1.13605, 1.13668, 1.34033, 1.34086, 1.2142, 1.22023, 1.24622, 1.24721, 1.20582, 1.27478, 1.28834, 1.29604, 1.2972, 1.30489, 1.37043, 1.23483, 1.2567, 1.30943, 1.28919, 1.31168, 1.30839, 1.29623, 1.21309, 1.22658, 1.15434, 1.16802
0.918902, 0.931076, 0.93246, 0.940561, 0.945319, 0.946053, 0.926643, 0.928426, 0.928561, 0.928005, 1.26793, 0.968107, 0.973915, 0.971491, 0.978274, 0.971828, 0.971423, 1.01875, 1.01434, 1.0378, 1.34174, 0.875003, 0.872431, 0.871319, 0.869997, 0.851007, 0.849533, 0.839862, 0.838341, 0.839659, 0.839853, 0.81192, 0.808772, 0.801283, 0.801041, 0.787556, 0.783962, 0.781869, 0.78537, 0.784442, 0.783138, 0.782944, 0.78218, 0.786679, 0.787207, 0.786766, 0.786519, 0.790242, 0.790003, 0.794119, 0.794465, 0.794215, 0.81514, 0.815555, 0.791428, 0.792511, 0.790969, 0.792792, 0.792719, 0.968806, 0.87451, 1.04376, 0.981106, 0.887852, 1.02309, 0.790484, 0.789841, 0.788951, 0.788745, 0.787335, 0.789752, 0.797766, 0.806273, 0.80761, 0.807693, 0.816192, 0.814999, 0.811691, 0.812128, 0.811136, 0.815161, 0.807678, 0.807373, 0.78874, 0.784957, 0.779889, 0.77587, 0.776341, 0.780567, 0.782228, 0.781339, 0.780923, 0.781233, 0.777235, 0.774047, 0.759842, 0.755639, 0.690481, 0.707813, 0.687125, 0.669143, 0.693753, 0.690149, 0.704725, 0.683242, 0.690723, 0.702073, 0.709779, 0.722132, 0.72598, 0.709026, 0.739932, 0.728767, 0.74168, 0.749639, 0.764297, 0.821522, 0.822136, 0.806023, 0.824257, 0.824901, 0.85347, 0.855159, 0.842866, 0.890703, 0.912449, 0.943041, 0.932442, 0.92128, 0.912672, 0.886668, 0.891682, 0.894432, 0.894089, 0.891396, 0.946293, 0.97181, 0.959321, 0.941141, 0.905683, 0.877276, 0.863495, 0.853596, 0.833211, 0.849063, 0.86007, 0.860427, 0.848981, 0.86683, 0.869811, 0.818108, 0.82626, 0.802218, 0.791085, 0.777064, 0.774485, 0.747812, 0.753117, 0.78881, 0.741915, 0.743378, 0.750411, 0.746033, 0.746073, 0.745701, 0.729083, 0.729685, 0.743317, 0.821812, 0.822633, 0.822996, 0.823248, 0.824465, 0.833473, 0.835352, 0.837133, 0.840362, 0.845072, 0.846948, 0.848983, 0.854783, 0.859255, 0.874838, 0.880632, 0.905421, 0.911137, 0.904304, 0.904986, 0.906199, 0.911361, 1.12218, 0.93854, 1.28364, 0.956339, 0.961315, 0.960627, 1.11341, 0.991232, 0.991578, 1.02214, 1.35437, 1.29951, 1.05351, 1.05903, 1.14653, 1.07396, 1.07834, 1.07867, 1.11236, 1.13246, 1.30095, 1.1517, 1.13264, 1.13743, 1.13779, 1.13912, 1.13952, 1.3737, 1.20193, 1.2088, 0.00464048, 1.23349, 1.18715, 1.28176, 1.28568, 1.28969, 1.30188, 1.33864, 1.27422, 1.24989, 1.32013, 1.26897, 1.30989, 1.35484, 1.22227, 1.24379, 1.24326, 1.23457, 1.21907, 1.14081
0.929815, 0.928835, 0.935553, 0.935476, 0.943717, 0.943782, 0.928625, 0.928813, 0.929431, 0.930789, 0.962809, 0.964196, 0.974901, 0.977018, 0.978771, 0.978742, 1.01832, 0.908157, 0.903967, 1.33508, 0.884332, 0.874729, 0.869505, 0.871105, 0.87086, 0.849968, 0.848799, 0.842728, 0.841595, 0.836114, 0.822325, 0.810237, 0.808981, 0.797295, 0.797191, 0.783673, 0.779671, 0.783084, 0.782197, 0.783249, 0.783403, 0.781714, 0.780981, 0.784351, 0.784211, 0.786204, 0.78653, 0.787231, 0.790672, 0.793677, 0.79285, 0.79461, 0.812673, 0.813103, 0.797056, 0.797224, 0.791904, 0.792666, 0.902172, 0.870535, 0.874628, 0.873657, 0.00454408, 1.07346, 1.07051, 0.794169, 0.796688, 0.794129, 0.787902, 0.793808, 0.800804, 0.800274, 0.806106, 0.807038, 0.806397, 0.810796, 0.811385, 0.810946, 0.809264, 0.808265, 0.803494, 0.799076, 0.79765, 0.781381, 0.77994, 0.775962, 0.773196, 0.770753, 0.777276, 0.78004, 0.778667, 0.780252, 0.779782, 0.779701, 0.759278, 0.754362, 0.686908, 0.688103, 0.696545, 0.702082, 0.680814, 0.683961, 0.682527, 0.684727, 0.673378, 0.684326, 0.728938, 0.736629, 0.741385, 0.739004, 0.733457, 0.77568, 0.76036, 0.787718, 0.787487, 0.790816, 0.85535, 0.865964, 0.858023, 0.883339, 0.867575, 0.873896, 0.90775, 0.925528, 0.923236, 0.932285, 0.953706, 0.973086, 0.968218, 0.934003, 0.935119, 0.943009, 0.943079, 0.942485, 0.950535, 0.971333, 1.00974, 0.99614, 0.952772, 0.918969, 0.904406, 0.872685, 0.874322, 0.885072, 0.890683, 0.888401, 0.906893, 0.91911, 0.896555, 0.855804, 0.863253, 0.837957, 0.823373, 0.781887, 0.798971, 0.796002, 0.829328, 0.805927, 0.80404, 0.797159, 0.782985, 0.749861, 0.724882, 0.72462, 0.760205, 0.733524, 0.729934, 0.756004, 0.818936, 0.821311, 0.822108, 0.821927, 0.831494, 0.829231, 0.83315, 0.833558, 0.833952, 0.843099, 0.846354, 0.848819, 0.850507, 0.86015, 0.874793, 0.881376, 0.900922, 0.907245, 0.906772, 0.909465, 0.912531, 0.915339, 0.928278, 0.937529, 1.20559, 0.956319, 0.964391, 0.966442, 1.09478, 0.986723, 1.20396, 1.02574, 1.24651, 1.46159, 1.05468, 1.06017, 1.06378, 1.07083, 1.10622, 1.08271, 1.11929, 1.12144, 1.36277, 1.15281, 1.13369, 1.14243, 1.14347, 1.15451, 1.31507, 1.30121, 1.27931, 1.20638, 1.22095, 1.24123, 1.26105, 1.22191, 1.27966, 1.29909, 1.3062, 1.45755, 1.3398, 1.33047, 1.37175, 1.30599, 1.21943, 1.28862, 1.2433, 1.26172, 1.20876, 1.17915, 1.59925, 1.12743
0.927176, 0.926791, 0.933151, 0.937501, 0.945972, 0.946469, 0.926033, 0.92567, 1.13381, 1.14066, 0.969373, 0.96812, 0.975193, 0.981438, 0.981085, 0.981176, 1.17539, 0.899359, 0.926217, 0.887477, 1.29475, 0.870428, 0.869913, 0.86973, 0.868816, 0.847465, 0.845109, 0.843297, 0.841789, 0.835902, 0.813246, 0.811836, 0.798178, 0.783785, 0.783657, 0.780126, 0.778391, 0.780339, 0.7773, 0.777572, 0.77932, 0.777769, 0.778805, 0.781075, 0.781081, 0.780386, 0.781261, 0.784594, 0.783652, 0.794101, 0.796059, 0.801949, 0.801062, 0.799494, 0.797153, 0.79903, 0.799204, 0.897936, 0.00400861, 0.872042, 0.873703, 0.87429, 0.894026, 1.17124, 1.05823, 0.797089, 0.795457, 0.794129, 0.790675, 0.790088, 0.79862, 0.799225, 0.806931, 0.805171, 0.805637, 0.810503, 0.808712, 0.808196, 0.804333, 0.805403, 0.803069, 0.795928, 0.787921, 0.777882, 0.777851, 0.771803, 0.76662, 0.767703, 0.776975, 0.7782, 0.777891, 0.777215, 0.776802, 0.775645, 0.751319, 0.742111, 0.742986, 0.694438, 0.699681, 0.702326, 0.701111, 0.677774, 0.680878, 0.696311, 0.705242, 0.729546, 0.722182, 0.728696, 0.739627, 0.75534, 0.759153, 0.759627, 0.801527, 0.817302, 0.818376, 0.894507, 0.91475, 0.920407, 0.935607, 0.920405, 0.934045, 0.954826, 0.905067, 0.94339, 0.9845, 1.0112, 1.04611, 1.0189, 0.997976, 0.978568, 0.969877, 0.970615, 1.01454, 1.01362, 1.00522, 1.09108, 1.0436, 1.00173, 0.966627, 0.965214, 0.959025, 0.969387, 0.925143, 0.927844, 0.936479, 0.925647, 0.928609, 0.948665, 0.912388, 0.886966, 0.855196, 0.839014, 0.833054, 0.843994, 0.815775, 0.81503, 0.840998, 0.842189, 0.860206, 0.835449, 0.782022, 0.782266, 0.748956, 0.7317, 0.725388, 0.722486, 0.721516, 0.736724, 0.754123, 0.817633, 0.818083, 0.819085, 0.824942, 0.828439, 0.830154, 0.831077, 0.83238, 0.84592, 0.848959, 0.845332, 0.8492, 0.85642, 0.871002, 0.871526, 0.894132, 0.907895, 0.906046, 0.91573, 0.916033, 0.918787, 1.21183, 0.942212, 0.943747, 0.964502, 0.965756, 0.967261, 1.03936, 1.01505, 1.01992, 1.02909, 1.24931, 1.29105, 1.05403, 1.05976, 1.06396, 1.07353, 1.07491, 1.07629, 1.48311, 1.14661, 1.15706, 1.151, 1.16459, 1.1816, 1.17726, 1.30555, 1.17435, 1.17032, 1.20768, 1.21248, 1.74149, 1.24144, 1.2999, 1.24576, 1.28039, 1.26996, 1.30715, 1.3192, 1.82743, 1.37455, 1.35139, 1.30945, 1.31347, 1.27843, 1.2869, 1.24839, 1.21253, 1.2307, 1.29322, 1.27877
0.925264, 0.928593, 0.928727, 0.930637, 0.933285, 0.926434, 0.925003, 0.925272, 1.47107, 1.14968, 0.980231, 0.981003, 0.974849, 0.981126, 0.980984, 0.981077, 0.893246, 0.893204, 0.88684, 0.876314, 0.870595, 0.869776, 0.871006, 0.870481, 0.844438, 0.844482, 0.842204, 0.840878, 0.842251, 0.994268, 0.805807, 0.80366, 0.791414, 0.783624, 0.783243, 0.783823, 0.779735, 0.780835, 0.77817, 0.776179, 0.771182, 0.777148, 0.777112, 0.77918, 0.781362, 0.778741, 0.781051, 0.782223, 0.783163, 0.792166, 0.79684, 0.799676, 0.797198, 0.79617, 0.798131, 0.800679, 0.806193, 0.80638, 0.992993, 0.873534, 1.0476, 1.04673, 0.890379, 1.01551, 1.06413, 0.794144, 0.792639, 0.79343, 0.793676, 0.787202, 0.78725, 0.784982, 0.792312, 0.803177, 0.805369, 0.806691, 0.807452, 0.803753, 0.802178, 0.801124, 0.794542, 0.793661, 0.781174, 0.776725, 0.772102, 0.770989, 0.765329, 0.764296, 0.771252, 0.771992, 0.771721, 0.770501, 0.771783, 0.746051, 0.735133, 0.739329, 0.699002, 0.688095, 0.671992, 0.654056, 0.664589, 0.674926, 0.694259, 0.6945, 0.705355, 0.72194, 0.738737, 0.751538, 0.778181, 0.77909, 0.778553, 0.817973, 0.818865, 0.81532, 0.916252, 0.915461, 0.92901, 0.966964, 0.980751, 0.952129, 0.956887, 0.990294, 1.00116, 1.04353, 1.04914, 1.06841, 1.10297, 1.06975, 1.0742, 1.04352, 1.00323, 1.04715, 1.0154, 1.0627, 1.09537, 1.10998, 1.11634, 1.03646, 1.0168, 0.994822, 0.987261, 0.981105, 0.980337, 0.998395, 0.995776, 1.00438, 0.991379, 0.964152, 0.93819, 0.903905, 0.891931, 0.853184, 0.852338, 0.856364, 0.852415, 0.868334, 0.84613, 0.863899, 0.857123, 0.849108, 0.824225, 0.81622, 0.814729, 0.737975, 0.722586, 0.725807, 0.749988, 0.724358, 0.745743, 0.727416, 0.809293, 0.786745, 0.816329, 0.824388, 0.826932, 0.826079, 0.828078, 0.838942, 0.844014, 0.844214, 0.845647, 0.853757, 0.866757, 0.870717, 0.894748, 0.908276, 0.908743, 0.91431, 0.916695, 0.918494, 1.2105, 0.943192, 0.943205, 0.964643, 0.964747, 1.07939, 1.08828, 1.01777, 1.01975, 1.0309, 1.03277, 1.27394, 1.05719, 1.05789, 1.29133, 1.07655, 1.07736, 1.08516, 1.12215, 1.13272, 1.53434, 1.22495, 1.17353, 1.18536, 1.76209, 1.58971, 1.2641, 1.64041, 1.21043, 1.19914, 1.22039, 1.24424, 1.25502, 1.29499, 1.27871, 1.30187, 1.24838, 1.24945, 1.29886, 1.24764, 1.38522, 1.34397, 1.23794, 1.20902, 1.21902, 1.21399, 1.31746, 1.18746, 1.2509, 1.37056
