0.992947, 0.981598, 0.977391, 0.970585, 0.969971, 0.970265, 0.972552, 0.976968, 0.976869, 0.972055, 0.970221, 0.975599, 0.976816, 0.965155, 0.963304, 0.964647, 0.966975, 0.963712, 0.96364, 0.962762, 0.961287, 0.959402, 0.957379, 0.953379, 0.953896, 0.957435, 1.05262, 1.05823, 0.989749, 0.985088, 0.983637, 0.977269, 0.973009, 0.972648, 0.973672, 0.974558, 0.969697, 0.977805, 0.980366, 0.980521, 0.973, 0.973694, 0.97423, 0.980901, 0.981918, 0.982541, 0.981906, 0.980373, 0.978982, 0.976397, 0.971403, 0.972642, 0.97077, 0.966087, 0.96378, 0.96305, 0.964577, 0.964787, 0.962898, 0.960581, 0.961847, 0.958017, 0.959103, 0.95984, 0.952642, 0.952543, 0.952686, 0.950762, 0.950058, 0.950988, 0.94607, 0.945586, 0.946062, 0.953347, 0.954367, 0.971405, 0.972899, 0.973071, 1.1021, 0.937984, 0.939643, 0.938028, 0.925042, 0.925618, 0.918799, 0.91566, 0.915444, 0.916094, 0.916799, 0.910045, 0.909304, 0.910712, 0.907809, 0.915305, 0.908857, 0.907284, 0.915195, 0.915464, 0.911632, 0.909293, 0.89521, 0.895072, 0.896424, 0.897785, 0.898542, 0.897114, 0.897278, 0.893821, 0.894813, 0.89565, 0.897729, 0.898274, 0.89895, 0.895911, 0.897446, 0.88203, 0.879501, 0.878475, 0.87094, 0.869101, 0.869817, 0.850927, 0.852205, 0.839609, 0.851769, 0.855691, 0.860641, 0.858741, 0.860056, 0.860763, 0.864589, 0.85981, 0.857786, 0.856315, 0.853523, 0.849592, 0.848712, 0.850451, 0.849476, 0.849895, 0.845945, 0.847993, 0.859445, 0.854156, 0.846531, 0.849114, 0.848889, 0.842063, 0.843869, 0.843775, 0.844233, 0.857379, 0.857484, 0.846715, 0.832757, 0.834262, 0.836869, 0.843904, 0.844398, 0.8496, 0.865901, 0.870709, 0.874838, 0.876702, 0.866542, 0.877608, 0.88009, 0.885072, 0.897095, 0.898652, 0.902955, 0.909899, 0.909607, 0.915975, 0.915845, 0.915967, 0.915718, 0.908284, 1.00178, 1.19737, 0.887052, 0.884771, 0.88438, 0.88461, 0.887032, 0.890311, 0.892018, 0.898178, 0.903827, 0.90422, 0.903965, 0.960972, 0.872983, 0.873508, 0.873726, 0.865911, 0.874677, 0.875074, 0.864799, 0.875902, 0.877806, 0.880196, 0.868696, 0.867826, 0.838624, 0.839918, 0.84223, 0.841948, 0.843212, 0.831793, 0.832177, 0.833647, 0.959783, 0.861376, 0.861539, 0.86243, 0.851052, 0.853717, 0.851954, 0.853185, 0.863475, 0.866094, 0.863668, 0.865854, 0.8667, 0.872384, 0.875839, 0.880539, 1.03092, 0.865989, 0.862557, 0.859683, 0.860496, 0.861867, 0.863709, 0.863916, 0.855247, 0.846563, 0.846286, 0.847327
0.9934, 0.973735, 0.973366, 0.971173, 0.977018, 0.9758, 0.977915, 0.977816, 0.976269, 0.971022, 0.969739, 0.976901, 0.977586, 0.962861, 0.962684, 0.96233, 0.959898, 0.961515, 0.963218, 0.964378, 0.959779, 0.959613, 0.951436, 0.952648, 0.952904, 0.959926, 0.96963, 0.97883, 0.98887, 0.990584, 0.983602, 0.983369, 0.974658, 0.97352, 0.97393, 0.965256, 0.96586, 0.970843, 0.96762, 0.968663, 0.970548, 0.971707, 0.975467, 0.977015, 0.979534, 0.982034, 0.983676, 0.983791, 0.976534, 0.976745, 0.975668, 0.97383, 0.968796, 0.966731, 0.965881, 0.967342, 0.966471, 0.958158, 0.954122, 0.954426, 0.959222, 0.959335, 0.959902, 0.951937, 0.95118, 0.951956, 0.950535, 0.949925, 0.949764, 0.949351, 0.945157, 0.945373, 0.946718, 0.955106, 0.961345, 0.970393, 0.969045, 0.9664, 1.11259, 0.937494, 0.936953, 0.935967, 0.926443, 0.920885, 0.919957, 0.916638, 0.917808, 0.917939, 0.911614, 0.909046, 0.913128, 0.912458, 0.918808, 0.917887, 0.914415, 0.912724, 0.920287, 0.915591, 0.901763, 0.898486, 0.896917, 0.894223, 0.901261, 0.897017, 0.895843, 0.897054, 0.895003, 0.894216, 0.89335, 0.887926, 0.888121, 0.894772, 0.894938, 0.892226, 0.887003, 0.876387, 0.877067, 0.873703, 0.868109, 0.866434, 0.860076, 0.851488, 0.851954, 0.838668, 0.856385, 0.858957, 0.871643, 0.876913, 0.875486, 0.870653, 0.866971, 0.854382, 0.853641, 0.852084, 0.851949, 0.851124, 0.850948, 0.85627, 0.851009, 0.846754, 0.845744, 0.846276, 0.854924, 0.847304, 0.846115, 0.845891, 0.839969, 0.842453, 0.845447, 0.845049, 0.860051, 0.858129, 0.859288, 0.853308, 0.853557, 0.844321, 0.84714, 0.845393, 0.847932, 0.848888, 0.86115, 0.872934, 0.878951, 0.877545, 0.877498, 1.33286, 1.33868, 0.895984, 0.903348, 0.910908, 0.907938, 0.909201, 0.912537, 0.914287, 0.915706, 0.915109, 0.90873, 1.06462, 0.881108, 0.881351, 0.88135, 0.882525, 0.883178, 0.883092, 0.884308, 0.889659, 0.894088, 0.90187, 0.902282, 0.902467, 0.893873, 0.884493, 0.873601, 0.87393, 0.87494, 0.875382, 0.873963, 0.871854, 0.870803, 0.872282, 0.872019, 0.87219, 0.869447, 0.857175, 0.841511, 0.84313, 0.841964, 0.840069, 0.840723, 0.831151, 0.832434, 0.839565, 0.856503, 0.861484, 0.862186, 0.852377, 0.851144, 0.850598, 0.855868, 0.869491, 0.866773, 0.864839, 0.86356, 0.863951, 0.869067, 0.865323, 0.873438, 0.874746, 0.868267, 0.859496, 0.858816, 0.857945, 0.858707, 0.860011, 0.855722, 0.854262, 0.850638, 0.852065, 0.851126, 0.851503
0.988122, 0.977213, 0.974637, 0.976159, 0.977356, 0.982301, 0.980437, 0.978495, 0.978893, 0.974156, 0.971438, 0.974277, 0.962561, 0.961631, 0.96308, 0.962673, 0.962606, 0.96439, 0.963775, 0.960788, 0.959146, 0.951587, 0.952103, 0.950912, 0.954619, 0.964101, 0.966485, 0.975959, 0.988074, 0.98796, 0.985685, 0.983343, 0.979367, 0.977485, 0.963938, 0.963116, 0.964802, 0.966916, 0.968099, 0.968869, 0.96957, 0.973484, 0.972787, 0.973303, 0.979002, 0.982902, 0.982783, 0.980031, 0.977241, 0.979352, 0.978735, 0.977973, 0.972394, 0.970705, 0.969473, 0.969762, 0.958253, 0.956986, 0.953672, 0.952771, 0.953604, 0.951327, 0.951202, 0.951456, 0.954156, 0.956813, 0.95116, 0.947789, 0.945942, 0.944017, 0.948964, 0.948946, 0.951685, 0.95393, 1.06098, 0.959568, 0.962889, 0.966921, 0.945246, 0.942007, 0.936521, 0.929914, 0.921814, 0.921341, 0.920712, 0.921015, 0.918332, 0.914156, 0.911906, 0.911555, 0.91366, 0.916846, 0.917549, 0.917314, 0.926008, 0.925943, 0.919495, 1.00169, 0.899882, 0.897112, 0.898603, 0.900561, 0.899344, 0.896002, 0.896308, 0.89553, 0.892636, 0.890359, 0.887185, 0.88665, 0.884802, 0.887095, 0.893336, 0.881698, 0.880757, 0.880615, 0.878215, 0.871061, 0.86774, 0.860641, 0.857377, 0.853712, 0.85659, 0.859055, 0.857674, 0.873258, 0.874687, 0.874543, 0.87396, 0.873763, 0.854362, 0.854838, 0.854413, 0.850639, 0.851122, 0.852132, 0.854761, 0.855407, 0.848206, 0.843835, 0.842077, 0.839019, 0.839229, 0.840667, 0.842134, 0.842691, 0.8464, 0.845106, 0.844235, 0.856171, 0.859379, 0.860032, 0.85913, 0.852847, 0.852962, 0.846444, 0.846861, 0.847703, 0.848553, 0.854961, 0.853441, 0.873537, 0.878603, 0.878176, 0.878876, 1.26508, 0.89895, 0.902742, 0.906982, 0.912316, 0.914354, 0.915114, 0.91434, 0.911352, 0.912599, 0.914824, 0.882089, 0.880423, 0.880994, 0.881259, 0.881846, 0.88134, 0.881378, 0.880539, 0.877482, 0.985318, 0.977487, 0.894587, 0.901786, 0.901459, 0.885049, 0.885227, 0.875761, 0.876693, 0.875061, 0.880324, 0.880699, 0.870487, 0.873925, 0.87474, 0.873359, 1.01186, 0.854982, 0.845318, 0.843635, 0.84318, 0.842437, 0.842577, 0.835987, 0.832568, 0.833215, 0.85824, 0.85982, 0.860456, 0.850007, 0.851132, 0.852467, 0.860609, 0.867631, 0.866363, 0.864763, 0.865054, 0.869091, 0.869463, 0.864517, 0.861234, 0.861265, 0.86217, 0.864447, 0.860128, 0.856755, 0.857411, 0.858398, 0.859187, 0.846483, 0.845533, 0.850119, 0.854123, 0.855604, 0.850871
0.988149, 0.98575, 0.983389, 0.983112, 0.981967, 0.981013, 0.980585, 0.97995, 0.980199, 0.976499, 0.97298, 0.96025, 0.959907, 0.960748, 0.962509, 0.962763, 0.964427, 0.966289, 0.960794, 0.959587, 0.950474, 0.950777, 0.952043, 0.953716, 0.962503, 0.963556, 0.964464, 1.04935, 0.985421, 0.985523, 0.984066, 0.983871, 0.979339, 0.963064, 0.96265, 0.962778, 0.965687, 0.966842, 0.969401, 0.970081, 0.974023, 0.973181, 0.971735, 0.973264, 0.974405, 0.980386, 0.979644, 0.98002, 0.980515, 0.981433, 0.98354, 0.983569, 0.971202, 0.971282, 0.970032, 0.970801, 0.956638, 0.955498, 0.952441, 0.952449, 0.951734, 0.949688, 0.949551, 0.951796, 0.953231, 0.951718, 0.948354, 0.946413, 0.942973, 0.94601, 0.946143, 0.94555, 0.939782, 0.942394, 0.945303, 0.946746, 0.959309, 1.14418, 0.939764, 0.930205, 0.927603, 0.924237, 0.921944, 0.92867, 0.92743, 0.918872, 0.917129, 0.915538, 0.913749, 0.912312, 0.912884, 0.914363, 0.915716, 0.921996, 0.926818, 0.926877, 0.905906, 0.903991, 0.898183, 0.90069, 0.901124, 0.900678, 0.897377, 0.895934, 0.89553, 0.88904, 0.890026, 0.890253, 0.888675, 0.885366, 0.884747, 0.886832, 0.886517, 0.880566, 0.878132, 0.878858, 0.878569, 0.868357, 0.867234, 0.862886, 0.855935, 0.861318, 0.860329, 0.860393, 0.878142, 0.874709, 0.866577, 0.873845, 0.874077, 0.860508, 0.855315, 0.849779, 0.852368, 0.852196, 0.849446, 0.855641, 0.855889, 0.855595, 0.843267, 0.843475, 0.842354, 0.835552, 0.835171, 0.836508, 0.841647, 0.843137, 0.847148, 0.850688, 0.852801, 0.857624, 0.857542, 0.855501, 0.854348, 0.851208, 0.850816, 0.847503, 0.847199, 0.856694, 0.855741, 0.852964, 0.854272, 0.874303, 0.880061, 0.884208, 0.886473, 0.903241, 0.907885, 0.908062, 0.91315, 0.915913, 0.91662, 0.915451, 0.915226, 0.909523, 1.07036, 1.06989, 0.880771, 0.880842, 0.880077, 0.879982, 0.879979, 0.882885, 0.883629, 0.88247, 0.872193, 0.871943, 0.880718, 0.881116, 0.882232, 0.883554, 0.882064, 0.883236, 0.876067, 0.873358, 0.874409, 0.879799, 0.880039, 0.873736, 0.873527, 0.875359, 0.856482, 0.855742, 0.852646, 0.846742, 0.845102, 0.844232, 0.846201, 0.85466, 1.0779, 0.84995, 0.850654, 0.859227, 0.859643, 0.856981, 0.85028, 0.851718, 0.852372, 0.866307, 0.866723, 0.864707, 0.86342, 0.866692, 0.869648, 0.859421, 0.85684, 0.859305, 0.862538, 0.856333, 0.857912, 0.856149, 0.855641, 0.855998, 0.85594, 0.847333, 0.84511, 0.84614, 0.847689, 0.852898, 0.853327, 0.855748
0.987254, 0.985281, 0.983863, 0.98408, 0.979575, 0.980182, 0.981348, 0.983192, 0.981507, 0.964155, 0.959656, 0.959689, 0.959405, 0.95593, 0.960953, 0.965356, 0.965092, 0.958532, 0.957139, 0.950166, 0.948972, 0.957043, 0.95441, 0.956338, 0.961122, 0.963717, 0.971883, 0.975472, 0.985199, 0.984954, 0.984367, 0.967491, 0.964531, 0.959981, 0.960406, 0.966101, 0.967695, 0.966088, 0.967767, 0.974846, 0.974109, 0.970365, 0.971739, 0.972903, 0.9827, 0.981115, 0.980536, 0.980624, 0.984959, 0.984014, 0.984603, 0.981464, 0.973577, 0.971845, 0.963026, 0.95276, 0.950742, 0.947303, 0.9532, 0.952481, 0.945572, 0.94734, 0.948201, 0.952376, 0.951342, 0.950058, 0.948625, 0.946604, 0.948332, 0.945284, 0.93998, 0.93825, 0.935939, 0.937472, 0.943594, 0.945508, 0.939251, 0.931046, 0.927355, 0.925466, 0.924975, 0.923814, 0.922972, 0.926327, 0.928511, 0.921419, 0.917876, 0.916234, 0.915498, 0.910065, 0.911123, 0.922678, 0.925001, 0.922282, 0.913165, 0.903924, 0.903212, 0.902002, 0.90189, 0.902656, 0.899408, 0.899386, 0.900051, 0.891495, 0.889208, 0.887616, 0.890124, 0.890148, 0.889659, 0.893034, 0.887222, 0.886347, 0.881284, 0.87801, 0.877889, 0.86867, 0.868787, 0.867279, 0.863126, 0.863935, 0.864468, 0.868894, 0.877773, 0.877498, 0.877716, 0.863654, 0.863844, 0.866031, 0.863309, 0.854622, 0.850761, 0.84886, 0.851348, 0.85203, 0.855595, 0.855082, 0.856676, 0.855205, 0.841964, 0.841671, 0.839327, 0.835006, 0.831887, 0.826998, 0.836407, 0.844768, 0.850928, 0.849798, 0.854182, 0.856323, 0.854461, 0.855645, 0.854035, 0.852337, 0.851813, 0.848354, 0.849399, 0.854407, 0.858334, 0.874349, 1.00638, 1.08242, 0.887579, 1.26716, 0.902293, 0.902766, 0.907705, 0.908391, 0.916036, 0.920025, 0.915407, 0.914198, 1.17351, 1.20173, 0.88077, 0.880458, 0.879897, 0.880226, 0.880079, 0.882037, 0.887758, 0.890717, 0.881993, 0.871391, 0.869993, 0.872597, 0.881975, 0.880887, 0.878635, 0.874724, 0.876475, 0.876616, 0.873316, 0.873678, 0.875688, 0.879327, 0.878709, 0.876391, 0.87211, 0.857365, 0.846693, 0.846214, 0.845438, 0.845649, 0.844151, 0.848886, 0.849174, 0.855871, 0.85656, 0.861204, 0.85511, 0.856441, 0.858245, 0.857947, 0.853655, 0.853045, 0.867441, 0.866906, 0.866703, 0.867304, 0.864461, 0.86654, 0.858348, 0.858314, 0.857463, 0.853855, 0.853404, 0.856109, 0.855722, 0.853985, 0.853865, 0.850652, 0.84634, 0.846665, 0.842523, 0.845144, 0.84866, 0.85402, 0.852599, 0.855009
0.985376, 0.984018, 0.983031, 0.981201, 0.983698, 0.984522, 0.985718, 0.983853, 0.960266, 0.957123, 0.956718, 0.955889, 0.955556, 0.953233, 0.959449, 0.965755, 0.965964, 0.954213, 0.951339, 0.949, 0.953099, 0.953483, 0.95276, 0.956365, 0.960165, 0.972298, 0.971396, 0.976394, 0.982876, 0.982452, 0.982567, 1.06948, 0.959269, 0.959397, 0.961789, 0.967722, 0.967434, 0.966968, 0.973564, 0.97304, 0.969904, 0.970504, 0.973557, 0.975498, 0.982659, 0.984825, 0.982283, 0.980401, 0.982884, 0.980873, 0.981399, 1.11363, 1.11829, 0.950318, 0.949448, 0.948801, 0.949572, 0.948867, 0.945851, 0.944171, 0.943415, 0.94392, 0.949369, 0.950769, 0.951054, 0.947951, 0.94957, 0.949235, 0.943036, 0.939268, 0.93535, 0.933057, 0.933434, 0.933851, 0.938769, 0.936192, 0.930582, 0.928186, 0.923715, 0.923671, 0.923788, 0.92434, 0.926493, 0.925929, 0.922063, 0.919565, 0.917536, 0.912255, 0.911574, 0.909387, 0.919883, 0.922337, 0.924174, 0.910967, 0.906719, 0.905256, 0.903634, 0.904523, 0.903036, 0.899611, 0.899251, 0.899311, 0.891688, 0.890239, 0.889522, 0.886184, 0.888665, 0.891555, 0.893944, 0.892449, 0.891088, 0.887179, 0.877147, 0.87511, 0.868969, 0.868103, 0.86792, 0.860256, 0.86169, 0.878022, 0.880859, 0.881828, 0.878056, 0.877151, 0.867988, 0.862722, 0.862976, 0.863212, 0.855654, 0.853886, 0.851147, 0.850668, 0.851189, 0.855653, 0.854347, 0.853886, 0.854765, 0.841239, 0.839608, 0.839539, 0.84014, 0.837532, 0.836805, 0.829192, 0.826122, 0.831908, 0.849626, 0.85085, 0.856128, 0.853955, 0.856841, 0.857877, 0.85854, 0.854581, 0.852638, 0.8504, 0.856297, 0.85587, 0.872375, 0.874474, 0.873582, 0.88732, 0.897329, 0.898892, 0.902113, 0.904955, 0.912762, 1.00979, 0.921905, 0.919983, 0.918724, 0.982554, 1.07021, 0.881064, 0.879592, 0.879912, 0.880361, 0.881919, 0.886873, 0.893695, 0.895609, 0.895653, 0.870556, 0.86612, 0.866012, 0.867784, 0.876908, 0.878689, 0.875721, 0.872082, 0.875355, 0.876417, 0.872462, 0.874671, 0.872239, 0.873013, 0.873853, 0.873833, 0.853481, 0.842613, 0.842604, 0.843304, 0.84447, 0.84563, 0.847359, 0.847744, 0.866922, 0.869329, 0.868803, 0.864256, 0.863053, 0.85461, 0.856293, 0.860128, 0.857399, 0.867079, 0.867687, 0.868435, 0.869567, 0.865182, 0.853701, 0.856561, 0.857939, 0.85778, 0.849078, 0.848992, 0.849146, 0.849535, 0.84949, 0.852664, 0.853108, 0.844692, 0.841027, 0.840813, 0.840872, 0.843622, 0.855843, 0.856741, 0.85616, 0.855537
0.98609, 0.984375, 0.981676, 0.983816, 0.984184, 0.986151, 0.985638, 0.961224, 0.958561, 0.95498, 0.950595, 0.952047, 0.953795, 0.954395, 0.958143, 0.963658, 0.963664, 0.952578, 0.951324, 0.955343, 0.953692, 0.955162, 0.956552, 0.960975, 0.967812, 0.972828, 0.973705, 0.974088, 0.98234, 0.982812, 1.0675, 0.961167, 0.960039, 0.966693, 0.967256, 0.967675, 0.969374, 0.973737, 0.972683, 0.970861, 0.970592, 0.97767, 0.97504, 0.985436, 0.985476, 0.985818, 0.985996, 0.980821, 0.973827, 0.972949, 0.975426, 1.14975, 0.948919, 0.949063, 0.947786, 0.945808, 0.946711, 0.946422, 0.944209, 0.943999, 0.943332, 0.949077, 0.949212, 0.946506, 0.946715, 0.952788, 0.949906, 0.948796, 0.941938, 0.93841, 0.935577, 0.935259, 0.93176, 0.934102, 0.928709, 0.926016, 0.924173, 0.925131, 0.926902, 0.925114, 0.925358, 0.934602, 0.928746, 0.925932, 0.923564, 0.921693, 0.915482, 0.913126, 0.914265, 0.920344, 0.916892, 0.913897, 0.909863, 0.909846, 0.907446, 0.906223, 0.905846, 0.904417, 0.899306, 0.899157, 0.899707, 0.891329, 0.890366, 0.888759, 0.887653, 0.885489, 0.892187, 0.892964, 0.893579, 0.89287, 0.87799, 0.876127, 0.871393, 0.869683, 0.866085, 0.864341, 0.860427, 0.859997, 0.876141, 0.878138, 0.884166, 0.881548, 0.881863, 0.853194, 0.864423, 0.863577, 0.862722, 0.856201, 0.855674, 0.85258, 0.853333, 0.85436, 0.855578, 0.855653, 0.854004, 0.847135, 0.846413, 0.841405, 0.840836, 0.837524, 0.838752, 0.83701, 0.829255, 0.8305, 0.829087, 0.830846, 0.831635, 0.852868, 0.85215, 0.853143, 0.856908, 0.857796, 0.858022, 0.856998, 0.852673, 0.853316, 0.869889, 0.872926, 0.87407, 0.878491, 0.894993, 0.89788, 0.89762, 0.897806, 0.903085, 0.91246, 0.915481, 0.923613, 0.920884, 0.924989, 1.07184, 1.00607, 0.880481, 0.877589, 0.878539, 0.879923, 0.88047, 0.878081, 0.887317, 0.894544, 0.895538, 0.871111, 0.869552, 0.864253, 0.866077, 0.873692, 0.877877, 0.87667, 0.871341, 0.87044, 0.8702, 0.873739, 0.8754, 0.868708, 0.868413, 0.865852, 0.865771, 0.842352, 0.84059, 0.84223, 0.842699, 0.842779, 0.849156, 0.848032, 0.86574, 0.866393, 0.869232, 0.868167, 0.86924, 0.866077, 0.862622, 0.862087, 0.860782, 0.860396, 0.869246, 0.867395, 0.866907, 0.868189, 0.867739, 0.848147, 0.850431, 0.852868, 0.851289, 0.849816, 0.849892, 0.845562, 0.847784, 0.849778, 0.84745, 0.846136, 0.845101, 0.840784, 0.839885, 0.842234, 0.855823, 0.853592, 0.853853, 0.858897, 0.854293, 0.854771
0.990633, 0.989496, 0.989805, 0.993673, 0.991658, 0.987413, 0.965829, 0.956184, 0.956652, 0.956911, 0.94637, 0.947988, 0.952247, 0.958868, 0.959251, 0.959166, 0.952671, 0.952788, 0.953753, 0.954957, 0.955855, 0.956191, 0.963948, 0.972336, 0.974866, 0.976214, 0.974298, 0.973564, 0.983313, 0.965932, 0.964934, 0.960812, 0.970622, 0.967031, 0.969276, 0.968063, 0.974899, 0.974298, 0.970147, 0.971292, 0.977468, 0.98005, 0.980364, 0.977145, 0.984984, 0.98608, 0.982661, 0.956198, 0.973202, 0.973179, 0.975035, 1.14901, 0.946305, 0.946356, 0.944612, 0.944856, 0.948177, 0.946907, 0.945245, 0.954327, 0.955436, 0.953467, 0.951184, 0.946701, 0.94821, 0.952281, 0.952311, 0.942189, 0.938769, 0.939038, 0.938219, 0.932345, 0.931616, 0.929122, 0.923867, 0.923118, 0.925243, 0.925247, 0.926293, 0.927671, 0.937045, 0.937544, 0.936253, 0.928649, 0.92473, 0.919437, 0.916842, 0.921644, 0.919624, 0.922352, 0.912126, 0.910995, 0.910465, 0.909475, 0.90911, 0.909478, 0.908292, 0.901403, 0.902564, 0.901293, 0.892071, 0.889512, 0.889977, 0.889789, 0.888658, 0.891194, 0.891047, 0.891342, 0.884153, 0.873898, 0.871932, 0.871824, 0.870459, 0.869455, 0.860288, 0.859404, 0.859128, 0.860765, 0.875905, 0.878179, 0.880385, 0.869333, 0.86806, 0.862579, 0.864068, 0.864006, 0.858275, 0.857643, 0.855316, 0.853651, 0.854289, 0.856374, 0.85771, 0.859206, 0.849541, 0.84264, 0.841127, 0.840463, 0.840061, 0.84183, 0.83915, 0.83803, 0.830726, 0.831625, 0.835321, 0.836882, 0.844521, 0.84557, 0.848808, 0.851681, 0.857562, 0.859241, 0.856956, 0.856819, 0.856791, 0.870256, 0.869829, 0.874968, 0.876977, 0.897207, 0.89724, 0.896729, 0.897532, 0.897924, 0.901724, 0.912905, 0.921943, 0.92473, 0.923287, 0.969896, 0.928867, 0.874518, 0.877206, 0.877346, 0.880556, 0.879944, 0.880511, 0.869747, 0.867344, 0.974204, 0.873268, 0.873959, 0.863292, 0.862027, 0.863549, 0.868345, 0.874808, 0.869358, 0.867368, 0.867563, 0.867149, 0.866232, 0.866809, 0.864615, 0.865385, 0.861224, 0.838996, 0.842002, 0.84166, 0.841787, 0.842218, 0.843113, 0.84665, 0.849155, 0.866607, 0.867843, 0.865771, 0.867519, 0.86756, 0.866183, 0.864611, 0.863067, 0.86331, 0.868725, 0.86969, 0.865235, 0.86552, 0.854658, 0.85417, 0.84862, 0.849397, 0.849803, 0.849688, 0.849007, 0.842713, 0.843577, 0.844756, 0.850674, 0.841024, 0.842161, 0.838188, 0.837789, 0.83882, 0.856176, 0.856496, 0.853404, 0.850739, 0.853623, 0.857445, 0.850814
0.991081, 0.993668, 0.992584, 0.994992, 0.993431, 1.07131, 0.959714, 0.956104, 0.954941, 0.948646, 0.94694, 0.950358, 0.954239, 0.955564, 0.951518, 0.950483, 0.951866, 0.963579, 0.960425, 0.95751, 0.959316, 0.960496, 0.973055, 0.972283, 0.976417, 0.976983, 0.970066, 0.969888, 0.966811, 0.966488, 0.966342, 0.973675, 0.971169, 0.972221, 0.970157, 0.974846, 0.970013, 0.969725, 0.970704, 0.976275, 0.976212, 0.976904, 0.978089, 0.97854, 0.985861, 0.985597, 0.97721, 0.975305, 0.973987, 0.974472, 0.948752, 0.947297, 0.94483, 0.943432, 0.945375, 0.95262, 0.949733, 0.947924, 0.954484, 0.954847, 0.955845, 0.95568, 0.949852, 0.947986, 0.947497, 0.952521, 0.952033, 0.941364, 0.93388, 0.932168, 0.930425, 0.930104, 0.929845, 0.928603, 0.923185, 0.923031, 0.924315, 0.924245, 0.924901, 0.931711, 0.932282, 0.935963, 0.936077, 0.927657, 0.925648, 0.924273, 0.926268, 0.927205, 0.926731, 0.919502, 0.915231, 0.914823, 0.911392, 0.914642, 0.91461, 0.910597, 0.902023, 0.902436, 0.901852, 0.895576, 0.8906, 0.890319, 0.890179, 0.891827, 0.890722, 0.88956, 0.891297, 0.882674, 0.868867, 0.867508, 0.867181, 0.869511, 0.863989, 0.863469, 0.861469, 0.857818, 0.985054, 0.877432, 0.877754, 0.877102, 0.86773, 0.867036, 0.865368, 0.863817, 0.86216, 0.861015, 0.858186, 0.857524, 0.857346, 0.856043, 0.856447, 0.855541, 0.855902, 0.843145, 0.839391, 0.839237, 0.838353, 0.839024, 0.841358, 0.842454, 0.841659, 0.842426, 0.83879, 0.836189, 0.837322, 0.845245, 0.845452, 0.845193, 0.848004, 0.8521, 0.855607, 0.857165, 0.85834, 0.871664, 0.87164, 0.871618, 0.874032, 0.880524, 0.898144, 0.898273, 0.897934, 0.896917, 0.88905, 0.8899, 1.01153, 0.917944, 0.92012, 0.922316, 0.922234, 0.876933, 0.879347, 0.875352, 0.875917, 0.876887, 0.87969, 0.880482, 0.880552, 0.862077, 0.862466, 0.863786, 0.865765, 0.862393, 0.859646, 0.854728, 1.30263, 0.864913, 0.928789, 0.869376, 0.867498, 0.866439, 0.863865, 0.863133, 0.864652, 0.860727, 0.85978, 0.840015, 0.842054, 0.840914, 0.840449, 0.842003, 0.839165, 0.838984, 0.840246, 0.865053, 0.865045, 0.866079, 0.866648, 0.867294, 0.867402, 0.864391, 0.860514, 0.862472, 0.865792, 0.869207, 0.870065, 0.857781, 0.857331, 0.855669, 0.855447, 0.847954, 0.849797, 0.84897, 0.847986, 0.837146, 0.842842, 0.842688, 0.839084, 0.836406, 0.837028, 0.834519, 0.833892, 0.836302, 0.840964, 0.853953, 0.856556, 0.853415, 0.848894, 0.854177, 0.857634, 0.846287
0.997595, 0.996776, 0.995994, 0.996099, 1.07022, 0.965279, 0.960371, 0.954408, 0.947792, 0.945995, 0.94769, 0.949265, 0.950622, 0.951319, 0.95221, 0.951186, 0.952123, 0.968297, 0.964238, 0.966345, 0.96795, 0.973735, 0.973376, 0.973402, 0.973927, 0.969539, 0.967672, 0.966135, 0.966615, 0.968058, 0.969837, 0.973038, 0.972725, 0.972595, 0.976226, 0.97593, 0.969554, 0.97051, 0.97428, 0.973708, 0.974297, 0.97635, 0.978787, 0.986604, 0.98604, 0.98166, 0.974681, 0.974739, 0.97417, 0.947384, 0.947256, 0.94464, 0.943205, 0.942524, 0.950363, 0.950636, 0.9518, 0.963522, 0.961101, 0.954125, 0.956287, 0.953251, 0.951258, 0.952666, 0.95468, 0.953468, 0.938761, 0.932552, 0.931166, 0.92945, 0.929481, 0.930831, 0.929697, 0.928139, 0.922473, 0.925091, 0.923223, 0.923199, 0.923929, 0.930252, 0.930433, 0.933721, 0.928299, 0.928297, 0.929312, 0.928662, 0.927518, 0.923176, 0.921988, 0.919054, 0.915993, 0.916538, 0.918488, 0.916804, 0.91246, 0.909432, 0.902627, 0.900422, 0.900951, 0.893919, 0.890848, 0.889176, 0.894299, 0.892294, 0.888663, 0.887343, 0.883699, 0.883149, 0.866584, 0.866872, 0.867272, 0.86782, 0.861567, 0.863294, 0.861262, 0.879335, 0.878292, 0.878091, 0.875633, 0.864782, 0.865966, 0.864892, 0.864073, 0.864866, 0.8637, 0.860424, 0.858796, 0.855682, 0.855808, 0.85616, 0.85454, 0.852921, 0.838257, 0.83806, 0.838749, 0.840411, 0.839299, 0.83755, 0.835706, 0.837992, 0.83893, 0.843296, 0.846731, 0.84068, 0.841038, 0.843649, 0.845507, 0.846573, 0.847434, 0.849446, 0.855408, 0.865155, 0.868335, 0.870314, 0.87481, 0.880271, 1.05657, 0.895442, 0.898392, 0.898414, 0.893864, 0.889244, 0.889027, 0.889445, 1.00255, 0.917753, 0.920637, 0.921504, 1.00728, 0.875544, 0.877107, 0.873996, 0.875058, 0.876129, 0.876885, 0.949313, 0.981206, 0.859662, 0.859213, 0.858417, 1.32338, 0.850123, 0.846686, 0.846595, 0.8515, 0.849473, 0.852066, 0.929744, 1.0232, 0.971244, 0.919731, 0.849961, 0.940281, 0.837355, 0.840221, 0.839727, 0.840101, 0.842253, 0.841252, 0.837219, 0.839214, 0.8428, 0.845987, 0.859, 0.862085, 0.865902, 0.864099, 0.863415, 0.8632, 0.859487, 0.862198, 0.86297, 0.862389, 0.85702, 0.855267, 0.855792, 0.853934, 0.853046, 0.854468, 0.850982, 0.849575, 0.84224, 0.836593, 0.83421, 0.836547, 0.835393, 0.836421, 0.835465, 0.837093, 0.836328, 0.83755, 0.837393, 0.856541, 0.859143, 0.856321, 0.851618, 0.853622, 0.853877, 0.849215, 0.845836
0.997377, 0.996406, 0.997155, 1.06488, 0.970987, 0.963689, 0.956292, 0.953481, 0.947346, 0.947976, 0.949269, 0.951396, 0.95115, 0.953305, 0.952722, 0.954446, 0.959854, 0.968715, 0.966193, 0.965454, 0.968409, 0.974528, 0.974759, 0.972044, 0.967704, 0.966225, 0.966756, 0.971194, 0.971016, 0.968171, 0.967435, 0.970493, 0.972379, 0.973184, 0.970877, 0.968828, 0.968339, 0.972942, 0.973083, 0.973275, 0.974739, 0.97738, 0.987548, 0.986892, 0.980067, 0.973509, 0.973916, 0.975967, 0.95392, 0.945616, 0.944294, 0.944444, 0.944085, 0.947201, 0.946639, 0.947353, 0.962825, 0.962989, 0.96269, 0.967398, 0.960541, 0.960276, 0.957036, 0.956992, 0.956212, 0.945585, 0.932872, 0.928739, 0.928679, 0.928277, 0.928437, 0.928669, 0.930377, 0.929974, 0.927094, 0.926511, 0.923745, 0.924648, 0.925409, 0.928939, 0.930368, 0.929155, 0.929194, 0.929761, 0.931109, 0.929542, 0.922885, 0.921254, 0.918623, 0.919167, 0.92042, 0.920321, 0.919032, 0.912816, 0.912998, 0.914973, 0.905246, 0.898148, 0.895477, 0.894938, 0.896907, 0.895341, 0.89302, 0.890719, 0.890549, 0.880858, 0.880119, 0.86708, 0.867861, 0.867882, 0.871829, 0.868918, 0.867071, 0.863209, 0.875686, 0.879475, 0.877698, 0.876499, 0.871934, 0.864402, 0.864644, 0.864855, 0.865989, 0.862647, 0.862042, 0.86034, 0.860224, 0.855788, 0.855225, 0.854997, 0.855157, 0.838416, 0.837998, 0.837977, 0.841671, 0.839187, 0.837972, 0.836108, 0.835252, 0.83718, 0.838356, 0.846109, 0.846965, 0.845735, 0.843625, 0.845782, 0.847547, 0.846423, 0.8493, 0.866655, 0.866737, 0.864945, 0.86777, 0.872772, 0.908634, 1.05296, 0.898837, 0.89585, 0.89638, 0.892944, 0.888808, 0.884533, 0.883135, 1.01108, 1.00284, 0.923278, 0.924723, 0.982444, 1.05947, 0.876761, 0.873969, 0.874837, 0.875458, 0.876125, 0.978521, 0.85063, 0.852402, 0.854967, 0.855634, 0.845523, 0.843385, 0.842743, 0.839593, 0.836532, 1.0977, 0.98816, 0.98316, 0.839646, 0.840795, 0.832554, 0.832416, 0.833283, 0.83525, 0.835395, 0.837121, 0.837326, 0.839834, 0.836479, 0.837656, 0.838589, 0.841784, 0.848291, 0.856727, 0.859563, 0.860837, 0.861282, 0.862681, 0.861378, 0.859174, 0.855457, 0.857152, 0.857777, 0.85959, 0.852909, 0.852564, 0.851279, 0.850894, 0.850862, 0.852663, 0.853819, 0.836046, 0.838212, 0.83515, 0.835433, 0.83454, 0.830614, 0.835685, 0.834916, 0.836671, 0.836642, 0.838703, 0.862461, 0.860446, 0.860356, 0.854384, 0.854465, 0.855286, 0.84811, 0.847985, 0.847333
0.99831, 1.1667, 0.973701, 0.968419, 0.967134, 0.959194, 0.953329, 0.950781, 0.949737, 0.948651, 0.950063, 0.952338, 0.954768, 0.953074, 0.956026, 0.95744, 0.963673, 0.963594, 0.964222, 0.965139, 0.972669, 0.973645, 0.966595, 0.960248, 0.962324, 0.963202, 0.965091, 0.969676, 0.969153, 0.966668, 0.965924, 0.968076, 0.973583, 0.97331, 0.970569, 0.970372, 0.971936, 0.969839, 0.970683, 0.973314, 0.975656, 0.986894, 0.986045, 0.975099, 0.974814, 0.975281, 0.974142, 1.18552, 0.949219, 0.945795, 0.945759, 0.944735, 0.949835, 0.947763, 0.947882, 0.947429, 0.961793, 0.962327, 0.964162, 0.966099, 0.964948, 0.961784, 0.957437, 0.957671, 0.946306, 0.931787, 0.928164, 0.928616, 0.927864, 0.927579, 0.926982, 0.928924, 0.929232, 0.934263, 0.934765, 0.931653, 0.925204, 0.923891, 0.925438, 0.931396, 0.93182, 0.929039, 0.929185, 0.935494, 0.932195, 0.923917, 0.922388, 0.921392, 0.918297, 0.91967, 0.925485, 0.927909, 0.916308, 0.914345, 0.914639, 0.900908, 0.89888, 0.89875, 0.897015, 0.901386, 0.899962, 0.896032, 0.893689, 0.891234, 0.890106, 0.880817, 0.879418, 0.868085, 0.86732, 0.870338, 0.870305, 0.871135, 0.88401, 0.880921, 0.876756, 0.874946, 0.874941, 0.870796, 0.863762, 0.864953, 0.865145, 0.864997, 0.861805, 0.860007, 0.859978, 0.860064, 0.860934, 0.860216, 0.853828, 0.855859, 0.837518, 0.838498, 0.837831, 0.839061, 0.838861, 0.839807, 0.837425, 0.837729, 0.836948, 0.83749, 0.837801, 0.838196, 0.844739, 0.845449, 0.844262, 0.84567, 0.846526, 0.848983, 0.865773, 0.866209, 0.867185, 0.868429, 0.872216, 1.04402, 0.900818, 0.903534, 0.899306, 0.8984, 0.893811, 0.888289, 0.887404, 0.887623, 1.01397, 1.01544, 0.912599, 0.915126, 0.914928, 0.889693, 0.884435, 0.877042, 0.875802, 0.877039, 0.87667, 0.876011, 0.859278, 0.839832, 0.853367, 0.853388, 0.831834, 0.832319, 0.83366, 0.836299, 0.836825, 0.835724, 0.826306, 0.825658, 0.831126, 0.833937, 0.828123, 0.83135, 0.833449, 0.832647, 0.832214, 0.832048, 0.835183, 0.836754, 0.835156, 0.835002, 0.83721, 0.838999, 0.846736, 0.849221, 0.856581, 0.859597, 0.860979, 0.857941, 0.859337, 0.859384, 0.848141, 0.849337, 0.852227, 0.85382, 0.851108, 0.851449, 0.851671, 0.850394, 0.849337, 0.846079, 0.847716, 0.842148, 0.835091, 0.835741, 0.835392, 0.835646, 0.831271, 0.830007, 0.932634, 1.01052, 0.863574, 0.863533, 0.866063, 0.862786, 0.859777, 0.860416, 0.855733, 0.854692, 0.849769, 0.85233, 0.850491, 0.852021
0.985732, 0.974728, 0.970161, 0.970055, 0.957772, 0.956372, 0.954194, 0.95336, 0.952419, 0.952057, 0.95268, 0.949923, 0.951748, 0.956512, 0.955791, 0.956562, 0.961593, 0.963818, 0.96344, 0.965105, 0.96475, 1.06473, 0.959535, 0.960418, 0.958573, 0.959947, 0.969431, 0.969525, 0.965131, 0.965228, 0.964897, 0.966661, 0.971847, 0.971968, 0.971273, 0.974476, 0.97089, 0.971459, 0.971344, 0.972379, 0.98377, 0.986212, 0.974429, 0.974819, 0.9776, 0.977401, 0.956795, 0.951397, 0.948038, 0.945556, 0.946632, 0.948428, 0.947347, 0.948144, 0.946853, 1.29488, 0.965532, 0.969897, 0.964937, 0.964674, 0.961667, 0.960911, 0.946095, 0.943163, 0.932936, 0.932498, 0.926859, 0.924736, 0.928052, 0.927752, 0.926118, 0.927607, 0.934821, 0.934759, 0.93208, 0.928702, 0.928273, 0.925634, 0.926089, 0.935899, 0.935692, 0.935931, 0.935332, 0.93496, 0.925905, 0.922581, 0.92124, 0.921414, 0.921782, 0.922995, 0.924435, 0.924401, 0.914241, 0.904066, 0.901987, 0.901264, 0.899962, 0.898363, 0.904841, 0.90407, 0.897903, 0.896941, 0.895329, 0.889133, 0.886686, 0.881868, 0.880427, 0.868095, 0.86609, 0.86616, 0.869566, 0.885752, 0.885406, 0.878597, 0.874707, 0.871204, 0.869686, 0.864788, 0.864449, 0.86507, 0.864536, 0.863069, 0.862722, 0.861143, 0.861121, 0.861154, 0.861287, 0.858199, 0.846328, 0.838504, 0.83759, 0.837622, 0.838842, 0.839318, 0.838621, 0.840913, 0.842529, 0.841422, 0.841502, 0.836325, 0.836634, 0.843641, 0.849341, 0.848616, 0.84916, 0.848194, 0.861194, 0.863018, 0.862871, 0.866561, 0.868057, 0.875195, 0.907467, 0.903087, 0.903505, 0.903829, 0.902442, 0.897737, 0.886007, 0.888194, 0.888165, 1.00652, 0.914712, 0.91476, 0.918999, 0.915541, 1.06629, 1.01314, 0.882254, 0.886979, 0.877745, 0.876813, 0.871658, 0.863389, 0.860273, 0.839796, 0.84039, 0.831637, 0.827924, 0.828931, 0.831276, 0.828184, 0.828418, 0.82148, 0.821029, 0.823166, 0.824867, 0.906082, 0.826481, 0.828088, 0.833179, 0.835923, 0.830771, 0.833192, 0.83496, 0.834405, 0.835154, 0.835755, 0.841905, 0.84242, 0.848353, 0.849082, 0.850364, 0.85093, 0.857536, 0.856515, 0.858603, 0.852676, 0.849153, 0.847813, 0.849662, 0.851464, 0.851109, 0.850103, 0.850514, 0.84806, 0.843957, 0.8437, 0.844209, 0.836538, 0.83495, 0.835027, 0.839298, 0.838832, 0.832981, 0.831363, 0.866983, 0.868087, 0.867408, 0.864748, 0.86375, 0.862284, 0.859852, 0.860584, 0.848799, 0.846006, 0.850426, 0.851372, 0.852998, 0.848682
0.984201, 0.972392, 0.972631, 0.965377, 0.96227, 0.955182, 0.955088, 0.956354, 0.955015, 0.95812, 0.955924, 0.951371, 0.951847, 0.954237, 0.9606, 0.961766, 0.962836, 0.963728, 0.964605, 0.964096, 0.96168, 0.959037, 0.95808, 0.959228, 0.959351, 0.961344, 0.969187, 0.965125, 0.963906, 0.965327, 0.965778, 0.966836, 0.972146, 0.97311, 0.973381, 0.972189, 0.970848, 0.971482, 0.98162, 0.980833, 0.979039, 0.977987, 0.97368, 0.976856, 0.977972, 0.959924, 0.953466, 0.952286, 0.95153, 0.950022, 0.948523, 0.947642, 0.947637, 0.948779, 1.23304, 0.97439, 0.971589, 0.966875, 0.963138, 0.96308, 0.961695, 0.9432, 0.935954, 0.932454, 0.932389, 0.931659, 0.926444, 0.928219, 0.925749, 0.92495, 0.926028, 0.935336, 0.934978, 0.932384, 0.930904, 0.931781, 0.928987, 0.931371, 0.943053, 0.94296, 0.938791, 0.938841, 0.927956, 0.928207, 0.924066, 0.923473, 0.920971, 0.92876, 0.928629, 0.924753, 0.92107, 0.904607, 0.901869, 0.89907, 0.898148, 0.898542, 0.901013, 0.9025, 0.90447, 0.904131, 0.89658, 0.896493, 0.895716, 0.88701, 0.885724, 0.884052, 0.876559, 0.864261, 0.865282, 0.86628, 0.866484, 0.883887, 0.885011, 0.873057, 0.869721, 0.869676, 0.869826, 0.865857, 0.865669, 0.864217, 0.863675, 0.864107, 0.864846, 0.868845, 0.870045, 0.870426, 0.862937, 0.856263, 0.839112, 0.838767, 0.839988, 0.843691, 0.844031, 0.844415, 0.844695, 0.849402, 0.849348, 0.843257, 0.846185, 0.846292, 0.844878, 0.848744, 0.848153, 0.850411, 0.850829, 0.850927, 0.861971, 0.862912, 0.863858, 0.868392, 0.873192, 0.891015, 0.897906, 0.906241, 0.904477, 0.901341, 0.902208, 0.892532, 0.891641, 0.887444, 0.897419, 1.00581, 0.912938, 0.911426, 0.911885, 1.09932, 1.0353, 0.885201, 0.882623, 0.887269, 0.886464, 0.869964, 0.864957, 0.862391, 0.857452, 0.840187, 0.829717, 0.829356, 0.826917, 0.826103, 0.825078, 0.826419, 0.828386, 0.817668, 0.816631, 0.819721, 0.822849, 0.823465, 0.824424, 0.826432, 0.829907, 0.836255, 0.831726, 0.832358, 0.832253, 0.833318, 0.835968, 0.843753, 0.844901, 0.840093, 0.840375, 0.842784, 0.844539, 0.852811, 0.852807, 0.851221, 0.847642, 0.846432, 0.848855, 0.849629, 0.849023, 0.850281, 0.850427, 0.849235, 0.842705, 0.84298, 0.842956, 0.843489, 0.842199, 0.837489, 0.8375, 0.838172, 0.835003, 0.834354, 0.834385, 0.833762, 0.868213, 0.869431, 0.866569, 0.866409, 0.861762, 0.862148, 0.86062, 0.853371, 0.851243, 0.849308, 0.856385, 0.855979, 0.850926, 0.850192
0.974146, 0.972348, 0.963603, 0.96257, 0.95827, 0.957793, 0.956031, 0.955464, 0.961283, 0.96028, 0.953439, 0.95601, 0.954063, 0.95808, 0.961475, 0.962619, 0.964247, 0.967029, 0.968611, 0.957824, 0.957918, 0.955659, 0.956971, 0.960462, 0.965047, 0.96524, 0.964929, 0.96142, 0.962349, 0.964416, 0.966451, 0.971771, 0.97184, 0.974531, 0.972075, 0.969684, 0.969907, 0.972296, 0.979339, 0.978439, 0.97802, 0.974872, 0.976965, 0.977758, 0.964952, 0.962065, 0.956028, 0.951362, 0.951869, 0.955246, 0.952679, 0.951021, 1.22772, 0.97817, 0.977109, 0.973446, 0.967836, 0.966863, 0.963526, 0.963563, 0.942699, 0.937201, 0.936023, 0.934913, 0.933952, 0.929447, 0.926762, 0.925403, 0.924646, 0.925128, 0.935213, 0.93477, 0.934724, 0.931765, 0.929937, 0.929425, 0.929117, 0.942609, 0.942641, 0.940608, 0.937823, 0.928764, 0.926406, 0.923644, 0.923594, 0.923465, 0.932163, 0.931756, 0.927126, 0.905024, 0.901503, 0.90224, 0.900842, 0.898303, 0.897655, 0.905183, 0.904396, 0.90243, 0.900957, 0.899173, 0.894883, 0.895831, 0.883428, 0.8852, 0.883633, 0.87502, 0.874706, 0.871669, 0.865575, 0.867733, 0.874113, 0.877433, 0.872783, 0.870586, 0.869004, 0.868832, 0.867077, 0.866564, 0.864778, 0.864762, 0.865813, 0.866128, 0.870096, 0.871318, 0.870114, 0.870087, 0.868166, 0.844527, 0.841543, 0.841644, 0.844744, 0.844619, 0.845688, 0.855426, 0.857611, 0.858673, 0.857264, 0.853828, 0.850316, 0.84951, 0.847982, 0.848477, 0.84894, 0.851266, 0.850248, 0.855744, 0.859777, 0.860816, 1.20211, 1.11562, 0.889688, 0.890522, 0.899026, 0.905016, 0.905438, 0.896247, 0.895389, 0.895181, 0.895703, 1.00297, 0.905202, 0.906881, 0.910683, 1.03459, 0.886089, 0.886889, 0.877928, 0.877586, 0.876764, 0.973724, 0.979413, 0.860906, 0.86061, 0.85974, 0.859185, 0.828364, 0.828591, 0.825209, 0.825209, 0.822926, 0.820976, 0.822606, 0.816116, 0.814789, 0.817729, 0.819754, 0.820165, 0.820925, 0.824471, 0.82689, 0.832275, 0.831879, 0.830571, 0.832145, 0.831958, 0.839082, 0.850268, 0.846419, 0.836341, 0.836856, 0.839229, 0.845211, 0.845174, 0.845727, 0.8496, 0.848768, 0.846792, 0.844566, 0.843112, 0.84521, 0.84613, 0.842336, 0.840633, 0.842435, 0.842543, 0.836142, 0.837559, 0.836782, 0.836567, 0.838011, 0.835415, 0.834872, 0.833052, 0.833433, 0.83318, 0.92882, 0.871176, 0.871054, 0.869715, 0.868021, 0.862335, 0.853784, 0.854121, 0.851047, 0.852432, 0.853858, 0.855538, 0.852347, 0.846662, 0.849507
0.97943, 0.970305, 0.964514, 0.962968, 0.961119, 0.957714, 0.957955, 0.959679, 0.959575, 0.953298, 0.955453, 0.95974, 0.958495, 0.960278, 0.961602, 0.962098, 0.970318, 0.971109, 0.976744, 0.960561, 0.959575, 0.955069, 0.96695, 0.964608, 0.965873, 0.965422, 0.963447, 0.959215, 0.960259, 0.96415, 0.97049, 0.971836, 0.975174, 0.974818, 0.970643, 0.970356, 0.971186, 0.972899, 0.976147, 0.975458, 0.975633, 0.977051, 0.976344, 0.965102, 0.964589, 0.960252, 0.958189, 0.952617, 0.959453, 0.954929, 0.954899, 0.964951, 0.971715, 0.976785, 0.977176, 0.965616, 0.964089, 0.964701, 0.949457, 0.938779, 0.935398, 0.933999, 0.935142, 0.935055, 0.932576, 0.928539, 0.92695, 0.926751, 0.924738, 0.935336, 0.93466, 0.932645, 0.930586, 0.929846, 0.929815, 0.932702, 0.940292, 0.950852, 0.951539, 0.94278, 0.933983, 0.925676, 0.925006, 0.923743, 0.924319, 0.935703, 0.935102, 0.933107, 0.910862, 0.905303, 0.900341, 0.900558, 0.900246, 0.900003, 0.904299, 0.904553, 0.904453, 0.903529, 0.898128, 0.894106, 0.892017, 0.890385, 0.881808, 0.882667, 0.882634, 0.879973, 0.879954, 0.876716, 0.87296, 0.87306, 0.87419, 0.876434, 0.869784, 0.86919, 0.868836, 0.869811, 0.868484, 0.867426, 0.866196, 0.866358, 0.872729, 0.872281, 0.872148, 0.871147, 0.86798, 0.862639, 0.844391, 0.844008, 0.843873, 0.845338, 0.844267, 0.846548, 0.8475, 0.855911, 0.857295, 0.859074, 0.858179, 0.853596, 0.848993, 0.848878, 0.848933, 0.84893, 0.848987, 0.857122, 0.860832, 0.862687, 0.863889, 0.864416, 0.877514, 0.887029, 0.888325, 0.89041, 0.904266, 0.905782, 0.904806, 0.89611, 0.895918, 0.894944, 1.00105, 0.924043, 0.904381, 0.905391, 0.905265, 1.03896, 0.879239, 0.877864, 0.876939, 0.875239, 0.87739, 0.876836, 0.858729, 0.857819, 0.855753, 0.854121, 0.921052, 0.819655, 0.821288, 0.818992, 0.818437, 0.818271, 0.82193, 0.823915, 0.815686, 0.81478, 0.8171, 0.817865, 0.817845, 0.824213, 0.824671, 0.820216, 0.828736, 0.828698, 0.830589, 0.832645, 0.835197, 0.850124, 0.851605, 0.851017, 0.834371, 0.833648, 0.839285, 0.845438, 0.845769, 0.840774, 0.843935, 0.843773, 0.843883, 0.840607, 0.839901, 0.842976, 0.84173, 0.841688, 0.839033, 0.840007, 0.841758, 0.836481, 0.83658, 0.83591, 0.837964, 0.833715, 0.834669, 0.835117, 1.02317, 1.0222, 0.821861, 0.8682, 0.869349, 0.870599, 0.871154, 0.873307, 0.854656, 0.855281, 0.854562, 0.855312, 0.849998, 0.851946, 0.852239, 0.853581, 0.859664, 0.860697
0.971219, 0.968979, 0.961869, 0.963272, 0.963681, 0.955942, 0.95596, 0.957094, 0.959335, 0.955992, 0.96146, 0.96197, 0.96317, 0.962217, 0.962374, 0.970251, 0.973282, 0.966882, 0.962828, 0.961934, 0.960828, 0.965119, 0.963417, 0.96527, 0.96353, 0.963484, 0.956569, 0.959523, 0.958517, 0.965681, 0.969676, 0.971283, 0.968254, 0.970955, 0.971388, 0.97154, 0.968914, 0.971704, 0.97588, 0.976685, 0.975145, 0.978593, 1.25649, 0.961319, 0.963541, 0.962665, 0.960563, 0.958724, 0.958647, 0.959252, 0.964105, 0.964841, 0.963682, 0.971724, 0.968452, 0.967068, 0.961331, 0.949005, 0.94251, 0.935982, 0.935786, 0.934375, 0.935302, 0.932386, 0.93173, 0.929255, 0.930615, 0.941026, 0.938724, 0.936672, 0.932721, 0.930469, 0.931369, 0.930326, 0.939737, 0.939649, 0.947026, 0.949118, 0.948499, 0.931579, 0.925813, 0.922917, 0.923772, 0.924708, 0.933606, 0.93495, 0.935819, 0.918498, 0.909828, 0.903476, 0.899507, 0.902234, 0.901902, 0.90167, 0.90301, 0.903671, 0.904198, 0.897586, 0.893119, 0.891662, 0.890526, 0.887167, 0.881301, 0.881462, 0.881366, 0.879218, 0.879916, 0.88874, 0.876406, 0.879768, 0.877663, 0.876733, 0.870919, 0.870231, 0.869928, 0.867145, 0.870146, 0.867937, 0.867025, 0.867747, 0.871586, 0.874606, 0.874459, 0.870164, 0.859244, 0.852275, 0.845048, 0.845313, 0.847006, 0.846017, 0.847278, 0.857302, 0.858933, 0.856291, 0.858048, 0.858494, 0.856348, 0.85233, 0.85187, 0.851796, 0.850246, 0.849601, 0.856922, 0.855918, 0.861172, 0.863978, 0.864625, 0.876246, 0.88702, 0.887366, 0.890482, 0.898459, 0.902113, 0.90691, 0.902985, 0.895832, 0.89653, 1.00151, 0.918171, 0.922559, 0.916889, 1.10571, 1.09857, 0.875017, 0.87338, 0.874314, 0.874991, 0.87592, 0.877101, 0.859991, 0.856182, 0.856138, 0.843852, 0.843178, 0.821967, 0.816642, 0.817754, 0.818364, 0.816537, 0.818984, 0.824154, 0.816479, 0.817665, 0.817966, 0.817962, 0.81744, 0.816178, 0.823535, 0.824767, 0.822559, 0.820848, 0.829654, 0.831721, 0.837201, 0.838302, 0.850117, 0.850441, 0.832365, 0.832262, 0.836077, 0.844449, 0.845756, 0.839383, 0.839052, 0.8386, 0.837817, 0.839025, 0.837553, 0.83878, 0.835848, 0.838218, 0.83824, 0.837875, 0.839263, 0.840403, 0.838521, 0.838838, 0.835728, 0.833154, 0.83358, 0.83432, 0.827831, 0.81217, 0.812388, 0.81912, 1.02991, 0.868096, 0.873306, 0.865331, 0.863823, 0.853959, 0.854897, 0.857109, 0.856062, 0.849158, 0.853041, 0.853028, 0.857212, 0.856318, 0.860714
0.973845, 0.972234, 0.970531, 0.958221, 0.957296, 0.956905, 0.956228, 0.963099, 0.962341, 0.965192, 0.962106, 0.96264, 0.963536, 0.969746, 0.969787, 0.970987, 0.963458, 0.962688, 0.963051, 0.961806, 0.967869, 0.965991, 0.964277, 0.963996, 0.964901, 0.956382, 0.956395, 0.956117, 0.95887, 0.967663, 0.969911, 0.968344, 0.966377, 0.966837, 0.970477, 0.970725, 0.967682, 0.969921, 0.972994, 0.975205, 0.976378, 0.975011, 0.96374, 0.961131, 0.959554, 0.959625, 0.961851, 0.963708, 0.95777, 0.955988, 0.958277, 0.958385, 0.961727, 0.965299, 0.971271, 0.969615, 0.947466, 0.94548, 0.938791, 0.934365, 0.933555, 0.93348, 0.934474, 0.932194, 0.930189, 0.929989, 0.942512, 0.939952, 0.936915, 0.932869, 0.931888, 0.931253, 0.930165, 0.939707, 0.940434, 0.950764, 0.950513, 0.949266, 0.940171, 0.928435, 0.92275, 0.922774, 0.92348, 0.930267, 0.932768, 0.935617, 0.935563, 0.922034, 0.906697, 0.90596, 0.903081, 0.903774, 0.901923, 0.901478, 0.895033, 0.90281, 0.899186, 0.890864, 0.883703, 0.885246, 0.885829, 0.887607, 0.886555, 0.884512, 0.883415, 0.883632, 0.886697, 0.88787, 0.890756, 0.881968, 0.877933, 0.877716, 0.876652, 0.874082, 0.862109, 0.867215, 0.873106, 0.871348, 0.864648, 0.869294, 0.87229, 0.871524, 0.873361, 0.867576, 0.853331, 0.854066, 0.84843, 0.847429, 0.848865, 0.848655, 0.856632, 0.85759, 0.859977, 0.8602, 0.813087, 0.853166, 0.852482, 0.85275, 0.852412, 0.852734, 0.855394, 0.859661, 0.860522, 0.860929, 0.863402, 0.8667, 0.880226, 0.886028, 0.886599, 0.891252, 0.89221, 0.901075, 0.907467, 0.910821, 0.912016, 0.923478, 0.925902, 0.925234, 0.923877, 0.915775, 1.04815, 0.974235, 0.975161, 0.873196, 0.874601, 0.875199, 0.874292, 0.868173, 0.867076, 0.8549, 0.85428, 0.849759, 0.843559, 0.812046, 0.814277, 0.814275, 0.816935, 0.819423, 0.816793, 0.827006, 0.816465, 0.816232, 0.817471, 0.818253, 0.817768, 0.817097, 0.819391, 0.822163, 0.82529, 0.825615, 0.82485, 0.830145, 0.833704, 0.838806, 0.83937, 0.832828, 0.8294, 0.832356, 0.838101, 0.840651, 0.84497, 0.838436, 0.836798, 0.838506, 0.832229, 0.83163, 0.835736, 0.833286, 0.83509, 0.835128, 0.836568, 0.837409, 0.837272, 0.838495, 0.841342, 0.838859, 0.837473, 0.835927, 0.832435, 0.832768, 0.830058, 0.82815, 0.810144, 0.813046, 0.818676, 0.821015, 0.863934, 0.866398, 0.865444, 0.865665, 0.861153, 0.85826, 0.854091, 0.851489, 0.850758, 0.861555, 0.861697, 0.853391, 0.851559, 0.851562
0.972357, 0.972363, 0.958457, 0.958599, 0.95622, 0.955759, 0.961111, 0.959658, 0.960425, 0.966553, 0.96372, 0.963357, 0.968704, 0.974979, 0.978476, 0.9643, 0.962928, 0.962835, 0.962001, 0.96889, 0.967376, 0.966435, 0.964574, 0.965599, 0.960959, 0.958312, 0.957737, 0.95801, 0.965142, 0.965212, 0.967786, 0.966835, 0.966471, 0.962941, 0.966351, 0.967003, 0.967097, 0.968412, 0.976822, 0.9765, 0.977649, 0.965915, 0.966643, 0.959313, 0.960429, 0.967484, 0.966807, 0.964262, 0.957348, 0.955779, 0.956389, 0.961429, 0.96458, 0.966915, 0.971549, 0.971416, 0.946764, 0.942452, 0.934809, 0.933741, 0.935238, 0.933787, 0.938771, 0.933277, 0.932516, 0.943173, 0.942327, 0.938563, 0.935514, 0.933451, 0.933472, 0.9375, 0.939929, 0.939872, 0.956157, 0.955942, 0.959748, 0.953195, 0.931688, 0.924294, 0.922403, 0.923343, 0.929135, 0.930104, 0.930934, 0.934031, 0.932905, 0.913499, 0.906657, 0.906008, 0.900905, 0.900731, 0.900611, 0.891003, 1.08898, 1.00279, 1.06402, 0.887937, 0.886196, 0.885072, 0.885428, 0.886235, 0.887941, 0.889736, 0.892164, 0.88937, 0.885752, 0.893733, 0.887006, 0.88629, 0.879985, 0.878509, 0.868707, 0.887501, 0.878223, 0.876761, 0.877441, 0.878454, 0.878373, 0.868004, 0.872291, 0.866453, 0.869698, 0.860182, 0.853398, 0.854557, 0.851287, 0.851731, 0.851958, 0.860307, 0.856475, 0.857931, 0.862693, 0.862882, 0.866745, 0.850127, 0.851973, 0.851793, 0.852958, 0.855814, 0.860331, 0.860969, 0.861197, 0.864722, 1.2188, 0.873732, 0.880193, 0.886854, 0.889524, 0.890875, 0.895397, 0.898016, 0.910392, 0.91079, 0.917319, 0.92571, 0.924583, 0.925192, 1.0164, 0.954352, 0.870822, 0.872411, 0.86762, 0.8712, 0.874162, 0.87698, 0.874027, 0.866695, 0.86455, 0.861151, 0.851776, 0.847123, 0.91174, 0.814271, 0.81257, 0.813492, 0.817333, 0.819198, 0.82631, 0.825661, 0.818171, 0.817763, 0.817577, 0.817123, 0.817893, 0.818427, 0.819046, 0.821595, 0.825347, 0.827884, 0.831804, 0.833181, 0.83604, 0.836844, 0.832145, 0.832524, 0.823553, 0.831958, 0.83891, 0.842913, 0.839969, 0.834194, 0.836904, 0.838292, 0.831147, 0.828556, 0.834772, 0.833652, 0.833985, 0.834129, 0.834807, 0.838028, 0.838577, 0.839046, 0.842142, 0.837389, 0.837295, 0.83566, 0.833661, 0.832943, 0.830014, 0.823781, 0.810837, 0.816269, 0.817081, 0.828474, 0.863221, 0.86449, 0.863931, 0.861023, 0.859283, 0.855909, 0.855115, 0.854826, 0.854047, 0.862122, 0.859948, 0.859325, 0.85233, 0.852043
0.972927, 0.961999, 0.957934, 0.95638, 0.956403, 0.961481, 0.962135, 0.963447, 0.962943, 0.963481, 0.964044, 0.965943, 0.975271, 0.985265, 1.06415, 0.967789, 0.964698, 0.963411, 0.964234, 0.968763, 0.967244, 0.966243, 0.964351, 0.961749, 0.95751, 0.957518, 0.958331, 0.967823, 0.966736, 0.966438, 0.966216, 0.966714, 0.960496, 0.960106, 0.964818, 0.965556, 0.965503, 0.978077, 0.979415, 0.978214, 0.963289, 0.961129, 0.959577, 0.959599, 0.971303, 0.970185, 0.966403, 0.957268, 0.954697, 0.956016, 0.957935, 0.966677, 0.967266, 0.962, 0.958056, 0.953431, 0.947588, 0.939318, 0.936532, 0.933621, 0.934536, 0.936484, 0.93585, 0.935707, 0.941454, 0.939507, 0.939519, 0.938371, 0.937117, 0.935257, 0.942364, 0.942387, 0.941442, 0.956759, 0.956366, 0.956918, 0.957293, 1.07287, 0.926223, 0.926252, 0.930208, 0.930824, 0.929768, 0.92881, 0.929198, 0.928912, 0.919706, 0.910973, 0.908517, 0.900562, 0.899437, 0.892719, 1.25194, 0.872091, 0.87523, 0.879321, 0.883631, 0.885731, 0.88676, 0.889912, 0.890296, 0.890976, 0.897905, 0.897706, 0.897973, 0.893601, 0.893922, 0.892839, 0.887239, 0.883218, 0.884295, 0.884455, 0.869236, 0.874323, 0.857205, 0.879885, 0.860087, 0.879246, 0.881813, 0.88167, 0.872561, 0.864361, 0.855716, 0.855253, 0.853967, 0.855232, 0.852696, 0.863486, 0.859731, 0.864141, 0.87059, 0.798899, 0.799477, 0.840112, 0.862622, 0.864638, 0.864403, 0.852583, 0.85617, 0.858725, 0.859389, 0.861367, 0.866942, 0.875316, 0.878158, 0.878528, 0.883034, 0.890348, 0.890312, 0.894233, 0.89477, 0.895218, 0.899481, 0.98596, 0.915856, 0.949327, 0.914411, 1.1405, 1.00261, 1.0628, 0.870759, 0.867525, 0.865685, 0.868281, 0.874766, 0.878217, 0.866057, 0.866099, 0.858506, 0.857157, 0.850179, 1.26647, 0.817723, 0.817927, 0.811582, 0.811249, 0.821651, 0.825571, 0.824772, 0.821101, 0.82159, 0.820173, 0.815546, 0.816479, 0.818978, 0.81946, 0.81883, 0.821918, 0.824866, 0.830838, 0.831526, 0.831596, 0.831492, 0.830933, 0.827559, 0.821122, 0.82301, 0.827057, 0.840407, 0.841083, 0.838736, 0.834936, 0.834584, 0.826126, 0.824824, 0.826182, 0.829965, 0.832563, 0.832275, 0.832538, 0.831844, 0.833695, 0.835569, 0.841745, 0.840029, 0.836463, 0.835009, 0.834289, 0.831394, 0.829341, 0.827618, 0.817385, 0.816261, 0.814675, 0.818556, 0.863331, 0.865079, 0.866298, 0.866987, 0.851273, 0.852173, 0.854887, 0.856694, 0.854403, 0.85567, 0.860866, 0.860543, 0.867068, 0.8679, 0.85232
0.963786, 0.961268, 0.956748, 0.957654, 0.959507, 0.96156, 0.964318, 0.964409, 0.962767, 0.963623, 0.966195, 0.984378, 0.984236, 0.983563, 0.971782, 0.966542, 0.967109, 0.967257, 0.969629, 0.968812, 0.965812, 0.964973, 0.964847, 0.959572, 0.95753, 0.957594, 0.96609, 0.966078, 0.966237, 0.965338, 0.966933, 0.958629, 0.957245, 0.958666, 0.961517, 0.963216, 0.966889, 0.978076, 0.977594, 0.965168, 0.96031, 0.955997, 0.956653, 0.957164, 0.973029, 0.963924, 0.961314, 0.954511, 0.954555, 0.956088, 0.961174, 0.966339, 0.961113, 0.960014, 0.959419, 0.957831, 0.942298, 0.939013, 0.935229, 0.934215, 0.935634, 0.941251, 0.941593, 0.9452, 0.943648, 0.937914, 0.938411, 0.938779, 0.938323, 0.945797, 0.942831, 0.942961, 0.959312, 0.958317, 0.966884, 0.965994, 0.957813, 0.940873, 0.935394, 0.92885, 0.929943, 0.930847, 0.929392, 0.928388, 0.922251, 0.918782, 0.911384, 0.908051, 0.901053, 0.89924, 0.894941, 0.883865, 0.87755, 0.871985, 0.871947, 0.877017, 0.880931, 0.886074, 0.887389, 0.889607, 0.893555, 0.898513, 0.898384, 0.896663, 0.89863, 0.901741, 0.902165, 0.887752, 0.898555, 0.88576, 0.886543, 0.885226, 0.891285, 0.888191, 0.855158, 0.857508, 0.862589, 0.88109, 0.882231, 0.870733, 0.870972, 0.869907, 0.852489, 0.855802, 0.857389, 0.866167, 0.871588, 0.864523, 0.856764, 0.822363, 0.818358, 0.784431, 0.846566, 0.839487, 0.866144, 0.866014, 0.863269, 0.859457, 0.856688, 0.857372, 0.859556, 0.869772, 0.871725, 0.875029, 0.878031, 0.884663, 0.885743, 0.890463, 0.893313, 0.893771, 0.893957, 0.894562, 0.894677, 0.907946, 0.911165, 0.910514, 1.17851, 1.13695, 1.07801, 0.867169, 0.866139, 0.866103, 0.864107, 0.870212, 0.868707, 0.868772, 0.866292, 0.866165, 0.870331, 0.853913, 1.00649, 0.821572, 0.818323, 0.81615, 0.814224, 0.8108, 0.824203, 0.824481, 0.818844, 0.819867, 0.82309, 0.821043, 0.820876, 0.821101, 0.819204, 0.819305, 0.819079, 0.825798, 0.829425, 0.829424, 0.832397, 0.830224, 0.830042, 0.829431, 0.822963, 0.822989, 0.824478, 0.832371, 0.836139, 0.83684, 0.838341, 0.839081, 0.826571, 0.825722, 0.825804, 0.829333, 0.830522, 0.83014, 0.830143, 0.830771, 0.830448, 0.831255, 0.83545, 0.838009, 0.836894, 0.834306, 0.834718, 0.826794, 0.82857, 0.828951, 0.828546, 0.819827, 0.819502, 0.818262, 0.943691, 0.863426, 0.864897, 0.865, 0.860483, 0.857076, 0.85126, 0.85397, 0.853904, 0.855708, 0.855288, 0.856256, 0.866905, 0.865811, 0.866062, 0.8424
0.960269, 0.957841, 0.95808, 0.958205, 0.958581, 0.960973, 0.962337, 0.961556, 0.963132, 0.969397, 0.974797, 0.985791, 0.985788, 0.976247, 0.973156, 0.973756, 0.975517, 0.970827, 0.968226, 0.966945, 0.965686, 0.961879, 0.959759, 0.957519, 0.956633, 0.963312, 0.963072, 0.963518, 0.964243, 0.964278, 0.957062, 0.956764, 0.956569, 0.959567, 0.960523, 0.97435, 0.978506, 0.977854, 0.969793, 0.961458, 0.959713, 0.956637, 0.95672, 0.962176, 0.962722, 0.961534, 0.957404, 0.954092, 0.954026, 0.959932, 0.963594, 0.967127, 0.961048, 0.961129, 0.959957, 0.942232, 0.941483, 0.940395, 0.936107, 0.936443, 0.935768, 0.942148, 0.942733, 0.945448, 0.937261, 0.938671, 0.938065, 0.944554, 0.944487, 0.944485, 0.943917, 0.962174, 0.96298, 0.967212, 0.966321, 0.966052, 0.94129, 0.940841, 0.933576, 0.931582, 0.931495, 0.930271, 0.930316, 0.921628, 0.921236, 0.915946, 0.905836, 0.905507, 0.904504, 0.890755, 0.887403, 0.87997, 0.876231, 0.87237, 0.871522, 0.876504, 0.879439, 0.885305, 0.889018, 0.893681, 0.897175, 0.899097, 0.898093, 0.904581, 0.903735, 0.900757, 0.893802, 0.926253, 0.88819, 0.888915, 0.888435, 0.895582, 0.862014, 0.855807, 0.879198, 0.828502, 0.876772, 0.885521, 0.887219, 0.886948, 0.869762, 0.84545, 0.87688, 0.850508, 0.850375, 0.874297, 0.824078, 0.867763, 0.851055, 0.836099, 0.815304, 0.781634, 0.847661, 0.839144, 0.845373, 0.865421, 0.832948, 0.858954, 0.856782, 0.860255, 0.880121, 0.867936, 0.881401, 0.880749, 0.876856, 0.886334, 0.888337, 0.890813, 0.892101, 0.893105, 0.894707, 0.896429, 0.901994, 0.90926, 0.910165, 0.911731, 1.05806, 0.960094, 0.862798, 0.864525, 0.865924, 0.864799, 0.870721, 0.870829, 0.861727, 0.860472, 0.861871, 0.864784, 0.868248, 1.01703, 0.82742, 0.824573, 0.815661, 0.824844, 0.818255, 0.814071, 0.817568, 0.818434, 0.820388, 0.821893, 0.823177, 0.824804, 0.825653, 0.823183, 0.8223, 0.820233, 0.830654, 0.831986, 0.831976, 0.832022, 0.82856, 0.828763, 0.828142, 0.819476, 0.822651, 0.823, 0.823916, 0.831591, 0.832801, 0.837742, 0.837535, 0.831456, 0.825193, 0.824971, 0.828247, 0.832056, 0.83162, 0.829444, 0.830215, 0.829195, 0.830383, 0.831754, 0.833501, 0.835068, 0.834658, 0.835313, 0.838229, 0.837841, 0.831109, 0.826785, 0.826551, 0.827236, 0.828413, 0.852886, 0.856592, 0.860471, 0.86341, 0.863218, 0.863101, 0.863756, 0.865088, 0.857301, 0.85611, 0.853365, 0.853964, 0.863908, 0.868687, 0.866331, 0.84745, 0.839506
0.960628, 0.960588, 0.962573, 0.959209, 0.966832, 0.962736, 0.962677, 0.963718, 1.12854, 1.12911, 0.992414, 0.981554, 0.97516, 0.974038, 0.975336, 0.98466, 0.981185, 0.971258, 0.970021, 0.971114, 0.961196, 0.960394, 0.958361, 0.961512, 0.965095, 0.963257, 0.962776, 0.961712, 0.963446, 0.962983, 0.957197, 0.956589, 0.957041, 0.963059, 0.9801, 0.981132, 0.978689, 0.974196, 0.962951, 0.962209, 0.957704, 0.955026, 0.966443, 0.963185, 0.961742, 0.956535, 0.954347, 0.955642, 0.956043, 0.957091, 0.957634, 0.960552, 0.960088, 0.959315, 0.939438, 0.93971, 0.938746, 0.938707, 0.938166, 0.939041, 0.936404, 0.94192, 0.940247, 0.93978, 0.937016, 0.937873, 0.946601, 0.94284, 0.942605, 0.944434, 0.960243, 0.959757, 0.968458, 0.96731, 0.967754, 0.959701, 0.945929, 0.937346, 0.934674, 0.93157, 0.932814, 0.929402, 0.919728, 0.919818, 0.918551, 0.911638, 0.904404, 0.904024, 0.899975, 0.887765, 0.883758, 0.883117, 0.874462, 0.87141, 0.873579, 0.87502, 0.883036, 0.889077, 0.892867, 0.891717, 0.898784, 0.899389, 0.899586, 0.914395, 0.91568, 0.897438, 0.92606, 0.909598, 0.887772, 0.889969, 0.890139, 0.898209, 0.84212, 0.87565, 0.829464, 0.813331, 0.87236, 0.885509, 0.886637, 0.886615, 0.844604, 0.842631, 0.841625, 0.818973, 0.883755, 0.881394, 0.810976, 0.810227, 0.852895, 0.843353, 0.815003, 0.885662, 0.852836, 0.84263, 0.857465, 0.831485, 0.856445, 0.858841, 0.857194, 0.871301, 0.879977, 0.877515, 0.888826, 0.891566, 0.892145, 0.885166, 0.888522, 0.891634, 0.89236, 0.893703, 0.895745, 0.900682, 0.90058, 0.899377, 0.881284, 0.881998, 1.19586, 0.860376, 0.861293, 0.865667, 0.866058, 0.870768, 0.869027, 0.861252, 0.860158, 0.859518, 0.860933, 0.86149, 1.02639, 0.819717, 0.821259, 0.821856, 0.828811, 0.828073, 0.827991, 0.817692, 0.817883, 0.817943, 0.818886, 0.821044, 0.824419, 0.824633, 0.828866, 0.82564, 0.826971, 0.826742, 0.833499, 0.837246, 0.838364, 0.838069, 0.835256, 0.826899, 0.828942, 0.824134, 0.823847, 0.828219, 0.828985, 0.830518, 0.831449, 0.833494, 0.82622, 0.825184, 0.825173, 0.824769, 0.830713, 0.83457, 0.835849, 0.830713, 0.8302, 0.831857, 0.830545, 0.831305, 0.834664, 0.835013, 0.836393, 0.838654, 0.836225, 0.835289, 0.829985, 0.826162, 0.826832, 0.828602, 0.853248, 0.855722, 0.856199, 0.859907, 0.864078, 0.866203, 0.874513, 0.875337, 0.862934, 0.861213, 0.859332, 0.858113, 0.862664, 0.863102, 0.870726, 0.85299, 0.84642, 0.844056
0.960578, 0.961932, 0.967991, 0.966888, 0.965284, 0.962354, 0.961738, 1.15444, 0.99827, 0.99749, 0.990219, 0.983621, 0.977704, 0.975795, 0.985645, 0.986991, 0.974174, 0.971632, 0.973045, 0.96435, 0.960623, 0.959297, 0.95679, 0.956339, 0.965779, 0.966409, 0.962369, 0.961362, 0.961666, 0.95623, 0.955874, 0.957021, 0.960508, 0.979257, 0.979915, 0.981085, 0.977684, 0.963448, 0.961286, 0.959623, 0.958436, 0.960153, 0.965504, 0.964017, 0.955774, 0.951055, 0.95119, 0.955641, 0.957477, 0.958006, 0.954638, 0.949557, 0.952794, 1.07236, 0.938932, 0.938835, 0.938627, 0.939034, 0.940605, 0.938623, 0.937167, 0.943135, 0.941132, 0.939351, 0.939138, 0.939903, 0.943703, 0.943122, 0.944216, 0.966343, 0.963728, 0.970868, 0.967326, 0.959516, 0.953191, 0.952326, 0.94421, 0.93561, 0.935439, 0.934721, 0.928225, 0.922408, 0.920331, 0.921519, 0.919118, 0.913313, 0.908916, 0.901455, 0.888664, 0.888813, 0.883663, 0.883313, 0.883255, 0.875627, 0.874699, 0.87848, 0.881926, 0.891216, 0.8973, 0.897385, 0.899565, 0.898797, 0.912927, 0.913469, 0.913224, 0.908884, 0.926368, 0.899937, 0.897407, 0.889374, 0.88693, 0.889062, 0.841523, 0.839225, 0.826632, 0.827921, 0.819763, 0.883964, 0.883469, 0.883432, 0.860443, 0.839895, 0.839962, 0.818144, 0.886582, 0.883205, 0.806138, 0.870584, 0.877446, 0.877369, 0.838533, 0.822801, 0.820987, 0.839203, 0.859701, 0.835507, 0.839522, 0.853948, 0.854068, 0.882587, 0.859615, 0.859568, 0.868539, 0.858888, 0.886528, 0.886918, 0.888636, 0.891093, 0.892566, 0.899228, 0.900325, 0.900802, 0.900757, 1.32156, 1.00259, 1.00593, 0.863775, 0.860957, 0.863012, 0.865834, 0.869713, 0.870245, 0.862843, 0.862028, 0.858389, 0.859121, 0.858936, 1.01545, 0.92186, 0.815867, 0.819289, 0.819863, 0.831762, 0.832209, 0.835517, 0.814241, 0.817591, 0.81727, 0.81784, 0.818649, 0.821726, 0.821024, 0.824028, 0.828076, 0.828242, 0.831204, 0.833525, 0.838813, 0.839226, 0.835092, 0.83079, 0.831323, 0.844389, 0.833506, 0.83251, 0.832029, 0.826751, 0.829073, 0.83037, 0.82218, 0.823728, 0.821884, 0.820858, 0.825523, 0.828354, 0.834454, 0.835541, 0.829133, 0.8313, 0.831876, 0.832807, 0.832279, 0.834063, 0.835787, 0.834141, 0.835458, 0.835374, 0.835121, 0.836014, 0.832165, 0.836716, 0.835976, 0.854475, 0.854944, 0.856684, 0.859883, 0.866435, 0.869499, 0.879863, 0.877404, 0.863322, 0.857134, 0.853884, 0.862736, 0.863419, 0.86216, 0.845223, 0.846293, 0.844723, 0.84277
0.959532, 0.960892, 0.967186, 0.961644, 0.960228, 0.962416, 1.1515, 0.994026, 0.994465, 0.995102, 0.980267, 0.979752, 0.983049, 0.987145, 0.986734, 0.977165, 0.972231, 0.973149, 0.967974, 0.961656, 0.961089, 0.958136, 0.956509, 0.960545, 0.960133, 0.960116, 0.95968, 0.959632, 0.955955, 0.955802, 0.956772, 0.957741, 0.972552, 0.981204, 0.980021, 0.980496, 0.963153, 0.958679, 0.957052, 0.956556, 0.957098, 0.964777, 0.966177, 0.963046, 0.948511, 0.94924, 0.950882, 0.954593, 0.957193, 0.947459, 0.946879, 0.947987, 0.944095, 0.939201, 0.938713, 0.936764, 0.939427, 0.939878, 0.939284, 0.937834, 0.941901, 0.939002, 0.938991, 0.939798, 0.942486, 0.941099, 0.943809, 0.944476, 0.96657, 0.966776, 0.967347, 0.970608, 0.957917, 0.956093, 0.952987, 0.947746, 0.946068, 0.93645, 0.93657, 0.933178, 0.922647, 0.919986, 0.919811, 0.921472, 0.921448, 0.91406, 0.903833, 0.88825, 0.888446, 0.885291, 0.884133, 0.884295, 0.883774, 0.883561, 0.88098, 0.886648, 0.897243, 0.896479, 0.893984, 0.903328, 0.903362, 0.912101, 0.91797, 0.878534, 0.895057, 0.895487, 0.901768, 0.901331, 0.892816, 0.885848, 0.842453, 0.844761, 0.832704, 0.826601, 0.83792, 0.875745, 0.844169, 0.851919, 0.854486, 0.836605, 0.820531, 0.819634, 0.8186, 0.886546, 0.884055, 0.817596, 0.818942, 0.878062, 0.877955, 0.825356, 0.827775, 0.828413, 0.830459, 0.832013, 0.852061, 0.85286, 0.832591, 0.832374, 0.849685, 0.849109, 0.846542, 0.871111, 0.866635, 0.887064, 0.885742, 0.885389, 0.88751, 0.894959, 0.895545, 0.898295, 0.89843, 0.900403, 1.02734, 1.21947, 0.874532, 0.870178, 0.862893, 0.861275, 0.8622, 0.868291, 0.868025, 0.861801, 0.857177, 0.8569, 0.858859, 0.858278, 0.835407, 0.834349, 0.815525, 0.81497, 0.817908, 0.827597, 0.831379, 0.833246, 0.83407, 0.824682, 0.824796, 0.817435, 0.819768, 0.821447, 0.821654, 0.818582, 0.822103, 0.827854, 0.828653, 0.829947, 0.834394, 0.836238, 0.839739, 0.830989, 0.831677, 0.837042, 0.84603, 0.845354, 0.830571, 0.831321, 0.832249, 0.831079, 0.83161, 0.821484, 0.822257, 0.823069, 0.82364, 0.824476, 0.824716, 0.825149, 0.82576, 0.826696, 0.829694, 0.831462, 0.831633, 0.834564, 0.833751, 0.836611, 0.834764, 0.835252, 0.839423, 0.847876, 0.850829, 0.849265, 0.839363, 0.841021, 0.866616, 0.865505, 0.862221, 0.862767, 0.866341, 0.871515, 0.878332, 0.866219, 0.866249, 0.857779, 0.859837, 0.860902, 0.845684, 0.849008, 0.844625, 0.845327, 0.843618, 0.842094
0.965002, 0.965091, 0.958358, 0.958762, 0.96025, 1.06338, 0.994286, 0.993821, 0.993065, 0.984723, 0.98328, 0.979646, 0.992246, 0.986986, 0.985741, 0.977532, 0.977018, 0.975382, 0.963642, 0.963031, 0.961714, 0.956602, 0.960044, 0.961568, 0.957231, 0.95837, 0.958156, 0.956849, 0.956326, 0.959302, 0.959018, 0.966679, 0.980392, 0.980217, 0.979602, 0.963847, 0.960334, 0.959072, 0.955835, 0.95818, 0.959437, 0.960687, 0.9556, 0.948802, 0.94793, 0.948158, 0.95155, 0.951699, 0.943952, 0.942121, 0.943557, 0.936224, 0.93768, 0.939057, 0.937639, 0.936137, 0.937379, 0.939845, 0.937347, 0.940912, 0.939876, 0.938444, 0.94141, 0.942195, 0.939908, 0.940202, 0.945956, 1.11237, 0.969855, 0.96838, 0.966582, 0.959601, 0.953017, 0.954268, 0.950356, 0.949462, 0.945975, 0.937606, 0.937013, 0.925857, 0.922793, 0.920242, 0.919019, 0.921438, 0.922422, 0.904902, 0.895578, 0.890468, 0.887626, 0.884322, 0.884141, 0.886693, 0.884536, 0.8867, 0.887665, 1.21849, 0.899901, 0.897594, 0.901697, 0.932743, 0.866163, 0.864888, 0.867593, 0.883078, 0.879746, 0.902229, 0.890972, 0.882582, 0.881858, 0.884984, 0.831319, 0.831901, 0.83179, 0.845858, 0.873842, 0.845876, 0.843061, 0.842346, 0.855693, 0.835819, 0.819782, 0.831851, 0.888709, 0.889923, 0.880535, 0.860277, 0.819228, 0.876734, 0.828962, 0.819684, 0.832373, 0.808724, 0.836665, 0.841504, 0.846203, 0.8282, 0.835828, 0.83654, 0.835782, 0.848959, 0.851225, 0.904734, 0.83571, 0.860748, 0.883276, 0.884838, 0.891028, 0.893203, 0.901188, 0.900985, 0.890837, 0.890313, 0.876976, 0.874072, 0.870825, 0.863773, 0.86423, 0.86327, 0.863043, 0.866019, 0.858239, 0.856682, 0.856032, 0.855866, 0.856663, 1.01759, 0.836268, 0.818117, 0.816683, 0.817058, 0.825138, 0.826473, 0.832418, 0.83332, 0.832293, 0.824875, 0.82493, 0.81934, 0.818925, 0.8196, 0.82102, 0.822372, 0.825239, 0.829751, 0.830776, 0.831918, 0.83298, 0.835686, 0.832878, 0.829957, 0.832334, 0.839162, 0.845728, 0.839231, 0.838036, 0.835014, 0.832639, 0.829243, 0.826224, 0.825713, 0.82436, 0.823421, 0.823477, 0.82281, 0.823488, 0.823927, 0.824738, 0.825163, 0.829402, 0.830399, 0.831801, 0.832537, 0.830658, 0.830141, 0.834711, 0.8379, 0.84593, 0.848724, 0.849507, 0.84873, 0.840139, 0.866236, 0.866342, 0.862586, 0.853015, 0.853057, 0.868652, 0.871004, 0.86995, 0.868685, 0.869894, 0.861274, 0.860482, 0.854322, 0.848076, 0.846875, 0.844261, 0.845529, 0.838441, 0.838314
0.957948, 0.957495, 0.957734, 0.958736, 1.15956, 1.1521, 0.995357, 0.99472, 0.994387, 0.986209, 0.982853, 0.991695, 0.991409, 0.985067, 0.980319, 0.979228, 0.979425, 0.967678, 0.96442, 0.961312, 0.958506, 0.956841, 0.956427, 0.956995, 0.955215, 0.955334, 0.95665, 0.956025, 0.957642, 0.959225, 0.961965, 0.969334, 0.970123, 0.983278, 0.963198, 0.96019, 0.956162, 0.95718, 0.9577, 0.95801, 0.957017, 0.955696, 0.950182, 0.950025, 0.949207, 0.949583, 0.946372, 0.942472, 0.943152, 0.943369, 0.939951, 0.935091, 0.937718, 0.938691, 0.936601, 0.936238, 0.939083, 0.937453, 0.935406, 0.936531, 0.938831, 0.938524, 0.941333, 0.938458, 0.938598, 0.93959, 0.961557, 0.967269, 0.968456, 0.957407, 0.956658, 0.95043, 0.95002, 0.947795, 0.947568, 0.948628, 0.946321, 0.936105, 0.925577, 0.922518, 0.921482, 0.918109, 0.915553, 0.915714, 0.904714, 0.897679, 0.896761, 0.89265, 0.89255, 0.887182, 0.888014, 0.891119, 0.891136, 0.896078, 0.907574, 0.898197, 0.906426, 0.90954, 0.909656, 0.93162, 0.844066, 0.876961, 0.86983, 0.865886, 0.866701, 0.915139, 0.86061, 0.867289, 0.860582, 0.843688, 0.839567, 0.867547, 0.835784, 0.851891, 0.853138, 0.85578, 0.835524, 0.829641, 0.857296, 0.797194, 0.825993, 0.854824, 0.894085, 0.876325, 0.884113, 0.873877, 0.87462, 0.818312, 0.818634, 0.819113, 0.807207, 0.807513, 0.866049, 0.868343, 0.870908, 0.831659, 0.833955, 0.837942, 0.841303, 0.835316, 0.903072, 0.90422, 0.827791, 0.847873, 0.879314, 0.886985, 0.891964, 0.895313, 0.897458, 0.901201, 1.21536, 0.875635, 0.87271, 0.870614, 0.868179, 0.866451, 0.864066, 0.863012, 0.862702, 0.859565, 0.852909, 0.852673, 0.852336, 0.852724, 0.834337, 0.833276, 0.821245, 0.817351, 0.817738, 0.82065, 0.819835, 0.828757, 0.829896, 0.827084, 0.823468, 0.823002, 0.822924, 0.822429, 0.818384, 0.818477, 0.821868, 0.821661, 0.824759, 0.828659, 0.830733, 0.835472, 0.834941, 0.832081, 0.831672, 0.837893, 0.838305, 0.834983, 0.837344, 0.836714, 0.836668, 0.835447, 0.82686, 0.825102, 0.824833, 0.824773, 0.826402, 0.822496, 0.822418, 0.823896, 0.824171, 0.825001, 0.824885, 0.826459, 0.828588, 0.830359, 0.830259, 0.829015, 0.829525, 0.832157, 0.834195, 0.841664, 0.843337, 0.844436, 0.84432, 0.84658, 0.866326, 0.866775, 0.866684, 0.852875, 0.853559, 0.854399, 0.86754, 0.871833, 0.865904, 0.86672, 0.867975, 0.861455, 0.852638, 0.85084, 0.848989, 0.848284, 0.844137, 0.844646, 0.832608, 0.830988
0.958282, 0.958102, 0.957465, 0.964271, 1.1561, 1.00032, 0.998484, 0.997619, 0.976427, 0.976444, 0.978072, 0.9883, 0.985545, 0.98469, 0.984395, 0.983855, 0.97181, 0.967751, 0.966489, 0.961238, 0.956589, 0.955859, 0.955826, 0.956581, 0.956379, 0.956085, 0.954706, 0.95564, 0.956408, 0.960828, 0.967671, 0.967426, 0.966769, 0.965249, 0.960441, 0.959503, 0.955629, 0.956217, 0.951497, 0.949951, 0.942868, 0.942731, 0.939306, 0.948707, 0.947349, 0.945107, 0.942667, 0.941237, 0.942414, 0.943155, 0.935006, 0.933212, 0.933921, 0.93559, 0.938437, 0.940389, 0.939162, 0.936215, 0.935509, 0.935222, 0.939406, 0.938882, 0.938728, 0.938811, 0.941725, 0.961351, 0.961362, 0.963566, 0.956151, 0.95352, 0.952734, 0.948181, 0.947584, 0.947164, 0.947245, 0.94771, 0.930508, 0.926796, 0.925412, 0.923155, 0.922938, 0.916395, 0.915613, 0.914966, 0.90169, 0.898226, 0.894549, 0.893854, 0.893725, 0.890041, 0.893355, 0.892178, 0.897987, 0.905828, 0.900396, 0.915407, 0.893781, 0.928096, 0.928062, 0.927474, 0.84964, 0.846562, 0.858364, 0.859773, 0.879627, 0.877382, 0.867487, 0.862025, 0.86993, 0.849376, 0.866794, 0.850867, 0.848162, 0.852897, 0.853616, 0.832616, 0.825295, 0.829101, 0.796014, 0.800886, 0.81224, 0.829342, 0.863774, 0.897126, 0.883682, 0.874455, 0.845223, 0.822217, 0.823109, 0.812157, 0.805809, 0.826183, 0.879785, 0.88452, 0.869697, 0.830022, 0.901813, 0.901886, 0.818419, 0.903016, 0.808377, 0.823176, 0.830145, 0.856885, 0.885272, 0.887079, 0.892225, 0.894808, 0.896009, 1.14398, 0.870898, 0.869625, 0.866709, 0.866274, 0.865151, 0.865826, 0.865419, 0.863152, 0.856033, 0.851216, 0.851418, 0.850986, 0.851162, 0.836595, 0.830607, 0.816654, 0.815739, 0.816035, 0.819905, 0.819449, 0.82418, 0.828503, 0.828684, 0.825056, 0.82358, 0.824746, 0.824734, 0.822633, 0.819147, 0.820934, 0.82281, 0.823418, 0.824895, 0.826346, 0.832214, 0.835238, 0.834819, 0.834819, 0.83998, 0.837362, 0.834075, 0.83431, 0.835779, 0.832653, 0.831373, 0.830346, 0.825147, 0.825002, 0.824696, 0.824664, 0.82581, 0.824858, 0.824566, 0.824947, 0.824896, 0.82461, 0.827992, 0.828543, 0.831568, 0.829969, 0.829838, 0.827301, 0.828923, 0.831624, 0.835046, 0.833973, 0.845475, 0.845271, 0.917957, 0.888629, 0.890153, 0.884286, 0.994939, 0.851867, 0.855596, 0.855071, 0.871359, 0.876037, 0.863911, 0.868029, 0.86822, 0.853352, 0.852509, 0.851635, 0.850513, 0.846004, 0.836698, 0.837907, 0.838378, 0.831907
0.958858, 0.958497, 1.27109, 0.991991, 0.992876, 0.994237, 0.996856, 0.975725, 0.975908, 0.976704, 0.980855, 0.987271, 0.9874, 0.986913, 0.986734, 0.974351, 0.970054, 0.969674, 0.962641, 0.961156, 0.958881, 0.959199, 0.960351, 0.957682, 0.957475, 0.95415, 0.954273, 0.955348, 0.958658, 0.958907, 0.966849, 0.967931, 0.963974, 0.960089, 0.956281, 0.956174, 0.955725, 0.955349, 0.948059, 0.945707, 0.940764, 0.937395, 0.938167, 0.948291, 0.946482, 0.945285, 0.945462, 0.945532, 0.933653, 0.932276, 0.933859, 0.935628, 0.93459, 0.938315, 0.945662, 0.945368, 0.938556, 0.937134, 0.936951, 0.935808, 0.937119, 0.937759, 0.941252, 0.940596, 0.958915, 0.959141, 0.951785, 0.952057, 0.951897, 0.949743, 0.947044, 0.946365, 0.948532, 0.948353, 0.933615, 0.929663, 0.926526, 0.925511, 0.926467, 0.924254, 0.917944, 0.919228, 0.919769, 1.32591, 0.902022, 0.90043, 0.896939, 0.897091, 0.896116, 0.893266, 0.900684, 0.907987, 0.912742, 0.909659, 0.901594, 0.89066, 0.889148, 0.930283, 0.929129, 0.856024, 0.85791, 0.858078, 0.855985, 0.836063, 0.873568, 0.894742, 0.892805, 0.867072, 0.842477, 0.849907, 0.859926, 0.857712, 0.853834, 0.854892, 0.843402, 0.817532, 0.798617, 0.816742, 0.804128, 0.801555, 0.801109, 0.815991, 0.876565, 0.810925, 0.851864, 0.849998, 0.845462, 0.824476, 0.814117, 0.809833, 0.808201, 0.856417, 0.886519, 0.887305, 0.874461, 0.902879, 0.794227, 0.79116, 0.912887, 0.912911, 0.912079, 0.810786, 0.842795, 0.845097, 0.882875, 0.883872, 0.89416, 0.890453, 1.10706, 0.871237, 0.870138, 0.863569, 0.862848, 0.863053, 0.863981, 0.863666, 0.861793, 0.856444, 0.853537, 0.852568, 0.851367, 0.852602, 0.849771, 0.83137, 0.829311, 0.815478, 0.816587, 0.818324, 0.821169, 0.823445, 0.825311, 0.827419, 0.827883, 0.821608, 0.82305, 0.824035, 0.822786, 0.819797, 0.822286, 0.823069, 0.823158, 0.823879, 0.825112, 0.830102, 0.833279, 0.835562, 0.83702, 0.84387, 0.838595, 0.832665, 0.831702, 0.831946, 0.833648, 0.829647, 0.830283, 0.822878, 0.822315, 0.823409, 0.826177, 0.824275, 0.824606, 0.824716, 0.83, 0.83226, 0.82998, 0.826567, 0.828085, 0.828692, 0.829815, 0.828799, 0.82831, 0.831554, 0.830158, 0.830622, 0.831426, 0.830797, 0.837157, 0.845816, 0.887235, 0.889056, 0.889891, 0.888474, 0.873961, 0.853712, 0.851806, 0.856253, 0.872344, 0.876856, 0.872949, 0.873704, 0.861358, 0.852421, 0.851567, 0.851016, 0.843991, 0.841773, 0.839247, 0.835781, 0.838153, 0.829652
0.958491, 1.08864, 1.1771, 0.996166, 0.994319, 0.99402, 0.973457, 0.974422, 0.958071, 0.977798, 0.981078, 0.986537, 0.986197, 0.986955, 0.984931, 0.969963, 0.969253, 0.963985, 0.962164, 0.959882, 0.959597, 0.960168, 0.958645, 0.958122, 0.956496, 0.955918, 0.955605, 0.956839, 0.959526, 0.952764, 0.963875, 0.963799, 0.95971, 0.956804, 0.955831, 0.955214, 0.954539, 0.951244, 0.94315, 0.942402, 0.940809, 0.939875, 0.942321, 0.946502, 0.946796, 0.944425, 0.944088, 0.943578, 0.932922, 0.932602, 0.931521, 0.931354, 0.931962, 0.933449, 0.946731, 0.946982, 0.942387, 0.939002, 0.938273, 0.933215, 0.932884, 0.933641, 0.946276, 0.959267, 0.958487, 0.946906, 0.946876, 0.940415, 0.940745, 0.936033, 0.943543, 0.947034, 0.947724, 0.933044, 0.928642, 0.923636, 0.926398, 0.925795, 0.919872, 0.91773, 0.917164, 0.921098, 0.919428, 0.904452, 0.904264, 0.900496, 0.900926, 0.901084, 1.28151, 1.06078, 0.919576, 0.922237, 0.921991, 0.920102, 0.925208, 0.927346, 0.897148, 0.930844, 0.852195, 0.854256, 0.860396, 0.856903, 0.846594, 0.851367, 0.881195, 0.881909, 0.849814, 0.846909, 0.839189, 0.837741, 0.842913, 0.850145, 0.854256, 0.830727, 0.833589, 0.812376, 0.800062, 0.814536, 0.79398, 0.802081, 0.878128, 0.878065, 0.878003, 0.874902, 0.873063, 0.852738, 0.841558, 0.849609, 0.811986, 0.817851, 0.818943, 0.810729, 0.836563, 0.869502, 0.868957, 0.901168, 0.787209, 0.796527, 0.797462, 0.7972, 0.873918, 0.856209, 0.843548, 0.880242, 0.8805, 0.883223, 0.884908, 1.14944, 0.873736, 0.865981, 0.862952, 0.860007, 0.859457, 0.859943, 0.859884, 0.860323, 0.857906, 0.856237, 0.850046, 0.852087, 0.849941, 0.848976, 0.828414, 0.826491, 0.815861, 0.816445, 0.817284, 0.817774, 0.821738, 0.824484, 0.825129, 0.824799, 0.820184, 0.822313, 0.822624, 0.822949, 0.820968, 0.820115, 0.821775, 0.82441, 0.824585, 0.824466, 0.825765, 0.829475, 0.831921, 0.837319, 0.841801, 0.841516, 0.839781, 0.829249, 0.828847, 0.831786, 0.83124, 0.82935, 0.824973, 0.821357, 0.820279, 0.821797, 0.824885, 0.823826, 0.827515, 0.828138, 0.830122, 0.831282, 0.831843, 0.828609, 0.82654, 0.82768, 0.826809, 0.825588, 0.829566, 0.832504, 0.83204, 0.832892, 0.831526, 0.831024, 0.98811, 0.990806, 0.887989, 0.891593, 0.89208, 0.888094, 1.28527, 0.864279, 0.84754, 0.838066, 0.874518, 0.875118, 0.874524, 0.870454, 0.859003, 0.855978, 0.851814, 0.846534, 0.844024, 0.839949, 0.840384, 0.837488, 0.83772, 0.831729
0.96745, 0.991043, 0.992572, 0.99339, 0.992235, 0.992179, 0.973281, 0.97292, 0.976496, 0.978889, 0.991404, 0.991628, 0.988696, 0.97941, 0.973085, 0.970087, 0.961318, 0.959584, 0.960199, 0.959856, 0.960196, 0.959985, 0.960272, 0.961861, 0.956733, 0.954675, 0.956103, 0.959426, 0.960049, 0.96269, 0.963149, 0.959092, 0.956364, 0.953871, 0.954726, 0.959338, 0.950913, 0.94966, 0.947128, 0.945872, 0.940848, 0.93911, 0.940226, 0.944665, 0.944067, 0.943208, 0.942803, 0.942446, 0.938639, 0.932684, 0.931322, 0.93069, 0.931103, 0.931099, 0.939219, 0.943222, 0.940585, 0.932733, 0.931457, 0.930649, 0.933775, 0.947616, 0.953949, 0.958408, 1.10593, 0.943177, 0.938855, 0.938687, 0.936864, 0.935756, 0.942073, 0.949087, 0.928764, 0.926954, 0.925961, 0.924481, 0.923531, 0.918976, 0.919143, 0.920687, 0.920161, 0.913551, 0.911294, 0.908502, 0.901409, 0.90095, 0.901451, 0.909742, 0.918137, 0.92181, 0.928339, 0.921655, 0.920923, 0.868591, 0.901264, 0.901013, 0.888842, 0.895468, 0.8563, 0.855603, 0.872843, 0.854225, 0.847392, 0.839696, 0.88028, 0.881126, 0.847562, 0.848324, 0.832947, 0.833747, 0.84636, 0.863891, 0.833693, 0.831988, 0.809171, 0.822017, 0.801169, 0.790822, 0.79076, 0.804927, 0.877906, 0.876825, 0.876961, 0.877016, 0.872924, 0.836341, 0.847749, 0.822555, 0.800605, 0.811864, 0.794718, 0.795769, 0.839162, 0.840251, 0.843464, 0.905685, 0.80177, 0.795066, 0.795032, 0.811231, 0.865948, 0.863635, 0.876625, 0.877708, 0.871332, 0.870622, 0.876438, 0.8745, 0.870829, 0.86231, 0.858172, 0.856216, 0.855961, 0.858274, 0.859353, 0.854672, 0.850597, 0.850762, 0.848743, 0.846782, 0.849672, 0.826833, 0.827461, 0.817882, 0.817856, 0.817709, 0.816331, 0.817264, 0.820712, 0.823057, 0.823204, 0.818872, 0.819237, 0.820449, 0.821775, 0.821135, 0.820719, 0.820568, 0.821164, 0.824886, 0.825797, 0.827538, 0.827846, 0.828743, 0.830412, 0.838068, 0.837149, 0.840674, 0.833294, 0.825695, 0.822455, 0.824785, 0.822448, 0.823442, 0.823347, 0.820878, 0.820212, 0.81981, 0.822362, 0.829974, 0.825247, 0.826064, 0.82506, 0.828213, 0.828988, 0.829298, 0.829341, 0.829335, 0.828231, 0.828949, 0.833207, 0.83242, 0.832669, 0.831933, 0.831155, 0.833144, 0.99012, 0.97196, 0.885049, 0.893765, 0.892961, 0.888793, 1.02046, 0.846324, 0.845514, 0.837105, 0.838928, 0.87184, 0.876675, 0.874458, 0.938481, 0.852105, 0.849472, 0.845274, 0.841981, 0.842379, 0.843192, 0.844023, 0.842977, 0.839647
0.968133, 0.976549, 0.974121, 0.972079, 0.972054, 0.973362, 0.973221, 0.960246, 0.960027, 0.990097, 0.991674, 0.991237, 0.975884, 0.972891, 0.972362, 0.96996, 0.960343, 0.960022, 0.960299, 0.961481, 0.959463, 0.958669, 0.961637, 0.961299, 0.956191, 0.955992, 0.958637, 0.965427, 0.962719, 0.961367, 0.952701, 0.951386, 0.950593, 0.953173, 0.961785, 0.954697, 0.950539, 0.949756, 0.943414, 0.940102, 0.940368, 0.939877, 0.939472, 0.943629, 0.944289, 0.941854, 0.943681, 0.945759, 0.936712, 0.935695, 0.931983, 0.930972, 0.929017, 0.928677, 0.934825, 0.932757, 0.933887, 0.9333, 0.929655, 0.930229, 0.948707, 0.949403, 0.94913, 0.931861, 0.93538, 0.932346, 0.937113, 0.937384, 0.934139, 0.936018, 0.936095, 0.925914, 0.923847, 0.926955, 0.92833, 0.928044, 0.923062, 0.923608, 0.921277, 0.920753, 0.918112, 0.911792, 0.911889, 0.9051, 0.903744, 0.90364, 0.915116, 0.92246, 0.930541, 0.929442, 0.852224, 0.851817, 0.938929, 0.855409, 0.883953, 0.901654, 0.889646, 0.881396, 0.870233, 0.865206, 0.870483, 0.861974, 0.849225, 0.850845, 0.877448, 0.876221, 0.845438, 0.837741, 0.839048, 0.842717, 0.817692, 0.78847, 0.846579, 0.812118, 0.825709, 0.824128, 0.825967, 0.798339, 0.786323, 0.800843, 0.876794, 0.881324, 0.889386, 0.876605, 0.877669, 0.879981, 0.832049, 0.790581, 0.790194, 0.791956, 0.774175, 0.794583, 0.805429, 0.815117, 0.827157, 0.8263, 0.814508, 0.796499, 0.83609, 0.822654, 0.85951, 0.870547, 0.869027, 0.874626, 0.863911, 0.864824, 0.865748, 0.869125, 0.866584, 0.866471, 0.856405, 0.85345, 0.853474, 0.85526, 0.85052, 0.849214, 0.850326, 0.846534, 0.846041, 0.845634, 0.825383, 0.824987, 0.81343, 0.816445, 0.817837, 0.814448, 0.814882, 0.816523, 0.817799, 0.8214, 0.822889, 0.818168, 0.818979, 0.820573, 0.821317, 0.819767, 0.821781, 0.819407, 0.821898, 0.823526, 0.826855, 0.830425, 0.830345, 0.828769, 0.83251, 0.835058, 0.834166, 0.836772, 0.823416, 0.823239, 0.821125, 0.821308, 0.82149, 0.822646, 0.81857, 0.819352, 0.819509, 0.81815, 0.818325, 0.820524, 0.824463, 0.823854, 0.826741, 0.828053, 0.828853, 0.829614, 0.829909, 0.830268, 0.829024, 0.83506, 0.833615, 0.832109, 0.83042, 0.834682, 0.835815, 1.0054, 0.902531, 0.907946, 0.895633, 0.896008, 0.895441, 1.00924, 1.02535, 0.84603, 0.845368, 0.838383, 0.845518, 0.870203, 0.870775, 0.863553, 0.845936, 0.846018, 0.841786, 0.84196, 0.841746, 0.842374, 0.843237, 0.843311, 0.843271, 0.861639
0.966198, 0.968281, 0.969929, 0.971114, 0.970957, 0.972693, 0.973144, 0.980478, 0.983968, 0.990598, 0.990453, 0.987596, 0.973913, 0.971583, 0.971459, 0.963004, 0.962726, 0.961032, 0.96211, 0.962608, 0.962335, 0.96435, 0.961139, 0.959245, 0.955926, 0.965015, 0.9628, 0.962127, 0.960859, 0.952315, 0.950726, 0.949083, 0.950582, 0.960532, 0.958516, 0.957236, 0.951264, 0.941902, 0.942716, 0.941659, 0.942201, 0.943181, 0.945199, 0.945298, 0.943046, 0.948971, 0.948308, 0.941845, 0.936933, 0.935007, 0.932978, 0.931154, 0.926675, 0.925628, 0.925284, 0.931668, 0.931969, 0.933726, 0.939131, 0.939176, 0.9473, 0.945784, 0.945487, 0.928311, 0.928413, 0.928687, 0.930932, 0.933317, 0.931334, 0.929019, 0.923273, 0.922295, 0.923599, 0.925799, 0.926292, 0.926661, 0.935156, 0.935178, 0.920222, 0.915944, 0.911797, 0.911441, 0.908173, 0.903041, 0.904195, 0.911326, 0.92112, 0.928305, 0.927833, 0.859359, 0.932842, 0.933061, 0.932898, 0.938425, 0.883076, 0.934185, 0.895928, 0.898479, 0.87875, 0.85002, 0.849084, 0.846871, 0.837153, 0.836571, 0.880656, 0.844542, 0.83731, 0.860225, 0.786623, 0.777973, 0.776215, 0.788299, 0.845893, 0.826992, 0.830387, 0.845566, 0.802578, 0.796194, 0.798158, 0.792017, 0.817319, 0.878709, 0.887832, 0.884369, 0.87664, 0.815037, 0.798358, 0.766037, 0.768638, 0.764462, 0.778484, 0.793132, 0.802499, 0.802197, 0.819247, 0.835611, 0.842172, 0.847026, 0.817761, 0.825986, 0.849066, 0.857034, 0.842758, 0.849892, 0.853745, 0.860571, 0.861359, 0.864597, 0.86457, 0.857396, 0.850955, 0.849803, 0.849588, 0.845807, 0.847267, 0.846453, 0.845464, 0.844632, 0.845291, 0.832757, 0.831401, 0.825086, 0.81228, 0.813174, 0.814867, 0.815568, 0.815048, 0.815842, 0.818215, 0.821072, 0.816508, 0.816947, 0.818384, 0.820908, 0.822666, 0.822986, 0.825476, 0.828744, 0.823638, 0.825534, 0.835488, 0.832317, 0.83265, 0.832506, 0.833617, 0.826037, 0.826226, 0.833641, 0.822083, 0.819618, 0.819195, 0.820598, 0.819355, 0.819569, 0.819461, 0.820627, 0.819322, 0.817987, 0.820049, 0.820382, 0.821528, 0.825161, 0.828066, 0.828435, 0.831562, 0.831895, 0.83315, 0.831626, 0.831643, 0.835938, 0.83505, 0.834903, 0.833908, 0.840478, 1.07527, 0.867982, 0.871168, 0.882477, 0.89189, 0.894065, 0.891047, 0.892588, 1.01828, 0.853285, 0.850307, 0.845699, 0.845887, 0.846236, 0.847779, 0.848751, 0.847292, 0.850006, 0.846083, 0.843801, 0.842472, 0.841959, 0.843659, 0.844927, 0.8594, 0.861046
0.967122, 0.969643, 0.969035, 0.97143, 0.970177, 0.976384, 0.974383, 0.982879, 0.981611, 0.980238, 0.977519, 0.970263, 0.969661, 0.969995, 0.969814, 0.96325, 0.962341, 0.962893, 0.964843, 0.960134, 0.960379, 0.965205, 0.962133, 0.962644, 0.967288, 0.964719, 0.964188, 0.96084, 0.951925, 0.949907, 0.950738, 0.95007, 0.957977, 0.956236, 0.9535, 0.947186, 0.941301, 0.940731, 0.940859, 0.945849, 0.946238, 0.94815, 0.946664, 0.945592, 0.953431, 0.947647, 0.945368, 0.943145, 0.936458, 0.936014, 0.933232, 0.930436, 0.921715, 0.922987, 0.92385, 0.930007, 0.939509, 0.936111, 0.935056, 0.937677, 0.936024, 0.945398, 0.923934, 0.92567, 0.925574, 0.926152, 0.928503, 0.926597, 0.926407, 0.919971, 0.919543, 0.922274, 0.924331, 0.926712, 0.923118, 0.932188, 0.93268, 0.932783, 0.924775, 0.91341, 0.911629, 0.906972, 0.90096, 0.902035, 0.90547, 0.912821, 0.935659, 0.936742, 0.945897, 0.935647, 0.93334, 0.934244, 0.934544, 0.933426, 0.870525, 0.911054, 0.910744, 0.859899, 0.857412, 0.848843, 0.842328, 0.846292, 0.845743, 0.827262, 0.865463, 0.865957, 0.81767, 0.79847, 0.80446, 0.773009, 0.786907, 0.788539, 0.847823, 0.828265, 0.840277, 0.842372, 0.802128, 0.809228, 0.807525, 0.842271, 0.801573, 0.771423, 0.770446, 0.783581, 0.799815, 0.786311, 0.769531, 0.777494, 0.825824, 0.846605, 0.784322, 0.804655, 0.803412, 0.815405, 0.813495, 0.798201, 0.802796, 0.818321, 0.807836, 0.788394, 0.786974, 0.803972, 0.814725, 0.781189, 0.826878, 0.855509, 0.853974, 0.85562, 0.849954, 0.849165, 0.845494, 0.846393, 0.846024, 0.844778, 0.84523, 0.845208, 0.844711, 0.824264, 0.836346, 0.829836, 0.831803, 0.82106, 0.81132, 0.813797, 0.812328, 0.816077, 0.815317, 0.814324, 0.814268, 0.814686, 0.816585, 0.816382, 0.819585, 0.82411, 0.823849, 0.829761, 0.831353, 0.832557, 0.834888, 0.838721, 0.835637, 0.833249, 0.832423, 0.831781, 0.831359, 0.825799, 0.825807, 0.831242, 0.816568, 0.818711, 0.817137, 0.817627, 0.818816, 0.819712, 0.821243, 0.819549, 0.8178, 0.817933, 0.818009, 0.818305, 0.821421, 0.82662, 0.828612, 0.828712, 0.831286, 0.835624, 0.831812, 0.831616, 0.832935, 0.834464, 0.83423, 0.838904, 0.837007, 0.983912, 0.866391, 0.871521, 0.881284, 0.887817, 0.887563, 0.885022, 0.886814, 0.887366, 0.887566, 0.849598, 0.856389, 0.852716, 0.845069, 0.847844, 0.84772, 0.848753, 0.850764, 0.849592, 0.84563, 0.840647, 0.842868, 0.845295, 0.845793, 0.85557, 0.857541, 0.85837
0.966308, 0.966756, 0.972726, 0.972433, 0.977676, 0.983583, 0.982214, 0.98072, 0.980838, 0.978797, 0.970208, 0.969962, 0.970852, 0.967112, 0.967049, 0.964187, 0.962912, 0.967338, 0.966646, 0.960747, 0.970345, 0.970102, 0.96698, 0.970058, 0.966373, 0.964031, 0.963033, 0.949974, 0.946992, 0.944472, 0.952383, 0.962984, 0.953121, 0.952552, 0.952825, 0.940957, 0.940593, 0.940711, 0.939498, 0.952725, 0.952839, 0.952154, 0.949393, 0.956742, 0.957672, 0.945834, 0.945619, 0.942992, 0.929895, 0.928254, 0.925724, 0.925745, 0.921453, 0.920331, 0.924192, 0.925287, 0.93507, 0.936313, 0.936388, 0.932346, 0.933097, 0.926086, 0.923078, 0.924713, 0.924518, 0.922332, 0.922983, 0.926502, 0.918235, 0.918452, 0.919306, 0.921408, 0.921346, 0.923334, 0.92363, 0.929141, 0.934496, 0.934299, 0.926988, 0.908634, 0.898618, 0.89981, 0.899933, 0.901365, 0.910677, 0.935054, 0.934373, 0.934939, 0.864631, 0.861203, 0.864086, 0.869403, 0.936, 0.869373, 0.868521, 0.905499, 0.874726, 0.856488, 0.849536, 0.842466, 0.841631, 0.84029, 0.851786, 0.876341, 0.874392, 0.837892, 0.812978, 0.791517, 0.791156, 0.766713, 0.785032, 0.784133, 0.780165, 0.823077, 0.837203, 0.839084, 0.825998, 0.793461, 0.833871, 0.787869, 0.80066, 0.787636, 0.788563, 0.785893, 0.800622, 0.782402, 0.784232, 0.777128, 0.776625, 0.797618, 0.79789, 0.812838, 0.800668, 0.80882, 0.806396, 0.822824, 0.801211, 0.785125, 0.809369, 0.790898, 0.785833, 0.793094, 0.781084, 0.785256, 0.804488, 0.858356, 0.85759, 0.816163, 0.824466, 0.775724, 0.769707, 0.77009, 0.771477, 0.834069, 0.842222, 0.842202, 0.835054, 0.827834, 0.823071, 0.822193, 0.82341, 0.818462, 0.811772, 0.809821, 0.810625, 0.812103, 0.81558, 0.815267, 0.814157, 0.813443, 0.814251, 0.814528, 0.819729, 0.822992, 0.827392, 0.829034, 0.831306, 0.832938, 0.843273, 0.842027, 0.831355, 0.832526, 0.832066, 0.822529, 0.823695, 0.824983, 0.824756, 0.812511, 0.813969, 0.813563, 0.814018, 0.817752, 0.818593, 0.821128, 0.820908, 0.817075, 0.817152, 0.821298, 0.820761, 0.81894, 0.819122, 0.828593, 0.828605, 0.830386, 0.833326, 0.84885, 0.832611, 0.834148, 0.834272, 0.834523, 0.834098, 0.838734, 0.912227, 0.870652, 0.872084, 0.880667, 0.882249, 0.882453, 0.880184, 0.883757, 0.886067, 0.885951, 0.902019, 0.854277, 0.852956, 0.847635, 0.846654, 0.845064, 0.844197, 0.846113, 0.848869, 0.850508, 0.845601, 0.845177, 0.844808, 0.843087, 0.842575, 0.847018, 0.845088, 0.843084
0.96698, 0.975421, 0.97305, 0.977292, 0.977376, 0.98085, 0.97547, 0.974529, 0.973273, 0.973637, 0.973364, 0.972935, 0.970061, 0.968817, 0.966872, 0.966454, 0.973376, 0.975756, 0.972104, 0.973414, 0.971226, 0.973002, 0.975113, 0.974143, 0.967441, 0.966537, 0.965376, 0.950967, 0.953048, 0.945577, 0.966331, 0.963854, 0.955579, 0.950354, 0.940613, 0.93902, 0.940247, 0.940848, 0.949845, 0.949939, 0.952497, 0.951571, 0.959119, 0.958378, 0.956718, 0.942218, 0.939274, 0.938153, 0.928094, 0.925973, 0.925968, 0.922447, 0.921339, 0.921722, 0.933034, 0.933553, 0.932361, 0.927323, 0.927308, 0.928433, 0.92592, 0.924648, 0.919917, 0.919692, 0.923029, 0.924984, 0.918094, 0.916291, 0.918239, 0.918366, 0.919575, 0.916289, 0.919711, 0.921683, 0.929935, 0.931758, 0.933494, 0.929591, 0.907704, 0.905008, 0.899029, 0.898778, 0.903571, 0.904949, 0.937782, 0.936203, 0.935493, 0.930504, 0.925934, 0.860871, 0.862161, 0.86033, 0.870516, 0.868457, 0.882056, 0.864819, 0.864343, 0.846272, 0.846883, 0.842047, 0.844915, 0.838245, 0.849451, 0.852612, 0.819248, 0.859299, 0.853395, 0.82727, 0.78039, 0.772674, 0.774239, 0.773746, 0.774337, 0.777029, 0.799802, 0.841846, 0.807456, 0.783322, 0.833283, 0.803017, 0.771058, 0.770733, 0.773031, 0.781545, 0.781072, 0.779979, 0.781246, 0.787337, 0.810571, 0.80252, 0.800434, 0.798916, 0.812021, 0.818739, 0.800902, 0.801597, 0.79451, 0.782662, 0.815136, 0.80157, 0.815343, 0.818905, 0.797489, 0.790486, 0.792053, 0.815407, 0.815141, 0.816146, 0.77817, 0.775147, 0.77657, 0.784696, 0.768961, 0.836079, 0.846565, 0.831716, 0.825419, 0.816574, 0.816874, 0.821392, 0.818561, 0.814762, 0.804687, 0.806934, 0.807391, 0.809489, 0.809947, 0.80879, 0.806415, 0.811208, 0.813936, 0.814392, 0.821047, 0.828819, 0.829552, 0.831545, 0.834943, 0.843026, 0.844476, 0.845011, 0.836539, 0.834052, 0.821537, 0.821318, 0.824051, 0.823255, 0.810499, 0.81248, 0.812284, 0.813904, 0.813374, 0.8166, 0.820933, 0.821757, 0.819881, 0.815007, 0.81681, 0.816587, 0.816573, 0.818647, 0.820174, 0.823104, 0.827303, 0.830869, 0.846944, 0.847235, 0.838754, 0.833467, 0.835529, 0.836942, 0.836927, 0.848714, 1.04673, 0.870624, 0.878188, 0.880165, 0.882168, 0.879727, 0.880364, 0.884552, 0.885362, 1.00506, 0.864402, 0.856328, 0.847662, 0.849286, 0.844518, 0.844023, 0.841669, 0.842381, 0.943384, 0.848701, 0.848885, 0.849128, 0.842461, 0.842065, 0.843449, 0.842964, 0.843293, 0.842674
0.972299, 0.973999, 0.980571, 0.976018, 0.976628, 0.973619, 0.976464, 0.976596, 0.973368, 0.973763, 0.975659, 0.969664, 0.969783, 0.969495, 0.968649, 0.972684, 0.973442, 0.977716, 0.974746, 0.973673, 0.97731, 0.978202, 0.977749, 0.973898, 0.969765, 0.968612, 0.95937, 0.952754, 0.955777, 0.953085, 0.965298, 0.963036, 0.95636, 0.941481, 0.940992, 0.942018, 0.942897, 0.949465, 0.951495, 0.952275, 0.953178, 0.958699, 0.957797, 0.955735, 1.07802, 0.933564, 0.933587, 0.923022, 0.922321, 0.921574, 0.924165, 0.925135, 0.924277, 0.936486, 0.934847, 0.932836, 0.924575, 0.926118, 0.927336, 0.922293, 0.919032, 0.918248, 0.918153, 0.922748, 0.925137, 0.917495, 0.91727, 0.916274, 0.917864, 0.918718, 0.91505, 0.914704, 0.921327, 0.925426, 0.926803, 0.931273, 0.912975, 0.906899, 0.905494, 0.898877, 0.898271, 0.899094, 0.906276, 0.930416, 0.938332, 0.938528, 0.93392, 0.926037, 0.917518, 0.911277, 0.861911, 0.861944, 0.880576, 0.869573, 0.858171, 0.86787, 0.868084, 0.839588, 0.849282, 0.846341, 0.840646, 0.843128, 0.79841, 0.822579, 0.780958, 0.805523, 0.817282, 0.780546, 0.81691, 0.769444, 0.776234, 0.777945, 0.773127, 0.777469, 0.805779, 0.804229, 0.782806, 0.782861, 0.804773, 0.802762, 0.826546, 0.802389, 0.772491, 0.812391, 0.807866, 0.781558, 0.800277, 0.779038, 0.811823, 0.818833, 0.801921, 0.828227, 0.81363, 0.82149, 0.823424, 0.815315, 0.810627, 0.801478, 0.797522, 0.814066, 0.806837, 0.827512, 0.81933, 0.806402, 0.786901, 0.787176, 0.784286, 0.790194, 0.776595, 0.794594, 0.778299, 0.789458, 0.790711, 0.769791, 0.778131, 0.785676, 0.81488, 0.814599, 0.811679, 0.808972, 0.809397, 0.807869, 0.805499, 0.80514, 0.805445, 0.809237, 0.809141, 0.805941, 0.807036, 0.808483, 0.811396, 0.814391, 0.815948, 0.823493, 0.829432, 0.832, 0.834212, 0.840293, 0.842795, 0.842997, 0.824862, 0.821851, 0.820733, 0.823932, 0.824184, 0.816716, 0.811785, 0.811775, 0.814192, 0.813113, 0.812972, 0.81557, 0.8203, 0.821241, 0.821179, 0.814323, 0.810756, 0.808207, 0.811766, 0.817939, 0.822526, 0.827255, 0.829267, 0.835976, 0.834275, 0.837821, 0.838911, 0.839052, 0.839212, 0.844148, 0.846097, 0.849661, 0.870307, 0.872907, 0.875032, 0.879689, 0.876739, 0.877205, 0.879535, 0.882534, 1.02451, 0.862693, 0.862929, 0.853305, 0.852597, 0.849731, 0.84899, 0.846074, 0.840671, 0.871338, 0.874807, 0.873791, 0.848487, 0.849362, 0.845479, 0.845188, 0.845143, 0.839825, 0.840337, 0.84203
0.972398, 0.977141, 0.976375, 0.976464, 0.973367, 0.973224, 0.974823, 0.975727, 0.974455, 0.976485, 0.970929, 0.971042, 0.970432, 0.969897, 0.97183, 0.972844, 0.97316, 0.973524, 0.975157, 0.982286, 0.978556, 0.977001, 0.978802, 0.976451, 0.975997, 0.960825, 0.954383, 0.95615, 0.955868, 0.958986, 0.962965, 0.957259, 0.94819, 0.941818, 0.94268, 0.942261, 0.942852, 0.951732, 0.951919, 0.953679, 0.958873, 0.958997, 0.95951, 1.07463, 0.937289, 0.938437, 0.932616, 0.922646, 0.92227, 0.921159, 0.921443, 0.925828, 0.942232, 0.939874, 0.924998, 0.923868, 0.925076, 0.925346, 0.924158, 0.918824, 0.918091, 0.918876, 0.921366, 0.919754, 0.918273, 0.918211, 0.917271, 0.918137, 0.915908, 0.91457, 0.91612, 0.918989, 0.920316, 0.921243, 0.919807, 0.911348, 0.907993, 0.903057, 0.901366, 0.901008, 0.904098, 0.91531, 0.925513, 0.925542, 0.934429, 0.932267, 0.917922, 0.916267, 0.910022, 0.907232, 0.904089, 0.900307, 0.895387, 0.872124, 0.853311, 0.873458, 0.871117, 0.850793, 0.853308, 0.852085, 0.842792, 0.807403, 0.794759, 0.790322, 0.81764, 0.804889, 0.791359, 0.813049, 0.784321, 0.784433, 0.778811, 0.781907, 0.801192, 0.788785, 0.809178, 0.804208, 0.817592, 0.808965, 0.804689, 0.797643, 0.812095, 0.84385, 0.813932, 0.813493, 0.805075, 0.816311, 0.821708, 0.809601, 0.815061, 0.829787, 0.836131, 0.824751, 0.853914, 0.837442, 0.83496, 0.832126, 0.815101, 0.803499, 0.817928, 0.816283, 0.863799, 0.826099, 0.81299, 0.811347, 0.759896, 0.774772, 0.774956, 0.766805, 0.794623, 0.7836, 0.761202, 0.762138, 0.779451, 0.774429, 0.784455, 0.791131, 0.810422, 0.807452, 0.80404, 0.757428, 0.773375, 0.929505, 0.802725, 0.802826, 0.803198, 0.808101, 0.805075, 0.806046, 0.807002, 0.807787, 0.809083, 0.813167, 0.814353, 0.821922, 0.827347, 0.828212, 0.834417, 0.835217, 0.829772, 0.825587, 0.822524, 0.819792, 0.825737, 0.825276, 0.812506, 0.80973, 0.811213, 0.812536, 0.812478, 0.810651, 0.810016, 0.814173, 0.81882, 0.819086, 0.81326, 0.814171, 0.812919, 0.812335, 0.815489, 0.818636, 0.82267, 0.835077, 0.8354, 0.835042, 0.834935, 0.834952, 0.838357, 0.842134, 0.842845, 0.842537, 0.842958, 0.870946, 0.871554, 0.873171, 0.87334, 0.872911, 0.873948, 0.874916, 0.934287, 0.870827, 0.85824, 0.86041, 0.858189, 0.85526, 0.84971, 0.848864, 0.848772, 0.848556, 0.848561, 0.868545, 0.871673, 0.863592, 0.850596, 0.851023, 0.846573, 0.841767, 0.838324, 0.83945, 0.839544, 0.839893
0.980032, 0.97564, 0.974383, 0.97334, 0.974596, 0.975367, 0.980898, 0.98056, 0.98065, 0.973601, 0.971552, 0.971182, 0.972341, 0.971807, 0.970905, 0.973292, 0.971024, 0.969718, 0.977855, 0.979514, 0.978978, 0.979153, 0.980868, 0.976463, 0.97629, 0.963287, 0.960859, 0.955863, 0.956703, 0.959915, 0.954815, 0.950999, 0.949215, 0.943105, 0.939865, 0.942167, 0.942619, 0.952737, 0.954943, 0.954429, 0.959255, 0.958866, 0.947271, 0.940159, 0.935976, 0.933359, 0.923567, 0.921517, 0.921638, 0.921472, 0.921619, 0.942678, 0.940607, 0.940921, 0.921529, 0.921732, 0.922356, 0.923922, 0.921902, 0.916539, 0.918149, 0.925885, 0.920741, 0.918228, 0.917975, 0.918356, 0.921518, 0.918922, 0.912475, 0.914036, 0.918457, 0.914456, 0.914546, 0.918209, 0.910173, 0.906399, 0.905947, 0.90411, 0.901282, 0.90819, 0.916697, 0.917807, 0.924258, 0.926489, 0.927117, 0.906096, 0.906497, 0.901179, 0.904645, 0.90309, 0.899782, 0.900076, 0.895803, 0.901841, 0.887875, 0.87776, 0.881895, 0.927375, 0.927689, 0.819217, 0.801173, 0.792027, 0.78505, 0.755793, 0.818128, 0.804686, 0.800478, 0.795049, 0.784341, 0.785266, 0.794516, 0.794376, 0.800886, 0.815247, 0.815376, 0.813243, 0.818037, 0.809957, 0.79551, 0.815598, 0.836235, 0.85395, 0.832474, 0.831914, 0.818207, 0.825847, 0.81887, 0.830127, 0.836824, 0.837725, 0.832688, 0.838801, 0.879958, 0.86459, 0.864381, 0.846209, 0.853978, 0.842587, 0.849778, 0.836223, 0.871241, 0.865807, 0.830943, 0.788393, 0.79066, 0.794549, 0.772966, 0.80857, 0.78875, 0.782188, 0.79446, 0.760648, 0.787777, 0.767188, 0.763474, 0.758886, 0.770641, 0.760325, 0.762185, 0.752645, 0.749457, 0.749929, 0.799568, 0.799713, 0.801131, 0.799703, 0.80039, 0.804851, 0.806225, 0.806094, 0.811625, 0.813423, 0.814369, 0.81602, 0.824771, 0.823455, 0.831613, 0.829587, 0.828361, 0.822953, 0.821979, 0.819409, 0.820116, 0.817275, 0.810849, 0.811076, 0.812538, 0.812666, 0.811609, 0.811152, 0.81108, 0.813543, 0.811822, 0.812073, 0.81198, 0.814551, 0.812318, 0.818099, 0.817507, 0.828009, 0.829507, 0.833381, 0.835053, 0.834171, 0.835985, 0.832709, 0.833661, 0.842079, 0.843274, 0.956895, 0.870393, 0.874062, 0.871269, 0.867261, 0.868135, 0.868724, 0.869179, 0.866841, 0.858174, 0.855303, 0.854629, 0.855479, 0.853921, 0.852774, 0.848609, 0.849267, 0.849592, 0.856224, 0.859035, 0.869405, 0.87011, 0.863181, 0.852117, 0.852478, 0.847227, 0.843946, 0.836697, 0.838895, 0.839131, 0.839155
0.978872, 0.974902, 0.973508, 0.973474, 0.975211, 0.979242, 0.983828, 0.982013, 0.974008, 0.970624, 0.973866, 0.975783, 0.97537, 0.97772, 0.976354, 0.973182, 0.968937, 0.969599, 0.963329, 0.980274, 0.979584, 0.979538, 0.975453, 0.976683, 0.96734, 0.96165, 0.959951, 0.953107, 0.952988, 0.956525, 0.951117, 0.952976, 0.950197, 0.94135, 0.938757, 0.940006, 0.940257, 0.949615, 0.955886, 0.952996, 0.951716, 0.949947, 0.945873, 0.93766, 0.933378, 0.92283, 0.923043, 0.922795, 0.922363, 0.928747, 0.937625, 0.9436, 0.939137, 0.921903, 0.921729, 0.920644, 0.923033, 0.918154, 0.918592, 0.91976, 0.926691, 0.920444, 0.920194, 0.919822, 0.918607, 0.922572, 0.917223, 0.91581, 0.915727, 0.914822, 0.909175, 0.909604, 0.911004, 0.908057, 0.904794, 0.904485, 0.905746, 0.905514, 0.904326, 0.914654, 0.915955, 0.91534, 0.915619, 0.903036, 0.934546, 0.880762, 0.883228, 0.898128, 0.89753, 0.899238, 0.892487, 0.901164, 0.896885, 0.893216, 0.895568, 0.894888, 0.892298, 0.893987, 0.831372, 0.831944, 0.831653, 0.790754, 0.779524, 0.780808, 0.77267, 0.815644, 0.812065, 0.78214, 0.800944, 0.788241, 0.774799, 0.808116, 0.816552, 0.816897, 0.828685, 0.801295, 0.801448, 0.796823, 0.846142, 0.842551, 0.845678, 0.847202, 0.865969, 0.87697, 0.860838, 0.856755, 0.84557, 0.862418, 0.850081, 0.848687, 0.870092, 0.877271, 0.882417, 0.882879, 0.870703, 0.864238, 0.859361, 0.871874, 0.850993, 0.868519, 0.874507, 0.876724, 0.840792, 0.823023, 0.789925, 0.792943, 0.774893, 0.777195, 0.793497, 0.799409, 0.777783, 0.785222, 0.767711, 0.774501, 0.771509, 0.764744, 0.764676, 0.769426, 0.752848, 0.752433, 0.808303, 0.749069, 0.793691, 0.79398, 0.793448, 0.79735, 0.799849, 0.801181, 0.806083, 0.810613, 0.809831, 0.81343, 0.81643, 0.817585, 0.819157, 0.820234, 0.825117, 0.826308, 0.826351, 0.825076, 0.816314, 0.816999, 0.817366, 0.818032, 0.812217, 0.812932, 0.811783, 0.810866, 0.810881, 0.811256, 0.81126, 0.814226, 0.807727, 0.806309, 0.809515, 0.812197, 0.812192, 0.819397, 0.821239, 0.828234, 0.831696, 0.830172, 0.83176, 0.830825, 0.834648, 0.835693, 0.839377, 0.84054, 0.95938, 0.871704, 0.871329, 0.872348, 0.872245, 0.866636, 0.873741, 0.872895, 0.867182, 0.854216, 0.854384, 0.851457, 0.851424, 0.848474, 0.845603, 0.845567, 0.848406, 0.849159, 0.856641, 0.856725, 0.859196, 0.863812, 0.863458, 0.854458, 0.853611, 0.849581, 0.844936, 0.842005, 0.836946, 0.837935, 0.838308, 0.837993
