1.11267006716413,1.11234975291015,1.1043467985956,1.10322429804383,1.10634698550215,1.10329910440167,1.20159515551124,1.17996081572838,1.18784969365437,1.18595288997686,1.18702799109068,1.19730775561518,1.16503755518652,1.16567191435231,1.16390107942585,1.16393806933183,1.1617604223727,1.15222964212665,1.19640207591723,1.19690285003844,1.20366127470086,1.18600839317561,1.16886453005247,1.21578577464858,1.20541249919727,1.19728965379999,1.16104797548288,1.16865583749393,1.16838856792343,1.165918107551,1.16215388518117,1.15861327139799,1.1574473514282,1.1880086816729,1.18530030731048,1.21446734535167,1.18271172264238,1.2811520861037,1.20487280995964,1.2024859152294,1.20380267598482,1.1976329344656,1.20678725747706,1.21391029914146,1.23654812621595,1.33099846597043,1.21830636462717,1.21000803598716,1.20956213304358,1.18863709945293,1.16119566809178,1.22640578206699,1.13422858640957,1.1298646962078,1.12955552534726,1.12321165164338,1.15445671706565,1.15676226285539,1.11155915539913,1.13182090696245,1.15436998899345,1.13615767271596,1.07444086519645,1.03663737783422,1.07065387859738,1.03211590928639,1.03185920258649,1.12991829861765,1.03193735937043,1.03326150109203,1.03372926276138,1.05060299296974,1.06000076820362,1.06126066428811,1.05879257456061,1.05675686183434,1.05689705866201,0.987138742217846,1.02571798918877,0.989205703065369,0.984825631135062,0.971197277338638,0.976162016380278,0.982898974759999,0.991699000093414,1.05993218158777,1.06504598840044,1.0174620394559,1.01698798957573,1.01405849572809,0.994156936718697,0.957793098134847,0.927122472512531,0.910504238332373,0.903799230798466,0.888935672005754,0.880684810017547,0.847459590822923,0.859165763584313,0.834107573525516,0.838523046029229,0.819495160311568,0.83567936980094,0.875351110920577,0.86996383949985,0.870338186564456,0.917831737937452,1.01462798868322,1.12700167200495,1.09924941079504,1.12803169728133,0.996130995077161,0.970435660763104,0.97090132298386,0.981224043211106,0.98032192987961,0.977564400675112,0.953875160573973,0.983553608771719,0.992291072903639,1.01381361181005,1.01223618018405,1.0121157945777,0.915356214154243,0.947616823983301,0.967335443399231,0.889914948302107,0.884577393670568,0.884604433674644,0.88624790262942,0.88549937815792,0.884093629747141,0.88239386128203,0.879264471774677,0.879068212804306,0.878153267944528,0.877253763460782,0.876527865179996,0.876970930400428,0.87646893803914,0.877895592707923,0.878551667939133,0.874544785554997,0.870219880675834,0.870470464505208,0.863558779796644,0.861683180767614,0.851772425189765,0.853979017371319,0.856294341558906,0.855989736900636,0.860560399444412,0.861308011759079,0.861543878205537,0.85949666491096,0.85837435996001,0.852412299802391,0.85267987704554,0.846026847486448,0.84698617428716,0.846294481508444,0.846469352038187,0.840014378122633,0.840841573803934,0.841623170731535,0.841441685526672,0.841514321132027,0.843193698415319
1.11149981863221,1.11202500996862,1.11304744389739,1.11532675153511,1.1168699518108,1.11763926652845,1.17778255768677,1.18297083702378,1.18474153406452,1.18475445841742,1.18525775428,1.18482959850582,1.16625857846373,1.16839562835987,1.1790178437871,1.18945879969532,1.19836901374287,1.19774488999777,1.19713167527568,1.19725811610123,1.19887059660662,1.19815495478908,1.19985750445913,1.20096226331944,1.20285331875469,1.20219250429511,1.20197918001499,1.20150722071399,1.19902743666287,1.19265045580692,1.18680088921526,1.1767132456845,1.1769888625331,1.18662741674838,1.18628066119738,1.1991252025275,1.20012742093469,1.20534208050364,1.20482874387184,1.20329902397882,1.20230013841387,1.20091973919399,1.20562469581038,1.2092177569744,1.21110599337082,1.2117450618974,1.21121183672757,1.21059555343175,1.20200692769439,1.18658005584166,1.17362468883577,1.16301346403201,1.14284357193651,1.14378453749369,1.14420887777778,1.14402652540874,1.15506306392866,1.1558266376469,1.11788241292015,1.12305822182408,1.12772277136456,1.13150424851835,1.08001463561996,1.07579992447063,1.07193386996875,1.06977129481667,1.0624238246532,1.06288138339291,1.05999179567369,1.05721935969624,1.05553566235452,1.05571577586536,1.05804929465038,1.05936461990952,1.05945456137935,1.05931669202859,1.05844885759529,0.987346776316579,0.988078850292912,0.988959495753749,0.981303284740983,0.980164228856816,0.979804764750751,0.981960424285397,0.991788356852899,1.02187536347745,1.01969253638256,1.01731499341674,1.01597696436543,1.01452388619534,1.00130504268763,0.96500310731614,0.93856001688731,0.908112236188996,0.90419076032176,0.894844164743314,0.878146880049533,0.853816842050308,0.848008881230058,0.833455178688099,0.833635085306894,0.83295226885278,0.840657052203642,0.858147117631321,0.869275808868505,0.869512635211869,0.948052309918881,1.04938732327457,1.0771378709948,1.08760276551888,1.09896810456809,0.988745824719897,0.983615924474153,0.983093599380378,0.982100715427208,0.980580040938096,0.978773648814558,0.976547958206035,0.990328764901573,0.995146747415744,1.01431629469322,1.01323040901107,1.01188273950348,0.956138137195163,0.935385621496458,0.91899056307861,0.888030435068924,0.886135902565087,0.885909291845115,0.886102140187755,0.885618904172905,0.884591839928807,0.883478762086542,0.879009141768288,0.878578553475822,0.877840318867917,0.877334043231086,0.877344347464193,0.877156560063397,0.876732967124745,0.876622270705935,0.876080303714256,0.874311379852556,0.872099350939028,0.870844477626959,0.867869266242364,0.863488091365301,0.859319298345062,0.858630464836831,0.857926815526214,0.858343141655943,0.860411069091446,0.861627520949789,0.861661643845712,0.857838080574398,0.856457561696733,0.85245657895234,0.851923854643427,0.849183767638584,0.848299767757505,0.847768081422537,0.847037518741532,0.845623886547033,0.84374876311864,0.842783969358538,0.841856670908211,0.841677468704735,0.842943865188529
1.13676684742895,1.13691763386867,1.16785640869402,1.11651984526,1.11711583673048,1.11747810071699,1.15968629517602,1.26333169865998,1.26344079978753,1.24771415834587,1.24488241601899,1.16904779384473,1.16542036320718,1.1709763970589,1.19645934297536,1.20840262451135,1.19995394094379,1.28684130326918,1.25658516141422,1.21971243976998,1.17621705744779,1.23668318976201,1.20176583647141,1.20062099930859,1.2035512963089,1.20521605723309,1.23992501983672,1.25678658712909,1.21009250253662,1.23212637941586,1.25388963964125,1.17677566602906,1.17772937363442,1.1870449186701,1.18731375375606,1.18779190586252,1.20505309982506,1.20741227819143,1.20718321364728,1.20788134024697,1.21480877691323,1.17990982440654,1.18483721734829,1.18708368567985,1.18665899460995,1.16724297164292,1.17317964143521,1.33131614278302,1.18107119480266,1.1828552589574,1.18053338676518,1.1487451374741,1.14097447641603,1.14360314591162,1.14458920555541,1.14404274345284,1.20125424363667,1.19670512058976,1.09711304269937,1.11806713223134,1.09844215153648,1.1514892393233,1.08738176505968,1.17821499573323,1.14710980122435,1.18629186454967,1.0614043400614,1.06598935801606,1.11170502197077,1.11145211326252,1.11165629131454,1.09686957429468,1.09106579074985,1.08934654961342,1.09207620497324,1.09232805430499,1.10818878380519,0.984551027747558,0.987108861225753,0.98872100226072,0.977894544017414,0.979190313261559,0.979188977403666,0.971664768630775,0.991514696607519,1.02323862247964,1.01288301297198,1.01316416460593,1.03097175225662,1.01940608038809,1.03311113171598,0.971318090973488,0.953942922500031,0.905591064901288,0.904616017199433,0.900096723481293,0.875333439850972,0.857872747061887,0.818557000764776,0.832001564296724,0.82998058990886,0.831828689070405,0.852734215731497,0.844994171830828,0.867750074491782,0.863987203455283,1.13696562480593,1.15509184280605,1.06075004413315,1.07433367340615,1.11383189049021,0.983780774463208,0.981707632129633,0.981913133030628,0.982094390319549,0.980762397738314,0.980152980682269,0.974717291477586,1.10254053591124,1.06127413119067,1.10231917623014,0.977434225443961,1.0096172823609,0.979753536568151,0.924960674164069,0.88940354673248,0.887166050419988,0.886364948742531,0.886504244303241,0.886199547623305,0.886285214692833,0.885202703432674,0.884559198069071,0.877948546908254,0.87811714192064,0.877006234917411,0.877201148603893,0.877987291157513,0.877889156111936,0.876668489677886,0.876226465145742,0.874733568501676,0.874629769864594,0.873816469950037,0.871422540555252,0.870797115539586,0.864626947486689,0.860177520735764,0.857968245265295,0.858852946765362,0.858445696576022,0.861272295836989,0.863106761140955,0.863913274003584,0.856627202877757,0.854414731425966,0.851953666761465,0.852275558973965,0.850131488037519,0.849582106158984,0.849250146466466,0.848803241412149,0.845778191707292,0.845395008202232,0.84387156694775,0.841623970499364,0.840212319844271,0.841963815265044
1.13767325986672,1.13735638202776,1.13738490542156,1.1321114006124,1.13137287496551,1.12670041379051,1.15029019452087,1.25558564383303,1.25278569189257,1.24864305625023,1.24233637008387,1.18827854541577,1.1995746880149,1.20417587276081,1.20395534673101,1.20422924350637,1.20118330878502,1.21933532903436,1.22697380120539,1.2281599111511,1.23031268796978,1.23307452835325,1.22942993813667,1.23029831264331,1.23614624955699,1.23744679276674,1.23812160284123,1.23456712668135,1.23238826731759,1.23143259086491,1.2340107979447,1.23712535138027,1.23810504504881,1.23627643361671,1.23273191248498,1.22853104882208,1.22425926120291,1.22006241246072,1.21629988796993,1.21398417458349,1.21362659603483,1.21338006970031,1.20579725626421,1.18813303471478,1.18778850951555,1.18727326296156,1.17228216609507,1.17308666171877,1.16963461405665,1.16882446381925,1.16783360175877,1.14720461670986,1.14651003770731,1.14605059339537,1.14694744187235,1.14865617250396,1.1505343143483,1.14945865428341,1.14916964276287,1.14898879071799,1.14827546241804,1.14675418704183,1.14447583341442,1.14330968250978,1.1369961819386,1.12320134441646,1.08627280355609,1.09091575540535,1.11038027846862,1.11082537026359,1.1109247602631,1.10385349460306,1.09047915610863,1.09112710939809,1.09272918179916,1.09342235662212,1.09413919746697,1.02783851153367,1.02364257332416,1.02207546812778,1.01381205526199,0.986889326380508,0.988357517202503,0.989682957865848,0.99051728740182,0.997096645964023,1.00782653367184,1.00824193027485,0.994806709014721,0.989888376651555,0.985335148427057,0.982341372185819,0.939624752310825,0.909506805018208,0.904401526089712,0.902029011597474,0.88843663088957,0.873357958065301,0.835127656241025,0.833625520688639,0.832897254491663,0.844201041492033,0.856323893351487,0.858067713669007,0.887918005368866,0.911731673106027,1.04196568920984,1.04624980118047,1.05910077410579,1.06476353939224,1.07236351266443,0.984168698518811,0.98434972730252,0.983734232357129,0.982333506033054,0.98112124833933,0.979591126459224,0.978043734414349,1.06111193954846,1.04551241119219,1.03017890792447,0.966406449291964,0.948810043616587,0.931890598674167,0.913766106165783,0.887027047459512,0.886272636271024,0.886041079995505,0.886151122982259,0.885840831021642,0.88552755693223,0.884449980927808,0.882708637013989,0.878905501370888,0.878588248692879,0.878201070210674,0.877915561716116,0.877550767480917,0.876786646805446,0.876155559604506,0.875422498780777,0.874895310565305,0.874361328755535,0.873490087836962,0.871715020443108,0.870321005949037,0.866251261047994,0.864557105896276,0.862039212383893,0.860728292919,0.861312536231036,0.861558704429802,0.862073786547408,0.858604893889716,0.855672468430401,0.854085863060586,0.852552288303731,0.851381929183991,0.850491291596411,0.850166917137195,0.849955669022543,0.849353877514866,0.848066995287235,0.847006929758001,0.84536970747583,0.842845924027256,0.840956079884376,0.840049160661626
1.17134244957363,1.13725700452693,1.13841601793248,1.14361340655372,1.13597328106373,1.12147857786699,1.12078725887015,1.27042808703619,1.15677314079394,1.23454132390771,1.23592899418419,1.17439295110238,1.21165513233518,1.21132862731153,1.21644269813306,1.2209290354642,1.1891980163349,1.18886807068638,1.22771325407615,1.22752382948335,1.2545557744076,1.25515032786101,1.23122293298893,1.23203285247819,1.24084890178918,1.24485764244119,1.24413905334478,1.23461426784411,1.25292287372789,1.22682676826831,1.22429613719197,1.27293060582187,1.24680844364815,1.29015291552582,1.24424629427375,1.25072739083808,1.26554895683882,1.27749163515646,1.22097301175517,1.21705593357345,1.25957863125785,1.23729809317747,1.23827098672209,1.19064361936491,1.18999097912019,1.19237478456417,1.16636972331145,1.17541502636029,1.15742702799764,1.15596405294809,1.15553472730253,1.14556641528982,1.14568732899594,1.14677649069696,1.14762844640975,1.14966646484821,1.15315954766429,1.1187080841828,1.17122974663251,1.16758406722635,1.1695267106541,1.12017656177688,1.14258806770125,1.14158933961242,1.13365229905123,1.11002554190589,1.07861753281135,1.09742048150016,1.10849132297692,1.11025056622307,1.11019700054013,1.1217606178937,1.08513584686288,1.07244524253938,1.07207907434464,1.07284780018814,1.09801423002133,1.03686727788588,1.10089366315519,1.08630970489782,1.08958761807035,0.984318337841887,1.00458502326979,0.998700445678014,0.990390507974958,0.989828341860675,1.00631024022975,1.00746571355652,0.987655778748446,0.979537023625907,0.975315215944234,1.01045227713177,0.931793849033747,0.921232594844392,0.904320494066663,0.904080148367731,0.899635719195244,0.914391072873712,0.83699974966562,0.834968436598003,0.832067952394573,0.851935732995447,0.857050589263153,0.859961414944678,0.904447821870114,0.985664761645334,1.04156180352088,1.02801776658201,1.05742066453066,1.06091326460077,1.08071824158261,0.984513673707819,0.986208674581467,0.985302921068053,0.988885273604867,0.991075222511575,0.994265582289165,0.977302222131601,1.0993926586898,1.02936596857584,1.01816418819054,0.901221862827144,0.900071156975943,0.896078826280223,0.895870067136728,0.885407848530608,0.884578050959125,0.885175789735994,0.886184696311871,0.885359657993872,0.885512418296156,0.884539634197955,0.880582390180819,0.878711719205968,0.878843004093629,0.878974132735773,0.87907167944165,0.877126093842736,0.875839690054754,0.875617073211938,0.874694991552083,0.874768366572667,0.874751140876214,0.874268981307534,0.872203758046304,0.869226323705014,0.868127674085746,0.866285109149455,0.861629745785305,0.861576831438383,0.86253603774104,0.86712394898837,0.863258734740572,0.855531141836936,0.855148834860896,0.854115286712447,0.852300098143925,0.850932470766099,0.849633890078596,0.850764157486145,0.850278486870513,0.851130064766772,0.851998329688232,0.851006640898423,0.850687487003728,0.850401436361797,0.84119597130238,0.83782559517932
1.1705959592622,1.13823870724019,1.13858372337945,1.14934558494143,1.15924406827222,1.16723929191232,1.17164217699939,1.18116074993744,1.19291101345291,1.22725832191383,1.22572453958209,1.22428498208158,1.22345314371031,1.22247537865765,1.22140842161858,1.22007582026252,1.21346802906049,1.22270689092877,1.22797980698794,1.22731181329084,1.24929405794613,1.25438037512372,1.25214879135291,1.24944077227044,1.24643071083463,1.24383695967026,1.24353066606282,1.24296355615289,1.24276085435881,1.2253454774484,1.22506114939503,1.24057479477239,1.24370536834479,1.2463653998762,1.24453122963065,1.24602862984801,1.2464622295848,1.24702350663323,1.21730499064445,1.21608089162663,1.21670004493894,1.21832191367708,1.19571239427851,1.18922450164935,1.18817889170903,1.18215843511965,1.16947848630195,1.17220299463467,1.15616153204128,1.15548901335003,1.15509089182718,1.14599830865474,1.14616879744495,1.14673951121127,1.14714968160832,1.14768841636112,1.14510485417544,1.13852901419954,1.16246243379448,1.1643779694122,1.16596458757821,1.13129194481388,1.13083583963049,1.12944939398099,1.12929406786551,1.12192399847618,1.08566542728886,1.09030851287921,1.11044176676683,1.11103661860004,1.11109033539393,1.09486634408844,1.08648011374426,1.07148164124237,1.07180448000762,1.07346619625566,1.07644416684841,1.05964502094404,1.07872248593741,1.07876694646334,1.07844857020097,1.05099541099221,1.0265073058459,0.99211051961057,0.989910857346038,0.98697789426941,0.985808444328064,0.984453821028786,0.982648886705733,0.976005637493294,0.974059090203836,0.957988907486449,0.925583823967259,0.920388615871207,0.904619593644739,0.905046965636651,0.899725853163919,0.892803518313084,0.847694555687359,0.851169691610615,0.851782417258606,0.853220661104119,0.854456221663682,0.888461881835888,0.920300725095608,0.993969878546141,1.03408033202494,1.03307462267739,1.02506323989071,1.02251950427089,1.01473284531149,0.989019893967765,0.988286473483399,0.988900343836868,0.990689285588463,0.992296091286307,0.977723104078913,0.965742010196392,0.953941242273359,0.941474599495812,0.927788246023198,0.901037165405527,0.900173854181973,0.894767963297007,0.894820405697592,0.885545706095085,0.884930041184999,0.884914413113099,0.884729866005034,0.883999397987431,0.883236484100862,0.882194408234413,0.880374290697182,0.87923215492426,0.878838468684281,0.878797201863689,0.877985079519551,0.877005828763754,0.876366285728241,0.876019961528414,0.875468093475595,0.875246064490892,0.874886875637813,0.873977701977948,0.87259943080658,0.871102578377667,0.869416133193126,0.867574188658788,0.865488000345717,0.863705505709453,0.862770056118128,0.861927639799004,0.860082705025916,0.855366044581592,0.855190386268841,0.854162679067634,0.852848508974224,0.850950328766107,0.851680992134114,0.852220228542525,0.852367851013721,0.852278828620574,0.852908616967151,0.852398618710382,0.851978764415227,0.852139220572524,0.840387057080522,0.837526894788948
1.1841315671505,1.13355318836426,1.12288436414081,1.18074746951376,1.17911332321246,1.1800717088266,1.28639856679651,1.16051902123471,1.20241195944281,1.22418703028021,1.22556691989249,1.22437513949818,1.22581734846515,1.22500171968238,1.22338752063297,1.22506141488356,1.18863695075029,1.2322665088432,1.230651736646,1.22761411854029,1.22703790111471,1.25487464311206,1.31312192533456,1.25157703085582,1.2492211833529,1.25250860612636,1.27796107434183,1.26935631953593,1.22203196270024,1.22050744627764,1.22337226558479,1.24314040623102,1.24759638481438,1.25322296916308,1.24729935675402,1.24683904311762,1.24849946170489,1.22780456628897,1.21737606667874,1.21563365015306,1.14533261528524,1.20448311100848,1.13105597257763,1.15414754996669,1.15364606231441,1.15023834663149,1.15140563958717,1.21296709023733,1.14077129961931,1.15167785153485,1.21086849796021,1.14592404738709,1.14594285209474,1.20825969746892,1.17463212527167,1.20549687185638,1.12521737984576,1.09795963740467,1.15951251097732,1.16242638973946,1.19479212644513,1.13115337123484,1.11111914748624,1.12797643248738,1.12871707102128,1.14669679272874,1.07288094040311,1.0761100709507,1.11129474763235,1.1115764484672,1.13233375732511,1.08604423848862,1.08750884605738,1.06419678991891,1.06641545094323,1.06451777832519,1.07831877712892,1.02931133426105,1.07915263170242,1.07863317155038,1.07845279365424,1.07775006109795,1.07998380628923,0.979210016375626,0.981549047946997,0.977068829091674,0.976736371992533,0.966643326098629,0.980805347473362,0.974765781935751,0.968200285478394,0.946342879827579,0.920978341220878,0.919348730761231,0.904946140875171,0.90650576337351,0.900933053233498,0.880678378957375,0.843322168763717,0.85284931274078,0.853217743571888,0.861023112054955,0.853484323470738,0.904655799420713,0.936233278688557,1.01722947753466,1.12742538851934,1.05934576908229,0.981336001018496,0.993986568670172,0.989320792829195,0.989194998248274,0.988405830191219,1.1302267204122,1.05968506483632,1.08634839860577,0.970474538694552,0.903903911929514,0.902601433553911,0.902387659094549,0.90170932280893,0.901293607671335,0.899248426242207,0.892807532883491,0.892768871444916,0.88660606308026,0.884978252436888,0.884828466419458,0.883976733367944,0.882650511273781,0.881351574327318,0.880521179509754,0.879618245270376,0.87888496789523,0.878465317395905,0.879269576126116,0.877305743048573,0.876238866173551,0.876825893619965,0.876546755803788,0.876145880122572,0.875612581678315,0.875807508150887,0.874031963736395,0.873378033771063,0.872677849239437,0.873841047324772,0.875032215978994,0.876105377766586,0.873653867546284,0.875532878524942,0.857998706500196,0.854619138507846,0.854647205382382,0.855354056826274,0.854226452346964,0.853638226260553,0.848867873127874,0.853833186627747,0.853926928272988,0.855492167763243,0.856978494903107,0.855825268976414,0.85301118484382,0.852077657455006,0.853041015392257,0.841795650760687,0.835023709439431
1.1816722442702,1.13328049633351,1.1260033191038,1.1780412316401,1.17743708085423,1.18360352163054,1.20476957389086,1.20524898009589,1.20653003039806,1.21891948851311,1.22589524966045,1.22399767347633,1.22349079337882,1.22306512209453,1.22321668715764,1.22261898519101,1.21608507472904,1.22880571480114,1.2290880623332,1.2279279225845,1.22800602640398,1.25548469507442,1.27968979881034,1.24964624072903,1.24804004914669,1.26490963983022,1.26494060523545,1.26632069888472,1.2188401997848,1.2184060747128,1.21923138492974,1.24759356366083,1.24731771739108,1.24878410238419,1.24735815163273,1.24536955527766,1.24483762633527,1.24208337422806,1.21631586522646,1.21604952836955,1.21398916853361,1.21193819456729,1.14941063555149,1.15389080573264,1.15361042790845,1.15141665660942,1.15073123986493,1.15053054247721,1.13975114453355,1.13997776635838,1.14161795282501,1.14397532185395,1.14403711979118,1.14194999808733,1.13992966566637,1.13593737695999,1.11940122113612,1.11307998348722,1.12324386949189,1.13174969103201,1.13394326269406,1.13232928270004,1.12489345575773,1.11998891495408,1.10953975944022,1.10400657924469,1.10060371896489,1.09410324543375,1.09131406653196,1.09077043947259,1.08886357793102,1.08551533848812,1.08252328721621,1.08137876094414,1.08184030886257,1.08344858039773,1.08206077761506,1.08138961141742,1.07852697764965,1.07555260004677,1.07405371060044,1.05672834903606,1.04732065772176,0.986421692348739,0.984402816528143,0.979700050715103,0.978891458261546,0.975604717482707,0.966778176209658,0.957549723381964,0.950960274199244,0.935778014257528,0.918996070520703,0.910806007655514,0.901590064750869,0.899932129341268,0.898717987879448,0.871892356683548,0.862216596406815,0.860935829123891,0.85912674041905,0.873235609609002,0.879369530973613,0.930509993265716,0.952712418098786,0.99080139160491,0.99408813820998,0.986755498707611,0.986148773800761,0.994701771458274,0.996713496846571,1.00195240283109,1.03795358661586,1.07439916185631,1.04545631508579,1.02992376931638,0.944494278707246,0.903068740276739,0.902386997995832,0.902259095345026,0.90206607658172,0.902251714015979,0.894127329651275,0.891209202018518,0.890490321903386,0.88874043533339,0.883720944288622,0.883490413724832,0.883035454686649,0.881366701074834,0.880454258352014,0.880132601499697,0.87911592675174,0.877472928192081,0.876815947054104,0.876405249316887,0.876033867447784,0.876242012943078,0.877399724904168,0.877409181032423,0.877132538360255,0.876212496521483,0.875460158514556,0.874697525992637,0.874236630967324,0.874062392030137,0.874136438853848,0.874431913961691,0.875001723257474,0.871238557821427,0.866321043389548,0.858219670456715,0.856358241014837,0.856244495972475,0.857025138679185,0.857856467741983,0.857763680003009,0.85763001190639,0.857080392443393,0.856524742751657,0.856001770949589,0.856434667115079,0.854067250381494,0.851157522168512,0.848743398459882,0.845087944822568,0.84146513338146,0.835503955016628
1.18325392301026,1.13168280918969,1.11345914821451,1.17705150475292,1.17606764549364,1.18795966591089,1.19941527983463,1.22025672919452,1.20954678012746,1.21257692363096,1.22928037265839,1.27111076748004,1.27058331801427,1.26837840509445,1.22756555671797,1.23306499791617,1.1836134788913,1.27069763099839,1.23160778872322,1.22941821677835,1.23114842860415,1.26349336398534,1.29436928124671,1.25048378592597,1.24732977698463,1.47276896351723,1.23182297126422,1.2881987354012,1.21132845377045,1.20880847326087,1.21001489459814,1.25719687028009,1.26182537953605,1.28596510458397,1.24832394943494,1.23349059152231,1.21484754983608,1.25609411768247,1.20474161279905,1.21645176698291,1.2182156411327,1.21968751348627,1.14466656056289,1.18680174303317,1.15700541486989,1.16179544556395,1.16687538230535,1.13814627300007,1.13805358113535,1.13682345253818,1.13452175272975,1.14431168046703,1.14408105893004,1.13703761737697,1.13842354491459,1.12922701292086,1.0904875623885,1.09115239418342,1.09058766697494,1.12929076471935,1.13609555621411,1.13679460388613,1.14488291527394,1.08363697330171,1.08206657985035,1.08257689896397,1.11310481039953,1.09814871256005,1.05655486815747,1.07833620165395,1.0524504351682,1.0575136822949,1.05768310421113,1.09004818217814,1.08063319280829,1.13540612217301,1.1342591221555,1.17550045609745,1.06370059454045,1.07413228215731,1.07407399681634,1.02877717743753,1.03496279485086,0.988236832832717,0.989421951954255,0.989204887656754,0.980423022181837,0.980503349856196,0.944853575147409,0.944471091314907,0.943804894725153,0.924947673576658,0.91756156461276,0.894122500307069,0.893675165594329,0.894543132467617,0.894883875294702,0.855406465221304,0.86283514665608,0.861172984155326,0.856386656768616,0.887577258821271,0.888262890935473,0.987192339577516,0.969140891419921,0.971272390961847,1.00649729124949,0.982585569522106,0.983284732521453,1.01893941032058,1.04342711013696,1.01096877192431,1.06295551447886,1.12335334984881,1.02937578648966,1.01486200811169,0.902635855401026,0.902639913810993,0.901167341361891,0.901279266863353,0.901339925625144,0.903002595078573,0.891658501135056,0.890208136467476,0.88928449897376,0.889398492407669,0.882492604213662,0.88161307834741,0.875733584711951,0.879158097711768,0.879092385000218,0.880289523697338,0.87934924278123,0.874772266770582,0.874831054330439,0.874346959815071,0.874196851519415,0.875150919088397,0.879278637699408,0.87850906826859,0.879069061352515,0.876358282472177,0.875303132573892,0.874937037083849,0.874772402574556,0.875339044269675,0.874364287136765,0.873636414184166,0.873855944546377,0.868708639576509,0.862435695161042,0.860628270395056,0.856670254786929,0.857372829359467,0.858722334351139,0.860228231260774,0.861568310345029,0.863337473547435,0.863971514757195,0.86414655384965,0.864200531711811,0.863778972606806,0.851913290596952,0.842829219308674,0.846205144443278,0.842213504916335,0.841788983978237,0.835494148163732
1.17142611123718,1.14616956391648,1.15924939058461,1.17638019609389,1.17524969591018,1.19519020996122,1.19728321391244,1.2068018740246,1.20746545472954,1.20714449697363,1.22866600436999,1.26872583753619,1.26887932836094,1.23780901653465,1.22703398373658,1.21790428151158,1.20422661270722,1.21313363610328,1.22397620467965,1.22855761055261,1.22936246077026,1.25725032380895,1.25911807806615,1.24845878923193,1.24681050531885,1.24741046622407,1.22796535319019,1.22732393187198,1.21053667164467,1.20772498864538,1.20660649275011,1.23357549329146,1.24168914168687,1.2418873659833,1.24184028705191,1.23233893727337,1.21661570086723,1.21845815652762,1.21903634838783,1.21831224215014,1.2174211849307,1.16211622028761,1.14396215171468,1.14307106654242,1.14198698659864,1.14091224127432,1.13995797117838,1.1389377476058,1.13829264273893,1.13720453166617,1.13605691068999,1.13988900727171,1.14086052993294,1.13880370069687,1.138994078746,1.13704595328033,1.12083300202262,1.1153780822893,1.11705560681404,1.12694952611218,1.1349340506799,1.13503515693825,1.14054388686623,1.12432888972037,1.08020325823514,1.08109547487081,1.08400507585223,1.08908584134142,1.08399171487,1.08046994804344,1.07726402754541,1.07360019600237,1.06136959316623,1.06386398399095,1.0627139476973,1.0659094878369,1.06926595144835,1.07231869416,1.07186172536178,1.07337596104031,1.07443718201763,1.04359336755462,1.03757908550806,1.02880167053528,1.01121637077232,1.00232083877371,0.994186554227618,0.981200670136908,0.943653025858596,0.944042785756312,0.93831893984524,0.926044275938949,0.907030626202673,0.892712056895574,0.890853043700894,0.889507163667318,0.885032523408365,0.87995848587907,0.879718702020596,0.885831374134235,0.886894143610312,0.909449226939712,0.93084197132603,0.966058369301253,0.968305786467519,0.969048392821806,0.986584167123262,1.00559131960428,1.01497044079364,1.0258939881664,1.05259750719946,1.05659715473435,1.05787801021555,0.985209104451043,0.96376018386591,0.938275612768058,0.903164352439941,0.902560893891429,0.90072465108743,0.899986012976292,0.899021075416804,0.897368537097993,0.893125650914047,0.888118124137463,0.887445158609349,0.886241673481005,0.883087304038705,0.881785893884617,0.88095214906136,0.880486453720022,0.880881087943804,0.881536259312808,0.875954522977315,0.873932676403986,0.873338265487491,0.872982290489535,0.873914897690791,0.875418794997688,0.877872484060405,0.878444559774628,0.878584172416854,0.877224201433708,0.876229851473198,0.875480826652611,0.874577976420705,0.873974286374826,0.873314567578795,0.872598904334062,0.869984810606509,0.866065422730727,0.862794648495299,0.861233294669028,0.860047812913194,0.859726005850598,0.860373199825181,0.86143386370234,0.863011073227999,0.863527853980844,0.863994109617886,0.863952035265383,0.863802235416583,0.863061583072016,0.856077854015415,0.850370355345509,0.849715613708689,0.849720876068502,0.849821306899915,0.848748186869668
1.16985610423777,1.11977605893065,1.17743567518353,1.17702177858132,1.1755136879363,1.23517555864539,1.19638863917552,1.20311369813284,1.1776837775002,1.17810985571503,1.17925624177586,1.27892369733482,1.27785578700059,1.20913027239058,1.20421636862599,1.19156966740616,1.18299951171255,1.18214472829572,1.20656648875433,1.20709721831704,1.20857792218606,1.24666436132579,1.26398508832433,1.250608641548,1.24880217024555,1.25118323904265,1.22350326674025,1.22894109418333,1.21435168245451,1.20772082061436,1.20272105026486,1.19438731458789,1.24393721815205,1.24362461889043,1.24074224855121,1.21357418989713,1.19685600424362,1.19641673405963,1.27480817642193,1.2353682146166,1.23844669208664,1.12630989273839,1.12653140187657,1.11511358900329,1.11534462461151,1.11603835783471,1.11606556259615,1.11498041954537,1.21791514725771,1.13057121345682,1.12240569436943,1.12154093577699,1.15691765365523,1.15679823010796,1.14154819988723,1.14639160074464,1.12296970609885,1.10800313357812,1.11916776246357,1.1252233656602,1.13364473269735,1.13342461411129,1.19656318284306,1.17429738671917,1.07848518939084,1.06898287116192,1.04827609502351,1.13384254995816,1.13347339791589,1.10846170155568,1.11617912646743,1.11343297085154,1.03763870578892,1.06714732759145,1.05842842525759,1.05092926227357,1.04294303386007,1.07447710517626,1.070083432354,1.07238049684852,1.11466913918242,1.06029332571538,1.04105615782136,1.07665387175047,1.01581049127346,1.01448893986952,1.01413244084269,0.981632414534362,0.941222731898711,0.94327267022697,0.932284803453437,0.927807822810507,0.892183209951853,0.888781658743231,0.890024006504637,0.888294235523405,0.867792655446026,0.88029874755957,0.879623501977632,0.886833617822789,0.891138042614693,0.954024112343098,0.954161840915236,0.963636709613229,0.962687918896034,0.961324480460167,0.970955807297431,1.09084437971958,1.04867981475055,1.03889696728507,1.05831744477235,1.05858006049103,1.06601992828389,0.906117195359765,0.906090103453214,0.90527757821223,0.904046902014823,0.903504544741246,0.898957786022338,0.898792400368855,0.897298632565112,0.8958034040232,0.894444765111867,0.886618076629516,0.886215212434113,0.884280087435514,0.883397925745667,0.881697449976152,0.881353403333814,0.881776450592285,0.883051466934016,0.883407696809313,0.873656880050098,0.871942980992601,0.871683583140425,0.870074575773816,0.869045434946107,0.875059277756607,0.878486860326664,0.878740131917361,0.879800307209785,0.877490143564704,0.876974180127431,0.876095724130633,0.874068912625112,0.872704840313184,0.872273313139405,0.872191504640661,0.863010885023828,0.864033208650891,0.863099024395752,0.861427678562788,0.861206841393841,0.86140567536486,0.861500704802666,0.86178654065436,0.865394239188316,0.869570517584764,0.869721302695003,0.863432399091607,0.863237875921948,0.861269651306203,0.860192892026726,0.852058190338098,0.851029997866623,0.850844341283406,0.851037013616553,0.84676592162883
1.17236714067858,1.14070850483129,1.15041045797231,1.16376424801248,1.1757263076765,1.20102818335482,1.19419661468431,1.19342174646104,1.17739218733182,1.17800853341857,1.17988402602585,1.20460088723594,1.21882423155871,1.21623916843144,1.20279837834313,1.20337185255553,1.19943354329636,1.19205447569682,1.19921877914938,1.20545989938159,1.20612173197575,1.22001265087994,1.22302715536656,1.23785354936795,1.23343018412515,1.22462257485458,1.22308944947492,1.22064519738473,1.21379707542877,1.20953937059567,1.20057113574783,1.19735164374204,1.21390929167603,1.23577795950229,1.23437565516661,1.23041850220747,1.19676497197968,1.19543551679662,1.19238402077786,1.18940317326955,1.17700010223849,1.15972244193022,1.14724122255924,1.14027667794379,1.11485405143546,1.11503769294158,1.11492638107303,1.11486197153838,1.11583724822892,1.11809349763557,1.12078585116838,1.12207376076785,1.12386975664781,1.12544691993889,1.12328959661364,1.12223193188703,1.1204334359746,1.11617909882519,1.11710887719063,1.12378031934103,1.12642074135953,1.12825955675977,1.14138117570449,1.12657407955277,1.0779616907535,1.07375579580301,1.06250235449031,1.0906188781529,1.09281000250668,1.10899870055361,1.11301022504249,1.10882551794072,1.07417966723473,1.06155367264643,1.05730134418761,1.05655072705386,1.05894689401271,1.05965222527536,1.06105346408052,1.06183915320871,1.063279417416,1.05661820798035,1.04056252806257,1.04138207920078,1.02156743686798,1.0192693239987,1.0171225038655,0.984877367773224,0.951387889796115,0.944147720669846,0.93407733693148,0.931873420631057,0.897871391754921,0.89258638364623,0.891369998326946,0.879727869516759,0.872624522502301,0.875639725019513,0.883778682400727,0.896058856989938,0.919489461894127,0.951571687145905,0.953774210865078,0.95522634839931,0.956621439798813,0.961417984586799,0.962534377611429,1.05854366902024,1.0566425040814,1.00348083405573,0.98725736275439,0.965721819475511,0.940694727368878,0.906332349315944,0.906104230460401,0.905171959676667,0.903930406978277,0.902366495741034,0.90016873853939,0.898911614356102,0.897893760401068,0.897245252093645,0.892313804587401,0.887222930495021,0.88652500475821,0.885327817608421,0.88445488281546,0.883621330426773,0.882384038289097,0.882439984979216,0.882773162836229,0.882799980673687,0.873026866815844,0.872303392365742,0.871399361998821,0.869796243911477,0.86950660218648,0.87607635878031,0.878695855594839,0.878352474809782,0.8785861752879,0.87588767298471,0.875017024833979,0.873992914466227,0.872913250833393,0.871540630940778,0.870273770923534,0.86928123520456,0.863695289379352,0.863634199655543,0.862749988199301,0.862016793697435,0.86224399595226,0.86225186712956,0.862269961191533,0.862374255513258,0.866843556771181,0.867616609581419,0.866235362819764,0.862358834734597,0.861516731757781,0.858771941460264,0.856053734180626,0.852868651661315,0.852166416168546,0.85150483292261,0.850989728403424,0.848923745071865
1.18792828192549,1.11535516722483,1.11684195945333,1.14384322871135,1.17607885860585,1.20261873505785,1.15754472247676,1.15817942471421,1.17630688402921,1.17673692040589,1.18267969280479,1.17495982153979,1.22385593112116,1.22363078584929,1.20376016497943,1.20662716055326,1.26443073387726,1.177131610949,1.17547219448874,1.17678318329601,1.17930078255657,1.18122153170975,1.18269483299936,1.2540917976129,1.22761409708393,1.18804649054506,1.18730853481527,1.17187574708502,1.17775982111758,1.18062077748872,1.17652074975575,1.1841699421249,1.18465371665353,1.23854116572309,1.23407500573613,1.23084672847039,1.18251285968997,1.18435922272011,1.18580382040729,1.18744109357494,1.14841621758107,1.20583602765386,1.20668442289343,1.1624659139138,1.11431605475144,1.11139835646112,1.1324339493378,1.13892337603988,1.10783715793927,1.10838698673118,1.1096647182,1.10748643137844,1.10729643958607,1.12907614608534,1.12227075070475,1.12124641062788,1.0885247613941,1.08913192768397,1.087231279636,1.08749595617796,1.06030590802437,1.0675031441325,1.17613552439556,1.04994111705827,1.0786728196671,1.08016327487295,1.05420713168611,1.08480002244968,1.03356628853729,1.10914818369834,1.11588022365243,1.10115962231818,1.10249490251516,1.01877820478161,1.00662577241621,0.991890763048604,1.11274468513768,1.05819245880954,1.05813057969635,1.06064561451552,1.06492023703051,1.05492276760042,1.03943199043188,1.04233078899177,1.03151141866907,1.03137669582626,1.03010955588829,0.988324090154287,0.967290483515738,0.945402526758804,0.936042752358527,0.935764936590511,0.904830878833839,0.917930664818785,0.892793346504374,0.86608277822947,0.848863760966933,0.864252873123759,0.887222833907344,0.902783275114104,0.948399961969992,0.948576563409225,0.944140390644999,0.944659737095844,0.951839958462542,0.961017796282506,0.960109467730824,1.06149889932621,1.06800805252871,0.975671859114568,0.917044082261408,0.912894099437162,0.906962267947425,0.906091800776079,0.905860918594689,0.904636176264122,0.903820039648408,0.901612908995279,0.900375886618307,0.898823139692366,0.89776979198609,0.898166627628283,0.890055493745246,0.888371414100787,0.887520291977045,0.885762802365817,0.88564193993365,0.885871648424741,0.882170787134355,0.882368824655748,0.88241731472142,0.881917841982331,0.873078563045701,0.873310815022273,0.872363405833303,0.867962425756513,0.868869874086433,0.87577127631415,0.879629458830798,0.878546121903191,0.886562368063049,0.874490983116098,0.873040656868056,0.871879059184878,0.871965569810668,0.870769114671069,0.867642681633762,0.867469938573161,0.864429111852336,0.863747083390832,0.86197088029789,0.862045574363405,0.863106665620885,0.863148260452451,0.862393637249724,0.863035103217747,0.872287691616908,0.873379507335483,0.863391156136525,0.861566182153288,0.860057534080619,0.85587581883637,0.851901980320451,0.85256221362082,0.852940107536654,0.852061738583777,0.852516069829366,0.84901329154481
1.11726885657445,1.11705256847193,1.11760229898545,1.16462603901396,1.16834370793359,1.16865146618323,1.15758563960303,1.15779935734157,1.17654091215614,1.17609874199814,1.17432409468832,1.1741150208205,1.17460561035363,1.17467169517572,1.17460392304448,1.17388587673825,1.17286585656155,1.17444995504569,1.17451665199274,1.17601304002648,1.17873928574978,1.18110232862868,1.18300773768966,1.21235213319988,1.21250711924563,1.20770509217736,1.18434767862282,1.18304609710822,1.18367989406374,1.18401662957393,1.18407659005717,1.18308880544409,1.18202935990193,1.18056856295019,1.18229705497939,1.18608468381455,1.19045814258685,1.19278308992038,1.19859290178436,1.20113827239655,1.20065768135834,1.2016729753988,1.15517194902557,1.13921310850205,1.11387464358465,1.11145519395636,1.10943574940173,1.10814925869483,1.10776426163689,1.10810400974057,1.10804696385538,1.10712397839875,1.10675007212831,1.11761149635018,1.11757835813736,1.11297042133162,1.09203165210531,1.09118094779968,1.08739683376327,1.08722437014075,1.08670650786421,1.10949451142425,1.12767837019806,1.10173157644566,1.09811958592143,1.09569795426023,1.09362609861104,1.09076970879623,1.06761418302077,1.10816669196732,1.10686641152995,1.07284582242075,1.05088259652375,1.00665177821728,1.0020629015529,0.995923922450488,1.0175158132178,1.02005705221933,1.02125259912324,1.02416151122825,1.02883353025949,1.03631311723552,1.03740723271945,1.03582998168773,1.03102107967338,1.0309650273701,1.03079819877666,1.00118685117783,0.951664645252721,0.946796343218637,0.943935604552442,0.937601449142332,0.916397956162228,0.90791883089389,0.893971314175012,0.877651553469336,0.875218933062041,0.878913281726454,0.901383256007894,0.910763914810598,0.936811750087656,0.942724217936385,0.943676275072904,0.944214048266062,0.948185665226392,0.949927294421613,0.950661684554147,0.944256830414803,0.941730197004242,0.94116030964718,0.917318953414475,0.915173850787442,0.907758331922776,0.906796751595233,0.905924206452351,0.904702728359364,0.903385614348063,0.90154003748883,0.899499849215576,0.898320761790708,0.897221909003908,0.896567664817092,0.891834084011805,0.890721536094226,0.889279319786603,0.887671676907383,0.885335385425896,0.884073670222232,0.882363965043212,0.88211925682454,0.88171450914455,0.881458807109753,0.875261787056843,0.873919820248995,0.873301797688127,0.873492085682337,0.873894614668907,0.875980935620398,0.877662494557723,0.877430099106771,0.876518541864256,0.875304718309489,0.874055625916336,0.873171787637616,0.872580633633855,0.871694049748825,0.868234757968153,0.866635784732089,0.865370064351142,0.864580523999513,0.863767984424691,0.862833031116367,0.861775096850397,0.861186189354494,0.861118181632835,0.860969782637725,0.860673222832498,0.860143645363959,0.860772526713907,0.860452791378207,0.860064514447701,0.853406253801567,0.852823137642762,0.854267166764318,0.854703350493911,0.854173313645118,0.853810519612479,0.854023837736083
1.0718771695846,1.07221571550625,1.10940320260388,1.16782998229126,1.16787803181297,1.169020507227,1.15376582634993,1.15016508426688,1.18185771849749,1.17320102739523,1.16314847423987,1.16337287199325,1.17629704089519,1.17592236597826,1.17509187432565,1.17583285019437,1.16927686728858,1.17546556518991,1.19910859904642,1.19248367241991,1.21644201518161,1.1888369376523,1.17818159110003,1.21313067418218,1.21358332069139,1.21579844016284,1.16776842995764,1.21293762524377,1.19567170590218,1.19202039291694,1.19577629739844,1.14794142811365,1.17746120504668,1.17849075345179,1.18283555260965,1.18573680577303,1.19206908140468,1.19320578300088,1.23979634104625,1.21831125980812,1.2388333876654,1.2200910448685,1.11734333942289,1.11697994076775,1.11431315973519,1.11398507655722,1.09752475401242,1.09805947743785,1.10064021962619,1.11327583633272,1.14273224147108,1.12332712730815,1.09310898951769,1.11763688273817,1.11743290526523,1.10259182914964,1.09285549531263,1.13719850576493,1.07647784492643,1.08671269698356,1.08559165937252,1.13215320403447,1.16087474847738,1.10790398924412,1.11801939403481,1.12863186761488,1.10160355430512,1.11702536475022,1.03374919761239,1.1078120186592,1.10546887577705,1.0231814821639,1.02277522879083,1.00222773606151,1.00244333098999,0.991062360501489,0.958844613122931,0.980762159295338,1.00461413157292,1.00635923582337,1.00912314117088,1.03624052521664,1.05317472420222,1.02967821479867,1.03035023206515,1.03088631776389,1.03180984249224,1.02076564174451,0.942376203545235,0.950290372769347,0.955039888952368,0.939608954046823,0.928332840401635,0.900804452795571,0.89505462262777,0.879603212134443,0.872192493228851,0.883693326551903,0.91990330659233,0.919992045271978,0.927618360090277,0.941736020895494,0.939186062985665,0.9391533327722,0.939682823895515,0.939896384701948,1.05976985400729,0.927927528573091,0.922500897581609,0.921261044252242,0.917091842244728,0.916355744726369,0.909943166403615,0.907294792677554,0.90577742192638,0.90430250388321,0.903348703963126,0.9014957159406,0.89771169688813,0.897755319383526,0.896714329729373,0.895009417196485,0.893934834058215,0.892917464263879,0.89093515188317,0.890216351666096,0.884030714575031,0.882547372716304,0.881084824218775,0.881839003426972,0.880897714425629,0.880510711936659,0.878292320503624,0.874057496129974,0.874262393453728,0.873778985022471,0.874219525078047,0.8759048684019,0.87820821948279,0.877594291129969,0.87704812648152,0.876428846892313,0.874936580522157,0.874242182440246,0.87385553178429,0.873771349397058,0.868526935238259,0.865271846926291,0.865462774023747,0.865520685390465,0.865170875370195,0.863997657658247,0.859651798043941,0.859242922461611,0.86024669319865,0.859660280840655,0.862115427243625,0.860388705716418,0.859880396591889,0.859600459176359,0.859852986209034,0.851457425748153,0.851691242446927,0.857475432001744,0.856937272745674,0.856725612756681,0.854687509490456,0.852102836382696
1.07203751355364,1.11456572615573,1.1375699357431,1.16693052761668,1.16671670434947,1.16624351100837,1.1640821606147,1.16308793458655,1.17455913320009,1.1718365439634,1.16186612337284,1.16242404539869,1.16375592141944,1.16676440236006,1.1697903916394,1.1713306214734,1.17173583173154,1.17269937599389,1.18263486971187,1.1824682773957,1.18301701599623,1.1860965106483,1.18174340870254,1.19922345118557,1.20760448481917,1.21208945266892,1.18313326159116,1.18321649291259,1.18153981105632,1.17973112549033,1.17921557679919,1.1796358287924,1.17926633117003,1.18089424940373,1.18258466243436,1.18582107256464,1.18885901838741,1.19123987688471,1.17754563194193,1.17017654260295,1.15237688067643,1.13829901992972,1.11625007279069,1.11517246334347,1.1137177368885,1.10958725042194,1.10100173403496,1.10008987598549,1.11344814527651,1.11506563185861,1.12165194089259,1.12310001824896,1.12477978087171,1.12705446722196,1.12943134291268,1.1314614110663,1.13320461833302,1.13505356075934,1.0894077158428,1.08935525283978,1.0955582353591,1.14102757335321,1.14920721694743,1.14358008416357,1.13844422200741,1.13358767588206,1.106025613425,1.10774732424513,1.10816182582341,1.10889861202076,1.08059607840357,1.04996664716034,1.01114142822793,1.00259432123152,1.00255223132964,0.996039116898268,0.976889185703171,0.978917495356476,0.985701934871989,0.992382250351871,0.998806673023324,1.00177517851495,1.01288898285397,1.01382101997937,1.01420062047748,1.01627227447437,1.0171939212126,1.01902789975317,0.963673131961734,0.956827440648334,0.954151558225016,0.939715589900793,0.922637997686649,0.899218671080436,0.896122341155131,0.878696669495777,0.876463961127193,0.897965638806975,0.917464914029649,0.920071557309255,0.927357899681876,0.929900487951019,0.931504598080317,0.934367591503507,0.937191702395349,0.939248958990747,0.977837115172915,0.927020676644647,0.92109050305887,0.919793523336086,0.917981625915113,0.917087743690675,0.908063539430092,0.906711069281645,0.905032756381591,0.903516985513513,0.901872765947368,0.900695928818145,0.899257932561539,0.898160856922709,0.896695718593429,0.895189842974345,0.894253339566945,0.892883824032595,0.891442127390091,0.890624698481785,0.884965627370504,0.88459361945074,0.884212593209077,0.883383893190099,0.881597716840714,0.880608458288972,0.877267438891195,0.875963189717974,0.875882628030992,0.875789406545838,0.875986272253625,0.876921700633109,0.878066354758825,0.87790092471781,0.877418663175342,0.877070950780261,0.876379066179654,0.875532164849792,0.874974690866401,0.874971616283617,0.870597464024205,0.866922819281228,0.86687904173939,0.866589790578114,0.866095080770831,0.864797476935038,0.861322088645365,0.860935266402106,0.86114695350044,0.861131619157641,0.861390292673574,0.860663003828378,0.859070031804459,0.858497740743371,0.858520973814892,0.858549497951565,0.859224266628726,0.859146591194358,0.858884980164714,0.858423334410246,0.857996835416526,0.857505570521346
1.06720427268749,1.20354986910897,1.21020666476292,1.18051851010682,1.18034599768708,1.17966487092885,1.17845620978815,1.16339131439709,1.21136907960429,1.16986702904793,1.15460242388352,1.133696193248,1.15409757710058,1.16711092743841,1.1664195319099,1.16476090217271,1.21348692502157,1.15780621089877,1.14715294529268,1.14772533017543,1.148656444135,1.1893471007953,1.17410928061276,1.16758092391195,1.19312858540017,1.22624213037565,1.18111042262477,1.15608634311368,1.15578898711149,1.15626228237161,1.15667470108999,1.20330169753325,1.16938110076393,1.21004092809593,1.20121490522231,1.18686238422694,1.18637241589477,1.25309063432473,1.15401381133761,1.15501233964573,1.122219981161,1.12297607530457,1.11656569088409,1.13947663639914,1.12943799223884,1.07960251548022,1.10307159060475,1.10141847460022,1.12240979794372,1.11961659359753,1.12086205681321,1.23567616905263,1.14415679467831,1.24918224687284,1.21682313549708,1.24382238105277,1.24264743827873,1.23123048870942,1.08984932333476,1.08963957824172,1.10807586373253,1.18875027843682,1.1776455718237,1.17936807523424,1.16004548306794,1.17970705941675,1.10547289790192,1.10787181940607,1.10827944993168,1.10926175256246,1.0667434269746,1.06699840242186,1.00550982987019,0.976760520895005,1.00218827691772,1.00156857038384,0.974819734763161,0.937353900661229,0.968934298861086,0.975242010010539,0.974961123883919,0.98323668844197,1.01082617465101,1.01096950236964,1.01283645074786,1.01765622866973,1.01667663802809,1.01951581914811,0.977685914743917,0.961161810353882,0.954002256816886,0.940128109416804,0.914955808938312,0.898131477234526,0.897079721312988,0.870748062633951,0.874396634917495,0.914706907232597,0.915763922526461,0.920807255484798,0.927587544120785,0.929082323315689,0.930692954924474,0.930819570969867,0.9292485612879,0.929459413191368,1.0435202037147,0.924726124155008,0.916908784550032,0.918281076764047,0.917180337074604,0.916112442117075,0.908030726950203,0.906819378196382,0.903762827536638,0.902839986724429,0.89951067263622,0.900233952929955,0.900313897351305,0.898787279658325,0.896590869920414,0.894954882741011,0.89486978949754,0.893071499048584,0.891646337394217,0.890479688160868,0.886042684662651,0.885989255054246,0.888027363894118,0.886702818372704,0.888304620939818,0.887655222580371,0.876954519861212,0.876518055979364,0.877464357828394,0.877228758370934,0.877366864036399,0.877404691572392,0.879445415984826,0.878444666582167,0.877809352812324,0.878094180582812,0.878077352794436,0.876567592254539,0.876042435827023,0.87682893060267,0.872933094334587,0.867535402668323,0.86780690759492,0.867778389157727,0.867681827725267,0.866650637016753,0.861160807174691,0.862216823443184,0.862258854452568,0.862381797417376,0.861753031907422,0.862468671881111,0.855252635908345,0.85746180359351,0.857133448583171,0.857757015925519,0.85998912276006,0.860746282099974,0.860670223679431,0.860181907323857,0.861569448995236,0.867649000019955
1.06820203235121,1.12795260353855,1.14859464894348,1.18120636108104,1.18088510853541,1.18051681535265,1.18029743075277,1.18149907415126,1.18203785143076,1.16724607293505,1.15383835390006,1.15453323545039,1.15585810684382,1.1566334946938,1.15666594077524,1.15702978996241,1.15772934539841,1.15811474599185,1.14724400336233,1.14718419875075,1.14801030520596,1.1815096003273,1.1787314218913,1.17619427136958,1.17440994245257,1.17317937356645,1.16893822833678,1.15422639197932,1.15476576630935,1.15574460848067,1.1562634776661,1.17683125362846,1.19248676736083,1.20905908150569,1.20834298015,1.20846047606809,1.20899266089499,1.20916486511085,1.16013875160272,1.15655594267252,1.12215345519374,1.12274911207628,1.12714010894099,1.13406931812741,1.13037991233505,1.10004879320236,1.1016804770817,1.10188544107856,1.1183941245346,1.1370589529551,1.15455429423164,1.19814116191013,1.19756775022423,1.2075168959681,1.21330269050954,1.23927173819934,1.23793318921646,1.23511924203144,1.08973224715024,1.08974024856757,1.09513187140466,1.14300294037393,1.148192343713,1.14278161108411,1.13876380108702,1.13785689507249,1.1232411997637,1.11455336344073,1.10830022044401,1.10883937668183,1.08735762021629,1.07606131388918,1.05855748779825,1.03649709901982,1.01997487363414,1.00105144694808,0.978614628109858,0.969838907512875,0.969209099100351,0.975456981065923,0.975022638311919,0.976304642847728,0.994380411173282,1.00631327451629,0.99850736228572,0.991412590180363,0.986828772287096,0.981552800327436,0.978902234368055,0.967311367919878,0.962084245134473,0.925723889222599,0.921944283834284,0.897866547350436,0.896934274190039,0.894295718992671,0.898227732932017,0.91654770916868,0.91870938337955,0.922827826560874,0.925679097852375,0.927801674344642,0.929201573408339,0.928834862695826,0.927409145319521,0.925570068044081,0.924476840567099,0.923695077101896,0.918640202876573,0.918755758692849,0.918292326152678,0.917861060150364,0.907801974003213,0.904158856028844,0.903087754588073,0.901716160794587,0.900407039189308,0.900488362760414,0.900825104985577,0.899679292269117,0.897446026384372,0.895887642433779,0.894976402901119,0.893446076193994,0.891880832757656,0.890098754519679,0.888450721769295,0.887821673917378,0.887805846042632,0.88682178086164,0.886333614360582,0.885880213778541,0.881986777426906,0.881304937828714,0.879758623778448,0.879110506629314,0.878507859560006,0.878504044003821,0.878818960885503,0.878809864007669,0.878733885640907,0.878761619763079,0.878332823463476,0.876849066280489,0.876042532603832,0.875287045381718,0.873559356105147,0.871774860610934,0.869622657384704,0.868851935232539,0.868458797810065,0.867450070307625,0.865982866800683,0.864232686079513,0.863397098728134,0.86271882778927,0.86154124235079,0.860370777468224,0.858868729014438,0.858709842688822,0.858861956157247,0.85918472596188,0.860162544910898,0.86119982586267,0.862352820649851,0.865957223226773,0.868362892888867,0.870312136307952
1.05538704383098,1.11411516092011,1.12471440725782,1.18447201817089,1.18099559792049,1.1809649275286,1.14640205181219,1.18152872681738,1.18174400470911,1.14907431559909,1.12455719919839,1.19792046890051,1.17422889302415,1.14782137724448,1.15247963017276,1.14998999398241,1.14328422442986,1.20140557957299,1.14374002327799,1.14557031068424,1.14371992231166,1.18784204636374,1.18280043295251,1.18236061034151,1.17124237677463,1.13585064101263,1.14809191133986,1.13688829491771,1.14705331293838,1.15554883394735,1.1542166759287,1.14385099558219,1.2134382545177,1.21435903744291,1.20826495956143,1.20866028606868,1.20987676668347,1.21017864533996,1.1633225193261,1.15574479916691,1.12125044848558,1.12251465651146,1.17080578653409,1.20022128296823,1.13939089683201,1.09839621706762,1.07121655191962,1.09477943052024,1.11368165738791,1.14660537211503,1.1919029529949,1.19729572200169,1.19510239836252,1.14243977412768,1.18036377157147,1.26146575029306,1.19638738830396,1.28688952187051,1.08930196829628,1.08944131538305,1.08891463647679,1.13034254063149,1.15510670797253,1.1298378762699,1.13642909689654,1.12333466150819,1.13005547911861,1.17659748023231,1.10754084385848,1.10800170116889,1.10729688529894,1.10756103656477,1.08829722006801,1.04880474399954,1.03631097203111,1.0005394877851,0.982881254443422,0.96929514431406,0.968578474579597,0.975197866528264,0.974588105656526,0.975149964822739,0.969692747711248,1.0139770269506,0.994338437514002,0.978419193567126,0.967376397319442,0.977763055095641,0.980277528267995,0.976527343107918,0.984651221386823,0.914417014468574,0.928426527411037,0.898211714065949,0.898004223303174,0.891429205416338,0.901673873840013,0.934380966907952,0.932745908716531,0.924120241778843,0.92415012372971,0.922427492907992,0.929113044725986,0.927841688837495,0.926365184897301,0.924784989014615,0.92357019783908,0.921641628149713,0.919957878964774,0.919119868386759,0.918399285687677,0.918202140660347,0.90779294469753,0.894852299746713,0.896823899530948,0.895576699603032,0.899753513824841,0.900752679299671,0.902410436696424,0.901333682546831,0.903288793039746,0.895914280855014,0.89544339418878,0.894081176110878,0.892280737500602,0.889735187004606,0.889837730741611,0.889259332124416,0.888720904982059,0.886675786808236,0.884853219684338,0.88372846232352,0.883038736716845,0.88256116063871,0.881463647547904,0.880613500498989,0.87940122278912,0.87885537782469,0.878809166276538,0.879148578432403,0.879722031736102,0.879861105520497,0.879907979108395,0.876317030495666,0.876005877001355,0.875081407844892,0.87458600806031,0.873664666183188,0.870098102812057,0.869565785197876,0.869685250248552,0.868278620096402,0.869603270187195,0.864938794483754,0.864261981263196,0.863737209768031,0.861072920511449,0.859070120855317,0.8593008411648,0.860210110203012,0.860882976476961,0.859595334016284,0.860474366330897,0.861114149909054,0.862202703331264,0.869141905380003,0.873106312324768,0.873638099078226
1.0755995605461,1.10917979299041,1.12634072642232,1.13710436741608,1.13826696083137,1.14035885231423,1.14272787849077,1.14049731287958,1.13999588305974,1.14043335217823,1.13688283768965,1.14454510819463,1.16002494868789,1.1593407047469,1.15899831979991,1.16165122738858,1.16462757031371,1.16721895102018,1.14494213834897,1.14705949325172,1.14614176569062,1.14434470190587,1.14205021945418,1.14101920675588,1.14141474726336,1.14301246211117,1.14408498582255,1.14120966730107,1.1554487584823,1.15744898968066,1.16539358456507,1.17407350962342,1.18180212469108,1.18742953920835,1.19054879269903,1.1915713559117,1.17858340445272,1.17467519710168,1.15773742997301,1.1545228479013,1.15281610774397,1.1516726906492,1.16893101397216,1.18349189837625,1.1707165008739,1.16783830476905,1.16325721883436,1.16729641980336,1.17048125722776,1.17222369880043,1.17300141179679,1.16665190732769,1.16343623800969,1.15967216792017,1.16029079579593,1.16434246021721,1.16281024999439,1.15912776248234,1.10628548832833,1.1064182299054,1.10925786665037,1.12860387164983,1.1538135445042,1.15262462281712,1.15105027120603,1.14842880624928,1.14498935780879,1.15439436810778,1.13873399054235,1.10741949632352,1.10662983123322,1.10638859871803,1.09801422284724,1.05866787835245,1.05221017421207,1.04504960908963,1.03430668220303,1.02296279417601,1.01068000219974,1.00828297589434,1.00557891624047,0.997202791762592,0.996584408549487,0.996225186744112,0.994635450668188,0.984834399242325,0.968541032265226,0.961302686115868,0.955329688665629,0.953160578601368,0.947460972351059,0.929010215685503,0.92557064440649,0.902521781205369,0.905607603038131,0.911137413141496,0.917227107203288,0.927922392649837,0.926843343367503,0.925416310636294,0.92466413359238,0.923484687259612,0.924700235275183,0.92567512561447,0.925295391426558,0.924456617077,0.92350306073974,0.921381009654748,0.919788240709271,0.918851139532471,0.918053852015742,0.91493326015325,0.908166643949562,0.899682790036089,0.899530663739828,0.900290418121916,0.900629290718909,0.900366058722402,0.900679498919402,0.899888329489565,0.898465896838369,0.896717759776877,0.895803453511088,0.894654119040986,0.893148385817796,0.891788140782845,0.88990537556632,0.888842213026174,0.88751049640909,0.886452672133272,0.88516755139047,0.88471904671854,0.884104948651735,0.883469761758341,0.882685853046116,0.881928539449404,0.880800597392192,0.880156128138214,0.879689891657956,0.879494796370189,0.87942058029149,0.879269383592939,0.87862973959887,0.877297831514407,0.876478199124635,0.875558988617066,0.873855063077495,0.872275995753373,0.870449492203654,0.869351005783738,0.868483345664847,0.86788619785724,0.867689421490261,0.866052876746665,0.865038673345541,0.864016796202832,0.862978161690986,0.862478290890495,0.86218528180258,0.861737286181782,0.862218289473455,0.861690485103392,0.8620495230292,0.862542854376292,0.862987399926321,0.872605357600239,0.873857308023029,0.873871870705468
1.08917127072603,1.1054096914101,1.12801512387241,1.12841429429199,1.13008201570647,1.1314555901152,1.22353706418358,1.10507555230242,1.10656018968155,1.11042008262572,1.10997930359013,1.11672371398961,1.16011996404907,1.1594636894409,1.15876037086036,1.16463996743348,1.16853097274054,1.16986830298344,1.1435944664624,1.15034280410811,1.15378266218524,1.13927927896479,1.13967425840241,1.13768732924865,1.14043174905698,1.17709797191863,1.13265249982861,1.13216467490721,1.25702790148685,1.20336791372082,1.20596938302693,1.27309464694795,1.14026256724818,1.14035016840497,1.17382421287829,1.20719114900881,1.12158608358081,1.12132368630748,1.15099835537089,1.1535450233389,1.17611201908388,1.15098075850499,1.16650163321095,1.28655259191776,1.20138488222126,1.2046813687298,1.15616271038601,1.17105159609007,1.19180754303912,1.17306297932028,1.1765300802043,1.15382584654155,1.15226781963587,1.15647863544615,1.15822186192588,1.16975255433116,1.14504044380487,1.15367559409273,1.10490056633963,1.10545114324249,1.11415314008292,1.12686263983232,1.16809504449711,1.15375449868073,1.15254943450563,1.15606586525632,1.14131224604825,1.21007847699814,1.20213783751463,1.10631744447241,1.10440577971212,1.10430691167815,1.10602096868413,1.07524341136084,1.06701491912827,1.06001781000035,1.07086047328179,1.06438184179277,1.01521446098415,1.01394680562768,1.01285821928722,0.998819023363838,0.999718261248736,0.989451368371224,0.992524317981258,1.02010753036816,0.968229166953488,0.960458859944661,0.953060617197544,0.947715184944776,0.939861749217855,0.947984034559699,0.921494049560169,0.899811442284354,0.908929244371947,0.917351163954347,0.940841397633323,0.929355101915633,0.911125907895668,0.911393094025963,0.912226329756528,0.921320975419004,0.924186270572321,0.924618795409293,0.924407801825522,0.924120749824581,0.9243870440203,0.920460206870038,0.918618209247352,0.918194834262541,0.916876146978682,0.90929531181568,0.908425301158862,0.900521614966707,0.901271659160654,0.901572274633235,0.902881584909228,0.899626202304979,0.899666521272049,0.898726324149349,0.897231225527619,0.896564101432698,0.896040495923972,0.895819505609655,0.893957097420794,0.89429066198722,0.88922157961024,0.888628571257054,0.885906762674144,0.886601872889386,0.884860585360536,0.885739599419234,0.885416976130262,0.8842399070803,0.883868627147071,0.883176516536749,0.882073363208948,0.880843234474739,0.880613860014474,0.879638020861484,0.879388851939722,0.87910805413824,0.878354419713455,0.877638746542154,0.876814442126889,0.877051942830396,0.872864872968049,0.871576201130115,0.869914714006986,0.868837049804065,0.86697063560998,0.867220986113205,0.867254169899546,0.866628816597659,0.865735205687671,0.864203433559819,0.863963283319209,0.86838254525839,0.870045756652258,0.865719308237678,0.864316897713304,0.862155167670214,0.863738221773037,0.864010157299766,0.864346507310147,0.873622059895997,0.874812245416785,0.873643850503469
1.10754848647462,1.1209980090873,1.1281447091139,1.12842106082398,1.12931261616122,1.13012407425842,1.12974623783409,1.11405708525016,1.11315864437288,1.11195904570185,1.11297092860516,1.11477655645644,1.14524034207575,1.1494776675219,1.15012997244044,1.1503192915501,1.15008073409373,1.15000234198295,1.15056595089361,1.15164060792977,1.15264666754667,1.14843263220499,1.14526979233662,1.1413703628056,1.14024090371825,1.15793959423286,1.16494542066031,1.17128060367815,1.20809046975338,1.20359179584598,1.2045950047206,1.16441555916536,1.14149911044816,1.14151139029118,1.17192180522349,1.17408052936511,1.13157033074196,1.1322236872597,1.14545456959798,1.15268224777746,1.17438834287307,1.17283932309806,1.17181607703662,1.17212761512432,1.17211777335839,1.17305407163587,1.1727504186574,1.16936614015951,1.16847985209311,1.16768433215426,1.16608427604232,1.16138011684748,1.14884676905116,1.14501855546422,1.13885206607775,1.13521795304011,1.12460223590225,1.11590578772735,1.1045175459756,1.10468353436971,1.11816388424299,1.13496323969363,1.14042134096595,1.14447564861659,1.14755179358396,1.1495970993958,1.14116460919576,1.1419214104565,1.12839051633571,1.10662276352996,1.10558393027498,1.10564201074117,1.10579012250816,1.07745048631361,1.07083983081788,1.06983279900685,1.06798692549484,1.06340632935489,1.04663566918676,1.03856166903,1.02982192371147,1.01878204941213,1.00663481673782,0.990445687426841,0.981143742597706,0.975259032882844,0.956024983287863,0.954791971320364,0.951997294815067,0.947579015122328,0.937505273426729,0.93483889432648,0.921182992574536,0.914638768616856,0.912252377618434,0.914695041145923,0.916241839114379,0.917301794589127,0.911337271087615,0.911367460507332,0.910918767767946,0.921653244148195,0.922687014562253,0.923401013382257,0.923462683223272,0.923295918072623,0.922975480808644,0.921233412008911,0.919478347818109,0.918242007326985,0.917018644864683,0.911160264963498,0.910756073721067,0.907234036358733,0.904849716769788,0.902897454765467,0.901840053536803,0.900028318741676,0.898469864467747,0.897621040807322,0.896545226992877,0.89541020406517,0.894555126969577,0.893820823170158,0.892691721499349,0.891601220598631,0.890017919357023,0.889395567112451,0.889269251130256,0.888881728235909,0.888820256221001,0.887442011640419,0.886800796638403,0.886032855767581,0.884961676258181,0.883734209975656,0.882413699236152,0.880735107873802,0.879861994330825,0.879276006777959,0.878704415925241,0.877924556546416,0.876893371587071,0.876339115518685,0.876106508882761,0.875582211093013,0.874126412155302,0.871983724569584,0.870575159337997,0.869112621084475,0.866666555723881,0.865939634202572,0.86560063941982,0.865789977451123,0.867188548899024,0.868472541913177,0.86928820110524,0.869517298465045,0.869990441398084,0.867547362286812,0.866553863956686,0.866621861020125,0.865991878020912,0.865564647454487,0.865768290621987,0.867663694635366,0.870447734955614,0.871488751897477
1.14892118305897,1.12671609348157,1.15320446783974,1.14476070599747,1.14385830077707,1.144754603779,1.12390703928028,1.11453869490586,1.11363446408593,1.11961803217807,1.14460866221258,1.10718627761086,1.13581303777045,1.14868406243505,1.14854355459305,1.14937409315272,1.12948341416307,1.12066703817367,1.16801037023291,1.16095906755998,1.17246645204863,1.15292125778502,1.15520488229812,1.12710520108934,1.13063047485122,1.1305363296136,1.16866447906605,1.23268120934655,1.21562388785828,1.20355375079579,1.20604542405965,1.1381843296237,1.13435456589948,1.13505660877201,1.16646982943128,1.17900374194823,1.13021731165313,1.13223323068322,1.13860775826491,1.14936741297803,1.22940937250492,1.25299218457442,1.2529098057694,1.17455627651465,1.1731670629975,1.17510652552345,1.17886921606957,1.1050660795427,1.1042038514155,1.15100008737947,1.13020156453622,1.2468622434839,1.12182971441117,1.1282370215984,1.13374151399431,1.12651135883955,1.09369143325125,1.08919239812603,1.05663194148082,1.09783236370699,1.12197805093648,1.17363283034796,1.07029935008162,1.0791231666793,1.1214077339532,1.18224854788473,1.12751422450964,1.14362643401723,1.09749213471657,1.10057110527189,1.11060517318535,1.09518465982026,1.1049435921727,1.07926961723894,1.07149562103818,1.07125864923999,1.06411260625196,1.06221007350716,1.06404856705917,1.05727068421838,1.07857633235306,1.03780033059475,1.02202137434386,0.991007942359488,0.975845092255338,0.970003200438568,0.948992620706661,0.919750458661097,0.90436221699162,0.920225022846108,0.937576017067289,0.926879120839394,0.920465477002868,0.919593609209758,0.904698948558846,0.899282812309163,0.916323513536778,0.918187235772608,0.905115532042752,0.91221791547294,0.910326770567556,0.91993785718529,0.921109195140062,0.922511521442145,0.92263419055916,0.922773112480486,0.922842781717273,0.922270637840452,0.919527744144228,0.918111852777371,0.91585201767467,0.912589589589351,0.912332043092789,0.908603491262552,0.90608902447667,0.903802173065695,0.90152930298404,0.900333733142936,0.896175620517686,0.896728594699271,0.89541494823888,0.894419655638074,0.892427625736576,0.892509915541716,0.891319304270307,0.889457966313905,0.889825332777458,0.890087407552022,0.890569459618474,0.890444073803544,0.891391607592845,0.891590405689581,0.890599276603807,0.887232210921093,0.886082585122758,0.884139174202327,0.883507392439208,0.879374907195996,0.878938156877422,0.878785678088125,0.878376103663964,0.876841184583139,0.875131101499484,0.874633025159499,0.875528276841933,0.875244440239422,0.876001297051325,0.871937234315124,0.871285031050274,0.870437125872542,0.864852678638286,0.86460825156196,0.862538697590739,0.864045524607377,0.869151413301987,0.870373040968916,0.87155389901682,0.872578659894973,0.872645993448354,0.867339551582411,0.867559840915515,0.868215034885101,0.8675341208429,0.854835856151222,0.858186295097391,0.853882336156819,0.86943344363413,0.87063897018522
1.13806142668915,1.14044152145525,1.15041121327242,1.14792733561655,1.14163471024681,1.13822323082807,1.12011650579285,1.11701011680457,1.12312002290659,1.12750467422013,1.13474019775354,1.11513841466757,1.11530986018162,1.11573808336023,1.11603603666726,1.11671202043575,1.11782083390882,1.11906595774816,1.1371304338846,1.14808378475108,1.15449101302933,1.15395046009348,1.14777393817587,1.14173066347091,1.13058131970014,1.13080538580173,1.13734918374564,1.1419134889296,1.14182365359352,1.14206890445382,1.14175248866317,1.14130639453877,1.14565478303145,1.15199913118384,1.15820660593556,1.15460345723917,1.15072685102474,1.14667903667728,1.14431563493726,1.14617386092405,1.16811143855161,1.18961881770239,1.18937093033084,1.17264914024524,1.17134192523835,1.17051824267051,1.17031750585754,1.16161104004551,1.15993519323045,1.15673180661156,1.15699933791632,1.15697116330337,1.14826285115218,1.14496983555679,1.13832629626799,1.135062467676,1.08826175960726,1.08542205311272,1.07662249791727,1.07590095366427,1.0750834748206,1.07411457704913,1.07244144555212,1.084550509736,1.08572916627369,1.08948409638037,1.09352639686733,1.10038785216796,1.09685459806505,1.09606466614511,1.09480519353447,1.09281776894036,1.09033019776797,1.07551020013705,1.07214463042386,1.07172083418645,1.0672300273521,1.0654817786458,1.06459108655348,1.05075404315842,1.04557646669408,1.01928092484828,1.00807987502383,0.976065541311276,0.967540218869723,0.94543586765831,0.927133150764645,0.913118955197171,0.903253473551263,0.903153231980587,0.903963340918411,0.904779106671262,0.904919350710977,0.904268728779084,0.903211937543269,0.902177256787946,0.904078308629472,0.905618117537852,0.906794336866571,0.91526948368481,0.9165288517085,0.920809198662869,0.92140047486936,0.921412853559692,0.921951744499422,0.922165626185978,0.9215865495139,0.920640531420645,0.919592367225114,0.918584527924757,0.916651451678292,0.915606459727274,0.913743335920091,0.911958612678577,0.907785013598002,0.902186735805944,0.901240264453943,0.899938681181293,0.898345539651748,0.897233901848111,0.895879796139537,0.89423198888811,0.892652303443476,0.891640478093925,0.890780595617444,0.889964736295635,0.88999758530841,0.890228172165299,0.890633082434138,0.890948269484241,0.891695228108582,0.892190646145853,0.891171405543284,0.888965475545423,0.88759530951611,0.886363172570074,0.885735366748603,0.879359668423875,0.878984531478375,0.878574604354629,0.877767496382829,0.876676832308851,0.875834948046681,0.875699984849567,0.876051400820449,0.875959486237987,0.875270677619329,0.87317474365559,0.871855790328748,0.871277662212392,0.871370704374263,0.871577635794644,0.872064645785207,0.872649904036115,0.872667565303086,0.872059505026788,0.873196486332324,0.874086216177652,0.874146203749924,0.866611371875194,0.865976428066257,0.863564404968469,0.861843116300945,0.859556648950172,0.864196040561807,0.866734299752147,0.870727732469713,0.8733889423833
1.13591157076108,1.1440381263981,1.16176658482706,1.16192702232407,1.1392150884633,1.12732542498017,1.10351140392803,1.10378067263363,1.20691197765792,1.13208798628114,1.14225982619058,1.11609553365846,1.11601699737179,1.11665036677187,1.11687224586284,1.11188049407103,1.11187922992602,1.11457054254175,1.11618145695254,1.14430016582877,1.15448055009574,1.15434286172911,1.13418304771721,1.18994033564089,1.13098137159455,1.13145319867918,1.13640406764281,1.14276942902308,1.14191851558577,1.14205159391578,1.14235437798673,1.14141502160262,1.2240665255379,1.17834031406483,1.16405523686133,1.11338124239467,1.19992308861868,1.14935473021747,1.13451191981723,1.14412985138155,1.13897266931907,1.19030357647608,1.18954367827886,1.16437681454149,1.1650912828379,1.16972866008526,1.12820807253449,1.16430767355472,1.165042953846,1.15538839403117,1.15632412377845,1.1561390542214,1.15049285860759,1.15236136332663,1.14033230288639,1.14737794053782,1.07063172005483,1.07266803721425,1.0787062143297,1.07702417268612,1.03682040738165,1.05837352121967,1.05916609604508,1.12471928381508,1.08428115026147,1.07905481670643,1.08014627664817,1.10948290161438,1.04745937316447,1.05440152718361,1.05547518395842,1.08478835279432,1.08746974102806,1.05538630519555,1.07251061786341,1.08763984508402,1.069918093112,1.0650786613739,1.18703311044572,1.04423458623793,1.02929937621669,1.00369671290334,0.995424819706414,0.964205453903441,0.959448125315718,0.910604730010293,0.907447339923798,0.901127037347319,0.881606009079696,0.881707987033881,0.881219218287307,0.889017631382686,0.904905252882837,0.896955654694021,0.893555625878793,0.875519970914149,0.895878460149595,0.899975846736083,0.909114039077944,0.91761158081785,0.919407997869131,0.921045391109432,0.921428406671634,0.919692608217914,0.921691730678997,0.922586963384738,0.920532118847599,0.91941939116489,0.919220958805446,0.919730578660078,0.921102002094154,0.918971975892815,0.917327709671457,0.915915026343314,0.908875625850471,0.901732760535109,0.901237618382725,0.900290332452117,0.899571573779996,0.898025168840743,0.896120539244696,0.894182716997517,0.89198230658621,0.89076717081674,0.890342310739346,0.889813144458005,0.890371466726179,0.897718906593578,0.89812133515979,0.898362479755117,0.897696798418338,0.895169637077602,0.893697795289977,0.894361849460128,0.889453264720714,0.8876691524199,0.887543340418501,0.879401734717178,0.878929885835739,0.878502962342707,0.877469373968595,0.876092991417566,0.875937869762658,0.876081352982968,0.876979181496075,0.877168128866776,0.876151048923767,0.873639000009296,0.871979359895999,0.871715686741331,0.871614920918485,0.870973942452267,0.871812153034555,0.87306005059371,0.874584330266512,0.875724288786033,0.876045588208901,0.875969039125263,0.876093605661179,0.864845569982962,0.860415034081727,0.861209553117938,0.852394978090995,0.847662333489308,0.866125821222754,0.868893423093051,0.870394386396898,0.875135395014076
1.14961993676624,1.15267669759833,1.16339683620597,1.16349692255621,1.13784519267694,1.135443409631,1.1158287803323,1.11254160765503,1.12089732689838,1.12606853992712,1.12653789075884,1.11725443315141,1.11689043909081,1.11707722502567,1.1167664913329,1.11589166499462,1.11666381896803,1.11771307184061,1.1185011817784,1.13093396812759,1.13361038256273,1.13259651893125,1.13289759268765,1.14651502675116,1.13233706924534,1.13288186670428,1.13556193580641,1.13803117438748,1.14033963312821,1.14145456668531,1.14119803460577,1.14066694030979,1.1484712153736,1.15593390755557,1.1682623310268,1.1701083446402,1.17263529085458,1.14359036006125,1.13960631084165,1.15036642793726,1.1652503625854,1.18955378408966,1.18973856270651,1.18406982692309,1.1623059695702,1.16269819570699,1.14386388457943,1.14552916839855,1.14810132897949,1.15122395336007,1.15316653662824,1.15411008072446,1.15257690288769,1.14617897231969,1.13950456784843,1.12574907722242,1.09153511584342,1.07930957949614,1.07832933533524,1.07739104189196,1.04359067632007,1.05849772298582,1.0573566827856,1.05414816921194,1.05051754841932,1.04692988575624,1.04473101686799,1.04515227255459,1.04801380580436,1.05227375100805,1.0541744484891,1.06627617821382,1.06758216552119,1.07028956994552,1.07179857090101,1.07116028461139,1.0697058565352,1.06877475875489,1.06970518239505,1.03928016288556,1.01588909548882,1.0072920057897,1.00254949368028,0.962457683019485,0.952868829229658,0.923293773472132,0.906181010856487,0.898162605685529,0.881589148359738,0.88181844889085,0.882715520481036,0.884742840324945,0.886788928644409,0.889280273585933,0.892944569270148,0.893674697389169,0.899852574191655,0.90551627874998,0.91215779453637,0.918893646473668,0.921073451993926,0.922178139294596,0.922736135513716,0.922541006433217,0.922606392521076,0.922609905010132,0.921781165728415,0.920145429250019,0.919969735822403,0.919882148583322,0.920013057349048,0.918825010975485,0.917670214853454,0.91689346132089,0.909678614313966,0.908268575391132,0.905128836057112,0.899276680479562,0.899260268342988,0.898751688009051,0.897756802346758,0.896805818120347,0.897011911577903,0.897190259535928,0.898180256452777,0.898524129464695,0.898454325086331,0.898309154723863,0.898586632749395,0.898395062765445,0.897218070490851,0.89515474055311,0.894099320601801,0.894229035092077,0.892113131169764,0.889599633642374,0.889337157140631,0.881387876741164,0.879872775236193,0.879169261561471,0.878337254312434,0.877341964795382,0.87760053820666,0.877790077289465,0.878302098348326,0.878062908187585,0.876335053924366,0.874293804595643,0.872883219793379,0.872589716471053,0.873095178596073,0.874281146796899,0.874265311208867,0.874593894951802,0.875793188935476,0.876486887508143,0.876864512408319,0.877001464266891,0.872643775189431,0.862788554219276,0.861512915567824,0.86207418617682,0.865338392239184,0.867418529709769,0.868937084826708,0.87062883477849,0.872355193818675,0.874455041761472
1.20333966809851,1.19823887799813,1.17295211453925,1.19490621842386,1.13767043456636,1.1410112996729,1.12221856667512,1.10881228174564,1.10837090089514,1.12674573001284,1.12793613672561,1.11883212835597,1.11718261336661,1.11774223469354,1.11676483121336,1.11539476412971,1.13688856219248,1.12136024633926,1.12083238121905,1.1298485133999,1.13631215476258,1.12853563985362,1.12198311912204,1.15572184368832,1.1346663648145,1.12030678391284,1.21602833952231,1.12694983000782,1.12717303010111,1.1284973049201,1.12710626470288,1.12731521648248,1.13362565452635,1.13270926466424,1.17231909256178,1.18055106110603,1.18145199410281,1.1221517879754,1.12669799944064,1.15058416182604,1.17373976083837,1.18835687785009,1.18988667051769,1.20239241941281,1.16075018673659,1.16210736612126,1.14255288626365,1.14078464170884,1.14022915384887,1.15048477706672,1.15025410004164,1.25244404790114,1.25132094805864,1.12397761844662,1.13371790166868,1.10813549148391,1.10392979481481,1.08034486644292,1.10745319872828,1.08174829405126,1.03985291545411,1.05959633408144,1.23100728256453,1.04355618407025,1.04487256127884,1.04377629141372,1.00635406100037,0.999651131735587,0.999233040236031,1.03319282611048,1.04675414232537,1.06444005029339,1.06509596659325,1.07042672082392,1.07144614080755,1.07124966635942,1.06322531948943,1.07923505415966,1.07244662671684,1.0379403425095,1.00977752281696,1.01005654216835,1.01311112923785,0.960906042297943,0.944087756765489,0.941343721116449,0.905247711484893,0.895494555995817,0.880752846663319,0.880159397591083,0.876189369569874,0.878010309444758,0.859109185253303,0.871357994663519,0.893860535016979,0.894970232381696,0.903722090058574,0.927235067905799,1.10187647153087,0.923568163863502,0.922981404012287,0.923858241279821,0.924681383787683,0.924343823194094,0.923782196081153,0.923781490182877,0.923794891787382,0.919476677903035,0.920443298051975,0.920008870860299,0.920348671979674,0.919013020433598,0.917297876463419,0.916898990976152,0.910806247795418,0.911155565787801,0.907733797444569,0.898505761927335,0.89917982718388,0.899225850971223,0.89891720873151,0.898456577187998,0.897371864962398,0.897359111288417,0.898127932669506,0.898723453132211,0.904969971448986,0.906315686922661,0.904081920902961,0.903966354844168,0.9040544254335,0.904266448539469,0.905937219119263,0.896511177260098,0.893744638823714,0.890580315950006,0.890591033967534,0.884457693813767,0.880744888690013,0.880127311632993,0.879365542983163,0.877349990870704,0.879000173690928,0.880988103634534,0.879942191788336,0.880342871231853,0.876962522109712,0.873925521553914,0.873201519886922,0.873212376990176,0.873958477107578,0.876434735220907,0.878625265052079,0.879513825333163,0.878335972065394,0.877448442350433,0.87800091065308,0.877860032052994,0.853882356947746,0.861710998938828,0.86094891105444,0.861398326813104,0.868352979837609,0.872178494952818,0.873371861487035,0.874859248052873,0.874235913847525,0.874844472838472
1.18822085626643,1.19076915082844,1.17258743108715,1.17274517380594,1.13480187095497,1.13514841786636,1.11728351850589,1.11525036567886,1.11949207012219,1.12678332849541,1.12716949564787,1.12658812093462,1.12649108181886,1.12617567032011,1.12719635935679,1.12990412977868,1.13338196364661,1.12694543963194,1.12196676220246,1.12297054185507,1.12407765982706,1.12550176013215,1.12366263099148,1.13386569163097,1.13703366607686,1.15258415200491,1.16911343589567,1.16422654819864,1.1580502087135,1.15138038243513,1.14428196806851,1.1292080971451,1.13207235040134,1.153036327888,1.17553917054576,1.17711596668393,1.15783167546032,1.15123203601401,1.15070161682157,1.15194947565008,1.1796760683021,1.18559040412726,1.1867562083471,1.1959997737872,1.1594754851379,1.15975154307653,1.14259475135831,1.14219463421496,1.1537541760842,1.15755089417814,1.16247549714176,1.16724669563287,1.15909273758317,1.15056274392246,1.14393161259009,1.12705563604885,1.10442820581073,1.10533959148461,1.10663558205826,1.08450165285101,1.08267021565202,1.07759463192094,1.08004094024763,1.0435042407482,1.04192441267158,1.02956306522013,1.00907574332151,0.998420476250943,0.998147296467202,1.0204044156381,1.03564244634098,1.04568022435873,1.06810205035653,1.07032227497594,1.07157043137585,1.07516415561472,1.07794209465613,1.07939517650221,1.05663424932763,1.03609920365543,0.996095547281697,0.987236567986888,0.973179587966299,0.946623068614166,0.936985856243055,0.933164798842011,0.905017292436323,0.885544328067142,0.880799073470357,0.880031221641353,0.878730657214972,0.879493172438802,0.881088976164132,0.886522260938924,0.894956788150084,0.89553947108972,0.908340393355996,0.917771541349511,0.919449656571125,0.922884881177904,0.923919154840032,0.924921662644821,0.925241018205573,0.924909445610513,0.924620535821516,0.924398433101759,0.924485940406232,0.918703876662939,0.919171960113702,0.919313011347795,0.919210283083174,0.918023284711107,0.916576270752003,0.915037719726084,0.911723301122825,0.910847868636551,0.909955938553163,0.90930253549863,0.907572172170223,0.905548500599352,0.90338026270305,0.902673134829463,0.90252835090014,0.902492971540494,0.903204617716187,0.903545489059704,0.904448473975455,0.905160723957922,0.905029976829884,0.904869638181211,0.905067175228506,0.905341252025478,0.90601065344223,0.899538767821399,0.894634541898285,0.894263205385277,0.89301315456707,0.882618384735676,0.881716967632673,0.881295635355685,0.880842902545076,0.88182941843658,0.881760486826077,0.881247945516752,0.880509717536657,0.880725534658281,0.881207705569793,0.8815854718956,0.881820771712412,0.881894628194788,0.88180175410285,0.881536560143025,0.88075770411695,0.881008508124474,0.88013419954034,0.878547155007852,0.877963457523288,0.876404191756518,0.873381231700485,0.873629543530614,0.873324796118521,0.873728228475993,0.875322981682444,0.876444852336585,0.877878609934398,0.88082838345391,0.884125512425576,0.886985733816385
1.18302560635632,1.19609992681394,1.1508674896811,1.17342305890035,1.13250634341409,1.12925270622683,1.10977321274691,1.11105097026646,1.21092625738068,1.1436605851949,1.14359537538404,1.12599023652524,1.12696559164459,1.15443803677505,1.15060020739208,1.14962269962666,1.14266266152753,1.14380561826306,1.11039582102124,1.11850410023326,1.11352978105309,1.21882967141517,1.12100808295958,1.12228433350713,1.13824133622289,1.15766221060428,1.17423173577673,1.23229732548684,1.23182557851217,1.17630668333643,1.23873741833761,1.12722380670112,1.12709001834938,1.18488617010743,1.17611743824182,1.21225472405152,1.10705708357334,1.14066315907082,1.15996286975918,1.15500919920416,1.18386411847539,1.1525587478443,1.17980730702938,1.22054320165977,1.15893061298464,1.15909333089561,1.14217818446406,1.13365636954481,1.17676721698633,1.16994979873326,1.17491813841912,1.17293098059184,1.12608967199861,1.33384793071368,1.15624975988333,1.20982882839172,1.10337318342358,1.10420584590206,1.15201125089863,1.09288867516045,1.09318998871111,1.06738293963537,1.10012903937758,1.03419102994404,1.03865589220583,1.00993771075458,1.0101261276626,0.996710673026673,0.997433503183348,0.999760921550567,0.994073452655682,0.994100954218871,1.08498039855026,1.03080330406981,1.05123919564275,1.09704880066339,1.09564293273163,1.11181876150115,1.03520402252268,1.02819251056479,0.984472050128618,0.965917547309085,0.954427436914442,0.942225361778412,0.930893885123618,0.924167573486887,0.904985202739841,0.869088045897523,0.869331186962499,0.869892473881774,0.85495120967047,0.880546270988374,0.883554680879822,0.892428524949795,0.894546135437419,0.878865591867779,0.912530857335259,0.916875302705608,0.917809956342135,0.923698924177834,0.924187594387139,0.926362885988201,0.928954181308503,0.924964288753007,0.92525721031173,0.925343268595388,0.925384247200024,0.916362007505568,0.917838710919491,0.918676496291749,0.919186362054666,0.917349071883186,0.916285496601868,0.909350229209065,0.910684021517861,0.910949008233299,0.911515147377752,0.91084232363038,0.907456427951374,0.905960287081048,0.904191099233231,0.903677498423778,0.903747490580945,0.905363908560792,0.90414390381217,0.904452080669114,0.904510259150592,0.904838148737693,0.905846724200785,0.905426876980299,0.906293585803513,0.906094362836854,0.90661149262234,0.906904081012147,0.895046948315029,0.897223685801347,0.89740249183657,0.882024182890377,0.882600882454075,0.882404176995016,0.880529819458025,0.886321441212189,0.887572763125544,0.88822798116023,0.887945141960567,0.886490710677072,0.887717523335498,0.888337289283972,0.881607921174104,0.88209828122246,0.882652638386403,0.882481256267332,0.883645780438452,0.883326138969643,0.883229124867221,0.88451228552125,0.885075365064335,0.874929007506836,0.871806555975665,0.873096573141192,0.871906085776293,0.872375296817284,0.877799347349062,0.890467516690149,0.889183987963055,0.884946701256254,0.888608166256703,0.889556200289901
1.15069487189268,1.15752099591352,1.15422725285353,1.15186196291891,1.13138854087827,1.13031720514177,1.14668376024398,1.15440151155216,1.16668902404148,1.14411830849997,1.14453834129997,1.14423433744906,1.14608140350393,1.15004146039563,1.15053180930652,1.15046560124882,1.14590693945843,1.14461215613904,1.11731699455793,1.12306825146426,1.1261984460887,1.12968049912097,1.12139404307319,1.12117682177029,1.13789977714373,1.15654929779915,1.16558654547222,1.22735024970162,1.22719793748167,1.16591750670775,1.15042593873222,1.12716966643092,1.12726842737394,1.14570816049605,1.1601968175852,1.16698985053082,1.12669500937382,1.1328778706469,1.15105120783739,1.15338264994176,1.15713022331048,1.15377781671992,1.15365922771326,1.15392124873069,1.15541477756415,1.1568944078328,1.14279071733265,1.14338189307734,1.14900935732388,1.1526927525357,1.15289873353048,1.15298135144267,1.1180279304311,1.11382387552235,1.11207474670919,1.11164447666245,1.10462135426424,1.10687663902644,1.11023645682034,1.09266257951356,1.09430617517797,1.09709084007725,1.09893370936808,1.08130907350825,1.06591769367788,1.04639163108841,1.01510328494092,1.01143419396286,1.00651575148536,1.00221629418188,0.999556569545905,0.999469922624459,1.01806053641275,1.02229658456098,1.02577191607876,1.03254835196874,1.05192665550022,1.04995978618953,1.04062542546531,1.02089085991475,0.997197540740129,0.960951739500716,0.958277535361349,0.929742080211024,0.920544888642488,0.91301133503997,0.89085437178847,0.86988000215635,0.870307442253333,0.871012234239715,0.870062903617277,0.881412274263694,0.882062919283795,0.89355080983228,0.897909934521886,0.902552485884416,0.915109542573671,0.919039742284288,0.920200525128131,0.923796217848108,0.924725638781194,0.926211025229863,0.927005531734372,0.925917767093386,0.925825315009946,0.925530321382387,0.925090233551122,0.917379411157036,0.917923666316572,0.91838789756111,0.918204674428701,0.916984450737414,0.913889912409194,0.911033822174899,0.910963598796375,0.91140895746378,0.912231579630471,0.9113748054609,0.91014532746396,0.90939230943221,0.907578798019753,0.906033139170265,0.905280292470551,0.905059548826854,0.904253643530547,0.903571578475038,0.903200274972315,0.903315758839484,0.903933056429964,0.904590691944317,0.905607357424717,0.905304658893438,0.905126284072749,0.905266320146555,0.894437675452623,0.894903455484353,0.89460922753116,0.888745173983901,0.887390532613751,0.884841320771731,0.884485969034767,0.88651904488597,0.888221108117216,0.888551804310934,0.888531163840565,0.889029246256098,0.888973369089014,0.889532813144906,0.881905386149886,0.882186582075599,0.882488312800034,0.883357242325545,0.884065244307024,0.884574113419351,0.884633118625225,0.885267914038772,0.885152018084811,0.87612208565317,0.874994731554663,0.874727739497521,0.875682866482431,0.877814089103646,0.881313965811989,0.89155508258435,0.89217283307841,0.892605244975239,0.892636984264317,0.900669692740686
1.13472441392887,1.16066120558931,1.17758604857263,1.11836004269026,1.1314983894278,1.11769060741769,1.19183158697688,1.18407270759555,1.17948621599161,1.14496568705272,1.14654800458848,1.18439047692159,1.1837855361997,1.20027787811869,1.1835865736752,1.20334052312766,1.14775847833053,1.15672391071509,1.09385836089049,1.12822795952824,1.13768886333635,1.1353465825089,1.12285578288563,1.08230619055189,1.13699907068803,1.15514825155186,1.15576196192233,1.31805072921478,1.25710491044752,1.1563808573769,1.1244239102243,1.12633877914838,1.1251132542772,1.12402178118809,1.14769443956422,1.19138425824513,1.1084167539886,1.12165763809531,1.15016876562104,1.1517954084427,1.1632690216618,1.1522811059791,1.14376342305899,1.14364134880156,1.15562791486546,1.18756240172953,1.14212996431177,1.14316666001989,1.13384290590428,1.15336603645652,1.15410070116642,1.15447753758498,1.09779913240185,1.0992166439626,1.10053113639069,1.10079361606363,1.1016972410567,1.0936789163869,1.11186524349473,1.09104216752451,1.08561619282206,1.19157680707072,1.12554452368186,1.11043069288475,1.07724781434466,1.06002958735098,1.01971563795232,1.02247609365136,1.02415648405817,1.01157064880766,0.999230414484849,0.999003483425016,1.006359246355,1.00258649492654,1.02107170934365,1.03196330687665,1.05137769652058,1.04532431021404,1.0450806841135,1.01894757332445,1.01534707787819,0.948020556993424,0.981811596701669,0.913268796284035,0.904492202984614,0.901846024460134,0.873786605185188,0.863725451851669,0.879903911611263,0.875272293357215,0.868915645649522,0.899178055154994,0.881149474183112,0.909742055474899,0.910375834232645,0.909876759831334,1.03155437710706,0.920111445694445,1.09870932997503,0.939224551084828,0.938412599443348,0.927286598903033,0.934027439940235,0.932728693106665,0.926602816446393,0.92536197326269,0.924162697734967,0.917351589682097,0.918664509930821,0.91885345302759,0.918565739534276,0.916715011515403,0.909461369621459,0.910107352922385,0.91070982049698,0.911193590388063,0.915002272121386,0.912601904862732,0.912008559670416,0.911306268312329,0.912138431023821,0.91267219978436,0.911755856607839,0.905859593315847,0.904391344397346,0.902308677229308,0.901274807088706,0.901247405099056,0.901836865504589,0.903492209348184,0.906021495698505,0.90404007879824,0.902538170882049,0.903645621778772,0.893702627985331,0.894027928928041,0.889510303112619,0.890334632611157,0.890415629457272,0.885051882299321,0.882503212812865,0.887229294075958,0.890173352625756,0.89448312323116,0.893523864581399,0.893296990468878,0.892617943310996,0.891811827555757,0.882376633678415,0.882696856827665,0.882388519313897,0.884040193400372,0.88557753075301,0.886286257591984,0.885327498603872,0.886403680783174,0.884479802092128,0.88007039222082,0.874558192890238,0.87468436026761,0.874814941741855,0.880391605996024,0.88884221680764,0.890929933541793,0.89213572105383,0.891999280414265,0.892292057691418,0.913349814530574
1.12970198072579,1.15424421248047,1.14980271677121,1.14525278700547,1.14066810645769,1.13279465347553,1.13790136614637,1.14182069233191,1.14548381704711,1.14485470098662,1.1453498200483,1.15995878030081,1.16607708978199,1.17660740655447,1.17072941085561,1.1640245144619,1.15122083230888,1.15421956364022,1.13860705615487,1.13113648788577,1.13292764520806,1.13497951819599,1.13619179713112,1.13651767068461,1.13642141808657,1.14583997583196,1.14719251983322,1.15334846293187,1.15114145273075,1.14281659410249,1.12444451201107,1.12549490027649,1.1247277494866,1.12285683313245,1.1201081777423,1.11918864670102,1.11900095067878,1.12133833227839,1.14717137111861,1.15038337411022,1.1523752369908,1.15268939692088,1.14657254522918,1.14279783412861,1.14234490626642,1.14218903871665,1.14203120562198,1.14183657058399,1.1410172849685,1.15375338618989,1.1547400414425,1.15513622597142,1.10554046286134,1.102146033926,1.10096050384574,1.10062143539646,1.10069402994451,1.09219734823829,1.09104359347333,1.09071001991379,1.11742300390946,1.14497239703109,1.10796280269658,1.10488698763868,1.08810598918635,1.07914408080509,1.06936348576936,1.06090017711351,1.0500991344126,1.0410949844184,1.03547345281881,1.02706127090411,1.01809591018798,1.00966262881452,1.01803917620073,1.02188333847706,1.03597005351753,1.02603469502573,1.01576361041578,1.0042362469132,0.989234849131564,0.962656589336799,0.958597780621361,0.905499906225835,0.900553895353722,0.890515348599561,0.87551133981097,0.876242578380092,0.877266656343231,0.879799122307545,0.889529523744728,0.895282224754255,0.90542199154469,0.911601676179019,0.91249884370541,0.911972772209178,0.97952356030067,0.936864041658198,0.937304457680891,0.937766419741234,0.936863165724282,0.934468984742402,0.933006932024812,0.93147796749895,0.928359473146025,0.926956670519135,0.923135777166068,0.921067226536425,0.920140545988754,0.919733382665231,0.919312468617943,0.918386051359706,0.908618833505737,0.908888319483017,0.910725103660559,0.911997625662909,0.914192298766291,0.913530925323541,0.912678412739012,0.911853992452114,0.911595860923382,0.912004908085826,0.912425054554602,0.905534944602212,0.904693003148936,0.903161386334931,0.902331484166207,0.901888347195129,0.901597504770527,0.901559786016878,0.900553608132097,0.899928527953159,0.898120937905666,0.895338505905424,0.893504021057861,0.891820689570406,0.890024220250883,0.88928482565379,0.888285558120861,0.886970025999725,0.887487701656999,0.888564795709021,0.89074835395485,0.893007791108657,0.893884580951431,0.894091645685071,0.893146104928294,0.892089796769172,0.888242398947036,0.88395377122542,0.882732622012252,0.883026358855332,0.883335744472739,0.88332205656008,0.883956439550379,0.883339301762144,0.88307585834948,0.881295148477686,0.881524728780688,0.882532847626559,0.883355214665278,0.889207346905112,0.892111532793091,0.898006020412363,0.905945046423912,0.913529256020987,0.920042733894309,0.923030362266717
