0.771332352478617,0.771459469696399,0.771005057054237,0.772606474305445,0.773926592890228,0.796544339539036,0.793605093819092,0.794324871301716,0.792915826281247,0.793252051780719,0.790568048620768,0.791886553149399,0.789028152888849,0.788106769963447,0.784328046877416,0.787554797029178,0.786126944573847,0.782097615578211,0.779844652560705,0.779601827631899,0.776979908773565,0.777224766352702,0.77479191850492,0.776234447511804,0.774265781038156,0.776648324306058,0.77434174051582,0.774364249457121,0.771033856377191,0.772357688882947,0.771300864482225,0.770915709330638,0.768521719946351,0.769813006937487,0.77011278687823,0.773372353050802,0.773636666897106,0.774110577763971,0.772289879005854,0.771713371785225,0.77116269671645,0.770545081776793,0.771873629213155,0.772694105746782,0.772136749201985,0.769586371454041,0.767303175929225,0.763021165146774,0.776131765975557,0.781106784383208,0.781700795044565,0.783396126106696,0.784624135225493,0.787632550774034,0.787819584243743,0.786266703214824,0.785021458135443,0.784908914988916,0.783883599547667,0.784472398475812,0.785043671378171,0.775446503244085,0.771749507781027,0.772569834253656,0.772103056105443,0.772339500294815,0.773316776090045,0.774001060210514,0.774096971389157,0.773658593508517,0.772251597540898,0.772216332776821,0.773298806725857,0.774367140402625,0.776656674005928,0.778740051504121,0.781995803026477,0.782316985899927,0.780234787854757,0.778493474050355,0.780096343173365,0.781776600000337,0.787718028626562,0.787692361833834,0.786918844064726,0.769723131145245,0.770724503198098,0.773420895743679,0.905994277543855,0.787471914931846,0.795357454611366,0.796021035186372,0.79893356514241,0.798689553279664,0.806963386892445,0.807829267118151,0.808804139091016,0.808169192249136,0.80825802967286,0.808102237952367,0.811278487256505,0.811473883971016,0.812889755779749,0.810228064622137,0.806406876707737,0.803870394357977,0.802346108334332,0.800912111091739,0.797236228284682,0.795426432310881,0.793357080828834,0.791787203835733,0.792801177360336,0.793134933651535,0.794421646868316,0.792660744408458,0.793934662147557,0.794284996162333,0.794615634391352,0.794889823824209,0.797928171870977,0.799915409525315,0.798255945381631,0.797962937036913,0.796465535471714,0.797870266948477,0.798261803585967,0.809329230960651,0.809418202234105,0.807841770734328,0.805172158192084,0.802877800552133,0.800989007299914,0.800878642474226,0.800832347399908,0.800899814760027,0.801349733087408,0.802680166953715,0.802676403418203,0.803936535656207,0.803808334427856,0.804902106401066,0.805338047479162,0.804302183873059,0.801971346097797,0.801247722516302,0.800551497566774,0.801541446751079,0.801353515496324,0.803607317798855,0.802656919531783,0.799787220625136,0.796510461844176,0.788514126986017,0.784671364699936,0.783090128220956,0.78242450846436,0.782991425207151,0.782258117316527,0.782830953524306,0.792107373361709,0.792442008697578,0.791006606574087,0.788909542522187,0.789220202203264,0.790840711971421,0.792347073274258
0.770206430454051,0.770180936010019,0.772144194027817,0.773095458813164,0.772967853654549,0.780966994540594,0.783580305316981,0.788199719929514,0.794417083272993,0.793324746537063,0.792781326462357,0.79133011728883,0.79112484752961,0.788347226941787,0.788264820399938,0.786854174474067,0.786582436500424,0.783690915942773,0.782857583844895,0.780221596162539,0.779190161871289,0.777204049485626,0.777780739241111,0.776831243301064,0.777862695504431,0.776863613870967,0.776891464981984,0.774782758961471,0.773559635460475,0.7724347049482,0.772888847327994,0.771955279751955,0.77246393086132,0.772075042120265,0.772727096057768,0.773617452409183,0.774085550484413,0.773490482502237,0.773049249963676,0.772890151951292,0.773988210943122,0.774082713487284,0.773466065167025,0.772777002341034,0.772428652140007,0.771820075971338,0.772376545068436,0.772097108264958,0.778044635009789,0.781843660085837,0.783598788183456,0.784716088403627,0.785682046748587,0.786950401755668,0.786518159541911,0.784582522428934,0.783121408464281,0.78111891676395,0.778664533626317,0.775966329153074,0.774305754700531,0.773674916586963,0.772573171998573,0.772625206243296,0.773394263748772,0.77392924543991,0.774294641150362,0.774228654034436,0.774027273759806,0.773389907817205,0.772775565355977,0.772616756505839,0.772722200885936,0.77370851878889,0.774847616469137,0.776408620850066,0.777263476727326,0.778776917209302,0.779025514283416,0.779671315820675,0.781697245575012,0.784045439513978,0.786477112502395,0.787268962037863,0.786103680724128,0.780495521115646,0.77906962291551,0.779315480297719,0.812200460322696,0.798099188069387,0.797617727896147,0.798091281291507,0.799478015491248,0.801372447352486,0.805694036265132,0.807248246835799,0.808178824413324,0.808644203469707,0.808200784190527,0.808468743811132,0.80808562362385,0.80805697032797,0.806331669445302,0.80516607739797,0.805122784163246,0.803415700887704,0.800716443195366,0.798690703333406,0.795644832047132,0.795282209358873,0.79229726561607,0.792353736838986,0.791161158083657,0.791353438694316,0.791204740159163,0.791662346347932,0.791926956455403,0.793541477830144,0.79414485383617,0.794285223158127,0.795089870376855,0.795675219340485,0.797320830066286,0.798135481847578,0.797694414891364,0.797634836967487,0.802211643171967,0.807757629173648,0.809158490923465,0.80838990162451,0.80609731402991,0.802455009564746,0.801381681484484,0.801189107856876,0.801506891144396,0.801418859481453,0.80174270214771,0.802091515358195,0.802726114210907,0.803199885260173,0.803567770323526,0.803263814423571,0.803331844861022,0.802893425755356,0.80188505069202,0.801667888911168,0.802405262785089,0.801886771236517,0.803054092910802,0.802097340845084,0.803224971071123,0.792744714824458,0.790611296546977,0.785318210616716,0.784437679309126,0.783577266434911,0.784315806929159,0.78488084662118,0.787381249741946,0.789203327804325,0.791246515167434,0.79150166140731,0.792936909176612,0.793726454171367,0.794224441512213,0.794137519589725,0.79455325036131
0.767433808540489,0.767743954599297,0.764570062836277,0.763539615797599,0.771058337457403,0.779026194572471,0.778400378204866,0.779152277646077,0.794339674812444,0.794623070009933,0.792421484935174,0.793532071288873,0.790518087845417,0.791496200825073,0.788604396637914,0.789534181982267,0.785927883532571,0.786969045366909,0.782764271845762,0.783770055550213,0.779171329260542,0.778403750304429,0.777198954687209,0.780163146381724,0.779170596868303,0.780396668650998,0.776764908197634,0.779152951373947,0.778651581232719,0.773956956169059,0.772656598891114,0.773969820404444,0.773310193010651,0.774507515483353,0.77399992162237,0.77532847308435,0.773687019116491,0.775100401787444,0.778600983056139,0.778643485195433,0.776691831438615,0.776325705011782,0.774063116986056,0.773498275368861,0.77246986803284,0.772550369901912,0.77233957112828,0.773027817887604,0.778712903088037,0.780066516378388,0.78500533224968,0.786580890889171,0.787212429743537,0.787235633737891,0.786168076644783,0.780880732152999,0.779733621953427,0.77930063718713,0.778108278612419,0.776645979022841,0.774514636683187,0.772777777446939,0.77234357897569,0.774047073953608,0.774949006137662,0.77721552208667,0.775500233537061,0.774592077005639,0.774054297092893,0.773079045305108,0.772612440251735,0.772371098113277,0.77149291020985,0.771921794478285,0.773028549629422,0.774929603999518,0.776104477356139,0.77791126734526,0.778277047714502,0.778159236674012,0.783896950207448,0.785727357429124,0.786644094346285,0.787144356626821,0.783116821539082,0.78105296280534,0.776977756428536,0.77813954584324,0.834977586554379,0.797494468015154,0.797604323519453,0.798206506938403,0.800171890301306,0.803160363305351,0.804548499860715,0.806890842359658,0.807872728250848,0.808711604657821,0.808505846047608,0.807554562924021,0.806524812351153,0.806441066136611,0.807678105997424,0.804656264634678,0.798917707078261,0.79843026440555,0.797973873968627,0.795297938061343,0.795671872970137,0.792668248922104,0.793182564719676,0.790499877079301,0.790809673356132,0.788436739732989,0.789625655676319,0.788666462101567,0.788763501105957,0.788257523690323,0.792923943070851,0.793758727615287,0.793255981070641,0.791259840361765,0.789019052406627,0.789088934338861,0.797521881400111,0.797638513293996,0.938661874250151,0.804379580751598,0.94086065479769,0.798134393694508,0.797611088152924,0.799062487422968,0.799609706207182,0.802104920562364,0.80170360316126,0.80223518163475,0.801409060495102,0.801946008333215,0.802134141130307,0.803453316362626,0.802954442628061,0.80253343747421,0.800774096811332,0.801556101815297,0.801050549073529,0.802910340326053,0.802291437395829,0.803021820236987,0.803223313851836,0.799684668119055,0.92352008879457,0.788582359977025,0.784555407927363,0.78430160009965,0.78331126697609,0.784192808055893,0.783990661853829,0.787520105168146,0.787556919928871,0.790350777913744,0.789342678137812,0.791489881609943,0.79376865870698,0.79713845873395,0.799311114018208,0.800233123798705,0.798344335548138
0.774074349956125,0.765732630643415,0.764860381412818,0.764971417836837,0.771945042827615,0.779708785371293,0.780407828063647,0.780857543831832,0.795244995233249,0.794956163682568,0.794735646293377,0.792565097122693,0.792283884561663,0.790899996832455,0.790622844629688,0.788550832144179,0.787910910751336,0.785730459877543,0.785155144202945,0.783223445962989,0.783559838207314,0.783247498251477,0.782123229228758,0.780463130228263,0.780841884422656,0.779186052599666,0.778628926463278,0.777881074407028,0.778285198416939,0.776306804395139,0.776053250817665,0.775018257718565,0.773955760327477,0.773295330572854,0.773945098831421,0.774011296103816,0.775667920678155,0.775623587109439,0.778783864209054,0.778559183241313,0.778125440303036,0.776678140426789,0.775703780452054,0.774601061210071,0.774245558447216,0.774854157360952,0.776294710707257,0.777567981164591,0.779230045837105,0.782272544338211,0.78500678775295,0.786463529826794,0.787371883134098,0.786629951769108,0.785547168071914,0.782485855164183,0.781463708764048,0.78041883784858,0.779382231613635,0.778048378146557,0.77781892285406,0.778574981627305,0.778876196478248,0.778017328626047,0.777033753485383,0.777108014893948,0.776551748585565,0.775629223256007,0.775352716409654,0.77470162606171,0.773965641528683,0.773760736733796,0.77336543725727,0.77243246339469,0.773143160834491,0.7742757919233,0.77558345989696,0.777066404064406,0.777799614056783,0.779016304437193,0.7816833157399,0.783305241901004,0.784160740540051,0.783989574494341,0.783903034367977,0.785014430668344,0.787488826378067,0.788597005971751,0.790275096011753,0.798982953188293,0.798442873253658,0.798229231647728,0.799369452264048,0.802469550083698,0.804329353218458,0.805905407343448,0.80684855538933,0.807004088789728,0.806431843718166,0.805937346879839,0.804329413834978,0.802841008553318,0.801062532635851,0.801021001039549,0.798630748590812,0.797785357077886,0.796125974933379,0.796039377557258,0.793878378340694,0.793960257388304,0.791290319438216,0.790795776844055,0.788376748828954,0.788454307707145,0.788140481236425,0.788016988662249,0.787105591986044,0.786538562729428,0.786577932745039,0.786745079572928,0.787308292811946,0.788015752915801,0.787851103553045,0.787615900349336,0.800141543509881,0.799419261990507,0.799608319560431,0.798838441147533,0.799083697823421,0.798425161404492,0.799065366243964,0.799497440370122,0.800835427778336,0.800581440067348,0.801388905812683,0.801173584411895,0.802224374716975,0.80217650680553,0.802771932713419,0.802597083590969,0.802910693367447,0.801983314141273,0.80151920553621,0.801274789322154,0.802606627234315,0.802995843866028,0.804264892807708,0.804346870514967,0.805376248483439,0.804747523611113,0.790078645261843,0.78614230354528,0.785415951394386,0.784801638408329,0.785153425911504,0.785046039007324,0.786205190798546,0.787641813678178,0.789702167269196,0.790095084913391,0.791746023710228,0.792352463084124,0.79491314743597,0.796983188312508,0.799325824606456,0.80030480172355,0.801667017808642
0.781562492374828,0.753371205500782,0.753410014413509,0.76559633310771,0.773968963906817,0.781219360554912,0.781785973056708,0.781704689567115,0.797942278999333,0.798792367284873,0.795330541684817,0.793396892015785,0.791571727579717,0.792783009621633,0.7904919364495,0.790335071759437,0.787035857429152,0.787475529864356,0.784236883160005,0.785243504181438,0.783585752759545,0.78564806447273,0.783246746093357,0.783293768027418,0.780394014166866,0.780653109143762,0.776679750940441,0.778835459174214,0.777505153264939,0.778723215421628,0.777824814508457,0.778100188768892,0.772877415594535,0.772365842101822,0.772396734780163,0.774630749611286,0.775710752483178,0.776414658888753,0.779300164048594,0.779761936443604,0.778567836867905,0.778249571895477,0.77640580013151,0.776560321866292,0.775464930875766,0.775050700001592,0.786289516399946,0.785825978534381,0.784775924782617,0.785399057132637,0.784802659210433,0.788157194986375,0.78793271057557,0.78734672691652,0.785253485100732,0.784315578978258,0.783074779142657,0.781829225623523,0.781596870931241,0.778522352219967,0.7799168043759,0.779747516574023,0.779750353732814,0.779228593447412,0.777674224844805,0.777747561811319,0.777592404160287,0.776178957614688,0.776320738689068,0.776730252648624,0.8790934459366,0.77659399727396,0.776612304307701,0.77200118443937,0.772349135487483,0.773570778438027,0.774490508626394,0.776816962508981,0.777084178354096,0.778567682656487,0.780234452322886,0.781722100043311,0.782820235188043,0.781072297070319,0.78330700563733,0.784707739657769,0.786327700262066,0.787162014227696,0.786830023885129,0.845965323327215,0.809822978440377,0.810012657609155,0.812031139716217,0.803102791544729,0.803734466911106,0.806136863297931,0.805646088660325,0.806161669453102,0.804128257262828,0.804154199848555,0.803425626297258,0.801396691123249,0.801424281769557,0.799151828653719,0.798735856638972,0.795705798453784,0.79722185239694,0.793303327383582,0.79526022865514,0.792630031011337,0.79217557932337,0.78820159558137,0.787885660444304,0.784306853488396,0.78392286553931,0.783443440513773,0.785926744495565,0.785502785032132,0.785940483288247,0.78683818542744,0.786865041966644,0.787800396425917,0.787278612073321,0.787405558264857,0.800790178464713,0.800122629601203,0.797947636697851,0.799200933514327,0.79754976568873,0.79964280797514,0.797762318926167,0.801320442386225,0.800539579333758,0.800734924374608,0.79949803680139,0.801128841671151,0.802020902155244,0.803768718434177,0.802242651629998,0.803158418251168,0.802222293422787,0.802911453295972,0.799963668556032,0.801581178001196,0.802468428558868,0.804206794587619,0.80460800908519,0.80569672307135,0.828907501323965,0.969203177679706,0.784306821912354,0.785351964288414,0.786816279164015,0.78583005641926,0.785363126997357,0.78660991094374,0.785949341294594,0.789545265757414,0.790376854400635,0.792287119601244,0.791414870502492,0.794483050819013,0.794594394327162,0.797867747373731,0.79820663653205,0.802343968564739,0.802261385545479
0.770661942223879,0.754292582870899,0.754093335927945,0.758387197040506,0.774091169964497,0.781713559800988,0.782468770738647,0.789305238882304,0.798185616776134,0.797202633699697,0.796103875813226,0.792760505532161,0.792430791063283,0.791285951214877,0.791140362487478,0.7885915299221,0.787967765622264,0.786445247809747,0.786451810007419,0.785151434081478,0.785679013416873,0.784582785667774,0.784953047617973,0.783368116820461,0.782934107731681,0.780975354838217,0.779657313022834,0.77876898372069,0.778717655787491,0.778010039954886,0.778211253279844,0.777414744773162,0.775997885600142,0.774610755460573,0.773336489921422,0.773309573258685,0.774813980879755,0.774828725042703,0.776718443067103,0.777676690124502,0.778200322267645,0.778477404446818,0.778362429368677,0.779040537740932,0.782679731726065,0.785272384494824,0.786077793025111,0.786356808217232,0.78650328732261,0.786017364436862,0.786588653921315,0.787512932783541,0.788354624013986,0.788091119513959,0.787317045817705,0.786633905984161,0.787137965848144,0.787037258150755,0.786402219328689,0.785957909501722,0.78601177442723,0.785882741503592,0.785170809837561,0.78495985163507,0.785781367169165,0.787455694724528,0.788650954384964,0.789047366125596,0.790303279872891,0.793302652862717,0.794720949175513,0.784086509180236,0.779000380732808,0.772169128275767,0.772477480759707,0.773145688099442,0.774899766566573,0.777025719775734,0.777630256007773,0.777748496153392,0.778558625593633,0.779546651600725,0.780823711911244,0.781405374688122,0.782839798466538,0.78571607025019,0.787851587283841,0.791441492138978,0.804562841904832,0.813559604434716,0.812538054944882,0.812312939839922,0.811789121626633,0.810507183334752,0.807933771801465,0.807120964687053,0.806913633119158,0.805693198726023,0.803681232081667,0.802870426480574,0.802150595925957,0.800760374685359,0.799001083086998,0.798619596902358,0.796940546504876,0.797247330921451,0.795675069118092,0.795782222478037,0.793367082637407,0.792917748044663,0.789844457229445,0.788896604217497,0.786252697762114,0.785733164558338,0.783986332230742,0.78432384580832,0.784163689902715,0.784460192728454,0.784898922966713,0.786861063598214,0.787994508710781,0.789796961083114,0.793310716072552,0.795797075537499,0.800191738488631,0.79956599455762,0.799594920363563,0.798770170949732,0.799845023530787,0.799163285831807,0.798927795323496,0.798755984395978,0.801036385824195,0.800537711258706,0.800972265436753,0.799323196921087,0.800658402197416,0.800691537141005,0.801481396027077,0.801131435009741,0.801473977227046,0.800514991462882,0.800413293214721,0.800737872103664,0.803412336878751,0.804363868406359,0.805942124598611,0.807457119012916,0.81021111572401,0.801066393550961,0.796218463406051,0.79551206142397,0.793120694542902,0.7916255985587,0.789480031244031,0.787851342902657,0.788195085283871,0.789135109172743,0.791069902647499,0.791811928956175,0.793728950558364,0.794282494404362,0.796063191542713,0.797877045268381,0.799702882749409,0.802022441196399,0.804406028753234
0.764040286536748,0.755153522913152,0.755225172364681,0.755232263355133,0.775507455688324,0.781942093688754,0.783588121813804,0.797819970246557,0.7969077104246,0.797991718064503,0.796256698915513,0.791812757005056,0.790862300536655,0.791739981615027,0.791819489265315,0.787487973099401,0.786283421983229,0.787720690289751,0.786132988633884,0.78723507511897,0.785126725935567,0.786065905791761,0.784462504392036,0.785676230993508,0.785065399408313,0.785362844840134,0.780710695326975,0.779604441197898,0.778384044027098,0.778525050265298,0.777872382762398,0.778481421962718,0.777971684495315,0.776716854707341,0.772654580169276,0.773067776079158,0.77335874009978,0.786547059472232,0.786345358080395,0.77752325110357,0.7776538962421,0.78024345169455,0.778945538784397,0.779097266033802,0.785542890713838,0.785601261139265,0.786046444350432,0.787340361351092,0.787515126521701,0.786721638808476,0.786619060270625,0.78822462648191,0.788628911276949,0.790353368640101,0.791006995351856,0.791283421647966,0.789308358574541,0.788595908088322,0.791119364547365,0.788124798802798,0.78925787768817,0.788582401220108,0.78908882565751,0.789887594300312,0.790478516045823,0.7909455961066,0.789632089791583,0.787824642219058,0.78796036135549,0.793488381391296,0.793426098753999,0.791837297043036,0.791175030786994,0.773098571453013,0.771171236757189,0.773064006237469,0.775222971205306,0.777902959390602,0.778073992758726,0.776708695577726,0.776048096850557,0.777605273052167,0.778693759351657,0.780595464736978,0.781110823712881,0.787711125451432,0.793304771529203,0.792903355816759,0.852020532718885,0.812721909469511,0.812772802379868,0.81334881509688,0.811984456174655,0.812724414224918,0.885101835271634,0.791125722591653,0.888210733774748,0.799898628280397,0.801040237616312,0.80021366320855,0.797299734833226,0.796250947983456,0.798039719540538,0.79570366944843,0.797615397036732,0.795693238220241,0.797722097317969,0.79532457318082,0.795331690435968,0.790057222896068,0.790767603704668,0.785963820813422,0.786931037982218,0.783971698450126,0.784878272950657,0.78271894352859,0.782588351964058,0.781986056001798,0.781979691185933,0.787036062683717,0.787995039065825,0.791762963458868,0.801345696809886,0.800576678465794,0.799916293412109,0.800072056905899,0.798344575218698,0.799982066529673,0.799182935184103,0.80090384300491,0.796993429850773,0.796736381062494,0.801045552087851,0.802909066813831,0.80038361036608,0.798344407201212,0.79759653797659,0.799586388278875,0.799312713800132,0.800733535717002,0.799797501202732,0.799366836455821,0.798088607607849,0.800241144272812,0.803467907357733,0.805312889968062,0.805740288166664,0.807431892026649,0.809588697442261,0.799159086984618,0.795997140575094,0.794994566791293,0.793113020571175,0.791862891597963,0.790828371799623,0.78918887527977,0.788211985863741,0.78978779326452,0.789954519975856,0.793526869789166,0.794150904205409,0.79562406791015,0.795234862291774,0.800013516401193,0.807105272980478,0.806718855984055,0.805654914291112
0.765576957488774,0.766030863674496,0.766088819312739,0.773499272358976,0.77834385363791,0.783156920650975,0.787428268449942,0.797789678689974,0.798052931076382,0.797602440686748,0.796816985785685,0.794117822250805,0.792889611227807,0.791905550616744,0.791205697820247,0.78925299200967,0.789133736027763,0.788327318889905,0.788712158880919,0.78792260751596,0.787789553607329,0.786861031121674,0.787090969826104,0.78583863702023,0.785740341396014,0.784505908225786,0.782260684920924,0.780433089901556,0.779879488843803,0.779287519737059,0.779514885551454,0.779712180638414,0.780980460380121,0.782920248438984,0.784234500099539,0.785165994369812,0.786165837447626,0.786357171634114,0.785821012847363,0.783939930889051,0.782392351997333,0.781233137848034,0.781148232972615,0.782237941212466,0.784629038102972,0.785777296138092,0.785844798557747,0.786138400913221,0.786307085523511,0.786336690589027,0.78708201900316,0.788206668441262,0.790386589694646,0.791839483932325,0.792045043038816,0.791907273154577,0.7911204303331,0.79128285021301,0.790682243579702,0.789889593268815,0.789894977594471,0.790575047426828,0.790471716246638,0.790639659320785,0.790609274157551,0.791803262500715,0.792821497541743,0.793761488597133,0.793542136558948,0.792847475186685,0.792918289729939,0.792858419264403,0.792822272069016,0.778763842583134,0.779003476827764,0.77875566230282,0.777932201305445,0.778545041297384,0.778386598898663,0.777942333153976,0.778281515991696,0.779149375438172,0.780242107251503,0.781697407740011,0.785929094230231,0.787936793337894,0.796083763264658,0.797231672237138,0.810691234208459,0.811463253525395,0.811850453982993,0.811921464698333,0.812363664749696,0.814581644011914,0.799368142638358,0.793447327975361,0.79529804174827,0.79538089398503,0.794790352820152,0.795023588161226,0.795154047585264,0.796159826890455,0.795908587674548,0.796515467871891,0.795654669995852,0.79618515081774,0.794423908191123,0.794590567581519,0.792056717572013,0.791636647690439,0.788966455343066,0.788286771939969,0.786114067985084,0.785742721943219,0.783533547428023,0.784141311279544,0.783456628708775,0.782397236859062,0.782306025787769,0.788526528220339,0.788615091902333,0.795405955583994,0.801085855744506,0.800598277717394,0.800456607516349,0.79959064968113,0.800101729702022,0.798299170990692,0.799426742174702,0.799108419030282,0.798844717953326,0.798018103757415,0.799855886064298,0.799681607700549,0.799837602304828,0.797743591205132,0.798107045313231,0.797853062728307,0.798511986583535,0.798042073580912,0.798299678579845,0.79761172679216,0.797816892338845,0.801152760421228,0.804432685838693,0.805848202618674,0.804561975869986,0.8040690121213,0.802510394458088,0.799332812953364,0.797809600551181,0.795969163430167,0.794464153459572,0.792319725556875,0.79149927802788,0.790369347157874,0.790597562909262,0.790926808483531,0.792574759244699,0.793744709110456,0.795921260761162,0.796206589106964,0.797224125128004,0.802038800335098,0.806284701927018,0.806498515446912,0.806957575078194
0.764453610864681,0.764441859194237,0.764588392620402,0.910624866440437,0.894920354555785,0.794882137848073,0.793945323540361,0.796531734071117,0.796756303338401,0.798621346205947,0.798487962679699,0.798483785203002,0.793716160273631,0.79306047015067,0.790691404630554,0.790782930112928,0.790072428516792,0.790661405034214,0.789288184125844,0.791373653885312,0.790421815230086,0.791041878561514,0.787663182678639,0.787721233405794,0.785661564537131,0.784641691806946,0.782367218838697,0.781299328184657,0.780041761068033,0.780666257163703,0.779795282626214,0.781093492532747,0.78126941218436,0.783255933981051,0.784293405962299,0.785558273622771,0.806839811328464,0.794311377227863,0.795314428156832,0.794603043219211,0.787708235156348,0.781794809761522,0.782200329848507,0.783247766654736,0.784653248692479,0.785263543371772,0.785881685481314,0.784866305224076,0.785182703784251,0.785439202322498,0.786679464909929,0.787673930630085,0.792466212585752,0.794894804304952,0.796143135020633,0.795789304817705,0.797618011788685,0.804364279768902,0.80431538062469,0.796924595531968,0.795008910908397,0.792235358572275,0.791118459772047,0.790874842637161,0.791127518811279,0.795839371047278,0.797509306016307,0.801520695226257,0.800497291862619,0.799392513347021,0.798513504143493,0.794885534219338,0.825809507953624,0.778632062154752,0.77756807935507,0.77934382883661,0.778998583550022,0.778970205527813,0.778722077324104,0.778939362476829,0.779600182302519,0.780791337300007,0.78169033396955,0.783497169594924,0.78955502108328,0.789623066213094,0.798394449725793,0.800819051964366,0.808575660253876,0.80967284612767,0.80990662581219,0.808706252907349,0.808429111616808,0.962421590789493,0.789861116090281,0.789353994135518,0.787148124314532,0.786751674693427,0.79604847947882,0.794216779806668,0.794919446284224,0.794226739188646,0.796037247489309,0.79489825197728,0.796706514614989,0.794106623194997,0.794470235405038,0.791135942585553,0.792513840885825,0.789448446852605,0.790800670153626,0.786349634761419,0.788054582843704,0.783634618683662,0.78164780882902,0.843469969733869,0.843856568511579,0.780997505739568,0.78193108096812,0.789581563882987,0.790932555251946,0.801393774375448,0.800284715091586,0.800455725127973,0.799112604683363,0.800872106788513,0.799693226207343,0.798232414301297,0.797048460245155,0.799690611975566,0.798981344079959,0.799308448694431,0.797933175626068,0.799400811730964,0.797623459312286,0.798275280692328,0.796479153036475,0.797504768354772,0.796916311793219,0.795821569839192,0.796097178501478,0.7969205638693,0.796674216638615,0.808710456610049,0.808537674176087,0.807080368140244,0.803673414307735,0.802110665140881,0.802583162705377,0.800766637256252,0.800229038209859,0.796539240452138,0.794523939172449,0.792738130241532,0.791232987253384,0.791529815155593,0.790894574317715,0.792907899229404,0.793118189738344,0.795165754614932,0.796861889206594,0.798008746231106,0.798735678086011,0.803831103158715,0.805718747056256,0.806684460054816,0.807905893920575
0.765331004000505,0.767151174249152,0.770506962658395,0.774714589310486,0.778204818071909,0.785069084898731,0.797730119814331,0.797719458990495,0.798434335993764,0.798165831662592,0.798273909731352,0.797908151758253,0.795952148234371,0.794647939290282,0.793135996966504,0.791741880565241,0.791298731145005,0.790322785533798,0.790642667181449,0.790597922190807,0.790921104713022,0.789009015183846,0.787951053577949,0.786183490634699,0.785626919036417,0.784137265617487,0.783378043082585,0.782116796721882,0.781551389943621,0.781224774730044,0.781576310267653,0.782186878023738,0.782813669767231,0.783039741332458,0.783689220507242,0.786808149534853,0.793902065602887,0.793550661587594,0.792366507310206,0.790929356944482,0.789414757544939,0.782335791483964,0.782216038343739,0.78334045367204,0.78424883956244,0.784405348400035,0.783677181600123,0.784065288520931,0.784212562813167,0.785847680812757,0.786495451094487,0.78833164146444,0.793899628447728,0.795183114444557,0.795469264461148,0.796095049958135,0.796245997791926,0.805072522066245,0.803655377415849,0.799749498604188,0.7939101845015,0.792588073751042,0.791784269860815,0.791793767255812,0.793231095501288,0.796125942488221,0.798352089848311,0.799878283363508,0.799582080398064,0.797636412345903,0.797086758913738,0.794767364767771,0.806348497719945,0.778531833381845,0.778711886821913,0.780715545490761,0.781294360086906,0.780186862933585,0.780499832920419,0.781840243321089,0.783163282824395,0.784972383836099,0.788598163109474,0.791670219387965,0.79360065517114,0.795804246945798,0.796913038665175,0.802229895570693,0.81054036139293,0.810649425477105,0.810597457897184,0.810476143778382,0.811397816723777,0.797109167250784,0.787962284285494,0.787044296903038,0.786175869538774,0.786373115726375,0.795750586011037,0.79486880962207,0.794256061624964,0.79494229119835,0.794268392416124,0.794898161378498,0.793512493807377,0.793490654451185,0.791797639018126,0.792381240442636,0.790736668151005,0.791089550859957,0.788699053970951,0.788038896264622,0.785164203861577,0.784662158844796,0.78241767325731,0.783446910048461,0.782975293227367,0.782187078731388,0.78215347495413,0.789695603960683,0.794232576786194,0.800581534255522,0.800474532885898,0.80089711777686,0.800821902490106,0.800085266745284,0.799477572466227,0.797453533177547,0.797823494722825,0.797909366545047,0.798773007578494,0.798293772403156,0.798993667130979,0.799733446804629,0.799805323818302,0.798510249814813,0.797829429864023,0.79639114487185,0.796160587719174,0.795543827857563,0.796171813102494,0.797104240125954,0.797571289336176,0.802064267085386,0.801457112367143,0.801849278432588,0.801572532300607,0.801877610013591,0.801070039358364,0.800616112596708,0.799652909464069,0.797881187283666,0.796509403764841,0.793476354794767,0.792856154221082,0.792432550894961,0.792880756605803,0.793388667401559,0.794944699043009,0.796846800146529,0.798986244636678,0.799692028493397,0.800435592615865,0.804685186300288,0.805466299105369,0.808361837479014,0.814964428001357
0.765366533570805,0.767012140322039,0.771747281672895,0.772156923933407,0.775340825667129,0.776854504584803,0.831232693439642,0.797640335347919,0.798157471081728,0.79845512603151,0.797009953164337,0.79808950690278,0.797073158044367,0.79713884106246,0.794541437040204,0.793223321543849,0.791362255977186,0.790628415196181,0.790247349815159,0.791994514365951,0.790343063240017,0.789038136596661,0.78650497120971,0.785823878565821,0.784389153107783,0.78470939861326,0.783426812784534,0.783474265344934,0.781865620213143,0.781797236267781,0.78253286660337,0.783883430058221,0.78397055207056,0.783178646966489,0.782129466460879,0.789743631155437,0.792106221293553,0.792311941630841,0.789856205384138,0.789244020490897,0.789741345798582,0.782823180387925,0.782956076966909,0.780156506567766,0.777397186454714,0.778267224444078,0.7813616965904,0.782268191292741,0.783392049854743,0.78536845328052,0.786801960123877,0.789756587144218,0.795082753179906,0.79531461096017,0.795740915460419,0.795560478291161,0.795386972467746,0.805896000278129,0.802737436182037,0.800828739172532,0.793048470312242,0.792581314972895,0.791933932707884,0.791439591707338,0.794165008083038,0.794884319164998,0.799556080665024,0.800416994877283,0.799905722737408,0.794218038928348,0.793112808433837,0.793598123770033,0.961922234035107,0.779213696207626,0.777663298469648,0.783247813342631,0.784644418298715,0.790656085602324,0.844953023953727,0.800879640563607,0.876717474282666,0.793397736010779,0.849795786696253,0.848716535669112,0.79797675630963,0.796880807928067,0.797001164512333,0.803273471214804,0.810237155257189,0.810103444638535,0.809390571000957,0.809049303912698,0.895926601044134,0.792374431606989,0.78602626785492,0.785064820271461,0.784600968449346,0.783096338994087,0.795229233638983,0.7925284470012,0.79388321664345,0.79380806660333,0.794743390682773,0.792979740107841,0.793384876499279,0.789708238808235,0.792060890242391,0.7903803517559,0.792709784497772,0.789412135935263,0.790636600882377,0.78695565709771,0.783774373686738,0.781450769308874,0.782480151200942,0.782003249442886,0.78203441581309,0.781606826162432,0.782155403829802,0.787255676736561,0.901202063529988,0.798640145647244,0.798946749775951,0.801170189168333,0.801352933810113,0.800648940421341,0.797880875998201,0.797552832191187,0.796427304200678,0.797645845952114,0.797533022626301,0.79827574512405,0.7988960453565,0.801684726783568,0.801509614271326,0.799767871986655,0.798933456250383,0.796094142633917,0.795079029879535,0.794471003507222,0.796268912708878,0.797853233042286,0.799950664103992,0.801633059397543,0.8017258178225,0.800761624598061,0.80182562638881,0.800481503050346,0.800700253676505,0.799855436951006,0.800134122987068,0.799257248092943,0.797208471062464,0.794614241910716,0.79290164032835,0.793124617344723,0.793080283768532,0.793563065801817,0.794879379678418,0.800232538792221,0.80116413513799,0.802437609459132,0.801197854755766,0.80641017002358,0.806796245836767,1.11106076663138,0.821989119692171
0.778314780761636,0.778879089948252,0.779736760395009,0.779746523856016,0.778911158001993,0.777960750972377,0.782052316951557,0.788534896254639,0.800722960289213,0.800312830163873,0.800006620647261,0.799444772748421,0.798096356807796,0.797103710801949,0.795993606422527,0.794606393844668,0.79243924986565,0.791426346748372,0.791510396905573,0.791322690705202,0.790945711467772,0.788972422226774,0.787820852386826,0.78638455123753,0.785792634140286,0.784654646859559,0.784251750340321,0.783916420655393,0.783848602950075,0.783936194473626,0.784485569433137,0.785010537743262,0.784747149659356,0.783214060785819,0.783498884137434,0.784207258811845,0.782947986953811,0.782811699300417,0.782717229701557,0.782334166917679,0.781277026080064,0.781727545964596,0.781719855015221,0.780279625466857,0.777416672015957,0.778564666469441,0.780167023136543,0.783021283250542,0.783852501748147,0.787195440927936,0.789138315989939,0.79159723687125,0.793564881803551,0.794341350590873,0.793939445855784,0.793718088299306,0.793591223708571,0.799220465814452,0.798799977918371,0.797835497604995,0.795223683322282,0.79397720482025,0.792989630438396,0.793396494857735,0.794898228503289,0.796108653186506,0.797435300521396,0.797201109633537,0.794186814035427,0.792527485200621,0.791270996967218,0.789742971236677,0.788026688139878,0.787973667648467,0.790143270931319,0.791162660732322,0.794045937903008,0.797512626202742,0.816285956516675,0.815197764354643,0.812571597593091,0.811872397465107,0.81051478155927,0.810252454097024,0.809724167181149,0.807862277809646,0.808046246747199,0.80964002482453,0.810349393786171,0.810893392207813,0.811796818715235,0.812850405686746,0.79838695012298,0.788091881094968,0.785372497316621,0.784414260780327,0.783702282592106,0.78381681359464,0.786094169188409,0.790969510557368,0.791661841966412,0.792875757280559,0.792321595168928,0.793035320584123,0.791843350001847,0.791942511091214,0.790263381316861,0.790615495986869,0.789021663302677,0.789691018985525,0.787823273512415,0.787337503640167,0.783773534658869,0.784127719396275,0.783538104057439,0.784266757067312,0.783277695983809,0.782551411550247,0.782497641065107,0.785384471944107,0.786519103089835,0.789330457786926,0.799186432195498,0.79961644521023,0.798795225668526,0.796977459004793,0.796844662086325,0.796658885343885,0.795916426695133,0.796287538922481,0.797318332037175,0.79819125066723,0.799164606549854,0.800071113355762,0.799724316635201,0.798978902447224,0.799045606966253,0.798763740524192,0.797831007791093,0.797277150275819,0.797651275349993,0.798938166746441,0.799434667547278,0.801000668632009,0.800513534362106,0.801186691047307,0.800643210975175,0.800608692684501,0.798861521251782,0.798394244738933,0.797932289661808,0.798189526196158,0.797155746640229,0.795369170429392,0.79460528840377,0.794867314954324,0.796375088333535,0.798544790720111,0.799807382322236,0.800631394288969,0.802985758256497,0.805909538958083,0.808025372262312,0.818038874653441,0.82138383768919,0.837331599077885,0.836314249377761
0.779615264126896,0.779613383392703,0.778896223440247,0.779085376918347,0.779513027313279,0.779244899261201,0.778314098230018,0.778129972905166,0.820543552189628,0.78616511842668,0.788676914423745,0.788824558361809,0.798044797758703,0.797354390845403,0.797101693411063,0.797311627265927,0.791881568080479,0.792313746388266,0.791707618817086,0.792415693374234,0.791506272493703,0.789753152276193,0.787790693824083,0.787605799475248,0.786434360850005,0.784919086197421,0.784251786670843,0.784527148974773,0.785556833060215,0.785458937275818,0.786940236466889,0.786701814940347,0.785755896140632,0.782685309719544,0.784497153656463,0.783758363177928,0.784095644289257,0.783184795377504,0.783740134814401,0.782072563564136,0.781582012787822,0.780470026758271,0.774865652041791,0.775211686216754,0.776629234302516,0.777206106376915,0.780518472340217,0.783268343944652,0.785841417120575,0.787991187496743,0.79192512818318,0.79306368610472,0.79386934522865,0.793594213493811,0.792934004666466,0.79145905228359,0.792002487184514,0.800051208765128,0.798299004497409,0.796503094888376,0.796276334415067,0.793731270784378,0.794021637931782,0.793795750016898,0.795949757180397,0.796639880910972,0.797274974497297,0.797827717238173,0.790631586196589,0.789761187234868,0.784613496644278,0.784208378683079,0.783481613275987,0.784557309839317,0.790263097445137,0.790979797807513,0.800143978022471,0.805997110129076,0.815779339056738,0.81386539685003,0.809682305020014,0.80916943020994,0.807119016022741,0.808549423989759,0.811258304172836,0.804842005166194,0.804843565963321,0.813835305763213,0.813265309019062,0.814833817155796,0.901712148573474,0.902077269641197,0.785200861040532,0.784815539627795,0.784280438802116,0.782187411698214,0.782380226483818,0.782823898086803,0.783855559296893,0.789811478122227,0.791095444661222,0.791060568486658,0.791949953740604,0.791291962615504,0.793284213803328,0.791245562566091,0.791523301946541,0.787444336333465,0.788772077330873,0.786391458494152,0.789195075158973,0.786745429686351,0.782736752643587,0.782881791864312,0.786722507068794,0.784788783534983,0.785019885652295,0.782195796465447,0.780079974264989,0.779441070990858,0.78071423826512,0.78683841761871,0.796989863474131,0.798556793803261,0.797669305574797,0.793863987941302,0.792475792932466,0.791295727687559,0.79345593315476,0.794656245684803,0.797067043516841,0.79803236671418,0.800297709996033,0.798950303489954,0.798307910170147,0.798147161555724,0.79924850024843,0.801042099993325,0.805203284195992,0.805554877272255,0.799765420684318,0.798981993607206,0.800239974356411,0.799739951052808,0.800727221462083,0.79975216595159,0.801378704052955,0.800270494576797,0.795396180789826,0.795415111311776,0.796570720977293,0.797400948469725,0.797148891596001,0.795985953366102,0.794777884242074,0.795394665616883,0.922882458717088,0.922490490512032,0.807293403542673,0.806691978811112,0.806113351097272,0.807649659235707,0.808356333800132,0.965699626257802,0.870699558037635,0.833372370598381,0.831928680626558
0.791355163653617,0.790249867084565,0.788536061433234,0.786086792760572,0.783463227510906,0.781899813250779,0.781261754648407,0.780882428168097,0.782439635206007,0.784800944902525,0.786851819404629,0.788140367355629,0.798397776878098,0.798240904601634,0.797574417479959,0.796746998131519,0.794571367426167,0.792540864201,0.792384848103128,0.792019012091847,0.791306037052484,0.790008263511784,0.789119023935507,0.787897983786805,0.786911559102499,0.785871973002776,0.78563005868673,0.786163064086459,0.786820714521951,0.787732575308932,0.78839689021994,0.78892397482158,0.788519235733931,0.788208440819189,0.786913422416939,0.78626615009044,0.78463635712444,0.784657683000354,0.78367201769656,0.78329243022654,0.781496435992897,0.780307502026608,0.776864905628187,0.776795372933983,0.778313938678189,0.779393276803161,0.781741417660311,0.785023628775816,0.785803003785792,0.788239441920828,0.791462350631872,0.792596368971203,0.792538139516479,0.792648141615685,0.791694240476888,0.791274532032446,0.79137292362426,0.79191290876377,0.794351762203195,0.796483082928776,0.796529272796632,0.796339488488665,0.795810461923105,0.796296350665504,0.79669101160718,0.797371675299357,0.797007506622377,0.796350475587833,0.791019203505479,0.788234186950982,0.785893866875536,0.785288579016458,0.785510693250574,0.785850447978618,0.792764261641384,0.795755098869944,0.800955504748062,0.807260740362386,0.816354025331422,0.814971596758664,0.81373626613733,0.813208524403403,0.813681917614006,0.812312896822405,0.812797527392482,0.813509626438352,0.814444203365117,0.814177211829286,0.815391911884734,0.80537442600093,0.806109283700898,0.805356690092928,0.786214309260335,0.785967187511632,0.784279562298864,0.783557522471319,0.782467930515756,0.783277926426934,0.783956608333062,0.786768977226901,0.789700300273051,0.79053879217669,0.790521091467135,0.791476906448711,0.791179410699128,0.79152923796482,0.789739543063221,0.789553981491388,0.788478396881694,0.790010561457405,0.788548820798043,0.787874299649824,0.785593058195152,0.784702565845424,0.784594736091435,0.785899914660172,0.785163781995882,0.785054385627071,0.785832354359267,0.786474177895866,0.785721356970073,0.78608357019737,0.785639226893006,0.786494398753604,0.787991995669761,0.790256121445282,0.790794329511912,0.791558096820096,0.792941237155945,0.795317983841779,0.795942151493645,0.797069607215982,0.797330000571846,0.797580191407902,0.797500693054854,0.798026845174187,0.798738888418788,0.800168088321489,0.801930640230342,0.801512895321295,0.799860761288225,0.800197284705489,0.799511522025226,0.800539938801463,0.799483402880537,0.800487678421378,0.800099246253439,0.800408685324987,0.798135145082709,0.797766974915655,0.797404879808332,0.7987932885179,0.79918537218048,0.801338589854487,0.803603856122365,0.805154897378995,0.809688545022187,0.80969789783892,0.809276960873948,0.812176094047538,0.813435227107897,0.813884468301244,0.818527637896679,0.833428614004246,0.832588500591224,0.831139377654669,0.828975932238709
0.790001275710057,0.788778953156403,0.787304496656372,0.786920864796578,0.784818445879347,0.784046341430471,0.782996665261704,0.781933952418134,0.781729251699596,0.781774653843275,0.782772668025531,0.782985747303421,0.798050324926265,0.79827930976163,0.798123022535162,0.796837236956326,0.796738875146006,0.791964335366615,0.79289341399464,0.792539207410275,0.791064040542672,0.790546503272809,0.790127278816848,0.788437479312852,0.787158575611081,0.7860597536498,0.786482396483977,0.787126047118362,0.788462948663864,0.790248686374041,0.791283409505239,0.790465599560579,0.791466964922877,0.791138165062446,0.789961395495241,0.787316636148487,0.786203769630933,0.784637920844183,0.784945618165667,0.783085047330437,0.783248061105117,0.779826820395437,0.777186978760271,0.777477520815829,0.779693408253413,0.781709808523608,0.788112595222851,0.78682198385546,0.797187565622934,0.794697913798644,0.793931001291784,0.792298115068919,0.792137841642759,0.791873420284453,0.790586266531935,0.790191185009622,0.791006056076967,0.791059408329044,0.792994893666246,0.797482108088019,0.798458095845878,0.797741124664364,0.797977966158095,0.797469500816021,0.798436640552333,0.798384984503048,0.79676159617767,0.795442750137399,0.792685987537424,0.786963543407935,0.785302385094983,0.786006542723439,0.786464638609562,0.787235568825699,0.923528121804103,1.02989113162003,0.816546233117597,0.816321226093356,0.817067132547252,0.818551379539205,0.816435431434778,0.815025595864803,0.813274620311866,0.813724154221406,0.810880516134938,0.812500123222721,0.812411810912762,0.812787958823827,0.900146971032817,0.800496534178635,0.801458495036773,0.802119084075788,0.787737693529729,0.786677447919643,0.784934149420978,0.782594037306823,0.7820328510458,0.782298063274333,0.783634306846062,0.78304127706373,0.781684683938247,0.789617740575308,0.790277375893347,0.789879334753024,0.791932463169336,0.789905548659373,0.790873357150673,0.787637934286948,0.790825381747995,0.790772332854584,0.793230521490522,0.791355468867346,0.786564599781377,0.783317735048366,0.78470339877616,0.785034555254488,0.787612110002098,0.787707622899876,0.789190142141584,0.786641187543599,0.786555839368443,0.786255068366119,0.788168810342843,0.787209918173495,0.788182225143892,0.788945356207934,0.790689893933152,0.790088027511262,0.792854707112351,0.796009725852464,0.796005685378822,0.795362609683458,0.796762603103218,0.796268479561825,0.807095727204859,0.807963838617103,0.809243228481901,0.81151835832091,0.801871653425113,0.798791275095859,0.799813974045302,0.799328732291812,0.800763729118881,0.799445015268674,0.800235545202166,0.798634643994063,0.80162123287233,0.800000322995029,0.8010273041229,0.797587271347896,0.798973024844107,0.799003824336152,0.800492888216097,0.800741669488172,0.802431520981207,0.806528546979443,0.806652751053679,0.807057018203984,0.808113022142876,0.812383242076968,0.840323080288255,0.81498983209708,0.997883974492112,0.829952557635731,0.829044225507227,0.830061393256876,0.827116475299161
0.790548883268404,0.789766776818451,0.788716503824901,0.787363945571881,0.785834162051702,0.785088115893981,0.784750650465844,0.784143006635537,0.783953451808909,0.784005116958806,0.783928929357934,0.784041660918194,0.791120156355392,0.793346241305194,0.794960899560523,0.794939208590222,0.794504545987484,0.793095191081561,0.793373818055777,0.793143350393538,0.791252529080789,0.790534524686839,0.789758454843458,0.788908004988276,0.787955012460153,0.78785695934703,0.787815112869717,0.788518001080534,0.788767567747707,0.789996951640317,0.789990608732122,0.791068148313977,0.79057704147714,0.790722749632306,0.788997830088306,0.787128083325708,0.785253975111616,0.784987476127632,0.783892896810571,0.783727394799343,0.782446503092622,0.780064878907637,0.778016749925182,0.778230697818155,0.779668630498465,0.783733070890486,0.791036980598443,0.793573602503286,0.795202494854154,0.794859761121657,0.793265235212624,0.791659163957023,0.790781239759612,0.790575982279669,0.790805333411293,0.791340921837733,0.791998904406204,0.792652040492326,0.794376307862295,0.796709586329495,0.798466353753083,0.799339454675967,0.799424435054371,0.799222184569734,0.798858599234118,0.798415210697054,0.796986454629281,0.795943156725985,0.794937002120106,0.79577511028504,0.796184944990291,0.803251103524615,0.809536964932956,0.813357552345319,0.820691403981157,0.819343278909588,0.817925208835112,0.81752074350902,0.818196914801119,0.818425280864046,0.817470944220362,0.815734729746866,0.815507049105092,0.814248618635688,0.814002317249789,0.812972297153913,0.81322161464126,0.812246846582692,0.803380543800481,0.801036879286582,0.801907835900461,0.80325463237882,0.793065114097648,0.7888150496586,0.785343866894109,0.785068105924776,0.7829707254544,0.783199095856805,0.78327000766491,0.783225937405376,0.783743280815548,0.785682180826568,0.787371870672834,0.788445231197556,0.78919024580804,0.791001408451229,0.790756836262752,0.791311651909414,0.791030337079123,0.792664216621564,0.792380724982046,0.793160053298251,0.787886521682666,0.786346881329489,0.784528285891732,0.786114540460859,0.786403190173223,0.788285387385176,0.78763710469329,0.786888051058217,0.78624544841965,0.787208313003308,0.787010004898511,0.787840310348018,0.788046125662616,0.789782655332128,0.790171074049685,0.791483112426415,0.792050029665845,0.794179556668127,0.794824580580724,0.798016360389303,0.800812853462025,0.802830962378871,0.80674274469684,0.805082217597544,0.801867618774099,0.801413470018084,0.800627614736193,0.799441908812051,0.798644483826791,0.799573216411258,0.798967506929876,0.799942089820975,0.799077623630837,0.800254691899419,0.799987629609473,0.800868202829893,0.799474843033938,0.799541548360314,0.799037262483435,0.80087188205521,0.801713240302364,0.803693769343235,0.804829311573594,0.806681946294696,0.806695686550456,0.807845309274168,0.813069533336273,0.819148333177655,0.829747764780435,0.82849586430148,0.827435265232772,0.826718909676457,0.8248350014111,0.82129617412727,0.818659386434408
0.790716010823403,0.791160915602986,0.789616434242907,0.788456183011997,0.785692828875226,0.7857856828701,0.78599937025502,0.785540232177821,0.785739267886451,0.785709222705433,0.786400656729782,0.786060442725981,0.788441154958913,0.79338198495908,0.794000202139034,0.793005075786641,0.792956031586267,0.793039911178931,0.794761296814941,0.795291706062983,0.79053179109054,0.790086465054159,0.789995553888927,0.788944952241713,0.788617045319952,0.788604634606329,0.789671800612425,0.788819445985559,0.789913645431037,0.789138849906481,0.789982221636024,0.79059564049436,0.791608218463246,0.790168217691895,0.790076514248086,0.784895251223964,0.78492754005311,0.783512326698409,0.784827438918777,0.783244985867225,0.783357021834393,0.77944745228252,0.778343078923793,0.779275516471798,0.780767055086531,0.788237479952392,0.795144519003334,0.794400154581474,0.796000534062239,0.795146825590134,0.793049526171903,0.790168660241477,0.788723483892378,0.788998858001452,0.79029201667105,0.792602196498894,0.792744600789153,0.794125033278721,0.794685855320124,0.796682694353093,0.799339981805087,0.801220879843613,0.801872641454535,0.800579870798034,0.79984961556697,0.798523386408144,0.798142556559629,0.796124588167502,0.794792776573162,0.795060342216693,0.795342919870722,0.813995835392973,0.897835432508481,0.822374982826936,0.819683412835157,0.818720530621655,0.825936871919286,0.803932637025195,0.819441619180822,0.819380016556353,0.817254052886813,0.816639945962386,0.815731693404233,0.816453506032294,0.8145604518781,0.814953080940833,0.812097869456538,0.809388937555008,0.79970622207173,0.799956673656249,0.80139708100751,0.802824057283614,0.802538762070639,0.889056418600724,0.788017379995329,0.787539447085347,0.783123291049324,0.78268958667739,0.783880567442608,0.783901261972784,0.784344241183554,0.78362014773329,0.786135288934182,0.786016135455395,0.786138127734387,0.791817709335213,0.793030187844238,0.79193276898089,0.793682802303918,0.792162399006928,0.794565154996853,0.794143983734684,0.789515810308219,0.788438128557996,0.783144680395036,0.785011761444699,0.787355700620863,0.78762097805847,0.788103600445861,0.785331519727963,0.786412913750094,0.78721714419446,0.787342667725112,0.786909293731387,0.788867893198932,0.789355912475249,0.791440723096449,0.79106814315104,0.791882079511154,0.793207143787859,0.79314980891466,0.79940836471658,0.802487014880643,0.80847816596266,0.808244515063153,0.80495689511126,0.801140771645089,0.79619706650931,0.797159258093951,0.79674261313797,0.798618529372586,0.797888779186947,0.799292639770087,0.798102996021645,0.800377805840724,0.798849673549202,0.801627381506745,0.799693214109355,0.80066490770231,0.797947836593443,0.8003095740962,0.800068701863957,0.803886689315189,0.804759784259641,0.806586375529032,0.807113153288943,0.831163736273135,0.88756060543855,0.881456088793662,0.825083286126055,0.827379145552604,0.827650959621537,0.826102701576093,0.826353157550195,0.823888674753841,0.819931818814046,0.818108960789798
0.792555442930311,0.792171101581981,0.79143753002801,0.789972041690102,0.788684347692706,0.787870540750073,0.787404272479584,0.786788903909354,0.786358790334979,0.786455841517916,0.786899993016338,0.78789824852203,0.788601573274364,0.790081267652233,0.790078880159572,0.790974947583082,0.792219705135994,0.793955099900975,0.794891545821184,0.794905979208545,0.792626833662397,0.791819852175725,0.790553938268453,0.78959547934624,0.788580766357677,0.789273491129616,0.789616722767906,0.790359281407913,0.789748018448896,0.790722078110979,0.790899670110418,0.791829169325195,0.790819476820814,0.790476635988938,0.788935279663654,0.787296231567006,0.785526062394483,0.785548461354334,0.784944807512247,0.785571186041,0.786294018968299,0.788581634315506,0.79030161413672,0.791702434651769,0.792101283053576,0.791596040263218,0.79402528503142,0.795895206930538,0.795954050715296,0.795669751240446,0.794463446639925,0.791382670743565,0.790386344281466,0.790166081279152,0.792677863453138,0.794053954465826,0.795320154477614,0.795810291416353,0.797056550350609,0.798434536865993,0.800610854504762,0.801390099844754,0.802108364440111,0.801492470456565,0.80124233647382,0.801290771378937,0.80234216304622,0.80262144018645,0.806111546929789,0.808883980334945,0.811632439497112,0.815580381763335,0.818681630655614,0.820706461812502,0.820966118227584,0.823379636972192,0.825113951978818,0.824138755915643,0.82225095564638,0.821051768043391,0.819504099569145,0.816841835340604,0.816249812227413,0.815436006405399,0.81474386030926,0.812059325542622,0.811222664696673,0.81001585857332,0.801775753089467,0.801805919080425,0.802187670777789,0.80279203849499,0.803489802212535,0.796245044621118,0.788203134356354,0.787654126353243,0.785574588686893,0.784530055397979,0.784502830312754,0.784502666068427,0.784815017877921,0.785252503053344,0.786319726777642,0.787163049222307,0.78920531721079,0.79226764107542,0.792921534989075,0.793778952320586,0.793254308592643,0.79373789405109,0.792852562191252,0.792804212005553,0.790559923020973,0.790513751796882,0.789719041947714,0.788449518200838,0.786351713179788,0.787028840815083,0.786702890366831,0.786601430347644,0.786047624804518,0.786644690561891,0.786738253618219,0.787897874651379,0.788123800747182,0.789163731558762,0.789195860447248,0.790004243163449,0.791363010515118,0.794793106931477,0.797453928111827,0.800853325302461,0.803537040694971,0.805538719966366,0.802975289452263,0.80180222343677,0.799915190422525,0.798726280356245,0.798177566529205,0.797921140425943,0.799446536538295,0.800404856148157,0.799710734210381,0.800668448938904,0.800455329254867,0.801750030626985,0.801212910239181,0.801588386540542,0.799931943641047,0.800231867855749,0.79947947085038,0.800993738442691,0.802025438295391,0.807000519259871,0.807715000529158,0.809243604921536,0.830523780382131,0.863541152768391,0.851266580207636,0.832872603947514,0.830119922058736,0.827585534830938,0.82647672126401,0.825308958932377,0.824363986620314,0.821796606203306,0.820754300976817
0.793603182083196,0.795344530488594,0.793686249480679,0.792990109716739,0.790744029182656,0.788906889884334,0.788658130040191,0.787463194475676,0.786015289380453,0.894339935227778,0.791951914455329,0.790896754703919,0.788348588962622,0.788696406739265,0.788225087264068,0.788380282289563,0.787773312715262,0.786349968871669,0.796664523013985,0.795964428632954,0.79408772713092,0.792835243392509,0.792167479783478,0.788589560649175,0.788492671821831,0.788480888978712,0.791123906667212,0.791011513475687,0.790477600392403,0.790398345849246,0.793986093533664,0.791983400966502,0.792283356084777,0.78938629214743,0.790205301478987,0.787538507589255,0.786964531958494,0.785233328487671,0.786952417957028,0.785433013064675,0.787584138686696,0.789032935155845,0.789647813929816,0.789859418508138,0.790976275564098,0.791801749348574,0.792517492603666,0.797042819950073,0.79677936592423,0.797091368791042,0.796974302178943,0.792126375252316,0.789871896942565,0.790766170500382,0.795463790076961,0.79676274452986,0.797095579815762,0.800261295283435,0.800480735296342,0.801465481974076,0.801221700874487,0.802893865778571,0.802612144962473,0.802670525883147,0.802239625595531,0.802195764150779,0.802987298257564,0.802438713331053,0.873831694322224,0.826273640096186,0.866870847748224,0.872818213964531,0.818748521627538,0.819868938329338,0.821127921186213,0.825328425974246,0.825789462151183,0.825187855450195,0.823594867819414,0.822877714942945,0.822487574267571,0.815318042741203,0.815426739916083,0.815080691404502,0.814020395739265,0.809245496402163,0.808384983799006,0.808557091826272,0.804545923179404,0.803570219892822,0.801995025293804,0.801184582849004,0.802593594865714,0.791782535404465,0.789387969555973,0.788083760705509,0.787279385073429,0.785080479443989,0.785023238108491,0.784918183563746,0.784954904965865,0.786505538233891,0.786418888349872,0.787238208309454,0.791545387656086,0.793347632868666,0.794575783263711,0.794307304181621,0.795076362080781,0.793080121564899,0.793790351300573,0.790966647924472,0.791797015404815,0.790771733109031,0.790956632627948,0.789039234682206,0.786078355614267,0.784742433366389,0.787469075189415,0.786163307726678,0.786585128252143,0.784511431674571,0.787151747802554,0.787520707294619,0.788754979675867,0.788355262555959,0.788194905610265,0.788602445869317,0.792549754899887,0.804453442470516,0.804347785644142,0.804668884870559,0.805479509961932,0.806464928175731,0.80008449513113,0.799695845898108,0.79996971330461,0.799115538178027,0.80026065277689,0.796210487371637,0.786362119057022,0.787847299332746,0.799925967780081,0.8005137397043,0.803013126121439,0.802121910428946,0.80443523422472,0.80081086119291,0.801869243705652,0.798807462642491,0.799871373728585,0.799109459006547,0.801673901260507,0.874921400795116,0.807320660879529,0.81232634668182,0.829503309636004,0.961664501516714,0.833900179080495,0.833954239418269,0.831653815490802,0.825280532711896,0.824947651632348,0.825532033962162,0.824062559579232,0.824007566425166,0.822200028011455
0.796081388196193,0.795711304516266,0.794559350682636,0.793951496509661,0.792301937167832,0.791623554160318,0.792791558504773,0.795785852296222,0.797261981698024,0.79725987165665,0.796356968835653,0.795300838419279,0.794259848855886,0.791222516176251,0.788400582557946,0.787413479123892,0.78719527575432,0.787253776619352,0.796735352252885,0.796543149978971,0.795571016782697,0.794794942053004,0.793253043551073,0.792166309874267,0.791318075596582,0.791349841380143,0.791501621662682,0.792217609321566,0.791573377573224,0.792468915027528,0.792612741322553,0.793134469436464,0.791503849780508,0.790720693526627,0.788873941302814,0.788488822335431,0.787132109446596,0.787571495587484,0.787026782458867,0.787921538445211,0.788336373502982,0.789960745178619,0.790175204028709,0.790849954388227,0.791635493264113,0.79279922982612,0.793227443612064,0.795150619432067,0.795774170612426,0.796017416612667,0.796279455119172,0.793976307175757,0.793911330735725,0.794488193820717,0.796615047021669,0.797332993071858,0.799084603221055,0.800279406664995,0.801642133785515,0.80167060259997,0.802609904167837,0.802971315367207,0.803692121933382,0.80448826828538,0.807946653278226,0.810032022647642,0.811099621994548,0.812891808165777,0.820646937596725,0.825943852850866,0.832943945807534,0.832925254690672,0.832771385799276,0.83227754983405,0.830992961455322,0.828106683262993,0.82776413180514,0.827259915244761,0.825713276625614,0.825089846465359,0.824863412345402,0.816305331204227,0.815619553218933,0.813320892733942,0.810935621907734,0.808720245412006,0.808202489017558,0.806927226544877,0.805175034930454,0.803582144221486,0.802460960040516,0.801640040177947,0.80084418832536,0.789903061051724,0.788846707342374,0.788073835244715,0.786983451672049,0.785218549946698,0.784953854203833,0.784450324711204,0.785236302151311,0.785834433717215,0.787015008754337,0.787794578975264,0.789791740483926,0.791301155785417,0.792939448249636,0.793872098739494,0.793602012430214,0.793923736392508,0.792676908984084,0.791884906753411,0.789586722255562,0.789872883339582,0.788885486250972,0.788825463380038,0.786972367623994,0.786719095734708,0.786667264649851,0.786899109523646,0.786605789789627,0.786730452755675,0.787326820851779,0.788471217470163,0.788945884354875,0.79065452131594,0.793514120302731,0.79589742414168,0.7975452716881,0.806030430914878,0.803573641761692,0.802336857186294,0.799712811036839,0.798594951746548,0.798692700935726,0.800048443607689,0.799668231129419,0.798478840307193,0.798116185928499,0.797459978009237,0.798979210580356,0.800487029591962,0.801194426203799,0.802425043729114,0.802937640167829,0.80405910924844,0.803124430938606,0.802673077924331,0.800040379098484,0.799494781001953,0.797852294397243,0.79862145631689,0.799094014678965,0.80882989190386,0.808285340038517,0.811923382176689,0.826086942314753,0.875664323379233,0.832672629102713,0.832476011867073,0.831097983505079,0.828882810999426,0.827752673644497,0.826946887728315,0.826259062803091,0.825639462832605,0.826385421428697
0.797826266141706,0.799785524593756,0.799709433258557,0.795181464623324,0.793619679226838,0.792397080188863,0.792678463002658,0.795231156229361,0.797181325366779,0.797245062842144,0.797883046582038,0.797241829345754,0.796268307580451,0.79564764166108,0.797966957229503,0.799059989220385,0.781469334143591,0.781580835103238,0.796145509584721,0.796748002941777,0.797040514357226,0.796443089376761,0.796677460321683,0.79330863263381,0.792886455974668,0.79232380022032,0.7933970344857,0.792539948515319,0.793581724665087,0.792636945744728,0.793696641160097,0.793447651846837,0.793019230618757,0.789922989227161,0.789210784858851,0.78726385644199,0.788728634991367,0.787672336552789,0.788708604695071,0.78809515703798,0.790005751322498,0.79019384128778,0.791029190430687,0.790609342822949,0.792630037071461,0.793833614084847,0.792823886571819,0.79497615431193,0.794912070870715,0.795720075420899,0.796714770365386,0.796016681078814,0.793901135695781,0.796081644657657,0.79666815872218,0.799410063242614,0.799561431826769,0.801239241023108,0.801425037950812,0.803285729640888,0.802486024345056,0.804440111207386,0.80375569465728,0.803936452391024,0.842871289979061,0.815658111469236,0.814852643502985,0.815584589477055,0.817622524100963,0.824782952171576,0.830492285375967,0.830687736658487,0.830717558332355,0.830859864876445,0.830938165960465,0.830960515784779,0.829518918511306,0.828484189223564,0.851630907041724,0.907331772413634,0.843026023194862,0.804479986243293,0.804959698855629,0.808600402388501,0.808226941893869,0.8084434683541,0.806837877895426,0.806705549217733,0.805102326754123,0.803426299855984,0.802048804863335,0.800557078438573,0.797966377106941,0.790903546161833,0.789157442926273,0.788532630855174,0.78667422878073,0.784832602434358,0.783539784207181,0.784259955073787,0.784168198051372,0.786009655975333,0.786715207026584,0.787968163726651,0.788001322137786,0.789555807462004,0.792357988929061,0.792998016936884,0.793779790384782,0.793793871702987,0.793978760060612,0.790999585735921,0.788258715523612,0.787246341951849,0.788619283248769,0.787726009203036,0.788603043768312,0.786731872220441,0.787037898603062,0.786962594280007,0.787326679008551,0.787303575064941,0.788361795583151,0.788862010418297,0.790097412313279,0.790576232563569,0.799344229684803,0.798095167791814,0.799282060221473,0.807028702081402,0.80299573364398,0.798506484719532,0.799175192590596,0.797680805845096,0.799318663131281,0.800284522830748,0.801010932599863,0.795952298935118,0.796340106541609,0.796236004277294,0.798831576853365,0.803788333343494,0.803140926498522,0.802345340186747,0.804962444147327,0.803916194539118,0.805247403468401,0.803570857769772,0.798965434784923,0.796987922588218,0.79699038226975,0.795798798784528,0.797693761016173,0.805987562295755,0.806856232721059,0.810062789127482,0.821120747989507,1.03536794763587,0.831589651367054,0.831507621775631,0.831284365343638,0.829370817558362,0.829464166977226,0.828613646610539,0.827097236700843,0.826857219080497,0.827813990595146
0.799155682436523,0.799384449958268,0.799369009868782,0.796885176585718,0.795403075009646,0.794163395175816,0.794251337969975,0.795585550039266,0.798109208544895,0.798289175374533,0.797478566408098,0.79748172786227,0.798410481985175,0.799288859282533,0.799502378094695,0.799051991330884,0.798657218921931,0.797756555771148,0.795758397625848,0.795589729878829,0.795592136181789,0.795599729420754,0.795462497344997,0.794425110055602,0.793855969598037,0.793828141396394,0.793633710774668,0.794664728278884,0.794452923993421,0.794668987753674,0.793983343259224,0.794002421875549,0.792192363292875,0.791362799217739,0.789586147822537,0.789363215564828,0.789332879421363,0.790339325183193,0.78994760719374,0.790657535690717,0.790205082197889,0.790274536093305,0.79008038330916,0.792478736031386,0.793384828736062,0.793712459716373,0.792763010745872,0.79433948140996,0.795160495360587,0.795882594551788,0.797041655024135,0.796917934698291,0.797706556689214,0.797376338072101,0.798424600431917,0.798274272092022,0.799451841449944,0.800979018841423,0.80241332291148,0.803263538346122,0.804610100635196,0.805769526131549,0.807564478372356,0.811544280220931,0.821380827265405,0.821769867936147,0.823119837626446,0.824567673970553,0.825528249723812,0.825875196838508,0.8311346679687,0.83192084965251,0.831690452500493,0.831711524272525,0.831862842678513,0.831731253202237,0.832405062629975,0.821426274818673,0.81488041214399,0.813918217877322,0.808937862526294,0.803968917371343,0.805009841545067,0.806001664324419,0.807007825224544,0.807248955900084,0.807000362958665,0.805781180130989,0.803554715911021,0.802295483048758,0.801208107464113,0.800771999181509,0.79996856602217,0.788973250498051,0.788649239424041,0.786930944671863,0.78629257893066,0.784833093766472,0.784601716502507,0.78391242583358,0.784941356697075,0.785595496235442,0.786893812865672,0.787145857277841,0.787490761162915,0.788383894873851,0.790225428527974,0.792859238868214,0.793434672890166,0.793444228946691,0.791984406910184,0.790931821128636,0.788503790788331,0.788514732634682,0.78819307050268,0.788487259121704,0.788407661969532,0.787289600978557,0.787781840702525,0.788494284923374,0.78902486945449,0.789391033111406,0.789902635589172,0.791294163186746,0.794889016159102,0.797660576875585,0.798914540148809,0.799272032901859,0.798668514762585,0.798115619222947,0.798303149226416,0.798474056782525,0.797976132538711,0.798337064261563,0.798392294391639,0.798737812190465,0.797879220829282,0.796871443855642,0.797146580995255,0.798608985190681,0.799887419528408,0.802216652005386,0.802758806306628,0.803003451490146,0.804590046745094,0.805952139081436,0.805712829050724,0.804586528403733,0.799772511429015,0.798856694657114,0.795882159959447,0.795809115844843,0.796539541183497,0.80545092099878,0.805881470076443,0.815591197772037,0.855862702548515,0.890578353178141,0.867477850372986,0.831877969341659,0.831469470799893,0.830444106665884,0.828461955634937,0.827835126870978,0.827581375010954,0.828861542478324,0.829787912213232
0.800039465827558,0.800621742423255,0.799629875323029,0.799076574825237,0.795151287832641,0.795344328798152,0.794620485407499,0.795375711590977,0.800296056485705,0.802029637076168,0.804530251635794,0.804577044422871,0.802956966321931,0.801467610913407,0.799788081023415,0.800272084276348,0.79853083721158,0.797544644779351,0.794603477295846,0.793799579446248,0.793708003276885,0.794900056281656,0.794951572464555,0.794964952630201,0.794925516673037,0.794126511678226,0.795120448865624,0.796343259746745,0.796457631055221,0.795763973642711,0.795573628206727,0.794179590493895,0.792715369229433,0.791284862033929,0.790421903659563,0.790093350633887,0.791002669196892,0.791772725676281,0.793627945905387,0.792053090894347,0.791419106692979,0.789707817270003,0.790644281363829,0.792838008628278,0.79557350188504,0.79567901969278,0.788674582615708,0.78804097623667,0.787894575970612,0.79683904009124,0.797239876309906,0.79926925002792,0.798855981513057,0.800264696861118,0.798843652960547,0.797940585506597,0.79765615544991,0.801775497936181,0.802334298737127,0.804213523240271,0.805439568527925,0.807787096750277,0.808845016279571,0.816460915186029,0.820307216697053,0.820825199542428,0.821897354115446,0.827018471841985,0.827888159641121,0.827774975273861,0.830383504136726,0.833273386727397,0.831605261274363,0.831912069261047,0.831507194156421,0.830276011545749,0.917914406519525,0.818116030434958,0.812387225646959,0.812756011720099,0.803271799908822,0.804108702031617,0.804220670022499,0.804828228586664,0.805638885784011,0.806725463602279,0.80821017343242,0.804983985715105,0.802008484444574,0.800569348325495,0.800029230000065,0.799041788146534,0.799568746320686,0.789813391708452,0.788892566580656,0.786587857932366,0.784766134779689,0.78560191935256,0.783731659786991,0.78421600281367,0.783873299906766,0.786399888889287,0.786458574000405,0.787156928437195,0.787079546178025,0.786778051050988,0.788586325945675,0.793422444980098,0.794933548421091,0.792841862691556,0.791595739529117,0.78976980597966,0.788726994062033,0.788284312288813,0.788679040896489,0.788697127384063,0.789676171004061,0.786230388567681,0.788231375972468,0.790486337764503,0.791112503162085,0.791980407044662,0.790511069200128,0.792170947658478,0.795457656740749,0.79872409309703,0.799746826630941,0.800012287275166,0.799091663789538,0.798303911453119,0.797329936018044,0.797221513518851,0.797911756667885,0.797551987873295,0.798749133398358,0.796686623219192,0.796320027704319,0.795506181050649,0.798073891386812,0.799451744757023,0.801027906782283,0.801446705315321,0.803252299286588,0.812011373109264,0.809583051744746,0.809469616914581,0.808975690965282,0.804221895143154,0.800892629793227,0.799995150241295,0.793398368653155,0.79213912629827,0.792193409317201,0.802263923604412,0.803749893798359,0.828513881502523,0.945379006879098,1.00323459839666,1.00214997404843,0.833364577369427,0.832130700577782,0.830989398195414,0.826143230162884,0.825936431964723,0.827349641050082,0.830641881541455,0.83258514062783
0.800400027475291,0.800372894259563,0.800273602426286,0.799069111932266,0.798503363909123,0.798164032480643,0.79966613346851,0.800735617586348,0.802431740021242,0.802952280566031,0.805619247121149,0.805245691983859,0.80491315718178,0.802971292786679,0.802134544026278,0.799879981673452,0.799226569111465,0.798532754497517,0.797713893551801,0.79617976118307,0.794989544854612,0.794400205241026,0.79428512232694,0.794523226214443,0.796021937739218,0.796027451818978,0.796341525881758,0.797820498790068,0.797936006844137,0.797723513354512,0.795729937113454,0.794838403438205,0.79360674332661,0.793124020928396,0.792578332028725,0.792178551511437,0.792352377575921,0.793426568785279,0.79363350770314,0.793306894847194,0.793105664120591,0.793947347642686,0.794091778912502,0.794222306790917,0.794107908940947,0.792833884441434,0.790980263641496,0.790200175516135,0.794159063566422,0.797132751999025,0.798940008726944,0.79927675733846,0.799022256775191,0.79823270391237,0.79846945807699,0.797332783385754,0.798259108997089,0.799816947405309,0.801062077963138,0.802953895713286,0.806832831021923,0.809041823055393,0.813287539910751,0.81749068773215,0.819820709926334,0.820777840067699,0.82295525801781,0.826145228785917,0.827907403274398,0.829256929911519,0.831891523952213,0.833708641405305,0.833610935154778,0.83370734913912,0.826698524128703,0.823433773568153,0.818766972486622,0.814524011892573,0.813158795132963,0.812764745571664,0.80955814881763,0.808451934953384,0.807031827979805,0.806342501268924,0.806358395155051,0.806866506209236,0.806618745663592,0.805871800234936,0.802332138380709,0.801476618584148,0.8002627796524,0.799394026210198,0.797890439577004,0.789570357671973,0.789445349977594,0.786160232303126,0.785672307849057,0.78502156989522,0.784901547420536,0.784417108665838,0.785238178957165,0.78617053722824,0.78798919916377,0.788607223175985,0.789436890516203,0.790528047318057,0.792006166991956,0.793366945177425,0.793213777832636,0.792522531829725,0.791423945507778,0.790814798278778,0.789490930318135,0.78946147685279,0.789450801992296,0.790074567140726,0.791362006201924,0.792094017881086,0.790713967747058,0.791190329982075,0.79213260675477,0.792341987324587,0.792712263344024,0.793347446520437,0.795823883239328,0.798254806332211,0.799103950808078,0.799079744817904,0.798606135720388,0.798133928805143,0.797476365867018,0.797053823876832,0.796778374146242,0.796662225066181,0.796318606514914,0.796682602598291,0.796689230662692,0.797539780667041,0.798477264830958,0.800288181082008,0.80132195468705,0.803323422485921,0.80437159112983,0.811852454824769,0.811404885359065,0.810194384648282,0.808635418123942,0.805780480979515,0.80451139581961,0.803673749764229,0.797601687385161,0.792982636144443,0.792319358387821,0.802951642779554,0.803254499682785,0.814460179121515,0.848416751458666,0.892036464984068,0.868552895061419,0.836908087907957,0.831194588337486,0.829147688261431,0.826568695774032,0.826559759166685,0.830098485811559,0.832740710575754,0.834351131949523
0.800275156432207,0.801460364835499,0.800280028186138,0.801083861845124,0.799207657353045,0.799288932284328,0.799566872768078,0.802038677393711,0.802476463321169,0.805547203998452,0.807541255757617,0.808625998030046,0.805942091129043,0.805946221560766,0.803840292470134,0.799538353386168,0.798072586115318,0.799819578110602,0.799361129894502,0.799343496286418,0.79556149325352,0.794419447177818,0.793073765158234,0.79469062516911,0.796978701901299,0.800316445271493,0.801822197503962,0.80039054919423,0.800357548788422,0.799536727123936,0.797204640515056,0.794550140704741,0.794815368802779,0.793815688910433,0.794914819363846,0.796794351807216,0.796425653767971,0.79538299124978,0.794949047979685,0.79365502217889,0.794068418893141,0.795982388446077,0.795754043839616,0.794631580760446,0.793742384486932,0.792263718897944,0.790744080503126,0.789056128581261,0.796296202786425,0.797526166519543,0.801793808928451,0.801431561973939,0.797948775114356,0.797824552690727,0.796673563188341,0.79654995312263,0.797476397645838,0.798184724096515,0.79934528345876,0.803259053739922,0.808659139721071,0.839584134611237,0.826280454940576,0.827805729877356,0.828446727731518,0.851727513283937,0.852044777531742,0.837288185736704,0.837959574402231,0.835953523202428,0.836083998661525,0.836065611647399,0.834466490235769,0.849359799450846,0.821404342929271,0.821488057118098,0.816187733041176,0.814112812314153,0.812779744074761,0.812574886058851,0.810464100686577,0.809439413864773,0.808728280361253,0.806641512075412,0.807363549823957,0.80641389347676,0.807561378231472,0.806895648470426,0.802347332710642,0.801282542362206,0.801008603714659,0.800004459787164,0.792927446066301,0.791091498803941,0.790419667820987,0.787313507006532,0.785348688556341,0.785720184202413,0.785301208040599,0.785327108603773,0.785468726971214,0.787746507402022,0.78916153965784,0.790327655907921,0.79340944408192,0.795298827136312,0.794943548915591,0.793376719588638,0.793174868180922,0.791347425744004,0.79210408043037,0.79125180316744,0.790117825017304,0.789711721888072,0.790192072633894,0.790484423489839,0.792918743688786,0.793365115344448,0.792370904592747,0.792442614140871,0.793090324097019,0.804892933554893,0.804564370589961,0.804249963797412,0.803450582354825,0.801063028510684,0.798952024040336,0.798755928937566,0.798190818802831,0.79797967652154,0.797714095435271,0.796125199259596,0.796166542303194,0.794898110861809,0.794933368598188,0.795634513011012,0.797556901731317,0.797933442290351,0.799792641864886,0.800173803685232,0.801497487826583,0.805618296910204,0.805828034451947,0.812165468702152,0.812027035542985,0.811145029332075,0.810455545754855,0.810041426841785,0.864658258655797,0.821581671947927,0.800699440019886,0.792381486294705,0.792788665843892,0.801337622139575,0.801571693417539,0.802403335230609,0.804425105381981,0.957444131528031,0.838492222079645,0.840974192347597,0.824475067713712,0.824857774312394,0.825721818750769,0.82668553877147,0.83532055487649,0.945653027452753,0.86622228558317
0.801360636108696,0.801413085119383,0.801845554552521,0.801351215848215,0.801702938775388,0.802200200882652,0.803396862716588,0.804951124308023,0.805878465349091,0.806044239201237,0.808298454518965,0.807474148493395,0.807159529188349,0.805212590515666,0.804284909107242,0.801547549506368,0.801287300605222,0.800552412458591,0.800941770751062,0.799658819258631,0.797201126195196,0.796088309815893,0.795927399723666,0.794621497899944,0.796205745229573,0.79769214366141,0.798780102182125,0.799049695208732,0.79972823803322,0.798999246436237,0.79677774552578,0.79584517676948,0.795580565792977,0.795733173216188,0.796337233774196,0.796834282760688,0.797296298400438,0.796570487173673,0.796183390396123,0.795840257655861,0.796163377997866,0.796654583015155,0.797023712737335,0.795655724010546,0.795383235472164,0.794408783719298,0.795535893600625,0.796456666440698,0.797628924306225,0.798503930834,0.800472921238484,0.799566247979023,0.798740771156539,0.797991513660966,0.797922092357085,0.796067698040321,0.796926643882937,0.797824256569966,0.80478848702776,0.810798652112124,0.819408162683919,0.826534008645327,0.826785085243778,0.827555292400834,0.828279266749727,0.837836364820406,0.838680239868059,0.83899201665024,0.838469549007665,0.837054667320034,0.83596109664208,0.834853083241855,0.825737155118264,0.821770047761225,0.819928385094378,0.817703187519515,0.815969559880155,0.814366874948041,0.813683428434384,0.81270843392007,0.81119130452468,0.810240549957936,0.809132507320739,0.808764562780056,0.808332815991726,0.808638196770514,0.807787460256659,0.807193687447372,0.804672568311949,0.803265713068296,0.800237725757698,0.799241858974293,0.793251811822211,0.792883661095054,0.79348713928924,0.793926270487213,0.793686301624612,0.792708601892084,0.792233860585914,0.791868933683227,0.792013513717013,0.792379870778339,0.792356550851032,0.792814727334424,0.794300086356109,0.794967875046229,0.794763717371132,0.794553637619716,0.793543670874811,0.792849351992518,0.792127201837201,0.791488340010335,0.791336989023292,0.791937601494341,0.792331892892279,0.79239337090841,0.793079002032539,0.794106225309094,0.795623199638795,0.798463707657861,0.800813450368684,0.803882475378052,0.80453865681628,0.80252967928466,0.801934781450314,0.799945265567328,0.799093772473107,0.798412606432516,0.798587772994509,0.798433411645619,0.798134072583337,0.797132052668662,0.796820630905575,0.797109788689803,0.797830949684968,0.79831099086246,0.798596565711626,0.799241425621969,0.799917427663404,0.801546659866753,0.8025678133283,0.804388505143582,0.805086644108863,0.813103203140824,0.812854985905971,0.812742654730812,0.82269965747296,0.826461387165485,0.841894239538313,0.823534164754056,0.812360391107664,0.809906263527144,0.800224836792708,0.800723773355516,0.801423483151312,0.802092087214569,0.804942478628596,0.814443269962354,0.817314468566739,0.823424897664902,0.828043997939756,0.838632076420814,0.843811064331321,0.85047461078273,0.865681549320134,0.873766517941311,0.869715171048399
0.801524584418757,0.802751786342513,0.802078525709452,0.802981490915888,0.804047234260555,0.807413440750957,0.808731480743467,0.807812441722941,0.806580071947119,0.808556249914758,0.808460243592882,0.80933066563598,0.806133592269485,0.807120383719262,0.803726557460362,0.803641334511893,0.801938340144384,0.80310835565257,0.801785409674271,0.802957809177475,0.803411827831097,0.803732530600143,0.798736868223203,0.79339263421454,0.794186017014609,0.796093951001447,0.796503141198463,0.798429192038947,0.799846258716465,0.798813937240081,0.796488511358382,0.796349258465556,0.795856165986111,0.796488885279461,0.799527777771082,0.80183585968617,0.798511991789137,0.797408531546973,0.797076581082932,0.798003798014111,0.797337033026046,0.79871433206822,0.797552004190985,0.797744398180004,0.795879101502817,0.796668490828043,0.79567809635017,0.796522196480859,0.797226820736606,0.800844950647867,0.799332254370215,0.799252781941799,0.797728294440225,0.799541558770508,0.799588465655498,0.792628005587107,0.792131851450423,0.790975348726905,0.89895495813525,0.826556703406707,0.827072411143542,0.825989509439018,0.826134079048385,0.827087695281196,0.828075841271995,0.837875868893333,0.83948101202828,0.840815928016427,0.841301369645908,0.841512292701138,0.832570659446702,0.832414481365321,0.82228493738051,0.817328638710059,0.81541421071115,0.81522539694286,0.814988378127155,0.814708012961586,0.814523796542595,0.812778565007859,0.811954223949546,0.810236951696904,0.810236630137268,0.809261146171453,0.810486269358354,0.809734153989889,0.81011769852408,0.807959068461706,0.807273616185829,0.804522123304646,0.799218421257921,0.797111656223776,0.793991137835929,0.793797487341783,0.794758437695357,0.794418050300596,0.794002756108311,0.795024756232516,0.793822743109356,0.796167686039638,0.794765303506271,0.793626289006765,0.793977282115177,0.79435761916989,0.795578445511957,0.795206816644802,0.795162272580468,0.795437929836576,0.794716281340924,0.793292280425877,0.792651432519848,0.791788458733271,0.791749626692754,0.794265443971777,0.794362450248445,0.794109817914872,0.794012099532151,0.793935471146024,0.79539469894006,0.804338953952112,0.804504099315694,0.805101618929777,0.804632806862965,0.800988096325348,0.799776195725512,0.798961018892775,0.797736800709146,0.798109713265782,0.798597207359026,0.799470574530658,0.799073943533306,0.79736581475922,0.797307376585125,0.798138218894594,0.800367325521322,0.800005077816893,0.800550094013956,0.799209053598778,0.800531655803444,0.802065051300552,0.803614344801496,0.803844517196092,0.805322503871997,0.813428598711164,0.813490081010665,0.813746798935353,0.871067743142415,0.835248782358187,0.892665753465388,0.822231417279282,1.01165655594373,0.918357363153846,0.797710612162468,0.798690507926778,0.800419979580722,0.802795604176177,0.80638179806918,0.807757406602545,0.814358288822537,0.81516428689542,0.834634081787651,0.846483776359786,0.846552048296658,0.860335131568498,0.917740857859505,0.876680495638703,0.879541567344047
0.802135374023996,0.803052010256645,0.804166391124806,0.804651972288845,0.806322189470537,0.80815826470416,0.808768434664898,0.808039156838787,0.808151463581479,0.807788136557417,0.80961083278407,0.808874717885653,0.808306473830017,0.805613995638996,0.804944826914995,0.803380488680568,0.803594186309962,0.803334694780284,0.804210840678994,0.803192413647783,0.803514560242001,0.803002669549156,0.802211334610423,0.802468223735859,0.800869141980118,0.798165151695956,0.797587000246534,0.797947928409638,0.798623064951221,0.797831206343448,0.79743906933186,0.797257752165059,0.797828564728698,0.79869666514197,0.799937839532463,0.800496240455064,0.79953689111722,0.798606221107649,0.798647920579659,0.798214765230824,0.798579922642271,0.798448510622761,0.799150563904453,0.798602388161682,0.798689412782048,0.797382773367377,0.797908243657915,0.796912146210966,0.797958394362495,0.797951254952607,0.79881831232572,0.798095649837943,0.798759185974787,0.79848441493503,0.797900495212865,0.796631959080591,0.79689544731255,0.814284527041967,0.831341971849571,0.829020818455452,0.827826169689627,0.826250345325132,0.826579289953644,0.828470116139571,0.830114795818794,0.838125382443705,0.839164249097242,0.840331620474713,0.835708144512494,0.830691513665161,0.828780184504316,0.826924527047871,0.819878325365485,0.817060208137816,0.815605469532793,0.815512331605826,0.815315850525701,0.814815200190919,0.813988119288602,0.812899992715457,0.811835312011872,0.811306394614304,0.810508280753802,0.810714243342271,0.810257616865291,0.810398483012724,0.809072904197367,0.808432744294602,0.807186014951821,0.806403751436125,0.79964016131455,0.79885321277003,0.797252907001558,0.796284354404442,0.795499873725804,0.79536283769276,0.795589860614794,0.795520837418279,0.795376576633873,0.79552850468745,0.794882908199738,0.794004495765547,0.794256148831497,0.795022699338732,0.795807685999838,0.796139404715759,0.795696761868702,0.795807398885131,0.795168429643688,0.794758780098915,0.794274804150062,0.793460156850785,0.794041298777745,0.794159886289232,0.794896635396821,0.795628829745153,0.798647955860613,0.801523986530548,0.803315054842386,0.804050501571036,0.80468753919306,0.80233994545614,0.80086567543441,0.799210069216621,0.799391425627792,0.798472492375252,0.798793529342361,0.798537171017666,0.798665394074095,0.798492462220446,0.798607711432334,0.798334062837633,0.798918409669818,0.800149802852022,0.800851721834004,0.801010173480506,0.800854157673553,0.801050047490511,0.801015919628661,0.80168304636946,0.802564408580981,0.803561439757307,0.804562142167597,0.814451221903033,0.817274369429477,0.822893756412765,0.835983789823856,0.83539522439727,0.831052580472885,0.824402725632904,0.824137330474273,0.81535114314505,0.812897297157057,0.810682578261664,0.810299054015311,0.80905587760724,0.808988810372423,0.808961530057767,0.814536404832114,0.81594534097828,0.839927521653418,0.85157883177206,0.855148276632935,0.862265059479748,0.880976003464697,0.879091042574701,0.87004897101603
0.801957307961814,0.804824079006585,0.804859620245355,0.806964259190448,0.808102696454577,0.809613900670403,0.808267933446712,0.808947516110324,0.807200803596093,0.807759707723292,0.809750702686633,0.811662413861223,0.808458046764719,0.805595419701595,0.803588562883159,0.804352630456365,0.803910719595372,0.804921859553768,0.805149483650002,0.805065430038773,0.804069516590952,0.802667520594077,0.802877937372281,0.80230666022035,0.800822949437018,0.79909139662883,0.79795450803807,0.798168944806837,0.797818005331866,0.797412202622284,0.797296452640913,0.798184835022766,0.799007802424766,0.80089722085735,0.800899408917545,0.800903015107702,0.799660891353009,0.799893835471781,0.799064294793678,0.799410674224206,0.798139510309004,0.799544831334653,0.799417415645712,0.801135478234358,0.799920960585738,0.799277070273822,0.798301426667486,0.798684656997159,0.796304475296215,0.797533242316515,0.79663553783244,0.798348480236489,0.798177716233729,0.798811171872629,0.796716699937301,0.79633615719211,0.796476077069537,0.833888112941407,0.832684465100845,0.809833234281044,0.812967009791078,0.82391229536908,0.825369483383492,0.830707212276587,0.834108002352257,0.835984941533001,0.838015220054581,0.880990932164236,0.829963386742812,0.828765654569461,0.826634021447569,0.824137257244333,0.819311239751191,0.817015589512389,0.816962047894503,0.81596888390917,0.815901061367211,0.814643540102191,0.814167485929157,0.812203189647304,0.812152368654491,0.811364371247161,0.811295203441529,0.81112690684507,0.811380190917129,0.810451524586587,0.809639561213163,0.807543088666043,0.808031811815357,0.80626355978512,0.802228703954516,0.799970077887398,0.799316198325239,0.797173311787379,0.796683614049891,0.795481549911123,0.797029252668353,0.79569259504013,0.796057410647111,0.79566114279585,0.795121495873049,0.793022365183681,0.794479582756245,0.795048312582815,0.797469114509423,0.796795944047066,0.796852988816339,0.795869505098987,0.79632958505806,0.795614632373412,0.796539200467222,0.798989725255776,0.795812117793076,0.794614531880707,0.794963966165285,0.795251628571182,0.801599074787562,0.80254757025601,0.804952351403505,0.80560356344685,0.805216915890596,0.801238597239957,0.797984495128057,0.798628795784288,0.7972878651409,0.798763443659595,0.798724826153251,0.799955835892469,0.797916213211165,0.798037243909192,0.797968254414292,0.798656680126631,0.799771977423304,0.802573051364227,0.802378798428865,0.801410629711644,0.801511653870368,0.801895357744364,0.801346371321654,0.800565338501079,0.801701474712595,0.80335788105698,0.804788589543707,0.813936366451232,0.948278518842685,0.833226700589997,0.832960490028832,0.834051195579616,0.825713063677312,0.825742136287023,0.820140827362143,0.813369393299581,0.812437791995747,0.809895160942023,0.807327732043449,0.808027759329146,0.80876433297372,0.810939807447516,0.813230442187332,0.816837846769418,0.845972435930615,0.854877390033776,0.864111990892649,0.864676322725196,0.880844544941388,0.877455607574334,0.86386349934927
0.803488094062923,0.804796487279882,0.805986781630719,0.806857173846646,0.807696413018403,0.807732871426349,0.807887386612649,0.807451717153868,0.807760860729919,0.808196804780141,0.810150984518365,0.810495171132235,0.810109419271689,0.808082369744856,0.80742645005677,0.806381115997319,0.806523782529914,0.806913746204407,0.807017710205041,0.805211736742372,0.803998024474151,0.804092311970553,0.804422784218721,0.803591289241141,0.802648485542757,0.802743861316477,0.801987135493928,0.800280795039285,0.799613955339916,0.798890227658716,0.798949093106056,0.799258344635802,0.80013946319681,0.801255909610164,0.801137720277086,0.800902246182361,0.800135586436744,0.799486692000514,0.799937566919227,0.799874391034363,0.800614935429304,0.80030832259927,0.800138226932625,0.800391835524018,0.800722069191038,0.7992056327179,0.79883470742227,0.797349699981157,0.79676231669397,0.796190970304747,0.798140558739865,0.798711247012579,0.799896515381147,0.799917943613662,0.801397135725867,0.803121866088396,0.813051196605183,0.816078207410722,0.820146274895135,0.821719777230509,0.823754005028266,0.826454098786302,0.829071936228776,0.831181191195848,0.834558458793367,0.834764364337068,0.832201760622862,0.830553405256345,0.828939292558436,0.826559694533615,0.824141959118461,0.822026782032246,0.819793849204868,0.817202683114499,0.816264021196244,0.815766031553389,0.815438312565166,0.814741594814349,0.81381983672122,0.812676815679214,0.811895359006795,0.811794716419275,0.811786374064676,0.812174445529488,0.811652076182686,0.811162053435516,0.807510590377133,0.806874289087204,0.80565086717152,0.805122424345951,0.802804154595888,0.801927604068327,0.799961211143333,0.798039330194274,0.796153573511922,0.795607935602903,0.795147965876283,0.794892248416353,0.793852385806185,0.793701075550588,0.793337609913511,0.793461857146055,0.794227930602418,0.795292416202759,0.795899834745111,0.796570472397614,0.796930614675899,0.797779843635559,0.798132899713315,0.7985080806082,0.798737223461138,0.799553904301933,0.800055064378961,0.801792329525087,0.803050808933683,0.803299302234796,0.803559314409029,0.803579321182667,0.804136730523256,0.803408621424858,0.803191402407782,0.800425773736096,0.799459393395234,0.798364380967142,0.798523194666754,0.798505085695385,0.799188252674585,0.798799271172044,0.798532295414503,0.798342948681051,0.798655103037747,0.799968570292965,0.801493891994897,0.802737507113792,0.803260911287552,0.803326271939777,0.80266858593559,0.802482271226138,0.802360585700295,0.802515394809016,0.802958998801757,0.803496536377043,0.804188899284921,0.815675663940266,0.820638788155679,0.831562839970602,0.830980970464436,0.82926509150063,0.826143594133315,0.824705963747922,0.821910860164649,0.814856270798563,0.813838018605578,0.813670699234449,0.814978369314193,0.814353964141116,0.81364461776396,0.813034590352565,0.813697821887973,0.818660716947585,0.840459968639965,0.857062133083219,0.863565776171724,0.863546605809002,0.863147520096695,0.863455836845153,0.864091691123188
0.805746432610424,0.806288578532267,0.806120262600892,0.807925469596939,0.806927413638274,0.806875715450636,0.806584342683884,0.806517206029049,0.806481100559092,0.815390061488516,0.815395274110986,0.815883037154022,0.814159899486782,0.809562967554749,0.80823518604059,0.808674260956755,0.809821373964537,0.810433968935647,0.809629801372529,0.810488365288402,0.812328840707824,0.81170521029581,0.807269733625003,0.807153051338918,0.805468583037393,0.804602002666783,0.803271654848674,0.801254738367701,0.800810650421042,0.800607365264869,0.799770387691222,0.800067091619429,0.792915953355117,0.792377167409209,0.801087955319508,0.802199077665527,0.799280198045324,0.799125698346914,0.799178616101725,0.801391776519938,0.801778871407782,0.804061411795956,0.808096346562787,0.806390505111589,0.805677300153331,0.800469925788349,0.797782665753508,0.796819781975743,0.794912385303228,0.795714981429268,0.798542187502808,0.800533652348543,0.800844834368801,0.800683008668495,0.800224045623101,0.806977257345819,0.829216939874372,0.811091250421955,0.818852730416985,0.860070157733889,0.87032247017076,0.834091329398106,0.837669890148458,0.837893754178399,0.837034230601725,0.836447085080041,0.831693168351379,0.826364407864206,0.824825247872069,0.823572967649947,0.822815349261896,0.82075515332757,0.819155720497243,0.816638337031045,0.814906344869523,0.815348201022568,0.815166948404899,0.814994858761366,0.813943187130796,0.812472724329056,0.811568419280658,0.811552783813445,0.812774244904249,0.813300214790605,0.813303963535699,0.813119243680327,0.806245640862712,0.80472581779859,0.804680451909904,0.803776252085267,0.804354038740881,0.802666015770918,0.801649209361661,0.798137828105191,0.796079445445752,0.794047679841134,0.794451991330761,0.793807522370485,0.791826117544689,0.791050418022921,0.792176485925009,0.792440731675663,0.794894240035494,0.795133400340008,0.795516941353883,0.795780707121358,0.797653496677933,0.799197296933182,0.800553580554997,0.800865965364059,0.800424957270325,0.800886003881108,0.800517132697831,0.801648139789066,0.943228572310425,0.804540935590689,0.80422236136317,0.804984701660814,0.80220327244014,0.803443998890257,0.801720145106311,0.79989988642766,0.798392401522406,0.799128244963274,0.798176170868998,0.799054064932737,0.799426559303287,0.798569446444353,0.797961340859952,0.798519887641045,0.799462307851832,0.800948934558689,0.802691401999405,0.803542737380524,0.804008247057438,0.806182787907157,0.807319230042483,0.807859037748144,0.804764956052283,0.803708772662478,0.803198560827394,0.803767313999921,0.803859351173424,0.81667462095885,0.81692365843806,0.831059847178408,0.830757924247246,0.820741257065138,0.821630244772971,0.823002921409175,0.820752845224,0.817675366865317,0.814624290826472,0.813720232954981,0.813779205201064,0.814374623350372,0.813922124078821,0.814821477470561,0.815022917733237,0.819769380419676,0.835899961049,0.8589776966287,0.884640675338885,0.885149129641063,0.855765059650757,0.857702074381121,0.858319972479468
