0.770205547183027,0.775715321799741,0.778290655558751,0.778297053903494,0.767506245494623,0.767120745223864,0.765925854343131,0.764406247466696,0.762884241210984,0.767654207216802,0.767031968190557,0.76535240269555,0.765636329243516,0.766372138888947,0.855978557633737,0.792703726885187,0.792460589784957,0.791849547862012,0.830497149695207,0.862320916860119,0.764316670640296,0.763315329688035,0.763371315204535,0.762313188942681,0.759569098841077,0.749653264075795,0.745453550545186,0.737222080033468,0.730115918403404,0.728737075111313,0.729255341035486,0.724686123095975,0.724090277241795,0.724533362615239,0.71870926931303,0.719694614403434,0.714789483364922,0.715398925701682,0.720528798599288,0.721016672385932,0.721702894859606,0.726867958653298,0.724196649723145,0.719952147779335,0.720584784115788,0.722844999396211,0.722212363059759,0.725577892394515,0.726939140238563,0.734463593656193,0.73957427151957,0.738560933670916,0.726786379757827,0.720341647015558,0.722376320643795,0.724889270541562,0.724921262265276,0.721904442719007,0.721862853478179,0.72209799264748,0.691065220851407,0.69589517133919,0.682972114544754,0.693282247304816,0.67413520066174,0.681386124841612,0.687216616488563,0.683782304947821,0.690698115821784,0.691271567469365,0.681435712013369,0.750844155991064,0.655264082635701,0.663924242245193,0.669203676451164,0.669605172583779,0.682731376823803,0.682709782410295,0.680624721817209,0.656617332548821,0.655062534776301,0.662671766261773,0.663350790597612,0.663217225151104,0.67767508489074,0.674571087897349,0.718349362421243,0.73735964444544,0.739990163927857,0.739798213585571,0.731102863079994,0.72614414590426,0.749203780357608,0.757453646110462,0.840422581977604,0.862048987208546,0.849124330827924,0.892161197154737,0.868775247119501,0.872798206376589,0.878204807684324,0.87456574911181,0.873813943604521,0.902958403908351,0.928263857366451,0.928607768396381,0.922705295371071,0.872646245688945,0.872798206376589,0.920049982302775,0.920337907816205,1.02841394845442,0.980058458060084,1.05138400608137,0.972012539545909,0.93290265730504,0.947426899871384,0.947003009532167,0.946915032291953,0.904637969403357,0.907893127291299,0.907997100393371,0.904350043889928,0.911820111377243,0.919354162311987,0.970085038192116,0.99651020198022,0.942276232353363,0.912212009992744,0.900343080494698,0.900623008077199,0.883523431751845,0.853523192838656,0.867279634035853,0.886754595847001,0.891761300608306,0.892857017145525,0.926640277387944,0.908293023837729,0.904014130790926,0.899135392924478,0.862688821682835,0.844093632273833,0.844973404675979,0.822779146349106,0.817572493314585,0.852131552857079,0.836599570993732,0.854674894892374,0.875733447027386,0.875301558757242,0.903790188724926,0.870462810545437,0.906405512138579,0.831720833127284,0.784849758713299,0.765326009523486,0.751979062389833,0.747292274865672,0.74272545630544,0.756779420533181,0.745192817996914,0.732696850714064,0.676526582009392,0.660891426837066,0.643931814302964,0.626864229701325
0.769796053119482,0.773399920795911,0.778862507620146,0.778335443971952,0.76736548191028,0.766158594133153,0.76610180882356,0.76717833032655,0.767701395009281,0.767294300325015,0.766914398605906,0.766156194753875,0.769979205737747,0.857202241065813,0.79491915375241,0.793314768808132,0.792452591854029,0.77541300001064,0.76698797957045,0.765244430628014,0.762160428461945,0.761835712466243,0.762030062187809,0.762731480730247,0.754839122489902,0.751215259986152,0.740826747502989,0.737409231617197,0.735062638682745,0.729106579520214,0.730758952050064,0.726954336307327,0.723523223938957,0.72720947030395,0.719530656819398,0.718774052553552,0.718301374835672,0.722468296849474,0.721767678100128,0.721326192312869,0.720392833773501,0.719463474199598,0.718332566766293,0.720426425083401,0.720426425083401,0.72264905008846,0.724215044964281,0.727070306305792,0.737519603064012,0.737259670308832,0.739753425172371,0.732434518579606,0.725494713912857,0.721354185071119,0.7235856078002,0.724345411238417,0.725848222459902,0.726020177974866,0.726252117971796,0.726078562870645,0.736659025696094,0.737278065549968,0.694486735702663,0.693744527712489,0.706954710227263,0.682057951039614,0.684524512937995,0.684773248589875,0.683381608608298,0.673980840594818,0.658416067214664,0.657969782668848,0.663084459497689,0.745427957166214,0.663349990804519,0.69693810153228,0.693657350265367,0.677310379240395,0.676832902763958,0.657645066673146,0.646167235997508,0.646895047712011,0.663083659704596,0.674291960107941,0.673516160807866,0.675185328992666,0.726531245761204,0.726017778595588,0.757812753209156,0.759648278357271,0.765158852767078,0.755370185103561,0.789278213068466,0.76966408725916,0.838335122005238,0.9225453367525,0.922937235368001,1.07708135815497,0.864352391315984,1.00317247844375,1.01612912654808,0.875453519444885,0.918946267834628,0.936197804847625,0.927688006339591,0.916466909246761,1.0353721483623,1.03550811318809,0.870198878824793,0.950802026723254,0.947826796417814,0.933198580749399,0.984225380073886,0.983721510425384,0.947314928838383,1.06603621554257,0.939269010324208,0.936189806916696,0.936357763466197,0.875333550480956,0.918866288525342,0.919314172657344,0.894656551604461,0.935741922784694,0.916698849243691,1.0712188747843,0.915203236160042,0.924648792586722,0.926016438775513,0.912499935506174,0.883467446235345,0.857018288654455,0.856562406591525,0.871318589154797,0.895000462634391,0.914595393409468,0.956120650790775,0.923449102947432,0.90788512936037,0.907245294886082,0.868159406437999,0.868871222290645,0.83116897589321,0.829353445572417,0.851307765971433,0.851123813560075,0.851019840458003,0.86368856304891,0.867551563687425,0.878132826305967,0.879380503530829,0.881004083509335,0.892081217845451,0.889489888224583,0.81353353819564,0.789151845759794,0.785032911331564,0.776711064200352,0.769437745813881,0.757341675077462,0.790429915122185,0.764659781877133,0.743698004706358,0.682201913796329,0.682621805170081,0.647260553155448,0.626079632677229
0.770110371804976,0.778353039419994,0.777791584668807,0.771621180957389,0.768933876165379,0.76828844313944,0.768687539892778,0.769962410082797,0.768799510925778,0.767391875082344,0.770311119871284,0.854634905237731,0.875789432543886,0.794964741958703,0.794788787478274,0.794610433618566,0.785038509883214,0.777586037843942,0.765457975383808,0.760414480140231,0.75868052871491,0.759301967948062,0.760150548419587,0.75754242314377,0.755637315996576,0.756816211015452,0.743137349748263,0.74001335792755,0.740403656956866,0.735756859087348,0.731863466311304,0.730369452813841,0.73116604673433,0.724015096691066,0.723748765591143,0.723459240491528,0.724113471241488,0.721159835349554,0.721501347000206,0.721650908308571,0.720965485627989,0.719384294683404,0.718378154972586,0.718814842001288,0.720747941906731,0.725212386951077,0.728192416015075,0.740380462957173,0.74062839881596,0.735712070674148,0.729600051858509,0.725576292808329,0.723392057871727,0.71752637532869,0.723120128220155,0.728773865593584,0.727798118020295,0.725973789975481,0.725886612528359,0.726090559767038,0.724039890276944,0.75154477474041,0.708974187786735,0.703666760822514,0.703871507854286,0.682668193169467,0.684966798518347,0.698648059164816,0.709921142808681,0.667052233031369,0.6765817677328,0.665403059673891,0.659917278849963,0.659782113817269,0.693548578404738,0.704928834323047,0.703933091922436,0.671436698766429,0.654227550787354,0.669022123419084,0.66286371660406,0.665348673743577,0.660012454228013,0.660825843803452,0.672586801233963,0.711740672094939,0.718996395033367,0.756126789369407,0.787465881920045,0.790901793046973,0.78784498384606,0.779489545404949,0.80466383279582,0.830105251079706,0.850787900461073,0.879924362833974,0.911924084479315,0.84846050256085,0.85830595553396,0.860249452749611,0.870022924344363,0.886266722060356,0.886506659988214,0.990183838615695,0.991231567567342,1.02114382924032,0.906325532829293,0.90737326178094,0.91029250656988,0.95260156118219,0.970229000948831,0.943627882680297,1.00343641016439,1.00856308388962,0.961535250029439,0.961383289341796,0.988032395195901,0.973532146422344,1.06658007484571,0.877932878032752,0.891697317160878,0.877788915276037,0.934118342806188,0.908013096255228,0.908237038321229,0.919954007131632,0.915051275472398,0.911820111377243,0.945763330238234,0.908740907969731,0.880436230413405,0.867087683693566,0.859577626551608,0.900167126014268,0.863880513391197,0.949586341222106,0.932614731791611,0.926360349805443,0.92568852360744,0.912084043097887,0.885019044835494,0.886210736543856,0.859929535512467,0.862384900307548,0.86660780783785,0.843085892976829,0.875221579447955,0.870910694677439,0.932934649028755,0.933358539367971,0.864608325105699,0.87502163117474,0.87462173462831,0.837799260633022,0.838894977170241,0.802552379030669,0.787093978131865,0.795483807675969,0.795484607469062,0.807559083791974,0.78815530356609,0.77906485527264,0.775964057451621,0.752135821836034,0.679444227212147,0.649213647888213,0.641022966824231
0.778940887343247,0.778576181692903,0.774526029470658,0.772336195982406,0.76955211622616,0.771150102825695,0.770387900008199,0.770195149872819,0.769138623197151,0.769730470085868,0.857098267963741,0.798483031774195,0.797855993989393,0.797847996058464,0.794372095276893,0.779943827881694,0.777344500329898,0.776476724824144,0.775843288694599,0.759583495116749,0.760097762075458,0.757903929621742,0.757185715424354,0.757269693699104,0.756134787300335,0.735906420395713,0.734863490202623,0.736597441627944,0.736267926873685,0.734738722480136,0.732705648438086,0.732119400101019,0.728918628143392,0.725429930672336,0.724961251919919,0.724330215169653,0.722928177877868,0.723162517254077,0.722845799189304,0.720853514594989,0.719514660957541,0.720320852395144,0.719005992550482,0.719768195367977,0.722054004027372,0.76057363896571,0.748171247474725,0.745776666954701,0.742358351275817,0.734955466408302,0.729353715585908,0.724614141717618,0.720931094524996,0.719592240887548,0.724450983926675,0.727884495674324,0.729264938552601,0.727767725882766,0.726035374043631,0.724829286059597,0.719154754065754,0.708727851514134,0.707775297940537,0.698335340065507,0.698715241784616,0.708499110689576,0.682658595652352,0.73062938556902,0.704000274542237,0.702897359867182,0.699897335975863,0.67372970556366,0.689697574662616,0.679292266524503,0.685043578655262,0.685241927342291,0.677247995379152,0.667473723991307,0.665497435258849,0.674325551417841,0.675230917198959,0.661393696899383,0.680198432098714,0.671254345941257,0.704502544604553,0.709998722738689,0.723276087873263,0.723156918702427,0.812517800967708,0.807575079653831,0.810766254094344,0.811414086499561,0.831033011067424,0.867423596792568,0.908636934867659,0.842510041949969,0.917522636129337,0.843885686069689,0.852219530097293,0.956968431469207,0.952297639806903,0.884707125529279,0.942332217869863,1.04133860483504,1.03322870287344,1.00841912113291,0.945771328169163,0.939181033083994,0.908085077633585,0.974691846406991,0.880372246965976,0.90914880244709,0.977539109817574,0.949586341222106,0.95425713288441,0.953561312893622,0.956368586649562,0.951873749467687,0.944323702671085,0.877988863549252,0.919354162311987,0.886754595847001,0.886346701369642,0.901558765995845,0.924192910523792,0.914443432721825,0.914403443067182,0.902158610815491,0.920217938852276,0.94258015372865,0.937789393102417,0.914155507208395,0.877724931828608,0.878420751819397,0.894336634367317,0.894744528844675,0.920233934714133,0.934894142106262,0.928479801501523,0.909052827275946,0.941308482711002,0.867255640243067,0.864552339589199,0.868647280224644,0.851459726659076,0.858713850011319,0.851027838388931,0.850172059779571,0.860313436197039,0.860505386539326,0.870078909860864,0.868055433335927,0.866503834735778,0.885954802754141,0.827921815936197,0.800640873538733,0.801760583868737,0.810542312028343,0.806015483122754,0.817532503659942,0.817476518143442,0.813093651994567,0.739592666760706,0.762439556251353,0.710636957626791,0.671994954345246,0.664352131549873
0.778748137207867,0.777425279432277,0.775890476487078,0.775908871728213,0.775518572698898,0.773548682311183,0.773512691622004,0.775032298498438,0.857202241065813,0.848476498422707,0.79894851135424,0.798967706388469,0.799166854868591,0.791775167104376,0.781371458552449,0.776876621370574,0.776064031588228,0.777608432050542,0.765194843456257,0.761894897155115,0.761022322890805,0.756550679708623,0.756698641430802,0.756911386393503,0.739403115797698,0.73780992795672,0.73227615954722,0.731673915348296,0.736975743760867,0.73238813058022,0.733085550157194,0.734220456555963,0.731123657700408,0.728937823177621,0.728609108216455,0.723695179453922,0.724556556614932,0.722984963187462,0.720690356804045,0.71931871164979,0.719022788205432,0.721442962104427,0.720428024669587,0.75831982203003,0.754336052634493,0.751754320530739,0.74963486883466,0.746178163087317,0.740478037714502,0.735177009095024,0.72286979298209,0.721962027821693,0.720529598392381,0.722367522919773,0.731782687208925,0.731500360247145,0.731270019836401,0.729336919930958,0.728474742976855,0.731816278518825,0.706483632095568,0.706518822991654,0.755178234761274,0.691442723191237,0.701896018914921,0.718490126005587,0.728321182703026,0.729397704206015,0.698311346272721,0.702627829594888,0.706933115813755,0.704688096602096,0.703920295232951,0.701884821811621,0.703056518692662,0.68210993759065,0.673917656940482,0.675115746993587,0.687443757726936,0.677270389585752,0.682955318889804,0.682426655655423,0.693092696341808,0.677515926065261,0.709433269022037,0.706531619681139,0.734167670211834,0.837031459263876,0.823179042895536,0.851195794938432,0.820707682238597,0.870086907791792,0.853059312844797,0.868391346434928,0.845965148111126,0.845117367432694,0.836055711690587,0.843085892976829,0.860185469302182,0.979138696003294,0.978962741522865,0.912315983094816,0.88544293517471,0.884979055180851,0.992519234446847,0.965502223770026,0.950290159143823,0.925320618784725,0.930703226299675,1.06722790725093,0.880092319383475,0.885163007592209,0.938421229645776,0.926072424292013,0.996614175082292,0.974731836061634,0.972508411263483,0.964494484473022,0.927863960820021,0.931263081464677,0.880540203515476,0.881515951088766,0.908740907969731,0.903510261142424,0.915219232021899,0.915059273403327,0.916466909246761,0.943116015100866,0.895952216414895,0.89597621020768,0.951049962582041,0.932262822830752,0.935813904163052,0.934798166935119,0.911796117584457,0.92380101190829,0.884235247604491,0.897175899846971,0.898127653627474,0.898159645351189,0.91109229966274,0.871798465010513,0.853403223874726,0.920665822984278,0.8395268137136,0.845037388123408,0.845125365363622,0.869383089870075,0.870598775371223,0.869447073317504,0.88441120208492,0.865776023021275,0.851107817698217,0.844533518474906,0.833656332412006,0.828169751794984,0.800168995613945,0.790544285534464,0.791060152079359,0.847836663948419,0.836959477885519,0.845429286738909,0.806903253455829,0.753510666162661,0.727850904364424,0.709342892402543,0.683888677429172
0.779774271746007,0.778683353967346,0.782135260956131,0.778880103068189,0.775261039322997,0.77511387739391,0.859457657587679,0.857290218306028,0.991231567567342,0.800376941818088,0.800224981130445,0.796349983595537,0.792471786888257,0.783522901972243,0.778110702112858,0.775760110212941,0.766777633987027,0.834584092399724,0.759858623940693,1.14311227590151,0.746203756466289,0.746230149638353,0.75107769557418,0.743138949334448,0.737706754647741,0.735121023578524,0.732320148167327,0.732079410446376,0.726297706178089,0.727316642578393,0.72470691771639,0.729791202407703,0.735081833716974,0.728913029591742,0.726079362663738,0.726396080728511,0.72585062183918,0.721646109550013,0.720332049498444,0.71980818502262,0.721204623762755,0.722859395671883,0.722637053192067,0.725773841702265,0.753347508371717,0.753081977064888,0.751315234122759,0.883723380025061,0.727746931262352,0.725374744948928,0.72413106668953,0.723389658492449,0.724551757856375,0.729637642133874,0.73057340005252,0.730454230881684,0.731579539763338,0.725793036736494,0.726341694798196,0.726760786378855,0.716534631893543,0.713188297593016,0.668180741085395,0.685223532101155,0.679986486929106,0.698638461647701,0.727127091615385,0.707500968909686,0.69769870476359,0.696917306911866,0.705642249761879,0.694338773980484,0.69643743105615,0.688641047986947,0.685258722997241,0.661710414964155,0.674064019076476,0.677610301650218,0.679293866110689,0.686498402291175,0.688900180949034,0.68421819218343,0.679133107699024,0.715513296113961,0.71940268992454,0.724550958063282,0.742132009830537,0.836199674447301,0.892865015076454,0.889809805461727,0.858497905876247,0.875189587724241,0.904637969403357,0.875421527721171,0.922737287094786,0.923121187779359,0.847452763263846,0.848044610152562,0.860457398953754,0.858697854149462,0.992983114440706,0.986304842115323,0.985880951776107,0.891649329575306,0.969021313378611,0.983137661467596,0.950905999825326,0.942188255113148,0.94189233166879,0.88681857929443,0.893352888863098,0.894512588847746,0.958719978342571,0.945747334376377,0.941692383395575,0.929103640113954,0.920609837467777,0.920849775395636,0.96382265827502,0.91830643336034,0.941964313047148,0.880484217998976,0.925832486364155,0.914723360304326,0.961183341068581,0.922737287094786,0.918258445774768,0.943707861989583,0.94486756197423,0.93170296766575,0.92740807875709,0.894672547466318,0.911484198278242,0.912907829983533,0.875781434612958,0.875949391162458,0.88058019317012,0.883299489685844,0.911388223107098,0.866559820252278,0.864296405799484,0.865048211306773,0.853043316982939,0.85074791080643,0.839110921305313,0.838543068209382,0.906493489378793,0.904126101823927,0.898703504654334,0.88441120208492,0.90530979560136,0.876389277363531,0.858497905876247,0.859761578962966,0.861473136181687,0.861641092731187,0.819060108467305,0.816012896783508,0.817884412620801,0.873941910499379,0.841734242649895,0.83334441310579,0.788107315980519,0.779224813891212,0.724794095163512,0.703855511992429,0.690888466577885
0.782881467911769,0.784049965620438,0.780889983110547,0.777561244258063,0.77727251895154,0.861665086523973,0.860873291362042,0.842294097814897,0.802560376961597,0.802880294198741,0.799730708999058,0.888666101338937,0.786934819306385,0.779587919955371,0.778443416039488,0.765789089724252,0.762270000115667,0.759609888288813,0.880388242827833,0.736016791842527,0.736564650111137,0.745902234470281,0.74869271257127,0.738468157672144,0.737569990028862,0.735664882881669,0.726752788447926,0.724135065654995,0.723040948703962,0.723338471734506,0.72228834340358,0.727473402024594,0.729605650410159,0.728155625532803,0.729967956681225,0.729235346208165,0.723203306701812,0.723068941462212,0.721870851409107,0.72119502624564,0.723152919736962,0.722564272020617,0.723927919243944,0.724216644550467,0.782435183365953,0.738586527049887,0.738078658435921,0.729132172899186,0.724313419514703,0.724289425721917,0.724877273645169,0.724237439170881,0.731913853276154,0.731393987765795,0.73421965676287,0.730312667504248,0.726028175905795,0.725182794606642,0.729936764750603,0.714623126401607,0.702530254837559,0.663059665911811,0.663533143422784,0.666124473043651,0.65712600095588,0.678952354460038,0.677428748618139,0.68157007725297,0.704229015366795,0.693227861374501,0.7037019517186,0.702335105322902,0.696880516429594,0.692988723239736,0.690590143754248,0.663050068394696,0.671311931043943,0.688038803788024,0.682123534073229,0.678717215290737,0.678827586737552,0.688240351647424,0.715573280595925,0.73485149330623,0.732928790710994,0.771167698273738,0.76989042870444,0.891745304746449,0.868711263672073,0.868863224359716,0.863376643742694,0.856010549357451,0.895720276417965,0.896823990886112,0.865112194754201,0.919194203693415,0.878508729059611,0.87324609050859,0.855562665225449,0.853547186631441,0.853363234220083,1.05434324052495,0.961495260374796,0.893192930244527,0.961159347275795,0.932230831107038,0.936133821400196,0.927656014615877,0.927360091171519,0.893360886794027,0.892137203361951,0.90319034390528,0.945483402655733,0.955824727346417,0.940020815831497,0.942332217869863,0.931223091810034,0.922361384341142,0.962950883803802,0.926792238075588,0.90914880244709,0.988760206910404,0.973180237461485,0.914603391340397,0.92374502639179,0.923649051220647,0.939692900663424,0.956848462505278,0.938125306201418,0.918434400255198,0.898199635005832,0.899111399131693,0.914147509277466,0.947826796417814,0.879444486978258,0.879228542843186,0.927576035306591,0.876965128390391,0.89483250608489,0.891745304746449,0.922457359512285,0.87324609050859,0.873613995331306,0.926152403601299,0.841846213682895,0.842526037811826,1.01980817477524,0.871150632605297,0.906181570072578,0.888682097200794,0.917026764411763,0.887594378594504,0.864992225790272,0.855866586600736,0.861681082385831,0.867415598861639,0.818356290545588,0.918786309216056,0.886714606192358,0.832416653118072,0.826066295960761,0.819052110536377,0.805831530711396,0.790717040842522,0.756601866466566,0.716385070585178,0.714595133643357
0.787105975028258,0.780993156419526,0.779394370026898,0.778756135138796,0.861417150665187,0.993582959260351,0.825994314582404,0.806303408636183,0.806031478984611,0.805903512089753,0.792526972611665,0.787924163362254,0.779519137749385,0.780245349877702,0.780359720289981,0.768941074303214,0.757104136528882,0.754427229047079,0.735903221223341,0.735100228958109,0.735816043776219,0.740130127719108,0.741397799771291,0.735556910814133,0.734825100134165,0.735587302951661,0.729999948404939,0.722533879883088,0.722572269951546,0.720798328871582,0.720313654257308,0.726697602724519,0.727324640509322,0.729377709378694,0.728847446558128,0.724295024273567,0.723634395178864,0.723794353797436,0.72514600412437,0.725635477497201,0.72247549498731,0.72287539153374,0.723631995799586,0.729759210683988,0.731254023974544,0.737552394580819,0.729068189451757,0.725203589227056,0.724244637308717,0.724823687507947,0.725247577847163,0.731518755488281,0.731709906037475,0.731841072104704,0.732693651541693,0.731748296105932,0.727159883132192,0.719170749927611,0.715749235076354,0.718110224286478,0.707842480560337,0.673544953359209,0.666717919518554,0.652184079435096,0.658181727838456,0.680455965474615,0.69413082777634,0.694583510666899,0.689098529636064,0.682560221101931,0.692999920343036,0.701292974922905,0.693833304745796,0.678220543780071,0.665457445604206,0.656750897995329,0.657002033026487,0.679904908033634,0.679310661765639,0.694894630180022,0.707053884570777,0.73318792367308,0.748962242843564,0.756727433982145,0.764813342150962,0.776103221449779,0.862392898238476,0.900151130152411,0.900343080494698,0.872206359487872,0.921769537452425,0.885650881378854,0.879052588362756,0.891553354404163,0.898847467411049,0.892225180602165,0.891785294401092,0.884267239328206,0.875845418060386,0.876901144942962,0.876445262880032,0.889089991678153,0.893424870241456,0.896416096408754,0.963942627238949,0.966621934100031,0.925512569127011,0.926736252559087,0.890241693731872,0.890417648212301,0.879820389731902,0.893712795754886,0.963118840353303,0.953521323238979,0.940100795140783,0.947786806763171,0.929207613216026,0.936317773811554,0.930311327684173,0.918290437498483,0.918394410600555,0.913843587902179,0.930183360789315,0.969477195441542,0.933710448328829,0.942084282011077,0.945027520592802,0.947826796417814,0.948178705378672,0.912172020338101,0.91080437414931,0.903670219760996,0.891657327506235,0.890657586140159,0.925184653958938,0.924128927076363,0.880588191101048,0.886106763441784,0.89408869850853,0.892761041974382,0.893576830929099,0.872246349142515,0.869607031936076,0.864104455457197,0.919490127137773,0.872174367764158,0.856570404522453,0.893376882655884,0.910724394840024,0.882019820737268,0.877844900792537,0.881643917983624,0.859161734143321,0.828721609029058,0.834744051018296,0.842374077124183,0.842486048157183,0.820171820866381,0.829401433157989,0.848084599807206,0.816820687807296,0.852323503199365,0.802328436964668,0.774550023263444,0.745962218952245,0.735435342264018,0.721100650660683
0.78121789827862,0.781255488553984,0.784606621613069,1.05004835161629,0.848028614290705,0.811414086499561,0.809590558247839,0.808934727911694,0.806031478984611,0.864256416144841,0.788029736050511,0.78784498384606,0.779965422295201,0.778522595555681,0.758689326438931,0.756749828188745,0.754616780010086,0.754260872083764,0.736751001901773,0.738295402364086,0.739030412216425,0.743966735185559,0.742895012441126,0.734916276546752,0.734466792828564,0.727130290787756,0.726337695832732,0.734168470004927,0.729560062203866,0.72948568144623,0.728570718147998,0.728154025946618,0.727786920916995,0.728965016142778,0.725753047081851,0.72448057627111,0.724556556614932,0.725649873772872,0.724953253988991,0.725594688049465,0.728528329114076,0.725745848944015,0.730183101023204,0.740006959582807,0.736916559071995,0.737050924311596,0.725309161915314,0.724163058413245,0.724651731992982,0.725652273152151,0.730784545429035,0.730990892046993,0.734140477246677,0.734177267728949,0.729736016684295,0.726878355963505,0.723907124623529,0.720728746872503,0.724349410203881,0.707451381737929,0.707282625395335,0.671982957448853,0.655308071255809,0.668700606595754,0.673670520874788,0.689871929556859,0.687664500620565,0.69179303256591,0.693183872754394,0.691585086361766,0.684232588459102,0.683719921086578,0.671870986415853,0.676932077107473,0.680048870790349,0.679003541217981,0.679674567622891,0.700374812452301,0.66602609849323,0.705327931076385,0.743254919332913,0.734066096489041,0.767024770052721,0.79540302857359,0.833936259994507,0.844445541234691,0.869663017452576,0.862072981001332,0.876869153219248,0.87708509735432,0.896432092270611,0.879076582155542,0.879396499392686,0.906917379718009,0.991575478597272,0.990839668951841,0.936101829676482,0.882307746250698,0.881955837289839,0.879732412491688,0.890409650281373,0.898087663972832,0.903614234244496,0.931159108362605,0.916035020976617,0.916043018907545,0.92128166366578,0.904046122514641,0.904757938367286,0.902294575641277,0.89432063850546,0.888730084786366,0.96347874724509,0.919538114723345,0.932590737998825,0.952761519800762,0.932246826968895,0.956040671481489,0.939708896525282,0.94538742748459,0.920113965750204,0.941604406155361,0.927480060135447,0.92597644912087,0.925000701547581,0.913731616869179,0.917250706477764,0.957160381811493,0.948202699171458,0.95053809500261,0.920577845744063,0.903046381148565,0.909692661750234,0.911636158965885,0.875933395300601,0.876989122183177,0.931175104224462,0.898975434305906,0.904038124583712,0.895384363318964,0.894152681955959,0.869878961587649,0.868983193323645,0.977795043607289,0.89225717232588,0.846469017759628,0.967493708571248,0.89517641711482,0.898479562588333,0.898263618453261,0.897575796393401,0.899335341197693,0.868191398161713,0.866647797492493,0.827042043534051,0.837263399260806,0.815165116105075,0.816020894714436,0.826146275270047,0.832840543457288,0.828449679377485,0.828169751794984,0.804495876246319,0.772097857640734,0.756449905778922,0.738440164913894,0.722041207337886
0.781852933994351,0.785809510424731,0.889841797185442,0.798027949504358,0.811805985115062,0.811678018220205,0.811614034772776,0.805959497606254,0.865895991985204,0.786861238341842,0.78168497744485,0.777290114399583,0.776992591369039,0.751172071159137,0.752953210376937,0.756193172196114,0.757418455214376,0.759122814295261,0.739882191860321,0.739000020078896,0.744964077172355,0.743573236983871,0.741854481627315,0.739463900072755,0.726884754308248,0.726682406655755,0.726264114868189,0.728160424291361,0.73188746010409,0.731026882736172,0.729674432616145,0.727621363746773,0.72626171548891,0.727746131469259,0.724727712336804,0.724934858747855,0.72610495604271,0.724666928061747,0.724952454195898,0.727431812783765,0.735945610257263,0.734343624692264,0.734999455028409,0.740188512614887,0.876581227705818,0.867167663002852,0.725057227091063,0.724355808548624,0.726409677211089,0.729212152208472,0.729845588338017,0.730022342611539,0.73588322639602,0.732301752926191,0.730325464193733,0.738831263736303,0.738301800708829,0.744424216834675,0.722689039743103,0.709769981914131,0.710795316659178,0.678034991782527,0.696321461057685,0.652523991499562,0.684890818174525,0.680520748715137,0.683256840885812,0.678187752263263,0.68756532627705,0.68629845401796,0.688465093506518,0.697772285728133,0.674078415352147,0.675298899611852,0.67957379369319,0.673762497080467,0.691148399333064,0.672597998337263,0.716869745199452,0.720508003978873,0.734739522273229,0.743738794154093,0.762030861980902,0.812717749240923,0.837431355810306,0.837511335119592,0.873254088439519,0.864256416144841,0.888786070302866,0.936293780018768,0.88865010547708,0.887146494462503,0.919402149897559,0.924960711892938,0.959511773504503,0.958663992826071,0.915139252712613,0.886666618606786,0.905389774910646,0.885650881378854,0.886322707576856,0.896967953642827,0.922377380202999,0.923585067773218,0.970820847837547,0.919993996786275,0.980562327708586,0.914555403754825,0.902766453566064,0.880604186962905,0.895880235036537,0.932166847659609,0.8973518543274,0.939181033083994,0.914027540313537,0.914163505139324,0.952409610839903,0.927975931853021,0.930591255266674,0.946907034361024,0.920921756773993,0.930695228368746,0.9409165840955,0.920449878849205,0.913467685148535,0.913691627214536,0.918322429222197,0.920545854020349,0.919730065065631,0.941028555128501,0.938661167573634,0.901278838413344,0.900415061873055,0.90891686245016,0.874181848427237,0.911820111377243,0.929567520107813,0.930183360789315,0.890065739251443,0.883147528998201,0.902310571503134,0.861241196184757,0.861753063764188,0.847412773609203,0.847468759125703,0.846349048795699,0.867903472648284,1.00708346666783,0.900447053596769,0.90038307014934,0.900071150843125,0.898671512930619,0.853963079039729,0.875125604276812,0.8466849618947,0.817164598837226,0.814229358186429,0.814253351979215,0.822323264286175,0.834112214474936,0.814269347841072,0.825938329065904,0.806223429326897,0.806583336218684,0.777016585161825,0.761694149088807,0.761490201850128
0.7906186662921,0.861617098938402,0.808998711359122,0.81336558164614,0.810862229265487,0.8105023223737,0.803568116258601,0.801424670769736,0.784146740584674,0.78410915030931,0.778740939070032,0.777584438257756,0.763130577483584,0.753952951743012,0.750782571922914,0.752739665621143,0.757896731483906,0.759596291806235,0.741933661143508,0.742462324377889,0.742548702031917,0.742613485272439,0.742660673064918,0.741301024807055,0.736701414730016,0.735211400198017,0.735641688881976,0.733770173044683,0.731685912244689,0.731258022940009,0.732197779824119,0.731431578041159,0.728767467248842,0.726704001069262,0.725133207434884,0.725483516809557,0.726520848450997,0.72906898924485,0.729449690757051,0.733003971261722,0.741042691638061,0.753912962088369,0.753541858093282,0.753257131752224,0.868087425059642,0.734621152895486,0.726431271624597,0.727195074028278,0.727245460993128,0.726851162998348,0.728513133045312,0.739701438621335,0.737495609271226,0.731806681001711,0.729304128414151,0.725655472324522,0.73783792071497,0.725986586664966,0.727944480156288,0.725213986537263,0.708104812694796,0.707485772840922,0.668954141006191,0.654328324717055,0.652419218604397,0.666561959865446,0.669652360376258,0.67726399124101,0.693989264398904,0.692100952906661,0.713027539181351,0.702187143600722,0.671572663592216,0.674086413283076,0.695030595005808,0.691344348640815,0.687000672353491,0.703158092415455,0.707909663180138,0.71882923827696,0.741893671488865,0.743647617741507,0.776969397369346,0.830089255217849,0.854091045934586,0.842670000568541,0.869950942966006,0.866055950603776,0.869894957449506,0.910588430014238,0.911284250005026,0.890329670972087,0.955048928046342,0.926568296009587,0.971756605756194,0.957600268012567,1.00705147494412,0.90994859553995,0.888858051681224,0.887106504807859,0.889097989609082,0.946891038499167,0.916682853381833,0.923681042944361,0.950098208801537,0.961679212786154,0.918058497501553,0.925360608439368,0.934462253836118,0.894064704715744,0.886282717922213,0.886410684817071,0.916954783033406,0.911004322422525,0.916666857519976,0.914795341682683,0.914483422376468,0.910444467257523,0.972108514717052,0.961495260374796,0.933214576611256,0.951417867404756,0.950898001894397,0.929399563558312,0.937309517246701,0.908764901762516,0.918082491294339,0.918962263696485,0.936205802778553,0.935829900024909,0.932406785587467,0.932166847659609,0.914891316853826,0.966381996172173,0.966358002379387,0.911044312077168,0.884627146219993,0.885394947589139,0.888690095131723,0.883723380025061,0.944163744052513,0.865096198892344,0.861945014106474,0.972644376089269,0.887570384801718,0.847756684639133,0.863008738919979,0.903494265280567,0.875677461510886,0.8755414966851,0.896112175033467,0.86803943747407,0.868175402299856,0.86769552644414,0.834400139988366,0.841806224028252,0.822891117382106,0.823011086346035,0.819108096052877,0.820643698791169,0.810022446517984,0.809134676184909,0.780814002766726,0.779596717679392,0.784868153954435,0.787551459780981,0.793190001085646
0.802312441102811,0.803568116258601,0.817236580215584,0.81588492988865,0.816060884369079,0.81565298989172,0.800336952163445,0.790500296914357,0.784221921135403,0.778857708861589,0.778613771968267,0.762209215840609,0.750928934058908,0.751221658330894,0.750788970267657,0.750229914895748,0.746126176536282,0.740537222403374,0.739651051656485,0.739610262208749,0.74249351630851,0.735820842534777,0.740223703510972,0.738842460839603,0.738524942981737,0.738759282357945,0.749250168356994,0.73990138689455,0.735924015843756,0.730521413501484,0.729326522620751,0.726795977274941,0.728033257189596,0.728467544839019,0.72795887643196,0.727231064717457,0.728893834557513,0.730578198811077,0.733001571882444,0.883859344850847,0.756364327917986,0.755061464969717,0.754100913465191,0.752618097071029,0.751076095987994,0.731947444586054,0.732192181272469,0.730762951015528,0.729232946828886,0.733788568285819,0.73406849586832,0.73741562996194,0.742094419555173,0.734855492271694,0.753405093474403,0.750298697101734,0.749383733803502,0.734558769034243,0.734599558481979,0.71834856262815,0.700126876593514,0.69407484225984,0.701628888021906,0.654789005538542,0.654425899474384,0.663204428461618,0.666813094896604,0.685080369137533,0.701763253261506,0.697847466278862,0.707542558150515,0.704142637712766,0.68362554550162,0.69046217685939,0.672496424614469,0.679361848523582,0.672789148886456,0.70048358431293,0.719293918063911,0.718694073244266,0.743242122643427,0.767423866806058,0.791192917732774,0.832920522766574,0.871830456734228,0.867447590585353,0.874637730490167,0.861257192046615,0.893808770926029,0.91698677475712,0.915531151328115,0.915915052012688,0.925160660166153,0.930359315269744,0.929543526315027,0.930487282164602,0.978586838769221,0.97756310361036,0.950650066035611,0.888394171687365,0.888642107546151,0.909836624506949,0.916658859589048,0.928159884264379,0.927440070480805,0.925992444982727,0.927672010477734,1.00161288191267,0.995622431647145,0.982545814578879,0.903022387355779,0.889026008230724,0.889321931675083,0.919362160242915,0.936493728291983,0.97836289670322,0.913867581694965,0.913907571349608,0.963846652067805,0.963686693449233,0.932686713169968,0.955720754244345,0.958128131453854,0.908269030044943,0.908524963834658,0.948346661928173,0.91939415196663,0.949618332945821,0.949642326738606,0.950410128107752,0.93668567863427,0.910708398978167,0.913483681010392,0.945987272304235,0.960967396933508,0.975523631223566,0.900519034975127,0.8974638253604,0.925456583610511,0.888890043404938,0.869647021590719,0.977507118093859,0.86889521608343,0.86363257753241,0.891713313022735,0.891945253019664,0.859041765179391,0.882691646935271,0.879900369041188,0.876221320814031,0.888810064095652,0.8973518543274,0.878500731128683,0.833504371724362,0.834400139988366,0.851867621136435,0.850252039088857,0.828641629719772,0.831552876577783,0.82321103461925,0.802248457655382,0.823530951856394,0.788299266322805,0.789438971480131,0.812933693375995,0.803720076946245,0.803568116258601
0.80591950795161,0.805975493468111,0.811566047187204,0.810246388583985,0.803480139018387,0.865991967156348,0.798053542883329,0.788175298393412,1.29049814705381,0.779732682505178,0.76526282586915,0.759148407674233,0.750652205648778,0.750368279100813,0.749845214418082,0.738752884013202,0.738062662574064,0.736831781004152,0.737126904655417,0.738003477885192,0.72307134084149,0.722441103884317,0.72377036000465,0.739555876278434,0.740062945099307,0.754513606701107,0.753761001400726,0.80013700389023,0.732308951064027,0.73113805397608,0.727486998507172,0.727239062648385,0.726164940524674,0.728936223591435,0.72873067676657,0.728381966978083,0.729454489515609,0.74063399736761,0.757725575762034,0.758882876367403,0.755210226484989,0.754909504282073,0.752484531624521,0.753113968788602,0.73476751503148,0.734379615381442,0.73353743325466,0.73225936389227,0.732428920027956,0.732499301820128,0.732323347339699,0.739172775386954,0.740476438128316,0.751268846123373,0.753961749467034,0.740090937857558,0.741085880465076,0.720703953286624,0.720923896387161,0.690321413275047,0.690972444852635,0.692106551458311,0.654319526993033,0.655978297867626,0.655991894350204,0.684598893695631,0.698017022414549,0.695045791074573,0.694399558255542,0.709589228675144,0.706131723134709,0.693548578404738,0.696682167742565,0.696399840780785,0.680297606442229,0.69878082481823,0.695933561407648,0.72502843453972,0.726867158860205,0.745785464678723,0.74912060187595,0.795078312577889,0.804071985907103,0.87032684571965,0.870318847788722,0.871054657434153,0.873374057403448,0.875893405645958,0.903950147343498,0.918754317492342,0.879380503530829,0.877149080801749,0.956784479057849,0.928471803570594,0.912827850674247,0.915771089255973,0.980850253222015,0.933158591094756,0.918562367150055,0.894448605400317,0.890929515791732,0.900335082563769,0.954593045983412,0.922753282956643,0.928855704255167,0.958360071450784,0.949082471573604,0.939876853074782,0.933846413154616,0.939700898594353,0.924784757412508,0.898287612246047,0.978962741522865,0.976059492595782,0.919274183002701,0.902926412184636,0.944963537145374,0.996574185427649,0.966933853406246,0.947194959874454,0.9551209094247,0.956592528715563,0.934006371773188,0.967637671327963,0.968277505802251,0.96221507415837,0.919418145759416,0.91945013748313,0.988392302087688,0.911388223107098,0.911324239659669,0.907477234883012,0.889321931675083,0.914547405823896,0.884563162772564,0.975411660190565,0.898631523275977,0.900087146704982,0.919282180933629,0.877564973210036,0.875861413922244,0.880452226275262,0.949146455021033,0.861985003761118,0.862952753403479,0.903918155619783,0.860729328605327,0.868127414714285,0.890873530275232,0.889273944089511,0.964022606548235,0.887834316522362,0.878788656642112,0.858729845873176,0.838806999930026,0.868463327813286,0.867935464371998,0.859873549995966,0.864304403730412,0.818372286407445,0.807279156209473,0.816780698152653,0.786654091930791,0.786836444755964,0.839134915098099,0.814941174039075,0.81530907886179
0.808526833434335,0.809246647217909,0.807167185176473,0.798688578599061,0.792087086410592,0.791660796692097,0.790233166021341,0.787897770190189,0.785337632499943,0.786006259525575,0.770590247660692,0.754671165940401,0.752430145694206,0.752273386248006,0.74079075681381,0.736692617005994,0.735063438475838,0.734415606070621,0.734525177724343,0.723149720564591,0.720603179356924,0.718622891659002,0.718789248622317,0.720948689973039,0.753812188158669,0.7508065657157,0.738233818295936,0.735355362954732,0.731808280587896,0.729654437788824,0.728433953529119,0.728405160977776,0.72873627531822,0.727466203886758,0.726708000034726,0.728666693319141,0.941988306839933,0.756561876811923,0.758506173820666,0.758410198649523,0.754239277670256,0.753555454575861,0.75261569769175,0.736307916528328,0.735140218612752,0.73671101224713,0.735468933573918,0.732632067473542,0.731763492174696,0.734049300834091,0.737690758785884,0.737997079540449,0.738762481530317,0.723797552969808,0.72327528808017,0.737238075895325,0.727768525675859,0.712159763675597,0.716779368579958,0.689103328394621,0.689252089909893,0.705269546180606,0.64153163523129,0.657911397773069,0.685381891133542,0.684616489143674,0.714216831510434,0.717741519670669,0.723675984419693,0.714802280054408,0.69751395255914,0.703929092956972,0.695612844377411,0.689365660529079,0.693860497710954,0.696221486921077,0.745353576408578,0.746601253633441,0.736679820316508,0.763566464719193,0.762708286730554,0.790793820979436,0.816444785053652,0.861849038935331,0.873294078094162,0.872342324313658,0.856594398315239,0.856306472801809,0.872494285001302,0.880396240758762,0.917458652681908,0.918330427153126,0.918378414738697,0.926312362219871,0.94286807924208,0.908189050735657,0.908604943143944,0.921145698839994,0.92099373815235,0.902654482533064,0.875613478063457,0.906349526622078,0.94017277651914,0.958392063174498,0.966389994103101,0.939868855143854,0.942300226146149,0.96382265827502,0.965790149283456,0.962726941737801,0.961319305894367,0.961863165197512,0.929655497348027,0.966126062382457,0.894640555742604,0.925080680856867,0.90371020941564,0.935909879334195,0.960799440384008,0.959951659705576,0.962231070020228,0.961543247960368,0.969453201648756,0.969189269928112,0.955408834938129,0.917578621645837,0.921177690563708,0.9226573077855,0.989160103456834,0.908820887279017,1.03837137246053,1.00961081284127,0.897543804669687,0.882627663487842,0.881963835220768,0.980410367020942,0.908125067288228,0.90050303911327,0.90576567766429,0.932134855935895,0.937285523453915,0.905629712838504,0.892729050250668,0.878204807684324,0.868823234705073,0.888986018576081,0.922233417446284,0.919954007131632,0.867031698177066,0.883835351058061,0.884379210361206,0.902238590124776,0.903246329421781,0.876837161495533,0.850547962533215,0.870230870548507,0.831632855887069,0.862280927205476,0.831928779331428,0.821195556025242,0.834352152402794,0.83380029516872,0.822891117382106,0.831104992445781,0.831864795883999,0.800880811466591,0.804215948663818
0.818564236749732,0.872366318106444,0.792337421648657,0.790350735605992,0.78775540701966,0.787821789846368,0.78832565949487,0.787986547223497,0.785416812016137,0.783772437417216,0.767473453977816,0.751149676952537,0.751003314816544,0.741912066730001,0.737693957958255,0.737228478378211,0.735590502124033,0.734073294626877,0.724240638343252,0.723306480010791,0.7218716512022,0.721725289066207,0.722461898504731,0.72337606200987,0.741563356941514,0.73783792071497,0.736982941898703,0.734765915445294,0.732273760167941,0.73047262612282,0.729244143932186,0.727330239060972,0.727067107133421,0.727207070924671,0.730751753912228,0.753834582365269,0.753381099681617,0.755447765033568,0.754440825529657,0.753996140570027,0.744964876965448,0.742575095203982,0.734087690902548,0.73475631792818,0.736871770658795,0.735555311227947,0.734624352067857,0.731693910175617,0.73137319314538,0.733793367044376,0.739745427241442,0.739411113728626,0.737734747405991,0.724621339855454,0.718322169456086,0.715470907080039,0.716871344785637,0.717150472575046,0.713284272764159,0.704144237298951,0.712424495189334,0.685093165827019,0.687246208832999,0.666528368555546,0.692433666833291,0.708011236902931,0.714294411440442,0.714367192611892,0.72509561715952,0.689486429286101,0.680026476583749,0.679689763691655,0.701912014776778,0.680546342094108,0.701474527954984,0.713928106203912,0.745339180132907,0.751979862182926,0.754755144215151,0.782000095923437,0.806511354840327,0.835183937219369,0.85613051832138,0.873326069817876,0.870782727782581,0.871142634674368,0.896016199862323,0.897215889501614,0.870990673986725,0.884267239328206,0.90777315832737,0.922145440206069,0.961791183819154,0.949314411570534,0.914251482379538,0.914835331337326,0.919466133344987,0.955024934253556,0.896200152273681,0.908596945213016,0.876781175979033,0.876621217360461,0.922233417446284,0.935789910370266,0.947322926769312,0.947122978496097,0.956040671481489,0.954800992187556,0.947850790210599,0.948850531576675,0.963294794833732,0.925032693271295,0.924872734652723,0.939700898594353,0.92494471603108,0.938653169642706,0.937549455174559,0.938437225507634,0.983977444215099,0.96170320657894,0.959343816955002,0.95030615500568,0.944651617839158,0.953233397725549,0.9551209094247,0.916234969249832,0.919482129206845,0.914259480310467,0.914003546520752,0.908029092117085,0.906533479033436,0.906981363165438,0.913203753427891,0.881403980055765,0.915219232021899,0.892409133013523,0.930855186987318,0.919122222315057,0.925400598094011,0.895760266072608,0.888922035128652,0.900694989455556,0.907341270057225,0.914691368580611,0.869567042281433,0.869918951242292,0.870678754680509,0.868815236774144,0.86872725953393,0.981250149768445,0.877357027005893,0.877596964933751,0.881204031782551,0.892305159911452,0.85469888868516,0.87645326081096,0.889193964780225,0.844533518474906,0.827058039395908,0.825754376654546,0.864000482355125,0.826146275270047,0.815053145072075,0.813509544402855,0.830601122797279,0.794084969556557,0.79491915375241
0.88418726001892,0.877948873894609,0.78299903749642,0.783323753492121,0.783925997691045,0.784004377414145,0.790173181539377,0.789334198584966,0.780379715117302,0.765461174556179,0.754591986424208,0.753169154512009,0.745990211710495,0.739839802826399,0.74131622087582,0.740977108604447,0.738095454090871,0.735472132746289,0.726236921903032,0.725187593365199,0.725432330051614,0.726888753273713,0.737360444238533,0.738236217675215,0.737275666170689,0.736725408522802,0.735886425568391,0.73498585854583,0.733919734353048,0.731442775144459,0.727762927124209,0.726125750663124,0.727003923479085,0.730668575430571,0.751037705919537,0.752934015342708,0.87250228293223,0.742552700997382,0.74253270617006,0.742911008302983,0.743595631190471,0.73371338773509,0.733413465325267,0.733270302361645,0.736051982738613,0.735657684743833,0.731191640113301,0.731206036388973,0.73236013782197,0.734480389311143,0.739045608285189,0.737897105403842,0.730473425915913,0.730219091712383,0.717833495876348,0.71346902496861,0.714451970679735,0.739978167031464,0.701952804224514,0.704327389917216,0.712853184287107,0.693345430959152,0.676668945179922,0.671522276627366,0.70483445873809,0.705369520317213,0.709014977234471,0.715754033834912,0.732517697061263,0.696742152224529,0.698496898270265,0.698189777722607,0.693879692745182,0.685387489685192,0.727747731055445,0.740125328960551,0.748914255257993,0.768692338651335,0.823490962201751,0.834344154471865,0.867119675417281,0.908141063150085,0.9083410114233,0.912435952058745,0.911828109308171,1.00852309423498,0.900335082563769,0.900447053596769,0.878052846996681,0.892857017145525,0.919874027822346,0.919514120930559,0.957760226631139,0.947954763312671,0.910892351389525,0.922089454689569,0.915067271334256,0.897743752942902,0.94481157645773,0.884387208292134,0.900335082563769,0.901062894278272,0.906037607315863,0.922153438136998,0.945163485418589,0.945659357136162,0.96101538451908,0.962063113470727,0.936893624838413,0.954137163920481,0.959343816955002,0.925560556712583,0.919442139552201,0.919154214038772,0.916834814069477,0.916850809931334,0.911700142413314,0.912843846536104,0.973684107109987,0.976843289826785,0.962742937599658,0.948834535714818,0.947818798486885,0.939189031014922,0.956296605271204,0.955656770796916,0.96422255482145,0.929367571834598,0.93382241936183,0.908093075564514,0.907989102462442,0.906981363165438,0.912907829983533,0.891721310953663,0.888586122029651,0.916282956835403,0.916682853381833,0.922529340890642,0.931439035945106,0.89987120256991,0.90204663978249,0.901518776341202,0.884131274502419,0.882611667625985,0.873965904292165,0.872606256034302,0.860041506545467,0.864280409937626,0.884195257949848,0.877357027005893,0.877676944243037,0.892025232328951,0.968805369243539,0.875437523583028,0.880644176617548,0.861553115490973,0.862400896169405,0.837495339257735,0.841774232304538,0.842078153679825,0.882643659349699,0.856954305207026,0.849932121851713,0.829385437296132,0.806191437603183,0.824282757363683,0.849028355656781
0.779837455400343,0.776499119030744,0.781451437861735,0.785313638707158,0.78560796256533,0.779208018236262,0.779249607477091,0.777129355987918,0.777148551022147,0.758046292792271,0.752164614387377,0.751017711092215,0.745791063230373,0.742215988105287,0.743305306297763,0.742235183139516,0.74107308377559,0.728709082353063,0.726151344042095,0.725841824115159,0.72646006417594,0.736285522321729,0.737434025203076,0.740602805436988,0.739981366203836,0.735593701296404,0.734537174620736,0.733419063876917,0.733508640703317,0.728388365322826,0.728592312561505,0.728735475525127,0.728876239109471,0.792982854674595,0.755476557584911,0.750713789716928,0.736882967762095,0.734294837313599,0.734165270832556,0.735090631440995,0.735033046338309,0.732320148167327,0.732896798987279,0.736838979141988,0.736945351623338,0.730555004811384,0.730803740463264,0.730880520600178,0.729252941656208,0.744656956624697,0.743337298021478,0.739335133384805,0.73733725023884,0.727578174919758,0.723457640905342,0.714941444052566,0.712817193597929,0.71165989299256,0.707718512630944,0.737273266791411,0.700858687273481,0.701547309126434,0.697838668554841,0.67263638840572,0.688023607719259,0.692316097248641,0.723463239456992,0.710192272667161,0.705303937283599,0.699087145572796,0.701234590027126,0.70642284782051,0.710012319221268,0.703523597858892,0.729215351380843,0.735436941850204,0.756623460880073,0.785494391946144,0.849524227374354,0.856890321759597,0.876029370471744,0.866935723005923,0.868447331951429,0.889169970987439,0.881124052473265,0.872414305692016,0.884475185532349,0.883523431751845,0.878036851134824,0.896272133652039,0.899535289470909,0.918098487156196,0.909836624506949,0.911484198278242,0.925336614646582,0.923529082256718,0.912907829983533,0.902926412184636,0.901750716338132,0.888954026852367,0.867143669210066,0.866959716798709,0.91412351548468,0.914003546520752,0.947890779865243,0.973244220908914,0.973100258152199,1.04923256266157,0.964110583788449,0.975075747091564,1.00563584116976,0.932702709031825,0.951721788780043,0.930871182849175,0.906613458342722,0.906813406615937,0.936205802778553,0.932966640752469,1.00493202324804,0.944443671635015,0.977203196718572,0.953121426692549,0.967493708571248,0.960639481765436,0.969949073366329,0.935246051067121,0.933678456605115,0.916674855450905,0.908596945213016,0.926328358081729,0.926688264973516,0.908149061081014,0.908373003147015,0.923041208470073,0.919978000924418,0.920673820915206,0.922145440206069,0.925296624991939,0.908876872795517,0.950578084657253,0.907957110738728,0.906805408685009,0.867679530582283,0.869103162287574,0.91034849208638,0.865448107853203,0.866791760249208,0.913787602385679,0.889817803392656,0.93971689445621,0.919498125068702,0.898055672249117,1.00562784323883,0.886298713784071,0.895248398493177,0.907245294886082,0.885490922760282,0.839262881992956,0.839902716467244,0.843853694345975,0.852931345949939,0.865736033366632,0.819787920181808,0.861657088593045,0.882035816599125,0.832616601391287,0.840998433004463
0.778141894043479,0.774838748569966,0.773130390523617,0.780098187948616,0.779479148094742,0.778723343621989,0.848396519113421,0.849772163233141,0.766208181304911,0.766860012675592,0.749160591530593,0.747776949479945,0.746614050322926,0.749129399599972,0.749443718285466,0.748520757056305,0.746654039977569,0.735277783024724,0.73989018979125,0.738155438572836,0.737459618582047,0.737308457687497,0.740917923915575,0.739829405516192,0.735330569368853,0.734495585379907,0.734647546067551,0.729843188958739,0.727781322365345,0.728733076145848,0.728889835592049,0.734446798001243,0.759489919324884,0.758665332646145,0.7525429165203,0.73513382026801,0.735760858052812,0.734222056142149,0.734246049934935,0.734011710558727,0.73387014718129,0.731660318865717,0.731941046241311,0.737464417340605,0.732091407342769,0.731773089691811,0.729728018753367,0.728986610556285,0.729075387589593,0.748553548573113,0.743146147472284,0.73453557503455,0.73408529152327,0.729107379313307,0.728956218418757,0.724322217238724,0.71540692363261,0.706728368781983,0.731634725486746,0.729419298619523,0.688394711714347,0.706336470166482,0.678484475500714,0.66037795967145,0.690103869553789,0.677499130410311,0.703998674956051,0.71903078613636,0.71712647878226,0.703740341787057,0.700669136310473,0.697305206561903,0.70677235740209,0.715409323011889,0.734449997173614,0.748531154366512,0.776485522548166,0.844733466748121,0.874725707730382,0.874741703592239,0.926912207039517,0.914075527899109,0.900758972902985,0.911924084479315,0.944147748190656,0.908652930729516,0.900335082563769,0.907957110738728,0.926016438775513,0.91756262578398,0.904406029406428,0.905733685940576,0.908820887279017,0.958056150075497,0.957992166628068,0.937461477934344,0.951545834299614,0.933630469019543,0.926840225661159,0.895280390216892,0.893704797823957,0.86671977887085,0.867727518167854,0.917114741651978,1.00929889353506,0.997014071628722,0.964526476196737,0.964182565166807,0.963654701725519,0.967581685811463,0.961919150714012,1.00699548942762,0.943339957166867,0.963814660344091,0.928407820123165,0.925736511193012,0.962646962428515,0.963382772073946,0.945147489556732,0.945339439899018,0.977691070505217,0.981642048383947,0.930623246990389,0.925088678787795,0.972172498164481,0.897439831567615,0.897183897777899,0.898807477756406,0.925560556712583,0.93313459730197,0.931910913869893,0.936469734499197,0.911268254143169,0.920633831260563,0.907245294886082,0.922625316061785,0.922585326407142,0.907333272126297,0.921825522968925,0.922833262265929,0.910916345182311,0.892928998523882,0.865903989916133,0.86196900789926,0.862432887893119,0.885123017937566,1.11020878806124,0.88418726001892,0.930183360789315,0.930303329753244,0.913659635490822,0.91761861130048,0.911652154827742,0.911140287248311,0.882739634520842,0.870046918137149,0.869255122975218,0.851867621136435,0.850188055641428,0.854794863856303,0.839678774401244,0.839598795091958,0.836671552372089,0.883067549688915,0.883195516583773,0.818236321581659,0.802176476277024
0.775599351801276,0.775596952421998,0.778764133069725,0.779462352439792,0.77766681694632,0.752934015342708,0.75322514002851,0.753462678577089,0.754272069187064,0.758752510093267,0.758750110713988,0.820155825004524,0.758323021202401,0.753762600986912,0.753053984306638,0.749357340631437,0.745827853712645,0.740829946675361,0.740483636266152,0.740494033576359,0.739443105452341,0.741684125698535,0.740949115846197,0.735891224326948,0.734303635037621,0.734565967172079,0.730718962395421,0.728982611590821,0.728944221522364,0.729227348277236,0.836415618582374,0.76194928308543,0.760761590342532,0.76054564620746,0.737514004512362,0.734968263097788,0.73475631792818,0.735458536263711,0.736214340736464,0.73354303180631,0.732090607549676,0.733022366502858,0.736531058801236,0.731434777213531,0.731174844458351,0.731789085553668,0.731365995007545,0.726857561343091,0.723825545728058,0.72514040557272,0.733049559468016,0.734131679522656,0.732488904509921,0.730758952050064,0.730159907023511,0.715195778256095,0.715625267146961,0.737841919680435,0.737830722577134,0.716401866240128,0.688693034537983,0.709538041917201,0.680690304850823,0.685301911824256,0.684226190114359,0.677303980895653,0.706826743332405,0.707919260697252,0.707673724217744,0.698680850681623,0.705838998862722,0.707790494009301,0.712296528294477,0.701793645399035,0.726425673072947,0.726362489418611,0.847788676362847,0.84742876947106,0.878684683540041,0.878996602846256,0.88533096414171,0.898319603969761,0.899063411546121,0.895040452289034,0.901870685302061,0.902358559088705,0.90010314256684,0.885226991039638,0.918546371288198,0.919258187140844,0.925184653958938,0.910028574849236,0.910372485879166,0.942796097863722,0.937053583456985,0.938677163435492,0.939540939975781,0.930119377341886,0.912371968611317,0.93387840487833,0.905581725252933,0.900095144635911,0.967645669258892,0.906541476964365,0.942492176488435,0.9551209094247,0.971596647137622,0.990063869651766,0.991023621363199,0.966893863751603,0.975803558806067,0.958647996964213,0.994726663383142,0.975779565013281,0.938453221369491,0.943643878542154,0.940956573750144,0.974779823647206,0.956448565958848,0.985465059367819,0.985537040746177,0.991807418594202,0.978842772558936,0.920057980233704,1.00890699491955,0.945307448175304,0.899175382579122,0.89889545499662,0.934694193833048,0.901566763926774,0.911196272764812,0.98374550421817,0.930655238714103,0.930991151813104,0.926224384979657,0.925424591886797,0.916538890625119,0.906029609384934,0.907093334198439,0.879732412491688,0.905893644559148,0.885570902069568,0.884571160703493,0.908109071426371,0.943219988202938,0.94767483573017,0.950178188110823,0.90067099566277,0.90902883348316,0.951433863266614,0.904406029406428,0.905565729391075,0.903454275625924,0.904797928021929,0.864120451319055,0.864632318898485,0.897791740528473,0.851331759764218,0.891265428890733,0.856210497630666,0.863072722367408,0.837999208906237,0.838279136488738,0.856082530735809,0.850707921151787,0.815317076792719,0.814341329219429
0.782352804677389,0.784063562103017,0.781317072622135,0.777054175437189,0.768118087210661,0.752053443147469,0.75269407741485,0.751710331910632,0.748602335951777,0.75807108637815,0.770731811038129,0.775858484763363,1.02191163060946,1.0172808286018,0.754926299937024,0.755751686408855,0.744778525174812,0.743723598085329,0.743068567542277,0.743342896573128,0.744097101459695,0.740216505373137,0.740609203781731,0.734779511927872,0.735281781990189,0.731893858448832,0.72952487130778,0.728718679870177,0.734064496902855,0.811869968562491,0.761479804539921,0.763204158448128,0.74669322983912,0.74244312934366,0.736814185556109,0.735300977024417,0.733776571389426,0.736851775831473,0.7345187793796,0.73301436857193,0.732552887957349,0.731714704796032,0.733930931456348,0.731882661345532,0.731839472518518,0.733195121810916,0.732268961409384,0.728345976288904,0.727850904364424,0.727888494639788,0.729228947863422,0.731891459069554,0.731392388179609,0.731330004318366,0.721087853971197,0.717917474151099,0.717773511394384,0.726469661693054,0.727139088511778,0.701685673331499,0.702254326220523,0.66551183153452,0.679010739355817,0.682190716693029,0.68433576176808,0.6783629069506,0.695692023893604,0.710258655493868,0.702111163256901,0.699128734813625,0.70269821138706,0.687899639789866,0.693584569093917,0.734326829037314,0.740536422610281,0.738608121463395,0.757574414867484,0.878252795269896,0.878196809753396,0.874653726352025,0.907741166603655,0.901830695647418,0.904102108031141,0.903750199070282,0.888698093062652,0.903414285971281,0.903830178379568,0.924736769826937,0.920121963681133,0.908924860381089,0.915955041667331,0.922793272611286,0.90542176663436,0.919442139552201,0.967693656844463,0.924976707754795,0.958344075588927,0.959431794195217,0.913963556866108,0.911812113446314,0.906349526622078,0.915299211331185,0.87416585256538,0.874389794631381,0.896576055027326,0.949154452951962,1.00226071431789,0.980890242876658,0.98912811173312,0.972060527131481,0.976739316724714,0.963006869320302,0.969653149921971,0.975739575358638,0.96891734027654,0.956248617685633,0.956000681826846,0.98735257106697,0.987720475889685,0.98752052761647,0.964086589995664,0.961511256236653,0.972732353329483,0.962055115539798,0.912875838259818,0.932966640752469,0.984073419386242,0.926128409808514,0.914259480310467,0.922641311923643,0.914587395478539,0.982489829062379,0.984849218686317,0.929047654597454,0.913627643767107,0.913123774118605,0.909700659681163,0.901742718407203,0.917306691994264,0.881571936605266,0.897039935021185,1.03202901323415,0.903262325283638,0.933790427638115,0.920065978164633,1.06237316317727,0.910948336906025,0.913331720322749,0.959647738330289,0.935989858643481,0.917378673372622,0.925584550505369,0.927160142898303,0.905725688009647,0.889385915122511,0.872238351211587,0.874325811183952,0.887250467564574,0.864392380970627,0.843325830904687,0.842989917805685,0.861257192046615,0.852827372847867,0.851347755626075,0.851483720451862,0.817356549179513,0.817652472623871
0.784014774724353,0.784949732849906,0.780967563040555,0.835159943426583,0.75937954787807,0.749751638626217,0.748610333882706,0.739695040276592,0.745233607444649,0.746038199296067,0.779287197752455,0.778974478653147,0.776555904340337,0.761973276878216,0.758062288654129,0.872086390523943,0.745643901301287,0.745235207030835,0.743876358566065,0.74530079006445,0.742975791543505,0.742055229693623,0.739316738143669,0.735657684743833,0.732257764306084,0.730214292953826,0.729693627650374,0.73152115486756,0.815117128519504,0.762329984597631,0.762240407771231,0.756829007704938,0.835543844111156,0.736923757209831,0.73704372617376,0.737184489758103,0.742502314032532,0.740229302062622,0.739750225999999,0.736403091906379,0.73123882790578,0.733267902982366,0.733223914362259,0.73414127703977,0.737493209891947,0.737750743267848,0.729888777165032,0.729586455375931,0.729482482273859,0.726929542721448,0.727650156298116,0.72863550138852,0.73057899860417,0.729936764750603,0.721366981760605,0.721914840029214,0.723433647112556,0.721238215072655,0.728935423798342,0.676487392147842,0.676492990699492,0.6657045816699,0.682936123855575,0.679969691274156,0.673006692607714,0.693142283513565,0.709618021226487,0.709357288678215,0.698089003792906,0.704812864324583,0.700878682100803,0.687211817730006,0.720801528043953,0.72413666524118,0.746126976329374,0.740137325856944,0.781048342142934,0.809854489968483,0.895944218483966,0.887546391008933,0.890201704077229,0.912092041028815,0.901662739097917,0.911980069995815,0.912715879641246,0.894152681955959,0.922601322269,0.88475511311485,0.879100575948328,0.879708418698902,0.918146474741768,0.970197009225116,0.917442656820051,0.917138735444764,0.924152920869149,0.967869611324893,0.94475559094123,0.939804871696425,0.913675631352679,0.911332237590598,0.956464561820705,0.915931047874545,0.906597462480865,0.873605997400378,0.931423040083249,0.930415300786245,0.928823712531453,0.960519512801506,0.96095939900258,0.989863921378551,0.950738043275825,0.955200888733985,0.954241137022553,0.938637173780849,0.938645171711777,0.980402369090013,0.970620899564332,0.964062596202878,0.963518736899733,0.971628638861336,0.972332456783053,0.973860061590416,1.15726861364514,0.910084560365736,0.9082290403903,0.908940856242946,1.05727048324482,0.953441343929693,1.01853650375759,0.960943403140722,0.961895156921226,0.961711204509868,0.98884018621969,0.937549455174559,0.9335904793649,0.909972589332736,0.927648016684948,0.894480597124031,0.888106246173935,0.962550987257372,0.892377141289809,0.897143908123256,0.915611130637401,0.898455568795547,0.927903950474663,0.920817783671921,0.945883299202163,0.924040949836148,0.924696780172294,0.92305720433193,0.921129702978137,0.927831969096306,0.902774451496993,0.901558765995845,0.901318828067987,0.876509246327461,0.872918175340518,0.868879220221573,0.869551046419576,0.898103659834689,0.862536860995191,0.863720554772624,0.842302095745825,0.844837439850193,0.875957389093387,0.866815754041994,0.818580232611589
0.783902003898259,0.780975560971483,0.779800664918072,0.779172027547083,0.756519487778001,0.749065416152543,0.740235700407365,0.739795014413199,0.740161319649729,0.885035040697351,0.778531393279702,0.77753245170672,0.774144528165364,0.757253697837247,0.752138221215312,0.751430404328131,0.745263999582178,0.74650047970374,0.745772667989237,0.743485259743657,0.743129351817334,0.742806235407818,0.742407138654481,0.731408384041466,0.730994091219365,0.730734158464185,0.730322265021362,0.756197171161578,0.756577072880687,0.760632023861489,0.984209384212029,0.739759023724021,0.73840817319018,0.737362843617811,0.737790732922491,0.737919499610442,0.739995762479507,0.739375123039448,0.738454561189566,0.738061862780971,0.731786686174389,0.733332686222888,0.733029564640694,0.741876076040822,0.742720657546882,0.734601957861257,0.731642723417674,0.731471567695802,0.729866382958432,0.7272822514754,0.728937823177621,0.731444374730645,0.734542773172386,0.734393211864021,0.726072164525902,0.725798635288144,0.727830909537102,0.725984187285688,0.682246702209529,0.689092131291321,0.669321246035814,0.676550575802178,0.689208901082878,0.687828458204601,0.718770853381181,0.713876919445968,0.711181616723029,0.700434796934265,0.709066163992414,0.707762501251052,0.688381115231768,0.695683226169582,0.737609979683505,0.726606426311933,0.745229608479185,0.765292418213586,0.792784505987566,0.81874818916109,0.883803359334347,0.858441920359746,0.858633870702033,0.871630508461013,0.870414822959865,0.878900627675113,0.914659376856897,0.892137203361951,0.869023182978288,0.878428749750325,0.87902859456997,0.879796395939117,0.922377380202999,0.954129165989553,0.984745245584245,0.935014111070192,0.932014886971965,0.948898519162246,0.948570603994174,0.936061840021838,0.95008221293968,0.915683112015758,0.936693676565198,0.922193427791641,0.911108295524597,0.920465874711063,0.901110881863843,0.944851566112373,0.944683609562873,0.967637671327963,0.956496553544419,1.01404166657572,0.984841220755388,0.950818022585111,0.9516258136089,0.937669424138488,1.01086648799706,0.965358261013311,0.965830138938099,0.967933594772321,0.96937322233947,0.970125027846759,0.97091682300869,0.934694193833048,0.935166071757835,0.911044312077168,0.946667096433166,0.955264872181414,0.955016936322628,0.936981602078628,0.98448931179453,0.986928680727754,0.983321613878954,0.999789353660947,1.01884042513288,0.954297122539053,0.966661923754674,0.927688006339591,0.891737306815521,0.891977244743379,0.891921259226879,0.899847208777124,0.899039417753335,0.908532961765587,0.908884870726446,1.05574287843745,0.923201167088645,0.922649309854571,0.914611389271325,0.917282698201479,0.916826816138548,0.920585843674992,0.920177949197633,0.912251999647387,0.898679510861548,0.919154214038772,0.919226195417129,0.877045107699677,0.876989122183177,0.890673582002016,0.906469495586007,0.875413529790242,0.850236043227,0.844805448126478,1.03523618353652,0.847524744642203,0.84926029565371,0.852827372847867,0.853635163871656
0.783723650038551,0.846197088108055,0.765390792764007,0.767320693497079,0.823746895991466,0.756409116331186,0.756525886122744,0.75269407741485,0.752115827008712,0.756803414325967,0.789806876302847,0.768296441070369,0.974619865028634,0.751879088253226,0.749839615866432,0.749203780357608,0.748635927261677,0.745711083921087,0.742993386991548,0.742508712377274,0.744475403592618,0.742351153137981,0.733643005942918,0.7326256691288,0.733584621047139,0.733629409460339,0.760066570144836,0.756828207911845,0.756877795083603,0.744149887803824,0.741058687499919,0.739991763514043,0.737146899482739,0.736522261077215,0.737253271964089,0.740192511580351,0.738316996777594,0.738440164913894,0.737912301472606,0.733175126983595,0.731530752384674,0.734692334480751,0.740648393643281,0.741953655970829,0.742609486306975,0.733391071118667,0.730476625088284,0.731581939142617,0.731368394386823,0.73097329659895,0.730191898747226,0.736223938253578,0.73735404589379,0.737392435962247,0.729010604349071,0.728853045109778,0.726634419070183,0.700162867282693,0.700280436867343,0.696759747672572,0.704053060886365,0.715976376314727,0.715432517011582,0.698598471993058,0.705525479970321,0.702750197938096,0.723465638836271,0.714972635983187,0.704824861220976,0.690717310856013,0.723259292218313,0.720084113639657,0.731220432664644,0.734909078408916,0.757201711286211,0.762394767838153,0.812069916835706,0.812861711997638,0.826146275270047,0.845893166732768,0.846580988792628,0.881451967641337,0.852955339742725,0.87989237111026,0.914435434790896,0.895712278487036,0.869263120906146,0.889129981332796,0.889217958573011,0.927967933922092,0.93061524905946,0.936701674496127,0.945595373688733,0.955448824592772,0.933326547644256,0.937805388964274,0.949754297771607,0.947186961943525,0.947138974357954,0.944907551628874,0.922681301578286,0.925208647751724,0.902958403908351,0.94756286469717,0.9480187467601,0.920777794017278,0.93599785657441,0.936197804847625,0.973388183665629,0.960991390726294,0.970372963705545,0.970213005086973,1.00726741907919,0.988984148976405,0.982345866305664,0.981066197357088,1.09078981176659,0.964694432746237,0.969757123024043,0.971156760936548,0.964190563097735,0.966837878235103,0.977131215340215,0.977691070505217,0.943595890956583,0.955952694241274,1.00615570668012,1.00562784323883,1.00275658603546,0.993966859944924,0.984801231100745,0.982721769059309,0.981929973897377,0.985473057298748,0.985489053160605,0.969197267859041,0.920873769188421,0.893392878517742,0.897175899846971,0.900087146704982,0.900135134290554,0.934414266250546,0.927600029099377,0.929975414585172,0.916778828552977,1.02886983051735,0.920113965750204,0.919202201624343,0.918474389909841,0.915611130637401,0.915627126499258,0.905485750081789,0.897223887432542,0.897111916399542,0.86683974783478,0.867055691969852,0.869231129182432,0.868031439543141,0.849164320482567,0.848380523251564,0.847924641188633,0.897199893639757,0.883547425544631,0.859521641035108,0.846085117075055,0.879220544912257,0.853819116283014
0.785272049466329,0.764859730150348,0.763546469891872,0.76225960280546,0.762737079281897,0.759289171258576,0.756715437085752,0.753584247127204,0.754168895878085,0.754265670842321,0.766442520681119,0.76782696252486,0.760771187859646,0.753467477335646,0.749731643798896,0.749738841936731,0.749759636557146,0.744142689665988,0.744049113874123,0.745991011503588,0.745276796271664,0.735491327780518,0.735304176196789,0.735552112055575,0.816556756086653,0.759160404570626,0.75909722091629,0.753248334028203,0.752140620594591,0.739676645035456,0.737333251273375,0.737620376993712,0.73779873085342,0.741552959631306,0.741395400392013,0.738832863322488,0.739000819871989,0.737994680161171,0.73159953459066,0.730896516462036,0.733570224771468,0.736918158658181,0.741207449015191,0.734561168413522,0.734058098558112,0.733931731249441,0.733666199942611,0.731837073139239,0.732956783469244,0.73192664996564,0.734445198415057,0.738203426158407,0.739133585525404,0.733079951605544,0.729220949932493,0.728728277387291,0.72426783130841,0.706951511054891,0.702892561108625,0.721207822935126,0.70156010581592,0.71053858307637,0.710484996939148,0.730449432123127,0.715043017775359,0.713344257246123,0.723921520899201,0.730929307978843,0.694261194050477,0.697013282083009,0.701287376371254,0.731503559419517,0.732179384582984,0.739997362065693,0.756824208946381,0.770148761873434,0.793086027983574,0.811893962355277,0.809926471346841,0.810574303752057,0.82750592352791,0.840518557148747,0.845277326051266,0.867359613345139,0.862344910652905,0.861345169286829,0.926336356012657,0.900870943935985,0.901046898416415,0.921473614008067,0.932742698686468,0.956296605271204,0.9191622119697,0.915683112015758,0.926592289802373,0.932422781449324,0.931055135260533,0.952545575665689,0.952849497040976,0.952785513593547,0.92191350020914,0.948186703309601,0.921161694701851,0.917746578195338,0.898455568795547,0.949210438468462,0.93891710136335,0.916690851312762,0.916826816138548,0.969037309240469,0.969349228546684,1.00332443913139,0.992663197203562,0.982385855960307,0.970388959567403,0.974331939515204,0.991711443423058,0.96330279276466,0.971916564374766,0.97154865955205,1.02808603328634,1.02651044089341,0.975939523631853,0.95220166463576,0.97618745949064,0.978346900841363,1.00072511157959,1.00666757425955,1.00090906399095,0.994134816494425,0.996942090250365,0.997054061283365,1.00870704664634,0.960903413486079,0.911668150689599,0.906885387994295,0.959607748675646,0.891193447512376,0.898743494308977,0.902646484602135,0.932062874557537,0.934574224869118,0.927919946336521,0.926640277387944,0.928879698047953,0.90851696590373,0.917450654750979,0.906429505931364,0.907173313507724,0.874357802907666,0.873981900154022,0.904358041820856,0.908261032114015,0.864840265102629,0.863920503045839,0.864184434766483,0.850587952187858,0.842118143334468,0.840838474385891,0.845109369501765,0.848044610152562,0.849236301860924,0.848132587392777,0.847276808783416,0.862496871340548,0.859505645173251,0.864696302345914
0.873406049127163,0.878452743543111,0.760496059035702,0.760463267518895,0.757871937898028,0.756857000463188,0.756391520883143,0.75490310593733,0.75259330348515,0.755214225450453,0.755749287029577,0.75597402888867,0.755357388414075,0.753498669266268,0.752217400731505,0.750105946966354,0.746896377284706,0.744625764694076,0.745711083921087,0.745274396892385,0.735504124470004,0.736343107424414,0.735556910814133,0.740416453646352,0.765166850698007,0.764914116080663,0.759458727394263,0.836391624789588,0.737197286447589,0.736363102251736,0.73672220935043,0.739567073381734,0.73951268745142,0.73878007697836,0.737264469067389,0.738856857115274,0.73951268745142,0.730619788051906,0.730863724945228,0.730772548532642,0.729348117034258,0.738523343395551,0.738013075402307,0.732131396997412,0.734114084074613,0.734597958895793,0.734677938205079,0.729861584199874,0.728923426901949,0.729150568140322,0.737662766027634,0.743189336299299,0.742638278858318,0.742051230728158,0.729735216891202,0.728080444982075,0.721971625338808,0.717211256850103,0.729955959784832,0.720703953286624,0.717665539326848,0.717854290496763,0.737506006581433,0.718103825941735,0.717955064426463,0.727009522030735,0.715718842938826,0.690921258094692,0.689194504807207,0.682522630826566,0.716404265619407,0.726890352859898,0.740665989091324,0.755847661579998,0.774577216228601,0.803808054186459,0.804471882453533,0.812861711997638,0.833584351033648,0.834712059294581,0.910388481741023,0.911236262419455,0.911100297593669,0.864104455457197,0.864680306484057,0.877724931828608,0.915011285817755,0.915571140982758,0.926064426361085,0.929495538729455,0.929247602870669,0.922137442275141,0.921985481587497,0.914331461688824,0.920625833329635,0.960231587288077,0.953201406001835,0.937405492417844,0.943715859920512,0.930935166296604,0.927839967027234,0.991639462044701,0.942956056482294,0.902118621160847,0.903734203208425,0.903038383217637,0.903582242520782,0.964262544476093,0.919378156104773,0.910964332767882,0.972140506440767,0.984329353175958,0.984057423524385,0.970940816801476,0.969285245099256,0.970252994741617,0.97200454161498,0.958128131453854,0.957728234907424,0.960583496248935,0.96038354797572,0.966469973412387,0.999245494357802,1.01171426867549,0.995646425439931,1.00221272673231,1.04081074139375,1.00260462534782,1.00283656534475,1.00102103502395,1.02741420708834,1.00300452189425,0.985281106956461,0.988816192426904,0.967045824439247,0.908732910038802,0.908732910038802,0.94218025718222,0.927719998063306,0.928871700117024,0.944387686118514,0.926848223592088,0.93067123457596,0.932854669719469,0.922001477449354,0.929135631837668,0.929255600801597,0.873709970502449,0.869942945035078,0.929511534591313,0.87044681468358,0.870990673986725,0.873797947742664,0.880948097992835,0.907189309369582,0.858329949326746,0.865040213375844,0.86180105134976,0.862840782370478,0.848868397038209,0.850547962533215,0.863664569256124,0.892761041974382,0.895056448150891,0.850771904599216,0.849036353587709,0.862248935481762
0.886290715853142,0.764899719804991,0.762319587287424,0.759311565465177,0.757538424178305,0.756749028395652,0.756643455707394,0.752993999824673,0.752084635078091,0.751135280676866,0.756209168057971,0.755934039234027,0.754195289050149,0.753191548718609,0.749101406841722,0.746630046184783,0.745156827307735,0.744288252008889,0.743812375118637,0.742638278858318,0.739485494486262,0.739407914556255,0.73914078366324,0.764837335943748,0.764944508218191,0.765106866216042,0.747517816517858,0.74067878578081,0.737343648583583,0.736480671836386,0.738567332015659,0.742172799278273,0.744812116484712,0.741285028945198,0.737654768096705,0.738157038159021,0.732231371134019,0.729827992889974,0.729442492619216,0.730731759084906,0.731147651493194,0.732300153340006,0.731217233492273,0.7308893183242,0.7344851880697,0.737429226444519,0.739566273588641,0.739440706073062,0.834560098606938,0.745982213779567,0.744081905390931,0.744401822628075,0.744400223041889,0.743365290779728,0.736169552323264,0.732880803125422,0.730480624053748,0.729458488481073,0.726157742386838,0.720318453015865,0.712701223599464,0.738700897462166,0.740059745926936,0.732643264576843,0.732602475129107,0.715408523218796,0.722221960576873,0.690336609343811,0.679007540183445,0.715798822248112,0.722930577257147,0.728501136148919,0.745682291369744,0.773196773350324,0.788000943499168,0.807367133449688,0.838966958548598,0.862104972725046,0.881523949019695,0.864264414075769,0.871238609845511,0.905293799739503,0.885994792408784,0.876949132528534,0.978546849114578,0.961727200371725,0.969325234753898,0.959151866612715,0.932982636614326,0.930895176641961,0.930399304924388,0.950114204663394,0.917986516123196,0.911204270695741,0.917642605093266,0.961463268651082,0.919458135414059,0.942196253044077,0.942124271665719,0.944883557836088,0.944075766812299,0.935158073826906,0.913203753427891,0.913547664457821,0.95030615500568,0.934694193833048,0.906213561796292,0.923105191917502,0.905613716976647,0.906805408685009,0.982041944930377,0.908325015561443,0.98918409724962,0.990095861375481,0.989663973105336,0.958695984549785,0.94693102815381,0.946867044706381,0.94573133851452,0.955832725277345,1.00882701561027,0.992687190996348,1.00875503423191,1.00758733631634,1.03827539728938,0.999365463321731,1.01144233902392,1.01276999555807,1.04625733235613,1.00425219911911,1.00375632740153,0.996038324055432,0.983273626293382,0.944235725430871,0.945523392310376,1.13898534354235,1.17637567063357,0.967021830646461,0.957048410778493,1.01043459972692,1.03366059114358,0.966917857544389,0.965846134799956,0.94154842063886,0.942540164074007,0.923137183641216,0.921025729876065,0.936725668288913,0.875749442889243,0.880476220068048,0.87027086020315,0.873158113268376,0.872310332589944,0.872294336728087,0.908444984525372,0.905517741805504,0.90645349972415,0.886506659988214,0.862736809268406,0.856578402453382,0.858281961741174,0.893640814376528,0.891897265434093,0.895536324006607,0.848492494284564,0.842542033673684,0.831256953133425
0.765242831041828,0.764318270226482,0.762762672660869,0.76017934097093,0.759786642562336,0.758898072436168,0.757077743356818,0.757185715424354,0.752302978592442,0.751221658330894,0.751034506747165,0.751220858537802,0.750738583302807,0.749528496353309,0.748249627197826,0.745730278955316,0.745258401030528,0.748016887407803,0.7471883017636,0.748122460096061,0.745780665920166,0.746431697497754,0.764498223672375,0.763582460581051,0.764793347323641,0.919706071272845,0.739312739178205,0.737896305610749,0.737251672377904,0.737121306103767,0.737944293196321,0.747725762722002,0.747413843415787,0.746386109291461,0.746221351914332,0.739581469657406,0.730367053434562,0.729285733173015,0.728531528286448,0.730695768395728,0.728989009935564,0.727842106640402,0.727365429957057,0.736798189694252,0.736773396108373,0.742948598578348,0.742625482168832,0.749831617935503,0.748339204024226,0.748000091752853,0.745687889921394,0.744939283586477,0.745138432066599,0.742283170725088,0.741066685430847,0.738110650159636,0.736071977565935,0.731691510796339,0.728365971116226,0.726734393206791,0.724562155166582,0.721816465478793,0.738375381673372,0.735125022543988,0.720657565287238,0.697281212769117,0.693919682399825,0.672190103859904,0.69013506148441,0.706113327893574,0.721812466513328,0.72318571125377,0.762070051842451,0.801600625250165,0.834576094468795,0.847652711537061,1.06590824864771,1.06463657763006,1.06525241831156,0.882859603484771,0.889073995816296,0.898631523275977,0.89992718808641,0.904885905262144,0.905877648697291,0.925352610508439,0.940276749621212,0.940068803417069,0.935661943475409,0.942100277872934,0.983129663536667,0.941676387533718,0.912092041028815,0.912036055512315,0.918170468534554,0.927552041513805,0.920985740221422,0.917754576126266,0.913019801016533,0.983233636638739,0.930471286302745,0.925488575334225,0.925560556712583,0.940492693756285,0.986200869013251,0.98603291246375,1.04159453862476,0.923065202262859,0.907525222468583,0.907189309369582,0.908133065219157,0.908333013492372,0.948250686757029,0.997062059214294,0.967589683742392,0.966821882373246,0.968213522354823,0.952393614978046,0.952593563251261,1.0102906369702,1.0105145790362,1.0085550859587,1.04466574410134,0.981378116663303,1.04036285726175,1.04361801514969,1.03835537659867,1.00823516872155,1.00851509630405,1.00683553080905,0.999589405387732,0.998709632985586,1.01135436178371,0.969757123024043,1.10493815157929,0.97183658506548,0.997246011625652,1.01190621901778,1.04040284691639,1.03551611111902,1.02473490022726,1.02533474504691,1.00908294939998,0.963782668620376,0.941692383395575,0.909068823137803,0.899383328783265,0.874373798769524,0.978394888426934,0.86689573335128,0.863504610637552,0.872630249827088,0.868287373332857,0.902982397701137,0.903758197001211,0.905293799739503,0.905813665249862,0.888786070302866,0.862848780301407,0.882747632451771,0.883923328298275,0.870566783647509,0.895944218483966,0.886458672402643,0.852891356295296,0.864728294069628,0.892457120599095
0.767272705911508,0.764539013120111,0.762570722318582,0.762385970114131,0.762661098938075,0.759384346636627,0.759140409743304,0.756969771289281,0.754962290626202,0.755524545170483,0.752426146728742,0.750780972336728,0.751646348463203,0.752529320037721,0.748553548573113,0.745263999582178,0.74351965084665,0.74792091223666,0.748015287821618,0.749905198900046,0.815261091276219,0.764650984153112,0.76066321579211,0.838127175801095,0.746679633356541,0.740683584539367,0.740114131857251,0.738844860218881,0.737926697748278,0.743116555127848,0.743365290779728,0.747798543893452,0.748714306984778,0.748701510295292,0.74536797268425,0.732000230930183,0.730315866676619,0.729425696964266,0.729465686618909,0.73119403949258,0.731529952591581,0.727823711399266,0.728701884215227,0.741096277775283,0.743015781198148,0.751309635571109,0.752759660448465,0.752426946521835,0.748555947952391,0.746469287773119,0.745193617790006,0.743973133530302,0.742344754793238,0.74185048266185,0.741432190874284,0.740140525029315,0.738371382707908,0.737199685826868,0.731989833619976,0.724630137579475,0.70746017946195,0.70710507132872,0.725909806528052,0.731139653562265,0.676265049668027,0.673600938875709,0.672558808475712,0.663671507627849,0.691601082223623,0.696558199813172,0.70995153494621,0.739773419999692,0.759811436148214,0.838495080623811,0.838878981308383,1.06627615347042,1.06757981621179,0.892641073010453,0.899671254296695,0.913219749289748,0.916578880279762,0.901542770133988,0.891777296470164,0.925640536021869,0.925200649820796,0.933230572473113,0.950218177765466,0.937757401378702,0.944547644737086,0.93645373863734,0.940444706170713,0.944739595079373,0.91395555893518,0.915075269265184,0.941332476503788,0.921953489863783,0.991543486873558,0.923369123638145,0.950762037068611,0.97973854082294,0.978218933946505,0.929047654597454,0.929703484933599,1.00275658603546,1.00252464603853,0.958903930753929,0.95494495494427,0.954792994256627,0.95460104391434,0.933598477295829,0.909404736236805,0.917066754066406,0.916522894763261,0.987112633139112,0.925472579472368,0.932206837314252,0.933206578680327,0.951297898440827,1.01130637419814,1.02823799397399,1.01245007832093,1.04048282622568,0.999837341246519,1.00836313561641,1.05812626185418,1.01902437754424,1.01689692791723,1.01658500861101,1.0718907009823,1.07187470512045,1.09917164337977,1.00486803980061,1.04415387652191,1.04237033792483,0.978162948430005,0.988472281396974,1.00194079708074,1.06797171482729,1.06971526376972,1.03297276908372,1.1713769638032,1.17084110243098,1.00228470811067,0.993998851668639,0.943907810262798,0.934582222800047,0.93519806348155,0.926928202901374,0.927304105655018,0.916170985802403,0.864800275447986,0.867167663002852,0.866871739558494,0.9697731188859,1.0385313310791,0.897359852258329,0.913971554797037,0.912563918953603,0.907557214192297,0.863648573394267,0.88206780832284,0.889481890293655,0.890177710284443,0.897575796393401,0.897423835705757,0.843325830904687,0.841262364725107
0.769288984298609,0.767941332937139,0.766956787639828,0.763235350378749,0.762331584183817,0.761719742467779,0.760860764686047,0.758371008787973,0.757831148450292,0.753282725131195,0.751941472114469,0.751558371222989,0.752134222249848,0.75409211574117,0.748108063820389,0.744921688138434,0.748641525813327,0.749026226290993,0.749059817600893,0.756435509503251,0.762519535560639,0.762996212243984,0.844365561925405,0.74068438433246,0.740969110673518,0.740462041852645,0.740679585573903,0.74058920895441,0.742892613061847,0.743320502366528,0.743591632225007,0.74464096076284,0.75333151250986,0.753338710647696,0.742545502859546,0.734245250141842,0.731284416112073,0.731501160040238,0.72795887643196,0.726348892936032,0.727101498236414,0.727786920916995,0.742275972587252,0.742744651339668,0.743806776566987,0.749037423394293,0.754827125593509,0.754479215598114,0.74784813106521,0.74578466488563,0.743929144910194,0.745094443446492,0.743797179049872,0.741209048601376,0.739989364134764,0.739238358420569,0.802360428688382,0.753563452506789,0.730415840813227,0.731202837216601,0.715699647904597,0.724810890818462,0.688369118335375,0.664454505065759,0.671000011737728,0.67125514573435,0.671444696697358,0.669866704925145,0.673508162876938,0.687237411108978,0.715860406316262,0.740522826127702,0.763713626648279,0.82257919807589,0.89488849160139,1.06596423416421,1.06833162171908,0.883451450373488,0.911452206554527,0.905957628006577,0.904254068718784,0.887770333074934,0.940852600648072,0.913307726529963,0.921257669872994,0.931151110431676,0.933086609716398,0.932702709031825,0.932382791794681,0.928975673219096,0.98122615597566,0.95013819845618,0.940452704101642,0.910972330698811,0.912715879641246,0.915059273403327,0.9189942554202,0.940284747552141,0.958304085934284,0.988312322778402,0.995054578551214,0.962710945875944,0.988544262775331,0.989432033108406,0.977115219478358,0.964502482403951,0.951209921200613,0.95368927978848,0.954521064605054,0.991887397903487,0.953913221854481,0.94183634615229,0.941348472365645,0.953417350136907,0.950738043275825,0.927368089102447,0.992535230308704,0.94178036063579,0.939229020669565,0.939468958597423,1.01528134586965,1.00270859844989,1.0139536893355,1.01364177002929,1.04441780824255,1.0495764736915,1.04710511303456,1.04660924131699,1.09428490758239,1.03010151188035,1.03009351394942,1.06921939205215,1.05179989848965,0.981330129077732,0.982801748368595,1.11890253898063,1.10948897427767,1.10969692048181,1.15703667364821,1.15634885158835,1.15343760473034,1.13504236359455,1.104186346072,1.01433759002008,0.957992166628068,0.910876355527668,0.924928720169223,0.90737326178094,0.96433452585445,0.964030604479163,0.882603669695056,0.886530653781,0.970612901633404,0.969357226477613,0.899135392924478,0.933166589025684,0.906733427306651,0.905573727322004,0.873030146373518,0.887418424114075,0.887298455150146,0.893512847481671,0.894632557811675,0.861881030659046,0.866567818183207,0.866919727144066,0.859417667933036
0.768585166376892,0.76824925327789,0.763086588863477,0.762283596598245,0.762092446049052,0.76310418431152,0.762258003219274,0.761583777641992,0.757444048593348,0.754240877256442,0.755128647589517,0.755326996276546,0.751473593155146,0.750038764346554,0.747102723902664,0.746660438322312,0.750573825925678,0.750998516057987,0.754288864842014,0.761878101500165,0.764294276433696,0.807918990683761,0.739870194963928,0.739757424137835,0.740036551927243,0.741726514732457,0.74177210293875,0.743988329599066,0.743296508573742,0.742703062098839,0.744644959728304,0.754232879325514,0.755201428760967,0.756580272053059,0.742985389060619,0.736095171565628,0.734396411036392,0.73045023191622,0.728619505526662,0.728525129941705,0.734712329308072,0.741096277775283,0.742723856719254,0.746186960811339,0.749364538769273,0.75328112554501,0.75470715662958,0.747250685624843,0.746008606951631,0.743132550989705,0.745731878541501,0.746598054461069,0.746267739913718,0.746198157914639,0.745946223090388,0.776884619301503,0.777090166126368,0.73233214506372,0.747992893615017,0.734897081512523,0.734885884409223,0.737803529611977,0.65899111844843,0.683689528949049,0.665291088640891,0.66259258674558,0.668976535212791,0.663653112386713,0.663634717145577,0.669157288451778,0.710224264390875,0.723092935254998,0.825874345618475,0.828225737311484,0.849748169440355,0.874077875325165,0.914547405823896,0.89815164742026,0.899455310161623,0.893832764718815,0.890209702008158,0.867495578170925,0.936629693117769,1.03926714072453,0.96536625894424,0.979378633931152,0.937461477934344,0.986144883496751,0.992279296518989,0.950706051552111,0.996718148184364,0.979962482888941,0.932662719377182,0.919746060927488,0.91389957341868,0.917570623714908,0.918274441636625,0.966869869958817,0.961023382450009,0.974667852614205,0.969733129231257,0.993207056506707,0.991903393765345,0.986648753145253,0.979138696003294,0.991399524116843,0.954369103917411,0.938533200678777,0.934478249697975,0.92815188633345,0.957584272150709,0.995614433716216,0.975483641568923,0.928967675288168,0.944491659220586,0.94258015372865,0.931239087671891,0.933006630407112,0.930927168365675,0.93616581312391,0.960871421762365,1.00005328538159,1.02964562981742,1.00196479087353,1.02381513817047,1.05227177641444,1.04660924131699,1.03893122762553,1.06842759689022,1.04720908613663,1.07449802646503,0.977915012571218,0.995878365436861,0.997453957829795,1.00220472880139,1.04796888957485,1.04831280060478,1.06030969699769,1.1009711778387,1.1329868953459,1.11136848804589,1.18654104084383,1.10282669781414,0.997549933000939,0.974827811232777,0.931942905593608,0.961279316239724,0.948642585372531,0.96364670379459,0.911012320353454,0.902542511500063,0.920209940921347,0.919458135414059,0.935693935199123,0.942268234422434,0.913963556866108,0.913771606523822,0.914683370649683,0.898279614315118,0.888426163411079,0.884803100700422,0.876125345642888,0.875613478063457,0.875317554619099,0.873653984985949,0.864632318898485,0.882403721421841
0.764537413533926,0.763298534033085,0.762612311559411,0.763784008440451,0.76338091272165,0.765598738968151,0.764912516494477,0.759609888288813,0.757983908931028,0.75843739161468,0.757288888733333,0.755421371861504,0.75504546910786,0.749920394968811,0.750207520689148,0.749046221118314,0.749877206141796,0.754594385803486,0.761210274267627,0.76228759556371,1.01391369968086,0.74041885302563,0.738881650701153,0.738915242011053,0.740179714890865,0.742439130378196,0.745987012538124,0.743042174370212,0.744049913667216,0.744630563452633,0.748699110916013,0.755150242003024,0.755730091995348,0.754034530638484,0.739610262208749,0.736469474733086,0.731995432171626,0.731465169351059,0.73007832812804,0.734200461728642,0.738781676564545,0.74242633368871,0.743543644639436,0.747686572860452,0.748148853268125,0.748073672717396,0.749193383047401,0.748768692915092,0.748389590989076,0.737046125553039,0.736915759278902,0.747055536110185,0.746901176043263,0.747298673210415,0.745480743510343,0.745615908543037,0.781725766892586,0.741514569562849,0.740750767159167,0.74136660784067,0.746413302256618,0.730878921013993,0.676556974146921,0.666127672216023,0.652320044260883,0.656713307719964,0.652185679021282,0.682885736890725,0.662545398953102,0.680152843892421,0.704131440609466,0.724631737165661,0.765863470481888,0.861777057556974,0.871222613983654,0.861409152734258,0.881827870394982,0.898351595693475,0.880300265587618,0.896736013645898,0.936869631045627,0.915411182364186,0.880788139374263,0.879924362833974,0.937917359997275,0.939077059981922,0.939500950321138,0.936597701394055,0.936925616562128,0.917290696132407,0.996486208187434,0.938253273096276,0.898367591555333,0.929135631837668,0.926368347736372,0.917810561642766,0.998093792304083,0.962598974842943,0.964854391364809,0.975907531908139,0.97526769743385,0.974667852614205,0.985065162821389,0.985313098680176,0.959959657636504,0.958727976273499,0.947402906078598,0.940196770311926,0.954249134953482,0.928079904955093,0.948506620546745,0.94154842063886,0.948394649513744,0.95592070251756,0.965566207217455,0.972892311948055,0.972460423677911,0.929223609077883,0.930703226299675,0.930623246990389,1.03573205525409,1.0343084235488,1.07139482926473,1.00214874328489,1.00133295433017,1.02168768854346,1.02797406225334,1.03539614215509,1.12206971962836,1.00829115423805,0.993758913740781,1.02619052365627,1.02700631261098,0.989967894480623,1.00293254051589,1.00350039361182,1.05074417160708,1.05808627219953,1.09760404891776,1.10747349568366,1.08340772151949,1.13853745941035,0.989208091042406,0.971844582996408,1.00142892950131,0.918186464396411,0.919666081618202,0.914227488586752,0.903414285971281,0.898863463272906,0.960999388657223,0.964918374812238,0.939836863420139,0.919993996786275,0.921345647113209,0.919546112654273,0.956000681826846,0.9045100025085,0.858897802422677,0.865672049919204,0.860489390677469,0.861441144457973,0.882387725559984,0.882507694523913,0.880444228344333,0.864328397523198,0.866423855426492
0.763496082927022,0.763573662857029,0.765260426489871,0.766178588960475,0.770856578760615,0.770059984840126,0.764599797395169,0.761280656059798,0.761223070957113,0.759518711876227,0.75903003829649,0.758966054849061,0.758356612512301,0.754100113672099,0.752790852379086,0.752739665621143,0.753583447334111,0.760669614136853,0.760875160961718,0.746808400044491,0.743600429949029,0.741869677696079,0.739379122004912,0.738946433941675,0.743543644639436,0.743837168704515,0.742367948792931,0.74243193224036,0.747264282107422,0.74790971513336,0.745986212745031,0.750799367577864,0.750702592613628,0.748247227818547,0.739471098210591,0.735202602473995,0.732588878646528,0.737150898448203,0.736807787211366,0.739954973031771,0.742905409751333,0.745430356545493,0.745821455367902,0.742858221958854,0.747793745134895,0.74829281602484,0.749282160080708,0.751207262055223,0.750669801096821,0.749907598279325,0.749226174564208,0.750003573450468,0.750936931989836,0.751116085642637,0.748336004851855,0.745224009927535,0.773976571615863,0.740078141168072,0.730862925152136,0.7310124864605,0.737296460791104,0.739229560696547,0.654932968295257,0.651681009579687,0.647887590940251,0.652692747842156,0.667959198398673,0.66373069231672,0.669013325695063,0.682090742556422,0.712454887326863,0.721768477893221,0.775636942076641,0.841878205406609,0.883043555896129,0.881300006953694,0.885762852411854,0.876645211153247,0.911828109308171,0.871174626398082,0.871966421560014,0.923625057427861,0.880532205584548,0.943076025446223,0.891633333713449,0.884179262087991,0.931838932491536,0.928463805639666,0.927616024961234,0.927456066342662,0.921393634698781,0.930967158020318,0.895064446081819,0.92820787184995,0.91985003402956,0.917322687856122,0.925880473949727,0.925912465673442,0.959775705225146,1.02523876987576,1.02370316713747,0.963742678965734,0.978234929808362,0.977163207063929,0.962327045191371,0.956104654928918,0.997246011625652,0.999349467459874,0.930407302855316,0.930359315269744,0.947066992979596,0.986160879358608,0.947258943321883,0.946883040568238,1.02876585741528,1.00920291836391,0.929439553212955,0.929063650459311,0.941620402017218,0.975083745022493,1.00574781220276,0.992695188927276,0.981330129077732,1.00496401497175,1.01730482239459,1.0171688575688,1.02253546922189,1.05833420805832,1.01714486377602,1.01578521551815,1.00966679835777,0.96759768167332,0.968477454075466,0.985585028331748,0.985513046953391,1.02519078229019,1.04509763237148,1.10704160741351,1.10778541498987,1.13334680223769,1.03310873390951,1.03630790628095,0.962295053467656,0.96107137003558,0.924616800863008,0.924880732583652,0.92494471603108,0.908317017630515,0.974835809163706,0.964406507232808,0.910788378287453,0.916466909246761,0.925368606370296,0.925584550505369,0.967669663051678,0.897191895708828,0.897879717768688,0.855978557633737,0.856258485216238,0.885187001384995,0.853851108006728,0.867031698177066,0.868647280224644,0.866055950603776,0.865712039573846,0.864408376832484,0.858385934843246
