1.1166, 1.11769, 1.10573, 1.10511, 1.1037, 1.10343, 1.10177, 1.10119, 1.1019, 1.09961, 1.09743, 1.09559, 1.09472, 1.0921, 1.09125, 1.09043, 1.09101, 1.09104, 1.08457, 1.08349, 1.0837, 1.08299, 1.08147, 1.07985, 1.07894, 1.07544, 1.07562, 1.07646, 1.07046, 1.07007, 1.07, 1.06196, 1.05926, 1.05923, 1.05996, 1.06189, 1.06064, 1.06105, 1.06137, 1.05512, 1.05519, 1.05478, 1.05283, 1.0516, 1.05202, 1.05171, 1.05315, 1.09824, 1.08882, 1.07056, 1.06504, 1.06372, 1.06397, 1.0639, 1.08226, 1.06869, 1.07779, 1.07812, 1.07071, 1.0732, 1.07077, 1.0318, 1.14526, 1.02963, 1.03275, 1.03348, 1.03374, 1.03481, 1.03272, 1.02399, 1.05369, 1.00425, 1.00435, 1.02936, 1.00755, 1.00776, 1.0505, 1.05445, 1.10909, 1.17701, 1.22783, 1.39283, 1.4141, 1.46158, 1.51199, 1.51117, 1.5068, 1.57438, 1.54066, 1.62382, 1.60207, 1.68013, 1.69398, 1.67276, 1.77729, 1.77725, 1.82208, 1.83516, 1.84138, 1.71974, 1.69612, 1.75232, 1.75739, 1.84038, 1.77565, 1.84595, 1.84633, 1.84613, 1.88269, 1.90031, 1.89977, 1.95559, 1.95956, 1.82776, 1.87875, 1.90623, 1.83813, 1.83765, 1.84053, 1.84106, 1.88741, 1.88601, 1.88561, 1.79062, 1.79008, 1.81992, 1.81145, 1.81053, 1.87254, 1.80888, 1.81394, 1.82029, 1.8206, 1.81878, 1.81727, 1.9241, 2.01568, 2.01486, 1.91736, 1.88109, 1.8966, 1.82506, 1.8131, 1.82176, 1.80264, 1.77899, 1.78091, 1.79603, 1.76401, 1.76273, 1.80416, 1.7515, 1.75193, 1.76586, 1.79798, 1.69677, 1.64416, 1.65172, 1.6335, 1.66534, 1.82438, 1.69019, 1.65042, 1.54072, 1.52357, 1.48141, 1.47845, 1.4147, 1.40013, 1.39293, 1.3763, 1.33692, 1.25401, 1.21643, 1.18483, 1.16269, 1.12385, 1.059, 1.05933, 1.0459, 0.923131, 0.923527, 0.935171, 0.906866, 0.911723, 0.911358, 0.92267, 1.44825, 1.07891, 0.960872, 0.962894, 0.965069, 0.966913, 0.967646, 0.967829, 0.964699, 0.962598, 0.962537, 0.961653, 0.961479, 0.962846, 0.962499, 0.960345, 0.962282, 0.966095, 0.96627, 0.958529, 0.959386, 0.959779, 0.959655, 0.960475, 0.956778, 0.95965, 0.961068, 0.960394, 0.961031, 0.963473, 0.963002, 0.964483, 0.961989, 0.961543, 0.966475, 0.962949, 0.950883, 1.07024, 1.09894, 1.07756, 1.07076, 1.10508, 1.04633, 1.10137, 0.929609, 1.02739, 0.00430203, 1.10588, 1.27182, 1.19068, 1.27846, 1.17196, 1.28301
1.12893, 1.12643, 1.12758, 1.12659, 1.10447, 1.10279, 1.10093, 1.10111, 1.09903, 1.09891, 1.09687, 1.09429, 1.09429, 1.09287, 1.09371, 1.0956, 1.09618, 1.08682, 1.08674, 1.08342, 1.08162, 1.0828, 1.08042, 1.08147, 1.08128, 1.07307, 1.07174, 1.0712, 1.07143, 1.07086, 1.07031, 1.07053, 1.05928, 1.06055, 1.05926, 1.05895, 1.05834, 1.05948, 1.04988, 1.05334, 1.05185, 1.05286, 1.05351, 1.05131, 1.04739, 1.0476, 1.15756, 1.06446, 1.17668, 1.2644, 1.07165, 1.06819, 1.03688, 1.03683, 1.03676, 1.03565, 1.14945, 1.14943, 1.0703, 1.07105, 1.07092, 1.07032, 1.14932, 1.07404, 1.06328, 1.0387, 1.03877, 1.03944, 1.03486, 1.03124, 1.03933, 1.00402, 1.0033, 1.06975, 1.03427, 1.05934, 1.06065, 1.08774, 1.11849, 1.15532, 1.25354, 1.39247, 1.50921, 1.47209, 1.47835, 1.54253, 1.55817, 1.56882, 1.62284, 1.62309, 1.64001, 1.64508, 1.62335, 1.66686, 1.8099, 1.81339, 1.81306, 1.84, 1.8366, 1.82041, 1.74214, 1.73795, 1.74026, 1.78813, 1.8022, 1.85236, 1.8471, 1.85502, 1.90993, 1.90059, 1.90258, 1.84718, 1.87383, 1.95938, 1.86456, 1.86605, 1.90029, 1.83361, 1.83243, 1.83961, 1.87503, 1.8866, 1.88635, 1.86136, 1.8596, 1.90609, 1.81175, 1.80768, 1.87121, 1.86924, 1.82034, 1.81574, 1.81476, 1.8167, 1.81662, 1.93178, 1.92751, 1.91813, 1.91832, 1.88292, 1.84139, 1.84097, 1.83084, 1.86765, 1.80809, 1.78595, 1.78518, 1.77702, 1.7644, 1.75667, 1.76138, 1.761, 1.75321, 1.75206, 1.80223, 1.66927, 1.74064, 1.74018, 1.64649, 1.7383, 1.65863, 1.70904, 1.64344, 1.6375, 1.62528, 1.55498, 1.52635, 1.47677, 1.43384, 1.43332, 1.45597, 1.38209, 1.35056, 1.24999, 1.23753, 1.2111, 1.1537, 1.05027, 1.02655, 0.990009, 0.974408, 0.950894, 0.926839, 1.18428, 0.912036, 0.911363, 1.11943, 1.47532, 1.42702, 1.24055, 0.96116, 0.966401, 0.966578, 0.966811, 0.966894, 0.96341, 0.963197, 0.962486, 0.963281, 0.962945, 0.963515, 0.962052, 0.964327, 0.964411, 0.964714, 0.964554, 0.964205, 0.962656, 0.961381, 0.960878, 0.960844, 1.16521, 0.959791, 0.961976, 0.96282, 0.963133, 0.963045, 1.26454, 1.16699, 1.05255, 0.973028, 0.973773, 1.19523, 1.27962, 1.19595, 1.11283, 1.09939, 1.097, 1.09448, 1.03217, 1.04417, 1.06442, 1.04995, 1.05638, 1.27003, 1.12441, 1.12916, 0.985785, 0.985754, 1.28704
1.12884, 1.12829, 1.12938, 1.13183, 1.12854, 1.12799, 1.26155, 1.10115, 1.09894, 1.09835, 1.09762, 1.09967, 1.10274, 1.10156, 1.10134, 1.09814, 1.08984, 1.08799, 1.08574, 1.08428, 1.08772, 1.08826, 1.0814, 1.08126, 1.08177, 1.07948, 1.07318, 1.07175, 1.07129, 1.06993, 1.0714, 1.05729, 1.05596, 1.05592, 1.05295, 1.04754, 1.04933, 1.04814, 1.04637, 1.04592, 1.04529, 1.04639, 1.04631, 1.04171, 1.04652, 1.04114, 1.03931, 1.03931, 1.04058, 1.04293, 1.04325, 1.0424, 1.03772, 1.03613, 1.03496, 1.03236, 1.03107, 1.03111, 1.03171, 1.06721, 1.07318, 1.06258, 1.07091, 1.06029, 1.06198, 1.048, 1.00809, 1.01102, 1.01323, 0.997474, 0.982055, 1.03749, 0.999334, 1.08996, 1.05823, 1.08803, 1.06446, 1.0995, 1.16426, 1.23941, 1.41627, 1.41028, 1.49499, 1.49221, 1.48909, 1.51095, 1.56067, 1.56098, 1.57959, 1.62385, 1.60204, 1.63072, 1.66523, 1.67898, 1.8197, 1.82074, 1.81422, 1.83799, 1.86515, 1.80387, 1.74044, 1.73736, 1.77423, 1.79919, 1.79719, 1.82109, 1.84458, 1.90795, 1.95604, 1.89846, 1.89852, 1.90366, 1.92895, 1.94524, 1.87017, 1.89258, 1.89239, 1.86858, 1.86676, 1.86536, 1.89266, 1.89185, 1.89069, 1.9026, 1.8856, 1.8965, 1.87409, 1.87505, 1.87194, 1.87146, 1.86592, 1.84175, 1.85872, 1.81638, 1.81613, 1.92198, 1.92741, 1.87605, 1.87357, 1.94402, 1.84171, 1.84237, 1.87674, 1.9065, 1.86769, 1.78675, 1.78589, 1.84067, 1.85773, 1.79289, 1.77627, 1.9062, 1.75346, 1.80348, 1.75702, 1.755, 1.73863, 1.69357, 1.6474, 1.67637, 1.71756, 1.69487, 1.66472, 1.62329, 1.63534, 1.51454, 1.49268, 1.46817, 1.53393, 1.53035, 1.57893, 1.49174, 1.3539, 1.33773, 1.27083, 1.27104, 1.15729, 1.1198, 1.06379, 0.996996, 0.995617, 1.09156, 1.09477, 0.915197, 0.910984, 0.911794, 0.919058, 1.44458, 0.992719, 1.14411, 1.19828, 0.966936, 0.966749, 0.968332, 0.96712, 0.963867, 0.96997, 0.964998, 0.966382, 0.966978, 0.964942, 0.963761, 0.963, 0.964637, 0.961597, 0.962364, 0.962882, 0.962791, 0.962448, 0.962155, 1.25646, 1.21329, 1.26068, 0.96319, 0.962445, 1.12928, 1.17846, 1.26458, 0.983067, 1.09743, 0.973858, 0.975749, 1.19724, 1.28055, 1.28136, 1.09864, 1.07358, 1.00793, 1.00669, 1.00683, 1.0083, 1.07187, 0.998277, 0.997846, 0.998431, 1.00072, 1.09341, 0.993854, 0.993777, 1.13303
1.13164, 1.13051, 1.13091, 1.1307, 1.12969, 1.12924, 1.12912, 1.17036, 1.1045, 1.10347, 1.10565, 1.10568, 1.10301, 1.10203, 1.10151, 1.27581, 1.08975, 1.08558, 1.08621, 1.09317, 1.09284, 1.09141, 1.08651, 1.06602, 1.07095, 1.07108, 1.0678, 1.06676, 1.06385, 1.06105, 1.05732, 1.05652, 1.05686, 1.05556, 1.05127, 1.04929, 1.04789, 1.04832, 1.04599, 1.04319, 1.04486, 1.04566, 1.04576, 1.04548, 1.04558, 1.04662, 1.03872, 1.03889, 1.03923, 1.04296, 1.04229, 1.04232, 1.02974, 1.03007, 1.03656, 1.03206, 1.03139, 1.0303, 1.03051, 1.05991, 1.05982, 1.06111, 1.0132, 1.00805, 1.00751, 1.00779, 1.00848, 1.02997, 0.988173, 0.991495, 1.00811, 1.02048, 1.00159, 1.07167, 1.07153, 1.08723, 1.0877, 1.16495, 1.21682, 1.28514, 1.41372, 1.40574, 1.46649, 1.4863, 1.49671, 1.54346, 1.60258, 1.59237, 1.6245, 1.62367, 1.6231, 1.6947, 1.69461, 1.69344, 1.73146, 1.82041, 1.84284, 1.8003, 1.88964, 1.78085, 1.7794, 1.79271, 1.77544, 1.80298, 1.80378, 1.785, 1.8205, 1.87284, 1.87249, 1.95286, 1.89877, 1.91136, 1.94233, 1.88567, 1.8742, 1.90018, 1.89333, 1.85985, 1.89192, 1.88679, 1.88698, 1.89518, 1.89668, 1.8955, 1.89383, 1.86035, 1.86217, 1.87559, 1.87644, 1.87267, 1.8792, 1.95684, 1.8348, 1.84553, 1.82742, 1.82669, 1.91913, 1.86967, 1.87928, 1.93672, 1.85166, 1.8514, 1.85914, 1.85842, 1.88614, 1.90324, 1.84024, 1.84023, 1.84379, 1.77736, 1.77688, 1.77613, 1.81251, 1.81426, 1.80436, 1.79361, 1.71651, 1.67213, 1.74913, 1.74888, 1.75177, 1.73193, 1.6646, 1.61977, 1.62033, 1.55482, 1.5385, 1.55136, 1.52286, 1.54735, 1.46282, 1.44134, 1.42283, 1.39928, 1.28043, 1.28269, 1.21976, 1.11675, 1.06483, 1.0224, 1.02294, 0.963062, 0.980129, 0.912348, 0.909784, 0.908261, 0.909097, 0.991348, 0.993451, 1.13009, 1.13796, 1.21974, 1.21987, 1.22114, 0.971278, 0.97006, 0.969718, 0.967494, 0.967533, 0.966435, 0.964863, 0.962742, 0.962798, 0.962797, 0.962864, 0.962986, 0.963896, 0.964151, 0.96419, 0.966274, 0.967981, 1.25645, 1.25869, 1.2571, 1.22389, 1.09464, 1.06377, 1.06084, 0.983895, 0.97496, 0.976674, 0.991657, 1.32226, 1.31971, 1.01027, 1.01246, 1.01294, 1.00622, 1.00493, 1.00709, 1.00783, 1.05939, 0.997395, 0.998132, 0.99957, 1.00071, 1.08777, 0.99139, 0.993795, 1.13296
1.12901, 1.12678, 1.12873, 1.13052, 1.12898, 1.12749, 1.12926, 1.2287, 1.09813, 1.09671, 1.09787, 1.10117, 1.09391, 1.09419, 1.08949, 1.08744, 1.08779, 1.08921, 1.09021, 1.08924, 1.09085, 1.08879, 1.06996, 1.06825, 1.06797, 1.06961, 1.0674, 1.06429, 1.06372, 1.06087, 1.05957, 1.05793, 1.05625, 1.05316, 1.05159, 1.04924, 1.0472, 1.0464, 1.04238, 1.04313, 1.04374, 1.044, 1.04556, 1.04571, 1.04602, 1.04657, 1.05098, 1.04345, 1.04237, 1.04221, 1.04197, 1.03754, 1.03581, 1.02546, 1.03221, 1.03245, 1.03092, 1.03267, 1.03392, 1.07962, 1.07933, 1.01166, 1.01165, 1.00998, 1.01115, 0.988534, 0.979154, 0.978447, 0.978503, 1.02336, 1.02318, 0.984505, 1.04073, 1.0467, 1.03243, 1.10976, 1.12993, 1.19251, 1.22945, 1.29988, 1.29958, 1.41699, 1.44523, 1.47595, 1.50694, 1.59744, 1.55816, 1.55118, 1.59985, 1.62449, 1.6682, 1.64532, 1.67743, 1.72424, 1.73056, 1.82823, 1.81496, 1.81383, 1.84473, 1.84441, 1.84416, 1.83077, 1.83034, 1.77635, 1.80201, 1.78701, 1.79256, 1.87299, 1.94541, 1.91386, 1.94337, 1.98067, 1.92396, 1.91018, 1.90646, 1.90685, 1.8617, 1.86295, 1.8866, 1.89498, 1.89935, 1.89791, 1.89772, 1.89594, 1.90292, 1.89605, 1.88521, 1.85801, 1.87208, 1.87914, 1.88593, 1.88241, 1.88972, 1.90263, 1.90183, 1.90123, 1.90738, 1.9319, 1.88264, 1.8394, 1.85597, 1.85341, 1.85237, 1.8581, 1.87557, 1.87513, 1.87508, 1.9532, 1.78593, 1.77992, 1.77612, 1.77657, 1.80935, 1.8119, 1.81685, 1.78643, 1.71004, 1.67277, 1.74805, 1.74906, 1.75503, 1.76049, 1.77285, 1.62023, 1.67885, 1.61444, 1.60971, 1.58644, 1.56139, 1.51604, 1.47135, 1.48534, 1.42659, 1.35797, 1.33349, 1.25701, 1.23238, 1.1496, 1.13938, 1.01677, 1.01293, 0.978105, 0.979485, 0.90905, 0.9088, 0.909683, 0.908763, 0.918453, 0.92477, 0.928141, 0.945257, 1.05409, 0.962606, 1.19977, 1.06309, 0.966891, 0.966313, 0.963349, 0.965038, 0.96556, 0.966372, 0.961261, 0.962194, 0.962848, 1.04249, 1.03962, 1.03271, 1.07557, 1.18576, 1.08345, 1.20275, 1.20105, 0.989253, 0.988818, 0.988445, 0.99079, 0.990874, 1.04524, 0.968111, 1.3085, 1.31573, 1.28613, 1.31236, 1.1783, 1.00896, 1.0121, 1.00663, 1.00575, 1.00442, 1.0043, 1.00462, 1.00524, 0.996875, 0.99731, 0.998439, 0.999211, 0.989141, 0.989704, 1.08916, 1.09845
1.19443, 1.12457, 1.19876, 1.12237, 1.125, 1.12386, 1.11853, 1.09767, 1.09749, 1.09656, 1.09559, 1.09451, 1.09075, 1.09031, 1.08916, 1.08796, 1.09083, 1.09089, 1.09058, 1.08818, 1.08811, 1.07017, 1.06964, 1.06876, 1.06701, 1.06767, 1.06651, 1.06377, 1.06084, 1.06031, 1.05884, 1.05548, 1.05364, 1.05203, 1.05049, 1.04996, 1.04591, 1.04607, 1.04541, 1.04648, 1.04591, 1.04575, 1.04607, 1.04588, 1.04569, 1.04616, 1.04725, 1.04936, 1.04967, 1.03956, 1.03892, 1.0364, 1.03572, 1.02537, 1.03289, 1.03339, 1.03168, 1.03521, 1.03268, 1.03251, 1.025, 1.01388, 1.00897, 1.00796, 1.01013, 1.01911, 0.976312, 0.978529, 0.979008, 0.965968, 0.966299, 1.05969, 1.02222, 1.03635, 1.06915, 1.08786, 1.13089, 1.19641, 1.30813, 1.3096, 1.32384, 1.39333, 1.45523, 1.48583, 1.50235, 1.5338, 1.56525, 1.58964, 1.62677, 1.63259, 1.63814, 1.64646, 1.66846, 1.72694, 1.71608, 1.82748, 1.82747, 1.8353, 1.84391, 1.85432, 1.77544, 1.7902, 1.79848, 1.77479, 1.77419, 1.77636, 1.80296, 1.87526, 1.89017, 1.88956, 1.93134, 1.93224, 1.96046, 1.96123, 1.88995, 1.87436, 1.88644, 1.98736, 1.89626, 1.93211, 1.89926, 1.89952, 1.89741, 1.89655, 1.92116, 1.92104, 1.90424, 2.02766, 2.03416, 2.03392, 1.87827, 1.86978, 1.88276, 1.88238, 1.90353, 1.90295, 1.96816, 1.92763, 1.83841, 1.83921, 1.93713, 1.85363, 1.91889, 1.86112, 1.87728, 1.88018, 1.87691, 1.95461, 1.95228, 1.83852, 1.76377, 1.76423, 1.74517, 1.81109, 1.72746, 1.81335, 1.79285, 1.71105, 1.71324, 1.71238, 1.73678, 1.76091, 1.68008, 1.72325, 1.72169, 1.61681, 1.60898, 1.58782, 1.56884, 1.53317, 1.47005, 1.50339, 1.45579, 1.35589, 1.33434, 1.33457, 1.274, 1.15467, 1.1501, 1.02355, 1.01638, 0.968655, 0.952513, 0.950008, 0.909168, 0.908805, 0.916351, 0.918008, 0.924387, 0.94589, 0.946883, 0.959703, 0.96029, 0.960476, 1.26255, 1.0808, 1.08019, 0.964579, 0.964826, 1.13738, 1.13853, 1.08021, 1.0445, 1.07753, 1.08216, 1.04371, 1.0497, 1.54778, 0.98122, 1.20481, 0.992046, 0.991993, 0.990481, 0.989753, 0.988745, 0.990535, 0.991169, 1.05409, 0.966125, 1.32604, 1.03513, 1.03522, 1.49612, 1.49904, 1.06671, 1.25409, 1.0737, 1.00429, 1.08477, 1.02593, 1.00515, 1.02031, 0.992953, 0.994628, 0.995804, 0.995293, 0.988183, 0.990595, 1.25402, 1.03633
1.11954, 1.11869, 1.11808, 1.11856, 1.10952, 1.20802, 1.13112, 1.25071, 1.09784, 1.09237, 1.09044, 1.08924, 1.09044, 1.08781, 1.08572, 1.07867, 1.29137, 1.0795, 1.07848, 1.0775, 1.07719, 1.06801, 1.06831, 1.06799, 1.06772, 1.06515, 1.06526, 1.06277, 1.06308, 1.05826, 1.0579, 1.05371, 1.05198, 1.05064, 1.04961, 1.04546, 1.04605, 1.04639, 1.04569, 1.04559, 1.04577, 1.04623, 1.04576, 1.04575, 1.04572, 1.04574, 1.04419, 1.04681, 1.04616, 1.04672, 1.0352, 1.03545, 1.03413, 1.03396, 1.0335, 1.03381, 1.03118, 1.02999, 1.02858, 1.02334, 1.20628, 1.01178, 1.00811, 1.00337, 0.991977, 1.01105, 1.04041, 0.995461, 1.06319, 1.06226, 0.989593, 1.01668, 1.05289, 1.03278, 1.09513, 1.10639, 1.1758, 1.31689, 1.32358, 1.32043, 1.40766, 1.45098, 1.4403, 1.48322, 1.52376, 1.54471, 1.55385, 1.65541, 1.65115, 1.65249, 1.65719, 1.65264, 1.66942, 1.67469, 1.70979, 1.82613, 1.83039, 1.82475, 1.78675, 1.80023, 1.79917, 1.79234, 1.83053, 1.79278, 1.77773, 1.77702, 1.81327, 1.82894, 1.89436, 1.95818, 1.93281, 1.93221, 1.96228, 1.96248, 1.94867, 1.87528, 1.91031, 1.92393, 2.00662, 1.93388, 1.95519, 1.93479, 1.94915, 1.95457, 1.92507, 1.94871, 1.99344, 2.02796, 2.02442, 2.01321, 1.883, 1.88619, 1.88573, 1.88391, 1.93488, 1.96183, 1.97983, 1.86954, 1.93044, 1.92999, 1.93053, 1.92344, 1.92515, 1.93452, 1.86204, 1.88163, 1.8767, 1.95844, 1.84837, 1.84744, 1.80371, 1.76364, 1.76862, 1.74871, 1.75063, 1.77627, 1.76666, 1.70603, 1.7139, 1.71303, 1.74706, 1.71259, 1.7062, 1.72423, 1.66682, 1.70736, 1.63057, 1.62872, 1.6289, 1.48779, 1.50299, 1.5017, 1.42667, 1.36076, 1.34102, 1.30731, 1.25501, 1.14445, 1.07544, 1.07667, 1.01632, 0.978521, 1.04039, 0.956894, 0.974302, 1.15779, 0.915889, 0.918351, 1.04992, 1.1431, 1.02177, 1.05341, 0.960082, 1.06442, 1.38821, 1.11872, 1.26735, 1.05308, 1.28038, 1.28673, 1.22648, 1.14331, 1.14316, 1.28229, 1.04134, 0.985727, 0.988187, 0.985248, 0.989432, 0.991617, 0.992564, 0.99284, 1.05034, 1.11979, 1.07197, 1.05714, 1.05397, 1.05038, 0.962602, 0.962938, 1.04969, 1.08092, 1.49693, 1.07624, 1.06911, 1.06677, 0.999984, 1.07808, 1.18943, 0.99653, 1.02267, 0.994147, 1.01917, 1.2217, 1.02677, 0.992201, 0.98748, 1.16934, 1.24463, 1.30632
1.11884, 1.11824, 1.11713, 1.122, 1.10239, 1.10125, 1.09607, 1.09597, 1.09399, 1.09092, 1.08927, 1.08722, 1.08512, 1.08391, 1.08132, 1.07947, 1.07884, 1.07782, 1.07533, 1.07114, 1.07173, 1.07221, 1.06629, 1.06774, 1.06347, 1.06353, 1.06299, 1.06229, 1.05908, 1.05765, 1.05328, 1.0513, 1.05078, 1.04921, 1.0441, 1.04365, 1.04485, 1.04577, 1.04495, 1.04547, 1.04583, 1.04592, 1.04553, 1.0442, 1.0441, 1.04266, 1.04263, 1.04329, 1.0446, 1.04629, 1.03528, 1.03458, 1.03397, 1.03352, 1.03297, 1.03334, 1.03157, 1.02771, 1.02265, 1.02097, 1.01313, 1.0083, 1.00716, 1.24252, 1.24335, 1.02166, 1.02111, 0.956156, 0.985927, 1.11516, 1.0668, 1.00566, 1.05021, 1.06759, 1.09886, 1.12555, 1.16873, 1.28228, 1.29969, 1.37166, 1.39699, 1.42022, 1.46047, 1.50992, 1.55175, 1.5531, 1.64027, 1.64598, 1.66251, 1.66143, 1.66716, 1.66807, 1.6831, 1.68905, 1.76851, 1.71328, 1.81702, 1.85209, 1.84465, 1.81889, 1.81908, 1.84372, 1.86542, 1.83348, 1.80639, 1.77713, 1.81384, 1.9605, 1.96035, 1.95753, 1.93383, 1.93303, 1.96315, 1.96186, 1.94963, 1.95571, 1.8988, 1.94656, 2.0421, 1.98028, 1.96775, 1.98027, 1.96852, 1.94524, 1.94485, 1.95595, 1.9945, 2.02406, 2.0315, 1.99194, 1.88296, 1.88209, 1.8839, 1.88353, 1.918, 1.86612, 1.8652, 1.86882, 1.9283, 1.92526, 1.93042, 1.92039, 1.92821, 1.93645, 1.96818, 1.90443, 1.917, 1.91509, 1.86873, 1.84752, 1.80255, 1.79281, 1.79019, 1.89008, 1.84488, 1.84546, 1.78658, 1.79366, 1.75154, 1.797, 1.79041, 1.67499, 1.68239, 1.67267, 1.66485, 1.70165, 1.62306, 1.64171, 1.56538, 1.49846, 1.46804, 1.45444, 1.43156, 1.41336, 1.34246, 1.3668, 1.36757, 1.16083, 1.14178, 1.06765, 1.14631, 0.981599, 0.982333, 1.08938, 1.15739, 1.15781, 0.928821, 0.931434, 1.16182, 1.37825, 1.36085, 1.06058, 1.06158, 1.29868, 1.22345, 1.13963, 0.998879, 1.00054, 1.23889, 0.991572, 0.992271, 0.993942, 0.995225, 0.994966, 0.994722, 0.988317, 0.988101, 0.989386, 0.990142, 0.990975, 0.99263, 1.06133, 1.06062, 1.04557, 0.969918, 0.970514, 1.05351, 1.05292, 1.04889, 0.960079, 1.23096, 1.07718, 1.06905, 1.08732, 1.25437, 1.47574, 0.995238, 1.00261, 1.27483, 1.19233, 0.993857, 1.01971, 0.967922, 0.971711, 1.03533, 0.982597, 0.983616, 1.02566, 1.02591, 1.028
1.11609, 1.11544, 1.47237, 1.1053, 1.10229, 1.10081, 1.09842, 1.09615, 1.09343, 1.0908, 1.08618, 1.08715, 1.08202, 1.08123, 1.0804, 1.08044, 1.07399, 1.07204, 1.07206, 1.07072, 1.07051, 1.0719, 1.06093, 1.06201, 1.06209, 1.06239, 1.06109, 1.05985, 1.05711, 1.05677, 1.05261, 1.05045, 1.04867, 1.04761, 1.04378, 1.0441, 1.0429, 1.04296, 1.04547, 1.04514, 1.04412, 1.044, 1.04353, 1.04313, 1.04241, 1.04212, 1.04225, 1.04229, 1.04323, 1.04441, 1.04576, 1.04577, 1.03328, 1.03233, 1.03103, 1.03095, 1.03087, 1.02923, 1.02902, 1.01167, 1.01242, 1.00476, 1.00098, 1.10615, 0.96718, 0.968802, 1.05369, 0.982769, 0.984148, 1.0629, 1.06698, 1.06934, 1.07727, 1.07196, 1.12245, 1.12241, 1.19535, 1.29224, 1.37841, 1.39648, 1.41503, 1.47212, 1.48344, 1.56449, 1.62039, 1.6336, 1.6406, 1.66765, 1.66719, 1.66507, 1.68161, 1.66668, 1.69956, 1.72483, 1.72094, 1.73692, 1.83463, 1.84411, 1.83936, 1.83914, 1.84284, 1.84898, 1.85689, 1.81395, 1.85544, 1.84561, 1.83487, 1.87112, 1.96255, 1.954, 1.93411, 1.93281, 1.9413, 1.9145, 1.93706, 1.95591, 1.96682, 1.95158, 1.95204, 1.97306, 1.97145, 1.97573, 1.96941, 1.94575, 1.94741, 1.94114, 1.96946, 1.99363, 1.94597, 1.90596, 1.90991, 1.88188, 1.88284, 1.91917, 1.91761, 1.86282, 1.86615, 1.8663, 1.86534, 1.9726, 1.92428, 1.96547, 1.92632, 1.89467, 2.03593, 1.92416, 1.92021, 1.86906, 1.86993, 1.87033, 1.80238, 1.79467, 1.84622, 1.86299, 1.84438, 1.84398, 1.75146, 1.779, 1.72455, 1.69079, 1.67631, 1.67572, 1.67535, 1.68835, 1.66584, 1.6853, 1.59614, 1.5757, 1.56583, 1.49628, 1.50574, 1.50627, 1.54235, 1.41464, 1.41509, 1.3917, 1.29336, 1.23203, 1.171, 1.05612, 1.03442, 1.00533, 1.07641, 1.04771, 0.930519, 1.08544, 1.25419, 0.931497, 0.928824, 1.09798, 1.05717, 1.04583, 1.46059, 1.42972, 1.22507, 0.99759, 0.99892, 1.00032, 1.1735, 0.991922, 0.992549, 0.994091, 0.994753, 0.995196, 1.0366, 0.985621, 0.986882, 0.988532, 1.36796, 1.11625, 1.14653, 1.05838, 1.05826, 0.966559, 0.966997, 0.96801, 1.20656, 1.05168, 1.05619, 0.956926, 1.16029, 1.16055, 1.14784, 1.16551, 1.25435, 0.982508, 1.42914, 1.27222, 0.980687, 0.983321, 0.988296, 0.989621, 0.969948, 0.970847, 1.30596, 1.01879, 1.01987, 1.08768, 1.06989, 1.2986
1.11267, 1.1127, 1.10531, 1.10207, 1.10151, 1.09882, 1.09755, 1.09394, 1.09275, 1.08916, 1.08737, 1.08425, 1.08265, 1.08049, 1.0795, 1.07458, 1.07346, 1.07199, 1.07037, 1.06973, 1.0675, 1.06393, 1.06401, 1.06362, 1.06312, 1.06108, 1.06075, 1.05817, 1.0568, 1.05381, 1.05301, 1.05266, 1.05262, 1.05252, 1.04558, 1.04438, 1.04437, 1.04268, 1.04362, 1.04275, 1.04449, 1.04504, 1.04344, 1.04205, 1.044, 1.04272, 1.0424, 1.04269, 1.04235, 1.14103, 1.04607, 1.04621, 1.04634, 1.04593, 1.04313, 1.02669, 1.02676, 1.02335, 1.05989, 1.0283, 1.02635, 1.07938, 0.996748, 0.997501, 0.974694, 0.967439, 0.936366, 0.970717, 0.94307, 0.978203, 1.00594, 1.00881, 1.04948, 1.08026, 1.0954, 1.19123, 1.22556, 1.37115, 1.37617, 1.48303, 1.48197, 1.51908, 1.56991, 1.62041, 1.61952, 1.64731, 1.64707, 1.64394, 1.66967, 1.66959, 1.67188, 1.68218, 1.71416, 1.73322, 1.73118, 1.71876, 1.8104, 1.84504, 1.84085, 1.84201, 1.84443, 1.84315, 1.87956, 1.85056, 1.84531, 1.88931, 1.90035, 1.86541, 1.87526, 2.02824, 1.93581, 1.93537, 1.93438, 1.92979, 1.93015, 1.93118, 1.93066, 2.08114, 2.07061, 1.97374, 1.97331, 1.96246, 1.96326, 1.94679, 2.01711, 2.01361, 1.96567, 1.99696, 2.03061, 2.02689, 2.02501, 1.88183, 1.91867, 1.91858, 1.86825, 1.87591, 1.94446, 1.94197, 1.94004, 1.93877, 1.90183, 1.94432, 1.95967, 1.9282, 1.94495, 1.96923, 1.85902, 1.87806, 1.87319, 1.8244, 1.8216, 1.78235, 1.78162, 1.77976, 1.8617, 1.84511, 1.75185, 1.75135, 1.73496, 1.75039, 1.70234, 1.67528, 1.67686, 1.68577, 1.72799, 1.62483, 1.59406, 1.58973, 1.56878, 1.59886, 1.54675, 1.48656, 1.46114, 1.46138, 1.46624, 1.43345, 1.29567, 1.27348, 1.17948, 1.11353, 1.03435, 1.00921, 1.00477, 0.96741, 1.01478, 1.01032, 1.13727, 0.932125, 1.05984, 1.06165, 0.97338, 0.973209, 1.50379, 1.45063, 1.23031, 1.07773, 1.03556, 1.04283, 1.04047, 1.04314, 0.998562, 1.04572, 1.04617, 1.04979, 1.05074, 1.19846, 1.18874, 1.19684, 1.46899, 1.04776, 0.966419, 0.967027, 0.965208, 0.969682, 0.96893, 0.966397, 0.970656, 1.264, 1.15694, 0.949315, 1.16219, 1.2218, 1.25064, 0.965967, 1.17447, 1.25327, 1.28204, 1.25365, 1.26723, 0.981927, 1.27189, 0.969478, 0.990045, 0.965448, 0.96619, 1.01963, 1.02324, 1.29559, 1.25667, 1.29814
1.10915, 1.10745, 1.10652, 1.10139, 1.10167, 1.09627, 1.09484, 1.09315, 1.08912, 1.08941, 1.08144, 1.08157, 1.08185, 1.07963, 1.07453, 1.07351, 1.0729, 1.0688, 1.06876, 1.06712, 1.06649, 1.06432, 1.06328, 1.06317, 1.06007, 1.05944, 1.05818, 1.05621, 1.05383, 1.051, 1.05086, 1.05052, 1.05159, 1.05261, 1.04887, 1.04783, 1.04683, 1.04494, 1.04381, 1.04456, 1.04511, 1.04638, 1.04305, 1.04245, 1.039, 1.19489, 1.08194, 1.21258, 1.09942, 1.07535, 1.04478, 1.04245, 1.04203, 1.03995, 1.03925, 1.0411, 1.02529, 1.05559, 1.01384, 1.01422, 1.07047, 0.995262, 0.997337, 0.997996, 0.986934, 0.934538, 0.935737, 0.942459, 0.941581, 0.964911, 0.971813, 1.01015, 1.03343, 1.10616, 1.13643, 1.19216, 1.28865, 1.35328, 1.43282, 1.49512, 1.49655, 1.52003, 1.65143, 1.62802, 1.62463, 1.64843, 1.64796, 1.65007, 1.66614, 1.75131, 1.76367, 1.68186, 1.73077, 1.73415, 1.74067, 1.81337, 1.81273, 1.84518, 1.84082, 1.87597, 1.84444, 1.87419, 1.92502, 1.87584, 1.85477, 1.86578, 1.87053, 1.91819, 1.99071, 2.03142, 1.93698, 1.93643, 1.93541, 1.93304, 1.93331, 1.93177, 2.04145, 2.07907, 2.07898, 1.9693, 1.97527, 1.96001, 1.96615, 1.94081, 1.94207, 2.01445, 1.98859, 1.96278, 2.01169, 2.04749, 1.99039, 1.93706, 1.96507, 1.92778, 1.86831, 1.94803, 1.94219, 1.9395, 1.93941, 1.9381, 1.90371, 1.93141, 1.95961, 1.92892, 1.92792, 1.91653, 1.8494, 1.86187, 1.82388, 1.82379, 1.8244, 1.82017, 1.79051, 1.81408, 1.84998, 1.94134, 1.74557, 1.7451, 1.75036, 1.74928, 1.69661, 1.67636, 1.67487, 1.71199, 1.71657, 1.63014, 1.61456, 1.57179, 1.6046, 1.54061, 1.50816, 1.5069, 1.50576, 1.46158, 1.45537, 1.45032, 1.36032, 1.25019, 1.16848, 1.10966, 1.06254, 1.09696, 0.994064, 1.00857, 0.967145, 1.07026, 0.995464, 1.07957, 1.08278, 1.07393, 0.955945, 0.950057, 0.915569, 1.04078, 1.3412, 1.03437, 0.995019, 0.994483, 1.04025, 1.04681, 1.04824, 1.04416, 1.04554, 1.04787, 0.972179, 0.972214, 1.19551, 1.14665, 1.04923, 0.966952, 0.967323, 0.968202, 0.970019, 0.971453, 0.966599, 1.1762, 0.96707, 0.958408, 0.960002, 0.94395, 0.944476, 0.942301, 1.34736, 0.961063, 1.16921, 1.28317, 1.28221, 0.973771, 1.1335, 0.975325, 0.975091, 0.964288, 0.967791, 0.964388, 0.965425, 1.29544, 1.0009, 1.00148, 1.25973, 1.03518
1.10238, 1.10167, 1.10114, 1.1016, 1.09934, 1.09523, 1.0942, 1.09172, 1.08926, 1.08751, 1.08516, 1.08314, 1.08055, 1.07857, 1.07613, 1.07329, 1.07179, 1.06779, 1.06643, 1.06631, 1.06475, 1.06464, 1.06155, 1.06173, 1.05914, 1.05681, 1.05657, 1.05485, 1.05423, 1.0507, 1.04971, 1.04947, 1.04846, 1.04501, 1.04293, 1.0424, 1.04061, 1.04021, 1.03907, 1.03761, 1.03873, 1.03928, 1.03483, 1.03442, 1.03016, 1.02931, 1.02926, 1.02837, 1.21998, 1.02527, 1.02608, 1.02502, 1.02268, 1.09836, 1.04394, 1.0394, 1.04959, 1.01507, 1.01003, 1.0099, 1.15746, 0.99123, 0.991758, 1.06857, 0.98287, 0.978491, 0.972288, 0.928008, 0.930394, 0.96869, 0.969718, 1.01904, 1.06107, 1.16843, 1.18333, 1.23744, 1.28521, 1.3548, 1.42282, 1.44174, 1.54103, 1.52006, 1.62755, 1.62719, 1.62492, 1.71351, 1.63996, 1.64385, 1.75103, 1.75365, 1.76216, 1.76453, 1.72966, 1.72938, 1.72797, 1.76456, 1.76414, 1.78151, 1.79, 1.82123, 1.83739, 1.91836, 1.92393, 1.88631, 1.88467, 1.92108, 1.92102, 1.92112, 1.95338, 1.95417, 1.93726, 1.93554, 1.93543, 1.93497, 1.93372, 2.00278, 1.93873, 1.96945, 1.96877, 1.96999, 1.96165, 1.96137, 1.9615, 1.94073, 1.95884, 1.95789, 2.07693, 1.96267, 2.02206, 1.97388, 1.9765, 1.95457, 1.92104, 2.005, 2.06609, 1.95559, 1.94046, 1.93926, 1.93855, 1.94913, 1.95167, 1.95186, 1.96068, 1.94989, 1.9772, 1.97902, 1.90618, 1.86634, 1.82453, 1.8239, 1.87644, 1.8278, 1.89131, 1.83083, 1.7985, 1.78245, 1.86559, 1.86392, 1.7493, 1.70789, 1.71359, 1.68852, 1.66303, 1.7417, 1.71674, 1.67959, 1.69228, 1.56519, 1.59176, 1.58528, 1.59423, 1.48828, 1.48272, 1.44891, 1.447, 1.45523, 1.35812, 1.25068, 1.19611, 1.15631, 1.09157, 1.05727, 1.02234, 0.980893, 1.02871, 0.937417, 0.932381, 1.07087, 0.967269, 1.10755, 0.98134, 0.886394, 0.917599, 0.966063, 1.34426, 1.08405, 1.04151, 1.04156, 1.35302, 0.954112, 0.956102, 1.04756, 0.963828, 0.968568, 0.971081, 0.969797, 1.04904, 0.964581, 0.964771, 0.966513, 0.966498, 0.967174, 1.23964, 1.15039, 1.18807, 1.15249, 0.965611, 1.02027, 0.950921, 0.942679, 0.942105, 0.943007, 0.945703, 0.946204, 1.24093, 1.24315, 0.998954, 1.12931, 1.25954, 1.26064, 0.953228, 0.953214, 1.02185, 0.963547, 1.20986, 0.947375, 0.945413, 0.945607, 0.945523, 0.945744
1.10272, 1.10127, 1.10067, 1.10181, 1.10012, 1.095, 1.09459, 1.09455, 1.09066, 1.08689, 1.0841, 1.08295, 1.08198, 1.07737, 1.07502, 1.07126, 1.07052, 1.06752, 1.06509, 1.06398, 1.06342, 1.06142, 1.06144, 1.06002, 1.05638, 1.05612, 1.05596, 1.05415, 1.05333, 1.05034, 1.04888, 1.04923, 1.04642, 1.04208, 1.03921, 1.04153, 1.04008, 1.03877, 1.03691, 1.03649, 1.0376, 1.03479, 1.03564, 1.03414, 1.03001, 1.02953, 1.02869, 1.02787, 1.02585, 1.02473, 1.02399, 1.02255, 1.02127, 1.01657, 1.01526, 1.01517, 1.01731, 1.01815, 1.01162, 1.01179, 1.00402, 0.993738, 0.989508, 1.02029, 0.982929, 0.971476, 0.936452, 0.935868, 0.928948, 0.980566, 0.992962, 1.14006, 1.05916, 1.10323, 1.23934, 1.28183, 1.31158, 1.36833, 1.39468, 1.449, 1.48275, 1.53989, 1.6104, 1.59648, 1.61356, 1.66868, 1.64306, 1.67087, 1.66891, 1.75379, 1.7561, 1.764, 1.73082, 1.7286, 1.75646, 1.89352, 1.76322, 1.88147, 1.87918, 1.81856, 1.84488, 1.85804, 1.87916, 1.88589, 1.9148, 1.94547, 1.94521, 1.95287, 1.95348, 1.95458, 1.95494, 1.93672, 1.936, 1.93417, 1.93434, 1.93398, 2.00263, 2.01125, 1.97538, 1.97592, 1.97509, 1.98312, 1.97592, 1.97372, 1.94745, 1.94648, 2.09263, 2.09097, 2.09115, 1.99131, 1.97256, 1.96148, 1.96833, 1.9355, 1.93486, 1.9083, 1.94066, 1.91553, 1.91503, 1.94346, 2.03447, 1.94411, 1.94533, 2.00677, 1.91343, 1.9113, 1.91458, 1.84475, 1.86914, 1.93244, 1.85323, 1.85271, 1.80811, 1.79239, 1.79922, 1.84217, 1.8368, 1.76551, 1.77207, 1.72412, 1.69964, 1.74479, 1.74264, 1.66282, 1.64642, 1.632, 1.59484, 1.62225, 1.57504, 1.66919, 1.54002, 1.50936, 1.61574, 1.52152, 1.48491, 1.44597, 1.37416, 1.2731, 1.26318, 1.19423, 1.15096, 1.15165, 1.04058, 0.982825, 1.03564, 0.956686, 1.09663, 1.09871, 1.07079, 1.07417, 1.07538, 0.887078, 0.915466, 0.964208, 1.34118, 1.07486, 0.9547, 1.3494, 1.35037, 0.955847, 0.955818, 1.16389, 0.958872, 1.08302, 0.964636, 0.96575, 0.965046, 0.963286, 0.96293, 1.13217, 1.13673, 1.14348, 1.1373, 1.1408, 1.14368, 0.952685, 0.953075, 0.945545, 1.24112, 0.937996, 0.942283, 0.944731, 0.945734, 0.945605, 0.945303, 0.94571, 1.11911, 1.01972, 1.0022, 1.01988, 1.26902, 1.06693, 1.42872, 1.28446, 0.945756, 0.944352, 0.945089, 0.944767, 0.944649, 0.945402
1.09765, 1.09773, 1.09739, 1.09734, 1.09761, 1.09853, 1.26099, 1.11336, 1.11511, 1.27486, 1.08411, 1.0844, 1.13301, 1.07677, 1.06902, 1.06851, 1.06794, 1.06626, 1.06504, 1.06269, 1.06081, 1.06036, 1.06049, 1.05768, 1.05707, 1.05488, 1.05373, 1.0529, 1.05222, 1.0493, 1.04907, 1.04669, 1.0458, 1.04446, 1.04249, 1.04077, 1.03701, 1.03743, 1.03718, 1.03508, 1.03471, 1.03518, 1.03541, 1.03601, 1.0332, 1.02921, 1.02845, 1.02822, 1.22063, 1.02535, 1.22387, 1.02164, 1.01956, 1.01805, 1.01136, 1.01186, 1.01465, 1.01859, 1.0153, 1.0109, 1.0105, 0.989383, 0.988667, 1.13414, 0.983935, 0.983433, 0.973201, 0.972731, 0.950691, 0.956446, 1.0062, 1.03961, 1.10521, 1.10566, 1.22166, 1.33632, 1.3444, 1.38962, 1.45417, 1.4543, 1.48212, 1.50686, 1.61042, 1.57884, 1.61022, 1.61061, 1.67291, 1.64769, 1.75344, 1.69698, 1.7105, 1.77681, 1.77215, 1.8419, 1.75194, 1.8951, 1.77871, 1.79345, 1.88507, 1.94474, 1.94325, 1.87933, 1.86987, 1.87605, 1.99743, 1.99055, 1.94512, 1.98605, 2.07379, 1.95449, 1.95601, 1.95981, 2.00114, 1.94841, 1.93482, 1.94656, 1.97258, 1.99346, 1.97451, 1.97495, 1.97902, 1.94819, 1.9475, 1.94773, 1.94776, 1.94657, 2.09306, 2.09244, 2.0923, 2.05857, 1.9771, 1.9629, 1.97273, 1.94273, 1.92816, 1.93882, 1.91941, 1.91894, 1.91827, 2.03271, 2.00722, 2.00674, 2.00792, 2.03841, 1.93823, 1.91176, 1.99366, 1.89217, 1.86586, 1.87142, 1.85442, 1.85354, 1.86771, 1.79375, 1.79947, 1.79639, 1.7778, 1.76622, 1.75752, 1.78818, 1.70224, 1.68695, 1.67733, 1.65193, 1.63993, 1.63605, 1.606, 1.58617, 1.58335, 1.59066, 1.55637, 1.5227, 1.51748, 1.51964, 1.48188, 1.51943, 1.40136, 1.38867, 1.24777, 1.23907, 1.19466, 1.18675, 1.06525, 1.01096, 1.00162, 0.930123, 1.0699, 1.06898, 1.07052, 1.07463, 0.880502, 0.880272, 0.915396, 0.91447, 0.936085, 1.20322, 1.34646, 0.951346, 0.949659, 0.950568, 0.951353, 1.15656, 0.957211, 1.07848, 0.966167, 0.962711, 0.962612, 0.959045, 0.957151, 0.95729, 0.958276, 0.955208, 0.956264, 0.957135, 0.956075, 0.952989, 0.953709, 0.946448, 0.947209, 1.09914, 0.932675, 0.943844, 0.942745, 0.942196, 0.942168, 0.938819, 0.939383, 1.14965, 0.929855, 1.07667, 0.928867, 1.08026, 1.15722, 1.37518, 1.09409, 0.939781, 0.942369, 0.943995, 0.945356, 0.946914
1.09814, 1.09751, 1.09762, 1.09774, 1.09815, 1.25502, 1.55667, 1.34032, 1.44696, 1.57124, 1.08048, 1.07628, 1.07418, 1.07107, 1.06979, 1.06797, 1.06748, 1.06461, 1.06333, 1.06116, 1.06105, 1.06083, 1.05774, 1.05536, 1.05647, 1.20912, 1.05558, 1.05392, 1.05083, 1.04921, 1.04847, 1.04613, 1.04416, 1.04262, 1.04227, 1.03986, 1.03895, 1.03722, 1.03792, 1.03542, 1.03537, 1.03562, 1.03566, 1.20562, 1.03324, 1.03182, 1.02919, 1.02491, 1.02481, 1.02049, 1.01984, 1.0189, 1.01724, 1.01792, 1.01031, 1.01079, 1.01041, 1.0119, 1.01579, 0.994848, 0.993362, 0.987598, 0.987674, 1.01362, 0.982942, 0.935331, 0.949183, 0.949666, 0.942352, 0.981288, 1.0101, 1.03885, 1.16393, 1.21225, 1.22702, 1.33013, 1.41721, 1.39259, 1.44427, 1.45349, 1.50933, 1.50695, 1.553, 1.59699, 1.66207, 1.60182, 1.69273, 1.64416, 1.74791, 1.67517, 1.77891, 1.84548, 1.77619, 1.79289, 1.8594, 1.80033, 1.79932, 1.80646, 1.83834, 1.84238, 1.93483, 1.88111, 1.87033, 1.87022, 1.9284, 1.9374, 1.9356, 1.98639, 1.98675, 1.95575, 1.96583, 2.06937, 1.94866, 1.94738, 1.97768, 1.97668, 2.01669, 2.01661, 1.97143, 1.96897, 1.96608, 1.96517, 1.95312, 1.96161, 1.94784, 1.95978, 2.03503, 2.06217, 2.06342, 2.00304, 2.06136, 2.02428, 1.96259, 1.95776, 1.94465, 1.93935, 1.94113, 1.91907, 1.91789, 2.03724, 2.0306, 2.00697, 1.9643, 1.90239, 1.90247, 1.909, 1.90754, 1.90079, 1.8991, 1.9791, 1.97723, 1.86269, 1.85604, 1.88757, 1.77876, 1.77818, 1.77805, 1.77579, 1.85091, 1.77867, 1.76541, 1.69225, 1.67953, 1.66461, 1.65831, 1.62726, 1.61434, 1.60414, 1.5858, 1.68198, 1.5982, 1.53405, 1.51683, 1.54336, 1.54001, 1.52295, 1.40036, 1.34363, 1.33048, 1.31973, 1.22018, 1.12673, 1.06148, 1.02993, 0.962396, 0.968585, 0.968962, 1.06744, 1.06836, 0.87874, 0.879724, 0.875854, 0.925839, 0.945265, 0.953923, 0.94902, 0.950184, 1.12786, 0.943904, 0.948946, 0.949116, 0.951788, 0.95347, 0.956494, 0.957791, 0.95787, 0.959432, 0.958452, 0.956834, 0.957116, 0.959256, 0.952781, 0.955142, 0.956176, 0.95712, 1.01497, 0.947504, 0.945942, 0.947333, 0.977625, 0.928749, 0.928962, 0.939465, 0.940006, 0.941904, 0.941794, 0.929812, 0.929033, 0.929156, 0.929514, 0.928958, 0.930174, 0.928425, 0.928749, 1.18918, 0.936063, 0.938747, 1.20586, 0.944505, 0.946909
1.0976, 1.09836, 1.09559, 1.32612, 1.3298, 1.39938, 1.29195, 1.07812, 1.07771, 1.07776, 1.07393, 1.07211, 1.0714, 1.0702, 1.0689, 1.06682, 1.06607, 1.06069, 1.06161, 1.06236, 1.06107, 1.06066, 1.0593, 1.05502, 1.06008, 1.54092, 1.05675, 1.05032, 1.04918, 1.04872, 1.04801, 1.04573, 1.04411, 1.04283, 1.03979, 1.03967, 1.03963, 1.03874, 1.02761, 1.02758, 1.02831, 1.02877, 1.26785, 1.03183, 1.03193, 1.46115, 1.02326, 1.02243, 1.02074, 1.01908, 1.01669, 1.01784, 1.01115, 1.01132, 1.01116, 1.00764, 1.00416, 1.00245, 0.996059, 0.994052, 0.988352, 0.987605, 0.988394, 0.975275, 0.953596, 0.984495, 1.00215, 0.950088, 0.94952, 0.993115, 1.00992, 1.07561, 1.09773, 1.20118, 1.30307, 1.32916, 1.38655, 1.38256, 1.47441, 1.45524, 1.49928, 1.51901, 1.54685, 1.60568, 1.60927, 1.65824, 1.69423, 1.69503, 1.67941, 1.67938, 1.6971, 1.74079, 1.79893, 1.80569, 1.80364, 1.81669, 1.82446, 1.91342, 1.82708, 1.835, 1.84612, 1.87161, 1.88759, 1.9077, 1.91951, 2.01008, 2.01011, 2.01312, 2.01428, 2.0451, 2.06852, 2.1108, 1.99747, 1.97922, 2.09493, 2.02345, 2.022, 1.97176, 1.9714, 2.04652, 2.04775, 2.05166, 1.99018, 1.96195, 2.05024, 2.03783, 2.00852, 2.09674, 2.05958, 2.06453, 2.063, 2.06466, 2.05997, 1.95927, 1.93993, 1.93957, 1.94017, 2.03005, 2.03021, 2.03924, 2.03863, 1.94669, 1.97241, 1.90307, 1.9029, 1.90264, 1.89682, 1.90096, 1.89956, 1.9134, 1.91203, 1.87148, 1.86976, 1.77993, 1.7791, 1.77853, 1.77807, 1.77621, 1.83895, 1.77925, 1.77879, 1.69977, 1.69306, 1.66166, 1.67702, 1.62648, 1.63056, 1.63138, 1.58582, 1.57408, 1.59612, 1.63166, 1.51759, 1.51007, 1.51014, 1.48571, 1.42149, 1.40506, 1.33105, 1.33171, 1.19811, 1.1273, 1.08905, 0.994532, 0.94031, 0.969929, 0.970292, 0.970055, 1.00769, 0.886283, 0.876053, 0.874084, 0.876067, 0.904996, 0.966287, 1.40716, 1.07436, 1.0742, 0.941883, 1.30922, 1.2805, 0.950253, 0.95317, 1.11288, 0.959915, 0.960575, 0.961045, 0.960499, 0.959585, 0.957394, 0.958292, 0.971056, 0.969848, 0.957139, 0.998747, 1.03168, 0.998255, 0.940063, 0.936051, 0.937424, 0.937155, 0.927955, 0.937263, 0.940047, 0.940373, 1.16334, 0.929084, 0.930308, 0.929755, 0.928076, 0.928403, 0.928323, 0.928177, 0.92774, 0.928266, 1.13332, 1.19864, 0.926749, 1.19505, 1.19541
1.0966, 1.09515, 1.09055, 1.08617, 1.08353, 1.08347, 1.08099, 1.07796, 1.0778, 1.07659, 1.07432, 1.07358, 1.0715, 1.06975, 1.06929, 1.06646, 1.0672, 1.0579, 1.05891, 1.06036, 1.05994, 1.05959, 1.05668, 1.05421, 1.04949, 1.04977, 1.04652, 1.04583, 1.04579, 1.04614, 1.0459, 1.04432, 1.04304, 1.0429, 1.03962, 1.03869, 1.03741, 1.03592, 1.02709, 1.02821, 1.02771, 1.02356, 1.02226, 1.02206, 1.02203, 1.01943, 1.27411, 1.20859, 1.01849, 1.01521, 1.01425, 1.01209, 1.00964, 1.00869, 1.00484, 1.0041, 1.00158, 0.999345, 1.00843, 0.990425, 0.990405, 0.973404, 0.983191, 0.966727, 0.954209, 0.944557, 0.942753, 0.939016, 0.959921, 1.00649, 1.01283, 1.07114, 1.11997, 1.17929, 1.19222, 1.33687, 1.36503, 1.41561, 1.43993, 1.46689, 1.48708, 1.53247, 1.60004, 1.60882, 1.60885, 1.65548, 1.64423, 1.69652, 1.67789, 1.68394, 1.80952, 1.77927, 1.77047, 1.85209, 1.86709, 1.89969, 1.89912, 1.92177, 1.92054, 1.91349, 1.91133, 1.91144, 1.8913, 1.91329, 1.91538, 2.01606, 1.96961, 1.98184, 2.05587, 2.05819, 2.08825, 2.08739, 2.12503, 2.07385, 2.02357, 2.0248, 2.02288, 1.97878, 1.97873, 2.04564, 2.04141, 2.04865, 2.04257, 2.05171, 2.05144, 2.00032, 2.00438, 2.00379, 2.00318, 2.06569, 2.06231, 2.09412, 2.11107, 1.98034, 1.94035, 1.94035, 1.94001, 2.03104, 2.03735, 2.08948, 1.9889, 1.97337, 1.96521, 1.90364, 1.90334, 1.90308, 1.94299, 1.9646, 1.98653, 1.91425, 1.91332, 1.87271, 1.82122, 1.77754, 1.77895, 1.77941, 1.77857, 1.86187, 1.84009, 1.83958, 1.79195, 1.79004, 1.7001, 1.67767, 1.67709, 1.66237, 1.63663, 1.6244, 1.59457, 1.60444, 1.64425, 1.59218, 1.54092, 1.50976, 1.50887, 1.50175, 1.4925, 1.39875, 1.34213, 1.30885, 1.23075, 1.16066, 1.06229, 1.00359, 1.00385, 1.00955, 0.942952, 0.918749, 0.891844, 0.929962, 0.873887, 0.871824, 0.874493, 0.880659, 0.881501, 0.988175, 1.10582, 1.10909, 0.995925, 1.33975, 1.41014, 1.01187, 1.14292, 1.41553, 1.12289, 1.01938, 1.27966, 1.42276, 0.960054, 0.958224, 1.19689, 0.959139, 0.966819, 1.07233, 1.06036, 0.936819, 0.939747, 0.933378, 0.935156, 0.935886, 0.939066, 0.926749, 1.11829, 1.11944, 0.938749, 0.937183, 0.932401, 0.927467, 0.92831, 0.928569, 0.928254, 0.928324, 0.923627, 0.924049, 0.925567, 0.925093, 0.924971, 0.926324, 0.926831, 0.925328
1.09834, 1.09414, 1.09125, 1.08981, 1.08355, 1.08296, 1.08216, 1.07817, 1.07791, 1.07714, 1.07487, 1.07345, 1.07237, 1.07002, 1.06702, 1.06693, 1.06754, 1.05659, 1.05799, 1.05909, 1.05985, 1.05776, 1.05691, 1.05352, 1.0491, 1.04563, 1.04601, 1.04518, 1.04463, 1.046, 1.04481, 1.04612, 1.04268, 1.04094, 1.04008, 1.03776, 1.03772, 1.03349, 1.02903, 1.02904, 1.02819, 1.02491, 1.02015, 1.0206, 1.01942, 1.01806, 1.01512, 1.01468, 1.01458, 1.01244, 1.01232, 1.00902, 1.00667, 1.00637, 1.00685, 1.00752, 0.99901, 1.01045, 1.37978, 0.990234, 0.982145, 0.966561, 0.964536, 0.959308, 0.959456, 0.950956, 0.94427, 0.945026, 0.976397, 0.984445, 1.09025, 1.04781, 1.12079, 1.18469, 1.2328, 1.33658, 1.38943, 1.43122, 1.53285, 1.56997, 1.58928, 1.60694, 1.59613, 1.68588, 1.62991, 1.71712, 1.69866, 1.69897, 1.80909, 1.80895, 1.72672, 1.77835, 1.89738, 1.88625, 1.85979, 1.88876, 1.95327, 1.90563, 1.91435, 1.91407, 1.91297, 1.91099, 1.88237, 1.92283, 1.98571, 1.92797, 2.0396, 1.98297, 2.08642, 2.05357, 2.08664, 2.08642, 2.0862, 2.08246, 2.073, 2.02345, 1.99232, 1.99176, 2.06938, 2.04409, 2.04316, 2.04137, 2.02191, 2.05405, 2.05209, 2.00255, 2.00548, 2.0051, 2.00387, 2.03713, 2.0258, 2.0239, 2.10162, 2.10203, 2.00525, 2.03763, 1.99435, 2.09392, 2.08983, 2.08952, 2.08791, 1.97898, 1.97337, 2.07351, 1.93552, 1.94145, 1.94433, 1.90661, 1.91004, 1.9087, 1.86246, 1.94133, 1.82052, 1.77801, 1.7769, 1.77865, 1.87077, 1.85502, 1.83708, 1.79406, 1.79227, 1.79041, 1.79806, 1.71951, 1.67924, 1.6652, 1.66084, 1.65261, 1.59816, 1.57228, 1.57912, 1.57714, 1.52559, 1.52651, 1.5549, 1.53781, 1.4928, 1.4932, 1.41617, 1.3149, 1.25208, 1.14783, 1.06096, 1.01537, 0.951117, 0.970011, 0.92358, 0.903785, 0.876598, 0.936723, 0.875024, 0.873596, 0.872718, 0.880294, 0.893434, 1.57703, 1.13609, 0.91641, 0.920471, 0.921473, 1.16825, 1.184, 1.10908, 1.04989, 1.05706, 1.11193, 1.05974, 1.01857, 1.38752, 1.36759, 0.937174, 0.93575, 0.935838, 0.935178, 0.935336, 0.937168, 0.933005, 0.933867, 0.933884, 0.940494, 0.942332, 0.922283, 0.92476, 0.922929, 0.942118, 0.934739, 0.932034, 0.931957, 0.932172, 0.929967, 0.926348, 0.924075, 0.924523, 0.925603, 0.925846, 0.925437, 0.926053, 0.925726, 0.926048, 1.0477
1.09778, 1.09589, 1.12452, 1.27847, 1.08261, 1.08228, 1.07366, 1.07394, 1.07615, 1.07677, 1.07406, 1.0734, 1.07179, 1.0698, 1.07019, 1.14941, 1.15017, 1.05713, 1.0582, 1.05857, 1.05821, 1.05632, 1.05067, 1.04804, 1.06823, 1.04078, 1.0437, 1.04356, 1.04378, 1.04239, 1.04259, 1.04391, 1.04669, 1.04005, 1.03717, 1.03557, 1.03394, 1.2407, 1.02883, 1.02829, 1.02699, 1.02721, 1.19661, 1.01744, 1.01597, 1.01503, 1.01452, 1.01338, 1.01362, 1.00981, 1.0078, 1.00637, 1.00595, 1.00312, 0.997434, 0.998445, 0.989445, 0.988948, 0.988396, 1.08354, 1.02594, 0.983445, 0.965492, 0.988952, 0.988471, 0.99791, 0.955474, 0.998977, 0.959133, 1.0121, 1.03166, 1.04359, 1.1246, 1.19957, 1.2097, 1.32614, 1.39609, 1.48452, 1.5329, 1.58941, 1.60769, 1.6072, 1.60726, 1.68651, 1.6861, 1.6826, 1.71977, 1.70025, 1.81025, 1.69226, 1.85987, 1.87897, 1.85945, 1.85948, 1.85854, 1.8861, 1.94752, 1.93379, 1.93579, 1.91268, 1.91173, 1.89797, 1.94078, 1.94099, 1.94722, 1.93808, 1.9687, 1.94569, 2.08059, 2.03174, 2.03111, 2.03407, 2.08132, 2.03923, 2.07283, 2.06319, 1.99308, 1.99172, 2.07184, 2.0418, 2.04073, 2.04025, 2.08641, 2.07963, 2.00328, 2.00272, 2.00555, 2.00625, 2.00598, 2.0374, 2.01783, 2.02457, 2.10364, 2.10333, 1.99791, 2.0038, 2.01378, 2.09586, 2.09242, 2.08857, 2.08936, 2.07227, 2.07376, 2.00137, 1.97989, 2.05156, 2.00805, 1.90938, 1.90893, 1.96167, 1.88574, 1.82465, 1.81343, 1.77801, 1.77724, 1.82454, 1.86425, 1.81467, 1.81132, 1.87661, 1.7777, 1.85568, 1.72131, 1.72419, 1.7246, 1.69599, 1.6795, 1.67853, 1.64346, 1.57607, 1.56479, 1.60847, 1.55911, 1.52583, 1.59152, 1.50018, 1.49442, 1.49407, 1.44657, 1.38293, 1.27754, 1.1577, 1.10191, 1.03869, 0.957187, 0.952506, 0.911521, 0.89984, 0.876091, 0.876435, 0.874168, 0.874068, 0.873504, 0.929553, 0.929776, 0.922663, 0.915201, 0.915358, 0.921029, 0.921749, 0.922501, 0.927564, 0.926718, 0.927388, 0.928176, 1.07013, 1.05764, 0.931201, 0.929152, 0.929598, 0.933802, 0.933883, 0.932616, 0.934747, 0.934757, 0.935581, 0.935535, 0.938958, 0.937333, 0.940242, 0.941791, 1.15166, 0.950049, 0.918834, 0.919346, 0.931419, 0.930544, 0.929945, 0.930914, 0.931743, 0.925453, 0.925453, 0.925947, 0.924846, 0.925422, 0.925898, 0.92624, 0.925966, 1.29187, 0.904704
1.10508, 1.09143, 1.09114, 1.0892, 1.225, 1.28882, 1.0735, 1.07326, 1.07613, 1.07582, 1.07397, 1.07529, 1.06976, 1.06964, 1.06808, 1.06337, 1.06275, 1.05672, 1.05775, 1.05898, 1.05539, 1.05435, 1.16732, 1.04571, 1.04478, 1.04244, 1.04338, 1.0424, 1.04209, 1.04119, 1.04015, 1.03476, 1.0365, 1.03795, 1.03373, 1.03317, 1.0327, 1.18779, 1.02645, 1.02637, 1.02341, 1.02237, 1.01722, 1.01721, 1.01677, 1.01358, 1.01281, 1.01164, 1.01008, 1.00703, 1.00435, 1.00209, 1.00066, 0.998537, 0.993462, 0.992599, 1.12877, 0.987666, 1.01853, 0.98025, 0.975778, 0.974757, 0.967541, 0.991502, 0.946498, 0.947121, 0.946143, 0.982109, 1.02166, 1.01085, 1.04154, 1.05364, 1.17393, 1.2365, 1.30912, 1.3192, 1.40583, 1.46759, 1.54235, 1.62345, 1.57977, 1.60745, 1.6037, 1.69028, 1.63216, 1.67256, 1.71834, 1.71711, 1.79633, 1.797, 1.82136, 1.86252, 1.86874, 1.86017, 1.85944, 1.89967, 1.93601, 1.93408, 1.93345, 1.93284, 2.01498, 1.89943, 1.93475, 1.91729, 1.93428, 1.94168, 1.95559, 2.05793, 2.03239, 2.0321, 2.03208, 2.0313, 2.03099, 2.04451, 2.04453, 2.06069, 2.06144, 2.05821, 2.08291, 2.07678, 2.07755, 2.03866, 2.00693, 2.00668, 2.00609, 2.00275, 2.00399, 2.00648, 2.00606, 2.03041, 2.03001, 2.02846, 2.05222, 2.03469, 1.98749, 1.98607, 1.98532, 2.0957, 2.09468, 2.12045, 2.10748, 2.02029, 1.95992, 1.95775, 1.95546, 1.95265, 1.95271, 1.92212, 1.96268, 1.96132, 1.84763, 1.89294, 1.8276, 1.79519, 1.79089, 1.82837, 1.81328, 1.81443, 1.86918, 1.77863, 1.77821, 1.77716, 1.8571, 1.72694, 1.6695, 1.66841, 1.6767, 1.67875, 1.66876, 1.58188, 1.57298, 1.53024, 1.51319, 1.53499, 1.53418, 1.49189, 1.47287, 1.47214, 1.47116, 1.37747, 1.31504, 1.21681, 1.09764, 1.04704, 0.992049, 0.932736, 0.935038, 0.872459, 0.874239, 0.877627, 0.870754, 0.87132, 0.908723, 0.908176, 0.887491, 0.946837, 1.00813, 0.918202, 0.918904, 0.920899, 0.922616, 0.925207, 0.925154, 0.925816, 0.928365, 0.927829, 0.928724, 0.929517, 0.929583, 0.930531, 0.932074, 0.932068, 0.933921, 0.934108, 0.934902, 0.936935, 0.936754, 0.93884, 0.938598, 0.939373, 0.9398, 1.08395, 0.927887, 0.91774, 0.917194, 0.916559, 0.926928, 0.928699, 0.927659, 0.926039, 0.922021, 0.923492, 0.92492, 0.923797, 0.927035, 0.926316, 0.925829, 0.915712, 0.905739, 0.906175
1.09418, 1.09106, 1.08963, 1.08613, 1.08499, 1.08143, 1.07824, 1.07217, 1.07412, 1.07333, 1.07341, 1.07828, 1.06786, 1.06781, 1.06261, 1.06128, 1.0612, 1.05744, 1.05594, 1.05379, 1.05254, 1.04841, 1.04684, 1.04664, 1.04443, 1.04392, 1.04038, 1.04148, 1.04082, 1.03902, 1.03695, 1.03648, 1.03742, 1.0359, 1.03424, 1.0312, 1.03061, 1.02581, 1.02547, 1.02292, 1.02272, 1.01806, 1.01661, 1.01583, 1.0137, 1.01165, 1.01045, 1.00958, 1.00516, 1.00428, 1.00374, 1.00173, 0.993987, 0.993869, 0.993211, 0.991095, 0.98737, 0.98546, 0.981137, 0.98052, 1.35166, 0.995282, 0.963891, 0.956517, 0.949916, 0.945047, 0.944566, 0.994716, 1.01184, 1.04253, 1.06797, 1.10267, 1.30433, 1.24387, 1.31949, 1.35949, 1.40894, 1.42501, 1.51387, 1.56124, 1.54045, 1.58328, 1.66818, 1.69706, 1.69652, 1.78961, 1.70271, 1.70832, 1.89097, 1.71979, 1.7125, 1.9345, 1.86917, 1.86314, 1.8625, 1.87008, 1.88569, 1.93444, 1.93625, 1.92447, 2.01517, 1.95261, 1.92775, 1.9342, 2.00497, 1.9599, 1.99616, 2.11458, 2.1112, 2.11079, 2.03231, 2.03109, 2.0401, 2.04538, 2.04507, 2.04822, 2.05881, 2.05896, 2.05286, 2.05306, 2.15873, 2.04956, 2.00882, 2.01018, 2.00462, 2.0056, 2.00772, 2.00721, 2.00792, 2.01162, 2.0314, 2.01138, 2.02407, 2.03508, 1.99047, 1.98539, 1.98475, 2.03525, 2.11869, 2.1211, 2.11519, 2.14511, 1.95811, 1.95725, 1.95652, 1.95274, 1.9516, 1.92007, 1.91989, 1.93617, 1.88661, 1.89072, 1.88895, 1.8868, 1.79739, 1.87323, 1.81897, 1.81857, 1.81741, 1.7921, 1.77839, 1.7753, 1.78862, 1.71739, 1.7619, 1.6685, 1.67711, 1.67601, 1.67426, 1.59306, 1.51924, 1.52552, 1.52582, 1.53098, 1.55028, 1.49377, 1.47822, 1.47568, 1.41856, 1.41618, 1.30334, 1.22004, 1.11226, 1.07053, 1.00525, 0.940299, 0.928994, 0.870556, 0.871882, 0.873451, 0.864635, 0.860236, 0.858761, 0.85948, 0.900976, 0.884292, 1.07864, 0.917741, 0.918395, 0.920271, 0.922588, 0.921794, 0.923986, 0.92497, 0.92522, 0.927311, 0.929477, 0.930013, 0.931573, 0.931362, 0.932134, 0.932914, 0.934558, 0.935319, 0.935828, 0.936608, 0.937386, 0.937896, 0.938553, 0.937549, 0.934533, 0.935427, 0.927033, 0.928159, 0.914995, 0.914667, 0.914461, 0.926512, 0.924976, 0.926398, 0.927497, 0.925977, 0.927366, 0.925717, 0.921586, 0.922695, 0.922504, 0.915394, 0.907211, 0.907299
1.09278, 1.08977, 1.09031, 1.08419, 1.08137, 1.07978, 1.07775, 1.07571, 1.07375, 1.07234, 1.0711, 1.06805, 1.06754, 1.06446, 1.06311, 1.06096, 1.05846, 1.05413, 1.05269, 1.05215, 1.05154, 1.0477, 1.04925, 1.04772, 1.04691, 1.04057, 1.039, 1.03731, 1.03612, 1.03678, 1.03546, 1.03543, 1.032, 1.03202, 1.02907, 1.02854, 1.02679, 1.02495, 1.02375, 1.02147, 1.01975, 1.01636, 1.01397, 1.0135, 1.01322, 1.01119, 1.01171, 1.00663, 1.00666, 1.00588, 1.00497, 1.00431, 0.99499, 0.992837, 0.99254, 0.991816, 0.994669, 0.984649, 0.983816, 0.980961, 0.990879, 0.966562, 0.96305, 0.95702, 0.954298, 0.94076, 0.941361, 0.998892, 1.02324, 1.02648, 1.07129, 1.26698, 1.25437, 1.24437, 1.31995, 1.35709, 1.46715, 1.44202, 1.5453, 1.55411, 1.55441, 1.61621, 1.58228, 1.6622, 1.67267, 1.67173, 1.77261, 1.84083, 1.84084, 1.71813, 1.90256, 1.87122, 1.87225, 1.86355, 1.86377, 1.87127, 1.88999, 1.98901, 1.92534, 1.92428, 1.92545, 1.99986, 2.00674, 2.08685, 2.08599, 1.98245, 2.11218, 2.11093, 2.11007, 2.11023, 2.03142, 2.12324, 2.04071, 2.04538, 2.04699, 2.09945, 2.05463, 2.05381, 2.05489, 2.05583, 2.05575, 2.07273, 2.00432, 2.00421, 2.00368, 2.0291, 2.01758, 2.018, 2.01497, 2.01787, 2.01429, 2.01222, 2.0354, 2.0285, 1.98647, 1.98596, 1.98517, 2.03653, 2.1419, 2.11942, 2.14498, 2.0221, 1.96, 1.96121, 1.97829, 1.98074, 1.97892, 1.92069, 1.92079, 1.92029, 1.94779, 1.89014, 1.88983, 1.8834, 1.92147, 1.87618, 1.81982, 1.81899, 1.8282, 1.79278, 1.79211, 1.78804, 1.72436, 1.71953, 1.672, 1.74935, 1.66234, 1.69199, 1.58143, 1.58567, 1.51982, 1.51935, 1.52523, 1.52436, 1.52989, 1.49192, 1.48866, 1.4762, 1.43773, 1.43053, 1.36408, 1.27176, 1.17812, 1.05068, 1.05292, 0.960493, 1.09089, 0.926145, 0.87323, 0.873367, 0.862897, 0.863241, 0.933182, 0.880847, 0.882167, 0.88379, 1.07831, 0.916388, 0.917885, 0.920052, 0.921541, 1.23447, 1.1814, 1.09284, 0.926805, 0.928308, 0.929149, 0.929895, 0.929995, 0.931789, 0.932779, 0.93417, 0.934533, 0.93424, 0.935043, 0.936742, 0.936405, 0.937406, 0.93723, 0.937634, 0.936765, 0.936198, 0.925876, 0.926051, 0.928346, 0.914547, 0.911999, 0.912802, 0.923539, 0.925445, 0.927439, 0.927338, 0.928299, 0.920233, 0.921041, 0.922549, 0.919263, 0.918001, 0.916729, 0.962931
1.09116, 1.09025, 1.09065, 1.08967, 1.10131, 1.07955, 1.07877, 1.07744, 1.074, 1.0724, 1.0702, 1.06856, 1.06903, 1.06755, 1.06284, 1.0629, 1.05951, 1.0569, 1.05561, 1.05179, 1.0511, 1.04797, 1.04781, 1.04841, 1.05068, 1.11912, 1.03536, 1.0349, 1.03633, 1.03316, 1.03286, 1.02976, 1.0303, 1.02877, 1.02719, 1.02669, 1.0218, 1.02162, 1.02261, 1.01974, 1.01828, 1.01519, 1.09234, 1.00853, 1.00733, 1.00668, 1.00509, 1.00498, 1.00426, 1.00481, 1.00009, 1.00029, 0.997596, 0.992907, 0.995755, 0.988941, 0.988184, 0.982545, 0.983875, 0.974788, 0.971755, 0.964418, 0.965156, 0.954557, 0.947365, 0.943639, 0.942741, 0.98548, 0.986401, 1.05053, 1.15483, 1.16077, 1.23373, 1.27601, 1.33318, 1.40728, 1.42011, 1.49651, 1.4785, 1.57838, 1.55614, 1.58702, 1.58709, 1.61042, 1.64374, 1.6578, 1.87144, 1.88365, 1.83775, 1.9065, 1.8869, 1.88633, 1.88575, 1.88001, 1.86252, 1.86168, 1.87294, 1.88565, 1.89456, 1.92417, 2.00193, 2.01695, 1.9672, 1.98633, 1.98561, 1.98043, 2.02119, 2.11301, 2.11112, 2.0496, 2.19724, 2.28047, 2.08671, 2.09468, 2.10115, 2.09968, 2.09976, 2.0713, 2.13305, 2.05903, 2.05918, 2.06085, 2.0605, 2.00282, 2.00315, 2.01517, 2.02039, 2.0183, 2.01777, 2.02045, 2.01965, 2.01845, 2.07889, 2.03618, 2.0385, 1.99256, 2.03421, 2.03429, 2.03284, 2.09964, 2.03508, 1.95985, 1.95948, 1.95922, 1.9786, 1.97788, 1.98638, 1.92012, 1.9273, 1.94603, 1.94571, 1.88049, 1.88013, 1.87082, 1.89456, 1.88997, 1.88793, 1.81023, 1.82786, 1.82791, 1.81075, 1.80995, 1.72795, 1.80084, 1.67559, 1.66218, 1.66859, 1.63407, 1.58286, 1.58884, 1.54702, 1.51915, 1.52506, 1.53689, 1.50426, 1.50421, 1.48899, 1.49185, 1.45365, 1.43392, 1.35209, 1.25137, 1.24725, 1.15088, 1.04702, 1.00958, 1.09049, 0.949016, 0.867649, 0.869437, 0.869652, 0.866152, 0.896292, 0.89843, 0.887011, 0.887239, 0.927199, 0.915416, 0.918086, 0.91884, 1.34268, 1.13515, 1.2726, 1.14705, 0.926375, 0.926799, 0.930606, 0.931513, 0.931741, 0.932588, 0.934374, 0.933567, 0.935227, 0.934289, 0.935244, 0.935072, 0.936142, 0.937989, 0.937848, 0.937627, 0.936591, 0.936951, 0.937103, 0.939144, 0.931757, 0.931625, 0.930709, 0.910976, 0.911294, 0.925298, 0.924401, 0.925098, 0.918012, 0.918793, 0.920362, 0.921394, 0.917707, 0.919479, 0.917819, 1.03034
1.09172, 1.08928, 1.08923, 1.08942, 1.60618, 1.09608, 1.0794, 1.07714, 1.07337, 1.07344, 1.07082, 1.07023, 1.07011, 1.06986, 1.0654, 1.06415, 1.06053, 1.05878, 1.05827, 1.0522, 1.0501, 1.04907, 1.04838, 1.04359, 1.04424, 1.05168, 1.05659, 1.03285, 1.03136, 1.26916, 1.29764, 1.03225, 1.02848, 1.02576, 1.02362, 1.02422, 1.02053, 1.02111, 1.01814, 1.01624, 1.0154, 1.01539, 1.00871, 1.00774, 1.0063, 1.00318, 1.00352, 1.00437, 1.00101, 1.00057, 0.999993, 0.997245, 0.994804, 0.992065, 0.987995, 0.985428, 0.98171, 0.981109, 0.9769, 0.974531, 0.969371, 0.966834, 0.983759, 0.982248, 0.94717, 0.970826, 0.963304, 0.993219, 1.02304, 1.11467, 1.16102, 1.14039, 1.22354, 1.28268, 1.39905, 1.41411, 1.43875, 1.45879, 1.4916, 1.49113, 1.56277, 1.57441, 1.59003, 1.67984, 1.63052, 1.65207, 1.8186, 1.81882, 1.87271, 1.89975, 1.8935, 1.8856, 1.88362, 1.87302, 1.88667, 1.86353, 1.86896, 1.88362, 1.87226, 2.00774, 2.00743, 2.01321, 2.06845, 1.97898, 2.06681, 2.14594, 2.03522, 2.11869, 2.04998, 2.05517, 2.05419, 2.10712, 2.10404, 2.11861, 2.07635, 2.10433, 2.06258, 2.10086, 2.05242, 2.05987, 2.05856, 2.03365, 2.05324, 2.00352, 2.00302, 2.0142, 2.01477, 2.02161, 2.02359, 2.02324, 2.02258, 2.03505, 2.07945, 2.04131, 2.03542, 2.04228, 2.04486, 2.03441, 1.99812, 1.99896, 2.06261, 2.03489, 1.96049, 1.95988, 1.97974, 1.98116, 1.97986, 1.96124, 1.91962, 1.92032, 1.94617, 1.9871, 1.87925, 1.87794, 1.90623, 1.89134, 1.89084, 1.80241, 1.81016, 1.78254, 1.81055, 1.80836, 1.76541, 1.76396, 1.71226, 1.66452, 1.62903, 1.62857, 1.60951, 1.60077, 1.5544, 1.52592, 1.4979, 1.50661, 1.59535, 1.48824, 1.48737, 1.44017, 1.43961, 1.39429, 1.39335, 1.25118, 1.25022, 1.17361, 1.06558, 0.997481, 0.963926, 0.982063, 0.932171, 0.866129, 0.953024, 0.908316, 0.887881, 0.863864, 0.887931, 0.925975, 0.914512, 0.916605, 0.918539, 0.918677, 0.919709, 0.921839, 1.07838, 1.34651, 0.925001, 0.927833, 0.92925, 0.931147, 0.931907, 0.932232, 0.932635, 0.93252, 0.933758, 0.935576, 0.936064, 0.926428, 0.93625, 0.936627, 0.938214, 0.939133, 0.93582, 0.938032, 0.937563, 0.937064, 0.936847, 0.93557, 0.931995, 0.931682, 0.910108, 0.911286, 0.912043, 0.930012, 0.919474, 0.914309, 0.91604, 0.920593, 0.919416, 0.918813, 0.977734, 0.927617
1.08835, 1.08856, 1.08728, 1.08539, 1.08389, 1.21273, 1.21721, 1.21861, 1.07256, 1.0729, 1.10905, 1.07061, 1.11815, 1.11598, 1.0655, 1.08103, 1.30969, 1.07401, 1.13958, 1.04789, 1.04905, 1.04709, 1.04249, 1.04337, 1.04458, 1.0387, 1.26902, 1.26955, 1.05338, 1.02565, 1.02471, 1.02156, 1.024, 1.02386, 1.02342, 1.01866, 1.0179, 1.01667, 1.01649, 1.01547, 1.01352, 1.0113, 1.0097, 1.00794, 1.00762, 1.00423, 1.00418, 1.00164, 0.997862, 0.995861, 0.991145, 0.994245, 0.996881, 0.990977, 0.987706, 0.983681, 0.981403, 0.98003, 0.97583, 0.970646, 0.966622, 0.96147, 0.938546, 0.938775, 0.934949, 0.968224, 0.972853, 1.0018, 1.01684, 1.05119, 1.10164, 1.22278, 1.23827, 1.34337, 1.48782, 1.43767, 1.50961, 1.52312, 1.53375, 1.53856, 1.53674, 1.57179, 1.58506, 1.6103, 1.65503, 1.65524, 1.82803, 1.81771, 1.90426, 1.89579, 1.89633, 1.89617, 1.87467, 1.87956, 1.87978, 1.86901, 1.86922, 1.86862, 1.88769, 1.98184, 2.01084, 2.01519, 2.04836, 1.98018, 2.06793, 2.11682, 2.11867, 2.11954, 2.12414, 2.05474, 2.05498, 2.1802, 2.18312, 2.12107, 2.07696, 2.05535, 2.05565, 2.05466, 2.04881, 2.04488, 2.05544, 2.04417, 2.05139, 2.04673, 2.01409, 2.021, 2.01885, 2.01772, 2.01668, 2.02215, 2.02152, 2.01478, 2.15611, 2.04248, 2.04187, 2.12737, 1.98805, 1.99596, 1.99726, 1.99485, 1.99442, 1.99195, 2.04857, 1.95913, 2.08733, 1.95137, 1.98793, 1.98822, 1.92078, 1.92497, 1.92642, 1.98576, 1.87917, 1.97207, 1.99385, 1.93106, 1.95175, 1.79594, 1.81072, 1.80902, 1.78217, 1.80584, 1.76441, 1.69674, 1.68655, 1.6612, 1.62751, 1.61468, 1.60392, 1.56797, 1.57363, 1.55246, 1.49844, 1.49773, 1.5027, 1.4727, 1.45802, 1.4455, 1.45223, 1.43505, 1.37752, 1.30853, 1.24701, 1.16577, 1.09199, 1.02029, 0.962893, 0.93183, 0.904946, 0.877887, 0.880573, 0.880951, 0.900964, 0.900349, 0.902679, 0.848094, 0.918885, 0.917242, 0.918025, 0.918419, 0.918032, 1.04753, 1.08393, 1.11325, 0.928388, 0.929278, 0.930941, 0.931631, 0.931716, 0.933657, 0.933509, 0.938933, 0.933738, 0.935328, 0.935672, 0.926285, 0.936328, 0.938728, 0.939174, 0.939187, 0.939547, 0.941284, 0.941007, 0.938113, 0.938579, 0.934699, 0.93541, 0.92692, 0.925639, 0.925304, 0.911903, 0.911047, 0.920907, 0.919919, 0.915264, 0.918255, 0.916174, 0.915244, 1.00955, 1.30054
1.09101, 1.08953, 1.08796, 1.08704, 1.08418, 1.08372, 1.09155, 1.20593, 1.07204, 1.07373, 1.19548, 1.15329, 1.39522, 1.16426, 1.06299, 1.12961, 1.40581, 1.13807, 1.06807, 1.04684, 1.04644, 1.04288, 1.04233, 1.03547, 1.03479, 1.03463, 1.03415, 1.04766, 1.04737, 1.22899, 1.01868, 1.02185, 1.02032, 1.23999, 1.0234, 1.02183, 1.01699, 1.01699, 1.01631, 1.01461, 1.01396, 1.01042, 1.00885, 1.00762, 1.00568, 1.00413, 1.00321, 1.00182, 0.998879, 0.992479, 0.995329, 0.995807, 0.994517, 0.987938, 0.986579, 0.981944, 0.980074, 0.977534, 0.974297, 0.967988, 0.966174, 0.966655, 0.973949, 0.993521, 0.93931, 0.939698, 0.982497, 0.982003, 1.04932, 1.05721, 1.09112, 1.15518, 1.28955, 1.34063, 1.37202, 1.47445, 1.47529, 1.48574, 1.53367, 1.53792, 1.53862, 1.67422, 1.58295, 1.62355, 1.63136, 1.70771, 1.79308, 1.79289, 1.90973, 1.90364, 1.90411, 1.8749, 1.87504, 1.88111, 1.88069, 1.87667, 1.86907, 1.86882, 2.02416, 1.972, 2.01728, 2.01721, 2.04811, 2.05008, 2.05094, 2.12149, 2.11836, 2.11762, 2.09016, 2.05756, 2.05729, 2.17402, 2.09536, 2.10811, 2.1068, 2.16552, 2.16335, 2.06436, 2.04897, 2.04468, 2.04471, 2.13237, 2.0298, 2.02809, 2.02426, 2.01755, 2.01988, 2.01974, 2.01754, 2.00745, 2.00697, 2.08036, 2.07912, 2.04129, 2.03525, 2.03408, 2.05991, 1.98306, 1.99603, 1.99451, 1.99553, 2.06986, 2.02865, 1.95352, 1.9529, 1.95197, 2.00381, 1.98732, 1.93578, 1.92841, 1.92705, 1.98309, 1.97878, 1.98642, 1.87034, 1.98655, 1.93147, 1.80048, 1.83183, 1.76263, 1.76388, 1.74048, 1.76721, 1.74088, 1.74048, 1.70107, 1.63396, 1.61897, 1.59269, 1.56831, 1.56506, 1.56859, 1.50546, 1.49488, 1.48302, 1.47846, 1.44717, 1.4799, 1.3868, 1.36738, 1.36234, 1.29328, 1.23836, 1.16885, 1.15058, 1.01288, 0.963598, 0.944684, 0.899222, 0.879418, 0.880651, 0.93501, 0.899672, 0.866162, 0.866417, 0.869336, 1.07375, 0.917211, 0.918279, 0.918647, 0.919867, 1.24174, 0.925333, 0.925987, 0.927456, 0.930009, 0.930254, 0.931739, 0.932176, 0.934486, 0.936499, 0.936023, 0.931976, 0.934526, 0.93421, 0.939149, 0.939049, 0.939701, 0.939797, 0.936808, 0.939178, 0.94072, 0.934355, 0.933446, 0.929529, 0.92945, 0.928934, 0.93037, 0.927625, 0.925583, 0.908944, 0.911628, 0.918691, 0.919545, 0.929292, 0.929473, 0.914112, 0.915517, 0.914516, 0.915889
1.09567, 1.0943, 1.09316, 1.08769, 1.08367, 1.07919, 1.07747, 1.07646, 1.07207, 1.0697, 1.06976, 1.06517, 1.06292, 1.06336, 1.05805, 1.0558, 1.24325, 1.23923, 1.45097, 1.04571, 1.25422, 1.27844, 1.03975, 1.03607, 1.03256, 1.03413, 1.02909, 1.02872, 1.02752, 1.01934, 1.01934, 1.01883, 1.01887, 1.31294, 1.0153, 1.01601, 1.43652, 1.01477, 1.01333, 1.01401, 1.01397, 1.00815, 1.00881, 1.00721, 1.00631, 1.00317, 1.00152, 0.999767, 0.997458, 0.994324, 0.994217, 1.14361, 0.989855, 0.987132, 0.984487, 0.977075, 0.978351, 0.977302, 0.972538, 0.970692, 0.967312, 0.969835, 0.971926, 0.948248, 0.947931, 0.981177, 0.979832, 0.998282, 1.04811, 1.05002, 1.11475, 1.14446, 1.29427, 1.32355, 1.47614, 1.4755, 1.50977, 1.50985, 1.53687, 1.52508, 1.53922, 1.62757, 1.64936, 1.62963, 1.62451, 1.67243, 1.69028, 1.7944, 1.79157, 1.83946, 1.83813, 1.83807, 1.89904, 1.88174, 1.87892, 1.88314, 1.86912, 2.07272, 2.02448, 2.02471, 2.02412, 2.01747, 2.04961, 2.05502, 2.05002, 2.01461, 2.0135, 2.03716, 2.06232, 2.05792, 2.05783, 2.11679, 2.11684, 2.10771, 2.10717, 2.06652, 2.16191, 2.10096, 2.1017, 2.04481, 2.0489, 2.13645, 2.06612, 2.0663, 2.01738, 2.02151, 2.02121, 2.02096, 2.00895, 2.00634, 2.00658, 2.13499, 2.12931, 2.03757, 2.10751, 2.10793, 2.1104, 2.02218, 1.99559, 1.99563, 2.04135, 1.98673, 2.02113, 1.95461, 1.95428, 1.95286, 2.00138, 1.93337, 1.93882, 1.93802, 1.98236, 2.01924, 1.98847, 1.98685, 1.87074, 1.86974, 1.93139, 1.79487, 1.78678, 1.76479, 1.75083, 1.73795, 1.76862, 1.7332, 1.72992, 1.70193, 1.66135, 1.62219, 1.6213, 1.57081, 1.52817, 1.53351, 1.51407, 1.48812, 1.47228, 1.46758, 1.43229, 1.47623, 1.40252, 1.35239, 1.3305, 1.29175, 1.25757, 1.16089, 1.14681, 1.02865, 0.97475, 0.941511, 0.943188, 0.877921, 0.876143, 0.861112, 0.877408, 0.862675, 0.864373, 0.873431, 1.07341, 0.918081, 0.918923, 0.918444, 0.92054, 0.922959, 0.924264, 0.926536, 0.927385, 0.929267, 0.932281, 0.933274, 0.933801, 0.935103, 0.924415, 0.934008, 0.933348, 0.944497, 0.937911, 0.93924, 0.939868, 0.935627, 0.938443, 0.936905, 0.935705, 0.933324, 0.934237, 0.932033, 0.930263, 0.932095, 0.92899, 0.929768, 0.929841, 0.925432, 0.931711, 0.910077, 0.911661, 0.942208, 0.923376, 0.923765, 0.926241, 0.925828, 0.924664, 0.914388
1.09693, 1.09401, 1.09316, 1.09204, 1.079, 1.07938, 1.07532, 1.0721, 1.06975, 1.06797, 1.0643, 1.06202, 1.05875, 1.05714, 1.0544, 1.05149, 1.05025, 1.04739, 1.04592, 1.04549, 1.0427, 1.38954, 1.47461, 1.03293, 1.03175, 1.03051, 1.02956, 1.02877, 1.02326, 1.02135, 1.02086, 1.01894, 1.0184, 1.01581, 1.01332, 1.0132, 1.01312, 1.01278, 1.01481, 1.01461, 1.01543, 1.00809, 1.00792, 1.00773, 1.00413, 1.00335, 1.00107, 0.997951, 0.996534, 0.996022, 0.993722, 0.992086, 1.04416, 0.986555, 0.984846, 0.982342, 0.980264, 0.979185, 0.976513, 0.971465, 0.964941, 0.965647, 0.966261, 0.960612, 0.96065, 0.971175, 0.970606, 1.04768, 1.04478, 1.07438, 1.11741, 1.14513, 1.29194, 1.3277, 1.47467, 1.4089, 1.45755, 1.56501, 1.56247, 1.56021, 1.59794, 1.59605, 1.59002, 1.61329, 1.64119, 1.66308, 1.671, 1.75585, 1.85701, 1.83925, 1.83905, 1.83902, 1.86651, 1.88724, 1.88635, 1.8817, 1.8827, 2.021, 2.02209, 2.02379, 1.96251, 1.95458, 1.99276, 2.05607, 2.05558, 2.0048, 2.01024, 2.01487, 2.01989, 2.06619, 2.12603, 2.11777, 2.12496, 2.11739, 2.07581, 0.00456634, 0.00410106, 2.13705, 2.11707, 2.11766, 2.10604, 2.1051, 2.0614, 2.0621, 2.10395, 2.02343, 2.04133, 2.04306, 2.04025, 2.07141, 2.02185, 2.16154, 2.1308, 2.10893, 2.10914, 2.11068, 2.07794, 1.99455, 1.9976, 2.00024, 2.04411, 2.07902, 2.0719, 2.06192, 1.95584, 2.01636, 2.00281, 1.93542, 1.99042, 1.93862, 1.92939, 1.92887, 1.96685, 1.87398, 1.87523, 1.95427, 0.0037718, 1.82139, 1.78537, 1.75163, 1.7508, 1.77829, 1.72672, 1.72532, 1.72003, 1.74248, 1.66231, 1.62538, 1.6789, 1.57751, 1.53437, 1.4933, 1.53223, 1.52292, 1.53336, 1.44852, 1.47085, 1.43328, 1.36898, 1.3407, 1.32213, 1.29982, 1.29908, 1.16742, 1.06633, 1.06286, 0.983809, 0.984704, 0.941961, 0.90463, 0.872278, 0.857111, 0.856565, 0.861643, 0.860867, 0.885697, 1.2743, 0.918855, 0.918908, 0.919613, 0.921514, 0.923246, 0.92504, 1.10126, 1.10186, 0.928439, 0.931911, 0.932331, 0.93471, 0.935057, 0.936529, 0.934677, 0.935763, 0.934199, 0.936854, 0.938207, 0.935157, 0.935541, 0.93742, 0.936687, 0.936829, 0.934987, 0.936346, 0.929841, 0.933795, 0.934667, 0.935197, 0.931633, 0.932515, 0.930771, 0.930331, 0.929572, 0.929286, 0.914647, 0.915515, 0.925596, 0.927765, 0.92833, 0.924081, 0.923663
1.0929, 1.09131, 1.09169, 1.14599, 1.08104, 1.07668, 1.07399, 1.07166, 1.06791, 1.06697, 1.06161, 1.05934, 1.05672, 1.05496, 1.04954, 1.04899, 1.04944, 1.04473, 1.04349, 1.04224, 1.04245, 1.25689, 1.0477, 1.0338, 1.03004, 1.02934, 1.38682, 1.02372, 1.0244, 1.02155, 1.0205, 1.01813, 1.01838, 1.01449, 1.01502, 1.01356, 1.01331, 1.01217, 1.01269, 1.01149, 1.00913, 1.00684, 1.00687, 1.00486, 1.00163, 0.999687, 1.00004, 1.00021, 0.996301, 0.994364, 0.993909, 0.992649, 0.988806, 0.9777, 0.977182, 0.986512, 0.987532, 0.971384, 0.977906, 0.970137, 0.970568, 0.987151, 0.975927, 0.945577, 0.98179, 0.967593, 1.00115, 1.00346, 1.04565, 1.08755, 1.11599, 1.15282, 1.25585, 1.42145, 1.42588, 1.50253, 1.52985, 1.54301, 1.55127, 1.61429, 1.58866, 1.59895, 1.65434, 1.6129, 1.61273, 1.64825, 1.66495, 1.75622, 1.76193, 1.85064, 1.84178, 1.84061, 1.87127, 1.91209, 1.88711, 1.92715, 1.89076, 1.90257, 2.00292, 2.00301, 1.95625, 1.95676, 1.95661, 2.05542, 2.00983, 2.01023, 2.0101, 2.00835, 2.0135, 2.10209, 2.04281, 2.0824, 2.0825, 2.06087, 2.08575, 2.06647, 2.16877, 2.13194, 2.10751, 2.11551, 2.11483, 2.10587, 2.10462, 2.10421, 2.1025, 2.09991, 2.19355, 2.04697, 2.12111, 2.03485, 2.01701, 2.0287, 2.02689, 2.02371, 2.07456, 2.10921, 2.07913, 2.08122, 1.99429, 1.99523, 1.99383, 2.07535, 2.06322, 1.93791, 2.01452, 1.93487, 1.93483, 1.93652, 1.93462, 1.99012, 1.98941, 1.98586, 1.9937, 1.87838, 1.91251, 1.85071, 1.83595, 1.82429, 1.82269, 1.75186, 1.75408, 1.77853, 1.81032, 1.82028, 1.82394, 1.78938, 1.6961, 1.6227, 1.67976, 1.59062, 1.56839, 1.51449, 1.51802, 1.47481, 1.5587, 1.47123, 1.42736, 1.43258, 1.40173, 1.34402, 1.33564, 1.29795, 1.27059, 1.20582, 1.07208, 1.02245, 1.00288, 0.93635, 0.933211, 0.905762, 0.908112, 0.87332, 0.86801, 0.861859, 0.865734, 0.875313, 1.08557, 0.918147, 0.919758, 0.919105, 0.921417, 0.922193, 0.922104, 0.925041, 0.925502, 0.926715, 0.930046, 0.931063, 0.932067, 0.932496, 0.932351, 0.933364, 0.935599, 0.934063, 0.93563, 0.936409, 0.935932, 0.937793, 0.938504, 0.939685, 0.942257, 0.94239, 0.937143, 0.937051, 0.932903, 0.933888, 0.932949, 0.932888, 0.933118, 0.927798, 0.928804, 0.929365, 0.929041, 0.936152, 0.917877, 0.925747, 0.926158, 0.927052, 0.923949, 0.924665
1.09338, 1.11312, 1.0858, 1.17238, 1.07758, 1.07698, 1.0726, 1.06958, 1.06542, 1.06314, 1.06109, 1.05781, 1.05612, 1.0559, 1.0503, 1.04996, 1.04935, 1.04353, 1.0438, 1.0414, 1.03877, 1.03754, 1.0359, 1.06168, 1.0493, 1.02637, 1.02482, 1.02382, 1.02229, 1.02142, 1.02195, 1.01921, 1.01228, 1.01243, 1.01237, 1.01123, 1.01109, 1.01126, 1.0106, 1.00769, 1.00703, 1.0048, 1.00423, 1.00249, 1.00163, 0.999524, 0.999875, 0.997599, 0.997653, 0.993697, 0.991725, 0.9912, 0.990776, 0.989801, 0.978899, 0.990358, 0.987392, 0.985152, 0.966579, 0.966832, 0.967086, 0.950217, 0.960214, 0.961767, 0.930558, 0.93259, 0.974062, 0.988175, 1.00278, 1.0854, 1.10896, 1.17902, 1.25765, 1.30214, 1.36615, 1.38912, 1.54855, 1.56857, 1.55134, 1.5782, 1.59427, 1.59333, 1.60943, 1.61007, 1.66967, 1.65149, 1.75823, 1.75754, 1.75646, 1.84861, 1.8413, 1.84017, 1.9348, 1.91592, 1.91825, 1.88765, 1.88598, 2.02131, 2.00086, 2.00688, 1.9584, 1.95706, 1.95664, 1.98949, 2.01035, 2.01061, 2.01022, 2.01032, 2.01316, 2.09135, 2.04411, 2.08255, 2.08252, 2.0385, 2.05764, 2.0584, 2.08242, 2.10974, 2.10775, 2.10755, 2.12746, 2.10608, 2.10616, 1.99671, 1.97287, 2.08746, 1.97623, 2.0285, 1.9929, 1.99195, 2.02123, 2.02026, 2.02164, 2.14482, 2.09983, 2.04918, 2.0489, 2.04778, 1.99669, 1.99484, 2.03216, 1.99288, 1.96597, 1.93844, 1.92929, 1.93706, 1.93565, 1.93586, 1.89817, 1.89904, 1.89753, 1.97647, 1.91408, 1.87417, 1.90785, 1.90972, 1.87328, 1.8213, 1.92744, 1.75664, 1.75496, 1.77522, 1.8185, 1.81734, 1.8035, 1.75884, 1.73056, 1.64891, 1.65161, 1.59366, 1.60837, 1.54006, 1.57367, 1.5108, 1.47779, 1.51632, 1.44094, 1.44352, 1.38004, 1.36243, 1.35094, 1.28587, 1.26858, 1.14607, 1.06715, 1.06694, 1.06159, 0.948517, 0.942397, 0.890994, 0.873015, 0.875363, 0.88754, 0.861212, 0.861589, 0.874742, 1.13636, 1.16241, 0.917038, 0.91828, 0.91934, 0.920362, 0.921438, 0.923806, 0.925229, 0.925608, 0.928593, 0.929239, 0.930137, 0.931538, 0.93198, 0.932218, 0.932775, 0.932676, 0.932523, 0.932592, 0.933866, 0.93591, 0.936193, 1.15813, 0.942719, 0.936555, 0.935533, 0.935511, 0.935736, 0.934601, 0.933391, 0.933482, 0.927942, 0.925257, 0.927703, 0.929389, 0.930092, 0.929118, 0.941198, 0.922248, 0.925719, 0.926379, 0.928236, 0.928466
1.08109, 1.08034, 1.08029, 1.07659, 1.07675, 1.07074, 1.0701, 1.06674, 1.0624, 1.06061, 1.05792, 1.0579, 1.05794, 1.04907, 1.0567, 1.27998, 1.05791, 1.04412, 1.0435, 1.04036, 1.03754, 1.03713, 1.03215, 1.03165, 1.0444, 1.02371, 1.02309, 1.02277, 1.01831, 1.01593, 1.01529, 1.03132, 1.01276, 1.01213, 1.01266, 1.0121, 1.01194, 1.01118, 1.00959, 1.00821, 1.00619, 1.00269, 1.00283, 1.00258, 1.00112, 1.00065, 1.00089, 0.995547, 0.994301, 0.994054, 1.02212, 0.990587, 0.989005, 0.988975, 0.991396, 1.00597, 0.968953, 0.969055, 0.9663, 0.96563, 0.967936, 0.960921, 0.962347, 0.962011, 0.92605, 0.96963, 0.970351, 0.979043, 1.00196, 1.11595, 1.11903, 1.19163, 1.27782, 1.29754, 1.39945, 1.47503, 1.49293, 1.54648, 1.55855, 1.56821, 1.59724, 1.59505, 1.59316, 1.60606, 1.60596, 1.6506, 1.69584, 1.72548, 1.74085, 1.81554, 1.82791, 1.82987, 1.83659, 1.88685, 1.91108, 1.89356, 1.91681, 1.91696, 2.04168, 2.04199, 1.95893, 1.95805, 1.97627, 1.96881, 2.09312, 2.01016, 2.13397, 2.1344, 2.00197, 2.09216, 2.09419, 2.07406, 2.07528, 2.06989, 2.02129, 2.09941, 2.10054, 2.09407, 2.12167, 2.12138, 2.12566, 2.12931, 2.02651, 1.9721, 1.97199, 1.97613, 1.97686, 1.97873, 1.98167, 1.98214, 2.02099, 2.02097, 2.01929, 2.08246, 2.15534, 2.04976, 2.04879, 1.96739, 1.96552, 2.02876, 2.01103, 2.01031, 2.07343, 1.98998, 1.93066, 1.93293, 1.93267, 2.00591, 1.90002, 1.8992, 1.8982, 1.90376, 1.97706, 1.90161, 1.91779, 1.91645, 1.9049, 1.83874, 1.8, 1.75617, 1.83763, 1.82026, 1.81868, 1.76615, 1.75093, 1.72051, 1.65744, 1.65693, 1.63363, 1.633, 1.68111, 1.623, 1.57211, 1.57029, 1.55454, 1.51442, 1.52025, 1.43447, 1.38844, 1.36436, 1.35192, 1.35569, 1.2246, 1.19441, 1.06498, 1.03563, 0.957992, 0.977449, 0.926598, 0.893472, 0.933713, 0.875345, 0.876379, 0.869802, 0.864384, 0.86354, 0.887268, 1.08624, 0.915347, 0.918165, 0.918354, 0.920175, 0.921382, 0.924386, 0.92409, 0.92593, 0.927296, 0.929097, 0.929925, 0.931648, 0.932054, 0.932661, 0.932745, 0.933931, 0.935715, 0.93596, 1.15405, 1.32049, 1.0462, 0.949522, 0.94153, 0.940007, 0.938096, 0.936942, 0.935795, 0.933689, 0.93216, 0.933262, 0.927186, 0.926262, 0.928491, 0.928337, 0.928916, 0.928677, 0.93017, 0.923165, 0.92273, 0.925687, 0.927341, 0.928352
1.07803, 1.07669, 1.07403, 1.07292, 1.06741, 1.06705, 1.06334, 1.06298, 1.06234, 1.05797, 1.05662, 1.25958, 1.07353, 1.07435, 1.19151, 1.23174, 1.23903, 1.12737, 1.28049, 1.28162, 1.0325, 1.03244, 1.03106, 1.02923, 1.02576, 1.02192, 1.0203, 1.01875, 1.01839, 1.01537, 1.01519, 1.01458, 1.01427, 1.01106, 1.01121, 1.0068, 1.00827, 1.00908, 1.00751, 1.00543, 1.00513, 1.00324, 1.00281, 1.00284, 0.9999, 0.997569, 0.997308, 0.994291, 0.993781, 0.994548, 0.989212, 0.990074, 0.986912, 0.997097, 0.978186, 0.978067, 0.975973, 0.986104, 0.958417, 0.997966, 0.971283, 0.966134, 0.915322, 0.914477, 0.927761, 0.967524, 0.977867, 0.989759, 1.03977, 1.05389, 1.11173, 1.2184, 1.28731, 1.29922, 1.47561, 1.4754, 1.56493, 1.53347, 1.57047, 1.57137, 1.59625, 1.59609, 1.58986, 1.58867, 1.63749, 1.63569, 1.68151, 1.73088, 1.8197, 1.7828, 1.79392, 1.85533, 1.85964, 1.86278, 1.91693, 1.91645, 1.91667, 1.91671, 1.91051, 2.0417, 2.03905, 2.05465, 2.03582, 1.96949, 1.96277, 1.99336, 1.96197, 2.05479, 2.05155, 2.05299, 2.05486, 2.05283, 2.06918, 2.0469, 2.02292, 2.03045, 2.05419, 2.10118, 2.0621, 2.06172, 2.16552, 2.12755, 2.02028, 1.97322, 1.96872, 1.97948, 1.97976, 1.97834, 1.98342, 1.98329, 2.03648, 1.9795, 1.99817, 2.09945, 1.99639, 1.96614, 1.98044, 1.96784, 1.96291, 1.96069, 2.03022, 1.9933, 1.98728, 1.99086, 1.93448, 1.93216, 1.93188, 2.00456, 2.00279, 1.89685, 1.89664, 1.89526, 1.89453, 1.91832, 1.87736, 1.83803, 1.80068, 1.92735, 1.8757, 1.77284, 1.77817, 1.77756, 1.7786, 1.76654, 1.75207, 1.70776, 1.70774, 1.67906, 1.58241, 1.59902, 1.61199, 1.61681, 1.51435, 1.50612, 1.51266, 1.51187, 1.49086, 1.4564, 1.3846, 1.3797, 1.37242, 1.29434, 1.24606, 1.1896, 1.09157, 1.00545, 0.98073, 0.97335, 0.937465, 0.893187, 0.928699, 0.8734, 0.911095, 0.886193, 0.886608, 0.926566, 0.903093, 0.913427, 0.914624, 0.917678, 0.918559, 0.921468, 0.921609, 0.922642, 0.924986, 0.925594, 0.927323, 0.930039, 0.930048, 0.932046, 0.932309, 0.931943, 0.932216, 1.13411, 1.1354, 1.14275, 1.15185, 1.15694, 0.949376, 0.949008, 0.949163, 0.940644, 0.937476, 0.936478, 0.935502, 0.935369, 0.930737, 0.932241, 0.931898, 0.932353, 0.929548, 0.928614, 0.92845, 0.929716, 0.931107, 0.93325, 0.920292, 0.921652, 0.922755, 0.976933
1.07745, 1.07442, 1.07183, 1.06578, 1.06426, 1.06414, 1.06066, 1.06064, 1.05794, 1.05613, 1.05344, 1.0507, 1.04932, 1.04722, 1.05428, 1.04243, 1.04885, 1.0363, 1.0355, 1.03428, 1.03132, 1.0292, 1.02911, 1.02877, 1.02844, 1.02496, 1.02166, 1.01879, 1.01772, 1.01355, 1.01327, 1.01255, 1.01165, 1.00958, 1.01047, 1.01064, 1.00555, 1.00779, 1.00712, 1.00356, 1.00165, 1.00096, 0.998115, 0.99562, 0.997382, 0.997642, 0.99754, 0.992832, 0.992238, 1.14499, 0.986413, 0.984051, 0.980432, 0.979805, 0.978116, 0.977726, 0.973595, 0.971007, 0.980648, 0.977089, 0.992144, 0.965947, 0.919214, 0.916771, 0.960861, 0.960168, 0.942317, 0.968611, 1.03534, 1.05922, 1.11306, 1.24009, 1.28603, 1.3957, 1.49316, 1.46215, 1.469, 1.53771, 1.52462, 1.54746, 1.61354, 1.64222, 1.64251, 1.63708, 1.63701, 1.61678, 1.72447, 1.81777, 1.81655, 1.76613, 1.80665, 1.81286, 1.85473, 1.84844, 1.91768, 1.91693, 1.91692, 1.91653, 1.91049, 1.91042, 2.03775, 2.039, 1.96721, 1.96816, 1.9666, 1.95932, 1.96227, 1.96117, 2.05795, 2.05552, 2.01775, 2.01715, 2.06025, 2.13645, 2.03166, 2.03202, 2.04832, 2.0562, 2.06219, 2.14082, 2.1409, 2.13992, 2.01753, 1.97501, 1.96899, 2.04858, 1.97967, 1.96314, 1.96262, 1.95915, 1.95839, 1.95807, 1.97377, 2.03051, 2.04401, 1.96773, 1.9653, 1.96569, 1.96237, 1.96113, 1.97956, 2.02086, 1.98403, 1.95605, 1.92949, 1.93234, 1.93262, 2.00371, 1.96814, 1.8971, 1.89619, 1.92825, 1.9276, 1.91956, 1.89755, 1.84013, 1.91762, 1.79203, 1.86634, 1.79035, 1.77865, 1.7774, 1.7731, 1.78309, 1.77875, 1.72556, 1.63959, 1.56633, 1.5406, 1.54146, 1.54547, 1.59969, 1.51335, 1.51861, 1.51414, 1.59379, 1.50125, 1.45335, 1.3971, 1.36545, 1.37764, 1.27744, 1.18975, 1.13581, 1.06165, 1.03002, 0.971136, 0.960014, 0.930906, 0.99764, 0.866061, 0.866312, 0.865614, 0.955923, 0.892555, 0.904478, 0.910498, 0.911716, 0.916037, 0.917292, 0.91847, 0.920103, 0.921839, 0.924176, 0.925605, 0.927831, 0.930297, 0.931579, 0.931499, 1.08121, 1.2883, 1.28779, 1.0144, 1.13375, 1.13992, 0.956999, 0.958128, 0.957488, 0.946892, 0.946262, 0.944818, 0.93767, 0.937363, 0.935823, 0.936645, 0.935906, 0.934025, 0.933951, 0.933541, 0.93369, 0.933496, 0.933131, 0.930044, 0.933888, 0.934176, 0.936159, 0.937201, 0.921022, 0.922093, 0.923578
1.46972, 1.47991, 1.43757, 1.06608, 1.0649, 1.06224, 1.05931, 1.05797, 1.05621, 1.05277, 1.05224, 1.05014, 1.04757, 1.58515, 1.48898, 1.50524, 1.61399, 1.51015, 1.03348, 1.03265, 1.03169, 1.02947, 1.02877, 1.02732, 1.0272, 1.02876, 1.0482, 1.02903, 1.03082, 1.60944, 1.0412, 1.0102, 1.00914, 1.00792, 1.04392, 1.04296, 1.00806, 1.00634, 1.00704, 1.05732, 1.00228, 0.996954, 0.994846, 0.991848, 0.990738, 1.01498, 1.00863, 1.00904, 1.00383, 0.988059, 0.985277, 0.984463, 0.977332, 0.976629, 0.976062, 0.974873, 0.973013, 0.972153, 0.974877, 0.975337, 0.971059, 0.97694, 0.977381, 0.918447, 0.968867, 0.925658, 0.998572, 0.955669, 1.02074, 1.0565, 1.14414, 1.24455, 1.45377, 1.39538, 1.49538, 1.46923, 1.48145, 1.52931, 1.52818, 1.53646, 1.55009, 1.60778, 1.64402, 1.63756, 1.61784, 1.69612, 1.69516, 1.72518, 1.80245, 1.76279, 1.81195, 1.82741, 1.8878, 1.85724, 1.93596, 1.9177, 1.91726, 1.91642, 1.95843, 2.02011, 2.05813, 1.9628, 1.96408, 1.96359, 1.96196, 1.96111, 1.96101, 1.96526, 1.96488, 2.0589, 2.05819, 2.01746, 2.04923, 2.11421, 2.02349, 2.02439, 2.1698, 2.12179, 2.09987, 2.14139, 2.14138, 2.14032, 1.99944, 1.96937, 1.96891, 1.96856, 2.07227, 1.96308, 1.96222, 1.95933, 1.95839, 1.95846, 1.95627, 1.96274, 1.99075, 1.98969, 1.98435, 1.96394, 2.00574, 1.99818, 2.00754, 2.01979, 2.02258, 2.08635, 1.93041, 1.92856, 1.93284, 1.93191, 1.99161, 1.89154, 1.89057, 1.92407, 1.92254, 1.8336, 1.89955, 1.92192, 1.88312, 1.79248, 1.79027, 1.78866, 1.79262, 1.78744, 1.7707, 1.77149, 1.71837, 1.68904, 1.63327, 1.59016, 1.54528, 1.54587, 1.5732, 1.527, 1.59243, 1.54373, 1.49904, 1.51346, 1.46438, 1.46618, 1.45454, 1.36401, 1.34839, 1.28298, 1.17955, 1.13935, 1.04444, 1.00541, 0.968172, 0.96937, 0.926083, 0.891369, 0.866157, 0.881497, 0.8841, 0.893837, 0.895477, 0.912695, 0.913288, 0.914293, 0.916154, 0.917978, 0.918737, 0.921497, 0.921227, 0.92194, 0.925214, 0.926006, 0.928287, 0.928772, 0.923101, 1.12953, 0.932819, 0.934837, 1.02507, 1.0506, 0.943444, 0.956345, 0.957793, 1.14369, 0.942982, 0.946605, 0.94767, 0.938271, 0.93718, 0.937436, 0.935993, 0.935293, 0.934896, 0.933994, 0.933328, 0.934005, 0.932838, 0.933934, 0.934086, 0.934248, 0.934686, 0.936903, 0.93801, 0.937414, 0.922064, 0.923822
1.07334, 1.07946, 1.40448, 1.39941, 1.06093, 1.06062, 1.05844, 1.05656, 1.0559, 1.05413, 1.04933, 1.04795, 1.04498, 1.04227, 1.03739, 1.03567, 1.03053, 1.03029, 1.02871, 1.03101, 1.03044, 1.03, 1.03064, 1.07048, 1.23638, 1.02261, 1.02035, 1.01907, 1.06328, 1.05829, 1.05344, 1.04628, 1.00814, 1.04576, 1.03981, 1.00543, 1.00703, 1.00773, 1.00785, 1.01823, 1.19608, 0.993279, 0.992776, 0.989352, 0.984921, 0.979722, 0.979043, 0.973243, 0.972979, 0.973648, 0.973684, 0.973731, 1.23602, 0.977679, 1.13258, 0.974867, 0.974058, 0.97761, 1.26867, 0.979365, 0.952318, 0.922893, 0.940891, 0.907089, 0.947273, 0.943462, 1.06222, 0.957491, 1.07803, 1.05105, 1.11771, 1.2164, 1.41639, 1.41564, 1.41524, 1.4102, 1.44154, 1.46548, 1.52696, 1.54536, 1.51743, 1.64167, 1.68959, 1.69678, 1.65169, 1.69845, 1.69459, 1.69377, 1.76248, 1.80621, 1.79985, 1.79876, 1.88417, 1.82807, 1.88735, 2.0388, 1.89955, 1.96558, 1.96182, 1.95905, 1.94993, 1.96487, 1.96563, 1.96421, 1.96366, 1.95529, 1.96633, 1.9655, 1.96511, 2.06278, 2.05828, 2.0939, 2.04808, 2.04742, 2.11343, 2.01862, 2.06129, 0.00401489, 2.14953, 2.17656, 2.14205, 2.10724, 1.98972, 2.04338, 2.04331, 2.07439, 2.04766, 2.02682, 1.95586, 1.94901, 1.9592, 1.95879, 1.96237, 1.96127, 2.04276, 1.98593, 1.9675, 1.96748, 2.01155, 2.00834, 2.00739, 1.95236, 1.95171, 2.02222, 2.02714, 2.02721, 1.93367, 1.99044, 1.93366, 1.89003, 1.94652, 1.89316, 1.92274, 1.8334, 1.83394, 1.91986, 1.81767, 1.79119, 1.7909, 1.79111, 1.7904, 1.78382, 1.79303, 1.76907, 1.69899, 1.63964, 1.63058, 1.5813, 1.54982, 1.52943, 1.57347, 1.54106, 1.60956, 1.49575, 1.48901, 1.47841, 1.4649, 1.43079, 1.41454, 1.35121, 1.35127, 1.22035, 1.19041, 1.06839, 1.04679, 1.00982, 0.968194, 0.950102, 0.92765, 0.904354, 0.891682, 0.887323, 0.880423, 0.888111, 1.22974, 0.915792, 0.915314, 0.913799, 0.916273, 0.918105, 0.918047, 0.920159, 0.921746, 0.923012, 0.92585, 0.925662, 0.930466, 0.931837, 1.14885, 0.933512, 0.932684, 1.13154, 1.0257, 1.02747, 0.943623, 0.94475, 0.945302, 0.93733, 1.13936, 0.945526, 0.941181, 0.939726, 0.938005, 0.937197, 0.936043, 0.932962, 0.934844, 0.934148, 0.933427, 0.93285, 0.931893, 0.933086, 0.932889, 0.932147, 0.933197, 0.93608, 0.93626, 0.937324, 0.922108, 0.922476
1.07168, 1.06704, 1.06542, 1.38153, 1.0751, 1.05744, 1.05749, 1.05754, 1.07427, 1.64745, 1.04688, 1.04528, 1.04537, 1.04201, 1.03607, 1.0313, 1.02997, 1.0284, 1.02783, 1.02588, 1.02364, 1.02357, 1.02308, 1.02319, 1.02236, 1.02193, 1.22469, 1.06958, 1.43254, 1.07738, 1.05198, 1.05096, 1.0373, 1.03674, 1.04021, 1.04015, 1.00424, 1.00598, 1.0052, 1.37619, 0.994996, 0.993472, 0.986012, 0.985522, 0.98395, 0.983467, 1.03319, 0.973245, 0.973203, 0.976481, 0.976143, 0.976451, 0.976244, 0.970039, 0.970233, 0.968031, 0.967867, 0.967166, 0.963271, 0.980129, 0.981441, 0.950053, 0.91088, 0.908126, 0.904375, 0.940455, 0.971494, 0.983228, 1.01361, 1.07007, 1.14779, 1.18223, 1.29796, 1.34486, 1.34701, 1.36907, 1.40347, 1.42701, 1.44927, 1.50265, 1.56536, 1.68744, 1.68953, 1.68732, 1.66765, 1.69996, 1.69966, 1.70618, 1.79129, 1.73275, 1.80025, 1.80052, 1.88826, 1.88892, 1.8881, 2.00651, 1.91178, 1.96569, 1.95889, 1.95887, 1.95171, 1.96838, 2.08746, 1.96618, 1.96622, 1.96263, 1.95453, 1.98303, 1.96563, 2.12908, 2.12893, 2.02506, 2.09335, 2.04792, 2.10392, 2.09627, 2.06218, 2.06175, 1.97679, 1.92383, 1.92504, 1.96953, 1.98733, 1.99029, 2.04388, 2.01423, 2.01393, 1.94979, 1.94875, 1.94938, 1.93572, 1.93478, 1.92025, 1.92014, 2.01528, 2.04214, 1.95017, 1.9486, 2.0157, 1.93986, 1.93859, 1.93731, 1.93263, 1.93077, 2.02385, 1.90532, 1.99004, 1.98969, 1.99649, 1.88976, 1.88926, 1.88893, 1.8519, 1.87953, 1.88664, 1.82343, 1.81472, 1.79229, 1.79165, 1.79057, 1.78499, 1.78394, 1.77489, 1.69747, 1.68636, 1.65305, 1.6368, 1.58499, 1.53222, 1.53047, 1.52934, 1.4969, 1.49905, 1.48838, 1.48033, 1.44675, 1.40193, 1.41518, 1.3727, 1.41235, 1.37186, 1.24728, 1.16444, 1.09254, 1.04255, 0.984745, 0.96605, 0.954644, 0.939197, 0.893916, 0.918176, 0.923483, 0.880638, 0.901552, 0.915595, 0.915157, 0.916189, 0.916802, 0.917097, 0.917179, 0.921537, 0.921256, 0.925748, 0.927253, 0.931876, 0.935284, 0.937377, 1.27766, 1.26027, 1.12892, 1.11085, 1.12769, 1.13049, 1.13669, 1.1502, 0.942741, 0.939335, 0.945302, 0.945812, 0.944257, 0.943132, 0.936994, 0.936621, 0.936718, 0.936321, 0.93613, 0.935572, 0.933793, 0.934987, 0.928668, 0.930327, 0.933623, 0.935636, 0.932852, 0.933436, 0.935703, 0.936316, 0.937172, 0.936496, 0.922038
1.06369, 1.0637, 1.06289, 1.05968, 1.05623, 1.05637, 1.05302, 1.04979, 1.04954, 1.04748, 1.0475, 1.04424, 1.04041, 1.03775, 1.03763, 1.03276, 1.0305, 1.0294, 1.02804, 1.02843, 1.02631, 1.02508, 1.02408, 1.02327, 1.01993, 1.0183, 1.01807, 1.01554, 1.01487, 1.01218, 1.01217, 1.0254, 1.33943, 1.03891, 1.01961, 1.04303, 1.00438, 1.00433, 1.00088, 0.99976, 0.991547, 0.990568, 0.98751, 0.985535, 0.98375, 1.46138, 0.973837, 0.973168, 0.974012, 0.978452, 0.977723, 0.976789, 0.97642, 1.0079, 0.969292, 0.968693, 0.967195, 0.965301, 0.984577, 0.984124, 0.980256, 0.986755, 0.913275, 0.913294, 0.903506, 0.943487, 0.937641, 0.972659, 1.04765, 1.06735, 1.13044, 1.15658, 1.25703, 1.28938, 1.3168, 1.33693, 1.54308, 1.41353, 1.42476, 1.47439, 1.56567, 1.68793, 1.68557, 1.68943, 1.666, 1.75502, 1.73073, 1.70652, 1.80956, 1.79236, 1.8194, 1.81964, 1.82332, 1.82319, 1.84081, 1.85593, 1.87531, 1.92344, 1.91534, 1.95865, 1.95114, 1.96469, 1.95836, 1.96541, 1.95831, 1.9636, 1.96291, 2.03165, 1.96618, 1.96817, 2.13276, 1.97101, 1.96979, 2.04792, 2.05969, 1.99339, 1.99328, 1.98177, 1.98189, 1.98938, 1.92523, 1.9799, 1.98251, 1.97389, 2.08222, 2.01399, 1.96566, 1.95279, 1.93943, 1.93977, 1.93573, 1.93803, 1.95234, 1.9526, 1.95062, 1.93819, 1.94917, 1.94463, 2.00714, 1.94005, 1.93948, 1.93767, 1.931, 1.93426, 1.99347, 1.9798, 1.90356, 1.90236, 1.93425, 1.88692, 1.8895, 1.88879, 1.88688, 1.87955, 1.87877, 1.83714, 1.85605, 1.85503, 1.79552, 1.79215, 1.80202, 1.80467, 1.79021, 1.70946, 1.69288, 1.63249, 1.63034, 1.58684, 1.55533, 1.53121, 1.57115, 1.50018, 1.48514, 1.47715, 1.43631, 1.42696, 1.4307, 1.3762, 1.37012, 1.36205, 1.33543, 1.25726, 1.16399, 1.12331, 1.0086, 1.00843, 0.970324, 0.905244, 0.903853, 0.903849, 0.917707, 0.869493, 0.870468, 0.88733, 0.903085, 0.915676, 0.917117, 0.91823, 0.918694, 0.919521, 0.920655, 0.925542, 0.928625, 0.929503, 0.934232, 1.11254, 1.09841, 1.11622, 1.13228, 1.13028, 1.12635, 1.10682, 1.10854, 0.963985, 0.963719, 0.94023, 0.941069, 0.945335, 0.948427, 0.949313, 0.942878, 0.939388, 0.940268, 0.939108, 0.936748, 0.936203, 0.936458, 0.93655, 0.932206, 0.930113, 0.933446, 0.935243, 0.936166, 0.935235, 0.935855, 0.93361, 0.933115, 0.934909, 0.936535, 0.937213
1.06321, 1.06307, 1.06323, 1.058, 1.05561, 1.05164, 1.04953, 1.04887, 1.0472, 1.04618, 1.04532, 1.04305, 1.04557, 1.03672, 1.0368, 1.03436, 1.032, 1.03197, 1.02999, 1.02881, 1.02674, 1.02501, 1.02222, 1.02112, 1.02017, 1.01814, 1.01575, 1.0127, 1.01176, 1.0146, 1.00797, 1.00721, 1.04302, 0.99366, 0.992146, 1.00802, 0.999869, 1.00032, 1.00042, 0.998543, 0.996313, 0.986888, 0.987735, 0.987776, 0.981592, 0.978757, 0.977322, 0.976969, 1.37854, 0.978974, 0.978444, 0.973743, 0.972944, 0.96863, 0.968619, 0.969688, 0.969486, 0.967413, 0.983412, 0.985001, 0.971631, 0.985859, 0.986907, 0.907633, 0.907075, 0.953076, 0.957312, 0.967507, 0.990258, 1.09098, 1.14049, 1.217, 1.24273, 1.28097, 1.29465, 1.33224, 1.34969, 1.37992, 1.41937, 1.48155, 1.4809, 1.5798, 1.68995, 1.66053, 1.66114, 1.6787, 1.73234, 1.73204, 1.80834, 1.79305, 1.83839, 1.82045, 1.82325, 1.82323, 1.8226, 1.83084, 1.86015, 1.92343, 1.92425, 1.99947, 1.9973, 2.00942, 1.99457, 1.95818, 1.95683, 1.95763, 1.96566, 2.03174, 2.07299, 2.07269, 2.13333, 1.97248, 1.97239, 2.03095, 2.03785, 2.08679, 1.98252, 1.98229, 1.98998, 1.97178, 1.95273, 1.93018, 1.92297, 1.92289, 1.95287, 1.95944, 1.95255, 1.95248, 1.94078, 1.93907, 1.93499, 1.93166, 1.9211, 1.92764, 1.92713, 1.95572, 1.94401, 1.95365, 1.95316, 1.94855, 1.97553, 1.97506, 1.92795, 1.95678, 2.02377, 2.01392, 1.90271, 1.90276, 1.90283, 1.88675, 1.90021, 1.89667, 1.89001, 1.8544, 1.84646, 1.84874, 1.83823, 1.83823, 1.78251, 1.79545, 1.79377, 1.752, 1.72096, 1.66933, 1.66811, 1.64437, 1.61445, 1.59991, 1.59041, 1.53135, 1.53728, 1.50232, 1.48141, 1.52604, 1.41926, 1.39545, 1.39549, 1.38144, 1.37706, 1.36461, 1.34979, 1.22598, 1.16858, 1.10265, 1.03247, 0.980925, 0.959684, 0.942273, 0.903576, 0.916378, 0.912784, 0.895742, 0.873798, 0.881275, 0.902876, 0.916702, 0.917775, 0.921302, 0.921063, 1.08475, 1.09394, 0.926502, 0.928491, 1.09523, 0.944532, 0.94574, 1.0807, 1.1319, 1.1222, 1.00995, 1.13546, 1.12966, 1.14649, 0.963765, 0.963825, 1.0569, 1.05624, 0.950509, 0.952042, 0.952691, 1.08035, 0.939615, 0.941134, 0.94265, 0.938827, 0.93873, 0.936055, 0.938744, 0.935968, 0.935515, 0.935689, 0.935188, 0.935333, 0.93251, 0.931514, 0.931673, 0.933096, 0.935359, 0.936871, 0.937211
1.23521, 1.06391, 1.22229, 1.58557, 1.1842, 1.04953, 1.04855, 1.04903, 1.04727, 1.04642, 1.04342, 1.04268, 1.03546, 1.03424, 1.03274, 1.03124, 1.03136, 1.032, 1.0318, 1.02824, 1.02598, 1.02328, 1.02243, 1.02313, 1.40355, 1.27032, 1.05819, 1.01172, 1.00837, 1.007, 1.00558, 1.03572, 0.992572, 0.991873, 0.991757, 0.994997, 0.997512, 0.99784, 0.998524, 0.997667, 0.995448, 0.996175, 0.988982, 0.988968, 1.02682, 0.977361, 0.97732, 0.977012, 0.976887, 0.978819, 0.976999, 0.973212, 0.973363, 0.969773, 0.969016, 0.969045, 0.968301, 0.96481, 0.974258, 0.985715, 0.986339, 0.909119, 0.908819, 0.903828, 0.903732, 1.01085, 0.935067, 0.937178, 0.989083, 1.09136, 1.11456, 1.20812, 1.2394, 1.25695, 1.27093, 1.31259, 1.32806, 1.36448, 1.41668, 1.43367, 1.47207, 1.66952, 1.66853, 1.6649, 1.63004, 1.66932, 1.66344, 1.66345, 1.70827, 1.78567, 1.81879, 1.81717, 1.84849, 1.84818, 1.82, 1.82128, 1.85873, 1.85187, 1.99304, 1.99935, 1.90837, 1.94114, 1.94667, 1.96088, 1.9538, 1.95436, 2.04827, 2.04829, 2.08578, 2.03171, 2.11812, 2.12492, 1.97039, 1.97083, 2.07952, 1.95451, 2.09449, 1.98043, 1.94581, 1.93458, 1.91358, 1.91046, 1.92373, 1.92371, 1.92276, 2.00751, 2.00641, 1.95298, 1.93949, 1.9687, 1.93363, 1.93273, 2.01043, 1.9284, 1.95781, 1.95687, 1.99916, 2.04886, 1.95426, 1.95077, 1.95238, 1.93758, 1.93737, 1.97015, 1.91197, 1.98528, 1.9037, 1.93488, 1.9029, 1.90202, 1.89662, 1.89561, 1.89492, 1.84154, 1.84786, 1.83727, 1.86741, 1.78527, 1.78403, 1.79452, 1.83638, 1.83559, 1.72296, 1.71842, 1.66877, 1.67135, 1.66063, 1.61795, 1.58922, 1.59692, 1.52609, 1.49806, 1.52246, 1.523, 1.41978, 1.39864, 1.38555, 1.4155, 1.35386, 1.32845, 1.30522, 1.30553, 1.17383, 1.12426, 1.06036, 1.05502, 0.981196, 0.936156, 0.908576, 0.89764, 0.89821, 0.899065, 0.911398, 0.891335, 0.897911, 0.916011, 1.01821, 0.921835, 0.923697, 0.925591, 1.04274, 1.09213, 1.09356, 1.10109, 0.94527, 0.945554, 1.19547, 1.17403, 1.12739, 1.13968, 0.995489, 1.02583, 1.22324, 1.04333, 1.07209, 1.0674, 0.970516, 0.97026, 0.965114, 0.96668, 0.963895, 0.957994, 0.959183, 0.958714, 0.953847, 0.954392, 0.937728, 0.938532, 0.938421, 0.933703, 0.93638, 0.934831, 0.935595, 0.927397, 0.92806, 0.931684, 0.931758, 0.932733, 0.935327, 0.936292
1.18825, 1.05685, 1.05451, 1.05522, 1.63066, 1.21266, 1.04892, 1.04733, 1.619, 1.54005, 1.03729, 1.03679, 1.03533, 1.03328, 1.0328, 1.03109, 1.03119, 1.031, 1.03055, 1.0272, 1.02422, 1.01686, 1.01657, 1.05287, 1.41112, 1.0249, 1.02216, 1.03744, 1.00821, 1.00452, 1.00212, 0.999614, 1.03548, 0.991073, 0.997672, 0.997214, 0.997242, 0.996163, 0.996681, 0.997207, 0.996991, 0.994859, 0.991487, 0.990428, 0.997814, 0.99523, 0.977353, 0.97714, 0.976789, 0.976962, 0.976359, 0.973104, 0.97325, 0.96699, 0.966753, 0.968544, 0.967786, 0.961432, 0.97034, 0.985229, 0.983579, 0.908338, 0.908383, 0.902543, 0.903871, 0.942685, 0.932953, 0.956386, 1.01845, 1.01802, 1.11392, 1.15613, 1.22401, 1.21966, 1.27334, 1.3145, 1.31714, 1.36074, 1.40093, 1.41703, 1.48146, 1.67154, 1.67204, 1.61352, 1.63053, 1.63011, 1.65086, 1.69409, 1.78003, 1.7805, 1.83063, 1.8517, 1.852, 1.85439, 1.81391, 1.81374, 1.83791, 1.84383, 1.87529, 1.99704, 1.92978, 1.97874, 1.98899, 2.00022, 1.94691, 2.05804, 2.04946, 2.16017, 2.08162, 2.08423, 2.12626, 2.12286, 2.09667, 2.00707, 1.95496, 1.95407, 2.09526, 1.96264, 1.95149, 1.94159, 1.9424, 1.93802, 1.94567, 1.92359, 1.94233, 1.94312, 1.95548, 1.95449, 1.95949, 1.96659, 2.02077, 1.93424, 1.93591, 1.93603, 1.92967, 1.9274, 2.04925, 2.05206, 2.00814, 2.00761, 1.9528, 1.93931, 1.93847, 1.90999, 1.90968, 1.91786, 1.90321, 1.90311, 1.90305, 1.95496, 1.90735, 1.94856, 1.96439, 1.84121, 1.84037, 1.83772, 1.86455, 1.7856, 1.79322, 1.82253, 1.72915, 1.72782, 1.72683, 1.7102, 1.68393, 1.67206, 1.71235, 1.62288, 1.59961, 1.57791, 1.62933, 1.54064, 1.52602, 1.45294, 1.42684, 1.40558, 1.37054, 1.37029, 1.32931, 1.32918, 1.31594, 1.24851, 1.17427, 1.15025, 1.07152, 1.03061, 0.976716, 0.934703, 0.913084, 0.922428, 0.89951, 0.898133, 0.908858, 0.889608, 0.88825, 0.889075, 1.072, 1.028, 1.08403, 1.08508, 1.09438, 1.09378, 1.09869, 1.04023, 1.03141, 1.03568, 1.19459, 1.11564, 1.06861, 0.997092, 0.996801, 1.00704, 1.00833, 0.987789, 1.05268, 1.04988, 0.97062, 0.97176, 0.965058, 0.965631, 0.963052, 0.956012, 0.957223, 0.953708, 0.953879, 0.952683, 0.948595, 0.944904, 0.943527, 0.937338, 0.937103, 0.936726, 0.937336, 0.928152, 0.927801, 0.938345, 0.929887, 0.930808, 0.932846, 0.934172
1.352, 1.06792, 1.05265, 1.05236, 1.04791, 1.04471, 1.04321, 1.04241, 1.04165, 1.0369, 1.0361, 1.03547, 1.35454, 1.03331, 1.03097, 1.02915, 1.02743, 1.02532, 1.02547, 1.01853, 1.01718, 1.01624, 1.01579, 1.00976, 1.01058, 1.00699, 1.33035, 1.04146, 1.03888, 1.03944, 1.00125, 0.999098, 0.999455, 0.99869, 0.998859, 0.998544, 0.996325, 0.995915, 0.996648, 0.99751, 0.996525, 0.99499, 0.992376, 0.990818, 0.99087, 0.990475, 0.991233, 0.977759, 0.977343, 0.97648, 0.97666, 0.976156, 0.973196, 0.973469, 0.967988, 0.969522, 0.969028, 0.982457, 0.958047, 0.979692, 0.977733, 0.913185, 0.913121, 0.897886, 0.892771, 1.03903, 0.949125, 0.956929, 1.00775, 1.06978, 1.10715, 1.16792, 1.2027, 1.20259, 1.25283, 1.32424, 1.33582, 1.3574, 1.39263, 1.42479, 1.45006, 1.47829, 1.56047, 1.62004, 1.68883, 1.62472, 1.62724, 1.65776, 1.78062, 1.78, 1.77956, 1.80982, 1.84777, 1.88213, 1.83184, 1.81515, 1.8718, 1.85149, 1.94594, 1.90441, 1.93161, 1.92775, 1.92911, 1.9328, 1.94617, 2.01478, 2.06469, 2.08453, 2.08516, 2.09494, 2.12432, 2.12355, 1.99481, 1.99593, 2.00416, 1.95407, 1.96122, 1.98069, 1.97415, 1.91105, 1.88237, 1.93869, 1.93893, 1.93148, 1.91832, 1.96612, 1.96022, 1.97664, 1.96132, 1.95833, 1.95922, 1.93584, 1.936, 1.93513, 1.93371, 1.92718, 2.01319, 2.00569, 2.00152, 1.97718, 2.04729, 1.94017, 1.98284, 1.91343, 1.91948, 1.90191, 1.8998, 1.8995, 1.95616, 1.95395, 1.93335, 1.96636, 1.93887, 1.84099, 1.84136, 1.86471, 1.88415, 1.87971, 1.90518, 1.85334, 1.85174, 1.73104, 1.73258, 1.73363, 1.66802, 1.74335, 1.69584, 1.71173, 1.59401, 1.59438, 1.62892, 1.53502, 1.53295, 1.50039, 1.47144, 1.39262, 1.38485, 1.40207, 1.33218, 1.31553, 1.3077, 1.26734, 1.22669, 1.15737, 1.04072, 1.03902, 1.07471, 0.955568, 0.928101, 0.910088, 0.903197, 0.894666, 0.901458, 0.885271, 0.946325, 0.948074, 0.94914, 1.07657, 1.07679, 1.10261, 1.08817, 1.24609, 1.01104, 1.01105, 1.01175, 1.01486, 1.02727, 1.03005, 0.978213, 1.00352, 1.0046, 1.00818, 1.0075, 1.00863, 1.02005, 1.02258, 1.0228, 1.357, 0.96603, 0.969705, 0.971154, 0.957786, 0.963816, 0.95248, 0.951829, 0.95041, 0.946382, 0.946022, 0.9458, 0.943646, 0.938042, 0.936688, 0.938215, 0.937731, 0.937981, 0.927299, 0.931177, 0.930796, 0.931839, 0.931753
1.26591, 1.23073, 1.24412, 1.04937, 1.04617, 1.04508, 1.04244, 1.04241, 1.03964, 1.03608, 1.03559, 1.03352, 1.03183, 1.03038, 1.03129, 1.02933, 1.02851, 1.02745, 1.02464, 1.02178, 1.01916, 1.01213, 1.01113, 0.995853, 0.995579, 1.00204, 1.00268, 1.04197, 1.48932, 1.03926, 1.03776, 0.998389, 0.998799, 0.998917, 0.999586, 0.99972, 0.999985, 0.999737, 0.998218, 0.99756, 0.997697, 0.997877, 1.00435, 0.994127, 0.990648, 0.989408, 0.985954, 0.983411, 1.00665, 0.975494, 0.974438, 0.9786, 0.979051, 0.974373, 0.971212, 0.972316, 0.970476, 0.963212, 0.960957, 0.979886, 0.930612, 0.931056, 0.926067, 0.898244, 0.897988, 0.933333, 0.92752, 1.02938, 0.98157, 1.02217, 1.07878, 1.10296, 1.17728, 1.24288, 1.3669, 1.30978, 1.36813, 1.35, 1.5003, 1.44443, 1.44348, 1.5053, 1.56003, 1.56073, 1.65503, 1.62512, 1.62444, 1.6627, 1.7552, 1.68249, 1.83434, 1.82931, 1.81064, 1.83141, 1.83112, 1.89758, 1.87799, 1.87455, 1.88226, 1.89922, 1.93809, 1.98594, 1.98575, 2.06286, 2.06782, 2.01512, 2.07306, 2.10443, 2.09794, 2.10633, 2.10474, 2.11117, 1.98699, 2.00398, 1.9994, 1.95489, 2.1033, 2.03159, 2.02276, 1.91331, 1.89682, 1.87865, 1.94525, 1.95349, 2.01662, 1.95201, 1.95166, 1.96587, 1.96439, 1.9629, 1.96912, 1.97035, 1.93629, 1.93582, 1.93531, 1.97325, 2.01308, 1.91407, 1.91314, 1.91316, 1.92883, 1.9841, 1.98399, 1.91819, 2.02913, 1.90157, 1.90023, 1.90025, 1.89655, 1.89478, 1.86606, 1.86491, 1.8889, 1.82841, 1.92924, 1.80472, 1.87566, 1.78212, 1.8382, 1.835, 1.84606, 1.75391, 1.73344, 1.73624, 1.73761, 1.7434, 1.67706, 1.57901, 1.64782, 1.63131, 1.57617, 1.57566, 1.57585, 1.53205, 1.46408, 1.42216, 1.39429, 1.37167, 1.33078, 1.31099, 1.29665, 1.24089, 1.2263, 1.15099, 1.09858, 1.0111, 0.977309, 0.946285, 0.944011, 0.941853, 0.914239, 0.939754, 0.929035, 0.937702, 0.945489, 0.9486, 0.963465, 0.964452, 0.977238, 0.980783, 1.07202, 1.14645, 1.16831, 1.01073, 1.01211, 1.00646, 1.04932, 1.00457, 0.978784, 0.979322, 1.00599, 1.00871, 1.00486, 1.0136, 0.990449, 1.00589, 1.00805, 0.990638, 0.98868, 0.97407, 0.974063, 0.96296, 0.962935, 0.96268, 0.957697, 0.952336, 0.948892, 0.948083, 0.949715, 0.950856, 0.955821, 0.935528, 0.937336, 0.937448, 0.935142, 0.93515, 0.933512, 0.932619, 0.931928, 0.931329
