1.19006, 1.18408, 1.18351, 1.1839, 1.37182, 1.18318, 1.18525, 1.19185, 1.37768, 1.19556, 1.32473, 1.19128, 1.18981, 1.18959, 1.18831, 1.18687, 1.18659, 1.18287, 1.18301, 1.18118, 1.17756, 1.21278, 1.17217, 1.16726, 1.30356, 1.15357, 1.14905, 1.14611, 1.14535, 1.14624, 1.14707, 1.14932, 1.15164, 1.15081, 1.30522, 1.16393, 1.17109, 1.17851, 1.13879, 1.13549, 1.13386, 1.13689, 1.13599, 1.13598, 1.12588, 1.12523, 1.09598, 1.11139, 1.11154, 1.10681, 1.10632, 1.10263, 1.10257, 1.10201, 1.09808, 1.09749, 1.09464, 1.09364, 1.09161, 1.09077, 1.09065, 1.09544, 1.09997, 1.10213, 1.30148, 1.09454, 1.09157, 1.08645, 1.0848, 1.082, 1.09107, 1.09284, 1.08577, 1.08381, 1.07692, 1.07738, 1.07698, 1.07569, 1.07051, 1.06929, 1.06992, 1.07006, 1.0717, 1.07231, 1.07147, 1.07109, 1.06872, 1.06675, 1.0651, 1.06657, 1.18115, 1.07318, 1.07132, 1.07735, 1.20405, 1.05524, 1.05859, 1.05823, 1.05861, 1.06073, 1.06277, 1.06284, 1.06088, 1.26314, 1.26136, 1.22192, 1.27081, 1.27462, 1.20549, 1.20291, 1.21879, 1.28186, 1.21231, 1.3073, 1.33606, 1.53435, 1.45781, 1.39893, 1.44902, 1.44823, 1.37878, 1.10436, 1.0976, 1.09822, 1.10017, 1.10072, 1.40134, 1.12204, 1.12218, 1.12204, 1.11443, 1.19201, 1.6409, 1.51643, 1.22591, 1.13235, 0.00433304, 1.06224, 1.06624, 1.09239, 1.07154, 1.01719, 1.01722, 1.01644, 1.01877, 1.02007, 1.01119, 1.01236, 1.01476, 1.01441, 1.01531, 1.01554, 1.01085, 1.00534, 1.00508, 1.01962, 1.01962, 1.02024, 1.01451, 1.01459, 1.01389, 1.00915, 1.00879, 1.01006, 0.997736, 0.994772, 0.995556, 0.995425, 0.996521, 0.991442, 0.990988, 0.990989, 0.99762, 0.999241, 0.992313, 0.994041, 0.991446, 0.991759, 0.991221, 0.992329, 0.991117, 0.989682, 0.99284, 0.992938, 0.993054, 0.991047, 0.991385, 0.993376, 0.990652, 0.990486, 0.989753, 0.987215, 0.983484, 0.984551, 0.984009, 0.98334, 0.982277, 0.981782, 0.981568, 0.976835, 0.977596, 0.978054, 1.36379, 0.976014, 0.977387, 0.977384, 0.97662, 0.972889, 0.973409, 0.964091, 0.965112, 0.963383, 0.959847, 0.96039, 0.961676, 0.962553, 0.964532, 0.964822, 0.965443, 0.96576, 0.964291, 0.965509, 0.966945, 0.96801, 0.964363, 0.96621, 0.964365, 0.96272, 0.960357, 0.959308, 0.957377, 0.956592, 0.95676, 0.957244, 0.958147, 0.960299, 0.961941, 0.963504, 0.963048, 0.966618, 0.965027, 0.964026, 0.964374, 0.964061, 0.964195, 0.966034, 0.96566, 1.09482, 1.16617, 1.19658, 1.31716, 1.09552, 1.09781, 1.25997, 1.10568, 1.30709, 1.11525, 1.04623, 1.04606, 1.04238, 1.29595, 1.30199, 1.30966, 1.00454, 1.00578, 1.00845, 1.1217, 1.16117, 1.12607, 1.08782
1.18217, 1.1849, 1.18098, 1.17879, 1.18087, 1.1824, 1.1833, 1.18473, 1.18719, 1.18669, 1.18358, 1.18091, 1.18505, 1.18548, 1.1806, 1.18071, 1.18072, 1.18107, 1.18003, 1.17823, 1.17699, 1.1772, 1.16803, 1.1578, 1.15743, 1.15143, 1.15163, 1.15161, 1.15418, 1.1545, 1.15545, 1.15725, 1.15921, 1.16127, 1.1688, 1.50361, 1.316, 1.32671, 1.19181, 1.15674, 1.34781, 1.12977, 1.13253, 1.13746, 1.13694, 1.1234, 1.12014, 1.11384, 1.11128, 1.10923, 1.11072, 1.36941, 1.38221, 1.10453, 1.10258, 1.10123, 1.10081, 1.09512, 1.09439, 1.0943, 1.09176, 1.09717, 1.09986, 1.10098, 1.10159, 1.0879, 1.08753, 1.08846, 1.08171, 1.08177, 1.08874, 1.0922, 1.19101, 1.08157, 1.07958, 1.07815, 1.07685, 1.07427, 1.07103, 1.07089, 1.07037, 1.07127, 1.07138, 1.07238, 1.07295, 1.0704, 1.07018, 1.06761, 1.06656, 1.16882, 1.17067, 1.12735, 1.18431, 1.18885, 1.19203, 1.17791, 1.21046, 1.0993, 1.10922, 1.112, 1.06957, 1.13367, 1.13119, 1.11303, 1.26124, 1.26466, 1.3859, 1.20434, 1.29317, 1.15914, 1.16376, 1.16238, 1.36477, 1.41871, 1.35886, 1.3636, 1.42459, 1.38041, 1.35727, 1.36695, 1.36722, 1.23591, 1.09865, 1.09805, 1.09765, 1.09795, 1.16525, 1.30237, 1.1358, 1.14523, 1.12537, 1.36998, 1.14784, 1.14957, 1.10847, 1.00801, 1.01124, 1.00979, 1.03692, 1.01541, 1.01791, 1.01672, 1.01622, 1.01238, 1.01653, 1.01093, 1.01405, 1.01467, 1.01569, 1.01622, 1.01686, 1.01527, 1.01215, 1.00618, 1.00509, 1.00632, 1.01447, 1.01276, 1.00736, 1.00836, 1.00762, 1.00628, 1.00499, 0.998286, 1.00157, 1.00199, 1.00064, 1.00047, 0.998391, 0.998607, 0.998683, 0.999077, 0.999458, 1.00089, 0.994755, 0.994228, 0.994546, 0.992578, 0.99443, 0.996664, 0.995149, 0.994172, 0.993614, 0.992228, 0.993186, 0.987945, 0.989244, 0.989868, 0.988616, 0.990008, 0.985792, 0.982557, 0.984062, 0.981669, 0.981635, 0.980706, 0.980852, 0.981552, 0.978693, 0.978473, 0.977306, 0.978936, 0.980218, 0.977077, 0.975442, 0.97552, 0.975553, 0.974576, 0.97247, 0.964732, 0.96498, 0.963367, 0.962363, 0.964039, 0.96322, 0.964461, 0.966683, 0.963993, 0.966244, 0.966161, 0.966119, 0.970358, 0.968457, 0.968437, 0.96715, 0.964957, 0.964644, 0.956177, 0.956203, 0.956448, 0.95502, 0.956602, 0.958417, 0.957291, 0.959291, 0.962642, 0.963193, 0.964148, 0.965949, 0.966385, 0.965654, 0.964433, 0.96221, 0.963292, 1.08915, 1.08702, 1.08795, 1.2445, 1.21155, 1.33572, 1.2847, 1.09486, 1.02231, 1.0232, 1.02364, 1.02574, 1.02556, 1.02684, 1.0258, 1.1304, 1.39873, 1.04026, 1.33625, 1.00577, 1.00681, 1.00787, 1.00884, 1.01115, 1.01154, 1.01146
1.18231, 1.18098, 1.18135, 1.18085, 1.1814, 1.43253, 1.18249, 1.18649, 1.1864, 1.18865, 1.18773, 1.32054, 1.18755, 1.18605, 1.18551, 1.18654, 1.18481, 1.18145, 1.17164, 1.17008, 1.17075, 1.1718, 1.60643, 1.15441, 1.15329, 1.15386, 1.15615, 1.16044, 1.2031, 1.21882, 1.28232, 1.16588, 1.20822, 1.30359, 1.38452, 1.18173, 1.24499, 1.26369, 1.22307, 1.29684, 1.1219, 1.12197, 1.24384, 1.13571, 1.13704, 1.12531, 1.11953, 1.11565, 1.11331, 1.11216, 1.19167, 1.12991, 1.1255, 1.34294, 1.37862, 1.38946, 1.38206, 1.10581, 1.17761, 1.10032, 1.08459, 1.0975, 1.09923, 1.10021, 1.08969, 1.08747, 1.08959, 1.08983, 1.08793, 1.08524, 1.08555, 1.0872, 1.08753, 1.32455, 1.07773, 1.07697, 1.07542, 1.07471, 1.07197, 1.07219, 1.07096, 1.07229, 1.07252, 1.07221, 1.07174, 1.06988, 1.06941, 1.07019, 1.18064, 1.17898, 1.17726, 1.17776, 1.18104, 1.10225, 1.44633, 1.10207, 1.10242, 1.09854, 1.09831, 1.24335, 1.24336, 1.11904, 1.0966, 1.18253, 1.23322, 1.19379, 1.19459, 1.49625, 1.15958, 1.16118, 1.16235, 1.16298, 1.42343, 1.3619, 1.17426, 1.17534, 1.17226, 1.35758, 1.15484, 1.08527, 0.0040972, 1.05415, 1.46584, 1.2719, 1.09694, 1.26389, 1.27425, 2.03804, 1.30197, 1.99329, 1.12785, 1.11622, 1.14227, 1.03759, 1.13316, 1.01437, 1.01005, 1.00863, 1.00342, 1.01726, 1.01614, 1.01579, 1.01569, 1.01504, 1.01557, 1.01508, 1.01356, 1.01312, 1.01409, 1.01456, 1.01313, 1.01233, 1.01249, 1.01167, 1.00487, 1.01208, 1.01298, 1.00942, 1.00906, 1.00891, 1.00788, 1.00663, 1.00542, 1.00044, 1.00118, 1.00263, 0.999958, 1.00008, 1.0005, 1.00188, 1.00078, 1.00065, 0.999615, 0.995827, 0.995353, 0.9961, 0.99594, 0.99531, 0.994136, 0.994867, 0.993075, 0.994163, 0.993915, 0.992066, 0.990148, 0.988111, 0.987331, 0.986435, 0.987527, 0.984071, 0.983342, 0.982448, 0.980662, 0.979778, 0.980128, 0.979571, 0.978614, 0.978939, 0.978723, 0.978786, 0.979055, 0.982009, 0.980295, 0.975986, 0.976526, 0.976859, 0.973393, 0.973943, 0.976687, 0.965005, 1.19672, 0.966306, 0.965903, 0.965086, 0.966266, 0.969837, 0.969988, 0.969854, 0.969859, 0.967679, 0.96821, 0.968628, 0.968761, 1.04158, 1.23516, 1.05609, 1.07388, 0.952157, 0.953061, 0.954675, 0.955991, 0.959198, 0.953756, 0.95476, 0.962801, 0.963371, 0.964597, 0.965533, 0.965314, 0.964587, 0.965184, 0.965156, 1.08536, 1.08545, 1.14462, 1.08137, 1.08528, 1.02206, 1.0201, 1.01839, 1.02007, 1.02192, 1.02256, 1.02203, 1.02141, 1.02224, 1.02301, 1.02276, 1.02586, 1.02776, 1.45759, 1.6995, 1.70012, 1.27725, 1.00812, 1.00717, 1.00845, 1.00999, 1.01116, 1.01144
1.18337, 1.18087, 1.18181, 1.50298, 1.48142, 1.27478, 1.1917, 1.19137, 1.39869, 1.39878, 1.24901, 1.22219, 1.19269, 1.19222, 1.59433, 1.59315, 1.6205, 1.22644, 1.16288, 1.16843, 1.16905, 1.17021, 1.16851, 1.15634, 1.15457, 1.15532, 1.15924, 1.16028, 1.16366, 1.16378, 1.16691, 1.1683, 1.17283, 1.17417, 1.1801, 1.18369, 1.18679, 1.20312, 1.23232, 1.23288, 1.12561, 1.12553, 1.13127, 1.13898, 1.14001, 1.27823, 1.13625, 1.11721, 1.11671, 1.11866, 1.12295, 1.12336, 1.12555, 1.12631, 1.12794, 1.12918, 1.1292, 1.32033, 1.27833, 1.11574, 1.13509, 1.16778, 1.10105, 1.10017, 1.1009, 1.0982, 1.09846, 1.09832, 1.09839, 1.0924, 1.08477, 1.08469, 1.08455, 1.08702, 1.07736, 1.07593, 1.07413, 1.07457, 1.07313, 1.07291, 1.07377, 1.0726, 1.07268, 1.07262, 1.07309, 1.0697, 1.07011, 1.07785, 1.07784, 1.26279, 1.28128, 1.18724, 1.09852, 1.09839, 1.09808, 1.10186, 1.10164, 1.09807, 1.09625, 1.17523, 1.16492, 1.24807, 1.32633, 1.24772, 1.23223, 1.46172, 1.37847, 1.24469, 1.38675, 1.34202, 1.28229, 1.35224, 1.31975, 1.20217, 1.14381, 1.07355, 1.07368, 1.24311, 1.14846, 1.14944, 1.04719, 1.04903, 1.17032, 1.26706, 1.40045, 1.41055, 1.18751, 1.18988, 1.11312, 1.10151, 1.01694, 1.02179, 1.01961, 1.02076, 1.01916, 1.01774, 1.01277, 1.00929, 1.01911, 1.01654, 1.01587, 1.01671, 1.01603, 1.01495, 1.01421, 1.01399, 1.01408, 1.01295, 1.01344, 1.01307, 1.01492, 1.01373, 1.01195, 1.01029, 1.00944, 1.15408, 1.01178, 1.00675, 1.00668, 1.00516, 1.00692, 1.007, 1.0074, 1.00748, 1.00794, 1.00803, 1.00781, 1.00467, 1.00472, 1.00312, 1.00296, 0.998439, 0.995204, 0.994582, 0.993819, 0.993922, 0.995686, 0.997527, 0.995116, 0.994975, 0.993677, 0.992429, 0.992506, 0.982744, 0.98953, 0.990736, 0.985265, 0.98581, 0.98515, 0.981655, 0.980768, 0.979026, 0.980055, 0.978434, 0.977578, 0.978299, 0.978057, 0.978264, 0.97839, 0.978981, 0.979945, 0.980489, 0.977826, 0.97792, 0.977033, 0.977175, 0.971583, 0.974816, 0.976986, 0.977954, 0.974699, 0.971121, 0.971732, 0.969794, 0.970655, 0.970319, 0.969572, 0.968437, 0.968648, 0.967689, 1.02948, 1.03163, 1.15001, 0.943799, 0.944535, 0.945109, 1.09959, 0.956082, 0.955636, 0.956179, 0.957471, 0.961266, 0.960021, 0.961939, 0.962924, 0.963057, 0.964251, 0.965548, 0.966383, 0.965765, 1.08375, 1.13016, 1.15967, 1.02681, 1.02621, 1.02551, 1.02683, 1.3441, 1.19275, 1.02195, 1.02335, 1.02368, 1.02539, 1.02561, 1.02652, 1.0254, 1.0249, 1.02486, 1.02434, 1.37432, 1.59468, 1.83011, 1.34138, 1.0062, 1.00552, 1.39896, 1.01069, 1.01131, 1.40268, 1.1611
1.38595, 1.38564, 1.38618, 1.40342, 1.27063, 1.32612, 1.24011, 1.2997, 1.21005, 1.20989, 1.20791, 1.1955, 1.19652, 1.19708, 1.1967, 1.19731, 1.20669, 1.27606, 1.16346, 1.16658, 1.16689, 1.16711, 1.16541, 1.15539, 1.15434, 1.15616, 1.15799, 1.15906, 1.16356, 1.16728, 1.16732, 1.16721, 1.17349, 1.24393, 1.24833, 1.18638, 1.19061, 1.18997, 1.18549, 1.21264, 1.24279, 1.24314, 1.13345, 1.13675, 1.1432, 1.25486, 1.28983, 1.28868, 1.11494, 1.11605, 1.12096, 1.12146, 1.12346, 1.12405, 1.12614, 1.127, 1.13242, 1.13236, 1.13245, 1.27674, 1.28535, 1.28659, 1.29146, 1.19859, 1.1032, 1.1019, 1.09793, 1.09785, 1.09758, 1.09916, 1.1815, 1.25248, 1.08386, 1.08659, 1.08617, 1.29166, 1.07602, 1.07406, 1.07334, 1.07323, 1.07345, 1.07306, 1.07319, 1.07233, 1.07029, 1.07017, 1.18645, 1.08802, 1.08541, 1.08179, 1.08306, 1.34493, 1.3562, 1.09148, 1.09194, 1.09735, 1.09815, 1.08932, 1.08892, 1.37234, 1.42144, 1.24255, 1.24152, 1.33898, 1.14653, 1.14727, 1.15073, 1.33825, 1.15754, 1.33037, 1.15932, 1.14008, 1.14426, 1.04671, 1.05837, 1.36337, 1.15088, 1.03838, 1.0386, 1.04337, 1.04661, 1.04883, 1.05024, 1.46547, 1.16513, 0.00461832, 1.1056, 1.2237, 1.02459, 1.02315, 1.01511, 1.02303, 1.01881, 1.0189, 1.01808, 1.01793, 1.01767, 1.01856, 1.01938, 1.01637, 1.01663, 1.01638, 1.01483, 1.0149, 1.01368, 1.01294, 1.0138, 1.01481, 1.01471, 1.013, 1.01316, 1.01407, 1.01438, 1.01363, 1.01054, 1.01118, 1.00429, 1.00529, 1.00607, 1.00576, 1.00448, 1.00396, 1.00214, 1.00234, 1.00809, 1.0072, 1.00635, 1.00885, 1.00313, 1.00164, 0.999973, 0.995852, 0.99444, 0.994491, 0.994213, 0.993723, 0.994315, 0.994155, 0.99258, 0.992494, 0.993811, 0.991117, 0.990512, 0.989154, 0.989384, 0.986544, 0.984832, 0.984019, 0.984428, 0.980305, 0.980464, 0.980546, 0.978737, 0.976663, 0.976684, 0.976711, 0.9801, 0.978474, 0.979101, 0.977014, 0.977435, 0.978193, 0.978985, 0.978047, 0.977436, 0.97519, 0.975974, 0.975292, 0.97695, 0.976516, 0.976758, 0.976743, 0.971969, 0.971112, 0.969991, 0.971099, 0.959275, 0.95718, 0.956557, 1.0305, 1.69556, 0.943982, 0.945448, 0.945685, 0.94355, 0.948103, 0.956203, 1.04409, 0.958714, 0.959441, 0.961098, 0.960283, 0.962657, 1.31644, 0.962136, 1.08122, 1.02665, 1.02685, 1.60068, 1.03002, 1.03182, 1.05252, 1.35599, 1.02784, 1.02589, 1.02545, 1.32919, 1.33375, 1.32608, 1.01962, 1.02417, 1.19622, 1.02538, 1.02516, 1.02475, 1.02583, 1.02628, 1.1101, 1.37205, 1.37146, 1.12149, 1.19412, 1.19496, 1.14314, 1.51066, 1.14753, 1.14815, 1.52018, 1.27467, 1.15802
1.30227, 1.23117, 1.33952, 1.33894, 1.25801, 1.28929, 1.43359, 1.43838, 1.21391, 1.21048, 1.20642, 1.19225, 1.19572, 1.19849, 1.19961, 1.20084, 1.20974, 1.43187, 1.22734, 1.16305, 1.16352, 1.16286, 1.16428, 1.1575, 1.15309, 1.15289, 1.1543, 1.16001, 1.16452, 1.16606, 1.17064, 1.17136, 1.17403, 1.17702, 1.18209, 1.18533, 1.18896, 1.18858, 1.41291, 1.43104, 1.1542, 1.13314, 1.13311, 1.13996, 1.14622, 1.14555, 1.14118, 1.12843, 1.11744, 1.11666, 1.11705, 1.12257, 1.12356, 1.12376, 1.12569, 1.12922, 1.1324, 1.13326, 1.15668, 1.12986, 1.1304, 1.12624, 1.12202, 1.11949, 1.11944, 1.12032, 1.19916, 1.09851, 1.10052, 1.10115, 1.10094, 1.09867, 1.09775, 1.08782, 1.08773, 1.24617, 1.07705, 1.07518, 1.07428, 1.0736, 1.07547, 1.06326, 1.07354, 1.07322, 1.07136, 1.19252, 1.27487, 1.27458, 1.27411, 1.08839, 1.08739, 1.07483, 1.07586, 1.08848, 1.08916, 1.09201, 1.09516, 1.08916, 1.08977, 1.37972, 1.37871, 1.42785, 1.2437, 1.33499, 1.33154, 1.41303, 1.14285, 1.32691, 1.14289, 1.0723, 1.12597, 1.05026, 1.0544, 1.05077, 1.05023, 1.05118, 1.05143, 1.04161, 1.04237, 1.45603, 1.04913, 1.05025, 1.05281, 1.1298, 1.0685, 0.00447048, 1.03525, 1.02741, 1.02109, 1.01934, 1.00248, 1.00392, 1.02126, 1.01823, 1.01822, 1.01797, 1.01716, 1.01629, 1.01636, 1.0159, 1.01629, 1.01825, 1.01734, 1.01451, 1.01442, 1.01464, 1.0149, 1.01538, 1.01436, 1.01359, 1.01444, 1.0148, 1.01352, 1.00972, 1.00916, 1.00955, 1.00578, 1.00581, 1.01061, 1.00782, 1.00796, 1.00821, 1.00226, 1.00143, 1.00135, 1.00092, 1.00074, 1.00025, 0.997017, 0.997239, 0.996441, 0.994512, 0.994768, 0.994522, 0.99422, 0.993923, 0.992451, 0.992813, 0.991104, 0.991417, 0.990448, 0.989342, 0.988376, 0.987203, 0.987031, 0.986241, 0.977253, 0.98299, 0.980962, 0.980193, 0.980333, 0.980608, 0.981769, 0.982478, 0.980748, 0.979404, 0.97966, 0.977292, 0.976063, 0.974667, 0.975863, 0.975461, 0.978404, 0.975661, 0.977086, 0.975937, 0.976119, 0.974532, 0.977095, 0.97362, 0.974307, 0.975825, 0.973527, 0.973082, 0.960511, 0.958545, 0.957856, 0.957535, 1.23959, 0.943376, 0.945273, 0.945401, 0.944876, 0.945933, 1.40972, 1.28033, 1.2884, 1.50068, 0.959674, 0.95995, 0.9811, 1.28954, 1.29533, 0.97291, 0.973579, 1.02213, 1.02557, 1.30762, 1.30701, 1.03086, 1.03382, 0.982399, 1.16996, 1.17836, 1.17173, 1.31977, 1.07304, 1.41877, 1.32616, 1.0837, 1.08887, 1.36132, 1.09448, 1.09715, 1.22334, 1.21024, 1.21333, 1.3709, 1.30529, 1.3041, 1.11985, 1.24646, 0.987718, 0.987721, 1.13786, 0.98462, 1.14405, 0.983994, 0.98528, 0.98707
1.24143, 1.43377, 1.2464, 1.24315, 1.24272, 1.24324, 1.25417, 1.31922, 1.22007, 1.20931, 1.20545, 1.19514, 1.19239, 1.19526, 1.19673, 1.19769, 1.21002, 1.21619, 1.1877, 1.16448, 1.16233, 1.16366, 1.13906, 1.1718, 1.15615, 1.15429, 1.1537, 1.15659, 1.15945, 1.16302, 1.1675, 1.17038, 1.17351, 1.17415, 1.18057, 1.18039, 1.18794, 1.18647, 1.26073, 1.17365, 1.23588, 1.23122, 1.13569, 1.14579, 1.14773, 1.14803, 1.38903, 1.12933, 1.12976, 1.11485, 1.11446, 1.11627, 1.11578, 1.18992, 1.11864, 1.2413, 1.11749, 1.25277, 1.49523, 1.26097, 1.26408, 1.52552, 1.2609, 1.1198, 1.12191, 1.12143, 1.12107, 1.11933, 1.11652, 1.11503, 1.10531, 1.2775, 1.17761, 1.14785, 1.1436, 1.20598, 1.24559, 1.23267, 1.17809, 1.07657, 1.07411, 1.07865, 1.07399, 1.07321, 1.073, 1.27518, 1.2087, 1.20359, 1.09795, 1.09273, 1.21299, 1.08099, 1.08035, 1.08685, 1.08741, 1.08639, 1.08579, 1.08906, 1.37806, 1.10556, 1.10465, 1.44644, 1.19641, 1.10573, 1.14205, 1.27495, 1.12755, 1.10584, 1.1021, 1.10589, 1.05191, 1.0525, 1.05302, 1.0538, 1.05345, 1.0545, 1.05346, 1.03907, 1.04138, 1.04176, 1.05011, 1.13207, 1.13336, 1.37868, 1.22051, 1.18588, 1.03061, 1.03171, 1.02012, 1.01919, 1.02, 1.01992, 1.01834, 1.01827, 1.01814, 1.01805, 1.01794, 1.01758, 1.01815, 1.01799, 1.01746, 1.01828, 1.02091, 1.0184, 1.01525, 1.01506, 1.01532, 1.01546, 1.01559, 1.01607, 1.01547, 1.01478, 1.01479, 1.01472, 1.0055, 1.00403, 1.00409, 1.005, 1.00933, 1.01036, 1.00793, 1.00734, 1.00771, 1.0036, 1.0016, 1.00194, 1.0011, 1.00007, 0.998215, 0.998872, 0.998193, 0.998977, 0.995271, 0.994828, 0.994752, 0.993815, 0.991969, 0.990024, 0.991462, 0.98865, 0.981708, 0.985099, 0.984522, 0.984257, 0.982597, 0.980453, 0.979326, 0.979019, 0.98074, 0.98497, 0.984826, 0.984523, 0.981859, 0.982037, 0.981122, 0.98018, 0.979699, 0.977845, 0.974787, 0.974446, 0.972446, 0.97357, 0.972985, 0.971796, 0.972601, 0.973226, 0.971875, 0.970168, 0.970483, 0.97235, 0.974294, 0.970264, 0.970241, 0.965315, 0.966615, 0.964461, 0.957582, 0.956733, 1.25838, 0.945575, 0.946082, 0.945022, 0.945669, 1.44614, 1.39913, 0.98635, 1.01186, 1.00425, 1.02913, 1.14395, 1.34241, 1.14723, 0.975416, 0.973428, 0.971709, 1.48652, 1.48763, 1.05992, 1.06442, 1.06544, 1.06986, 1.19926, 1.19962, 1.07542, 1.07545, 1.07678, 1.07783, 1.19668, 1.09122, 1.08612, 1.08872, 1.15417, 1.09194, 1.09112, 1.11873, 1.10641, 1.11543, 1.10916, 1.11386, 1.36545, 0.990176, 0.985939, 0.985269, 0.985441, 0.984137, 1.14581, 1.14557, 1.54035, 1.1476, 1.14729
1.24399, 1.24432, 1.24775, 1.24731, 1.24796, 1.24646, 1.22932, 1.23019, 1.28988, 1.21304, 1.20567, 1.30975, 1.19034, 1.19193, 1.19438, 1.19624, 1.19604, 1.22583, 1.39142, 1.16658, 1.16214, 1.15943, 1.1568, 1.15186, 1.14847, 1.14628, 1.14871, 1.15374, 1.4624, 1.46073, 1.32901, 1.16919, 1.33271, 1.17474, 1.38142, 1.18156, 1.18531, 1.18478, 1.25322, 1.17716, 1.17684, 1.2982, 1.14369, 1.14996, 1.14955, 1.15011, 1.13993, 1.33954, 1.13317, 1.11393, 1.11304, 1.11264, 1.11172, 1.10719, 1.2942, 1.11234, 1.33572, 1.11036, 1.10807, 1.26195, 1.10899, 1.26372, 1.15432, 1.25577, 1.11477, 1.11952, 1.11982, 1.11735, 1.11762, 1.1178, 1.14298, 1.1397, 1.30335, 1.30343, 1.31106, 1.24373, 1.19953, 1.20438, 1.21158, 1.09984, 1.10047, 1.24856, 1.07632, 1.26415, 1.26611, 1.10823, 1.10807, 1.2048, 1.10482, 1.31946, 1.08977, 1.08848, 1.09009, 1.09073, 1.09082, 1.08637, 1.08505, 1.08633, 1.33252, 1.26388, 1.38132, 1.44809, 1.44816, 1.14083, 1.3399, 1.15745, 1.0869, 1.08779, 1.04768, 1.04918, 1.04945, 1.05091, 1.05388, 1.05502, 1.05448, 1.12927, 1.04393, 1.0436, 1.04612, 1.04665, 1.23252, 1.25057, 1.23497, 1.23797, 1.21729, 1.23321, 1.04051, 1.02206, 1.02205, 1.01934, 1.02018, 1.02029, 1.02039, 1.01893, 1.01696, 1.01651, 1.01722, 1.0174, 1.01799, 1.0182, 1.01751, 1.02153, 1.02288, 1.01614, 1.0164, 1.01643, 1.01575, 1.01589, 1.01512, 1.01467, 1.01485, 1.0149, 1.0143, 1.0151, 1.01291, 1.01145, 1.0028, 1.00343, 1.00293, 1.01004, 1.00979, 1.01112, 1.01133, 1.00256, 1.00128, 1.00216, 0.999552, 0.999547, 0.997958, 0.998506, 0.998423, 0.997711, 0.998603, 0.992293, 0.987936, 0.989023, 0.98755, 0.988299, 0.987218, 0.987642, 0.988502, 0.988298, 0.985683, 0.986171, 0.98637, 0.98488, 0.980567, 0.982497, 0.983955, 0.982687, 0.983335, 0.984037, 0.983467, 0.982848, 0.983113, 0.979924, 0.979176, 0.976604, 0.973733, 0.971206, 0.971752, 0.970929, 0.970097, 0.968595, 0.96985, 0.970238, 0.970312, 0.969139, 0.967247, 0.969943, 0.967779, 0.967927, 0.967002, 0.96631, 0.96687, 0.965312, 0.953674, 0.953477, 0.953272, 0.953057, 0.945755, 1.12132, 0.994238, 1.39845, 1.41821, 1.49842, 0.977206, 0.980326, 0.980292, 0.980282, 0.979919, 0.978809, 1.04317, 1.39242, 1.15407, 1.3419, 1.05696, 1.06026, 1.06302, 1.43429, 0.965817, 0.967271, 0.968617, 1.07353, 1.20558, 1.1978, 1.08079, 1.08431, 1.08674, 1.11431, 1.08919, 1.09126, 1.09582, 0.996181, 1.11424, 1.11838, 1.10572, 1.10866, 1.11895, 1.12197, 1.12538, 0.98446, 1.71672, 1.13227, 1.49724, 0.991815, 1.14582, 1.32767, 1.32826, 1.42305
1.24485, 1.24626, 1.24874, 1.25002, 1.24968, 1.25322, 1.24031, 1.22977, 1.28947, 1.21467, 1.31119, 1.32689, 1.18306, 1.18389, 1.1966, 1.77625, 1.19871, 1.2123, 1.23285, 1.16603, 1.16061, 1.159, 1.15384, 1.15353, 1.14659, 1.14641, 1.14702, 1.15002, 1.3191, 1.15368, 1.70099, 1.23289, 1.33593, 1.2677, 1.26896, 1.37786, 1.24478, 1.27759, 1.26075, 1.26021, 0.00502547, 1.2868, 1.14871, 1.15006, 1.15005, 1.15067, 1.27489, 1.28183, 1.13446, 1.29857, 1.10979, 1.10906, 1.10797, 1.10958, 1.10289, 1.10281, 1.10471, 1.10439, 1.10284, 1.10252, 1.24032, 1.23921, 1.21522, 1.21657, 1.11323, 1.10669, 1.10646, 1.12261, 1.11421, 1.115, 1.13252, 1.13735, 1.13909, 1.14297, 1.14742, 1.16344, 1.18122, 1.19544, 1.20393, 1.25136, 1.25088, 1.09646, 1.0973, 1.24943, 1.26584, 1.10744, 1.10822, 1.28397, 1.23806, 1.24077, 1.11319, 1.28448, 1.28535, 1.25568, 1.09056, 1.08903, 1.08812, 1.26671, 1.37618, 1.37155, 1.28847, 1.23996, 1.14124, 1.26016, 1.2228, 1.1746, 1.04268, 1.04303, 1.04407, 1.03923, 1.0332, 1.037, 1.03629, 1.03672, 1.03374, 1.03345, 1.03087, 1.03331, 1.03279, 1.20538, 1.29221, 1.29254, 1.23235, 1.03275, 1.02701, 1.02653, 1.02567, 1.02627, 1.02327, 1.02221, 1.02104, 1.02104, 1.02056, 1.01916, 1.01821, 1.01725, 1.01656, 1.01654, 1.01675, 1.02177, 1.02171, 1.02487, 1.02477, 1.02365, 1.02255, 1.01637, 1.01546, 1.0153, 1.01353, 1.01545, 1.0159, 1.01195, 1.01122, 1.00866, 1.00586, 1.00491, 1.00596, 1.00588, 1.00179, 1.00213, 1.00319, 1.00962, 1.01114, 1.00126, 0.99943, 0.996177, 0.998656, 0.997415, 0.998423, 0.998473, 0.998163, 0.995156, 0.994941, 0.989134, 0.988243, 0.989236, 0.99035, 0.99084, 0.991022, 0.988795, 0.988782, 0.988376, 0.988416, 0.987653, 0.986757, 0.986145, 0.985266, 0.98522, 0.984105, 0.984269, 0.98557, 0.985701, 0.985479, 0.984351, 0.98513, 0.981145, 0.980344, 0.983017, 1.25619, 1.23292, 0.970593, 0.967763, 0.967496, 0.968171, 0.967153, 0.966457, 0.96642, 0.966021, 0.965346, 0.966167, 0.96593, 0.966466, 0.965192, 0.963912, 0.963948, 0.965178, 0.955608, 0.956184, 0.952878, 0.956356, 1.00199, 1.44053, 1.31148, 1.30283, 1.14166, 0.975145, 0.976762, 0.977966, 0.979013, 0.979532, 0.979995, 1.26339, 1.27395, 0.956645, 0.956277, 0.956093, 0.956029, 0.957504, 0.957195, 1.18147, 1.17977, 1.06745, 1.06872, 1.27156, 1.28028, 1.27722, 1.07979, 0.954526, 0.957941, 1.10322, 1.10494, 1.10204, 0.9608, 1.10568, 1.10333, 0.963752, 0.966618, 0.964783, 0.966056, 0.965282, 0.966364, 1.07889, 1.29823, 1.30945, 1.14933, 0.955659, 0.956853, 0.95773, 0.958153, 0.972745
1.24875, 1.25003, 1.25139, 1.25373, 1.25367, 1.25442, 1.27558, 1.23024, 1.2299, 1.21214, 1.20846, 1.18609, 1.18617, 1.48007, 1.48081, 1.48125, 1.49658, 0.00547665, 1.16445, 1.16388, 1.16333, 1.15646, 1.15331, 1.15366, 1.15329, 1.1464, 1.14424, 1.14382, 1.66231, 1.15025, 1.23759, 1.15696, 1.24136, 1.26069, 1.2598, 1.25844, 1.25154, 1.28856, 1.25733, 1.26276, 1.30653, 1.31507, 1.14983, 1.14884, 1.32722, 1.27812, 1.14375, 1.21267, 1.37132, 1.37163, 1.10817, 1.10842, 1.10471, 1.1048, 1.10474, 1.10444, 1.10471, 1.10203, 1.10113, 1.09499, 1.09407, 1.09037, 1.09012, 1.09359, 1.09848, 1.10007, 1.10076, 1.11073, 1.11861, 1.1213, 1.12357, 1.13507, 1.13926, 1.14503, 1.14475, 1.15868, 1.37417, 1.1875, 1.20046, 1.23619, 1.20867, 1.24127, 1.09689, 1.25029, 1.24934, 1.24955, 1.28234, 1.20685, 1.0633, 1.24021, 1.23917, 1.05973, 1.22394, 1.05273, 1.22298, 1.22153, 1.22167, 1.1894, 1.08658, 1.22802, 1.12499, 1.16857, 1.04764, 1.04689, 1.0393, 1.03993, 1.04085, 1.03917, 1.03824, 1.03747, 1.03674, 1.03623, 1.03622, 1.0344, 1.0275, 1.02947, 1.03182, 1.03305, 1.03033, 1.02977, 1.02923, 1.02839, 1.02708, 1.02546, 1.02608, 1.0247, 1.02485, 1.02479, 1.02419, 1.02207, 1.02153, 1.02179, 1.02132, 1.02153, 1.00776, 1.00861, 1.01696, 1.02052, 1.02356, 1.02189, 1.02131, 1.02156, 1.0236, 1.02255, 1.02245, 1.02004, 1.01889, 1.01588, 1.0148, 1.01475, 1.01334, 1.01355, 1.01272, 1.01187, 1.01125, 1.00824, 1.00417, 1.00431, 1.00361, 1.00419, 0.995683, 0.997535, 1.00095, 1.00168, 0.999979, 0.998345, 0.997282, 0.995228, 0.99858, 0.999524, 0.995343, 0.995178, 0.995212, 0.995934, 0.989845, 0.989865, 0.989497, 0.991459, 0.989453, 0.990483, 0.989626, 0.989323, 0.988406, 0.987639, 0.986069, 0.986641, 0.985811, 0.984157, 0.98382, 0.982918, 0.983628, 0.983986, 0.985474, 0.98888, 0.990265, 0.989685, 0.991353, 0.99157, 0.990642, 1.23669, 1.21589, 1.2227, 0.968647, 0.966497, 0.96547, 0.965095, 0.966352, 0.963253, 0.963611, 0.966234, 0.96646, 0.962981, 0.963466, 0.965785, 0.966331, 0.960406, 0.959836, 0.958928, 0.957762, 0.955145, 1.06456, 1.31519, 1.20335, 1.09265, 1.20228, 1.09829, 0.976366, 0.978576, 1.14717, 1.14369, 1.29678, 1.13033, 1.12569, 0.956593, 0.956772, 0.955568, 0.954098, 0.956665, 0.954546, 0.95606, 0.955469, 0.955933, 0.955925, 0.957174, 0.955793, 0.955996, 0.95454, 0.95288, 0.952438, 0.953159, 0.95522, 0.956032, 0.957157, 1.05299, 1.05196, 0.962245, 0.962647, 0.964257, 0.962875, 0.966774, 0.958304, 0.958566, 0.956519, 0.956559, 0.956015, 0.954606, 0.956487, 0.954185, 0.954496, 0.953746
1.25102, 1.25184, 1.25273, 1.25645, 1.25536, 1.25277, 1.40297, 1.27132, 1.22429, 1.22496, 1.46944, 1.47173, 1.18352, 1.17237, 1.16348, 1.16368, 1.66468, 1.18824, 1.20458, 1.15758, 1.14978, 1.14676, 1.15215, 1.15459, 1.15471, 1.15155, 1.14601, 1.13885, 1.13769, 1.1434, 1.14114, 1.23396, 1.23383, 1.1553, 1.1566, 1.1569, 1.25072, 1.19072, 1.25279, 1.26401, 1.2617, 1.32893, 1.32983, 1.27961, 1.2464, 1.29418, 1.29379, 1.29547, 1.2756, 1.27244, 1.10396, 1.10331, 1.10286, 1.10494, 1.10578, 1.10544, 1.103, 1.10133, 1.09488, 1.09594, 1.09508, 1.09544, 1.09552, 1.09674, 1.10013, 1.10532, 1.11116, 1.1122, 1.1225, 1.12255, 1.12406, 1.13405, 1.13906, 1.14601, 1.15678, 1.16178, 1.1633, 1.16391, 1.22262, 1.08716, 1.08526, 1.08624, 1.08512, 1.08501, 1.4365, 1.20188, 1.20229, 1.29149, 1.13653, 1.05768, 1.05619, 1.05403, 1.05369, 1.05097, 1.04944, 1.04702, 1.04579, 1.04372, 1.04342, 1.04206, 1.04089, 1.04175, 1.04246, 1.04327, 1.03881, 1.03866, 1.03905, 1.03808, 1.03878, 1.03873, 1.03859, 1.0381, 1.03705, 1.0362, 1.02563, 1.02953, 1.03311, 1.03312, 1.03193, 1.03019, 1.02934, 1.02937, 1.02589, 1.02645, 1.02657, 1.02684, 1.02437, 1.02524, 1.02477, 1.02488, 1.02489, 1.02459, 1.02415, 1.0284, 1.03533, 1.39321, 1.0253, 1.02493, 1.02306, 1.0227, 1.02011, 1.02016, 1.01933, 1.01852, 1.01871, 1.02036, 1.02147, 1.01495, 1.01573, 1.01464, 1.01455, 1.01412, 1.01439, 1.01219, 1.01234, 1.0081, 1.00037, 0.999402, 1.00036, 1.00075, 0.996112, 0.996725, 0.997791, 1.00021, 1.00043, 1.00063, 0.994307, 0.993712, 0.995051, 0.995035, 0.992953, 0.99329, 0.994182, 0.997142, 0.99814, 0.999507, 0.998649, 0.995033, 0.994882, 0.994584, 0.994343, 0.993846, 0.991534, 0.990489, 0.99048, 0.989764, 0.989549, 0.990013, 0.983965, 0.983811, 1.09846, 0.991246, 0.990722, 0.989505, 0.989277, 0.989749, 0.990368, 0.990626, 0.990117, 1.2481, 1.58369, 1.35012, 1.32846, 1.45536, 1.04659, 1.01494, 1.31945, 0.968306, 0.967728, 0.967486, 0.963364, 0.963391, 0.962783, 0.964401, 0.965021, 0.960534, 0.958391, 0.958229, 0.957, 1.55239, 0.961316, 0.963341, 0.976153, 1.08875, 1.09569, 1.51976, 1.31573, 0.957896, 0.959521, 1.30876, 1.3209, 1.62793, 1.38479, 0.956766, 0.95431, 0.954965, 0.955825, 0.955278, 0.95412, 0.954686, 0.954544, 0.954017, 0.952412, 0.952853, 0.952725, 0.952566, 0.953465, 0.949114, 0.951713, 0.95303, 0.954865, 0.954354, 0.957463, 1.02584, 0.978179, 1.37422, 0.962205, 0.954616, 0.957376, 0.95825, 0.95923, 0.959089, 0.955985, 0.955327, 0.95568, 0.954177, 0.955989, 0.955803, 0.95232, 0.947519
1.25013, 1.25074, 1.25295, 1.25228, 1.25407, 1.25408, 1.25783, 1.41004, 1.28593, 1.25722, 1.2079, 1.4582, 1.17508, 1.17612, 1.16116, 1.15789, 1.15698, 1.15787, 1.43113, 1.15418, 1.14734, 1.14816, 1.14792, 1.1546, 1.1551, 1.18398, 1.14326, 1.13885, 1.13616, 1.13374, 1.13194, 1.12987, 1.12893, 1.12699, 1.23465, 1.25711, 1.20639, 1.20648, 1.22789, 1.16691, 1.27468, 1.27749, 1.28468, 1.28564, 1.11608, 1.10999, 1.29572, 1.32986, 1.11814, 1.11837, 1.24786, 1.10258, 1.10249, 1.10493, 1.10455, 1.10179, 1.10137, 1.09762, 1.09609, 1.09661, 1.09684, 1.2208, 1.10059, 1.10279, 1.10549, 1.10821, 1.11054, 1.11929, 1.12052, 1.12093, 1.13628, 1.14689, 1.14718, 1.15797, 1.1828, 1.16341, 1.16378, 1.16485, 1.20157, 1.23615, 1.08658, 1.08689, 1.08703, 1.08361, 1.08207, 1.08129, 1.07952, 1.07714, 1.07719, 1.36192, 1.05571, 1.05417, 1.05161, 1.05189, 1.05086, 1.04747, 1.04632, 1.04673, 1.04234, 1.04137, 1.04576, 1.04566, 1.04565, 1.04003, 1.03998, 1.04044, 1.04261, 1.03778, 1.03951, 1.03883, 1.03886, 1.03892, 1.03738, 1.03822, 1.02898, 1.02908, 1.03245, 1.03066, 1.03202, 1.03128, 1.02883, 1.02858, 1.0253, 1.02585, 1.02663, 1.02667, 1.0271, 1.02717, 1.02653, 1.02669, 1.02666, 1.02647, 1.02818, 1.02847, 1.02698, 1.0255, 1.02469, 1.02476, 1.02362, 1.02182, 1.02023, 1.01936, 1.01954, 1.01801, 1.01714, 1.01793, 1.01777, 1.01793, 1.01045, 1.16385, 1.01686, 1.01784, 1.01802, 1.01824, 1.01481, 1.00951, 1.00999, 1.01135, 1.00123, 1.00109, 0.997159, 0.997209, 0.997157, 0.995593, 0.994165, 0.991595, 0.992023, 0.99102, 0.99316, 0.985178, 0.985777, 0.993389, 0.997984, 0.9979, 0.998192, 0.999471, 0.998635, 0.998014, 0.996623, 0.995474, 0.994631, 0.994344, 1.37106, 1.08163, 1.27124, 0.989087, 0.987915, 0.988277, 0.991182, 0.991652, 0.990173, 0.99201, 0.991866, 0.991682, 0.990203, 0.990422, 0.991232, 0.989222, 0.990174, 1.10912, 1.38001, 1.11916, 0.980145, 1.14657, 1.19334, 0.965565, 0.966735, 0.965734, 0.966408, 0.961162, 0.962672, 0.95986, 0.960276, 0.961831, 0.955042, 0.955769, 0.956705, 0.9569, 0.954535, 0.956439, 0.957952, 0.958299, 0.956878, 0.962227, 0.961863, 1.07602, 1.52673, 0.953261, 0.95394, 0.950314, 1.03969, 0.960052, 0.960577, 0.95762, 0.954438, 0.956464, 0.956477, 0.955039, 0.955914, 0.955336, 0.952985, 0.952853, 0.952111, 0.951616, 0.951372, 0.951436, 0.954403, 0.955905, 0.956671, 0.955957, 0.956295, 0.955587, 0.955539, 0.956304, 0.958643, 0.957486, 0.955321, 0.95667, 0.957851, 0.956386, 0.957984, 0.958139, 0.956846, 0.9561, 0.955208, 0.955819, 0.959073, 0.960007, 0.9605, 0.958636
1.38093, 1.37892, 1.34116, 1.30953, 1.30562, 1.31216, 1.3373, 1.33962, 1.37274, 1.20558, 1.20478, 1.21107, 1.23192, 1.16748, 1.16033, 1.15707, 1.15436, 1.15349, 1.15315, 1.15293, 1.1464, 1.14553, 1.14717, 1.15255, 1.17765, 1.18844, 1.14478, 1.14025, 1.13896, 1.13806, 1.13257, 1.13317, 1.12903, 1.12504, 1.12393, 1.12046, 1.11982, 1.11934, 1.11892, 1.11878, 1.11907, 1.1193, 1.12014, 1.11158, 1.11184, 1.1106, 1.1112, 1.11178, 1.11564, 1.1182, 1.11901, 1.12723, 1.12656, 1.10583, 1.1015, 1.10061, 1.09992, 1.09797, 1.09949, 1.10091, 1.10169, 1.10481, 1.10798, 1.10512, 1.10695, 1.29884, 1.2998, 1.32364, 1.28408, 1.14332, 1.13407, 1.14369, 1.14871, 1.16048, 1.15685, 1.18889, 1.16512, 1.20882, 1.17837, 1.23921, 1.09021, 1.0884, 1.08776, 1.08444, 1.08081, 1.07937, 1.07709, 1.07549, 1.0758, 1.19668, 1.05966, 1.05447, 1.05366, 1.05321, 1.05121, 1.05072, 1.04945, 1.0471, 1.04667, 1.0482, 1.0491, 1.04257, 1.04417, 1.04325, 1.04235, 1.04259, 1.04153, 1.04209, 1.04004, 1.0386, 1.03866, 1.03803, 1.03756, 1.03725, 1.03658, 1.03058, 1.03146, 1.03359, 1.03115, 1.03094, 1.02892, 1.02897, 1.02915, 1.02604, 1.02575, 1.02882, 1.02894, 1.02888, 1.02904, 1.02897, 1.02863, 1.03203, 1.02964, 1.02958, 1.02713, 1.02533, 1.02499, 1.02505, 1.02344, 1.02204, 1.01998, 1.02094, 1.01973, 1.01924, 1.01767, 1.0175, 1.01813, 1.01885, 1.01557, 1.01781, 1.01707, 1.01786, 1.01859, 1.019, 1.01822, 1.01341, 1.0105, 1.00919, 1.00912, 1.00961, 1.00468, 1.00462, 1.38924, 1.26427, 1.14026, 1.40825, 1.14779, 1.41615, 0.993714, 0.992429, 0.989678, 0.989958, 0.997775, 0.995348, 0.997128, 0.995486, 0.995987, 0.993789, 0.991938, 1.22992, 0.991185, 0.991562, 0.988583, 0.9849, 0.985103, 0.983707, 0.984225, 0.988711, 0.989748, 0.99221, 0.992467, 0.992517, 0.992673, 0.992261, 0.991529, 1.17068, 1.17109, 1.09944, 1.26405, 1.17917, 1.01947, 1.02088, 0.996522, 0.998711, 1.0437, 1.08352, 0.967818, 0.963782, 0.961255, 0.962018, 0.963156, 0.962889, 0.962031, 0.962691, 0.954591, 0.956037, 0.955698, 0.953139, 0.95555, 0.958828, 0.956569, 0.957981, 0.95729, 0.959009, 0.960156, 0.962756, 0.964063, 0.970958, 0.957499, 0.957315, 0.958144, 0.959886, 0.960396, 0.95792, 0.957663, 0.95901, 0.962362, 0.957793, 0.9551, 0.954773, 0.952109, 0.952736, 0.953386, 0.95147, 0.95275, 0.954617, 0.953154, 0.956134, 0.957179, 0.957204, 0.95497, 0.95657, 0.955742, 0.956604, 0.955266, 0.957842, 0.955156, 0.956939, 0.957397, 0.958799, 0.960345, 0.959552, 0.954314, 0.955971, 0.956619, 0.95789, 0.958535, 0.959079, 0.958958, 0.957603
1.37906, 1.32575, 1.32215, 1.37468, 1.27487, 1.29242, 1.34332, 1.27781, 1.27931, 1.31999, 1.19937, 1.1996, 1.20097, 1.24394, 1.15662, 1.15641, 1.15697, 1.15179, 1.15058, 1.14826, 1.14652, 1.14585, 1.14654, 1.14546, 1.13903, 1.13982, 1.20278, 1.13656, 1.13587, 1.13085, 1.12985, 1.13033, 1.12957, 1.12675, 1.12382, 1.12298, 1.12006, 1.12, 1.11982, 1.11985, 1.12191, 1.12136, 1.12065, 1.12155, 1.12013, 1.12056, 1.11541, 1.1151, 1.11647, 1.11697, 1.12158, 1.12027, 1.11896, 1.10582, 1.1033, 1.10082, 1.10103, 1.10412, 1.10129, 1.10119, 1.16528, 1.18431, 1.28003, 1.28501, 1.28757, 1.3948, 1.25737, 1.29295, 1.29923, 1.28475, 1.34142, 1.36741, 1.14287, 1.4411, 1.42833, 1.43021, 1.45035, 1.45456, 1.21874, 1.21615, 1.24763, 1.22939, 1.09126, 1.08528, 1.08109, 1.07823, 1.07747, 1.07396, 1.07388, 1.06079, 1.06083, 1.05754, 1.05631, 1.05417, 1.05191, 1.05152, 1.04954, 1.04733, 1.04729, 1.04784, 1.04661, 1.04513, 1.04418, 1.04319, 1.04207, 1.04241, 1.04229, 1.04168, 1.04097, 1.04002, 1.03631, 1.03833, 1.03803, 1.03791, 1.03773, 1.03081, 1.02999, 1.03314, 1.03138, 1.03191, 1.03248, 1.0295, 1.02594, 1.02199, 1.02221, 1.02953, 1.03173, 1.03192, 1.03264, 1.03238, 1.03482, 1.03529, 1.0353, 1.03626, 1.02862, 1.02859, 1.02578, 1.02598, 1.02632, 1.02416, 1.02199, 1.0213, 1.02013, 1.01871, 1.02094, 1.02185, 1.02409, 1.02372, 1.02417, 1.02416, 1.02226, 1.02183, 1.02043, 1.01936, 1.01737, 1.01585, 1.01827, 1.01853, 1.17578, 1.01666, 1.01213, 1.25162, 1.00783, 1.00697, 1.00447, 0.999187, 0.999701, 0.998247, 0.997583, 0.997607, 0.993576, 0.988787, 0.988887, 1.31885, 0.993205, 0.994103, 0.993004, 0.991158, 0.989375, 0.987331, 0.987027, 0.98815, 0.989727, 0.984869, 0.983771, 0.983995, 1.32031, 0.990876, 0.993006, 0.992895, 0.992777, 0.992362, 1.37162, 1.46086, 1.16924, 0.961165, 0.965972, 0.96777, 0.968783, 0.968321, 0.970014, 0.970104, 0.968158, 0.968882, 0.968179, 0.969907, 0.967813, 0.964778, 0.961994, 0.96217, 0.963665, 0.963535, 0.963166, 0.964113, 0.952895, 0.95401, 0.961915, 0.961911, 0.961406, 0.961214, 0.960752, 0.960989, 0.959304, 0.958692, 0.959373, 0.960479, 0.956242, 0.959245, 0.959298, 0.959504, 0.958482, 0.958125, 0.96018, 0.960396, 0.960666, 0.959573, 0.961001, 0.960569, 1.37588, 1.19446, 0.952382, 0.953079, 0.95306, 0.954066, 0.954991, 0.955143, 0.958077, 0.958083, 0.958913, 0.957847, 0.958162, 0.958255, 0.959031, 0.958442, 0.959938, 0.958662, 0.959173, 0.959659, 0.956923, 0.960222, 0.964011, 0.965488, 0.957162, 0.959891, 0.961235, 0.95841, 0.95861, 0.957358, 0.957678, 0.956298
1.33281, 1.27836, 1.27804, 1.27943, 1.28044, 1.28027, 1.27846, 1.29179, 1.30178, 1.20399, 1.20402, 1.19355, 1.19612, 1.25865, 1.15173, 1.15225, 1.15264, 1.1512, 1.14953, 1.14615, 1.1449, 1.1462, 1.14618, 1.1464, 1.13985, 1.13812, 1.13996, 1.13895, 1.13568, 1.13404, 1.13118, 1.13149, 1.13144, 1.20302, 1.30001, 1.11509, 1.11488, 1.11491, 1.11592, 1.27183, 1.12087, 1.12225, 1.1229, 1.12313, 1.12557, 1.12965, 1.1303, 1.34134, 1.14544, 1.12219, 1.12193, 1.11651, 1.11368, 1.10663, 1.10649, 1.10183, 1.24081, 1.15021, 1.20658, 1.13879, 1.27168, 1.1377, 1.15094, 1.15358, 1.1651, 1.37228, 1.16261, 1.16657, 1.16197, 1.15816, 1.15712, 1.1815, 1.23465, 1.14479, 1.14989, 1.14948, 1.26462, 1.06354, 1.11099, 1.26725, 1.3326, 1.30619, 1.30589, 1.08774, 1.07975, 1.07752, 1.0741, 1.07366, 1.07197, 1.07252, 1.45725, 1.05692, 1.05741, 1.05572, 1.05366, 1.05225, 1.05051, 1.05272, 1.05113, 1.05148, 1.04634, 1.04592, 1.04621, 1.04561, 1.04569, 1.0456, 1.04353, 1.04629, 1.04104, 1.04005, 1.04022, 1.03801, 1.03925, 1.03895, 1.02963, 1.02928, 1.46797, 1.03937, 1.02291, 1.03336, 1.03635, 1.02122, 1.02321, 1.02303, 1.03211, 1.03154, 1.03206, 1.03166, 1.03175, 1.03109, 1.03079, 1.03276, 1.03311, 1.03346, 1.03282, 1.03, 1.02708, 1.02882, 1.03009, 1.02567, 1.02424, 1.02301, 1.02492, 1.02302, 1.02428, 1.02331, 1.0229, 1.02261, 1.0234, 1.02183, 1.02171, 1.02054, 1.02056, 1.0185, 1.01832, 1.01844, 1.01919, 1.01923, 1.49314, 1.01183, 1.00919, 1.01004, 1.00556, 1.00515, 1.00458, 1.00323, 1.00348, 0.998101, 0.996074, 0.995306, 0.99465, 0.994059, 0.988752, 0.984738, 0.98563, 0.991742, 0.991557, 0.990684, 0.986688, 0.98929, 0.989295, 0.988706, 0.98858, 0.988813, 0.988899, 1.45322, 1.45231, 1.12156, 0.991725, 0.99399, 1.2268, 1.31543, 0.973538, 0.969951, 0.969603, 0.962688, 0.963595, 0.969635, 0.970612, 0.971093, 0.970004, 0.970096, 0.967083, 0.967741, 0.967852, 0.970486, 0.967486, 0.966619, 0.967844, 0.969414, 0.966449, 0.966314, 0.966218, 0.96635, 0.963708, 0.963232, 0.964183, 0.963638, 0.963139, 0.962963, 0.962529, 0.960652, 0.960085, 0.958549, 0.958584, 1.4856, 0.955944, 0.958278, 0.958591, 0.956724, 0.959665, 0.958745, 0.959616, 0.960168, 0.95853, 0.959396, 0.960626, 0.961554, 0.962769, 0.9628, 0.962953, 1.34034, 1.34806, 0.957362, 0.954026, 0.95713, 0.957766, 0.958354, 0.959452, 0.959443, 0.959995, 0.958718, 0.959656, 0.96073, 0.959548, 0.95923, 0.958507, 0.962991, 0.964521, 0.964334, 0.966142, 0.968851, 0.956716, 0.964412, 1.31993, 1.32173, 1.33157, 0.956925, 0.95742, 0.957324
1.2756, 1.27817, 1.27553, 1.27539, 1.27725, 1.27587, 1.28286, 1.27624, 1.38192, 1.3085, 1.34989, 1.22019, 1.36279, 1.24878, 1.15385, 1.15296, 1.15225, 1.15125, 1.14626, 1.14535, 1.14398, 1.14259, 1.14577, 1.14508, 1.14141, 1.13921, 1.14161, 1.1418, 1.13357, 1.13298, 1.12698, 1.12619, 1.12687, 1.17686, 1.20697, 1.1485, 1.11625, 1.11635, 1.11505, 1.11961, 1.12007, 1.12267, 1.12225, 1.12236, 1.1251, 1.12698, 1.13061, 1.13038, 1.13224, 1.16099, 1.16556, 1.11784, 1.1152, 1.10975, 1.17429, 1.27916, 1.15423, 1.14693, 1.15388, 1.15276, 1.15329, 1.15614, 1.15494, 1.17569, 1.16873, 1.42004, 1.20141, 1.21895, 1.43964, 1.3853, 1.33146, 1.26189, 1.43467, 1.06094, 1.06323, 1.0651, 1.06084, 1.06053, 1.06163, 1.30563, 1.09141, 1.47146, 1.0971, 1.39035, 1.07671, 1.078, 1.07784, 1.07437, 1.06542, 1.0638, 1.05061, 1.08796, 1.09076, 1.05635, 1.05802, 1.05768, 1.05826, 1.05739, 1.05909, 1.05943, 1.05487, 1.04808, 1.04627, 1.04597, 1.04361, 1.04328, 1.04419, 1.04462, 1.04193, 1.04193, 1.0422, 1.04032, 1.03936, 1.0392, 1.03838, 1.02288, 1.02346, 1.0242, 1.02576, 1.02622, 1.02498, 1.02453, 1.02382, 1.03295, 1.03323, 1.03509, 1.03324, 1.03322, 1.03341, 1.03285, 1.03189, 1.03169, 1.03209, 1.03347, 1.03221, 1.03289, 1.03313, 1.03233, 1.03198, 1.03074, 1.3638, 1.02647, 1.02413, 1.0249, 1.02507, 1.02539, 1.02336, 1.02312, 1.02239, 1.02294, 1.02246, 1.01981, 1.01913, 1.0193, 1.01875, 1.01817, 1.01753, 1.01849, 1.01374, 1.00592, 1.00895, 1.01094, 1.01064, 1.00581, 1.00423, 1.00287, 1.00333, 1.0021, 0.994819, 0.994978, 0.993795, 0.992512, 0.991643, 0.991129, 0.984755, 0.98735, 0.988842, 0.988448, 0.988784, 0.989662, 0.989971, 0.986396, 0.991739, 0.989891, 0.988059, 1.14102, 1.10987, 1.08667, 1.08779, 1.08435, 1.23012, 0.970398, 0.970129, 0.97125, 0.972148, 0.972857, 0.973257, 0.973439, 0.973319, 0.971515, 0.970894, 0.969921, 1.23157, 1.23656, 1.6031, 1.26693, 0.973285, 0.972572, 0.97116, 0.967967, 0.967791, 0.966745, 0.966454, 0.9645, 0.963629, 0.964072, 0.963391, 0.962806, 0.962888, 0.963059, 0.963568, 0.948069, 1.51751, 1.51311, 0.949166, 0.946008, 0.945652, 0.956786, 0.957887, 0.956791, 0.958635, 0.959901, 0.960498, 0.96024, 0.959684, 0.959687, 0.959791, 0.961035, 0.962142, 0.962305, 0.962478, 0.963625, 0.96566, 0.962689, 0.959406, 0.957185, 0.966372, 0.962706, 0.962531, 0.963358, 0.965959, 0.965803, 0.963497, 0.962174, 0.967085, 0.965257, 0.965811, 0.963152, 0.966055, 0.965556, 0.966924, 0.968409, 0.966371, 0.967503, 0.967956, 0.968223, 0.969856, 0.970498, 0.970736, 0.971139
1.26697, 1.26863, 1.26792, 1.27404, 1.27128, 1.26927, 1.26974, 1.27303, 1.27822, 1.30141, 1.22952, 1.23005, 1.34424, 1.16876, 1.16799, 1.1547, 1.1538, 1.1467, 1.14607, 1.14442, 1.14366, 1.14186, 1.14061, 1.14462, 1.14327, 1.14288, 1.1426, 1.14253, 1.13545, 1.13251, 1.12767, 1.12582, 1.12578, 1.12216, 1.12338, 1.12288, 1.12203, 1.12062, 1.11883, 1.11772, 1.11826, 1.12079, 1.12056, 1.12167, 1.12167, 1.12948, 1.12968, 1.13018, 1.13189, 1.13386, 1.13548, 1.16729, 1.17103, 1.16133, 1.16152, 1.19069, 1.42339, 1.1494, 1.2589, 1.26022, 1.15695, 1.16206, 1.16112, 1.17002, 1.17211, 1.17445, 1.17469, 1.21243, 1.22616, 1.23639, 1.25177, 1.20126, 1.20908, 1.06304, 1.06355, 1.06668, 1.0662, 1.06001, 1.05967, 1.30807, 1.26464, 1.50952, 1.52974, 1.08449, 1.07786, 1.07754, 1.07802, 1.05493, 1.05384, 1.05641, 1.05404, 1.054, 1.05469, 1.05398, 1.0506, 1.05686, 1.05564, 1.05645, 1.05744, 1.05826, 1.057, 1.05299, 1.0478, 1.0459, 1.04521, 1.04512, 1.04302, 1.04282, 1.0433, 1.0441, 1.04112, 1.04201, 1.04211, 1.0424, 1.03235, 1.02393, 1.02326, 1.04423, 1.02703, 1.02668, 1.04132, 1.03977, 1.03465, 1.03531, 1.03526, 1.03534, 1.03671, 1.03428, 1.03418, 1.03521, 1.03219, 1.03394, 1.03361, 1.03343, 1.03119, 1.03255, 1.03446, 1.03414, 1.03359, 1.05594, 1.27833, 1.25165, 1.03341, 1.02347, 1.02536, 1.02597, 1.02563, 1.02691, 1.02516, 1.02322, 1.02148, 1.02148, 1.02098, 1.02042, 1.01989, 1.01862, 1.1802, 1.01119, 1.01172, 1.01088, 1.00979, 1.01127, 1.01167, 1.01089, 1.26442, 1.00964, 1.00925, 1.00575, 1.00492, 0.99552, 0.9961, 0.992478, 0.992455, 0.992041, 0.994373, 0.98848, 0.989629, 0.991856, 0.992632, 0.990501, 0.988705, 0.986996, 0.986118, 0.98639, 1.06343, 0.976858, 1.15375, 1.17418, 0.973907, 0.9746, 0.973116, 0.970559, 1.14286, 0.974164, 0.974348, 0.973355, 0.974396, 1.45039, 1.20799, 1.11426, 0.978765, 0.980229, 0.981165, 0.980134, 0.978582, 0.976491, 0.974211, 0.973205, 0.968804, 0.966671, 0.968374, 0.96771, 0.967596, 0.963105, 0.961929, 0.963172, 0.963272, 0.962847, 0.962998, 0.963133, 0.962846, 0.949003, 0.947152, 0.946116, 0.946073, 0.946933, 1.45016, 1.12297, 0.961867, 0.960892, 0.962806, 0.962754, 0.963288, 0.963392, 0.963724, 0.964333, 0.961197, 0.961347, 0.961231, 0.960768, 0.961493, 0.966441, 0.966518, 0.966229, 0.966715, 0.966311, 0.96605, 0.966043, 0.965402, 0.966309, 0.966229, 0.966113, 0.966312, 0.966071, 0.96805, 0.965008, 0.961813, 0.963438, 0.966252, 0.966661, 0.966806, 0.967249, 0.964322, 0.964077, 0.965204, 0.96692, 0.967956, 0.969058, 0.969736, 0.969994
1.3401, 1.31362, 1.39308, 1.26511, 1.26719, 1.26531, 1.26726, 1.25396, 1.2772, 1.27278, 1.28575, 1.24091, 1.28414, 1.16862, 1.1677, 1.16496, 1.15673, 1.14748, 1.14523, 1.14446, 1.14496, 1.14248, 1.14121, 1.14013, 1.14474, 1.14484, 1.14519, 1.14292, 1.14082, 1.13356, 1.12879, 1.12515, 1.12516, 1.1232, 1.12328, 1.1224, 1.12226, 1.12205, 1.11614, 1.11703, 1.11724, 1.11863, 1.11906, 1.11918, 1.12011, 1.12061, 1.12289, 1.11976, 1.11968, 1.13432, 1.13599, 1.13632, 1.15416, 1.15961, 1.15867, 1.16333, 1.15123, 1.15503, 1.15565, 1.16311, 1.17436, 1.17314, 1.17237, 1.17428, 1.17429, 1.17451, 1.17538, 1.28835, 1.27732, 1.33736, 1.14357, 1.21229, 1.28334, 1.0665, 1.06803, 1.06815, 1.06195, 1.05797, 1.05722, 1.05756, 1.05785, 1.05611, 1.05391, 1.05736, 1.43599, 1.2914, 1.05099, 1.05599, 1.05625, 1.05451, 1.05636, 1.05425, 1.05374, 1.05501, 1.053, 1.05256, 1.05302, 1.05296, 1.05291, 1.05282, 1.05519, 1.05236, 1.04788, 1.04675, 1.04677, 1.04412, 1.04361, 1.04319, 1.0439, 1.04361, 1.04526, 1.0444, 1.04345, 1.04335, 1.04454, 1.34381, 1.04556, 1.44119, 1.04275, 1.04203, 1.04159, 1.03328, 1.03416, 1.03888, 1.03831, 1.03831, 1.03769, 1.03688, 1.03575, 1.03604, 1.03521, 1.03418, 1.03452, 1.03311, 1.03288, 1.03299, 1.0359, 1.03493, 1.03308, 1.03362, 1.03304, 1.26147, 1.04063, 1.02939, 1.02834, 1.02849, 1.02847, 1.02788, 1.02844, 1.02785, 1.02152, 1.02181, 1.02144, 1.02081, 1.02061, 1.00975, 1.0092, 1.01366, 1.0113, 1.01018, 1.01185, 1.0134, 1.01704, 1.01684, 1.01704, 1.14382, 1.17862, 1.16055, 1.16564, 1.17072, 0.998019, 1.00051, 1.00061, 1.38506, 0.9922, 0.994223, 0.991235, 0.992156, 0.992017, 0.991715, 1.05617, 0.986097, 0.986127, 0.982814, 0.984374, 0.97034, 0.974325, 0.97598, 0.975815, 0.975107, 0.973397, 1.13997, 0.978976, 0.978917, 0.976771, 1.2915, 0.981096, 0.980821, 0.98101, 0.9805, 0.980244, 0.978208, 0.980293, 0.979322, 0.978706, 0.976026, 0.974873, 0.975274, 0.973252, 0.969527, 0.969195, 0.969702, 0.964325, 0.963179, 0.963122, 0.964194, 0.964135, 0.962925, 0.962298, 0.96274, 0.96305, 0.962898, 1.18059, 1.4345, 1.45845, 1.43713, 1.44905, 0.963622, 0.963453, 0.964147, 0.964236, 0.963888, 0.96376, 0.962773, 0.963465, 0.963192, 0.962938, 0.95932, 0.963135, 0.969025, 0.971083, 0.970354, 0.966395, 0.966739, 0.966236, 0.965045, 0.96769, 0.969007, 0.968114, 0.967469, 0.967962, 0.967552, 0.967812, 0.967121, 0.968009, 0.961209, 0.963185, 0.963604, 0.963998, 0.964293, 0.966244, 0.961808, 0.9611, 0.962844, 0.964438, 0.963685, 0.964862, 0.970514, 0.970841, 0.965195
1.2713, 1.40269, 1.25482, 1.26062, 1.26067, 1.2613, 1.25702, 1.25698, 1.25676, 1.25533, 1.2846, 1.32498, 1.33532, 1.3441, 1.16911, 1.17006, 1.16003, 1.14664, 1.14606, 1.14528, 1.14649, 1.14644, 1.14779, 1.14033, 1.13994, 1.14594, 1.14669, 1.14714, 1.1495, 1.13735, 1.13317, 1.12649, 1.12568, 1.12577, 1.12392, 1.12265, 1.12213, 1.12029, 1.11591, 1.11541, 1.11573, 1.11675, 1.11831, 1.11834, 1.11977, 1.12, 1.11786, 1.11858, 1.12075, 1.12523, 1.13258, 1.13295, 1.13375, 1.14426, 1.42978, 1.15616, 1.16048, 1.16282, 1.16434, 1.17196, 1.17395, 1.17696, 1.1771, 1.17593, 1.17569, 1.22263, 1.23369, 1.15973, 1.13364, 1.13277, 1.30559, 1.30316, 1.33135, 1.07329, 1.06944, 1.06339, 1.05658, 1.05538, 1.05597, 1.05606, 1.05599, 1.05671, 1.05474, 1.05524, 1.05834, 1.05842, 1.05692, 1.05635, 1.05614, 1.05676, 1.05934, 1.05986, 1.05809, 1.05749, 1.05633, 1.05538, 1.05569, 1.05543, 1.05483, 1.05354, 1.05296, 1.05166, 1.05158, 1.05068, 1.04966, 1.04256, 1.04647, 1.04559, 1.04557, 1.0457, 1.04607, 1.0414, 1.04475, 1.04474, 1.04306, 1.04343, 1.0427, 1.04276, 1.04292, 1.04241, 1.04067, 1.04034, 1.04067, 1.04122, 1.04104, 1.03968, 1.04083, 1.0369, 1.04242, 1.04243, 1.04129, 1.03983, 1.0384, 1.0387, 1.03796, 1.03773, 1.03425, 1.03397, 1.03298, 1.03258, 1.03386, 1.0345, 1.03319, 1.04009, 1.02882, 1.02822, 1.02738, 1.02599, 1.02609, 1.02371, 1.02319, 1.01972, 1.02088, 1.01977, 1.0204, 1.02024, 1.01601, 1.01529, 1.12017, 1.01811, 1.01801, 1.01704, 1.01843, 1.01699, 1.01535, 1.0135, 1.13076, 1.1328, 1.00445, 1.00193, 1.00053, 0.999577, 1.00041, 0.999208, 0.994552, 0.993858, 0.995257, 1.12417, 1.0432, 1.04524, 1.24576, 1.23619, 0.983049, 0.983491, 0.984128, 0.984115, 0.973765, 0.974167, 0.974996, 0.978637, 0.979336, 0.980806, 0.980635, 0.981408, 0.98159, 0.982447, 0.983008, 0.982238, 0.98074, 0.979765, 0.981239, 0.982158, 0.983304, 0.978069, 0.975169, 0.975951, 0.97327, 0.972855, 0.969782, 0.969919, 0.969441, 0.968401, 0.966452, 0.966174, 0.966285, 0.966064, 0.966034, 0.965704, 0.965131, 0.964473, 0.963498, 0.96262, 0.963184, 0.963619, 0.964957, 0.964605, 0.966445, 0.963223, 0.964222, 0.963624, 0.963612, 0.962253, 0.963038, 0.963042, 0.963388, 0.961967, 0.963124, 0.972811, 0.968476, 0.970055, 0.970251, 0.971019, 0.970635, 0.968335, 0.968055, 0.965698, 0.966719, 0.96782, 0.967289, 0.96754, 0.967663, 0.96813, 0.968097, 0.966971, 0.966613, 0.966282, 0.964912, 0.96427, 0.963685, 0.964391, 0.964311, 0.958661, 0.960583, 0.960578, 0.960885, 0.962287, 0.96322, 0.963253, 0.963233, 0.958955
1.22126, 1.22233, 1.2249, 1.22809, 1.23686, 1.22738, 1.22872, 1.22936, 1.23198, 1.23238, 1.23337, 1.28467, 1.17841, 1.17837, 1.16789, 1.16794, 1.15648, 1.14607, 1.14535, 1.14564, 1.14546, 1.14758, 1.14741, 1.14696, 1.14702, 1.14681, 1.14688, 1.14669, 1.14765, 1.14819, 1.13918, 1.12992, 1.12894, 1.12578, 1.1258, 1.12401, 1.12256, 1.12171, 1.11675, 1.11738, 1.11706, 1.2471, 1.11519, 1.11476, 1.11434, 1.11455, 1.11791, 1.11942, 1.12378, 1.12228, 1.13379, 1.13418, 1.13896, 1.14276, 1.14485, 1.15519, 1.2543, 1.18177, 1.1883, 1.17592, 1.17627, 1.19958, 1.22982, 1.25229, 0.0153536, 1.12917, 1.13288, 1.23169, 1.12649, 1.17416, 1.31373, 1.05731, 1.30797, 1.05976, 1.05994, 1.06046, 1.0607, 1.05654, 1.05672, 1.05641, 1.05656, 1.05659, 1.05714, 1.05779, 1.05745, 1.05857, 1.05515, 1.05546, 1.05613, 1.05649, 1.05878, 1.05776, 1.05823, 1.05841, 1.05711, 1.05662, 1.05483, 1.05601, 1.05496, 1.05476, 1.05321, 1.05367, 1.05267, 1.05095, 1.05086, 1.04976, 1.05052, 1.05025, 1.05081, 1.04689, 1.04663, 1.04472, 1.04459, 1.04454, 1.04461, 1.04427, 1.04392, 1.04337, 1.0429, 1.04156, 1.04145, 1.04264, 1.04228, 1.04092, 1.04199, 1.0422, 1.04273, 1.04194, 1.04053, 1.04, 1.03973, 1.03899, 1.03794, 1.03623, 1.03722, 1.03732, 1.03571, 1.03455, 1.0343, 1.03264, 1.03168, 1.03165, 1.03185, 1.03221, 1.0443, 1.0271, 1.02623, 1.02537, 1.02538, 1.024, 1.02285, 1.02261, 1.01834, 1.0198, 1.01914, 1.01874, 1.01847, 1.02059, 1.02183, 1.01887, 1.01797, 1.01812, 1.28573, 1.31721, 1.16889, 1.16842, 1.17955, 1.17924, 1.47802, 1.48503, 1.20362, 0.999802, 1.20241, 1.12686, 1.12695, 1.12663, 1.12668, 1.23092, 1.01502, 0.984016, 0.981719, 0.981434, 1.24571, 0.983951, 0.984235, 0.99549, 0.981836, 0.98385, 0.980656, 0.979746, 0.979344, 0.979153, 0.979364, 0.980587, 0.981893, 0.98259, 0.982597, 0.982631, 0.981926, 1.37433, 0.97817, 0.978838, 0.97776, 0.974201, 0.972517, 0.972498, 0.973072, 0.972583, 0.968916, 0.970222, 0.969941, 1.36791, 1.26215, 0.967008, 0.965684, 0.965212, 0.965078, 0.965224, 0.96452, 0.964162, 0.961944, 0.961466, 0.963283, 0.964182, 0.963837, 0.964693, 0.966203, 0.966027, 0.965263, 0.965293, 0.966065, 0.963937, 0.965397, 0.96658, 0.966637, 0.966677, 0.966789, 1.10241, 1.07285, 0.968903, 0.970351, 0.969883, 0.968871, 0.967844, 0.966478, 0.966464, 0.967095, 0.967639, 0.966447, 0.96639, 0.967485, 0.967459, 0.968366, 0.967826, 0.9678, 0.967172, 0.966179, 0.964368, 0.963305, 0.963032, 0.962664, 0.959699, 0.958087, 0.962735, 0.962275, 0.962325, 0.961121, 0.961687, 0.961523, 0.962794
1.22553, 1.226, 1.228, 1.343, 1.23329, 1.23391, 1.23331, 1.23346, 1.23564, 1.23502, 1.2344, 1.29765, 1.18501, 1.16691, 1.16724, 1.16153, 1.1579, 1.14864, 1.13284, 1.13278, 1.13281, 1.13698, 1.13705, 1.13903, 1.13924, 1.14513, 1.19945, 1.14792, 1.14739, 1.14702, 1.15412, 1.13263, 1.13246, 1.12867, 1.12753, 1.12817, 1.12334, 1.12263, 1.12417, 1.10873, 1.10805, 1.10813, 1.10827, 1.11171, 1.11469, 1.11539, 1.27575, 1.12374, 1.1247, 1.12884, 1.13228, 1.13775, 1.3817, 1.14637, 1.14852, 1.65933, 1.54246, 1.5624, 1.57283, 1.88078, 1.61478, 0.00458608, 0.0044901, 1.12286, 0.00452461, 1.27817, 1.2782, 1.06293, 1.06106, 1.06168, 1.06063, 1.05958, 1.05977, 1.05935, 1.06054, 1.06303, 1.06326, 1.06139, 1.05929, 1.0593, 1.05896, 1.05749, 1.05753, 1.05697, 1.05731, 1.05638, 1.06009, 1.05662, 1.05651, 1.05644, 1.05588, 1.05669, 1.05763, 1.05792, 1.05802, 1.05779, 1.05655, 1.05606, 1.05618, 1.05623, 1.05524, 1.05419, 1.05519, 1.05355, 1.05275, 1.05049, 1.0506, 1.05089, 1.05166, 1.05139, 1.38523, 1.04641, 1.04666, 1.0457, 1.04572, 1.04559, 1.04391, 1.04345, 1.04383, 1.0446, 1.04698, 1.04638, 1.04128, 1.04321, 1.04343, 1.04278, 1.04317, 1.04311, 1.04353, 1.04308, 1.04225, 1.04113, 1.03929, 1.03702, 1.03676, 1.0356, 1.03417, 1.03156, 1.03141, 1.03085, 1.03047, 1.03225, 1.03232, 1.03268, 1.02774, 1.02804, 1.02405, 1.02446, 1.0252, 1.02268, 1.02231, 1.02062, 1.01608, 1.0158, 1.01757, 1.01844, 1.01879, 1.01895, 1.01978, 1.0203, 1.51226, 1.28413, 1.28748, 1.28472, 1.29113, 1.34955, 1.17917, 1.18361, 1.32087, 1.1925, 1.19474, 1.12372, 0.992445, 1.20583, 1.20545, 0.985641, 0.984643, 0.980171, 0.97371, 0.980604, 0.980924, 0.982232, 0.993395, 0.987105, 0.987278, 0.987062, 0.986389, 0.985486, 1.28809, 0.979924, 0.979741, 1.11516, 1.11872, 0.979368, 0.980806, 0.981718, 0.982605, 1.61784, 0.975913, 0.976323, 0.976675, 0.977363, 0.974721, 0.974527, 0.97213, 0.973661, 1.47046, 1.4752, 1.35519, 1.45799, 1.48836, 1.43622, 1.49846, 1.50078, 1.44715, 1.50964, 1.51121, 1.43711, 1.52146, 1.52587, 0.961988, 0.960296, 0.960918, 0.960682, 0.961064, 0.963141, 0.965247, 0.964989, 0.964336, 0.963666, 0.962641, 0.961057, 0.963041, 0.963891, 0.964424, 0.963576, 0.962716, 1.17798, 1.52356, 0.967574, 0.966825, 0.967169, 0.965949, 0.966344, 0.966792, 0.966563, 0.965404, 0.966795, 0.966808, 0.965862, 0.967356, 0.966786, 0.966674, 0.966712, 0.96654, 0.965586, 0.965156, 0.964209, 0.963404, 0.962129, 0.962627, 0.960647, 0.956923, 0.96066, 0.961222, 0.960428, 0.959452, 0.960208, 0.960345, 0.960761
1.22731, 1.33423, 1.30206, 1.35143, 1.30868, 1.26316, 1.29309, 1.28481, 1.2166, 1.22082, 1.25183, 1.25102, 1.23602, 1.23674, 1.16797, 1.16198, 1.15359, 1.17247, 1.12804, 1.12794, 1.13528, 1.13559, 1.13575, 1.13911, 1.12574, 1.1286, 1.13084, 1.13076, 1.13366, 1.1459, 1.14594, 1.14837, 1.1198, 1.12355, 1.12416, 1.12495, 1.12303, 1.12168, 1.11882, 1.11269, 1.11102, 1.10721, 1.10769, 1.10825, 1.25683, 1.16774, 1.16637, 1.16733, 1.14659, 1.14654, 1.18808, 1.14466, 1.1438, 1.14553, 1.22418, 1.22383, 1.34986, 1.45299, 1.11669, 1.09556, 1.08781, 1.08764, 1.1043, 1.07074, 1.0708, 1.06059, 1.06088, 1.06192, 1.06285, 1.06341, 1.06292, 1.06132, 1.05977, 1.05842, 1.05723, 1.05805, 1.05948, 1.05937, 1.05973, 1.0577, 1.0568, 1.05658, 1.05663, 1.05609, 1.05741, 1.05659, 1.0572, 1.05788, 1.05806, 1.05784, 1.05755, 1.05754, 1.05691, 1.06, 1.05622, 1.05775, 1.05761, 1.05765, 1.05765, 1.05736, 1.05698, 1.05634, 1.0562, 1.05438, 1.05313, 1.0526, 1.05294, 1.05262, 1.05343, 1.05389, 1.05188, 1.04749, 1.04682, 1.0468, 1.04559, 1.04572, 1.04604, 1.04714, 1.04747, 1.04839, 1.04727, 1.04684, 1.0464, 1.04306, 1.04222, 1.04231, 1.04208, 1.04308, 1.04317, 1.04329, 1.04273, 1.03724, 1.03559, 1.03503, 1.036, 1.03193, 1.0301, 1.03077, 1.02956, 1.02949, 1.03001, 1.30234, 1.02637, 1.02508, 1.02521, 1.02253, 1.02531, 1.02236, 1.02236, 1.02125, 1.01997, 1.01656, 1.0162, 1.0182, 1.0182, 1.01771, 1.01885, 1.03016, 1.03536, 1.01495, 1.14673, 1.25664, 1.28805, 1.17778, 1.17817, 1.13855, 0.987249, 0.985582, 0.987855, 0.988286, 1.15983, 1.21882, 1.22596, 0.97967, 0.979699, 0.979065, 0.979048, 0.979924, 0.981087, 1.02903, 0.979887, 0.981173, 0.987492, 0.988032, 0.987694, 0.987306, 0.985509, 0.984831, 1.04688, 1.00277, 0.974208, 1.31859, 1.35557, 1.14085, 0.980951, 0.982327, 1.17765, 1.35439, 0.97752, 0.975531, 1.4007, 1.40251, 0.966708, 1.41422, 1.41573, 1.36818, 1.34585, 0.956761, 0.959547, 0.959756, 0.957716, 0.956995, 0.956173, 0.953671, 0.957309, 0.956562, 0.954671, 0.955302, 0.955911, 0.955896, 0.956934, 0.9566, 0.958232, 0.967314, 1.26554, 1.07147, 1.54988, 0.956092, 0.956832, 0.959439, 1.08209, 1.58856, 1.49571, 0.964305, 1.49295, 0.96296, 0.963365, 0.962812, 0.963788, 0.964513, 0.964943, 0.966131, 0.963998, 0.966303, 0.967176, 0.964306, 0.963527, 0.964177, 0.964786, 0.963963, 0.964033, 0.96413, 0.964438, 0.96705, 0.96469, 0.9645, 0.963704, 0.963359, 0.964285, 0.96061, 0.960229, 0.960926, 0.95969, 0.959449, 0.95906, 0.958221, 0.955974, 0.958035, 0.959252, 0.956546
1.33276, 1.19765, 1.19779, 1.20575, 1.26787, 1.20821, 1.21091, 1.21363, 1.21544, 1.21821, 1.21748, 1.2303, 1.24365, 1.17399, 1.36677, 1.15963, 1.16048, 1.23789, 1.12848, 1.12945, 1.13793, 1.13883, 1.13894, 1.12721, 1.12687, 1.12743, 1.13369, 1.13423, 1.13639, 1.14598, 1.14338, 1.1448, 1.12297, 1.12247, 1.12477, 1.12457, 1.12528, 1.12572, 1.11877, 1.1155, 1.11313, 1.11491, 1.11125, 1.25978, 1.25615, 1.25762, 1.16812, 1.14476, 1.14874, 1.14922, 1.14968, 1.19475, 1.14786, 1.12878, 1.13285, 1.16413, 1.1645, 1.09465, 1.09522, 1.08728, 1.08708, 1.08896, 1.07741, 1.07197, 1.06831, 1.06165, 1.06196, 1.06323, 1.06326, 1.06375, 1.06354, 1.06357, 1.06368, 1.06209, 1.06323, 1.05983, 1.05945, 1.05957, 1.0596, 1.05963, 1.0591, 1.05961, 1.05857, 1.05746, 1.05805, 1.05919, 1.0577, 1.05832, 1.05874, 1.05959, 1.05824, 1.05885, 1.05843, 1.05806, 1.05729, 1.0579, 1.05747, 1.0581, 1.05879, 1.05865, 1.05917, 1.0593, 1.05738, 1.05826, 1.05637, 1.05312, 1.05562, 1.05578, 1.05588, 1.0552, 1.05067, 1.04871, 1.04723, 1.04733, 1.04691, 1.04732, 1.04779, 1.04663, 1.04626, 1.04687, 1.04653, 1.04918, 1.04451, 1.04282, 1.04282, 1.04183, 1.04111, 1.03884, 1.03899, 1.0402, 1.03606, 1.03659, 1.03456, 1.03366, 1.03336, 1.02534, 1.02551, 1.0265, 1.02748, 1.02883, 1.02582, 1.02489, 1.02244, 1.02162, 1.02184, 1.02012, 1.02099, 1.01832, 1.01838, 1.01857, 1.01679, 1.01464, 1.01617, 1.01821, 1.10195, 1.10236, 1.01454, 1.03893, 1.04118, 1.23691, 1.1297, 1.12625, 0.985433, 0.987452, 0.980607, 0.981709, 0.987354, 0.986887, 0.986934, 0.987112, 0.980631, 0.981849, 0.981001, 0.97843, 0.978015, 0.978184, 0.978265, 0.988536, 0.989542, 1.36791, 0.990662, 0.987858, 0.986682, 0.98759, 0.988146, 0.98799, 0.98459, 0.99712, 0.988746, 0.989084, 0.97788, 0.970084, 0.970179, 0.97386, 0.975271, 1.37567, 1.37797, 1.20022, 1.41377, 0.973086, 0.96607, 0.965936, 0.965715, 0.968838, 0.969654, 0.963051, 0.961839, 0.956905, 0.957992, 0.96009, 0.958052, 0.957444, 0.957689, 0.951808, 0.957587, 0.957907, 0.953849, 0.955779, 0.957691, 0.955936, 0.954823, 0.956453, 0.955252, 0.959039, 0.959511, 0.957046, 0.957778, 0.957564, 0.95838, 0.95932, 0.957315, 0.957758, 1.3039, 1.44636, 0.957237, 0.957394, 0.957988, 0.959533, 0.961956, 0.961837, 0.963713, 0.96519, 0.964207, 0.964996, 0.960596, 0.962821, 0.965252, 0.964634, 0.964612, 0.965091, 0.961536, 0.965793, 0.966747, 0.966748, 0.965401, 0.963382, 0.962668, 0.963822, 0.963617, 0.960589, 0.959463, 0.958567, 0.958137, 0.959238, 0.957788, 0.955723, 0.957388, 0.956185, 0.955941, 0.956436
1.35852, 1.19823, 1.19847, 1.19942, 1.20291, 1.73569, 1.21146, 1.21258, 1.21564, 1.21852, 1.21918, 1.20235, 1.39973, 1.16782, 1.16353, 0.00493234, 1.1644, 1.1263, 1.12662, 1.12678, 1.13904, 1.13916, 1.14042, 1.12959, 1.13197, 1.1321, 1.13304, 1.13496, 1.13617, 1.13897, 1.14516, 1.14374, 1.18313, 1.12397, 1.12353, 1.12402, 1.11882, 1.11839, 1.11815, 1.11715, 1.12182, 1.12208, 1.12189, 1.26028, 1.2715, 1.25842, 1.31653, 1.22779, 1.2129, 1.15068, 1.15073, 1.3994, 1.40594, 1.12418, 1.12373, 1.12381, 1.0998, 1.10011, 1.08402, 1.0822, 1.08046, 1.07736, 1.06833, 1.06616, 1.06642, 1.0663, 1.06557, 1.06613, 1.06512, 1.06372, 1.06446, 1.06445, 1.06554, 1.06573, 1.06408, 1.06311, 1.05186, 1.05268, 1.06178, 1.0613, 1.05986, 1.0575, 1.05966, 1.06054, 1.0595, 1.06102, 1.05956, 1.05944, 1.05865, 1.05796, 1.06042, 1.06033, 1.05981, 1.05819, 1.0579, 1.06015, 1.0616, 1.05862, 1.06386, 1.06251, 1.06308, 1.06273, 1.06138, 1.06122, 1.05997, 1.0584, 1.06049, 1.05673, 1.05625, 1.05456, 1.05137, 1.04878, 1.04731, 1.04645, 1.04416, 1.0468, 1.04757, 1.0465, 1.04582, 1.0458, 1.04606, 1.04097, 1.04371, 1.04234, 1.04165, 1.03974, 1.03885, 1.03812, 1.03698, 1.03651, 1.03624, 1.03525, 1.03395, 1.02927, 1.02805, 1.02582, 1.0271, 1.02714, 1.02433, 1.02362, 1.02334, 1.02181, 1.019, 1.02006, 1.02011, 1.01825, 1.01624, 1.01617, 1.01418, 1.01277, 1.00905, 1.01336, 1.0916, 1.09322, 1.00981, 1.00584, 1.0994, 1.10227, 1.04693, 1.1371, 0.988665, 0.987686, 0.987102, 0.987163, 0.985685, 0.989103, 0.990764, 0.989741, 0.988365, 0.98303, 0.979834, 0.982147, 0.985116, 0.983221, 0.984106, 1.29871, 0.992441, 0.989278, 0.990263, 0.991678, 0.989628, 0.986214, 0.984833, 0.983836, 0.985032, 0.984133, 0.981432, 1.28041, 0.981848, 0.981047, 0.964137, 0.967854, 0.969521, 0.97024, 0.970112, 0.969332, 0.969712, 0.969842, 0.971627, 0.971904, 0.970452, 0.969479, 0.9721, 1.38805, 1.38489, 0.963981, 0.963978, 0.965238, 0.963608, 0.963462, 0.963013, 0.960878, 0.962745, 0.960637, 0.959576, 0.958813, 0.958297, 0.957425, 0.958564, 0.959359, 0.954844, 0.955512, 0.956001, 0.956139, 0.956413, 0.95605, 0.956645, 0.957326, 0.95782, 0.95853, 0.958669, 0.959232, 0.957137, 0.956454, 0.957727, 0.959573, 0.957198, 0.959418, 0.96114, 0.962577, 0.964059, 0.963811, 0.964408, 0.964367, 0.964945, 0.962176, 0.963669, 0.964444, 0.963965, 0.962517, 0.966327, 0.964566, 0.966756, 0.963087, 0.963403, 0.963512, 0.960919, 0.963031, 0.963246, 0.954215, 0.956459, 0.956015, 0.956541, 0.956259, 0.956843, 0.955648, 0.955626, 0.955007, 0.95539, 0.953808
1.25152, 1.19818, 1.19507, 1.20254, 1.20411, 1.20528, 1.26577, 1.2133, 1.21774, 1.21894, 1.21913, 1.3327, 1.3034, 1.16522, 1.16511, 1.17025, 1.16317, 1.16756, 1.23455, 1.13475, 1.13511, 1.13445, 1.13382, 1.13498, 1.13573, 1.13268, 1.16027, 1.21378, 1.22203, 1.22292, 1.16897, 1.16047, 1.16214, 1.2612, 1.12161, 1.11835, 1.11701, 1.1178, 1.11823, 1.12069, 1.12107, 1.12276, 1.12297, 1.11295, 1.1098, 1.27151, 1.21289, 1.34828, 1.24281, 1.35832, 1.2843, 1.26054, 1.15329, 1.12496, 1.12497, 1.12488, 1.09449, 1.18931, 1.0885, 1.08031, 1.07699, 1.06836, 1.06697, 1.0662, 1.06619, 1.06623, 1.06654, 1.06755, 1.06667, 1.06695, 1.06716, 1.06564, 1.06667, 1.06575, 1.06599, 1.06539, 1.05444, 1.0556, 1.06374, 1.06338, 1.06405, 1.06415, 1.06321, 1.06313, 1.06161, 1.06158, 1.06171, 1.06321, 1.0619, 1.06163, 1.06178, 1.06072, 1.05845, 1.05803, 1.06347, 1.06428, 1.06445, 1.06384, 1.0639, 1.06323, 1.06271, 1.06085, 1.0607, 1.05987, 1.05923, 1.05717, 1.05839, 1.05467, 1.05451, 1.05201, 1.05184, 1.04929, 1.04693, 1.04625, 1.04439, 1.04465, 1.04455, 1.04602, 1.04254, 1.04211, 1.04123, 1.04091, 1.03968, 1.03946, 1.03954, 1.03988, 1.03664, 1.03749, 1.03626, 1.03538, 1.03388, 1.0321, 1.03303, 1.02945, 1.02626, 1.02539, 1.02539, 1.02499, 1.02493, 1.02556, 1.02366, 1.02121, 1.01909, 1.02087, 1.02167, 1.47115, 1.01674, 1.01648, 1.0166, 1.01358, 1.01323, 1.01201, 1.01108, 1.01106, 1.00786, 1.00359, 1.00274, 1.00285, 1.00186, 0.991416, 0.989965, 0.987959, 0.990633, 0.994911, 0.995111, 0.991428, 0.9917, 0.98867, 0.986821, 0.987811, 0.988379, 0.984145, 0.984921, 0.981943, 0.981766, 1.12532, 1.26238, 0.990538, 0.99071, 0.990133, 0.990769, 0.986292, 0.985073, 0.981541, 0.983115, 0.983335, 0.978551, 0.973179, 0.972979, 0.970148, 0.969756, 0.967347, 1.16154, 0.969086, 0.968738, 0.970362, 0.970934, 0.969446, 0.970206, 0.971, 0.971355, 0.973225, 0.973337, 0.973235, 0.969597, 0.969447, 0.963221, 0.964037, 0.963436, 0.963714, 0.963869, 0.962661, 0.959531, 0.959099, 0.959095, 0.957842, 0.957668, 0.956837, 0.956668, 0.957509, 0.958437, 0.955815, 0.955826, 0.955927, 0.954413, 0.955929, 0.9569, 0.956363, 0.958094, 0.957103, 0.955568, 0.956386, 0.956126, 0.956524, 0.9566, 0.957566, 0.958206, 0.959851, 0.959831, 0.959849, 0.961579, 0.963085, 0.962731, 0.962867, 0.962045, 0.964739, 0.963146, 0.9622, 0.964592, 0.963568, 0.962004, 0.964549, 0.958876, 0.959693, 0.960396, 0.960896, 0.960968, 0.961318, 0.958744, 0.955192, 0.956757, 0.95718, 0.956241, 0.953577, 0.953722, 0.953747, 0.951788, 0.952984, 0.953544, 0.954393
1.18374, 1.2329, 1.18764, 1.20119, 1.20134, 1.19933, 1.20049, 1.21533, 1.24776, 1.22536, 1.22492, 1.30308, 1.29151, 1.16907, 1.16734, 1.16624, 1.19783, 1.2287, 1.13539, 1.22093, 1.17132, 1.27514, 1.13513, 1.13298, 1.13342, 1.13303, 1.11837, 1.1181, 1.11855, 1.12032, 1.2017, 1.12274, 1.1224, 1.12204, 1.12132, 1.11851, 1.11809, 1.11765, 1.11689, 1.11863, 1.11495, 1.1117, 1.10882, 1.10747, 1.10606, 1.10517, 1.10524, 1.10622, 1.10694, 1.3583, 1.35775, 1.10725, 1.11163, 1.24673, 1.16049, 1.12021, 1.15722, 1.09179, 1.37791, 1.07577, 1.07181, 1.07062, 1.07091, 1.06855, 1.06717, 1.06788, 1.06895, 1.06889, 1.06795, 1.06737, 1.06741, 1.06436, 1.06468, 1.06559, 1.06535, 1.0647, 1.06485, 1.0646, 1.0633, 1.06293, 1.06316, 1.0637, 1.06475, 1.06644, 1.06559, 1.06397, 1.06351, 1.06421, 1.06506, 1.06153, 1.06161, 1.06646, 1.06467, 1.05962, 1.06403, 1.06493, 1.06415, 1.06392, 1.06457, 1.06424, 1.06355, 1.06302, 1.06158, 1.0607, 1.05933, 1.05773, 1.05696, 1.05633, 1.05626, 1.05125, 1.07304, 1.05056, 1.04788, 1.0466, 1.04456, 1.04343, 1.04307, 1.04386, 1.04264, 1.04248, 1.03929, 1.038, 1.03762, 1.03872, 1.03844, 1.03741, 1.03662, 1.03605, 1.03528, 1.03512, 1.03527, 1.03344, 1.03245, 1.02969, 1.0302, 1.02886, 1.02634, 1.02285, 1.02223, 1.02232, 1.02289, 1.0173, 1.01586, 1.01491, 1.018, 1.01813, 1.01557, 1.0155, 1.01525, 1.01157, 1.01269, 1.01115, 1.00806, 1.00781, 1.00893, 1.00964, 1.01128, 1.00261, 1.24711, 1.28583, 1.229, 1.22866, 1.00026, 0.995404, 1.44567, 0.992562, 0.991702, 0.989451, 1.34998, 0.996351, 0.993969, 0.99889, 0.988809, 0.977453, 0.977548, 0.976257, 1.09265, 0.98839, 0.990351, 0.99045, 0.988524, 0.98696, 0.983945, 0.984286, 0.981385, 0.979961, 0.979855, 0.979421, 0.972081, 0.969954, 0.969646, 0.969359, 0.9634, 0.964782, 0.967858, 0.969075, 0.969921, 0.970677, 0.970438, 0.970362, 0.972075, 0.972624, 0.97296, 0.972793, 0.970574, 0.964586, 0.9656, 1.27504, 0.963716, 0.962426, 0.962613, 0.962395, 0.957776, 0.958111, 0.957328, 0.956376, 0.954232, 0.956138, 0.956617, 0.956934, 0.956591, 0.955736, 0.955874, 0.954662, 0.954167, 0.954209, 0.954938, 0.955989, 0.955332, 0.956146, 0.956331, 0.9546, 0.954364, 0.955821, 0.956002, 0.955071, 0.956216, 0.956759, 0.957805, 0.958149, 0.960215, 0.960387, 0.960768, 0.959563, 0.963274, 0.963305, 0.963096, 0.962254, 0.96368, 0.962826, 0.961636, 0.963215, 0.963064, 0.95745, 0.960793, 0.963586, 0.960707, 1.24003, 0.956876, 0.954334, 0.956498, 0.952716, 0.952918, 0.954344, 0.95266, 0.952576, 0.952324, 0.95279, 0.95048, 0.949376
1.1827, 1.1802, 1.18111, 1.75244, 1.19932, 1.19952, 1.20242, 1.39455, 1.22225, 1.2252, 1.22559, 1.24469, 1.51995, 1.17276, 1.17353, 1.16804, 1.1601, 1.15596, 1.15384, 1.15395, 1.15071, 1.15057, 1.14987, 1.14224, 1.14254, 1.14334, 1.56761, 1.16099, 1.16835, 1.12289, 1.12291, 1.12346, 1.12251, 1.12474, 1.12536, 1.12555, 1.12062, 1.11535, 1.11749, 1.11083, 1.1112, 1.11075, 1.10943, 1.11016, 1.10743, 1.10814, 1.10865, 1.10758, 1.27319, 1.11032, 1.11174, 1.11128, 1.11109, 1.11163, 1.10682, 1.10673, 1.12771, 1.28777, 1.08331, 1.08067, 1.07845, 1.07704, 1.0736, 1.07395, 1.06572, 1.06759, 1.06788, 1.06772, 1.06735, 1.06818, 1.06707, 1.06646, 1.06657, 1.06628, 1.06641, 1.06383, 1.06479, 1.06503, 1.06323, 1.06384, 1.06366, 1.06288, 1.0628, 1.06653, 1.07734, 1.06782, 1.06828, 1.06768, 1.06852, 1.06685, 1.0671, 1.06689, 1.06531, 1.06709, 1.06667, 1.06616, 1.06229, 1.06464, 1.06422, 1.06404, 1.06332, 1.0629, 1.06091, 1.05837, 1.05942, 1.05936, 1.05814, 1.05798, 1.05613, 1.05489, 1.05435, 1.05261, 1.05618, 1.04733, 1.04612, 1.04512, 1.04297, 1.04227, 1.04231, 1.04313, 1.03741, 1.03589, 1.03822, 1.03956, 1.03897, 1.03852, 1.03813, 1.0379, 1.0363, 1.0358, 1.03559, 1.0344, 1.03087, 1.03163, 1.02865, 1.02625, 1.0247, 1.02242, 1.02215, 1.02082, 1.01703, 1.01785, 1.01637, 1.01517, 1.02195, 1.01719, 1.01046, 1.01011, 1.00911, 1.00933, 1.01107, 1.00916, 1.00966, 1.0145, 1.01429, 1.01287, 1.01159, 1.01199, 1.00966, 1.00387, 1.00412, 1.00359, 1.00222, 0.999385, 0.994511, 0.993729, 0.99422, 1.29487, 1.45074, 1.00128, 0.997893, 1.19905, 0.988448, 1.00227, 0.974377, 0.973339, 0.994498, 1.11498, 0.991163, 0.99139, 0.99051, 0.989519, 0.988718, 0.98486, 0.982409, 0.980599, 0.97979, 0.97975, 0.980596, 1.21506, 0.975327, 0.968835, 0.966491, 0.964543, 0.965384, 0.967242, 0.970868, 0.97138, 0.968187, 0.970306, 0.971829, 0.972454, 0.973436, 1.13018, 1.05962, 1.06014, 1.24489, 0.957953, 0.958715, 1.0322, 0.960262, 0.961111, 0.961692, 0.960831, 0.958758, 0.956459, 0.955825, 0.954945, 0.955762, 0.955499, 0.954566, 0.955219, 0.953718, 0.952961, 0.952719, 0.953236, 0.953904, 0.953876, 0.950806, 0.954517, 0.954604, 0.952774, 0.953286, 0.955609, 0.954762, 0.956003, 0.955833, 0.956522, 0.957291, 0.956957, 0.958032, 0.957664, 0.95913, 0.959651, 0.960231, 0.962465, 0.960142, 0.961156, 0.962667, 0.962978, 0.96046, 0.962038, 0.962947, 0.960776, 0.96137, 0.960193, 0.958298, 0.955994, 0.953427, 0.954162, 0.951215, 0.952664, 0.952883, 0.949113, 0.94582, 0.94416, 0.947095, 0.947212, 0.945422, 0.946748
1.23259, 1.22222, 1.16838, 1.16921, 1.37202, 1.37454, 1.2121, 1.39848, 1.55317, 1.2245, 1.22471, 0.00430952, 1.2818, 1.17683, 1.1785, 1.16996, 1.16082, 1.15383, 1.15323, 1.1541, 1.35401, 1.15644, 1.15681, 1.16372, 1.14416, 1.14582, 1.14641, 1.14635, 1.15759, 1.15997, 1.55408, 1.17638, 1.18118, 1.18542, 1.18808, 1.12348, 1.1251, 1.12416, 1.12506, 1.11189, 1.11317, 1.10923, 1.1102, 1.11083, 1.19964, 1.19785, 1.20928, 1.22372, 1.37484, 1.24048, 1.24492, 1.33021, 1.3407, 1.36497, 1.36593, 1.39826, 1.30686, 1.30644, 1.32511, 1.08296, 1.08071, 1.06418, 1.06696, 1.06763, 1.06823, 1.06674, 1.06595, 1.06592, 1.06635, 1.06643, 1.06777, 1.06658, 1.06726, 1.06834, 1.06466, 1.06575, 1.06563, 1.06556, 1.06667, 1.06561, 1.06669, 1.06934, 1.07015, 1.07452, 1.07662, 1.07406, 1.07349, 1.07235, 1.06907, 1.06859, 1.06734, 1.06692, 1.06716, 1.06791, 1.06653, 1.06592, 1.05757, 1.05764, 1.06225, 1.06693, 1.06156, 1.06102, 1.05982, 1.06049, 1.06001, 1.05986, 1.05776, 1.05747, 1.05375, 1.05179, 1.05352, 1.04938, 1.04801, 1.04786, 1.04553, 1.04491, 1.04468, 1.04249, 1.04228, 1.04054, 1.04032, 1.03983, 1.03964, 1.04156, 1.04237, 1.04163, 1.03768, 1.03663, 1.03564, 1.03576, 1.03513, 1.03256, 1.03174, 1.02916, 1.02791, 1.02523, 1.02119, 1.0198, 1.01848, 1.019, 1.02981, 1.02883, 1.11663, 1.03133, 1.03069, 1.13232, 1.2986, 1.15634, 1.15356, 1.00599, 1.00297, 1.00482, 1.00693, 1.01214, 1.01291, 1.01336, 1.01365, 1.01035, 1.0093, 1.00341, 1.00203, 1.0028, 1.00179, 0.999539, 0.999444, 1.00123, 1.00118, 1.0034, 1.00414, 1.00367, 0.999285, 1.19145, 0.998096, 0.998816, 0.970964, 0.978024, 0.988048, 1.36073, 0.99318, 0.991866, 0.99054, 0.989323, 0.988294, 0.988677, 0.986509, 0.985495, 0.984552, 0.984827, 0.984848, 0.983667, 1.58132, 1.58668, 0.970847, 0.964823, 0.964478, 1.12335, 0.971064, 0.973842, 0.973733, 0.971693, 0.971951, 0.969782, 0.966023, 0.964231, 0.963173, 0.963327, 0.955793, 0.95234, 0.953392, 1.28088, 0.958166, 1.26923, 0.956865, 0.956836, 0.956756, 0.956874, 0.955443, 0.955561, 0.956166, 0.956056, 0.956064, 0.955427, 0.952355, 0.95241, 0.952979, 0.952965, 0.95333, 0.953912, 0.951525, 0.953964, 0.954527, 0.955184, 0.955684, 0.954366, 0.955824, 0.955712, 0.955303, 0.95606, 0.957772, 0.959704, 0.95855, 0.960176, 0.961068, 0.95848, 0.959232, 0.959754, 0.961017, 0.960959, 0.960974, 0.960554, 0.960955, 0.960135, 0.963506, 0.959008, 0.956853, 0.956712, 0.956133, 0.955868, 0.950912, 0.952173, 0.950671, 0.951344, 0.950203, 0.949706, 0.944269, 0.945706, 0.946041, 0.945588, 0.944073, 0.945517
1.73461, 1.24679, 1.18287, 1.18251, 1.27138, 1.18042, 1.21562, 1.40615, 1.20212, 1.20438, 1.21689, 1.21723, 1.21876, 1.28063, 1.28155, 1.21586, 1.16345, 1.16247, 1.16318, 1.1647, 1.16699, 1.17175, 1.17271, 1.17335, 1.17415, 1.39964, 1.27492, 1.27172, 1.1836, 1.16348, 1.15949, 1.15011, 1.32333, 1.18753, 1.19478, 1.19826, 1.22716, 1.12348, 1.12338, 1.23281, 1.17866, 1.1785, 1.19079, 1.24637, 1.19029, 1.19303, 1.21569, 1.21623, 1.32363, 1.34458, 0.00451325, 1.3783, 1.09225, 1.08428, 1.08427, 1.08104, 1.06522, 1.06864, 1.06756, 1.06461, 1.06423, 1.06415, 1.06527, 1.06622, 1.0671, 1.06755, 1.067, 1.06687, 1.06683, 1.06698, 1.06701, 1.0684, 1.06861, 1.06829, 1.06842, 1.0687, 1.06784, 1.06694, 1.06623, 1.06642, 1.06631, 1.0672, 1.06882, 1.07127, 1.07565, 1.07566, 1.07388, 1.07309, 1.06954, 1.06875, 1.06616, 1.06769, 1.06805, 1.06736, 1.06566, 1.06579, 1.06337, 1.06294, 1.06279, 1.0609, 1.06162, 1.06234, 1.05997, 1.0582, 1.0575, 1.05512, 1.05546, 1.05275, 1.05298, 1.05125, 1.0503, 1.04975, 1.04612, 1.04588, 1.04512, 1.04408, 1.04388, 1.04222, 1.04224, 1.0423, 1.04183, 1.04164, 1.04059, 1.03994, 1.04017, 1.04144, 1.03731, 1.03694, 1.03471, 1.03417, 1.03225, 1.0318, 1.02844, 1.02723, 1.02369, 1.02323, 1.03111, 1.03284, 1.03191, 1.03127, 1.0307, 1.03257, 1.03247, 1.03262, 1.0322, 1.13391, 1.07325, 1.15667, 1.0809, 1.09316, 1.08434, 1.00962, 1.00926, 1.01019, 1.00912, 1.0097, 1.0104, 1.00886, 1.00848, 0.998597, 1.00294, 1.004, 1.0017, 1.00282, 1.00091, 1.00074, 1.00099, 1.00235, 1.00205, 1.00264, 1.00177, 1.17805, 1.00457, 0.988114, 0.992911, 0.999539, 0.992331, 0.993302, 0.993879, 0.992782, 0.991204, 0.990838, 0.990471, 0.989596, 0.987315, 0.987088, 0.986961, 0.986769, 0.989343, 0.990698, 1.2193, 1.21951, 1.21813, 1.21814, 1.38188, 0.975395, 0.97601, 0.97561, 0.97624, 0.972943, 0.970486, 1.25232, 0.962821, 0.963528, 0.960748, 0.959977, 0.956897, 0.952523, 0.951143, 1.24566, 0.959133, 0.960488, 0.95756, 0.95836, 0.957861, 0.957873, 0.956372, 0.955505, 0.955391, 0.95442, 0.955204, 0.954137, 0.953219, 0.95329, 0.952694, 0.95289, 0.954346, 0.955498, 0.956875, 0.956828, 0.952127, 0.953738, 0.956308, 0.954873, 0.954619, 0.955824, 0.958183, 0.958971, 0.960543, 0.960785, 0.961198, 0.96048, 0.9607, 0.961376, 0.960653, 0.961408, 0.961185, 0.960646, 0.960134, 0.960173, 0.959613, 0.959933, 0.958727, 0.957185, 0.956304, 0.95558, 0.953271, 0.953838, 0.954079, 0.952857, 0.950737, 0.950468, 0.949363, 0.946809, 0.947366, 0.946639, 0.945075, 0.945017, 0.944295, 0.945466
1.23988, 1.24113, 1.3565, 1.25659, 1.18718, 1.19131, 1.19174, 1.20133, 1.20492, 1.20594, 1.21414, 1.21838, 1.21845, 1.22, 1.50511, 1.31554, 1.16732, 1.321, 1.32314, 1.33651, 1.33848, 1.27901, 1.17533, 1.17693, 1.1772, 1.56873, 1.18822, 1.18796, 1.19353, 1.19539, 1.17013, 1.22055, 1.16744, 1.46628, 1.5482, 1.34403, 1.23376, 1.23656, 1.23746, 1.24156, 1.25418, 1.25426, 1.22579, 1.22628, 1.19408, 1.19402, 1.19487, 1.30551, 1.3134, 1.27808, 1.28824, 1.06836, 1.08012, 1.07232, 1.07329, 1.06786, 1.06822, 1.06808, 1.06824, 1.06726, 1.06768, 1.06795, 1.06643, 1.06747, 1.06908, 1.06929, 1.06879, 1.06124, 1.05918, 1.06832, 1.06752, 1.07031, 1.06866, 1.06888, 1.06871, 1.06801, 1.06678, 1.06663, 1.0668, 1.06671, 1.06633, 1.06682, 1.06777, 1.07035, 1.07126, 1.07355, 1.07117, 1.06984, 1.0686, 1.06608, 1.0663, 1.06638, 1.06644, 1.06649, 1.06697, 1.06328, 1.06228, 1.06125, 1.06087, 1.06018, 1.06277, 1.06118, 1.22572, 1.05371, 1.05356, 1.05466, 1.0563, 1.0537, 1.05271, 1.05004, 1.04852, 1.04778, 1.04599, 1.04586, 1.04469, 1.04282, 1.04268, 1.04282, 1.04271, 1.04232, 1.04284, 1.04212, 1.04089, 1.04153, 1.04163, 1.04094, 1.5137, 1.03529, 1.03542, 1.03269, 1.03041, 1.0289, 1.02896, 1.02902, 1.02959, 1.02858, 1.02925, 1.03048, 1.03185, 1.03205, 1.03202, 1.03118, 1.03123, 1.03042, 1.03124, 1.34956, 1.20583, 1.07495, 1.29852, 1.30889, 1.25322, 1.25401, 1.00991, 1.00752, 1.00804, 1.00844, 1.00806, 1.00735, 1.0068, 1.0055, 1.00194, 1.00384, 1.00386, 1.00075, 1.00095, 1.00067, 1.00085, 1.00089, 1.00143, 0.998767, 0.997596, 0.999125, 0.997913, 1.25007, 1.2506, 1.25313, 0.995087, 0.994126, 0.993655, 0.993656, 0.993869, 0.991975, 0.990241, 0.990291, 0.992246, 0.989035, 0.992227, 0.991422, 0.990709, 0.990635, 0.990211, 1.24415, 0.983965, 1.1724, 0.980723, 0.977775, 0.974904, 0.974113, 0.976744, 0.97649, 1.25061, 1.25116, 0.96701, 0.965938, 0.964862, 0.964407, 0.962995, 0.964019, 0.953112, 1.2742, 0.959861, 0.957949, 0.95749, 0.958437, 0.957872, 0.958959, 0.958058, 0.958592, 0.958946, 0.957748, 0.95712, 0.956278, 0.95316, 0.953542, 0.955616, 0.953049, 0.953719, 0.954769, 0.95776, 0.959908, 0.959915, 0.958133, 0.963351, 0.962843, 0.962623, 0.962006, 0.961461, 0.960997, 0.961633, 0.962867, 0.960721, 0.963214, 0.963136, 0.963389, 0.96305, 0.960702, 0.962606, 0.961154, 0.959428, 0.959408, 0.957338, 0.957185, 0.956557, 0.956044, 0.954693, 0.953072, 0.952707, 0.955696, 0.955868, 0.956777, 0.950725, 0.964906, 1.31673, 1.17062, 1.37835, 1.18238, 0.944614, 0.944383, 0.944051, 0.942982
1.5639, 1.24627, 1.2461, 1.40801, 1.41608, 1.53777, 1.39715, 1.33946, 1.20391, 1.3003, 1.41104, 1.30365, 1.2294, 1.22245, 1.22088, 1.23661, 1.31736, 1.31859, 1.31696, 1.32671, 1.20553, 1.33982, 1.33996, 1.32866, 1.40892, 1.27325, 1.20187, 1.24298, 1.21845, 1.18354, 1.1833, 1.18307, 1.23328, 1.45479, 1.25822, 1.25838, 1.34562, 1.25038, 1.25778, 1.25001, 1.23609, 1.27836, 1.29839, 1.27871, 1.19854, 1.19445, 1.30718, 1.32036, 1.34812, 1.08073, 1.07385, 1.0715, 1.07087, 1.0715, 1.07203, 1.0733, 1.07062, 1.0703, 1.07133, 1.07376, 1.0738, 1.07401, 1.06747, 1.06755, 1.06825, 1.06888, 1.06841, 1.06184, 1.06318, 1.06832, 1.06738, 1.06909, 1.06824, 1.06741, 1.06656, 1.06709, 1.06699, 1.06667, 1.06641, 1.06677, 1.06683, 1.06889, 1.06957, 1.0691, 1.06984, 1.06876, 1.06622, 1.06641, 1.06574, 1.06465, 1.06569, 1.06527, 1.06313, 1.06261, 1.06174, 1.06085, 1.06243, 1.06016, 1.0597, 1.05972, 1.05868, 1.05723, 1.05688, 1.05447, 1.05407, 1.0566, 1.0535, 1.05318, 1.04998, 1.04728, 1.04711, 1.04812, 1.03922, 1.03931, 1.03933, 1.04082, 1.04259, 1.04365, 1.04396, 1.04275, 1.04398, 1.04308, 1.04292, 1.04283, 1.03946, 1.27833, 1.5908, 1.49569, 1.03026, 1.03345, 1.0329, 1.02989, 1.02844, 1.02841, 1.02807, 1.0284, 1.02871, 1.22874, 1.03588, 1.03297, 1.03211, 1.03122, 1.02977, 1.02866, 1.02871, 1.02733, 1.06776, 1.04968, 1.34102, 1.01613, 1.38087, 1.00346, 1.00295, 1.00408, 1.00368, 1.00455, 1.00551, 1.00562, 1.00485, 1.00318, 1.00294, 1.00294, 1.0018, 1.00058, 0.999247, 0.999546, 0.998481, 0.997279, 0.99728, 0.998134, 0.997332, 0.997269, 0.995702, 0.995084, 0.99401, 0.994156, 0.995445, 0.99404, 0.993829, 0.993887, 0.99412, 0.993017, 0.992197, 0.991292, 0.993108, 0.993898, 0.992009, 0.991358, 0.99067, 0.988364, 0.987431, 0.985552, 0.983491, 0.983957, 0.983743, 0.97942, 0.977006, 0.976939, 1.31855, 1.25007, 1.42323, 0.96697, 0.966416, 0.965146, 0.963769, 0.963187, 0.964051, 0.964548, 0.967136, 1.28529, 1.20442, 1.11862, 1.11294, 0.958821, 0.95876, 0.959442, 0.959332, 0.958136, 0.959401, 0.956688, 0.955688, 0.95709, 0.95851, 1.2219, 1.22223, 1.19648, 0.961651, 1.20726, 0.960929, 0.962773, 0.962492, 0.962823, 0.963055, 0.963807, 0.963903, 0.962989, 0.963627, 0.964588, 0.964818, 0.96484, 0.964926, 0.962322, 0.962798, 0.962997, 0.962233, 0.960017, 0.960636, 0.96052, 0.957339, 0.957132, 0.957559, 0.956263, 0.954878, 0.954907, 0.955034, 0.954054, 0.952979, 0.954094, 0.955436, 0.955842, 0.956245, 0.957485, 0.958994, 0.959353, 0.959451, 0.957564, 0.957643, 1.31309, 1.51005, 0.942798
1.33689, 1.34381, 1.34437, 1.34781, 1.35592, 1.25861, 1.42755, 1.43337, 1.45008, 0.00454789, 1.30342, 1.23549, 1.28921, 1.4505, 1.24063, 1.24635, 1.21334, 1.21053, 1.21156, 1.21175, 1.21215, 1.21181, 1.21165, 1.39898, 1.2092, 1.21344, 1.20942, 1.20891, 1.20902, 1.25543, 1.39001, 1.19312, 1.18551, 1.18857, 1.40952, 1.33043, 1.34867, 1.30573, 1.30632, 1.22416, 1.22511, 1.2628, 1.29655, 1.28947, 1.19814, 1.29255, 1.28007, 1.29873, 1.09652, 1.33366, 1.06988, 1.07031, 1.07134, 1.07112, 1.07279, 1.08056, 1.07793, 1.07333, 1.07362, 1.07435, 1.07379, 1.07194, 1.07221, 1.0681, 1.06734, 1.07076, 1.07024, 1.065, 1.06691, 1.06695, 1.06715, 1.06721, 1.06705, 1.06714, 1.06747, 1.06831, 1.06765, 1.06759, 1.06777, 1.06839, 1.06767, 1.06692, 1.06699, 1.06884, 1.06985, 1.06757, 1.06519, 1.06323, 1.06312, 1.06182, 1.0614, 1.06161, 1.06116, 1.06058, 1.06092, 1.06097, 1.06009, 1.05947, 1.05921, 1.05762, 1.05613, 1.05672, 1.05556, 1.05334, 1.05287, 1.05217, 1.04956, 1.04906, 1.04737, 1.04692, 1.04576, 1.04276, 1.04237, 1.04108, 1.04137, 1.04254, 1.04246, 1.04322, 1.0431, 1.04287, 1.04433, 1.0449, 1.04134, 1.0368, 1.0329, 1.03286, 1.03225, 1.02976, 1.033, 1.03296, 1.02904, 1.02947, 1.02813, 1.02924, 1.02654, 1.02537, 1.0258, 1.02599, 1.03907, 1.17763, 1.18193, 1.02884, 1.19452, 1.02719, 1.02848, 1.02535, 1.02612, 1.65031, 1.61301, 1.60725, 1.0066, 1.0063, 1.00494, 1.00523, 1.00506, 1.00355, 1.00418, 1.0044, 1.0045, 1.00382, 1.00257, 1.00166, 1.00212, 1.00216, 0.99931, 0.998036, 0.99445, 0.994275, 0.996882, 0.99636, 0.994889, 0.993812, 0.993787, 0.992912, 0.992067, 0.992259, 0.993925, 0.992275, 0.992854, 0.991257, 0.991949, 0.991098, 0.99098, 0.992491, 0.992244, 0.99212, 0.989817, 0.988496, 0.987828, 0.987964, 0.986638, 0.983235, 0.983412, 0.984083, 0.983128, 0.980525, 1.18126, 1.18732, 1.22233, 0.96942, 0.967799, 0.96619, 0.966233, 0.961689, 0.963548, 0.963912, 0.965927, 0.967587, 0.970063, 0.971248, 1.16162, 1.30044, 1.16102, 1.08887, 1.27465, 1.38456, 1.18826, 1.1718, 0.948599, 0.9496, 0.95356, 0.956064, 0.956255, 0.958513, 0.96082, 0.960286, 0.961378, 0.962832, 0.963442, 0.963756, 0.964884, 0.965673, 0.965073, 0.965531, 0.965642, 0.963631, 0.963606, 0.962859, 0.96484, 0.965301, 0.964691, 0.961201, 0.962784, 0.962732, 0.96145, 0.959687, 0.960177, 0.956996, 0.956181, 0.957811, 0.958451, 0.95581, 0.955723, 0.954031, 0.953872, 0.953019, 0.954227, 0.952051, 0.953452, 0.954563, 0.955675, 0.956376, 0.957704, 0.958909, 0.959325, 0.958467, 0.958212, 0.959169, 1.32061, 0.951176
1.27674, 1.27656, 1.28548, 1.28501, 1.28699, 1.28439, 1.35909, 1.30038, 1.2984, 1.30796, 1.3088, 1.31212, 1.31661, 1.31397, 1.39137, 1.39169, 1.2915, 1.20903, 1.2099, 1.21154, 1.2111, 1.21157, 1.21194, 1.21182, 1.21246, 1.21267, 1.20882, 1.20884, 1.20909, 1.2027, 1.19792, 1.19939, 1.20385, 1.19256, 1.38234, 1.38907, 1.22327, 1.22548, 1.22073, 1.2256, 1.22529, 1.26028, 1.25958, 1.26885, 1.26871, 1.2651, 1.34975, 1.08285, 1.08138, 1.06779, 1.06722, 1.07122, 1.07178, 1.07849, 1.07717, 1.07912, 1.0787, 1.07506, 1.07667, 1.07419, 1.07339, 1.07121, 1.07182, 1.07238, 1.06972, 1.06953, 1.06837, 1.06871, 1.06735, 1.06662, 1.06723, 1.06739, 1.06763, 1.06874, 1.06834, 1.0692, 1.06924, 1.06784, 1.06808, 1.06741, 1.06708, 1.068, 1.06862, 1.06903, 1.0737, 1.07404, 1.0748, 1.06693, 1.06524, 1.06214, 1.06188, 1.06344, 1.06288, 1.06279, 1.06227, 1.06104, 1.06086, 1.05887, 1.05753, 1.05719, 1.05657, 1.05662, 1.05427, 1.05176, 1.05215, 1.05109, 1.05012, 1.04765, 1.0473, 1.04644, 1.04599, 1.04544, 1.04477, 1.04349, 1.0429, 1.04319, 1.03908, 1.04352, 1.04353, 1.04311, 1.04191, 1.0398, 1.03897, 1.03524, 1.03414, 1.03468, 1.03345, 1.03226, 1.03018, 1.03065, 1.02845, 1.02827, 1.02519, 1.0254, 1.02495, 1.02267, 1.02284, 1.02165, 1.02182, 1.02183, 1.02149, 1.02167, 1.0219, 1.02113, 1.02189, 1.02378, 1.02186, 1.02259, 1.30006, 1.00869, 1.01006, 1.01131, 1.01107, 1.00212, 1.00075, 1.00343, 1.00415, 1.00342, 1.00365, 1.00364, 1.00281, 1.00363, 1.00211, 1.00149, 1.00106, 0.999609, 0.984897, 0.988044, 0.991359, 0.992883, 0.993551, 0.993164, 0.991571, 0.99046, 0.990615, 0.990532, 0.990321, 0.991045, 0.990789, 0.990771, 0.990611, 0.990847, 0.994277, 0.992484, 0.990841, 0.991541, 0.990879, 0.990482, 0.989515, 0.988997, 0.987246, 0.986199, 0.986309, 0.986085, 0.987203, 0.987475, 1.10732, 1.23608, 1.11633, 1.11688, 0.967995, 0.967837, 0.965476, 0.964593, 1.28192, 1.28026, 1.63127, 1.3467, 1.27981, 1.18807, 1.18771, 1.1502, 1.25912, 1.15777, 1.41248, 1.18518, 1.12732, 0.95826, 0.960653, 0.956493, 0.959883, 0.955979, 0.957237, 0.957233, 0.959615, 0.960338, 0.959977, 0.96129, 0.96275, 0.963577, 0.965083, 0.965501, 0.965706, 0.96609, 0.965047, 0.962628, 0.960097, 0.962343, 0.96296, 0.962836, 0.962879, 0.962647, 0.962822, 0.96144, 0.959665, 0.959315, 0.958893, 0.957074, 0.956928, 0.956578, 0.956392, 0.956456, 0.953853, 0.955196, 0.954711, 1.32685, 1.26114, 1.3336, 1.19426, 1.27463, 1.17695, 0.957947, 0.958402, 0.958371, 0.957978, 0.957113, 0.956087, 0.957949, 1.36146, 0.950235
1.33364, 1.27781, 1.27738, 1.50224, 1.4919, 1.49186, 1.29158, 1.29222, 1.29278, 1.53307, 1.52982, 1.55412, 0.0041972, 1.59502, 1.73556, 1.29952, 0.00435552, 1.51987, 1.21534, 1.29859, 1.2063, 1.2091, 1.20158, 1.20219, 1.31336, 1.2047, 1.20562, 1.20801, 1.20528, 1.20525, 1.20358, 1.2045, 1.20817, 1.20034, 1.3394, 1.28462, 1.22635, 1.22575, 1.22322, 1.22098, 1.39955, 1.21977, 1.20435, 1.19871, 0.00444358, 1.29928, 1.33421, 1.08467, 1.07346, 1.07055, 1.07075, 1.07639, 1.07745, 1.07961, 1.07815, 1.07861, 1.26337, 1.07724, 1.07403, 1.07282, 1.07266, 1.07243, 1.07023, 1.06985, 1.06953, 1.06909, 1.06808, 1.06988, 1.06661, 1.06641, 1.0678, 1.06903, 1.06878, 1.0693, 1.069, 1.06875, 1.06851, 1.06675, 1.06626, 1.06689, 1.06676, 1.06775, 1.06799, 1.07044, 1.06697, 1.06589, 1.06414, 1.06401, 1.06189, 1.05702, 1.05624, 1.05548, 1.05792, 1.05972, 1.06003, 1.0598, 1.05836, 1.05707, 1.05814, 1.05605, 1.05567, 1.05344, 1.05435, 1.0511, 1.05123, 1.05032, 1.04951, 1.04895, 1.04879, 1.04736, 1.04679, 1.04601, 1.04591, 1.04415, 1.0434, 1.0441, 1.04087, 1.03723, 1.04066, 1.03993, 1.03951, 1.03891, 1.03955, 1.0329, 1.02908, 1.03386, 1.03276, 1.03062, 1.02863, 1.0289, 1.02913, 1.02854, 1.02795, 1.02838, 1.02319, 1.0236, 1.02066, 1.0215, 1.02222, 1.02263, 1.02207, 1.02182, 1.02162, 1.01957, 1.01928, 1.02011, 1.02117, 1.19844, 1.01363, 1.01472, 1.01192, 1.01, 1.00981, 1.00924, 1.00631, 1.00619, 1.00436, 1.00509, 1.00554, 1.00421, 1.00515, 1.006, 1.00077, 1.0005, 1.00088, 1.55737, 0.986943, 0.987247, 0.991571, 0.991586, 0.988198, 0.991189, 0.989869, 0.990973, 0.990557, 0.989478, 0.989906, 0.99053, 0.990652, 0.991949, 0.99142, 0.99256, 0.992546, 0.991568, 0.991868, 0.991907, 0.990681, 0.990627, 0.989032, 0.98828, 0.987937, 0.987598, 0.987897, 0.986223, 0.986038, 0.987201, 0.988375, 0.988761, 0.988669, 1.21849, 1.21873, 1.1253, 1.27726, 1.27239, 1.25341, 1.27509, 1.34102, 1.33997, 1.34112, 1.14559, 1.14971, 1.15066, 1.14717, 1.16079, 0.982625, 1.1014, 0.962411, 0.959728, 0.959761, 1.36491, 0.958207, 0.957589, 0.956236, 0.956457, 1.30139, 1.30878, 1.31216, 1.30123, 0.96278, 0.963376, 0.964068, 0.964545, 0.965193, 0.965502, 1.14764, 0.961686, 0.961162, 0.961715, 0.962096, 0.961563, 0.962402, 0.961183, 0.962033, 0.960581, 0.962616, 0.960033, 0.960752, 0.958129, 1.19875, 0.953838, 0.953107, 0.954098, 0.949427, 0.945419, 0.948136, 0.947078, 0.946512, 0.94751, 0.950751, 0.951391, 0.950768, 0.951688, 0.953904, 0.95306, 0.953968, 0.955593, 0.995271, 1.3921, 1.1847, 1.17686
1.28818, 1.49512, 1.27726, 1.27753, 1.54158, 1.59362, 1.43629, 1.38101, 1.48537, 1.47957, 1.46575, 1.49214, 1.53637, 1.45079, 1.57221, 1.48525, 1.36433, 1.23288, 1.1975, 1.20984, 1.30513, 1.3049, 1.19438, 1.19513, 1.19993, 1.19959, 1.20161, 1.20823, 1.2059, 1.20449, 1.20472, 1.20529, 1.20604, 1.2059, 1.20454, 1.48882, 1.34047, 1.2217, 1.22608, 1.22513, 1.27566, 1.2887, 1.20558, 1.19508, 1.2155, 1.21574, 1.06695, 1.07584, 1.07667, 1.07403, 1.07299, 1.07467, 1.13293, 1.07678, 1.08258, 1.08141, 1.0546, 1.05403, 1.05557, 1.05678, 1.05333, 1.05452, 1.07113, 1.07097, 1.06876, 1.06857, 1.06989, 1.06989, 1.06966, 1.06796, 1.06805, 1.37022, 1.07199, 1.07124, 1.06815, 1.06629, 1.06632, 1.06652, 1.0666, 1.06519, 1.06665, 1.06795, 1.06769, 1.06539, 1.06435, 1.06383, 1.06392, 1.06418, 1.062, 1.06213, 1.05717, 1.05724, 1.05809, 1.0577, 1.05836, 1.059, 1.05879, 1.05692, 1.05704, 1.05661, 1.05479, 1.05503, 1.05434, 1.04962, 1.0507, 1.05075, 1.04961, 1.04914, 1.04918, 1.04788, 1.04703, 1.0449, 1.04458, 1.04408, 1.04411, 1.0427, 1.03989, 1.04239, 1.03907, 1.03959, 1.03933, 1.0384, 1.03874, 1.03894, 1.03689, 1.03221, 1.03204, 1.03271, 1.03034, 1.02679, 1.02835, 1.02891, 1.03043, 1.02953, 1.02426, 1.02309, 1.01907, 1.02247, 1.02285, 1.02186, 1.02121, 1.02164, 1.02035, 1.02124, 1.01955, 1.01366, 1.01257, 1.00955, 1.0103, 1.01103, 1.011, 1.01111, 1.01065, 1.00921, 1.00832, 1.00776, 1.00779, 1.00767, 1.0075, 1.008, 1.00844, 1.00457, 1.00504, 1.00258, 1.00432, 1.00057, 0.994447, 0.995306, 0.995379, 0.995815, 0.990903, 0.991258, 0.989422, 0.992044, 0.991612, 0.990733, 0.99062, 0.990993, 0.990645, 0.990303, 0.991303, 0.990617, 0.990624, 0.990494, 0.990964, 0.992433, 0.991354, 0.990321, 0.9895, 0.988536, 0.988119, 0.988727, 0.984779, 0.985059, 0.986091, 0.985731, 0.986877, 0.987843, 0.988824, 0.988911, 0.988259, 0.987258, 0.985975, 1.07829, 1.1394, 1.13958, 1.34085, 1.14385, 1.22726, 1.42632, 1.15354, 1.15383, 1.49139, 1.46015, 1.08131, 1.08897, 0.970118, 0.960775, 0.960033, 0.974263, 0.975201, 0.956019, 0.954312, 0.944864, 0.949031, 0.95293, 1.28944, 1.5134, 1.51467, 1.08458, 1.33386, 0.972665, 0.973914, 1.61052, 1.14042, 0.961153, 0.960249, 0.960397, 0.959606, 0.959785, 0.959801, 0.959445, 0.959689, 0.958682, 0.958193, 0.957454, 0.95237, 0.952996, 0.952786, 0.94567, 0.94504, 0.946329, 0.945871, 0.945385, 0.946494, 0.947517, 0.946035, 0.946112, 0.951358, 0.950497, 0.950425, 1.13998, 1.31358, 0.953871, 1.2785, 1.1577, 1.03855, 1.27258, 1.09508, 0.963502
1.49376, 1.38493, 1.36781, 1.34988, 1.36848, 1.43292, 1.42064, 1.5374, 1.25838, 1.36298, 1.53076, 1.20039, 1.26102, 1.20119, 1.35358, 1.20025, 1.17726, 1.2361, 1.17669, 1.17527, 1.17871, 1.17962, 1.30876, 1.20625, 1.21111, 1.18398, 1.1838, 1.19122, 1.30481, 1.21224, 1.20561, 1.21386, 1.22303, 1.22383, 1.0887, 1.09617, 1.09674, 1.09504, 1.09052, 1.10925, 1.07761, 1.07676, 1.07461, 1.07038, 1.28149, 1.07168, 1.06767, 1.07226, 1.07136, 1.07442, 1.07412, 1.08406, 1.05062, 1.0531, 1.05576, 1.05627, 1.05617, 1.06403, 1.05574, 1.05031, 1.06814, 1.06717, 1.06523, 1.06043, 1.06209, 1.0628, 1.06103, 1.06093, 1.05741, 1.06314, 1.06028, 1.05944, 1.05759, 1.05924, 1.06485, 1.06522, 1.06461, 1.06471, 1.06619, 1.06474, 1.06389, 1.06766, 1.07074, 1.06309, 1.06348, 1.06294, 1.06344, 1.063, 1.063, 1.06313, 1.06326, 1.06103, 1.05816, 1.0572, 1.05803, 1.05681, 1.05772, 1.05743, 1.05652, 1.05676, 1.05602, 1.0549, 1.05446, 1.05378, 1.052, 1.05159, 1.05075, 1.0506, 1.04738, 1.04696, 1.04433, 1.04331, 1.03985, 1.04024, 1.04019, 1.03865, 1.03915, 1.03848, 1.03881, 1.04082, 1.03878, 1.03806, 1.03732, 1.03542, 1.03296, 1.03212, 1.03472, 1.0214, 1.02166, 1.02713, 1.02815, 1.02926, 1.03045, 1.03189, 1.02503, 1.02569, 1.02365, 1.02289, 1.02209, 1.02149, 1.01949, 1.0189, 1.01708, 1.01547, 1.01511, 1.01386, 1.01241, 1.01158, 1.00898, 1.00902, 1.01102, 1.01129, 1.01052, 1.00898, 1.00888, 1.00589, 1.00577, 1.00692, 1.00782, 1.00773, 1.00773, 1.0035, 1.00409, 1.00095, 0.999945, 1.00028, 1.00165, 1.45474, 0.997094, 0.996599, 0.997098, 0.99734, 0.996576, 0.995756, 0.995559, 0.994161, 0.991251, 0.99081, 0.990427, 0.990408, 0.990258, 0.989156, 0.988959, 0.990396, 1.42645, 1.19216, 0.989141, 0.98922, 0.987836, 0.983838, 0.984087, 0.982049, 0.979223, 0.984948, 1.16136, 1.51622, 0.987917, 0.987692, 0.987264, 0.987293, 0.987409, 0.987388, 0.987378, 0.987941, 0.98876, 1.21138, 1.1059, 1.10849, 0.993606, 0.992358, 0.994209, 0.995049, 0.995648, 0.994499, 1.53457, 1.07318, 1.0859, 1.05046, 1.42021, 1.04884, 1.44029, 1.34737, 1.31141, 0.943925, 0.949888, 0.95116, 1.08038, 1.52027, 1.31531, 1.66375, 1.66439, 1.19508, 0.955771, 0.954921, 0.954527, 0.955622, 0.956434, 0.956367, 0.957293, 0.957691, 0.959438, 0.957545, 0.957509, 0.955058, 0.953382, 0.95157, 0.951047, 0.94839, 0.94898, 0.947264, 0.944394, 0.944159, 0.945993, 1.31817, 1.19884, 1.10878, 1.18382, 1.06127, 1.06805, 1.34674, 1.0739, 1.12973, 1.14117, 1.14103, 1.13971, 1.14404, 1.14589, 1.12368, 1.27188, 1.0203
1.2021, 1.20404, 1.20194, 1.175, 1.21297, 1.20998, 1.21142, 1.22288, 1.17033, 1.18716, 1.12261, 1.12373, 1.12369, 1.25253, 1.28793, 1.36769, 1.32599, 1.55849, 1.17525, 1.17466, 1.17739, 1.18071, 1.18077, 1.19155, 1.21029, 1.21086, 1.1948, 1.21932, 1.21645, 1.22094, 1.2216, 1.22339, 1.08141, 1.08346, 1.16478, 1.09941, 1.1002, 1.09738, 1.09287, 1.08576, 1.08451, 1.08267, 1.07237, 1.07291, 1.07023, 1.07056, 1.07025, 1.07187, 1.07048, 1.06314, 1.06141, 1.05629, 1.05653, 1.40236, 0.00443118, 1.08571, 1.06303, 1.06363, 1.0645, 1.06878, 1.06833, 1.06896, 1.06972, 1.06879, 1.0693, 1.06951, 1.06341, 1.06711, 1.06824, 1.06833, 1.06705, 1.06609, 1.06732, 1.06635, 1.06514, 1.06351, 1.06762, 1.06177, 1.05809, 1.05377, 1.05428, 1.05758, 1.05453, 1.06312, 1.06317, 1.06343, 1.06418, 1.06459, 1.06419, 1.06322, 1.06211, 1.06119, 1.06197, 1.06125, 1.05951, 1.05941, 1.05867, 1.05863, 1.05861, 1.05664, 1.05589, 1.05622, 1.05387, 1.05407, 1.04993, 1.04947, 1.04727, 1.04575, 1.04544, 1.04352, 1.043, 1.04262, 1.04153, 1.0419, 1.04043, 1.03569, 1.03737, 1.0384, 1.03856, 1.03853, 1.03857, 1.03807, 1.03547, 1.03444, 1.03397, 1.03324, 1.0332, 1.03501, 1.02287, 1.02403, 1.02507, 1.02343, 1.51084, 1.51324, 1.02514, 1.02365, 1.02266, 1.02294, 1.02168, 1.01591, 1.01656, 1.01822, 1.01652, 1.01454, 1.01373, 1.01341, 1.01136, 1.00917, 1.0084, 1.00789, 1.00705, 1.00653, 1.0073, 1.0047, 1.00518, 1.00546, 1.00333, 1.00415, 1.00432, 1.00464, 1.0037, 1.00323, 1.00336, 1.00319, 1.00245, 1.00174, 1.0012, 1.00113, 1.00099, 1.00138, 1.00118, 0.997559, 0.99719, 0.995078, 0.995899, 0.991556, 0.990533, 0.99078, 0.98887, 0.98771, 0.987806, 0.986801, 0.985233, 0.986717, 0.985683, 0.984316, 0.985654, 0.983561, 0.985238, 0.980017, 0.984099, 0.977619, 0.978293, 1.08642, 1.35106, 1.30671, 1.28564, 1.1878, 1.19103, 0.987658, 0.98787, 0.986946, 0.984985, 1.5062, 1.14346, 1.12959, 1.0916, 1.10824, 1.20563, 0.991817, 0.993263, 0.993762, 0.995053, 0.997462, 1.57212, 1.24495, 1.25036, 1.02271, 1.03309, 1.45469, 1.26137, 1.28238, 1.47036, 1.4895, 1.5273, 1.32365, 0.935318, 0.935713, 0.941287, 0.942161, 1.08536, 0.949378, 0.948197, 0.950504, 0.9512, 0.951865, 0.952919, 0.953281, 0.953623, 0.953626, 0.955213, 0.955489, 0.95515, 0.952353, 0.951822, 0.950835, 0.949893, 0.948279, 0.948634, 1.42257, 0.978153, 0.975571, 1.31259, 1.39587, 1.05622, 1.19599, 1.39182, 1.39016, 1.06244, 1.35183, 1.11618, 1.14413, 1.08034, 1.08634, 1.14207, 1.12895, 1.45102, 0.979342, 0.983283, 0.983632
