1.51156039306653,1.57227679862152,1.57207259546383,1.53580222507303,1.61831002474217,1.6126701280058,1.58891449399382,1.64606220626907,1.74469233143633,1.68920741630231,1.78830429154429,1.7882945675844,1.66873848073324,1.66960391316348,1.84751348331629,1.87620888895255,1.81484097808491,1.81132090460462,1.81038740445515,1.83125502237972,1.8251678234884,1.82840590213187,1.8812653480955,1.87781334233445,1.87088015893267,1.87062733597552,1.91872204159292,1.97766868644788,1.97473205056101,1.95185157293915,1.9494983746457,1.92779449617056,1.9251495790804,1.96197421518494,1.96244096525968,2.05089010442179,2.00282457068407,2.03567210719348,1.97408054524836,1.97562665487092,2.06777089879134,1.98166523396279,1.98722733902004,1.98891930804095,1.98912351119864,1.99002783946844,1.99668875199329,1.99543436116745,1.99539546532788,1.99492871525315,1.99715550206803,2.09945156011392,2.10642363935526,1.97246636790657,1.95013043203857,1.94923582772866,1.94824398381985,1.95458400566832,1.95381581283699,1.95021794767758,1.94951782256548,1.95546888601834,1.95493406822437,1.95485627654525,1.95767622491343,1.95391305243589,1.97891335331384,1.9713383885593,1.9855645418788,1.93440678889596,1.92893219947772,1.92823207436562,2.04876055720582,1.9760447851462,2.06673043508308,2.05391425594767,2.05245566196413,2.08972760022363,1.90295950261075,1.90427223719594,1.90428196115583,1.92313671938311,1.92434249040951,1.92358402153806,1.86730174169304,1.86571673623092,1.86506523091827,1.86436510580617,1.84768851459432,1.90854105558778,1.83663237219905,1.83629203360289,1.83724498167214,1.75687645317886,1.8770645974229,1.82066563005919,1.76740750174005,1.76676572038729,1.7660558713153,1.74126949755494,1.74097777875823,1.7416098361511,1.73454051731086,1.7327999284905,1.70588400751416,1.65386082210109,1.67334763772124,1.68351889976649,1.61534421697563,1.63736898612715,1.63909012702773,1.5420450073226,1.53177650567845,1.53474231344499,1.47448293400484,1.48057985685605,1.48092019545221,1.53290448502572,1.48637533695067,1.48177590392256,1.44414417914712,1.44083803278442,1.43280604191504,1.39671070280226,1.41789921140322,1.35958462394112,1.30682241757639,1.17906903253771,1.17991501704816,1.09043513813768,1.03381251969649,0.982858969871354,0.91147051833676,0.897877394806118,0.899204715331144,0.898006723472659,0.847363367968019,0.846453205322288,0.90981744515541,0.834536492476732,0.901808791789764,0.832532384343343,0.831730157652394,0.92380341666562,0.856112987077306,0.856421236605828,0.886476051834749,0.889276552283153,0.889551740348049,0.890319933179382,0.892399888199916,0.89294637474575,0.892419336119696,0.894074354093024,0.895111900613319,0.895768267905914,0.897492325994463,0.898977174669711,0.89990970242319,0.900432851465288,0.901074632818047,0.901102832301729,0.902022718907351,0.901727110526686,0.902996087292369,0.903905277542112,0.903900415562167,0.904013213496894,0.905128551696311,0.906158319048693,0.905314279330215
1.47666110102026,1.57970590397771,1.54273540847481,1.54182135624512,1.60490068405346,1.60459924129686,1.59730627137914,1.60559108520567,1.7065452367867,1.76695047562521,1.76730053818126,1.82750157386207,1.84581179033549,1.83094385566323,1.83394855926933,1.83364711651273,1.82839617817198,1.82423432333893,1.87667563902729,1.81025126901669,1.80797586240236,1.80674091949629,1.82488582865158,1.81897366103828,1.96458996039543,1.94233181620655,1.94174837861313,1.95013043203857,1.91051501944551,1.91570761402693,1.91757461432586,1.9222421150732,1.92329230274135,1.92408966745236,2.00742400371218,1.99209904292507,1.99156422513111,1.99135029801352,2.13080160680023,2.13342707597061,2.00615988892644,2.0691128052562,2.06626368500835,2.06192679889728,2.04112724869194,2.03958113906938,2.04341237926616,2.01195536902105,2.06954065949138,1.99941146076258,2.00222168517087,2.00003379419555,2.0092034883721,2.00902845709408,1.95303789604576,1.94721324407148,1.94607554076431,1.95864862090246,1.95917371473654,1.96109905879482,1.9592126105761,1.96093375147668,1.96119629839372,1.96709874204713,1.96260627257781,1.96215897042286,1.97894252519351,1.9791467283512,2.0265413088565,2.03875460247871,1.95915426681676,1.98537978664088,1.98311410398644,1.97497514955827,1.94237071204611,1.94194285781094,1.9745375713632,1.97288449818185,1.90446671639375,1.90430140907561,1.90392217463989,1.92423552685071,1.92276720890728,1.92261162554903,1.97192182615271,1.97148424795765,1.86981052334474,1.89139771430119,1.8909893079858,1.89131992262207,1.82548871416478,1.82574153712193,1.81754423893441,1.81768037437287,1.83431806974516,1.81389775397555,1.81303232154531,1.75784884916789,1.75980336510584,1.78364651475684,1.77682029491386,1.75995894846409,1.75863648991901,1.70736204941749,1.75009885313533,1.75005023333588,1.63186522482924,1.61262150820635,1.59108293704935,1.58327459725745,1.56570340173568,1.55591137412616,1.55244964440521,1.53223353179329,1.47466768924275,1.47293682438228,1.48781448301443,1.48713380582211,1.47830445024172,1.46385464584474,1.44549580957187,1.48821316536993,1.44776149222631,1.3967787705215,1.38898015468948,1.39281139488626,1.3127248612298,1.31350277802102,1.21254862643999,1.17522806838104,1.10786047426108,1.01788467339619,0.981235068569674,0.92331235669116,0.90053106346018,0.921535789219204,0.840628553348002,0.842056030659897,0.841004870595756,0.839575448491883,0.839592951619685,0.867252755527626,0.869760564783333,0.859465808447479,0.859233405806101,0.898029088580407,0.886542174762003,0.887435806675921,0.889388377821892,0.889807480493163,1.30227160434773,1.30438170364392,1.05457317406227,1.09574442023778,1.04585078204068,1.310313319177,0.896595776892578,0.89765568852062,0.900198504031932,0.902260955924663,0.902393201779171,0.903132222730833,0.903352956620343,0.904623878178004,0.904544141706904,0.904024882248762,0.905853959104126,0.906106782061274,0.905993984126547,0.905647811154452,0.904898093846911
1.49429064030136,1.49248198376177,1.54588597147926,1.52489194207612,1.54072254877752,1.56935961065443,1.59225953619608,1.65722531222313,1.65746841122039,1.7659586317164,1.76688240790598,1.83850909645788,1.84648274356792,1.84663832692617,1.8433030086838,1.84240840437389,1.83826599746062,1.82630552679556,1.8269667560681,1.82641249035436,1.81541469171843,1.81410195713324,1.81547303547777,1.96444410099708,1.9451906604143,1.95467152130733,1.95156957810233,1.96130326195251,1.94199147761039,1.92530516243865,1.91809970815994,2.01240267117601,2.04227467595899,2.05912629844887,2.05870816817359,2.0625005125308,2.06439668470941,2.06312284596378,2.00213416953186,2.11852024545879,2.11967739668573,2.02815548619828,2.01857738570635,2.01887882846294,2.05307799539711,1.99777783550101,1.99835154913453,1.99582331956306,1.99181704808826,1.98501027616505,1.99107802713659,2.04638791099259,1.97948706694736,1.98760657345576,1.98482552092713,2.07565703026237,1.95632459448868,1.96205200686407,1.96226593398165,1.96839202871254,1.96245068921957,1.95953350125248,1.95786098015135,1.97122170104061,1.97182458655381,2.00923266025177,1.97628788414346,1.98198612463917,1.97829101988086,2.04942178647836,2.0560924229631,1.93172297596624,2.00294125820275,1.94021199295047,1.93921042508177,1.93782962277734,1.93700308618667,1.93566117972181,1.95454510982876,1.9545062139892,1.9881705631294,1.98813166728983,1.89588045981062,1.9251495790804,1.91050529548562,1.89430517830839,1.89352726151716,1.86976190354529,1.87168724760356,1.87147332048598,1.93035189762171,1.8265680737126,1.82499279221037,1.9156298223478,1.85358123428784,1.85768474536154,1.86425814224738,1.86266341282537,1.76001729222343,1.75948247442946,1.7238830572711,1.71211706580384,1.7588406930767,1.70607848671197,1.67598283085151,1.69137585935784,1.6281020523517,1.6228900098505,1.58758231148885,1.5866293634196,1.57316167897154,1.54594431523861,1.51096723151322,1.52866483851355,1.47770156472852,1.50748605387249,1.454082066155,1.45313884204564,1.4654979950662,1.44830603398016,1.42708835349954,1.43243653143921,1.41764638844607,1.40342023512657,1.39462977538574,1.32678570723116,1.30797956880333,1.28230831469296,1.20979674579103,1.14217632871393,1.13077012376262,1.06692260312294,0.993370570512761,0.929653350935621,0.914057091667578,0.893181694575095,0.878157204148602,0.850396271057802,0.850968039899351,0.854042756016662,0.868870822453371,0.843411550668604,0.84289423600244,0.864876219730439,0.82063317462559,0.820940451758123,0.890036965946574,0.889315448122714,0.889609111711401,0.889847348728714,0.890016545630805,0.889713158082228,1.01561899074175,1.05066414218637,1.05091696514352,1.05262838208421,0.899360298689388,0.900183918092096,0.901443170897889,0.902488496586096,0.902536143989558,0.902737429959287,0.903927642649859,0.904970051150099,0.901209795860522,0.905965784642865,0.904376889596791,0.905555433535495,0.90620110447221,0.895909265324323,0.89735521816001
1.5118910077028,1.5546667072602,1.55374293107062,1.57301581957318,1.6027516889177,1.57864599234967,1.57929749766232,1.66262210996224,1.6273046876407,1.69788118852445,1.76625035051311,1.85056680672185,1.84837891574653,1.78537737961731,1.7851926243794,1.78416188463103,1.82051977066084,1.8280752874956,1.82773494889944,1.8230577241922,1.82264931787681,1.82395232850211,1.81567723863547,1.96543594490589,1.96503726255039,1.96651530445371,1.95756926135464,1.95849303754422,1.96103099107559,1.99160312097067,1.99226435024321,1.99226435024321,1.99441334537896,1.94876907765392,1.99316867851301,1.9895708133536,1.97959403050616,1.99980041915819,1.99969345559939,1.99853630437245,2.05695785539333,2.05761908466588,2.04712693194425,2.04801181229426,2.04692272878655,2.10191172196616,2.00818247258362,2.04038822774027,2.04192461340294,2.04177875400459,1.99447168913831,1.99223517836354,1.99185594392782,2.07304128505188,2.00552783153357,1.96954917993948,1.9609143035569,1.96140050155142,1.96467747603445,1.96466775207456,1.96356894460695,1.95155013018255,1.95175433334024,1.95092779674957,2.04703941630524,2.0706200190392,1.98188888504027,1.981558270404,1.97931203566934,2.04821601545196,2.04790484873547,1.96806141407627,1.96632082525591,1.94103852954114,1.93975496683562,1.98290990082875,1.98186943712049,1.94585188968684,1.94975119760284,1.95194881253805,1.89825310602385,1.89729043399471,1.89723209023537,1.9482926036193,1.93538890884488,1.93093533521513,1.93241337711845,1.88409502042358,1.92676375642219,1.9258497041925,1.96173111618769,1.93177159576569,1.93110064253326,1.81832215572563,1.81742755141572,1.9042138934366,1.89322581876057,1.74674408697318,1.76961484063515,1.75738209909316,1.71342980038903,1.71231154500165,1.68256595169724,1.68665001485116,1.7134589722687,1.68151576402909,1.68173941510656,1.6526453271148,1.65212023328073,1.61306881036131,1.57581632002159,1.57518426262872,1.52423071280358,1.48626837339187,1.4814355653264,1.45536562886052,1.49381416626674,1.45229285753519,1.44230635072785,1.43870848556844,1.42397668633465,1.43181419800623,1.36973643806659,1.36861818267921,1.33209498933126,1.30672517797748,1.25523681035838,1.25302947146328,1.24955801778245,1.22005552347529,1.12574283649933,1.09024065893987,0.997376841987562,0.94487232055992,0.916178859715641,0.912786170109917,0.913224720700969,0.85047795232088,0.879146130869445,0.879363947570988,0.833408513129458,0.8340784939659,0.837838749255476,0.838007946157567,0.840606188240254,0.846717697031304,0.887680850465156,0.889691765370469,0.890432731114109,0.889705378914315,0.891317611464126,0.892527272074479,0.894135615040333,0.895198443856342,0.897081002491103,0.897701391132104,0.899291258574167,0.900042920673687,0.901859356381194,0.903690378028536,0.903353929016332,0.904769737576359,0.906523939940568,0.901022123434639,0.888623102178526,0.907750131282734,0.893202114890865,0.913047744630966,1.08184888155455,0.908629177256816,0.909544201882493
1.49844277117452,1.54356194506548,1.54359111694516,1.54466075253309,1.56723006343846,1.56748288639561,1.58185489911346,1.59563375027801,1.62098411371201,1.70579649187515,1.7061465544312,1.79558753750212,1.79557781354223,1.79364274552406,1.78678735380141,1.78560103069479,1.87002445046232,1.86018380305335,1.82470107341366,1.83088551190389,1.82789053225768,1.84731900411849,1.84732872807838,1.84814554070916,1.83995796648154,2.01305417648866,1.90068409599642,1.89957556456893,1.8997992156464,1.9899694957091,1.9988863669285,1.9479911608627,1.94851625469678,1.95365050551885,1.94985816116164,1.95362133363918,1.95559529749691,2.04051463921885,2.03897825355618,2.05836782957743,2.05821224621918,2.05804693890105,1.97297201382087,2.00320380511979,2.06663319548418,2.06489260666382,0.00448409713985027,2.06533018485888,2.06283112716707,2.04922730728055,2.05689951163399,2.04694217670633,2.04698107254589,2.04623232763434,2.00474991474235,2.044666770092,2.04355823866451,2.04289700939197,1.99964483579994,1.98503944804472,1.98217087987708,1.9817527496018,1.93553476824323,1.93542780468444,1.95907647513764,1.96957835181915,1.96526091362786,2.0176244376371,2.04913979164154,2.04766174973821,2.01574771337827,2.01284024937107,2.02526747011087,1.94109687330048,1.94162196713456,1.93899649796418,1.93760597169987,2.01438635899363,2.0103120197996,2.00911597273309,1.88251001496146,1.95675244872386,1.95661631328539,1.8806721865422,1.88104169701803,1.88017626458779,2.03166583571868,1.93384279922232,1.93404700238002,1.8741571334157,1.9153283795912,1.82009191642566,1.82148244268998,1.83123557445994,1.82094762489601,1.80601162250452,1.79054080231906,1.7672616423417,1.79127982327072,1.70212083503662,1.70272372054982,1.70236393403388,1.72769484954809,1.67890974277849,1.67798596658891,1.76639620991146,1.66888434013159,1.66909826724918,1.7005358295745,1.62288028589061,1.60474510069521,1.63158322999243,1.54910460220295,1.53582167299281,1.53454783424718,1.45006607072031,1.44623483052353,1.47890733575492,1.47731260633291,1.4276328952534,1.39459087954618,1.39595223393082,1.37315927194797,1.36117935336313,1.31619631491063,1.31637134618866,1.28355298155891,1.25222238279239,1.2587179879991,1.19987830670293,1.13103267067965,1.05028490775065,1.03073002441127,0.958262213328855,0.929106864389787,0.930170665601785,0.902486551794118,0.8825271517233,0.881207610366187,0.845375790566443,0.833174165696102,0.83406779761002,0.835208418105152,0.839711583930347,0.838694457725822,0.85273293861944,1.14451980304749,0.891133828622199,0.891629750576604,0.890961714532141,0.891459581278524,0.893214756038722,0.893949887406429,0.895096342277494,0.896185425785207,0.896611335228402,0.896605500852468,1.16870329129465,0.900123629540776,0.902658665884176,0.902906626861378,0.901982850671801,0.90349589883073,0.903737053036009,0.903239186289627,0.905543764783626,0.906823437905189,0.905218012127301,0.906198187284243,0.90619138051232,0.906418921173753
1.54997975859308,1.55187593077169,1.5487545396469,1.54679029974906,1.56018991647789,1.55983985392184,1.56023853627734,1.60268362119847,1.62823818779016,1.64053899705139,1.70667164826528,1.70708977854056,1.79406087579935,1.79451790191419,1.78973371364817,1.79722116276369,1.80083847584288,1.8302729024308,1.8419999980585,1.83405552282813,1.83293726744074,1.86368442861385,1.95312541168478,1.95215301569575,1.94707710863301,1.87740493601906,1.92532461035843,1.90082023143488,1.90093691895357,1.92492592800292,1.93426092949761,1.96159498074922,1.95457428170843,1.95499241198371,1.95235721885344,1.94565741048903,1.94556989485002,1.98682865666454,2.03324111722091,1.98421291145405,1.97968154614517,1.98029415561826,1.97821322820173,1.99912946592576,1.99219628252398,2.03937693591168,2.02497575131416,2.04334431154692,2.0449682128486,2.04292618127164,2.05995283503955,2.07613350429699,2.06963789909028,1.96087540771734,1.94164141505434,1.91852756239511,2.02862223627302,1.92041401061383,1.92121137532483,1.92302975582432,1.9212405472045,1.96546511678556,1.98001216078144,1.96428851763883,1.96298550701353,1.96270351217672,2.02095975587947,2.02289482389764,2.14256759826748,2.03254099210881,1.99321729831246,1.99676654367242,2.02238917798334,1.99180732412837,2.02287537597785,1.9688296069076,1.95456455774854,1.92342843817982,1.93818940929328,2.00503190957917,1.8833754473917,1.90564331554047,1.8743516126135,1.88142093145375,1.88363799430874,1.88143065541364,1.84386699835743,1.84443098803107,1.84405175359535,1.85039177544382,1.85012922852678,1.81857497868278,1.81856525472289,1.81875973392069,1.85072239008009,1.80079958000332,1.82722930298514,1.76094106841301,1.74923342070509,1.81023182109691,1.70608821067186,1.70449348124985,1.72610012012608,1.76728109026148,1.71702766554844,1.71552045176544,1.67622592984877,1.69864938135578,1.67451451290807,1.63579370462492,1.61902959777406,1.58571531118991,1.5852193892355,1.62498066122692,1.56182354173946,1.48241768527532,1.52885931771136,1.52797443736134,1.4671024484481,1.48910776967984,1.47183801691468,1.41581828398669,1.38614075840152,1.34026311563911,1.33654856296102,1.37669879334804,1.34797421583211,1.26569006724044,1.20713238078109,1.1600392430324,1.09780589973452,1.03348190506022,0.991756393170973,0.948465323739384,0.943336907293243,0.916733125429387,0.895967609083665,0.877486250916172,0.911041691705598,0.849039778653106,0.849644608958282,0.847077483547245,0.845024755614404,0.835755877046975,0.835712119227469,0.836671874068641,1.10163713993129,1.1265790970499,0.887428027508009,0.888735900113253,0.889596470563544,0.890168239405093,0.89151403545391,0.892576864269919,0.894575138027375,0.89572159289844,0.896418800822574,0.897331880656273,0.898439439687777,0.899878585751541,0.900918077063813,0.901777675118115,0.900764438497547,0.902339719999774,0.902954274264841,0.902174412681639,0.903399631627816,0.903572718113864,0.904198941130798,0.903082630535393,0.903187649302208
1.53498541244225,1.55047568054748,1.55119525357937,1.59455439073019,1.54443710145561,1.59020778065922,1.59081066617242,1.59416543233457,1.59460301052964,1.63381974076719,1.76725191838181,1.76510292324605,1.7345988610702,1.7358046320966,1.76625035051311,1.80777165924466,1.81039712841504,1.80709098205234,1.82992283987475,1.86208969919184,1.8626342409457,1.86250782946713,1.86258562114625,1.86125343864128,1.85571078150381,1.85514679183017,1.98242370283423,1.99479257981469,1.9962803456779,1.90834657638997,1.90776313879656,1.90399996631901,1.89851565294089,1.90758810751853,1.90717970120314,1.90676157092785,1.99690267911088,1.9967859915922,1.99793341885925,1.99382990778555,2.00977720200563,2.00604320140776,2.12658140820784,1.96902408610541,1.96821699743451,2.01221791593809,1.99598862688119,1.99595945500152,2.00491522206048,2.00383586251266,2.00361221143518,2.07058112319964,2.07102842535459,1.95157930206222,1.91727317156926,1.91870259367314,1.91468659823844,2.01954005773548,1.92452724564742,1.92425497477049,1.92225183903309,1.92763891281232,1.92713326689802,1.93856864372901,1.9633161216498,1.92407994349247,1.94971230176328,1.97809654068305,1.94414047274614,1.91156520711366,1.9109234257609,1.9113221081164,1.91166244671256,1.91143879563509,1.90545856030256,1.90466119559155,1.90642123233169,1.93813106553394,1.93814078949383,1.93691557054766,1.93507774212839,1.87697708178388,1.87703542554323,1.87763831105642,1.87735631621961,1.94776750978522,1.84441154011129,1.8438961702371,1.84275846692994,1.84213613349696,1.86999527858265,1.84122208126727,1.84782465003278,1.85136417143285,1.78387016583432,1.83008814719289,1.75454270280519,1.87478919080857,1.87199841432005,1.78618446828821,1.72400946874967,1.72719892759369,1.72687803691731,1.72760733390908,1.73671868432628,1.73156498558443,1.71598720184018,1.67811237806748,1.65620429643465,1.60950011708157,1.64904746195539,1.51847412854853,1.49632294791844,1.50100017262567,1.54858923232877,1.51840606082929,1.46874579766956,1.46263915085846,1.46193902574636,1.47023356353278,1.46847352679263,1.46464228659586,1.38738542526747,1.38698674291197,1.34720602300078,1.33616932852529,1.33497328145879,1.27355675079169,1.20880490188222,1.18346426240812,1.08546619463374,1.04784419381819,0.981322584208687,0.951050924674213,0.94157589815711,0.908001009447903,0.911323686542417,0.940542241220772,0.896060959098611,0.898323724565083,0.847385733075767,0.849964527238673,0.865799995920017,0.90227359707252,0.855976851638842,0.873744471150387,0.883147540364301,0.885417112602696,0.886135713238588,0.88784713017928,0.889421439285519,0.889955284683496,0.892604091357612,0.892767453883769,0.894107415556651,1.07595616186103,0.896149447133613,0.897218110325556,0.897922125021614,0.900965724467276,0.900743045785788,0.900942386963539,1.08762491372938,1.08804304400466,0.903390880063915,1.16460950418084,1.10378613506705,1.09804899873178,1.09874912384388,1.10563368744621,0.926483340011385
1.48759083193695,1.51610148233529,1.56232918765375,1.58569586327013,1.57927804974253,1.59105376516968,1.57217955902262,1.57264630909735,1.64522594571851,1.6451384300795,1.6754869088971,1.6780929301477,1.73598938733451,1.74666629529405,1.7879931248278,1.78563020257446,1.83347208523471,1.78753609871296,1.83248996528579,1.88180016588947,1.86379139217265,1.86332464209791,1.90365962772285,1.90417499759704,1.9028136432124,1.96247013713935,1.96260627257781,1.90839519618942,1.90904670150207,1.91249870726313,1.91798302064125,1.90408748195802,1.90830768055041,1.90506960190694,1.90875498270536,1.90769507107732,1.90877443062515,1.99620255399878,2.00474019078246,2.00452626366487,2.0050999772984,1.98984308423053,2.05604380316365,1.99112664693605,1.96753632024219,2.05540202181089,2.07314824861067,1.99034873014482,2.07667804605085,2.11562250541148,2.12280851177041,2.10402182126236,2.04800208833437,1.92914612659531,1.95824021458707,1.91451156696042,1.91420040024393,1.91409343668514,1.93510691400806,1.91183747799059,1.90696577408555,1.92621921466833,1.90382493504099,1.91447267112086,1.90191903890249,1.90078133559532,1.88902506808796,1.89768911635021,1.89781552782878,1.93475685145201,1.92946701727169,1.9110206653598,1.91105956119936,1.94557961880991,1.94243877976534,1.95014987995835,1.91808998420005,1.96155608490966,1.96176028806736,1.90842436806909,1.96754604420208,1.9676238358812,1.91714676009069,1.87804671737182,1.8775605193773,1.8769576338641,1.87921359255865,1.8384896485381,1.83733249731116,1.83566970016992,1.86877978359637,1.8680407626447,1.7809821497469,1.8650360590386,1.86635851758368,1.8698494191843,1.75267570250626,1.74052075264339,1.74195989870715,1.7373021219197,1.73782721575378,1.73618386653232,1.75571930195192,1.77316408599511,1.71423688905992,1.67296840328552,1.6698761840404,1.60584390816282,1.60272251703803,1.65710862470445,1.51933956097876,1.50060149027017,1.50160305813887,1.50044590691192,1.53087217740865,1.48279691971104,1.54689726330786,1.49905538064761,1.45582265497536,1.47888788783514,1.46933895922287,1.42234306107308,1.42333490498189,1.36810281280502,1.31947328939366,1.31320133526442,1.28097613218799,1.24368474600871,1.15605241947738,1.14528799587882,1.04504369336978,1.00314315020251,0.974564432084933,0.949568993186932,0.941015798067429,0.923641026535452,0.896368236231145,0.862764175642267,0.862986854323755,0.839198158848139,0.852330366679982,0.853115090243128,0.866298835062389,0.914371175572035,1.26544696824319,0.884082012909758,0.885034960979007,0.885841077253912,0.887323008741193,0.888407230268961,0.889659676302831,0.8902119972246,0.892947347141739,0.892731475232175,0.892793708575473,0.894545966147704,0.896685237323568,0.89710433999484,0.898534734494702,0.899375857025213,0.89978912532055,0.893712622785105,1.09435389397346,0.903333508700562,0.90410753590783,0.905408601741151,0.992728789160002,1.01729151184288,0.912877575332886,0.913959852068676,0.926220793094347
1.4604901557227,1.51793931075456,1.63848724151453,1.64235737755087,1.64130718988272,1.60573694460402,1.62312338488787,1.65166320716588,1.65219802495985,1.65170210300544,1.67379493987619,1.68945051529956,1.67688715912131,1.74864998311167,1.7499238218573,1.74876667063036,1.77350442459127,1.83356932483361,1.83376380403142,1.82297993251308,1.9479911608627,1.94700904091378,1.9028136432124,1.90424306531627,1.90379576316132,1.89728071003482,1.89765994447054,1.91128321227684,1.91158465503344,1.90899808170262,1.91078729032244,1.90898835774273,1.9032123255679,1.90853133162789,1.92055014605229,1.90905642546196,2.00241616436868,2.07567647818215,2.06624423708857,1.94720352011159,1.9493914110869,2.00257174772692,1.99000839154866,1.99044596974372,2.03480667476325,1.94186506613182,1.94175810257302,1.91050529548562,1.90921200882021,1.91724399968959,1.92642341782603,1.93080892373655,1.92928226203378,1.93542780468444,1.9406787430252,1.93519442964707,1.92562605311502,2.01559213002002,1.95683024040298,1.92529543847876,1.89483999610235,1.89460662106499,1.89465524086444,1.893896771993,1.88072080634165,1.8810708688977,1.86695167913699,1.86652382490182,1.87123994544861,1.96219786626242,1.90427223719594,1.89392594387267,1.91630077558023,1.88383247350654,1.88464928613733,1.88395888498512,1.88370606202797,1.88299621295598,1.89933246557167,1.87748272769818,1.87629640459156,1.85760695368242,1.86385945989188,1.85066404632075,1.93478602333168,1.93397893466079,1.90223020561898,1.83709912227379,1.83586417936772,1.835484944932,1.83500847089738,1.80719794561113,1.79989525173352,1.83473620002045,1.83715746603313,1.83666154407873,1.7667559964274,1.76504457948671,1.74083191935988,1.74023875780657,1.73915939825875,1.73757439279663,1.7338014963592,1.74108474231703,1.66665755331672,1.65039909238014,1.63636741825845,1.6356186733469,1.58637654046245,1.54990196691396,1.53906947559617,1.51101585131267,1.4850431544457,1.48428468557425,1.46904724042616,1.4619001299068,1.44884085177413,1.44817962250159,1.44139229849817,1.43727906346457,1.42561031159622,1.40470379783209,1.37469565761064,1.33601374516705,1.33123928086092,1.32509373821025,1.31064393381327,1.31070227757261,1.13887018235123,1.14485041768376,1.02177425735231,1.04045398430156,0.999078534968364,0.935073486178471,0.919005614855749,0.890173101385038,0.875867211594438,0.86549563597545,0.889723854438107,0.852937141777136,0.859467753239457,0.8731406132412,0.873690016975001,0.888637688118361,0.875748579283776,0.888530724559568,0.888120373452197,0.886964194621241,0.888639632910339,0.889242518423537,0.890303402447568,0.891745465699299,0.892577836665908,0.895999698151303,0.897587620801388,1.22553011289353,0.903359763392266,0.905659479906321,0.907325194235528,0.90940709404804,1.23954233909544,1.07933037594296,1.09196179984045,1.07739530792479,1.09063934129537,1.09293419582948,1.09537490976195,1.10083977522029,1.11514372021891,1.11040815175234,0.911254646427196
1.42668967114404,1.47604849154717,1.53229187555263,1.63673692873428,1.6388178561508,1.61322439371955,1.61348694063659,1.61174635181623,1.65651546315114,1.68027109716313,1.67954180017136,1.75139213980074,1.74465343559676,1.78847932282232,1.76663930890872,1.76692130374554,1.76648372555047,1.77141377321485,1.7713651534154,1.77030524178736,1.85093631719768,1.87367093542118,1.86887702319527,1.86940211702935,1.86871171587713,1.91236257182466,1.96531925738721,1.94885659329294,1.90158842426622,1.90383465900088,1.90133560130907,1.90118974191072,1.90898835774273,1.90808402947293,1.92179481291825,2.01564074981948,2.01363761408208,2.01391960891889,2.07223419638099,1.92095855236768,1.95813325102828,1.91493942119559,1.9148324576368,2.00203692993296,2.00248423208791,1.94120383685928,1.93626406523501,1.92672486058263,1.92581080835294,1.92619976674855,1.90713108140369,1.90566276346025,1.87614082123332,1.87727852454048,1.91739958304784,1.86736008545238,2.00431233654728,1.91187637383015,1.89758215279142,1.89775718406944,1.89716402251613,1.88468818197689,1.88415336418292,1.88402695270435,1.88069163446198,1.87722990474103,1.89792249138758,1.89794193930736,1.87440995637285,1.8839783329049,1.88374495786753,1.88292814523674,1.91774964560389,1.91184720195048,1.88553416648734,1.88466873405711,1.88395888498512,1.88295731711642,1.87364176354151,1.87337921662448,1.90112167419148,1.85156837459055,1.92953508499092,1.92877661611948,1.84894290542017,1.84842753554598,1.90565303950036,1.83303450703965,1.84352665976127,1.84341969620248,1.83433751766495,1.83876191941503,1.82841562609176,1.82735571446371,1.84384755043765,1.83415276242703,1.8353877053331,1.7465204358957,1.78406464503213,1.75350223909693,1.74317539369344,1.71664843111272,1.75781967728822,1.72048939526938,1.67665378408394,1.62062432719606,1.61160049241787,1.61201862269315,1.58563751951079,1.58379969109152,1.53190291715702,1.52958861470313,1.49113035333702,1.48809647785125,1.46985432909706,1.44487347613889,1.45153438866374,1.48031730993901,1.38697701895208,1.36076122308785,1.35514077427126,1.34613638741285,1.33514831273681,1.32478257149376,1.31192749651879,1.33096700998399,1.28224997093361,1.20287328634914,1.16583472312702,1.14156371924084,1.03886897883945,0.997551873265588,0.961466258112707,0.950350799562112,0.916891625975599,0.913297650400147,0.875802061063173,0.875815674607019,0.944257766294853,0.882629253302148,0.840625636160034,0.848948373430137,0.858965024513129,0.876122951739553,0.87593527931367,0.887793648399884,0.889458390333102,0.891969116776776,0.892469900711126,0.889080128293369,0.889666483074754,1.05478710117986,0.897902677101833,0.899612149250547,0.901016289058705,1.0707732912395,0.914712486564184,0.917025816622085,1.08210170451169,1.20634474002998,1.09464561277017,1.0870998198953,1.05714029947331,1.05891006017334,1.09586110775646,1.0940135553773,1.10970802664024,0.933597389067124,0.932913794686837,0.933117997844533,0.910053737380744
1.43159054692875,1.43361313058593,1.62096466579222,1.6208868741131,1.62555437486044,1.60244052220121,1.58474291520088,1.59642139102912,1.62545713526154,1.61791134238667,1.64150166908053,1.73596021545484,1.73589214773561,1.73544484558066,1.77777324298311,1.76256496971469,1.76120361533004,1.80106212692036,1.76178705292346,1.76248717803556,1.77334884123302,1.78002920167765,1.904709815391,1.93878257084659,1.94454887906154,1.85998932385554,1.85737357864505,1.92273803702761,1.92281582870673,1.89465524086444,1.89873930401836,1.89716402251613,1.89280768848528,1.89375091259464,1.99177815224869,1.99038762598438,2.01327782756614,2.02479099607624,2.01412381207659,2.06586500265284,1.97212602931041,1.95986411588875,1.9242452508106,1.91808998420005,1.89905047073485,1.89885599153705,1.89871985609858,1.89014332347534,1.89022111515446,1.89001691199677,1.88688579691209,1.88650656247637,1.8860787082412,1.88488266117469,1.87014113798101,1.87161917988433,1.90546828426245,1.90467091955144,1.95191964065838,1.8997992156464,1.93736287270261,1.93610848187676,1.91228478014554,1.9105247434054,1.87925248839821,1.87927193631799,1.87808561321138,1.88119728037627,1.90288171093163,1.90208434622062,1.91496859307526,1.94278884232139,1.94352786327306,1.95543971413867,1.95170571354079,1.89837951750242,1.89836006958264,1.88452287465875,1.88423115586204,1.90448616431353,1.85530237518842,1.85556492210546,1.86401504325012,1.85013895248667,1.85043067128338,1.85018757228612,1.850109780607,1.8485053272251,1.85427163544005,1.85174340586857,1.8506154265213,1.84156241986343,1.78862518222067,1.78927668753332,1.78733189555526,1.78357844703761,1.82729737070437,1.73293606392896,1.73328612648501,1.73241097009488,1.74619954521932,1.67931814909388,1.69521682351451,1.71261298775825,1.72646963060191,1.62926892753854,1.622491327495,1.62217043681862,1.62207319721972,1.56871782930168,1.57915163826396,1.57222817882207,1.53215574011417,1.58304122222008,1.51585838333804,1.47417176728835,1.47628186658454,1.48065764853517,1.38420569038335,1.35886505090924,1.34358870992159,1.37425807941558,1.316429689948,1.31695478378207,1.28645072160622,1.28942625333265,1.31915239871728,1.2656317234811,1.21397804854386,1.13551541618908,1.0674671448768,1.02788090416341,1.02851296155628,0.950738785561735,0.911795298597096,0.900587462427543,0.900092512869127,0.905561267911429,0.908399691803405,0.870351781544663,0.871635344250182,0.880959649388985,0.876612066922035,0.869580671525363,0.860800908140417,0.882830539271877,0.990297799187428,0.897298819192646,0.898416102184041,0.89729492960869,1.05309513215895,1.06208979505747,1.05986300824259,1.05974632072391,1.00358072839757,1.06910077013837,1.07172623930875,1.12288399229159,1.13175224371153,1.08143075127926,1.07115252567522,1.06996620256861,1.07749254752369,0.965594079086137,0.963509262085657,0.965362648840748,0.975595171833304,1.02428303900401,1.0107667347565,1.03159545684151,1.11508537645957
1.38741459714714,1.42505604588247,1.44213131944983,1.51492488318857,1.51464288835175,1.58469429540143,1.57602052317929,1.57777083595954,1.57738187756393,1.60547439768699,1.62543768734176,1.6250973487456,1.74753172772429,1.79397336016033,1.75596240094918,1.75956999006847,1.79540278226421,1.77810385761938,1.77932907656555,1.76381936054053,1.76358598550317,1.81828325988607,1.82352447426694,1.85657621393405,1.8894820942028,1.89310913124188,1.89256458948803,1.95005264035944,1.87454609181131,1.87748272769818,2.0248298919158,2.00811440486439,1.95806518330905,2.00625712852534,2.01419187979582,2.03441771636763,2.04612536407555,2.03651809170394,2.04798264041459,2.05576180832683,2.04916896352121,1.97127032084006,1.94157334733511,1.94821481194018,1.89854482482056,1.90066464807664,1.89923522597277,1.88108059285759,1.92243659427101,1.92158088580066,1.85975594881817,1.85875438094947,1.89395511575234,1.82249373451857,1.82149216664987,1.86819634600295,1.87475029496901,1.90148146070743,1.90091747103379,1.89886571549694,1.90697549804544,1.90487512270914,1.9075200397993,1.89804890286615,1.8980975226656,1.88381302558676,1.88503824453294,1.88427977566149,1.87903856128063,1.9227477609875,1.91534782751098,1.94881769745338,1.94818564006051,1.85895858410717,1.85790839643902,1.90503070606738,1.90228854937832,1.92813483476672,1.92844600148321,1.91364613453018,1.85819039127584,1.85254077057958,1.84687170196353,1.84520890482229,1.84487829018602,1.8519184371466,1.85372709368619,1.9043111330355,1.87783279025423,1.81335321222169,1.88145982729331,1.88189740548837,1.81487987392447,1.81545358755799,1.78446332738763,1.81652322314593,1.81557999903657,1.8109416701689,1.80328891373524,1.80253044486379,1.8006245487253,1.79451790191419,1.68156438382854,1.68403426964067,1.68412178527968,1.68356751956594,1.61981723852517,1.61932131657076,1.61884484253614,1.66142606289574,1.54821972185294,1.54688753934796,1.54760711237985,1.58555000387177,1.52719652057012,1.53732888677581,1.48856322792598,1.48755193609739,1.42972354662981,1.42283898302749,1.4230237382654,1.34196480861991,1.35837885291473,1.2893776335332,1.28238610637208,1.27564740216811,1.25809565456612,1.22953638436833,1.23273556717224,1.12511077910646,1.08066255844793,1.0157745741,0.981692094684518,0.990365866906661,0.927554920391296,0.92776106834097,0.892997911733169,0.884434992653776,0.874337632703695,0.903101106059184,0.866750999197287,0.893791386860217,0.857323620083647,0.91669034000587,0.918137265237546,0.919643506624552,1.03514470220146,1.04428522449834,1.0455298913643,0.947682544968215,1.02982569614147,1.05398973646885,1.02472061719907,1.13685732265394,0.980661354936147,0.9814100998477,0.981585131125725,0.981964365561447,0.994624961338609,1.06452078503004,0.947901334065747,0.947114665710622,1.23659597924868,0.971588900358503,0.976052197948148,0.976382812584418,0.974010166371186,0.975614619753084,0.957664189795602,0.958613248280894,0.967362867390181
1.38146353369428,1.38612131048173,1.4196203523038,1.42491018648412,1.46902779250638,1.60831379397495,1.60772063242164,1.56366137015872,1.59215257263728,1.6092667420442,1.60912088264585,1.61498443045969,1.67892919069827,1.74733724852648,1.78692348923987,1.77544921656932,1.77796772218091,1.77899846192928,1.77771489922376,1.79335102672736,1.7999244236132,1.85577884922304,1.78986012512674,1.88112921265704,1.80739242480894,1.83290809556107,1.8865746301956,1.88755675014452,1.8561191878192,1.86381084009243,1.86461792876332,2.0047985345418,2.00301904988187,1.99305199099432,1.96996731021477,1.9729428419412,1.97079384680544,1.96687509096965,1.96618468981744,2.05670503243619,2.0628991948863,1.90106333043214,1.90233716917777,1.90447644035364,1.90013955424256,1.99847796061311,1.91505610871428,1.91437543152195,1.861632673077,1.86171046475612,1.88399778082468,1.85715965152747,1.87875656644381,1.85865714135057,1.87189145076126,1.8710551902107,1.87191089868104,1.95493406822437,1.91555203066868,1.90579889889872,1.9050112581476,1.90817154511195,1.90822988887129,1.94531707189287,1.90823961283118,1.91481300971702,1.88428949962139,1.91048584756584,1.95532302661998,2.00157017985822,2.00176465905603,1.8601351832539,1.93653633611193,1.85998932385554,1.86408311096935,1.86497771527926,1.86090337608523,1.85969760505883,1.86069917292753,1.84802885319048,1.84738707183772,1.84702728532178,1.85463142195599,1.85158782251033,1.85033343168448,1.83453199686275,1.83579611164849,1.84054140407495,1.83968569560461,1.81120421708594,1.81018320129745,1.78463835866565,1.79352605800538,1.79346771424604,1.79307875585043,1.80034255388848,1.73408349119601,1.73432659019327,1.73285827224984,1.7834909313986,1.78182813425736,1.70596179919328,1.70341412170203,1.70302516330642,1.68753489520118,1.68694173364787,1.6859109938995,1.6019543242067,1.59058701509495,1.56431287547137,1.55489035833768,1.58811712928281,1.54502053904903,1.53857355364176,1.53224325575318,1.52215950934695,1.52435712428215,1.47398701205043,1.47159491791742,1.4262326450292,1.40473296971176,1.41798672704223,1.36916272443306,1.37083524553419,1.27419853214445,1.27766998582529,1.27687262111428,1.18993069573516,1.18891940390657,1.11791504878765,1.05961018528544,0.989753257433572,0.965773972344107,0.966423532864779,0.942872102010487,0.903668985316777,0.910184038443274,0.90853582724187,0.886336026812328,0.889884299776297,0.892436839247499,0.892498100194808,0.903711770740295,1.1115458550595,0.934666052259068,0.935579132092766,0.934943185115941,0.933302753082448,0.948924294646206,0.949712907793309,0.950365385501947,1.04077487497794,1.13991064605949,1.15936828979997,1.13650726009789,1.18873464866866,1.19283815974236,1.21261669415922,1.23040181679857,1.04145555217027,1.0615549772635,0.947621284020906,0.946789885450286,0.959454370811405,0.961305812774517,0.964724757071944,0.964304682004684,0.964159795002318,0.957457069449939,0.972464056748629,0.973348937098646
1.34736160635902,1.42682580658251,1.40731954304258,1.4118995281509,1.45580320705558,1.45536562886052,1.57555377310455,1.57587466378093,1.58213689395028,1.64970869122793,1.6089652992876,1.62629339581211,1.64940724847133,1.74997244165675,1.74949596762213,1.72727671927281,1.8052337057133,1.78137110814251,1.7974156419615,1.79775598055766,1.80017724657034,1.79949656937802,1.78025285275513,1.87566434719869,1.84517973294262,1.84797050943114,1.81467567076677,1.81433533217061,1.81373244665741,1.8648415798408,1.86510412675784,1.97543217567311,1.9721357532703,1.97009372169334,1.89456772522543,1.97137728439886,1.97155231567688,1.96989924249553,1.96784748695868,1.96455106455587,1.94612416056376,1.8916894330979,1.90353321624428,1.98219032779687,1.98340582278315,1.91094287368068,1.90989268601253,1.98585626067551,1.97762006664843,1.87972896243284,1.84327383680413,1.84340997224259,1.84194165429916,1.91544506710989,1.91612574430221,1.91498804099504,1.88859721385279,1.87671453486685,1.90729638872182,1.92497454780238,1.93202441872284,1.93836444057131,1.91809970815994,1.90083967935467,1.88482431741535,1.85177257774824,1.85130582767351,1.85066404632075,1.93473740353223,1.94152472753566,1.93883119064604,1.94476280617912,1.94260408708348,1.96825589327407,1.96658337217294,1.86356774109517,1.85382433328509,1.85365902596696,1.85345482280926,1.85985318841708,1.84790244171191,1.84774685835366,1.84722176451958,1.81459787908765,1.8137421706173,1.86314961081989,1.86866309607768,1.83010759511267,1.87313611762722,1.86892564299472,1.86706836665567,1.7929037245724,1.79211608382129,1.79344826632626,1.68713621284568,1.69344706281448,1.68297435801263,1.68099067019501,1.67970710748949,1.68930465590121,1.66412932374524,1.65172155092522,1.65065191533729,1.60217797528418,1.58224385750907,1.5793169455821,1.5916372027631,1.56885396474014,1.56756067807473,1.505580157734,1.49320155679365,1.52828560407783,1.53045404713337,1.44201463193114,1.43774581353931,1.43729851138435,1.42318904558354,1.42426840513136,1.45903156173916,1.42055385245327,1.43854317825031,1.38544063328941,1.38638385739877,1.39370599919616,1.27248711520376,1.25109440344511,1.25244603386986,1.15612048719661,1.13292884285826,1.03002017533928,1.03035078997555,0.994236002942997,0.968564748832621,0.927794129804597,0.903652454584964,0.958609358696938,0.87903138814274,0.876348547609007,0.882912220534956,0.883855444644315,0.904328269797339,0.903517291542489,0.90281522163841,0.903105968039129,0.931670100216868,0.932316743549573,0.935618027932327,0.93431307251505,0.933795757848886,0.940600584980114,0.940598640188136,0.942980037965269,0.943929096450562,1.19639712906221,1.15474940885208,1.21404611626309,1.12973938401424,1.13563210370776,0.955056223753025,0.956007227030296,0.957158543881307,0.9406550391555,0.942300333168937,0.942430634231467,1.14016346901664,1.09836016544827,0.981312860248797,1.12208662758058,1.16227575380717,1.12142539830804,0.974544984165152
1.34731298655957,1.34720602300078,1.3562006858993,1.38814389413892,1.4315419271293,1.44147981413718,1.59418488025436,1.57286023621494,1.57863626838977,1.61332163331845,1.61734735271304,1.62944395881656,1.64728742521525,1.64200731499482,1.64138498156184,1.64093767940689,1.70659385658615,1.71323532119122,1.73953863269447,1.80826758119907,1.74667601925394,1.74655933173526,1.77110260649836,1.84364334727996,1.78531903585797,1.84376975875853,1.8453061444212,1.80774248736499,1.81545358755799,1.88154734293232,1.88209188468618,1.97516962875607,1.97321511281812,1.8477079625141,1.84771768647399,1.84679391028441,1.95479793278591,1.88163485857134,1.890882344427,1.85754860992308,1.85072239008009,1.85027508792514,1.8980975226656,1.89813641850516,1.89659030888261,1.95178350521992,1.8636358088144,1.86351912129572,1.86348022545616,1.86118537092205,1.84479077454701,1.84357527956072,1.84232088873488,1.88231553576366,1.88083749386033,1.95517716722163,1.94213733700874,1.95878475634093,1.99717494998781,1.92836820980409,1.92877661611948,1.93540835676466,1.93668219551029,1.86838110124086,1.86859502835845,1.90108277835192,1.90022706988158,1.87326252910579,1.89927412181233,1.90800623779381,1.97344848785549,1.93751845606085,1.91839142695665,2.00292181028297,1.8673406375326,1.86675719993919,1.86736980941227,1.86686416349798,1.86806993452437,1.88884031285004,1.89121295906327,1.83394855926933,1.80691595077432,1.8166496346245,1.89400373555179,1.80173308015279,1.83813958598205,1.82896016784561,1.82994228779453,1.81350879557994,1.85963926129949,1.78832373946407,1.7104542686626,1.69286362522106,1.67590503917239,1.66599632404418,1.69278583354194,1.75098373348535,1.75127545228205,1.68950885905891,1.6543470200956,1.65329683242745,1.69277610958205,1.59921216751764,1.56844555842475,1.7502252646139,1.50753467367195,1.52204282182826,1.49829691177617,1.51832826915017,1.46825959967505,1.47041831877069,1.42411282177311,1.37281893335181,1.38169690873165,1.6819047224247,1.38419596642346,1.37440393881393,1.36861818267921,1.38567400832678,1.25058875753082,1.39138197278238,1.26711948934432,1.24474465763675,1.23704328140364,1.2161464915994,1.20994260518939,1.10762709922372,1.03723535357788,1.03729369733722,0.984939897287876,0.991318814975909,0.937871069438909,0.917753168821879,0.94005312603829,0.886263097113151,0.875035813023818,0.940592805812202,0.8673791670062,0.869574837149429,0.907027641062885,1.04520900068792,1.03508635844212,0.938485623703975,0.93615673531025,0.940501400589233,0.932877816035242,0.930607271400859,0.93446379389335,0.936913259389714,0.935611221160404,1.10603236980171,0.941855948201951,0.944128437628313,0.943592647438357,0.943104504651865,0.94335927240099,0.946122821801812,1.118060908186,0.953672504260636,0.96173366700969,0.966610232894672,0.933217182235414,0.932893374371067,1.1146575222244,0.926600999926058,0.991571637933057,0.991163231617665,0.978842974436662,0.980534943457573,0.982022709320788
1.31327912694354,1.33016964527298,1.3306558432675,1.35428506580091,1.3973816560347,1.47292710042239,1.47437597044604,1.60217797528418,1.60249886596056,1.62826735966984,1.66881627241236,1.62207319721972,1.62324007240655,1.64156973679976,1.64244489318988,1.7134589722687,1.77223058584564,1.74777482672155,1.75249094726834,1.76750474133895,1.73138023034651,1.75435794756728,1.90887167022405,1.86041717809071,1.90695605012566,1.90736445644105,1.79838803795053,1.79417756331803,1.79027825540202,1.78968509384872,1.82970891275717,1.83582528352816,1.82408846394058,1.85467031779555,1.84497552978493,1.84647301960803,1.8628384441034,1.86847834083977,1.85708185984834,1.85547740646644,1.8534159269697,1.89427600642872,1.90115084607116,1.89450938146608,1.89554012121446,1.90152035654699,1.91539644731044,1.85159754647022,1.85512734391039,1.94771888998577,1.95489517238481,1.89521923053808,1.87502256584594,1.95537164641943,1.95759843323431,1.92181426083803,1.94634781164124,1.99802093449826,1.99777783550101,1.99723329374715,1.9962803456779,1.9202389793358,1.96033086596348,1.8868760729522,1.86593066334851,1.85698462024944,1.83985100292274,1.83925784136943,1.81311983718432,1.81305176946509,1.88560223420657,1.9259469437914,1.96062258476019,1.84647301960803,1.84575344657615,1.84748431143662,1.87402099797723,1.87416685737559,1.87349590414316,1.8788635300026,1.87860098308556,1.85664428165328,1.82805583957582,1.82737516238349,1.82716123526591,1.82663614143183,1.85794729227858,1.85620670345822,1.85795701623847,1.85880300074892,1.80351256481271,1.743214289533,1.70673971598451,1.6844037801165,1.70982221126973,1.66586018860571,1.69679210501674,1.70000101178053,1.69693796441509,1.67332818980146,1.73989841921041,1.70849002876476,1.6271977240819,1.62620588017309,1.53628842306754,1.52251929586289,1.5211093216788,1.50210870405316,1.49718838034867,1.48746442045838,1.4881450976507,1.44033238687012,1.38928159744608,1.38250399740255,1.33164768717631,1.3370639328352,1.34070069383417,1.27688234507417,1.27099934934054,1.25536322183695,1.22872929569744,1.20666563070636,1.19369386821271,1.24962608550168,1.25565494063366,1.17502386522334,1.11597998076948,1.11116662062378,1.02114219995944,0.993535877830896,0.977073213736629,0.935311723195783,1.01638718357309,0.885564916793028,0.880229380001224,0.880805038426729,0.862122394289508,0.909571428970186,0.906874974892607,0.944179974615731,0.910584665590754,0.917638426095174,0.940887441796878,0.941079003806716,0.939565955647787,0.949984206274248,0.950493741772499,0.951722850302632,0.904449819295968,0.905861738272039,0.907111267117941,0.909382784148314,1.24249842290209,1.07476011479452,1.17242756793263,1.27686289715439,1.08110013664299,1.30378854209062,1.08531061127549,1.38800775870045,1.30063797908616,1.09481092008831,1.09760169657682,0.93680726822691,0.931400746527907,1.06462774858884,0.906702860802549,1.06424851415311,1.06405403495531,0.981653198844957,1.00171372809863
1.29323804560965,1.28919287829528,1.40239921933809,1.40203943282215,1.35148456535251,1.46101524955678,1.58357604001404,1.58665853529927,1.59981505303084,1.59968864155226,1.63600763174251,1.5966450421066,1.64739438877404,1.61938938429,1.73300413164819,1.73315971500644,1.69968984506404,1.69952453774591,1.70339467378225,1.78418133255081,1.7635568136235,1.74935983218367,1.74688022241164,1.76308033958887,1.86119509488194,1.77613961772154,1.77618823752099,1.77374752358852,1.90443754451407,1.82430239105816,1.83442503330396,1.7986214129879,1.85350344260871,1.87196924244038,1.8727568831915,1.86807965848427,1.95115144782705,1.8774632797784,1.87803699341193,1.86763235632931,1.85707213588845,1.87176503928269,1.87198869036016,1.87120104960905,2.06676933092264,1.9333663251877,2.05166802121302,2.05197918792951,2.05021915118936,2.04943151043825,1.87206648203929,2.04367492618319,1.9058183468185,1.90428196115583,1.9159312651044,1.91463797843899,2.10974923363774,1.99823486161585,1.99906139820653,1.99886691900872,1.90207462226073,1.90175373158435,1.92583025627272,1.87463360745032,1.89093096422646,1.89413014703036,1.80665340385728,1.8123419203931,1.81152510776232,1.81490904580414,1.81396582169478,1.82744323010273,1.84180551886069,1.84110539374859,1.84072615931287,1.89560818893369,1.89370229279519,1.89705705895734,1.87409878965636,1.87248461231457,1.92853351712222,0.00443408681413449,1.82126851557239,1.82138520309107,1.8211615520136,1.79130899515039,1.76983849171263,1.78692348923987,1.78834318738385,1.7796791391216,1.77936797240511,1.7694592572769,1.77483660709624,1.75139213980074,1.77300850263686,1.67284199180694,1.69306782837875,1.69122999995949,1.61211586229206,1.6728808876465,1.62588498949671,1.67954180017136,1.67678019556251,1.55798257758279,1.55863408289544,1.5289176614707,1.51407889867811,1.49921096400585,1.49220971288484,1.46885276122836,1.42461846768741,1.39128473318348,1.39471729102475,1.3854503572493,1.31204418403748,1.31134405892537,1.28248334597098,1.24666027773514,1.22589962336936,1.22552038893364,1.24237201142352,1.23994102145095,1.16558190016987,1.13150914471428,1.12866002446642,1.10836612017538,1.09435389397346,1.07244581234063,1.0225813460232,0.975002010279996,0.966987522538416,0.912870768560963,0.910680932793668,0.872870287156249,0.909835920679202,0.911143793284446,0.904482880759595,0.858443820263009,0.83535038791955,0.829335146331414,0.898643642845474,0.85475649467261,0.860327351293759,0.859822677775453,0.960658197045823,0.890566921760595,0.891354562511709,0.888994557446335,0.889419494493541,0.966534386007528,1.23616812501351,0.905033256889386,0.892998884129158,0.89406851971709,0.898093266715683,0.891909800621445,0.977685823209717,1.1068394584726,1.10857032333307,1.10816191701768,0.989383746957741,1.09292447186959,0.93364211928262,0.947391798567495,1.24046611528502,0.889822066432999,0.883656103466563,0.884870626056861,0.885501711053741,0.883974076954976,0.990463106505563
1.2955912439031,1.29594130645915,1.337968261105,1.33719034431378,1.39416302531101,1.45546286845942,1.4453693980933,1.59971781343193,1.50199201653448,1.5309207972081,1.5700986316061,1.54190887188413,1.57697347124853,1.5942432240137,1.59618801599176,1.65705028094511,1.65756565081929,1.70422121037292,1.72600288052718,1.73202201169927,1.75156717107876,1.75298686922275,1.75285073378428,1.7561374322272,1.75505807267938,1.76940091351756,1.76935229371811,1.7869915569591,1.78898496873661,1.76943980935712,1.83430834578527,1.83366656443251,1.78330617616068,1.78242129581067,1.90905642546196,1.86923680971121,1.86751566881063,1.87448774805197,1.87475029496901,1.87381679481954,1.92513985512051,1.85820011523573,1.89772801218977,1.84107622186892,1.84046361239583,1.84973054617128,1.84902069709929,1.88453259861864,1.84755237915585,1.88271421811916,1.87730769642015,1.89099903194569,1.88936540668412,1.90785065443557,1.95531330266009,1.90850215974822,1.90772424295699,1.90710190952401,1.99941146076258,2.01254853057436,1.90059658035741,1.88118755641638,1.8874789584654,1.86225500650998,1.85468976571533,1.85833625067419,1.85514679183017,1.81075691493098,1.81375189457719,1.8135476914195,1.86055331352918,1.82395232850211,1.83032152223025,1.88086666574,1.81065967533208,1.83037014202971,1.79202856818228,1.89732932983427,1.99534684552843,1.99525932988942,1.93162573636734,1.93790741445647,1.93776155505811,1.85256021849936,1.78478421806401,1.77741345646716,1.75737237513327,1.78723465595636,1.78564965049424,1.75506779663927,1.69647121434036,1.69589750070683,1.76337205838558,1.67935704493344,1.62899665666161,1.60488123613368,1.60498819969247,1.59284297378949,1.5950405887247,1.53187374527735,1.52476553059755,1.53168899003944,1.53585084487248,1.53648290226535,1.58545276427287,1.54433013789682,1.48925362907819,1.48699767038364,1.48627809735176,1.55620309292287,1.58254530026567,1.50171974565755,1.45723262915945,1.37450117841283,1.35446982103883,1.27960505384345,1.27920637148795,1.23630426045198,1.23923117237895,1.16731276503034,1.1335900721308,1.12135733058881,1.15929049812085,1.08732347097278,1.06847843670539,1.05469958554085,1.0551468876958,1.01478273019119,1.00146090514149,0.923505863492977,0.924115555778099,0.899732726353186,0.857713550875248,0.857654234719917,0.835576956184994,0.835825889558185,0.8445375852239,0.860676441453821,0.832469178604056,0.841696244143956,0.890779876482193,0.891839788110235,0.914252543261373,0.912246490336006,0.859952978837983,1.30018095297132,0.913696332755649,0.867418062845762,0.873379822654501,0.875851653258614,1.07903865714625,0.878913728228067,0.878844688112846,0.886548009137937,0.867141902384877,0.878794123521417,0.879453408001978,0.880062127891111,1.10083977522029,0.879954191936329,0.880348984707874,1.22187390397478,0.883665827426454,1.12018073144209,1.12121147119046,0.984745418090071,0.879840421605612,0.881266926521518,0.882416298580551,0.882298638665878,0.884934804192137
1.28851220110296,1.28983465964804,1.30696827697474,1.33747233915059,1.33792936526544,1.42098170668844,1.42497825420335,1.49168461905077,1.41467085671964,1.45196224289892,1.48007421094176,1.51433172163526,1.51616955005453,1.55900359337127,1.55828402033939,1.6526453271148,1.64977675894717,1.72442759902495,1.73375287655974,1.71387710254398,1.73677702808563,1.79218415154052,1.72264811436503,1.74486736271435,1.8011204706797,1.78042788403316,1.77962079536226,1.76804928309281,1.76797149141369,1.74614120145998,1.74668574321384,1.80629361734134,1.80489336711714,1.86134095428029,1.87367093542118,1.86907150239308,1.85997959989565,1.85930864666322,1.90456395599265,1.88095418137901,1.82749184990218,1.82764743326042,1.84136794066563,1.86173963663579,1.84838863970642,1.84657025920693,1.84763017083498,1.83847992457821,1.83908281009141,1.89263265720726,1.89200059981439,2.00015048171424,1.9998879347972,1.9993822888829,1.91410316064503,1.91395730124667,1.91393785332689,1.91400592104612,1.88389081726588,1.88410474438347,1.95997107944754,1.96123519423328,1.89195198001494,1.86801159076503,1.82721957902525,1.82821142293406,1.80899687819084,1.8120404776365,1.81175848279968,1.81037768049526,1.83781869530567,1.83731304939138,1.78436608778872,1.85112107243559,1.84471298286789,1.79057969815862,1.79149375038831,1.79252449013668,1.80280271574072,1.85064459840097,1.86405393908968,1.81939179131356,1.82411763582025,1.82522616724774,1.78164337901944,1.757041760497,1.72351354679526,1.74709414952923,1.65987995327318,1.69591694862661,1.67410610659268,1.61551924825366,1.58144649279807,1.57879185174802,1.58434423284538,1.58884642627458,1.5824188887871,1.52415292112446,1.52012720172988,1.52283046257938,1.5116868045451,1.48488757108745,1.47743901781149,1.47908236703295,1.50131133934216,1.51861026398699,1.50094182886633,1.53234049535209,1.52937468758555,1.55422912906514,1.55554186365033,1.46200709346559,1.46117083291502,1.40390643312108,1.38814389413892,1.25239741407041,1.25612169070839,1.19825440540126,1.17123152086613,1.17936075133441,1.14915813191516,1.09565690459876,1.07969988641879,1.03329714982231,1.02046152276712,1.01369364668348,0.993039955876491,0.982100500999911,0.984025845058189,0.905258852758841,0.901104777093707,0.901131031785411,0.873136723657243,0.861550625447958,0.831854624338989,0.825990104129153,0.825008956576222,0.827489538744236,0.850294169478954,0.850514903368464,0.856798526249572,0.856844228861056,0.857486982609804,0.861502005648507,0.861586604099552,0.863455549190467,0.866646952826461,0.867637824339282,0.869780985099103,0.871093719684293,0.87247841157267,0.875416992251517,0.875340172968384,0.876228942902357,0.876849331543358,0.87944173925011,0.879604129380278,0.879154882433346,0.879017774598893,0.878304035942946,0.872487163136572,0.869736254883608,0.868991399556011,0.862248805768081,1.1451129646008,1.11837207490249,0.872793467873116,0.873837821165334,0.874380418127212,0.875126245850798,0.875931389729714
1.28455454942761,1.25834847752327,1.27799087650167,1.27964394968302,1.30225215642795,1.33053915574881,1.32660095199325,1.3601097177752,1.36006109797575,1.38047168978547,1.38194000772891,1.3964773277649,1.45579348309569,1.47542615811419,1.54215197088139,1.58478181104044,1.58581255078881,1.63626045469966,1.62887024518303,1.7130602899132,1.71358538374727,1.72308569256009,1.72565281797113,1.7263821149629,1.78354927515794,1.72725727135303,1.72725727135303,1.72787960478601,1.72682941711785,1.72085890574521,1.71489811833246,1.76633786615212,1.79473182903178,1.7961126313362,1.87751189957785,1.8812653480955,1.88109031681748,1.90572110721959,1.8888792086896,1.88810129189838,1.89545260557544,1.82683062062964,1.8258679486005,1.84794133755147,1.847805202113,1.93168408012668,1.84070671139309,1.84072615931287,1.84839836366631,1.84763989479487,1.89575404833204,1.89545260557544,1.90124808567006,1.90039237719971,1.91822611963851,1.9191401718682,1.89714457459635,1.89689175163921,1.93150904884865,1.93161601240745,1.85721799528681,1.85769446932143,1.82462328173454,1.82403984414112,1.76304144374931,1.76354708966361,1.80970672726283,1.75733347929371,1.77946521200402,1.77062613246374,1.7676603246972,1.79062831795807,1.78366596267662,1.78394795751344,1.78420078047059,1.80080930396321,1.80014807469067,1.7511295928837,1.75056560321006,1.75377450997386,1.83747835670951,1.80325001789568,1.77001352299065,1.76949815311647,1.78117662894471,1.79703640752578,1.72148123917819,1.71688180615008,1.64053899705139,1.58190351891291,1.57976424773705,1.57874323194857,1.58135897715906,1.56308765652519,1.56795936043023,1.55851739537676,1.49252087960133,1.4918499263689,1.48269968011213,1.48518901384405,1.44643903368123,1.44853940901753,1.4643991875986,1.47454127776418,1.47102120428389,1.4268355305424,1.39958899492979,1.39703159347864,1.38662695639603,1.33089894226476,1.41850209691641,1.42045661285436,1.33116148918179,1.33266870296479,1.22369228447426,1.19618320194462,1.16540686889184,1.16398717074786,1.15186139276466,1.1758698497338,1.10842446393472,1.10126762945546,1.05172405381442,1.04142638029059,0.99761994098482,0.978745734837759,0.958331253444076,0.921756523108713,0.89659285970461,0.898235236530081,0.909134823171112,0.89583244604119,0.882465890775991,0.833520338668197,0.857228325276722,0.823642740211636,0.913351132179543,0.915062549120235,0.859332590196982,0.847296272644776,0.863858121129925,0.862662074063419,0.862262419311928,0.861555487427903,0.86234993495094,0.864648679069006,0.866731551277507,0.868005390023135,0.869178099585905,0.870502502922963,0.871424334320563,0.873128944489331,0.874676998903866,0.877075899808802,0.877023390425394,0.878430447421519,0.878612285471468,0.878436281797454,1.09617227447295,0.86258039280034,0.865028885900716,0.864651596256973,0.863205643421286,0.864030235219983,0.970594139261726,0.874880229665573,0.873440111205821,0.875062067715522,0.884709208322682,0.885854690797759,0.887164508194981
1.21907340352637,1.24221642806527,1.24235256350374,1.2382879482696,1.26207275416125,1.44445534586361,1.37053380277759,1.30314676073786,1.3368694536374,1.34379291307929,1.3978775779891,1.36525369255716,1.39298642616428,1.45120377402747,1.5347325894851,1.52246095210355,1.51236748173742,1.54124764261159,1.55267329548269,1.58696970201576,1.62971622969349,1.63633824637878,1.63619238698042,1.64539125303664,1.65386082210109,1.74287395093684,1.70410452285424,1.71988650975619,1.70998751858787,1.75750851057173,1.73310137124709,1.73281937641028,1.77499219045448,1.79527637078563,1.80174280411268,1.80001193925221,1.79937015789945,1.79386639660154,1.79383722472187,1.79563615730158,1.79536388642465,1.79108534407292,1.79054080231906,1.78766251019153,1.85968788109894,1.85185036942736,1.85030425980481,1.84879704602181,1.86696140309688,1.86660161658094,1.86690305933754,1.86585287166939,1.86571673623092,1.89312857916166,1.89301189164298,1.8945968971051,1.88872362533136,1.88907368788741,1.89209783941329,1.8604269020506,1.8603296624517,1.79984663193407,1.79954518917747,1.82170609376745,1.75733347929371,1.7520339211535,1.75191723363481,1.75253956706779,1.76931339787855,1.73777859595433,1.73581435605649,1.7348030642279,1.74823185283639,1.72624597952444,1.75554427067389,1.72365940619362,1.79376915700264,1.79291344853229,1.73642696552958,1.71781530629955,1.82118099993338,1.7576446460102,1.75690562505853,1.77766627942431,1.71879742624847,1.73975255981206,1.76831183000985,1.69897027203216,1.58284674302227,1.56925264709564,1.58016293009255,1.57186839230613,1.52993867725918,1.53158202648064,1.56055942695372,1.51979658709361,1.50630945472577,1.48490701900723,1.4442608666658,1.43125020833259,1.41896884699115,1.39248078024999,1.36931830779131,1.37736002262058,1.36809308884513,1.35150401327229,1.33675276611871,1.3060056049456,1.30686131341595,1.27993566847972,1.28005235599841,1.31589487215403,1.22005552347529,1.17450849534916,1.16148811305605,1.17545171945852,1.15137519477015,1.1407080107705,1.14599784495082,1.12305902356961,1.10462239561761,1.14836076720416,1.07839687579349,1.00517545781958,0.984531490972484,0.962179996768654,0.938003315293416,0.90721336869679,0.924402412594862,0.913447399382457,0.923485443177207,0.821702810213523,0.822509898884417,0.821948826398747,0.920063581691813,0.919133971126301,0.919950783757086,0.885050519314831,0.924973209040423,0.857356681547274,0.859380237600444,0.86216031773308,0.860900092531298,0.861116936836851,0.863689896623823,0.865070698928245,0.866593471047065,0.866805453372673,0.86843129946633,0.870407208116038,0.871794817192383,0.873322451291148,0.874521415545621,0.875563824045861,0.877825617116343,0.876953377914184,0.878278753647231,0.970757501787883,0.888246784930771,1.09869078008454,1.22394510743141,0.882742051236876,0.88343925916101,0.882901524179077,0.884084930097725,0.884813254693508,0.884254126999817,1.03022437849698,1.03869394756142,0.885704941815448,1.42832329640561
1.17965247013112,1.17871896998165,1.19177824811432,1.19317849833852,1.23197709830079,1.23066436371561,1.23534158842284,1.28965962837002,1.29454105623495,1.28713139879854,1.33228946852907,1.33641242752255,1.3674221356127,1.37080607365452,1.36422295280879,1.4104020383278,1.4619973695057,1.4604901557227,1.51316484644843,1.57215038714295,1.53235994327187,1.62528210398351,1.65230498851864,1.63664941309527,1.59848287052586,1.67562304433557,1.67568138809491,1.68036833676203,1.76453893357242,1.76510292324605,1.76706716314389,1.70528112200096,1.70549504911855,1.71370207126596,1.7768786386732,1.76175788104379,1.76661013702905,1.73275130869104,1.76198153212127,1.76097024029268,1.79988552777363,1.79285510477295,1.75496083308048,1.76776728825599,1.80787862280346,1.86004766761488,1.79522775098618,1.79534443850487,1.86731146565293,1.8655417049529,1.86424841828749,1.82272710955593,1.87097739853157,1.88767343766321,1.88737199490661,1.88221829616475,1.84369196707941,1.78344231159915,1.8634316056567,1.86377194425287,1.84821360842839,1.84513111314317,1.83109943902148,1.83241217360667,1.81620233246955,1.75849063052065,1.7571390000959,1.76833127792963,1.76651289743014,1.76959539271537,1.73627138217133,1.73657282492793,1.820860109257,1.73724377816036,1.69557661003045,1.69381657329031,1.69941757418712,1.66128992745727,1.66294300063862,1.68121432127249,1.69929116270854,1.85103355679658,1.82044197898172,1.70942352891423,1.70778017969277,1.72035325983092,1.72044077546993,1.64910580571474,1.70184856415969,1.5622805678543,1.53527713123895,1.53429501129003,1.50923636665275,1.50876961657801,1.50790418414778,1.48720187354134,1.4811341225698,1.47785714808677,1.47758487720984,1.40222418806006,1.39137224882249,1.350288518286,1.35037603392501,1.39491177022256,1.33321324471865,1.31450434588972,1.29722486916467,1.3055096829912,1.27228291204606,1.24852727803408,1.22920576973206,1.18875409658844,1.17553923509753,1.1790787564976,1.15650944559222,1.13841315623639,1.11738995495357,1.11777891334918,1.07607284937971,1.07527548466871,1.06135077410581,1.05460234594194,1.05004180875339,1.00875387505921,0.971803799872078,0.942234210241683,0.929442341006002,0.884616830703725,0.857589084188652,0.859165338086869,0.830288094400663,0.857064962750566,0.857314868519746,0.833514504292263,0.832443896308341,0.832321374413723,0.881820219839276,0.842458602599355,0.834550106020579,0.873965205039896,0.864246107129548,0.864941370261704,0.866201595463486,0.868614109912268,0.869204354277609,0.871589641638698,0.872577595963552,1.05186018925288,0.953690979784428,0.956011116614252,1.16569858768855,1.30095886976254,1.30303979717906,1.30353571913347,0.900004997230115,0.900020555565939,0.901025040622606,1.18554518982464,1.33943657904843,1.06583351961523,0.928089738185262,0.883306040910513,0.883265200278974,1.08923909107117,0.872717620985972,0.870658086281208,0.87040526332406,0.866735440861463,0.866036288145351,0.865924462606612,0.856861731988858
1.1289809151428,1.16331621751543,1.14377105813594,1.15625662263508,1.17264149505022,1.23269667133268,1.2298669990046,1.23712107308276,1.25335036213966,1.26728479666245,1.28347518987979,1.38331108607344,1.36326028077965,1.28549777353697,1.26860725520753,1.28652851328534,1.29756520776083,1.29604827001794,1.33439956782526,1.33440929178515,1.32215710232338,1.31034249105667,1.55241074856565,1.62691572924508,1.60972376815904,1.59868707368356,1.60598004360128,1.63089282884021,1.6938262972502,1.69313589609799,1.67126671030472,1.67756783631363,1.67991131064719,1.69992322010141,1.81131118064473,1.81104863372769,1.81807905672837,1.76170926124434,1.76035763081959,1.7362033144521,1.7369034395642,1.79162016186688,1.7902977033218,1.80016752261045,1.78352982723816,1.87120104960905,1.79636545429335,1.79472210507189,1.733198610846,1.80718822165124,1.87534345652231,1.85760695368242,1.81487987392447,1.82853231361044,1.82803639165603,1.83821737766117,1.8247691411329,1.82372867742463,1.84701756136189,1.84504359750416,1.73664089264716,1.74907783734685,1.74692884221109,1.76612393903453,1.76630869427245,1.76617255883398,1.76691157978565,1.77586734684461,1.77454488829953,1.76631841823234,1.76021177142123,1.7606493496163,1.71940031176167,1.71994485351553,1.77380586734787,1.77279457551927,1.61609296188719,1.61629716504488,1.61076423186731,1.64624696150699,1.64645116466468,1.64475919564377,1.59682007338462,1.70295709558718,1.66708540755189,1.66595742820461,1.66588936048538,1.6337127772084,1.5836246598135,1.56926237105553,1.5595773070048,1.56146375522352,1.56198884905759,1.54669306015016,1.53496596452246,1.48556824827977,1.51256196093523,1.43807642817558,1.38690895123285,1.38442934146082,1.34689485628429,1.37000870894352,1.38502250301413,1.38031610642723,1.39097356646699,1.36703317721709,1.33092811414443,1.28664520080403,1.26411478573822,1.21307372027406,1.18182091318666,1.15281434083391,1.13475694731764,1.13622526526107,1.11843041866183,1.1017343795302,1.09977013963236,1.06888684302078,1.06826450958781,1.03325825398275,1.03760486405371,1.03475574380585,1.02520681519358,0.988391903048931,0.964289123668859,0.941056638698969,0.927445039644535,0.904912679786746,0.868093878058137,0.849809916276417,0.825640041573102,0.818896475389184,0.848188932162705,0.828708923314479,0.818443338858296,0.9069022019803,0.840116100661783,0.859191592778573,0.873251466383949,0.874107174854295,1.0017428999783,0.864167343054436,0.869322014192281,0.869635125700749,0.871564359342983,0.872810971000919,0.868902911521009,0.876792932575994,0.877700178033758,0.880682516532112,0.883328406018261,0.886239759609415,0.88855892404325,0.892712999708383,0.89665314825593,0.899160957511637,0.902836614350168,0.903598000409578,0.903534794670292,0.883129064840509,0.876121006947575,0.876912537282645,0.876150178827246,0.871553662987103,0.872100149532938,0.872840142880589,0.872534810540034,0.870918688406267,0.86952330016201,0.868973896428209,0.867936349907914
1.0697717233708,1.0790872769457,1.11898468437558,1.11771084562995,1.14610480850961,1.1363905725792,1.18018728792509,1.23275501509202,1.25054986169126,1.23483594250854,1.26682777054761,1.28596452361171,1.21518381957026,1.21593256448181,1.26191717080301,1.24774936124285,1.24567815778622,1.25273775266657,1.28638265388699,1.25017062725553,1.28338767424078,1.28031490291545,1.28417531499189,1.3765432099898,1.52412374924479,1.52202337390848,1.56531444334007,1.62353179120326,1.5616776823411,1.58140759695851,1.62879245350391,1.69040346336881,1.6320110842276,1.83100219942257,1.80363897629129,1.76634759011201,1.72324127591834,1.72305652068042,1.67707191435922,1.71490784229235,1.68780716607811,1.7062437940301,1.68758351500063,1.71300194615386,1.70892760695982,1.68978112993583,1.74314622181377,1.69470145364032,1.66438214670239,1.66442104254195,1.66358478199138,1.67165566870033,1.74406027404346,1.74973906661939,1.76650317347025,1.76982876775273,1.7858927494915,1.78447305134752,1.78422995235026,1.7288908966146,1.72660576604038,1.68533728026597,1.68830308803251,1.59823004756872,1.63680499645351,1.58940069198833,1.60298506395507,1.60853744505243,1.74984603017818,1.75787802104756,1.76698937146477,1.7544357392464,1.73088430839211,1.6323125269842,1.6898200257754,1.59207478095816,1.57168363706821,1.56935961065443,1.55274136320192,1.54857950836888,1.54832668541173,1.57954059665957,1.57878212778813,1.57013752744566,1.58748507188994,1.58637654046245,1.63468517319743,1.63510330347271,1.57878212778813,1.65498880144836,1.60246969408089,1.59260959875213,1.54396062742099,1.55568772304868,1.54207417920227,1.47285903270316,1.47128375120093,1.45029944575767,1.32954731184,1.35385721156574,1.31799524749034,1.37684465274639,1.33507052105769,1.31674085666449,1.32009562282664,1.3132207831842,1.27389708938785,1.25174590875776,1.19551224871219,1.20398181777664,1.16643760864021,1.12251448181576,1.09034762249866,1.11598970472937,1.08736236681234,1.11240156352985,1.04398378174174,1.06544456121962,1.01583291785934,0.996900367952938,1.0048545671432,0.995179227052356,0.991221575377006,0.979562547468544,0.926154670167093,0.916942190567029,0.877630165522548,0.891993426676501,0.859430802191874,0.852653202148339,0.831426770103816,0.820606919933886,0.862285756815664,0.827313535070222,0.828906319700252,0.837046246524417,0.836876077226337,0.947590167349257,0.839793265193425,1.27662952211702,0.95714493033746,1.45116487818791,1.40166019838642,0.873485813817305,0.874136346733966,0.876128786115487,0.879182109521039,0.881257202561628,0.880788507694916,0.881470157283225,0.883859334228271,0.893409235236528,0.893347974289219,0.894115194724564,0.899542136739337,0.898460832399536,1.0338027957366,1.30361351081259,1.16753641610782,0.892243332445682,0.892795653367451,0.890748759810544,0.889717047666184,0.95732579599142,0.870387760196257,0.872153631312335,0.869115866242607,0.872223643823545,0.871098581664238,0.871058713428688,0.86973333769564
1.04787336569786,1.04838873557204,1.08608852806671,1.09417886269544,1.11683568923982,1.15207531988225,1.12473154467074,1.13984257834026,1.15456465361416,1.19535666535395,1.20670452654592,1.19001821137418,1.19286733162203,1.19546362891274,1.21144009501249,1.21252917852021,1.20958281867345,1.22789303514687,1.22530646181605,1.22274906036491,1.23339679644478,1.25420607061001,1.26279232719314,1.27827287133848,1.37337319906556,1.45156356054341,1.50120437578336,1.46893055290748,1.50380067307407,1.52059395180461,1.57927804974253,1.57875295590846,1.58363438377339,1.58895338983338,1.64778334716966,1.7233774113568,1.53390605289442,1.52283046257938,1.6090625388865,1.53548133439665,1.54190887188413,1.60224604300341,1.57844178919197,1.62674069796706,1.70603959087241,1.70092478797011,1.66953584544424,1.66933164228655,1.7280838079437,1.72565281797113,1.63084420904076,1.62837432322863,1.60160426165065,1.58328432121734,1.58419837344702,1.68575541054125,1.6857067907418,1.74250444046101,1.74259195610002,1.68920741630231,1.68669863465061,1.65006847774387,1.58114505004147,1.57529122618751,1.56642297476757,1.56360302639938,1.55903276525094,1.55944117156633,1.59130658812683,1.59179278612134,1.59158858296365,1.63907067910795,1.63563812126668,1.64149194512064,1.66269017768148,1.66191226089025,1.53095969304766,1.53567581359446,1.52019526944911,1.50114603202402,1.53125141184437,1.5287231822729,1.45697980620231,1.47058362608883,1.55208985788927,1.5147887477501,1.58268143570414,1.58167014387555,1.61886429045592,1.58980909830372,1.54877398756668,1.54602210691773,1.52979281786083,1.52566985886734,1.47977276818516,1.47886843991536,1.44755728906861,1.39605919748962,1.32723300938611,1.30532492775328,1.28342657008034,1.31290961646771,1.28972769608925,1.2891734303755,1.19539556119351,1.21146926689216,1.2100301208284,1.16799344222266,1.17210667725625,1.16351069671323,1.14776760565085,1.14908034023604,1.06161332102284,1.06148690954427,1.05515661165569,1.03548504079762,1.02813372712056,1.0063520569663,1.00167483225907,0.975439588475059,0.976305020905295,0.980155709021852,0.963311865699885,0.919567659737408,0.923380424410392,0.886419652867385,0.877529036339689,0.852526790669765,0.851876257753105,0.827917392979409,0.833489221996548,0.817676118422952,0.819538256741943,0.819069561875231,0.839859388120679,0.840592574696408,0.843534072563222,0.947534740777883,0.949729438525122,0.858759848959444,0.845435106721774,0.845902829192497,0.936706139044051,1.20984536559049,1.2110316886971,0.963038622426967,1.22236982592918,1.34989955989039,1.10608098960116,0.954366794996803,0.889694682558436,0.891938000105127,0.974331057047566,1.00796623430809,0.887601113994056,0.887483454079383,0.888873007947706,0.889329061666561,0.89003113157064,0.890820717113732,0.89697403893231,0.897022658731761,0.897793768751062,0.898556127206461,0.896437276346366,0.895770212697892,0.986641590268678,1.12310764336906,0.866389267889368,0.866920196099379,0.87361125289989
1.02363153369136,1.0313037380448,1.04808729281545,1.05492323661832,1.12207690362069,1.07839687579349,1.11774001750962,1.11341285535844,1.12219359113938,1.12190187234267,1.13872432295288,1.13922996886717,1.15297964815205,1.15328109090865,1.15370894514382,1.15377701286305,1.16123529009891,1.15775411245818,1.19497743091823,1.19865308775676,1.19775848344685,1.2294683166491,1.23723776060144,1.26628322879375,1.32405327450199,1.3866561282757,1.40624990745464,1.42083584729008,1.46350458328869,1.43465359429419,1.41998013881974,1.45612409773196,1.45411123803467,1.46180289030789,1.48443054497261,1.46941675090199,1.46889165706792,1.45282767532915,1.47526085079606,1.47150740227841,1.5050745118197,1.47537753831474,1.54503026300892,1.62060487927628,1.62206347325983,1.60277113683748,1.6566515985896,1.68599850953851,1.68566789490224,1.59951361027424,1.58540414447342,1.5768081639304,1.57782917971888,1.55146752445629,1.55531821257285,1.53320592778232,1.54119902281214,1.59631442747033,1.60174039708911,1.60157508977098,1.60287810039628,1.60070965734074,1.59647001082857,1.5960421565934,1.5658881569736,1.53824293900549,1.53128058372404,1.50522037121806,1.50627055888621,1.51580976353859,1.54839475313096,1.61659860780148,1.626303119772,1.61418706574869,1.63226390718475,1.55924669236853,1.51207576294071,1.48882577484302,1.46051932760237,1.44319123107787,1.40629852725409,1.4275356556545,1.38404038306521,1.4046940738722,1.39758585919239,1.40601653241728,1.55919807256908,1.53697882421976,1.52719652057012,1.50566767337301,1.48181479976212,1.48977872291227,1.42476432708576,1.35939014474332,1.38636440947899,1.38608241464217,1.33316462491919,1.34702126776286,1.34559184565899,1.29462857187396,1.29207117042281,1.25007338765663,1.18936670606153,1.15937801375986,1.11113744874411,1.1925950607451,1.19233251382807,1.10953299536221,1.1087453546111,1.09810734249112,1.06921745765705,1.0480289490561,1.05478710117986,1.04587022996046,1.05652769000022,1.04828177201325,1.00422250975033,0.990793721141833,0.981789334283421,0.960987839286104,0.949615668194405,0.94227796806119,0.912701571658872,0.876582895042364,0.889479783044861,0.850936923227702,0.843618671014267,0.81538320868082,0.816019155657646,0.819834837518597,0.829596720852463,0.835038248807072,0.879200585044831,0.978045609725658,0.846031185463049,0.847746491987697,0.847481027882692,0.846996774680155,1.08303520466116,0.855624844290813,0.856732403322317,0.846666160043885,0.847370174739942,0.847901102949953,0.849641691770315,1.06770051991417,0.869021543831671,0.871700494781447,0.873162978348947,0.872968499151141,1.23630426045198,0.87977235388638,0.881777434415759,0.882139165723678,0.887058517032177,1.14506434480135,0.937211784958347,0.939964638003289,1.04224319292138,1.04566602680276,0.895212057400189,0.897693611964192,0.899204715331144,0.89775584530749,1.19996582234195,1.13642946841877,0.900669143690622,0.860393474221013,0.860838831583989,0.861445606681143,0.860729923233217
0.991561913973167,1.00864691150041,1.0037557596756,1.03028272225632,1.04467418289395,1.05423283546611,1.06752548863614,1.08826669508214,1.09703770690319,1.11320865220074,1.1144533190667,1.1131503084414,1.10803550553911,1.13267601990111,1.13500004631489,1.12602483133615,1.12938932145819,1.15811389897412,1.20373871877938,1.20145358820516,1.18611890345817,1.28362104927815,1.3912652852637,1.27620166788185,1.29546483242452,1.30045322384824,1.32927504096308,1.33208526537137,1.37950901775634,1.36478694248243,1.37999521575085,1.38838699313617,1.4163142059411,1.41095630404155,1.43397291710187,1.45854536374464,1.43874738140801,1.4037897456024,1.4142041066449,1.41292054393939,1.47629159054443,1.4751247153576,1.46214322890405,1.44551525749165,1.57445496563695,1.60897502324749,1.60873192425023,1.60329623067156,1.60148757413197,1.57187811626602,1.59596436491428,1.58097001876345,1.52792581756189,1.52504752543436,1.52526145255195,1.49210274932605,1.4913540044145,1.49197633784747,1.51216327857973,1.51173542434455,1.60005815202809,1.60166260540999,1.5991538237583,1.62625449997254,1.63860392903322,1.5179976545139,1.50173919357733,1.50133078726194,1.49233612436342,1.49560337488655,1.48802841013202,1.61968110308671,1.56486714118512,1.57584549190126,1.56214443241584,1.53134865144328,1.53074576593008,1.47689447605763,1.4680067767179,1.39659401528358,1.38509057073336,1.38151215349374,1.35661881617458,1.34977314841182,1.34415269959523,1.34491116846667,1.35180545602889,1.36276435882525,1.3624142962692,1.35965269166035,1.40309934445019,1.40359526640459,1.35008431512831,1.33373833855272,1.31889957576013,1.30276752630213,1.30172706259387,1.2793619548462,1.23566247909922,1.27231208392573,1.15147243436905,1.13762551548527,1.12532470622405,1.08547591859363,1.08434793924635,1.06753521259603,1.05367856975236,1.0515392985765,1.05435924694469,1.0371089420993,1.0367102597438,1.03347218110033,1.00740224463446,1.02443862236225,1.02514847143424,1.0163774596132,0.994430482140803,0.995616805247419,0.960061145908559,0.948085116907673,0.936858805214329,0.930863011545974,0.940387630258517,0.855891280791807,0.852870046453893,0.851379363402711,0.821237032534777,0.821069780424664,0.82326836775586,0.822819120808928,0.857984849356187,0.838039062829216,0.878281670835198,0.889226960087713,0.889552712744038,0.8450782373938,0.843161644899423,0.843429053796406,0.911429677705221,0.857684378995577,0.857616311276345,0.858742345831641,0.846894673101307,0.847554929977858,0.849462770908334,0.852437330238775,0.853657687205007,0.863423460122829,0.864822737951042,0.866035315749362,0.866191871503596,0.867428759201641,0.870594880541921,0.870897295694509,0.872160438084258,0.86877163806249,0.869078915195024,0.867837165517033,0.867553225888237,0.867728257166262,0.957323851199442,1.09855464464607,0.857913864448988,0.858010131651902,0.861119854024818,0.860445983604421,0.859843098091223,0.861376566565922,0.864297644116966,0.863735599235307,0.863701565375691
0.957142013149493,1.18961952901867,1.03835360896526,0.971540280559051,0.984784313929632,0.995130607252904,1.00257916052887,1.00378493155527,1.06895491074002,1.1031346297544,1.22893349885513,1.09817541021035,1.09522905036359,1.10365972358848,1.1043404007808,1.10320269747363,1.10502107797312,1.11707878823708,1.12844609734883,1.15164746564708,1.1530282679515,1.33355358331481,1.28725781027712,1.33048081198947,1.27351785495213,1.24998587201762,1.28393221599464,1.29343252480745,1.33663607860003,1.33667497443959,1.48060902873572,1.35997358233673,1.36674145842038,1.36671228654071,1.4131052991773,1.40217556826061,1.39419219719068,1.40433428735626,1.39771227067097,1.40360499036448,1.43489669329145,1.41646978929934,1.38191083584924,1.44712943483344,1.43874738140801,1.5048800326219,1.61199917477337,1.59506003664448,1.59396122917688,1.64616916982787,1.59602270867362,1.58877835855535,1.52349169185192,1.52302494177718,1.48853405604631,1.49039133238536,1.49778154190198,1.49648825523657,1.48117301840936,1.47234366282897,1.50137940706139,1.52728403620913,1.52367644708983,1.5298219897405,1.49716893242889,1.48157170076486,1.51526522178473,1.44683771603673,1.45091205523076,1.44919091433018,1.46415608860134,1.48304001870829,1.59200671323893,1.59094680161089,1.57603024713918,1.57509674698971,1.4546849516682,1.44005039203331,1.41039231436791,1.40995473617285,1.37422890753591,1.32068878437995,1.3206304406206,1.32296419099428,1.36705262513687,1.36890017751602,1.30271890650268,1.30493596935767,1.29509532194869,1.30421639632579,1.32742748858392,1.30305924509884,1.30804763652256,1.24941215838409,1.25727884193534,1.22663864432102,1.20119104128812,1.17494607354422,1.1639482749083,1.10821053681713,1.10929962032485,1.0895113619481,1.08887930455523,1.08638024686342,1.07855245915174,1.05882254453433,1.02460392968039,1.02663623729746,1.02293140857926,0.995782112565554,0.979786198546021,0.972940530783253,0.971308850313662,0.984930173327986,0.980612735136696,0.950181602660021,0.943350520837089,0.943368996360881,0.938716081553375,0.912285386175567,1.08375477769304,0.883353688313975,0.903561049361995,0.903540629046226,0.838698347309778,0.930858149566028,0.821854503987811,0.903695240008481,0.905202453791477,0.826570624534604,0.825106196175125,0.886981697749044,0.887128529543387,0.855933093819335,0.855601506787076,0.85581835109263,1.20077291101284,1.03284984766735,1.03840222876471,1.18998903949451,1.19525942575504,1.25190149211601,1.21815935129669,0.850391409077857,0.851603014480187,1.23917282861961,0.859948116858038,0.862429671422041,0.862461760489679,0.872760406409489,0.870430545619775,0.871763700520734,0.873069628334,0.873211598148399,0.875839012110756,0.876280479889775,0.875943058481582,0.874309433220013,0.873197984604552,0.872042778169585,0.872457991256901,0.869422170979151,0.872040833377607,0.864646734277028,0.866015867829581,0.868220289536711,0.869033212583539,0.868338921847372,0.867926625948024,0.866864769528004,0.867320823246859
1.11442414718703,0.938840548239971,0.944813004404589,0.940131890113402,0.940010340614773,0.971793103516199,0.979261104711945,0.980058469422949,1.00980406272736,1.035008566763,1.03768265573283,1.08290879318259,1.07334041665054,1.09068796109482,1.08755684601015,1.08796525232554,1.09168952896352,1.11713713199642,1.11641755896454,1.13526259323193,1.15797776353566,1.17868979810198,1.30381771397029,1.30254387522466,1.29961696329768,1.31009939205942,1.24670889753459,1.26570951516022,1.36819032844403,1.29059312851949,1.33124900482081,1.33022798903232,1.37823517901071,1.36789860964732,1.35976937917904,1.35967213958014,1.4027881777337,1.3706310423765,1.36566209887256,1.37726278302168,1.36573016659179,1.39285029072582,1.39934589593253,1.37353850638369,1.44749894530927,1.42940265595343,1.56460459426808,1.60226549092319,1.61639440464379,1.61595682644872,1.65422060861703,1.54096564777478,1.56356413055982,1.5382332150456,1.50245876660921,1.50173919357733,1.46131669231338,1.44393025202953,1.46073325471996,1.46147227567162,1.4622988122623,1.50634835056533,1.50761246535107,1.48742552461882,1.47119623556192,1.44405666350811,1.43049173946115,1.43208646888315,1.42735090041658,1.43110434893423,1.41439858584271,1.4553850767803,1.50478279302299,1.52760492688551,1.52888848959103,1.48358456046215,1.48444999289239,1.38662695639603,1.37711692362332,1.37695161630519,1.43106545309467,1.33104480166311,1.28704388315953,1.26817940097236,1.2602252017821,1.25328229442043,1.25619948238752,1.23633343233165,1.23849215142729,1.1927992639028,1.19675691557815,1.19007655513352,1.18991124781538,1.23260915569366,1.2188497524489,1.15192946048389,1.13967727102212,1.13335669709343,1.08850007011951,1.09887553532245,1.07441005223847,1.07506155755112,1.05530247105404,1.04151389592961,1.03324853002286,1.01834169951104,1.01951829865776,0.988275215530247,0.989607398035218,0.954531129918949,0.957215915244659,0.956708324538386,1.00454340042671,0.935369094559136,0.923331804610941,0.917457560441214,0.963561771469065,0.952458954066327,0.889324199686616,0.861186949348061,0.936244250949262,0.822474892628812,0.823227527124321,0.833634108998913,0.822492395756614,0.869079887591013,0.899386553381092,0.901179651584862,0.887693491613013,0.855629706270758,0.855953514135105,0.976528671982772,0.973018322462376,1.14000788565839,0.871984434410244,0.873256328363894,0.873973956603798,0.874868560913705,0.874651716608151,0.873810594077641,1.07461425539617,0.859250908933904,0.856857842404902,0.856342472530717,1.0903087266591,0.865605516722211,0.867734091542196,0.870989673313467,0.872387006349702,0.873036566870373,0.872345193322174,0.872154603708324,0.873256328363894,0.873516930488954,0.874723673911339,0.874446541054466,0.873237852840102,0.873454697145656,0.872366586033932,0.870079510667735,0.869204354277609,0.868141525461599,0.868369066123032,0.867274148239385,0.868183338489128,0.867117592485151,0.866829763272399,0.865913766250733,0.866352316841785,0.866183119939694,0.864783842111481
0.888094118760494,1.07765785484183,0.939883929136199,0.929978131195957,0.931040960011966,0.953400233383708,0.953379813067938,0.974156025769541,0.975420140555279,1.01848755890939,1.07812460491656,1.04829149597314,1.05467041366117,1.05513716373591,1.09282723227069,1.07733696416545,1.10224002544449,1.10812302117812,1.22600658692815,1.12944766521754,1.13340531689288,1.13536955679072,1.14187488595733,1.16392882698852,1.16265498824289,1.21572836132411,1.22892377489524,1.24301379277628,1.24060225072349,1.26606930167617,1.27327475595487,1.30064770304605,1.31586570027436,1.33392309379064,1.35066775272172,1.35057051312282,1.34464862154963,1.34405545999632,1.35314736249375,1.34589328841559,1.32860408773065,1.34684623648484,1.40340078720679,1.39861659894076,1.41256075742344,1.43062787489961,1.43048201550126,1.55300391011896,1.60192515232703,1.5334295788598,1.53143616708229,1.55925641632842,1.55378182691018,1.48395407093798,1.47518305911694,1.40778629311731,1.40939074649921,1.44976462796371,1.41249268970421,1.4451651949356,1.45830226474739,1.54073227273741,1.57565101270345,1.43417712025957,1.43146413545018,1.4235293841797,1.40816552755303,1.40963384549647,1.4406532775465,1.38779383158287,1.40100869307377,1.44954097688623,1.44587504400759,1.4475670130285,1.42630071274843,1.42059274829283,1.47668054894004,1.36663449486159,1.34065207403472,1.33995194892262,1.35350714900969,1.2918864151849,1.27096045350098,1.20264963527167,1.18393101248285,1.18444638235704,1.17557813093709,1.16931590076774,1.16836295269849,1.1705605676337,1.22520922221715,1.22497584717978,1.15741377386202,1.15548842980374,1.1229715079306,1.11870268953876,1.09062961733548,1.08926826295084,1.08287962130292,1.05770428914695,1.0547482053403,1.03239282155251,1.02477896095841,1.02687933629471,1.01440349575547,0.973883754892612,0.973689275694806,0.968679491559327,0.97000875687633,0.95354803757404,0.922563611779608,0.913757593702957,0.940673514679291,0.907635388556028,0.906102892477318,0.905050760017188,0.897370776495834,0.882644811637973,0.85181110722184,0.849712676677514,0.846198437573162,0.937786470987863,0.940117304173566,1.00488373902287,0.822504064508483,0.913390028019104,0.906405307629906,0.927111507820298,0.964863809698375,0.962728428106467,0.961814375876779,1.00405720243219,1.46683017757117,1.10857032333307,0.872311159462557,0.873227156484223,0.874986220828377,1.04797060529676,1.01069866703727,0.843147058959588,0.843247215746458,0.842907849546287,0.844797214952971,0.846545582941246,0.850319451774669,0.855715277117793,0.857034818474906,0.858014993631847,0.865534531815012,0.866643063242505,0.86717885343246,0.866784060660914,0.868846512553646,0.870021166908393,0.869050715711342,0.868896104749086,0.869084749570958,0.869392026703491,0.869212133445521,0.869033212583539,0.869014737059748,0.868667591691664,0.869038074563484,0.868126939521764,0.868299053611822,0.868135691085665,0.868910690688922,0.868777472438425,0.873839765957312,1.21926788272418,1.09513181076469
0.897897815121888,0.897482602034572,0.894407885917261,0.894796844312873,0.953683200616515,0.948817331087412,0.943649046405721,0.94506291017377,0.977530239851472,0.998008899380432,1.1579388676961,1.04620084459673,1.04249601587853,1.04671621447091,1.04784419381819,1.06775886367351,1.09140753412671,1.08955025778766,1.0774828235638,1.09305088334816,1.09587083171635,1.0954235295614,1.12553863334164,1.13804364576055,1.14963460594979,1.1547299609323,1.20681149010471,1.18925974250273,1.20413740113488,1.2153394029285,1.22723180587433,1.28169570521987,1.27390681334774,1.33660690672036,1.33884341749513,1.31811193500902,1.33837666742039,1.29976282269603,1.30348709933402,1.30652097481979,1.31831613816672,1.30743502704948,1.31597266383315,1.31724650257878,1.32741776462403,1.41988289922084,1.50944056981044,1.5395362256709,1.53654124602469,1.53247663079055,1.4910525616579,1.47990890362362,1.37120475601002,1.37474427741009,1.36649835942312,1.36644973962367,1.31968721651125,1.35102753923766,1.36113073356368,1.37158399044575,1.4364525268739,1.3962731246072,1.39041930075324,1.33277566652358,1.33561506281155,1.33926154777041,1.32069850833984,1.32275026387669,1.3225363367591,1.32352818066791,1.40440235507549,1.40030856796167,1.38002438763052,1.3799465959514,1.40401339667988,1.39733303623524,1.38734652942791,1.38100650757944,1.31769380473374,1.30827128760004,1.31008966809953,1.28268754912868,1.33595540140771,1.12805713895322,1.14572557407389,1.13302608245716,1.12658882100979,1.1185665541003,1.11840124678216,1.11055401115069,1.09873939988399,1.10868701085176,1.09394548765807,1.08968639322612,1.08528143939582,1.0679727907911,1.05795711210409,1.05993107596182,1.03728397337733,1.02711271133208,1.02472061719907,0.999253566246389,0.991542466053386,0.958304026356383,0.957701140843185,0.946461215605994,0.944395846525296,0.947510430878157,0.926777003600072,0.906767038937825,0.894654874498475,0.897226861889458,0.911145738076425,0.87074560192022,0.89695459101253,0.884174390528716,1.00335707732009,1.00343486899922,0.86175871818961,0.854223621670622,0.857279862264141,1.04524789652748,0.963473283434063,0.920502132282865,0.96741343198161,1.06231344613495,0.97976675062624,0.965038840976401,1.15256151787676,0.868495477601606,0.869139203746344,0.869137258954365,0.915024625676663,0.99797000354087,0.848973655725852,0.848168511846936,0.846274284460306,0.845661674987218,0.844392698221534,0.844236142467301,0.853817160147207,1.05105310058198,0.857042597642818,1.0832977515782,0.860328323689748,0.860505299759752,0.860651159158106,0.859941310086114,0.864485316542849,0.869395916287447,0.869315207420358,0.870510282090875,0.869856831986247,0.869911286161633,0.868566462508805,0.868126939521764,0.869025433415627,0.868512980729409,0.870165081514769,0.870921605594234,0.871185124907262,0.869962823149051,0.87154685621518,0.871846354179801,0.871219158766877,0.874518498357654,0.875530762582234,0.877075899808802,0.876574143478462,0.878269029687341,0.878034682253985
0.89010114408185,0.889394212197826,0.88833819015374,0.888526834975612,0.887712939532794,0.974194921609102,0.986680486108239,0.987127788263193,0.943253281238186,0.980048745463059,0.977919198247084,0.985192720245024,1.01718454828409,1.02725857073044,1.02861020115519,1.04066791141915,1.04094990625597,1.04188340640544,1.06855622838451,1.06850760858506,1.07266946341811,1.09163118520418,1.10520583321103,1.11870268953876,1.14672714194259,1.14677576174204,1.15599407571804,1.13631278090008,1.18325033529053,1.17672555820414,1.19101005528299,1.19888646279412,1.23501097378657,1.24988863241872,1.27688234507417,1.31335691862267,1.26223806147939,1.27595856888459,1.38832864937683,1.24929547086541,1.32081519585852,1.27921609544784,1.28249306993087,1.28310567940396,1.34650589788868,1.34953004941456,1.50201146445426,1.50108768826468,1.4881450976507,1.49474766641621,1.48896191028148,1.40673610544916,1.29944193201965,1.29560096786299,1.28323209088253,1.24891623642969,1.25056930961104,1.36402847361099,1.33903789669293,1.37058242257704,1.25256272138855,1.25898053491614,1.23161731178485,1.24591153282359,1.25250437762921,1.2525141015891,1.2735470268318,1.27262325064222,1.27130079209714,1.31348333010124,1.314125111454,1.35192214354757,1.39973485432815,1.31574901275568,1.3257452435229,1.28819131042658,1.2878704197502,1.28691747168096,1.28696609148041,1.13747965608692,1.10769516694295,1.1020358222868,1.1017343795302,1.18853044551096,1.10590595832313,1.11503675666012,1.10048971266424,1.07754116732315,1.06213841485692,1.04780529797863,1.06567793625699,1.06625164989051,1.05041131922923,1.04582161016101,1.04525762048737,1.05567198152987,1.02149226251549,1.01170023490597,1.03554338455697,1.00040099351344,0.971227169050584,0.975108973838789,0.976227229226173,0.957732257514834,0.940177592724886,0.933698518249983,0.923417375457976,0.918217974104635,1.08866537743764,0.884364007746577,0.884652809355319,0.853429174147585,0.839118422377039,0.83934790783045,0.846641850144159,0.971386641992785,0.894257164538962,0.950120341712712,0.860991497754266,0.861357118646141,0.937870097042919,0.871341680661495,0.873534433616757,0.869835439274489,0.969082063498785,0.969670363072148,0.875333366196461,0.875837067318778,0.875827343358888,0.874456265014356,0.873447890373733,0.859163393294891,0.850943729999625,0.86920240948563,0.870593908145932,1.06672812392514,1.06549318101907,0.869863638758171,0.870687258160878,0.868108463997972,0.869171292813982,0.868966117260296,0.867862447812748,0.867586287351864,0.866537072079701,0.867797297281483,0.870081455459713,0.869366744407777,0.874830637470133,0.874494188457928,0.874339577495673,0.876191019458785,0.876333961669172,0.876213384566532,0.870923550386212,0.869585533505308,0.872271291227007,0.870322609664992,0.872346165718163,0.872502721472396,0.873514985696976,0.87309004864977,0.874320129575892,0.875753441263721,0.875732048551963,0.876775429448191,0.87697671541792,0.8778382582642,0.877261627442706,0.87681724247572,0.875638698537016
