1.01519, 1.01559, 1.0732, 1.0612, 1.08054, 1.08805, 1.09808, 1.10596, 1.11581, 1.03614, 1.04267, 1.03594, 1.03238, 1.02997, 1.0186, 1.01137, 1.01081, 1.00543, 1.00078, 0.998395, 0.996604, 1.00093, 1.00151, 1.00147, 0.996536, 0.994353, 0.994017, 0.994513, 0.990248, 0.986485, 0.985324, 0.983843, 0.979676, 0.978932, 0.977935, 0.975968, 0.973181, 0.969325, 0.962211, 0.928488, 0.930481, 0.905232, 0.90846, 0.930972, 0.992565, 1.13987, 1.14887, 1.19964, 1.24722, 1.2958, 1.3471, 1.36091, 1.40549, 1.50894, 1.48063, 1.528, 1.59673, 1.69199, 1.71933, 1.76792, 1.7744, 1.85459, 1.85481, 1.82055, 1.81982, 1.85909, 1.91094, 1.92517, 1.91506, 1.88224, 1.88115, 1.90264, 1.90269, 1.89397, 1.95391, 1.9728, 1.96213, 1.97283, 1.97319, 1.93932, 1.93456, 1.96855, 1.86469, 1.86427, 1.86463, 1.90083, 1.90151, 1.89842, 1.84959, 1.91425, 1.87284, 1.87641, 1.79394, 1.72289, 1.74803, 1.64452, 1.69639, 1.65315, 1.56284, 1.5378, 1.55728, 1.54617, 1.53699, 1.57377, 1.60202, 1.50613, 1.44021, 1.28462, 1.24785, 1.18165, 1.14297, 1.06375, 1.02428, 1.02551, 0.934371, 0.909423, 0.891237, 0.8546, 0.854428, 1.08195, 0.886872, 0.888247, 0.893665, 0.898409, 0.901297, 0.905165, 0.906658, 0.909562, 0.911068, 0.908993, 0.902976, 0.89323, 0.907142, 0.904795, 0.907779, 0.907911, 0.904562, 1.21357, 1.19831, 0.918234, 0.914085, 0.916349, 0.919205, 0.921885, 0.924121, 0.932751, 0.936002, 0.942428, 0.946797, 0.953518
1.01152, 1.01187, 1.05699, 1.0744, 1.05862, 1.08475, 1.08424, 1.0848, 1.10667, 1.03595, 1.03466, 1.13345, 1.03095, 1.02903, 1.02875, 1.01127, 1.00986, 1.00698, 1.00401, 1.00025, 1.00121, 0.999065, 1.00006, 0.997961, 0.993143, 0.997965, 0.989475, 0.99065, 0.989135, 0.988891, 0.988119, 0.98404, 0.980865, 0.978257, 0.979473, 0.980129, 0.975348, 0.970006, 0.97096, 0.928933, 0.922593, 0.911659, 0.922031, 0.943941, 0.99878, 1.02273, 1.09886, 1.1565, 1.22594, 1.2796, 1.30205, 1.36316, 1.36502, 1.4028, 1.42454, 1.50398, 1.51258, 1.64068, 1.72125, 1.78698, 1.77344, 1.8278, 1.85588, 1.8891, 1.79091, 1.90358, 1.91017, 1.91475, 1.94192, 1.94341, 1.88563, 1.92739, 1.88593, 1.89582, 1.95213, 1.9728, 1.97377, 1.97616, 1.95282, 1.93952, 1.93165, 1.92663, 1.86274, 1.86135, 1.81718, 1.8405, 1.84059, 1.86925, 1.81722, 1.89278, 1.87371, 1.85175, 1.84485, 1.7404, 1.72495, 1.63507, 1.61442, 1.61716, 1.55048, 1.52263, 1.51952, 1.51929, 1.54309, 1.43709, 1.51871, 1.4821, 1.4342, 1.23984, 1.20819, 1.19252, 1.13345, 1.06267, 1.03006, 0.99329, 0.937672, 0.91025, 0.862208, 0.855036, 0.863402, 0.891066, 0.889453, 0.890351, 0.892954, 0.899096, 0.900551, 0.903978, 0.905958, 0.908764, 0.910275, 1.40792, 0.894458, 0.893948, 0.908073, 0.906, 0.91701, 0.918434, 0.904368, 0.915908, 0.912251, 0.917743, 0.91571, 0.917324, 0.917218, 0.922134, 1.0568, 1.06485, 1.08407, 0.938531, 0.942656, 0.950063
1.22967, 1.0429, 1.0461, 1.05031, 1.06473, 1.08255, 1.09088, 1.07529, 1.03349, 1.03587, 1.03626, 1.03374, 1.36495, 1.02945, 1.02847, 1.1777, 1.18019, 1.0067, 1.00598, 1.00212, 1.00121, 1.00094, 0.999062, 0.999253, 0.992777, 0.986263, 0.985964, 0.990014, 0.9899, 0.988593, 0.98935, 0.988238, 0.984794, 0.976805, 0.976187, 0.977741, 0.976564, 1.0879, 1.17409, 0.972732, 0.949342, 0.957806, 1.05495, 0.925857, 0.974076, 1.01598, 1.13382, 1.133, 1.24783, 1.28238, 1.29617, 1.32081, 1.36382, 1.39915, 1.41325, 1.47822, 1.49876, 1.62682, 1.69666, 1.77475, 1.77446, 1.78128, 1.77909, 1.77926, 1.76784, 1.84883, 1.83802, 1.92854, 1.94201, 1.94317, 1.88567, 1.87738, 1.88632, 1.88728, 1.90672, 1.90669, 1.97671, 1.95376, 1.95222, 1.98841, 1.91077, 1.84376, 1.81513, 1.80818, 1.79796, 1.83684, 1.83547, 1.85403, 1.85193, 1.89253, 1.82284, 1.82091, 1.77887, 1.74733, 1.6265, 1.62281, 1.61225, 1.59733, 1.54283, 1.49608, 1.48216, 1.45602, 1.51785, 1.44079, 1.36241, 1.35379, 1.34812, 1.2261, 1.20283, 1.20945, 1.13604, 1.0364, 0.997513, 0.970546, 0.924527, 0.924009, 0.862398, 0.852692, 0.876726, 0.889474, 0.893347, 0.89049, 0.893302, 0.89837, 0.900092, 0.903883, 0.906819, 0.909174, 0.909484, 0.894168, 0.895451, 0.894403, 0.914429, 1.16032, 0.917925, 0.918728, 0.917729, 0.916498, 0.915354, 0.917976, 0.916566, 0.916164, 1.04056, 1.15106, 1.11283, 0.925479, 1.25719, 1.00891, 0.941319, 1.07748
1.05488, 1.04171, 1.04262, 1.0543, 1.05608, 1.08002, 1.28754, 1.08546, 1.08653, 1.03577, 1.03571, 1.03523, 1.03184, 1.03039, 1.02326, 1.02065, 1.01488, 1.01468, 1.00875, 1.0057, 1.0024, 1.00121, 0.997771, 0.994704, 0.992639, 1.25851, 1.31894, 0.991483, 1.30966, 0.989598, 0.990578, 0.987957, 0.988609, 0.9892, 0.982005, 0.977775, 0.976494, 0.976927, 0.978009, 0.967799, 0.946567, 0.951613, 0.929419, 0.928665, 0.945742, 0.971702, 1.07385, 1.12066, 1.20405, 1.27421, 1.27827, 1.3032, 1.48807, 1.36663, 1.39108, 1.42019, 1.47951, 1.56544, 1.62399, 1.6825, 1.70549, 1.74184, 1.7568, 1.7775, 1.74754, 1.84895, 1.82811, 1.85316, 1.84726, 1.92754, 1.92058, 1.9175, 1.9171, 1.91502, 1.95474, 1.90683, 1.95156, 1.95172, 1.94875, 1.89032, 1.85437, 1.88607, 1.80517, 1.80497, 1.78954, 1.80749, 1.77849, 1.77706, 1.78006, 1.79634, 1.80999, 1.82099, 1.7895, 1.73667, 1.62696, 1.66167, 1.60985, 1.67989, 1.52692, 1.47428, 1.44385, 1.4191, 1.40973, 1.36561, 1.33764, 1.35072, 1.24662, 1.21619, 1.19501, 1.20294, 1.14688, 1.03417, 1.00898, 0.963656, 0.923646, 0.911417, 0.933765, 0.916608, 0.879479, 0.889753, 0.886908, 0.891638, 0.895028, 0.896686, 0.900618, 0.903233, 0.907506, 0.9091, 0.909425, 1.13693, 0.895017, 0.914343, 0.915861, 0.916464, 0.916615, 0.91911, 0.916219, 0.915039, 0.912877, 1.02706, 0.914482, 0.903248, 0.902713, 0.902601, 1.06341, 1.06468, 1.0767, 1.02271, 1.06645, 1.02397
1.03641, 1.03763, 1.03966, 1.04213, 1.07716, 1.07786, 1.05666, 1.08456, 1.0352, 1.03882, 1.03877, 1.04019, 1.03203, 1.03186, 1.03231, 1.01973, 1.01827, 1.01309, 1.01271, 1.00667, 1.0069, 1.00104, 0.998705, 0.996157, 0.99332, 0.980851, 0.980833, 0.994345, 0.996849, 0.997272, 0.995327, 0.99379, 0.988928, 0.989579, 0.987041, 0.97757, 0.974988, 0.976531, 0.97709, 0.997539, 0.997343, 0.930123, 0.930316, 0.936435, 0.936351, 0.997821, 1.10981, 1.12204, 1.19503, 1.24803, 1.25106, 1.27949, 1.30269, 1.37546, 1.36565, 1.42395, 1.4536, 1.5644, 1.55724, 1.6528, 1.6759, 1.69252, 1.71039, 1.79567, 1.81396, 1.7551, 1.81316, 1.85526, 1.84767, 1.84824, 1.84722, 1.84774, 1.91401, 1.91496, 1.92203, 1.91518, 1.952, 1.94647, 1.94533, 1.91435, 1.86531, 1.88252, 1.8091, 1.8583, 1.79144, 1.78714, 1.77883, 1.77508, 1.84912, 1.77258, 1.87349, 1.83126, 1.78845, 1.74522, 1.61726, 1.59269, 1.57696, 1.56525, 1.52187, 1.47186, 1.4444, 1.43597, 1.3704, 1.34408, 1.31787, 1.30201, 1.20935, 1.18624, 1.17726, 1.15673, 1.18796, 1.02957, 0.98781, 0.936817, 0.900779, 0.851176, 0.850952, 0.949451, 0.913878, 0.956054, 0.890396, 0.891957, 0.895696, 0.896359, 0.900946, 1.09917, 0.907139, 0.90873, 1.24273, 1.13337, 0.914576, 0.915305, 0.915076, 0.915346, 0.894477, 0.887446, 0.886256, 0.886023, 1.18832, 0.89905, 0.901291, 0.904728, 0.905678, 0.902447, 0.883133, 1.03092, 0.897359, 0.897215, 0.899328, 1.05948
1.03712, 1.04094, 1.29499, 1.05348, 1.06683, 1.06697, 1.29115, 1.08749, 1.03752, 1.03865, 1.03624, 1.03543, 1.0319, 1.03201, 1.0308, 1.02961, 1.01768, 1.01467, 1.0134, 1.00788, 1.00723, 1.00106, 0.997618, 0.995941, 0.997965, 0.979961, 0.980747, 0.999596, 0.996969, 0.997611, 0.994742, 0.991938, 0.986969, 0.985877, 0.984569, 0.985127, 0.980484, 0.976628, 0.975539, 0.996895, 0.946806, 0.928607, 0.928974, 0.936737, 0.937783, 1.01698, 1.04683, 1.09855, 1.10327, 1.21578, 1.24801, 1.25475, 1.26757, 1.33982, 1.35034, 1.40283, 1.40271, 1.50177, 1.56468, 1.57635, 1.67411, 1.65108, 1.72689, 1.72974, 1.81823, 1.74491, 1.77661, 1.88261, 1.8183, 1.78714, 1.83206, 1.83098, 1.84962, 1.91358, 1.92257, 1.92781, 1.94087, 1.9428, 1.93668, 1.90603, 1.90016, 1.87018, 1.80987, 1.81964, 1.79006, 1.7879, 1.76576, 1.74672, 1.71008, 1.72552, 1.87147, 1.76508, 1.77394, 1.82056, 1.62032, 1.57941, 1.55472, 1.55351, 1.5227, 1.52432, 1.3917, 1.43593, 1.38276, 1.33984, 1.31273, 1.21896, 1.20558, 1.18462, 1.14949, 1.14073, 1.10546, 1.04272, 0.985867, 0.949689, 0.916516, 0.885441, 0.859724, 0.86001, 0.912259, 1.16701, 0.893692, 0.897336, 0.900821, 0.902347, 1.20884, 0.923873, 1.35747, 1.00407, 1.38992, 1.39816, 0.914262, 0.915871, 0.902117, 0.89863, 0.894754, 0.888894, 0.887355, 0.886754, 0.889883, 0.891862, 0.89519, 0.901933, 0.897791, 0.898126, 0.882618, 0.886764, 0.896659, 0.898908, 0.897698, 1.01371
1.04029, 1.04817, 1.05299, 1.05287, 1.04876, 1.06023, 1.04693, 1.12606, 1.03604, 1.03546, 1.03574, 1.03367, 1.03195, 1.03177, 1.02968, 1.18766, 1.02167, 1.01969, 1.01278, 1.00722, 1.00696, 0.999536, 0.994408, 0.993687, 0.993942, 1.00007, 0.999435, 0.99722, 0.998382, 0.998433, 0.994028, 0.992586, 0.992285, 0.986573, 0.980305, 0.981007, 0.979894, 0.97194, 0.96991, 0.970499, 1.01591, 1.01607, 1.06456, 0.938982, 0.945252, 0.987209, 1.02599, 1.0933, 1.09249, 1.17155, 1.20341, 1.21131, 1.28569, 1.32958, 1.34734, 1.43826, 1.40228, 1.38264, 1.49877, 1.57701, 1.68961, 1.6341, 1.725, 1.68598, 1.72647, 1.72392, 1.78315, 1.81333, 1.78696, 1.78874, 1.84366, 1.80828, 1.84944, 1.84946, 1.88655, 1.88284, 1.8761, 1.94866, 1.92476, 1.90381, 1.83428, 1.89185, 1.82319, 1.81988, 1.82107, 1.81202, 1.77078, 1.75201, 1.66522, 1.67713, 1.87274, 1.75992, 1.77505, 1.7468, 1.61059, 1.5857, 1.55248, 1.55107, 1.46843, 1.41221, 1.38809, 1.3893, 1.38909, 1.32949, 1.25472, 1.21001, 1.18936, 1.15441, 1.15053, 1.10105, 1.08768, 1.05617, 0.974059, 0.932591, 0.890767, 0.855431, 0.8607, 0.848246, 0.859659, 0.888395, 0.894557, 0.897865, 0.901411, 0.904576, 1.32756, 0.925704, 1.34428, 0.931592, 0.933751, 0.949722, 0.909089, 0.903242, 0.904309, 0.904267, 0.903621, 0.888671, 0.896662, 0.894943, 0.890252, 0.89276, 0.89532, 0.897408, 0.898901, 0.898567, 0.898447, 0.897136, 0.898595, 0.897468, 0.898105, 0.90439
1.04039, 1.03497, 1.25743, 1.07064, 1.05036, 1.19052, 1.12415, 1.1256, 1.0326, 1.03222, 1.03246, 1.0328, 1.0327, 1.02847, 1.0283, 1.02656, 1.02288, 1.02176, 1.01183, 1.00697, 1.00196, 0.997771, 0.994378, 0.993772, 0.994858, 0.998377, 0.998657, 1.00073, 0.998211, 0.999125, 0.99657, 0.992421, 0.992895, 0.993258, 0.97304, 0.974857, 0.976062, 0.972168, 0.973185, 0.970496, 0.935376, 0.933314, 0.899885, 0.898076, 0.968844, 1.09095, 1.0291, 1.05182, 1.11223, 1.16368, 1.17778, 1.2091, 1.27033, 1.26524, 1.32589, 1.38173, 1.31765, 1.35723, 1.36154, 1.33258, 1.58207, 1.67275, 1.6488, 1.68215, 1.74433, 1.72847, 1.86447, 1.86482, 1.82393, 1.78955, 1.84429, 1.85144, 1.84878, 1.87956, 1.87957, 1.90755, 1.9141, 1.87906, 1.87794, 1.90054, 1.79985, 1.81728, 1.89628, 1.83507, 1.84466, 1.84395, 1.77063, 1.69998, 1.65909, 1.69422, 1.69375, 1.74496, 1.71677, 1.68915, 1.71296, 1.60741, 1.61051, 1.53118, 1.47023, 1.41706, 1.39227, 1.42388, 1.40608, 1.32006, 1.28532, 1.21695, 1.17116, 1.1373, 1.10462, 1.06938, 1.06881, 1.0392, 0.999079, 0.925341, 0.879549, 0.84862, 0.846225, 0.847258, 0.888321, 0.904278, 0.894685, 0.899792, 0.901526, 0.90716, 0.91017, 0.916918, 1.34415, 0.930707, 0.935177, 0.935709, 0.908582, 0.90341, 0.90461, 0.903465, 0.90078, 0.897779, 0.897371, 0.897517, 0.889919, 0.893832, 0.896726, 0.89796, 0.89886, 0.900018, 0.899655, 0.898621, 0.899102, 0.897956, 0.897691, 0.902181
1.04148, 1.03887, 1.0401, 1.15028, 1.05234, 1.26729, 1.01446, 1.01321, 1.02956, 1.03181, 1.0296, 1.03001, 1.02685, 1.02651, 1.02625, 1.0245, 1.02189, 1.02225, 1.25228, 1.00452, 0.994968, 0.994417, 0.994602, 0.995014, 0.998515, 0.999528, 1.00412, 1.00163, 1.00134, 1.00009, 0.998303, 0.996045, 0.99091, 0.991147, 0.993193, 0.9802, 0.980111, 0.979858, 0.973686, 0.992025, 1.27955, 0.999972, 0.897892, 0.912207, 0.967213, 0.971486, 1.01017, 1.01111, 1.09266, 1.11308, 1.13639, 1.19558, 1.24993, 1.25702, 1.27083, 1.31333, 1.29888, 1.29946, 1.34681, 1.32823, 1.33555, 1.66512, 1.68633, 1.62794, 1.70324, 1.69764, 1.8205, 1.84197, 1.89896, 1.78847, 1.7967, 1.82837, 1.79348, 1.73365, 1.73881, 1.84235, 1.87902, 1.85895, 1.83769, 1.78796, 1.76536, 1.73504, 1.72115, 1.79271, 1.81397, 1.81167, 1.81074, 1.69877, 1.64486, 1.59529, 1.62718, 1.68714, 1.7164, 1.68371, 1.62258, 1.60279, 1.5989, 1.56037, 1.47472, 1.39054, 1.40651, 1.3872, 1.37231, 1.31481, 1.24355, 1.16891, 1.16192, 1.11481, 1.10221, 1.06644, 1.09154, 1.02825, 0.924588, 0.925655, 0.861628, 0.848786, 0.859162, 0.858114, 0.888854, 0.91779, 1.35865, 1.29876, 0.903625, 0.909013, 0.91285, 0.918073, 0.924977, 0.930877, 0.93477, 1.08104, 1.07061, 0.905107, 0.90402, 0.901576, 0.901897, 0.901236, 0.900966, 0.899177, 0.895362, 0.897065, 0.898113, 0.899315, 0.899918, 0.900359, 0.899745, 0.897631, 0.897215, 0.899135, 0.897936, 0.893999
1.03913, 1.03793, 1.04099, 1.04835, 1.04082, 1.28264, 1.0131, 1.12383, 1.02898, 1.02737, 1.02608, 1.02563, 1.02418, 1.02192, 1.02095, 1.01813, 1.01707, 1.24264, 1.03957, 1.46144, 1.47525, 0.994115, 0.996592, 0.996397, 1.00096, 1.00208, 1.00597, 1.00534, 1.0035, 1.00312, 1.00106, 1.00005, 0.991611, 0.992847, 0.990671, 0.990213, 0.979925, 0.980125, 0.977111, 0.97729, 0.979996, 0.946607, 0.966491, 0.960597, 0.967167, 0.939261, 0.994212, 1.02228, 1.03671, 1.08458, 1.14719, 1.14778, 1.21525, 1.22724, 1.2751, 1.30254, 1.29924, 1.28214, 1.3397, 1.28786, 1.33325, 1.43265, 1.6126, 1.60964, 1.60947, 1.68136, 1.7792, 1.77549, 1.7746, 1.745, 1.71577, 1.72078, 1.79244, 1.71995, 1.73503, 1.75168, 1.87183, 1.82061, 1.84148, 1.77747, 1.7335, 1.63584, 1.63915, 1.65488, 1.78205, 1.828, 1.6801, 1.63732, 1.60082, 1.59537, 1.64182, 1.63368, 1.62686, 1.62771, 1.70266, 1.64101, 1.6094, 1.51582, 1.49744, 1.38864, 1.41567, 1.34479, 1.35055, 1.30599, 1.24368, 1.1518, 1.11939, 1.10517, 1.07468, 1.02986, 1.03673, 0.998338, 0.939375, 0.893359, 0.885316, 0.864032, 0.856808, 0.865297, 0.978959, 0.909907, 0.989031, 0.902495, 0.90505, 0.909837, 0.911125, 0.923637, 1.28958, 0.929723, 1.32634, 0.924517, 0.924692, 0.921316, 0.901505, 0.901742, 0.902729, 0.902599, 0.905678, 0.906561, 0.898622, 0.897186, 0.896807, 0.896966, 0.89892, 0.900005, 0.896804, 0.894288, 0.894918, 0.896555, 0.897159, 0.894645
0.98613, 1.07519, 1.04183, 1.25732, 1.11168, 1.11176, 1.21589, 1.19885, 1.02465, 1.0227, 1.02287, 1.01853, 1.01909, 1.01998, 1.02026, 1.0167, 1.01682, 1.0183, 1.04076, 1.04115, 1.28573, 1.00173, 0.998778, 0.999758, 1.00169, 1.00479, 1.00636, 1.00542, 1.0031, 1.00185, 1.00178, 1.00043, 0.998145, 0.99833, 0.991115, 0.991816, 0.980084, 0.978272, 0.977643, 0.976583, 0.976757, 0.94979, 0.962751, 0.960978, 0.930298, 0.930042, 1.02563, 1.01488, 1.05846, 1.08018, 1.10945, 1.15502, 1.18526, 1.20661, 1.23394, 1.26113, 1.2545, 1.27904, 1.28458, 1.27344, 1.31618, 1.34014, 1.54149, 1.60974, 1.62701, 1.62516, 1.6448, 1.76787, 1.73076, 1.66175, 1.75803, 1.7148, 1.7651, 1.71984, 1.71364, 1.67114, 1.80083, 1.73554, 1.79517, 1.7619, 1.70103, 1.61612, 1.60636, 1.64733, 1.665, 1.6862, 1.68568, 1.63493, 1.60036, 1.57639, 1.57297, 1.58487, 1.58876, 1.627, 1.61293, 1.63681, 1.58123, 1.52386, 1.36866, 1.33397, 1.3208, 1.38424, 1.28516, 1.23345, 1.20481, 1.14985, 1.10012, 1.09987, 1.04732, 0.996699, 1.00605, 0.97697, 0.921152, 0.908193, 0.874396, 0.84626, 0.846161, 0.867615, 0.979276, 0.908555, 0.99134, 1.24734, 0.988967, 0.988324, 1.03604, 0.92449, 0.925456, 1.30645, 0.920756, 0.922913, 0.927783, 0.929532, 0.00432244, 1.15468, 0.90108, 0.904409, 0.906251, 0.902807, 0.900791, 0.898426, 0.897166, 0.897183, 0.897528, 0.897859, 0.895548, 0.893965, 0.89343, 0.894427, 0.896349, 0.898376
0.982312, 1.0397, 1.04299, 0.997231, 1.00006, 1.10726, 1.01064, 1.03948, 1.02169, 1.02144, 1.01604, 1.01697, 1.01645, 1.01428, 1.01529, 1.01622, 1.01772, 1.01614, 1.01607, 1.27982, 1.04671, 1.00086, 0.998902, 0.999806, 0.999713, 1.00194, 1.00237, 1.00132, 1.03653, 1.00084, 0.999925, 1.00118, 0.998469, 0.99848, 0.995432, 0.993993, 0.994269, 0.991407, 0.973836, 0.975252, 0.974839, 1.11458, 0.963658, 0.930224, 0.969567, 0.939108, 1.03203, 0.991527, 1.04937, 1.05973, 1.11102, 1.13188, 1.14927, 1.18268, 1.20226, 1.22968, 1.22906, 1.24964, 1.24759, 1.26701, 1.29938, 1.31536, 1.52768, 1.51202, 1.56214, 1.62447, 1.69641, 1.5894, 1.554, 1.65472, 1.63902, 1.75241, 1.75127, 1.71836, 1.67979, 1.67911, 1.64126, 1.73559, 1.79594, 1.73837, 1.64768, 1.60759, 1.58895, 1.61631, 1.60921, 1.76947, 1.68966, 0.00414534, 1.55397, 1.57804, 1.50277, 1.53806, 1.56216, 1.63114, 1.58905, 1.58357, 1.53408, 1.52288, 1.49913, 1.33889, 1.30608, 1.32889, 1.24369, 1.20472, 1.16114, 1.11194, 1.09517, 1.07464, 1.04674, 1.01837, 0.978066, 0.949663, 0.927815, 0.881814, 0.856765, 0.873205, 0.872062, 0.871149, 0.873738, 0.88937, 0.875587, 0.877577, 1.14654, 1.26096, 0.980994, 1.28334, 0.917535, 0.91937, 0.920382, 0.922301, 0.928639, 0.93042, 0.929052, 1.03242, 0.906016, 0.906217, 0.905843, 0.90404, 0.901453, 0.899782, 0.898988, 0.897241, 0.897165, 0.897213, 0.898435, 0.892809, 0.895616, 0.896099, 0.89254, 0.892469
0.981706, 1.04016, 1.09672, 0.998193, 1.00221, 1.01071, 1.01054, 1.01182, 1.00812, 1.01011, 1.01352, 1.01396, 1.0131, 1.01174, 1.21032, 1.01363, 1.01409, 1.01484, 1.19605, 1.26349, 0.997564, 1.27177, 0.997502, 0.994167, 0.995948, 1.24765, 0.997673, 0.994623, 0.99455, 0.992613, 0.99129, 0.989288, 1.10758, 1.13707, 0.993945, 0.994428, 0.985916, 1.13256, 0.973578, 0.975341, 0.97528, 0.98099, 0.932, 0.964951, 0.910064, 0.938825, 0.934216, 0.959665, 1.03601, 1.05835, 1.0898, 1.1162, 1.13573, 1.15997, 1.1616, 1.19172, 1.22232, 1.22196, 1.22637, 1.2438, 1.27585, 1.35394, 1.44625, 1.46425, 1.50273, 1.51681, 1.56379, 1.54753, 1.55282, 1.56279, 1.60235, 1.66925, 1.72587, 1.73439, 1.63777, 1.65545, 1.58947, 1.58621, 1.79375, 1.66145, 1.62823, 1.62665, 1.57548, 1.57318, 1.5995, 1.71503, 1.69245, 1.55851, 1.53801, 1.48891, 1.4884, 1.44024, 1.43957, 1.67637, 1.6207, 1.54936, 1.4898, 1.42798, 1.42628, 1.34759, 1.30617, 1.228, 1.23044, 1.22358, 1.14068, 1.10995, 1.08831, 1.08838, 1.02143, 0.974623, 0.990666, 0.90773, 0.908915, 0.854242, 0.850884, 0.850945, 0.87347, 0.874196, 0.874509, 0.885356, 0.877193, 0.877928, 1.24668, 0.903746, 0.904206, 0.909954, 0.912602, 0.918338, 0.925215, 1.05347, 0.928731, 0.930054, 0.933682, 0.934345, 0.906325, 0.891931, 0.892035, 0.895144, 0.901092, 0.899794, 0.897915, 0.897891, 0.898492, 0.899604, 0.899724, 0.90206, 0.901612, 0.897402, 0.897512, 0.892223
0.980634, 1.03615, 1.03475, 0.99403, 1.00326, 1.0086, 1.00992, 1.00559, 1.0059, 1.00437, 1.00594, 1.01022, 1.00803, 1.01269, 1.01063, 1.00925, 1.00971, 1.01612, 1.017, 0.994992, 0.988173, 1.03237, 0.993763, 0.994312, 1.02535, 1.03985, 0.992805, 0.993817, 0.992441, 0.992319, 0.991574, 0.987027, 0.982188, 0.982541, 1.01637, 0.991181, 1.21699, 0.97159, 0.959537, 1.10486, 0.975595, 0.979543, 0.963626, 0.966148, 0.914995, 0.934205, 0.934369, 0.960775, 1.03315, 1.04905, 1.06488, 1.09299, 1.12951, 1.13132, 1.16062, 1.17207, 1.19083, 1.1963, 1.19137, 1.23042, 1.32586, 1.30948, 1.41288, 1.40505, 1.43116, 1.48565, 1.51652, 1.52267, 1.49829, 1.51316, 1.50737, 1.59887, 1.64543, 1.7446, 1.61994, 1.61141, 1.57666, 1.58534, 1.62447, 1.64411, 1.64438, 1.65078, 1.56184, 1.56083, 1.56576, 1.62356, 1.66513, 1.59056, 1.56809, 1.48847, 1.5619, 1.56045, 1.45496, 1.47934, 1.49633, 1.47528, 1.38925, 1.38918, 1.38863, 1.332, 1.2345, 1.18717, 1.12758, 1.14449, 1.091, 1.08119, 1.09514, 1.09396, 1.02567, 0.984964, 0.98355, 0.92158, 0.895131, 0.857031, 0.857056, 0.863767, 1.0107, 0.876736, 0.87651, 0.885153, 0.886805, 0.876779, 1.32535, 0.9038, 0.903028, 0.91125, 0.913545, 1.18225, 0.973994, 1.05422, 1.07324, 1.07235, 0.891543, 0.892266, 0.893613, 0.893632, 0.894078, 0.896688, 0.897373, 0.897247, 0.895834, 0.897547, 0.898668, 0.899758, 0.90122, 0.902546, 0.902709, 0.900182, 0.897871, 0.89316
1.03517, 1.0396, 1.03717, 0.992596, 0.998443, 1.00924, 1.00816, 1.00483, 1.00252, 1.00193, 0.999149, 1.00162, 1.00377, 1.00383, 1.00161, 1.00835, 1.13125, 1.23581, 1.01358, 0.987795, 0.98667, 0.986724, 0.985415, 0.98411, 0.984475, 1.33684, 0.987125, 0.98775, 0.990733, 0.99071, 0.990117, 0.985809, 0.983544, 0.982527, 0.973876, 0.973509, 1.08558, 0.970318, 0.969531, 0.970122, 0.977034, 0.963949, 0.964243, 1.01107, 0.973979, 0.91886, 1.22273, 0.95326, 1.10883, 1.03, 1.04882, 1.06445, 1.08711, 1.12732, 1.14712, 1.14926, 1.16023, 1.16029, 1.19195, 1.22673, 1.33387, 1.31952, 1.35339, 1.39949, 1.40542, 1.43932, 1.49997, 1.49809, 1.45677, 1.48506, 1.48827, 1.60887, 1.65536, 1.65056, 1.62056, 1.62511, 1.57208, 1.53533, 1.55971, 1.64628, 1.66264, 1.68775, 1.5678, 1.52995, 1.6133, 1.63754, 1.6229, 1.57706, 1.56602, 1.42669, 1.42677, 1.39273, 1.39379, 1.43703, 1.40958, 1.40633, 1.36846, 1.33762, 1.35293, 1.26207, 1.17814, 1.15662, 1.11007, 1.08787, 1.08538, 1.06236, 1.05664, 1.04778, 1.02088, 0.973875, 0.961531, 0.900473, 0.86704, 0.848923, 0.855674, 0.867664, 0.91911, 0.875338, 0.872609, 0.886246, 0.887577, 0.877008, 0.881867, 0.893692, 0.895319, 0.897459, 0.902377, 0.901315, 0.899969, 0.899098, 0.995438, 0.890855, 0.892343, 0.893057, 0.894057, 0.895821, 0.889223, 0.891129, 0.895792, 0.896162, 0.895021, 0.897035, 0.898818, 0.898635, 0.900252, 0.90065, 0.902071, 0.898621, 0.899247, 0.891353
1.0331, 1.01876, 1.30383, 0.990523, 0.993099, 0.995919, 1.00306, 1.00166, 1.00196, 1.00262, 0.998777, 1.42643, 1.00077, 0.999281, 1.00136, 1.00166, 1.00343, 1.003, 0.996014, 0.985699, 0.98491, 0.984728, 0.977931, 0.977079, 0.975687, 0.975444, 0.979789, 1.0358, 0.987548, 0.9894, 0.987886, 0.98749, 0.984575, 0.980848, 0.976254, 0.970874, 0.967185, 0.967062, 0.967497, 0.967933, 0.967123, 0.965758, 0.965375, 0.93899, 0.939435, 0.935096, 0.93604, 0.971034, 1.15097, 1.00805, 1.03926, 1.03383, 1.07884, 1.12139, 1.12292, 1.13984, 1.1375, 1.1507, 1.15286, 1.21143, 1.34368, 1.31636, 1.34688, 1.35421, 1.40106, 1.42662, 1.46478, 1.51723, 1.44129, 1.44906, 1.45087, 1.50153, 1.57607, 1.65303, 1.63796, 1.62889, 1.55548, 1.5355, 1.53356, 1.55772, 1.65073, 1.68695, 1.56786, 1.51994, 1.52037, 1.60552, 1.62702, 1.61948, 1.5538, 1.41398, 1.3965, 1.39584, 1.38656, 1.37548, 1.37428, 1.38198, 1.3502, 1.31224, 1.26733, 1.16543, 1.16075, 1.10427, 1.10497, 1.07431, 1.05067, 1.03231, 1.01142, 1.03372, 1.00936, 0.956745, 0.959854, 0.936781, 0.847312, 0.849596, 0.853388, 0.857419, 0.882325, 0.871068, 0.871418, 0.885681, 0.886618, 0.879519, 0.883354, 0.892202, 0.89554, 0.899961, 0.902228, 0.902162, 0.900449, 0.899795, 0.890727, 0.890456, 0.894362, 0.89854, 0.898066, 0.897848, 0.889367, 0.891639, 0.896609, 0.894968, 0.894149, 0.896429, 0.897306, 0.893961, 0.891196, 0.89699, 0.891971, 0.896067, 0.898729, 0.899595
1.02373, 1.28655, 1.28442, 0.990807, 0.991809, 1.02081, 0.999639, 0.997937, 1.02136, 1.01904, 1.42667, 1.42747, 1.21825, 0.995667, 1.3704, 0.998699, 0.994818, 0.999725, 0.997494, 0.985697, 0.984145, 0.983224, 0.980772, 0.976566, 0.975299, 0.975322, 0.975164, 0.975181, 1.03386, 0.986996, 0.987527, 0.987682, 0.983616, 0.978244, 0.976578, 0.985986, 0.966276, 0.966339, 0.968205, 0.966994, 0.966828, 0.965991, 0.964144, 0.985849, 0.952671, 0.946491, 0.936319, 0.935312, 1.15237, 0.983573, 1.01634, 1.00852, 1.03626, 1.03548, 1.13065, 1.12938, 1.13611, 1.13605, 1.15869, 1.1903, 1.34224, 1.31251, 1.32018, 1.34959, 1.3996, 1.39648, 1.43732, 1.43161, 1.43821, 1.4359, 1.42323, 1.47832, 1.62713, 1.64079, 1.64768, 1.63143, 1.55004, 1.53657, 1.53637, 1.53086, 1.56992, 1.55889, 1.5616, 1.48732, 1.49372, 1.50624, 1.63734, 1.62167, 1.48457, 1.45214, 1.40287, 1.36399, 1.41039, 1.34308, 1.32926, 1.33621, 1.30413, 1.26299, 1.20647, 1.14607, 1.12391, 1.11902, 1.10549, 1.05929, 1.02267, 1.02258, 1.01373, 0.993943, 0.999236, 0.994425, 0.912714, 0.91568, 0.847437, 0.847854, 0.85369, 0.852939, 0.884492, 0.884122, 0.884292, 1.02391, 1.29087, 0.880766, 0.881427, 0.891928, 0.894586, 0.9024, 0.906266, 0.907383, 0.905626, 0.903191, 0.890323, 0.896538, 0.89945, 0.900591, 0.899011, 0.899035, 0.894242, 0.893445, 0.894151, 0.894412, 0.894115, 0.897024, 0.896038, 0.892603, 0.890302, 0.896545, 0.896974, 0.897852, 0.900712, 0.902764
1.01433, 1.01278, 1.22878, 0.990604, 0.992173, 1.00773, 1.3533, 1.35327, 1.25616, 1.00939, 1.07379, 1.00395, 0.993563, 0.992655, 0.997437, 0.997428, 0.993896, 1.1769, 0.9951, 0.994684, 1.01191, 1.01399, 1.01822, 1.01979, 0.978321, 0.9809, 0.974414, 0.975841, 0.97818, 1.02512, 1.02212, 1.01866, 0.984496, 0.977536, 0.9765, 1.00076, 0.960739, 0.963302, 0.967611, 0.967326, 0.966617, 1.10619, 0.957352, 0.956764, 0.952401, 0.94654, 0.942124, 0.926338, 0.921495, 0.982938, 1.07309, 0.990386, 1.01956, 1.04177, 1.11916, 1.12159, 1.12683, 1.14355, 1.15089, 1.19814, 1.34334, 1.37334, 1.30652, 1.32051, 1.37701, 1.3702, 1.42311, 1.41957, 1.42321, 1.43413, 1.43161, 1.45088, 1.48198, 1.68222, 1.64601, 1.5459, 1.52863, 1.52675, 1.51543, 1.52996, 1.56906, 1.55113, 1.48639, 1.48167, 1.48247, 1.52403, 1.5785, 1.57752, 1.43521, 1.44914, 1.35261, 1.33281, 1.38458, 1.29445, 1.2909, 1.3013, 1.25841, 1.22786, 1.16461, 1.13259, 1.10243, 1.09115, 1.06495, 1.03603, 1.02587, 0.994117, 0.988876, 0.97867, 0.949235, 0.909926, 0.958315, 0.899986, 0.936375, 0.8453, 0.885636, 0.8673, 0.884395, 0.884791, 0.902341, 0.90226, 0.887019, 0.884756, 1.29559, 0.899983, 0.901932, 0.904046, 0.906991, 0.907797, 0.904917, 0.902878, 0.901787, 0.899546, 0.899856, 0.899303, 0.898829, 0.897371, 0.894386, 0.893998, 0.894734, 0.894531, 0.894969, 0.897878, 0.897606, 0.896471, 0.897452, 0.897267, 0.898264, 0.900784, 0.905933, 0.90543
1.21542, 0.987477, 0.990323, 0.990752, 0.990311, 0.992156, 0.992611, 1.38064, 1.2895, 1.20564, 1.20008, 1.00859, 0.992491, 0.993269, 0.996815, 0.99426, 0.993891, 0.99356, 0.995212, 0.99469, 0.990477, 0.987459, 0.986834, 0.98528, 0.979999, 0.987282, 0.987483, 0.980341, 0.980127, 0.980371, 0.9804, 1.01743, 1.02011, 1.02019, 0.994861, 0.964452, 0.962872, 0.963347, 0.964173, 0.965847, 0.960511, 0.960057, 0.952651, 0.952775, 0.953031, 1.03298, 0.930891, 0.926248, 0.921735, 1.1458, 0.971811, 0.970621, 1.00927, 1.01138, 1.07078, 1.10574, 1.12067, 1.14158, 1.15138, 1.16912, 1.20505, 1.34164, 1.29954, 1.2924, 1.33335, 1.36811, 1.39232, 1.39745, 1.40931, 1.39572, 1.43887, 1.49164, 1.47457, 1.68496, 1.69317, 1.58921, 1.58767, 1.52244, 1.50768, 1.5064, 1.55617, 1.53773, 1.4647, 1.4959, 1.45548, 1.49223, 1.57484, 1.52936, 1.42998, 1.44741, 1.38671, 1.29624, 1.29958, 1.27892, 1.23321, 1.25182, 1.2415, 1.18019, 1.12995, 1.11144, 1.10403, 1.07273, 1.04933, 1.01931, 0.997392, 0.981218, 0.98028, 0.985125, 0.995057, 0.955077, 0.897815, 0.859606, 0.89795, 0.928571, 0.884071, 1.00798, 1.18202, 0.901078, 0.902466, 0.902199, 0.886275, 0.887406, 0.895645, 0.901441, 0.903225, 0.902906, 0.904928, 0.905476, 0.905088, 0.901782, 0.899752, 0.899743, 0.899156, 0.897903, 0.89774, 0.896805, 0.895496, 0.893872, 0.893969, 0.894914, 0.896664, 0.901267, 0.901075, 0.900933, 0.901495, 0.902926, 0.904492, 0.905852, 0.908104, 0.909778
1.00853, 0.986606, 0.987713, 0.991888, 0.991047, 0.990376, 0.991762, 1.02296, 1.25784, 0.987611, 1.19576, 0.988011, 0.993694, 0.994285, 0.993395, 0.993938, 0.991796, 0.992281, 0.992815, 1.00185, 1.00864, 0.984476, 0.985908, 0.985753, 0.986989, 0.987018, 0.986769, 0.984645, 0.981421, 0.981649, 0.980326, 0.976662, 0.974714, 0.973735, 0.969079, 0.966687, 0.96336, 0.964693, 0.964864, 0.964668, 0.961906, 0.948959, 0.953193, 0.950016, 0.949052, 0.9988, 0.931359, 0.932077, 0.924462, 1.14868, 0.95401, 0.979336, 0.999504, 1.03582, 1.05132, 1.07544, 1.10824, 1.10762, 1.1587, 1.26012, 1.17777, 1.34981, 1.29494, 1.2895, 1.34097, 1.42237, 1.38426, 1.39656, 1.39187, 1.40331, 1.39641, 1.44977, 1.46773, 1.62341, 1.59326, 1.60257, 1.61304, 1.50646, 1.49218, 1.49662, 1.53839, 1.4995, 1.50212, 1.45486, 1.4548, 1.4886, 1.48677, 1.48667, 1.42648, 1.39049, 1.32346, 1.30593, 1.25853, 1.21213, 1.20561, 1.19061, 1.22579, 1.16453, 1.10933, 1.11661, 1.07042, 1.05031, 1.05546, 1.02088, 0.965101, 0.960342, 0.936764, 0.93139, 0.982193, 0.952799, 0.851513, 0.852033, 0.851215, 0.898328, 0.917837, 0.996785, 1.24649, 0.902033, 0.902903, 1.00593, 0.884856, 0.875265, 0.885913, 0.88735, 0.898633, 0.894663, 0.903617, 0.904142, 0.901845, 0.900476, 0.900314, 0.899621, 0.899164, 0.899501, 0.898432, 0.898975, 0.891963, 0.893099, 0.902191, 0.905394, 0.905587, 0.902361, 0.90345, 0.903685, 0.904359, 0.904315, 0.906213, 0.907562, 0.908903, 0.909436
1.18852, 0.99901, 0.986668, 0.991627, 0.991097, 0.990368, 0.988533, 0.988686, 0.983935, 0.984408, 0.986764, 0.987395, 0.988438, 0.990686, 0.991531, 0.989551, 0.99092, 0.991357, 0.985459, 0.986001, 0.985277, 0.984132, 0.986563, 0.987407, 0.986938, 0.986916, 0.986878, 0.985521, 0.98602, 0.986208, 0.985856, 1.01465, 0.975096, 0.972643, 0.970122, 0.968944, 0.970381, 0.968599, 0.966375, 0.966472, 0.964126, 0.965087, 0.995066, 0.949259, 0.950029, 0.996062, 0.938612, 0.938737, 1.07744, 0.91547, 1.11126, 0.957575, 0.984043, 0.999337, 1.11348, 1.06742, 1.09176, 1.12366, 1.15007, 1.16797, 1.17024, 1.19879, 1.25481, 1.32573, 1.29745, 1.33649, 1.37878, 1.37876, 1.3823, 1.36853, 1.36839, 1.47751, 1.4761, 1.58987, 1.57804, 1.60237, 1.60037, 1.44787, 1.45765, 1.48882, 1.50622, 1.47148, 1.43605, 1.40524, 1.5131, 1.48861, 1.48787, 1.43484, 1.4366, 1.45392, 1.334, 1.32796, 1.1993, 1.18633, 1.20361, 1.17543, 1.1681, 1.16972, 1.10835, 1.10178, 1.07786, 1.02936, 1.00977, 0.991825, 1.0198, 0.951781, 0.91925, 0.93748, 0.904192, 0.878945, 0.874936, 0.966668, 0.992077, 0.953973, 1.17102, 0.897399, 0.898754, 0.900605, 1.61811, 0.872929, 0.872882, 0.874599, 0.885694, 0.888028, 0.897188, 0.897553, 0.900418, 0.899724, 0.899879, 0.900854, 0.900489, 0.900703, 0.900861, 0.900822, 0.907013, 1.16537, 1.2905, 0.908426, 0.974421, 0.906415, 0.905502, 0.903428, 0.903221, 0.904462, 0.904616, 0.905344, 0.905843, 0.907426, 0.909426, 0.910492
1.03553, 1.04023, 0.983494, 0.98497, 0.985407, 0.987099, 0.985891, 0.986617, 0.98437, 0.984036, 0.985248, 0.985048, 0.984302, 0.984543, 0.990451, 0.982639, 0.984604, 0.985184, 0.982804, 0.985724, 0.98466, 0.984391, 0.984514, 0.986998, 0.983887, 0.984165, 0.98423, 0.984671, 0.985762, 0.98614, 0.985387, 0.98402, 0.983049, 0.98057, 1.01212, 1.05347, 0.971767, 0.969938, 0.971519, 0.969226, 0.96676, 0.965002, 0.960461, 0.95958, 0.957795, 0.949883, 0.93818, 0.936851, 0.923712, 0.926904, 0.925575, 0.988221, 0.974261, 1.01836, 1.20625, 1.0542, 1.07994, 1.11474, 1.12333, 1.14381, 1.1704, 1.1943, 1.23294, 1.23815, 1.26499, 1.31976, 1.37047, 1.42359, 1.36346, 1.36014, 1.37536, 1.39701, 1.40783, 1.58641, 1.5709, 1.5241, 1.40617, 1.40596, 1.41866, 1.4435, 1.44874, 1.43762, 1.38375, 1.3645, 1.4231, 1.48858, 1.49253, 1.42903, 1.40946, 1.39806, 1.32294, 1.18867, 1.16116, 1.15801, 1.20532, 1.14362, 1.15208, 1.12613, 1.10747, 1.06892, 1.06106, 1.02566, 0.994934, 0.9808, 0.948798, 0.951153, 0.913487, 1.00791, 0.911668, 0.880599, 1.02575, 0.990318, 0.991098, 0.996407, 0.895283, 0.897299, 1.03483, 0.875145, 0.873971, 0.873613, 0.873718, 0.888968, 0.889806, 0.890324, 0.896314, 0.899004, 0.900622, 0.899975, 0.899659, 0.901096, 0.901252, 0.901901, 0.902687, 0.90891, 0.908958, 0.910093, 0.911495, 0.913459, 1.19292, 0.902868, 0.902689, 0.903442, 0.903111, 0.901966, 0.903677, 0.904061, 0.901215, 0.905274, 0.907749, 0.908899
1.00961, 0.990909, 0.999433, 0.983362, 0.984906, 0.984065, 0.981514, 0.982318, 0.980396, 0.980852, 0.979712, 0.978745, 0.980286, 0.98072, 0.980557, 0.983563, 0.982448, 0.983112, 0.983034, 0.984233, 0.984519, 0.98383, 0.98361, 0.983187, 0.983786, 0.984485, 0.985145, 0.982542, 0.984056, 0.984028, 0.984885, 0.983381, 0.983897, 1.00971, 0.985585, 1.00506, 1.01373, 0.972144, 0.973026, 0.972181, 0.969818, 0.962821, 0.958702, 0.958962, 0.949544, 0.949202, 0.94074, 0.933989, 0.927747, 0.925757, 0.923425, 0.923446, 0.986037, 0.981509, 1.01418, 1.05992, 1.07828, 1.08739, 1.12348, 1.12631, 1.1568, 1.18084, 1.17864, 1.22318, 1.2552, 1.29776, 1.36484, 1.35862, 1.43243, 1.44024, 1.43983, 1.36776, 1.4074, 1.55059, 1.55432, 1.41131, 1.33625, 1.36759, 1.39806, 1.40282, 1.39886, 1.32247, 1.36377, 1.36396, 1.36571, 1.44003, 1.41171, 1.4305, 1.36889, 1.32664, 1.32903, 1.23263, 1.15556, 1.14507, 1.13121, 1.13272, 1.10234, 1.09103, 1.06743, 1.0767, 1.01996, 0.98603, 0.977785, 0.970597, 0.957492, 0.921686, 0.916559, 1.03497, 1.03523, 0.888264, 0.990054, 0.952305, 0.91514, 0.921174, 0.929275, 0.897037, 0.87959, 0.87812, 0.874919, 1.0979, 1.26382, 0.897153, 0.890774, 0.890924, 0.899751, 0.900938, 0.904099, 0.899413, 0.900524, 0.903244, 0.902047, 0.903414, 0.907476, 0.908505, 0.909265, 0.911403, 0.912403, 0.913531, 0.902897, 0.901785, 0.902105, 0.904483, 0.903105, 0.902148, 0.900976, 0.901184, 0.899841, 0.903304, 0.904641, 0.907894
1.00475, 0.991662, 0.992103, 1.26255, 0.982314, 0.978103, 0.97765, 0.978244, 0.978627, 0.977805, 0.976554, 0.976519, 0.977701, 0.976687, 0.978725, 0.978667, 0.982477, 0.982596, 0.983675, 0.984131, 0.987096, 0.985185, 0.983638, 0.983692, 0.982743, 0.979901, 0.985811, 0.985192, 0.987155, 0.988914, 0.989011, 0.982471, 0.982066, 0.985196, 0.987091, 0.988567, 1.0118, 1.01525, 0.972556, 0.972815, 0.96853, 0.966549, 0.959543, 0.957117, 0.942902, 0.944964, 0.938301, 0.93364, 0.925106, 0.918856, 0.919002, 0.916162, 0.988525, 0.991431, 1.01128, 1.04871, 1.0587, 1.08164, 1.08881, 1.10851, 1.12884, 1.15491, 1.17386, 1.19867, 1.21056, 1.27047, 1.28282, 1.35189, 1.34038, 1.32029, 1.32931, 1.36134, 1.54962, 1.54559, 1.54725, 1.39208, 1.32262, 1.28457, 1.40904, 1.38148, 1.30813, 1.29699, 1.30942, 1.31597, 1.35344, 1.47587, 1.42971, 1.32866, 1.3269, 1.39351, 1.14368, 1.16036, 1.14191, 1.10929, 1.10935, 1.09261, 1.07699, 1.08786, 1.06218, 1.02266, 0.994838, 0.981246, 0.974307, 0.960126, 0.924031, 0.897946, 0.867135, 0.898842, 0.889335, 0.889458, 1.03305, 0.898029, 0.997918, 0.904052, 0.903979, 0.887538, 0.880459, 0.878536, 1.13328, 0.898485, 0.898388, 0.89733, 0.897654, 0.899483, 0.904108, 0.904841, 0.907905, 0.90184, 0.901149, 0.904201, 0.904383, 0.905196, 0.908157, 0.91027, 0.908659, 0.910217, 0.913758, 0.914604, 0.904316, 0.901687, 0.904058, 0.904978, 0.90443, 0.902313, 0.900895, 0.900791, 0.898969, 0.90207, 0.902322, 0.903312
0.973359, 1.04593, 1.18577, 0.994539, 0.974593, 0.976532, 0.975042, 0.973654, 0.97702, 0.974919, 0.975247, 0.976283, 0.966589, 0.994703, 0.984606, 0.984457, 0.999442, 1.00211, 0.983345, 0.991492, 0.988482, 0.986046, 0.984089, 0.983626, 0.983669, 0.980252, 0.983724, 0.985695, 0.989442, 0.989659, 0.988652, 0.98789, 0.987253, 0.986436, 0.986323, 0.988944, 0.988978, 1.00757, 0.99773, 1.00228, 0.969432, 0.967257, 0.96604, 0.957519, 1.05512, 0.948954, 0.946687, 0.933181, 1.14237, 0.919266, 0.91901, 0.919626, 1.00422, 0.991017, 1.01893, 1.02243, 1.06383, 1.06057, 1.08013, 1.10252, 1.11961, 1.13208, 1.1848, 1.20497, 1.27728, 1.23264, 1.26748, 1.25168, 1.44006, 1.36006, 1.30181, 1.33145, 1.53999, 1.55054, 1.53796, 1.33682, 1.30893, 1.26204, 1.26411, 1.27707, 1.24392, 1.23298, 1.28315, 1.29344, 1.34869, 1.39469, 1.34142, 1.33055, 1.1487, 1.1456, 1.12353, 1.12397, 1.10123, 1.09118, 1.08002, 1.08043, 1.06761, 1.05587, 1.02941, 1.01902, 0.997376, 0.977781, 0.957162, 0.957323, 0.977893, 0.866686, 0.867395, 0.996082, 0.999671, 0.887348, 0.900324, 0.900473, 0.901226, 0.904108, 0.901594, 0.901297, 0.898322, 0.899389, 0.900645, 0.899836, 0.898949, 0.897829, 0.89931, 0.901351, 0.90623, 0.907367, 0.908783, 0.902129, 0.901301, 0.902781, 0.906278, 0.908247, 0.908287, 0.910037, 0.909581, 0.908769, 0.911518, 0.905163, 0.905152, 0.903276, 0.905219, 0.907563, 0.905286, 0.90256, 0.901413, 0.900747, 0.900595, 0.900494, 0.900376, 0.899149
0.985672, 0.979811, 1.18457, 0.981171, 1.20495, 0.973823, 0.97106, 0.973079, 0.970633, 0.970822, 0.970897, 0.970812, 0.966692, 0.995629, 0.994491, 0.993777, 1.33736, 1.34828, 1.22326, 0.987116, 0.987991, 0.988632, 0.983969, 0.9836, 0.983553, 0.980734, 0.98404, 0.985172, 0.986246, 0.986888, 0.987246, 0.987062, 0.987594, 0.987377, 0.987376, 0.988015, 0.989405, 0.988652, 0.986965, 0.976849, 0.976614, 0.966471, 0.969173, 1.00173, 1.0325, 0.949263, 0.949025, 0.942327, 1.14265, 1.14381, 0.920352, 0.920633, 0.933376, 0.950526, 1.01886, 1.02032, 1.04959, 1.06492, 1.08085, 1.10441, 1.1199, 1.14465, 1.14401, 1.17445, 1.18608, 1.2196, 1.23147, 1.23564, 1.23311, 1.25747, 1.30888, 1.33706, 1.49988, 1.56424, 1.5189, 1.29993, 1.26014, 1.25982, 1.21579, 1.23144, 1.23363, 1.21286, 1.22053, 1.22629, 1.30635, 1.32443, 1.32428, 1.1591, 1.13626, 1.2112, 1.11249, 1.09944, 1.08846, 1.07365, 1.06049, 1.05067, 1.05745, 1.03318, 0.995474, 1.07805, 0.992163, 1.00917, 1.00969, 0.934395, 0.982389, 0.866333, 0.864086, 0.87027, 1.0096, 0.88285, 0.901001, 0.901517, 0.899918, 0.901534, 0.903308, 0.905164, 0.901388, 0.901119, 0.901804, 0.899538, 0.899507, 0.908694, 0.90321, 0.904409, 0.90719, 0.910602, 0.909872, 0.904003, 0.902168, 0.904533, 0.908877, 0.910918, 0.910674, 0.910789, 0.911755, 0.905861, 0.906395, 0.907789, 0.906002, 0.907507, 0.907378, 0.9089, 0.905479, 0.903605, 0.901774, 0.900539, 0.900718, 0.900527, 0.899049, 0.898031
0.974665, 0.943032, 0.953598, 0.974665, 1.29599, 1.31109, 1.31984, 0.964297, 0.96428, 0.992041, 0.98839, 0.955091, 0.954919, 1.04703, 0.986109, 1.44084, 0.982054, 1.21237, 0.97744, 0.987769, 0.988674, 0.988213, 0.986396, 0.985866, 0.984837, 0.985595, 0.98807, 0.984803, 0.984655, 0.985949, 0.98692, 0.987684, 0.987996, 0.987105, 0.987303, 0.987731, 0.988794, 0.986166, 0.985734, 0.974796, 1.01205, 0.98431, 1.01108, 1.00294, 0.999974, 1.00615, 0.949365, 0.940673, 0.938787, 1.0928, 0.924619, 0.922708, 1.12606, 1.03307, 1.01585, 1.01502, 1.03638, 1.05419, 1.07455, 1.07696, 1.12232, 1.11706, 1.15079, 1.16482, 1.18466, 1.20796, 1.21531, 1.16987, 1.19935, 1.23546, 1.27264, 1.33976, 1.47337, 1.47773, 1.47587, 1.26531, 1.20258, 1.20814, 1.21825, 1.21304, 1.19303, 1.18172, 1.14297, 1.17482, 1.21918, 1.14046, 1.12554, 1.1586, 1.11597, 1.09231, 1.09969, 1.10534, 1.07388, 1.05811, 1.03821, 1.04744, 1.02695, 1.02365, 1.0129, 0.995718, 0.974241, 0.960321, 0.916507, 0.916823, 0.898265, 0.860369, 0.855212, 0.853744, 1.02628, 1.01427, 0.902261, 0.900432, 0.900903, 0.902342, 0.904969, 0.906725, 0.90722, 0.904857, 0.905897, 0.90741, 0.909365, 0.91204, 0.914586, 0.90683, 0.907558, 0.910213, 0.91118, 0.904805, 0.903396, 0.90279, 0.907802, 0.911115, 0.911961, 0.910524, 0.911055, 0.909304, 0.90818, 0.902934, 0.904639, 0.903943, 0.902514, 0.908357, 0.905764, 0.902851, 0.901984, 0.900953, 0.900412, 0.899926, 0.898225, 0.897475
0.974471, 0.939608, 0.944839, 0.949469, 0.982942, 1.29482, 0.984476, 0.963069, 1.23983, 0.980348, 0.979378, 0.960551, 0.95183, 0.994846, 1.68735, 0.983567, 0.984601, 0.981759, 0.977815, 0.985215, 0.9869, 0.986553, 0.986663, 0.986793, 0.986624, 0.988542, 0.988191, 0.982888, 0.984595, 0.985366, 0.984725, 0.988577, 0.988555, 0.985795, 0.98765, 0.987023, 0.988264, 0.987548, 0.988873, 0.987079, 0.990795, 0.988953, 0.988009, 0.983339, 0.981382, 1.00152, 1.08399, 0.948018, 0.949014, 1.09478, 0.99909, 1.13447, 0.984312, 1.03325, 0.963641, 0.99425, 1.0529, 1.0387, 1.0515, 1.07884, 1.10961, 1.11714, 1.13914, 1.14051, 1.14676, 1.13722, 1.16059, 1.16432, 1.15724, 1.20686, 1.31683, 1.31393, 1.4744, 1.47442, 1.24028, 1.21968, 1.18815, 1.2705, 1.1858, 1.15954, 1.20047, 1.15003, 1.13492, 1.13516, 1.15148, 1.1354, 1.0874, 1.08602, 1.11825, 1.074, 1.07521, 1.09181, 1.06483, 1.02364, 1.02527, 1.02413, 1.02227, 1.00376, 1.00176, 0.97449, 0.950552, 0.961592, 0.966957, 0.898726, 0.898712, 0.859861, 0.856261, 0.853741, 1.02619, 1.11653, 0.902541, 0.903204, 0.907463, 0.905784, 0.90994, 0.908393, 0.907645, 0.907222, 0.907357, 0.907991, 0.911143, 0.914045, 0.91487, 0.905686, 0.909259, 0.910709, 0.90909, 0.905221, 0.904664, 0.905223, 0.90662, 0.909416, 0.911641, 0.909728, 0.908909, 0.908947, 0.90613, 0.90338, 0.903222, 0.901992, 0.90104, 0.900532, 0.902669, 0.903098, 0.901571, 0.900162, 0.900663, 0.899628, 0.898054, 0.896575
0.997386, 0.937812, 0.985379, 0.973636, 0.975176, 0.982457, 0.980335, 0.961214, 1.00661, 0.976061, 1.25959, 0.942973, 0.988031, 1.2907, 1.29829, 0.984774, 1.05676, 0.981024, 1.07384, 0.984987, 0.986673, 0.987236, 0.986368, 0.986611, 0.9857, 0.988195, 0.98793, 0.980825, 0.980547, 0.983781, 0.985972, 0.986891, 0.98742, 0.986438, 0.985667, 0.986939, 0.988451, 0.988911, 0.990597, 0.989111, 0.991569, 0.992343, 0.989375, 0.983684, 0.982675, 0.979614, 0.974241, 1.01496, 1.01472, 1.09345, 1.00098, 0.947294, 0.946715, 1.11439, 0.965397, 1.01202, 1.05301, 1.04255, 1.03897, 1.06856, 1.07188, 1.08397, 1.10414, 1.11898, 1.11964, 1.13942, 1.1632, 1.13027, 1.14357, 1.29883, 1.29481, 1.32337, 1.29399, 1.22989, 1.24461, 1.20613, 1.14786, 1.15444, 1.15061, 1.16087, 1.17145, 1.12621, 1.15709, 1.14408, 1.11814, 1.10575, 1.081, 1.08813, 1.06328, 1.06376, 1.07859, 1.07162, 1.05777, 1.04759, 1.01202, 1.0104, 1.01839, 0.986716, 0.963879, 0.969828, 0.933907, 0.925394, 0.970666, 0.897114, 0.984692, 0.862942, 0.865522, 0.853011, 1.18112, 0.900482, 0.901376, 0.904803, 0.908104, 0.907763, 0.911017, 0.911102, 0.909596, 0.909371, 0.908228, 0.91062, 0.912434, 0.91498, 0.915174, 0.905807, 0.909925, 0.910237, 0.908572, 0.906164, 0.907626, 0.90648, 0.907683, 0.908631, 0.911355, 0.900515, 0.901382, 0.903774, 0.903178, 0.901664, 0.903456, 0.901953, 0.900763, 0.900765, 0.900409, 0.90065, 0.900764, 0.900371, 0.899663, 0.897063, 0.898379, 0.896116
0.997161, 1.23053, 0.988952, 0.968468, 0.975164, 0.97302, 0.97982, 0.978401, 1.00459, 1.25126, 0.93765, 0.939629, 0.984107, 0.98863, 0.985278, 0.973773, 0.980958, 1.44167, 0.98552, 0.982195, 0.983448, 1.74845, 0.99591, 0.984555, 0.986082, 0.985402, 0.987128, 0.983089, 0.978583, 0.980663, 0.985875, 0.987144, 0.98616, 0.987326, 0.983763, 0.984236, 0.986073, 0.989323, 0.99087, 0.989395, 0.990627, 0.990699, 0.989356, 0.982784, 0.984291, 0.974901, 0.976867, 0.980599, 1.00419, 1.00283, 0.962751, 0.947109, 0.944334, 1.01463, 0.962528, 1.00637, 1.02, 1.0395, 1.06076, 1.07021, 1.07756, 1.09411, 1.0985, 1.10604, 1.0915, 1.08395, 1.16685, 1.13216, 1.13001, 1.22971, 1.25579, 1.25432, 1.22693, 1.19046, 1.18647, 1.18556, 1.12851, 1.12668, 1.1062, 1.1306, 1.11678, 1.10246, 1.11554, 1.11184, 1.09648, 1.11475, 1.09176, 1.07484, 1.05362, 1.08136, 1.06675, 1.05123, 1.02639, 1.04063, 1.02072, 1.22084, 1.13231, 0.984853, 0.961359, 1.04637, 0.927035, 0.922448, 0.994203, 0.890967, 0.890187, 0.866618, 1.0195, 0.911162, 1.10913, 0.900855, 1.0118, 0.914946, 0.914948, 0.914418, 0.912716, 0.909474, 0.909311, 0.909144, 0.908938, 0.909299, 0.909528, 0.911226, 0.912368, 0.907739, 0.908595, 0.909614, 0.907887, 0.906522, 0.907408, 0.907491, 0.908264, 0.909721, 0.910532, 0.902043, 0.901438, 0.902505, 0.901457, 0.900866, 0.898561, 0.895964, 0.897292, 0.898613, 0.89823, 0.899067, 0.901047, 0.897925, 0.897195, 0.886857, 0.893817, 0.895664
0.989609, 1.0127, 0.984201, 0.97108, 0.981092, 0.97411, 0.982286, 0.977454, 0.98084, 0.978848, 0.936368, 1.27398, 0.964765, 0.955698, 0.97434, 1.30954, 0.974229, 0.962203, 0.975066, 0.98271, 0.981277, 0.978463, 0.980518, 0.980432, 0.981133, 0.985886, 0.98372, 0.983509, 0.980072, 0.97956, 0.982338, 0.982842, 0.987473, 0.985717, 0.983699, 0.984281, 0.985643, 0.986522, 0.99037, 0.990371, 0.98694, 0.985873, 0.981599, 0.982256, 0.984359, 1.06654, 0.977564, 1.10874, 0.984147, 0.983409, 0.980939, 1.00115, 0.943991, 0.942309, 0.95354, 1.01935, 1.01971, 1.04013, 1.047, 1.07068, 1.07307, 1.06998, 1.09815, 1.0737, 1.06521, 1.0651, 1.07446, 1.09185, 1.10851, 1.25658, 1.25697, 1.16143, 1.14778, 1.21159, 1.11683, 1.12271, 1.0947, 1.0857, 1.10147, 1.11176, 1.10886, 1.09321, 1.09194, 1.10356, 1.10593, 1.07404, 1.08126, 1.05337, 1.06486, 1.071, 1.04916, 1.04964, 1.02664, 1.16227, 0.994935, 0.973397, 0.953947, 0.961496, 0.979629, 0.94155, 0.927081, 0.921369, 0.921329, 1.01795, 1.01842, 0.873453, 0.87643, 1.02023, 0.884559, 0.900991, 0.901915, 0.917806, 0.919067, 0.918658, 0.917154, 0.907788, 0.908223, 0.905508, 0.899205, 1.12918, 0.905306, 0.907816, 0.905902, 0.906258, 0.907464, 0.907735, 0.908067, 0.907889, 0.908328, 0.908034, 0.909156, 0.910027, 0.901902, 0.903051, 0.90295, 0.903349, 0.902795, 0.901481, 0.900562, 0.898165, 0.897674, 0.891972, 0.896618, 0.896985, 0.89704, 0.897359, 0.894928, 0.888493, 0.891475, 0.893126
0.987028, 0.975142, 0.984281, 0.982201, 0.975931, 0.986996, 0.995328, 0.980553, 0.979803, 0.981345, 0.93286, 0.981498, 0.987907, 0.956758, 0.953618, 0.954516, 0.957149, 0.957127, 0.962975, 0.973095, 0.977698, 0.977438, 0.980193, 0.980641, 0.982351, 0.98478, 0.983822, 0.979863, 0.980837, 0.976104, 0.974261, 0.983359, 0.984325, 0.986851, 0.987014, 0.984305, 0.990592, 0.990335, 0.992295, 0.993102, 0.991246, 0.989746, 1.00667, 0.983954, 0.985497, 0.984284, 0.987182, 0.986142, 0.987539, 0.984454, 0.984593, 1.01802, 0.999661, 0.942261, 0.957455, 0.961678, 1.02681, 1.00672, 1.02516, 1.04016, 1.05729, 1.07522, 1.09418, 1.03875, 1.0468, 1.05144, 1.05246, 1.07375, 1.06912, 1.09417, 1.17487, 1.11648, 1.11634, 1.10346, 1.08192, 1.12284, 1.07668, 1.07429, 1.06139, 1.0781, 1.08459, 1.07786, 1.06447, 1.08929, 1.09845, 1.07905, 1.07567, 1.06735, 1.04617, 1.05847, 1.21369, 1.03254, 1.01721, 1.12139, 0.965757, 0.967146, 0.937263, 0.939669, 1.10284, 0.938905, 0.92865, 1.05381, 0.911606, 0.902267, 1.01757, 0.894646, 1.01636, 0.939086, 0.887572, 1.02408, 0.98501, 0.917026, 0.918514, 0.920042, 0.914315, 0.914459, 0.902221, 0.899286, 0.899726, 0.898959, 0.903069, 0.904744, 0.905118, 0.907278, 0.908181, 0.909057, 0.907297, 0.908354, 0.908281, 0.910107, 0.909322, 0.911154, 0.904078, 0.902546, 0.903313, 0.901567, 0.901287, 0.899567, 0.899664, 0.898487, 0.891432, 0.892105, 0.895656, 0.890925, 0.894139, 0.894651, 0.894894, 0.894569, 0.889862, 0.893621
0.978604, 0.99106, 0.970111, 0.986111, 0.980877, 0.985043, 0.975373, 0.981246, 0.978524, 0.960687, 0.96928, 0.9772, 0.974394, 0.977869, 1.1613, 0.954492, 0.956971, 0.956051, 0.964155, 0.970051, 0.974532, 0.978408, 0.978136, 0.980132, 0.9803, 0.981379, 0.980893, 0.977454, 0.977426, 0.976476, 0.976436, 0.982187, 0.984351, 0.986986, 0.990825, 0.988644, 0.991139, 0.991841, 0.992621, 0.99321, 0.991711, 0.990641, 0.995052, 0.987511, 0.987027, 0.987256, 0.987257, 0.986924, 0.986043, 0.98517, 0.982784, 0.974826, 1.00477, 0.944533, 0.959937, 0.958184, 0.961413, 1.00765, 0.991018, 1.03268, 1.0308, 1.06674, 1.03035, 1.05346, 1.03317, 1.05058, 1.03997, 1.05803, 1.05146, 1.05306, 1.08809, 1.08893, 1.09023, 1.07884, 1.08134, 1.08052, 1.04982, 1.05194, 1.04679, 1.05894, 1.06792, 1.05931, 1.06402, 1.08251, 1.05815, 1.06017, 1.06128, 1.06188, 1.06547, 1.1559, 1.03908, 1.02286, 0.997874, 0.977888, 0.970779, 0.95658, 0.935332, 0.949039, 1.04391, 0.936993, 0.934551, 0.928568, 1.29197, 0.902654, 0.902718, 0.900865, 0.967644, 0.959293, 0.893367, 0.90227, 0.903753, 0.915369, 0.917676, 0.917992, 0.915388, 0.915364, 0.905016, 0.89919, 0.899583, 0.899339, 0.905391, 0.905998, 0.906115, 0.907989, 0.910728, 0.909209, 0.913391, 0.911882, 0.910823, 0.910421, 0.909163, 0.909846, 0.906771, 0.90433, 0.902471, 0.899611, 0.894002, 0.897829, 0.896741, 0.897262, 0.895969, 0.89498, 0.894845, 0.893934, 0.893721, 0.895606, 0.89523, 0.897585, 0.891821, 0.891747
0.990507, 0.991058, 0.975459, 0.977557, 0.977093, 0.980684, 0.980149, 0.975491, 0.977588, 0.963095, 0.966537, 0.975502, 0.953618, 0.955271, 0.954508, 0.952858, 0.956816, 0.956315, 0.966259, 0.967378, 0.971483, 0.974307, 0.97582, 0.978258, 0.979805, 0.978662, 0.976731, 0.977937, 0.977479, 0.976765, 0.976802, 0.977413, 0.994677, 0.988605, 0.989063, 0.988653, 0.988903, 0.99133, 0.993976, 0.993903, 0.993623, 0.990809, 0.993647, 0.987949, 0.988746, 0.98781, 0.986194, 0.98675, 0.98705, 0.983973, 0.982583, 0.975862, 0.976979, 1.00919, 0.986368, 0.959755, 0.958122, 0.965399, 0.982596, 1.02579, 1.014, 1.05355, 1.02599, 1.02364, 1.01596, 1.03032, 1.01935, 1.02838, 1.02585, 1.03776, 1.04175, 1.06419, 1.07636, 1.06649, 1.06768, 1.04513, 1.06422, 1.05678, 1.02707, 1.04342, 1.06752, 1.06536, 1.0732, 1.05068, 1.05831, 1.05468, 1.06038, 1.03516, 1.1567, 1.05017, 1.03239, 1.00399, 0.998078, 1.06753, 0.980759, 0.933874, 0.931412, 0.924979, 0.93407, 0.934299, 0.933318, 1.01559, 0.919546, 0.904391, 0.908878, 0.905547, 1.03026, 0.964494, 0.97303, 0.9012, 0.904276, 0.906786, 0.915815, 0.916344, 0.916178, 0.915002, 0.906436, 0.90636, 0.90567, 0.908499, 0.90882, 0.910388, 0.911921, 0.910348, 0.91185, 0.911075, 0.913928, 0.911885, 0.910988, 0.90878, 0.910969, 0.909414, 0.901753, 0.900863, 0.899657, 0.89832, 0.892313, 0.890676, 0.890551, 0.893852, 0.895013, 0.895066, 0.894486, 0.897216, 0.893419, 0.895202, 0.892778, 0.874955, 0.897681, 0.893605
0.991219, 1.2637, 1.01245, 0.967245, 0.987682, 0.98554, 0.982107, 0.979701, 0.973272, 0.968498, 0.978485, 1.15274, 0.9491, 0.957341, 0.964387, 0.94344, 0.957179, 0.957448, 0.960341, 0.966296, 0.96795, 0.97228, 0.975268, 0.975347, 0.976442, 0.975278, 0.977125, 0.978333, 0.978038, 0.976934, 0.977576, 0.978996, 1.00135, 0.991846, 0.99114, 0.988497, 0.988819, 0.992358, 0.991908, 0.992432, 0.989668, 0.992227, 0.990343, 0.98825, 0.990334, 0.987181, 0.985782, 0.98597, 0.985577, 0.985426, 0.981748, 0.981071, 0.973284, 1.03398, 0.980239, 0.959806, 0.95772, 0.989844, 0.975742, 1.0378, 1.00852, 1.02095, 0.994159, 0.994091, 0.993275, 1.01365, 1.01886, 1.0269, 1.02093, 1.03204, 1.06912, 1.0438, 1.05242, 1.04933, 1.04695, 1.04251, 1.04495, 1.03763, 1.01628, 1.03688, 1.05486, 1.06895, 1.038, 1.046, 1.05088, 1.05239, 1.02558, 1.01036, 1.06744, 1.146, 1.01125, 0.987157, 0.995042, 0.966997, 0.967793, 1.0734, 0.92267, 0.923402, 0.934429, 0.935833, 0.93893, 1.09192, 0.918146, 0.907687, 0.908344, 0.909944, 0.983818, 0.981564, 0.957682, 0.963209, 0.906385, 0.906168, 0.907747, 0.904562, 0.909014, 0.910926, 0.910065, 0.906288, 0.907952, 0.909646, 0.910969, 0.91125, 0.911817, 0.911776, 0.91167, 0.911522, 0.912093, 0.910746, 0.911424, 0.908237, 0.907539, 0.907501, 0.903176, 0.901398, 0.90123, 1.30438, 1.31863, 1.24246, 0.889696, 0.892976, 0.894551, 0.895346, 0.896579, 0.891303, 0.893926, 0.895248, 0.902099, 0.875342, 0.898044, 0.895851
1.00357, 0.993861, 0.991046, 0.993889, 0.965768, 0.960543, 0.964821, 0.978724, 0.948577, 1.10356, 0.979599, 0.963998, 0.959805, 0.960794, 1.63681, 1.63773, 0.952804, 0.957299, 0.960376, 0.96646, 0.966753, 0.968058, 0.971227, 0.973088, 0.976167, 0.976161, 0.976697, 0.977554, 0.976992, 0.977161, 0.978244, 0.980936, 1.57969, 0.993574, 0.99376, 0.990528, 0.989355, 0.988095, 0.987036, 0.989998, 0.990057, 1.04931, 0.992191, 0.986508, 0.986927, 0.989104, 0.987336, 0.985858, 0.985689, 0.985551, 0.97771, 0.979067, 0.97678, 0.970791, 0.956773, 0.944391, 1.01033, 0.969048, 0.9715, 0.989215, 0.991665, 1.0711, 0.991752, 1.00882, 0.990801, 1.02369, 0.995042, 0.9994, 1.01969, 1.00193, 1.02333, 1.03884, 1.04659, 1.03379, 1.01449, 1.03328, 1.04219, 1.02603, 0.994297, 1.03715, 1.09551, 1.05679, 1.05452, 1.0366, 1.04705, 1.00934, 1.01585, 1.00189, 1.0223, 1.03727, 1.03628, 1.07668, 1.07723, 0.943712, 0.945691, 1.05927, 0.921425, 0.9256, 1.11133, 1.12268, 1.12161, 0.939571, 1.04926, 0.907748, 0.908353, 0.910888, 0.915806, 0.908164, 0.961979, 0.95972, 0.957524, 0.90742, 0.908295, 0.905062, 0.908229, 0.910509, 0.910954, 0.910089, 0.909974, 0.911121, 0.911221, 0.912001, 0.911542, 0.910939, 0.910964, 0.911719, 0.91121, 0.911561, 0.91042, 0.908623, 0.907304, 0.907478, 0.906318, 0.910595, 0.909956, 0.910364, 0.910874, 0.906249, 0.905317, 0.905004, 0.905451, 0.900083, 0.905931, 0.906679, 0.896924, 0.895082, 0.898332, 0.897192, 0.891894, 0.892779
0.991055, 0.998887, 0.990971, 0.970074, 1.09802, 0.966341, 0.955095, 0.971435, 0.949335, 0.967947, 0.970534, 0.968087, 0.96728, 0.946189, 0.953171, 1.28761, 0.94664, 0.958186, 0.962581, 0.965092, 0.963708, 0.966207, 0.967236, 0.97116, 0.972516, 0.973053, 0.974299, 0.977943, 0.978517, 0.978868, 0.979528, 0.983553, 0.98391, 0.993425, 0.991533, 0.990595, 0.99042, 0.987936, 0.985813, 0.98552, 0.984235, 0.983735, 0.982229, 0.980526, 0.98615, 0.987195, 0.991883, 0.986719, 0.985776, 0.987369, 0.989383, 0.984538, 0.974889, 0.973609, 0.960028, 0.991141, 1.01552, 1.01817, 0.983894, 0.986024, 0.990944, 1.06062, 0.980535, 0.97845, 1.00029, 0.993907, 0.980024, 1.01912, 0.986072, 0.980883, 1.05634, 1.03743, 1.06869, 1.03307, 1.03262, 1.01895, 1.06978, 0.998514, 0.991059, 0.989731, 1.02513, 1.07391, 1.00101, 1.01958, 1.03637, 1.01185, 1.00795, 1.00343, 1.00452, 1.0331, 1.03255, 1.06481, 1.09853, 1.08072, 0.939412, 0.954968, 0.921731, 0.928942, 0.936503, 1.09612, 0.947047, 0.947943, 0.997806, 1.03585, 1.12634, 1.05828, 1.05112, 0.909117, 0.912192, 0.917624, 0.914951, 0.914644, 0.909342, 0.904111, 0.90535, 0.911214, 0.911793, 0.911002, 0.91113, 0.910754, 0.911169, 0.91127, 0.912188, 0.911115, 0.911853, 0.912251, 0.911418, 0.912681, 0.909501, 0.909153, 0.90851, 0.907872, 0.910848, 0.910934, 0.910953, 0.911118, 0.910458, 0.907592, 0.90627, 0.906275, 0.909232, 0.907775, 0.906772, 0.907477, 1.2113, 0.895414, 0.897002, 0.895595, 0.89246, 0.892534
0.977856, 0.968066, 0.999356, 0.977577, 0.982267, 0.958694, 0.953842, 0.95361, 0.967697, 0.91316, 0.914003, 0.970658, 0.947151, 0.956585, 1.13614, 0.947714, 1.29406, 0.948183, 0.954385, 0.962967, 0.963023, 0.964617, 0.963586, 0.96782, 0.969285, 0.971891, 0.97448, 0.977893, 0.978825, 0.981177, 0.980586, 0.984537, 1.00228, 0.991965, 0.991668, 0.990536, 0.991127, 0.989021, 0.985891, 0.983663, 0.983242, 0.981979, 0.981696, 0.983912, 0.985903, 0.987019, 0.987462, 0.98692, 0.988658, 0.989536, 0.989928, 0.990094, 0.974027, 0.973, 0.960401, 0.976473, 0.976836, 0.988834, 1.00247, 0.994938, 1.01572, 1.00509, 0.976414, 0.977059, 0.978062, 0.973901, 0.956898, 1.00828, 0.976779, 0.953673, 1.05699, 0.99229, 1.00274, 1.01393, 0.980419, 0.974865, 0.977667, 1.07357, 0.988848, 0.989281, 1.04314, 1.00832, 1.0015, 0.999292, 1.03208, 1.00572, 1.00802, 1.00696, 1.00755, 1.00184, 1.08151, 0.966342, 1.08348, 1.08819, 0.939745, 0.975625, 0.923192, 0.928405, 0.938085, 0.938712, 0.947934, 0.948842, 1.02302, 1.02232, 1.02262, 0.966318, 0.985412, 0.98128, 0.968178, 0.918027, 0.918935, 0.916324, 0.910922, 0.902641, 1.03416, 0.910859, 0.909165, 0.907869, 0.903755, 0.906562, 0.910387, 0.909648, 0.910919, 0.911223, 0.911598, 0.913599, 0.912309, 0.913217, 0.911277, 0.911142, 0.911235, 0.911276, 0.911899, 0.912037, 0.910771, 0.911144, 0.903938, 0.903753, 0.905963, 0.908677, 0.909808, 0.908689, 0.907562, 0.907532, 1.20465, 1.40554, 0.895829, 0.897127, 0.896559, 0.893736
1.00817, 0.968881, 1.00724, 0.998132, 0.906805, 0.907612, 0.981359, 0.967229, 0.963815, 0.909779, 0.909754, 0.940155, 0.955593, 0.958972, 0.956299, 0.957324, 1.10956, 0.963859, 0.952391, 0.959754, 0.960787, 0.963183, 0.963068, 0.964647, 0.968221, 0.969587, 0.974176, 0.977469, 0.98033, 0.980564, 0.981391, 0.9881, 0.991088, 0.993071, 0.991759, 0.990411, 0.990293, 0.987747, 0.987173, 0.982808, 0.984648, 0.982182, 0.987091, 0.987256, 0.986783, 0.986996, 0.985804, 0.973635, 0.983817, 0.991113, 0.987424, 0.987674, 0.987235, 0.975229, 0.983549, 0.976793, 0.960404, 0.937862, 0.953049, 0.954594, 1.02144, 1.00527, 1.04621, 1.02897, 0.96562, 0.974701, 0.943198, 0.960622, 0.977543, 0.952386, 0.986405, 0.99163, 1.01434, 0.977418, 0.967044, 0.961109, 0.96011, 0.961446, 1.05451, 0.987666, 0.988596, 0.997923, 1.0543, 0.990791, 1.00552, 1.10851, 1.00592, 1.00667, 1.00712, 1.09959, 0.966098, 0.967068, 1.0967, 1.10308, 1.10843, 0.933291, 0.932599, 0.928373, 0.939061, 0.947061, 0.949123, 0.998147, 1.00775, 0.942659, 0.940714, 0.995772, 1.00739, 1.03555, 0.970371, 0.957422, 0.926841, 0.920446, 0.918135, 0.915818, 1.03585, 0.909571, 0.910306, 0.910734, 0.903758, 0.906994, 0.909135, 0.911194, 0.913412, 0.9156, 0.916362, 0.916416, 0.913137, 0.913465, 0.912469, 0.912443, 0.912667, 0.911811, 0.911495, 0.908711, 0.907611, 0.903741, 0.904297, 0.904298, 0.908379, 0.910917, 0.910963, 1.23676, 1.18204, 1.26408, 0.895118, 0.898842, 1.28981, 0.89459, 0.897173, 0.899935
1.00458, 0.907979, 0.976171, 0.905814, 0.972696, 0.982927, 0.980675, 0.952292, 0.967617, 0.958757, 0.96429, 0.959992, 0.957012, 0.950691, 0.959645, 1.15715, 1.55083, 1.4909, 0.966824, 0.956722, 0.956526, 0.957728, 0.963187, 0.963057, 1.58534, 0.987897, 1.60416, 1.39623, 1.00136, 0.980105, 1.20231, 0.991118, 0.990867, 0.991118, 0.991582, 0.990804, 0.989531, 0.989463, 0.987498, 0.987367, 0.987051, 0.986617, 0.987742, 0.987584, 0.987165, 0.986647, 0.984809, 0.979701, 0.980759, 0.983446, 0.98353, 0.984673, 0.984069, 0.985336, 0.98442, 0.985116, 0.96171, 0.980881, 0.952785, 0.936518, 0.94655, 0.97917, 0.967484, 0.952704, 0.953419, 0.946467, 0.938538, 0.950045, 0.952936, 0.947082, 0.948022, 0.995394, 0.978716, 1.0326, 0.960809, 0.936373, 0.953283, 0.951677, 0.970889, 0.992084, 0.991414, 0.981258, 0.970671, 0.977961, 1.00105, 1.0045, 1.00442, 1.17059, 1.01207, 1.10847, 0.967371, 0.947456, 0.947611, 0.931568, 0.932366, 0.936728, 0.935727, 1.13056, 0.939563, 0.955426, 0.956267, 0.958428, 0.957856, 0.944579, 0.943554, 0.980207, 0.99218, 0.98897, 0.984992, 1.00102, 0.988496, 0.957403, 1.02902, 0.916016, 1.00196, 1.05605, 1.11595, 1.13338, 1.12619, 1.14735, 0.914934, 0.918027, 0.916336, 0.917279, 0.917949, 0.91197, 0.913603, 0.911462, 0.910883, 0.910353, 0.911598, 0.910861, 0.908199, 0.906151, 0.905381, 0.904367, 0.905996, 0.907731, 0.908798, 0.910095, 1.22683, 0.89372, 0.892187, 0.890999, 0.897911, 0.891617, 0.893627, 0.893638, 0.898589, 0.900582
0.907464, 0.982576, 0.985293, 0.975105, 0.954814, 0.955295, 0.980786, 0.9734, 0.970826, 0.945462, 0.972948, 0.970722, 0.960068, 0.96273, 0.930474, 0.950752, 1.15437, 0.9681, 0.964574, 0.956099, 0.954502, 0.955979, 0.960685, 0.962156, 0.987535, 0.969298, 0.989051, 0.97559, 0.99229, 0.977944, 1.19318, 1.19838, 0.990725, 0.990946, 0.99192, 0.990933, 0.990414, 0.990689, 0.987597, 0.988967, 0.989694, 0.98677, 0.986796, 0.986961, 0.986958, 0.98536, 0.982576, 0.979801, 0.979701, 0.982686, 0.983301, 0.982857, 0.977238, 0.984741, 0.984389, 0.969433, 0.970336, 0.957183, 0.938243, 0.935314, 0.935881, 0.953389, 0.957592, 0.945942, 0.960267, 0.939836, 0.939057, 0.970298, 0.952616, 0.946092, 0.940696, 0.957119, 0.94397, 0.958067, 0.948894, 0.951314, 0.939622, 0.950001, 0.987631, 0.987402, 0.973154, 0.947874, 0.946574, 0.967983, 1.06379, 0.976466, 1.08991, 0.977903, 0.997861, 0.968225, 1.10943, 1.06328, 1.0695, 0.931356, 0.933563, 0.934355, 0.940119, 0.942203, 1.24032, 0.955499, 0.956291, 0.957519, 0.95651, 1.03004, 0.952445, 0.951633, 0.978961, 0.939345, 0.939454, 0.931619, 0.929586, 0.933195, 0.930648, 1.37346, 1.07442, 1.03856, 1.06072, 1.11374, 1.23933, 0.914695, 0.916035, 0.91765, 0.918379, 0.916789, 0.915825, 0.912951, 0.911657, 0.911063, 0.91048, 0.910227, 0.912044, 0.910432, 0.90972, 0.908137, 0.905915, 0.905298, 0.90563, 0.909123, 0.908947, 1.14153, 0.89298, 0.893186, 0.893438, 0.892528, 0.893786, 0.893928, 0.894509, 0.897269, 0.899133, 0.900126
0.907456, 0.96818, 0.971566, 0.956392, 0.89996, 0.898533, 0.977702, 0.957241, 0.960481, 0.971838, 0.959378, 0.966373, 0.966492, 0.931755, 0.933486, 0.936102, 0.973018, 0.970766, 0.963164, 0.95561, 0.952651, 0.953109, 0.956205, 0.981423, 0.990169, 1.22245, 0.974813, 0.976, 0.977084, 0.977668, 0.983953, 0.988073, 0.990571, 0.990644, 0.992952, 0.990335, 0.989813, 0.988321, 0.989145, 0.990626, 0.990909, 0.987613, 0.986725, 0.986246, 0.985577, 0.984292, 0.982139, 0.98047, 0.980452, 0.980245, 0.981889, 0.983597, 0.979929, 0.975165, 0.972377, 0.965248, 0.960945, 0.956994, 0.942471, 0.939093, 0.949499, 0.912569, 0.926094, 0.920436, 0.933349, 0.929235, 0.929819, 0.934116, 0.960853, 0.937041, 0.935612, 0.960508, 1.0079, 0.956531, 0.957919, 0.92529, 0.925233, 0.945463, 0.98427, 1.03221, 0.948381, 0.945731, 0.980926, 0.952076, 0.987298, 1.04707, 0.96899, 0.96994, 0.97684, 0.965046, 0.963129, 0.939054, 1.0653, 0.931467, 0.931906, 0.938962, 0.941142, 0.942022, 1.00165, 0.956336, 0.954507, 0.958374, 0.95589, 0.953514, 0.953868, 0.955638, 0.978791, 0.983191, 0.936909, 0.932158, 0.930631, 0.932041, 1.01721, 0.938372, 1.01834, 0.935565, 0.928328, 0.928809, 1.09963, 0.916081, 0.916883, 1.13622, 0.919817, 0.914667, 0.914319, 0.912518, 0.905661, 0.907358, 0.908636, 0.910737, 0.909754, 0.910745, 0.91053, 0.909865, 0.904966, 0.906641, 0.909671, 0.910977, 0.910258, 0.893047, 0.893969, 0.89428, 0.894975, 0.896108, 0.899843, 0.898278, 0.898072, 0.899182, 0.899351, 0.901934
0.906308, 0.983716, 0.973475, 0.978779, 0.9591, 0.953845, 0.97111, 0.956253, 0.952434, 0.945615, 0.946476, 0.957159, 0.950761, 0.962877, 0.954688, 0.964505, 0.951245, 0.967447, 1.10796, 0.94829, 0.949875, 0.950701, 0.956309, 0.958646, 1.14398, 0.986551, 0.977416, 0.975823, 0.976214, 0.994435, 0.994332, 1.06715, 0.988838, 0.988566, 0.988563, 0.988768, 0.987755, 0.987535, 0.987008, 1.27443, 0.99052, 1.45964, 0.984905, 0.985129, 0.984468, 0.98269, 0.981466, 0.98129, 0.981689, 0.980314, 0.980176, 0.976626, 0.975107, 1.15048, 0.964045, 0.959896, 0.957962, 0.956504, 0.96784, 0.940162, 1.02389, 0.925932, 0.918776, 0.91457, 0.929331, 0.929985, 0.929036, 0.926378, 0.961495, 0.916524, 0.91924, 0.920654, 0.957069, 0.923798, 0.921655, 0.915356, 0.916261, 0.930313, 0.932607, 0.949077, 0.945584, 0.944554, 0.948057, 0.950556, 0.951274, 1.00447, 0.966713, 0.963963, 1.04958, 0.964473, 0.996531, 0.934758, 0.922646, 0.924731, 1.07703, 0.93878, 0.940206, 1.02692, 0.952382, 0.953549, 0.953851, 0.957646, 0.953408, 0.953154, 0.953497, 0.978166, 0.944129, 0.96333, 0.985801, 0.929382, 0.990999, 1.0219, 1.02447, 0.940163, 0.938851, 0.936261, 0.935236, 0.927151, 1.17431, 0.915448, 0.915349, 0.912341, 0.914477, 0.914354, 0.905144, 0.905486, 0.904659, 0.902786, 0.905183, 0.906619, 0.909775, 0.910054, 0.910233, 0.906775, 0.907457, 0.908746, 0.911179, 0.911076, 0.892983, 0.894025, 0.895205, 0.897496, 0.898094, 0.898987, 0.899329, 0.900733, 0.899073, 0.900627, 0.901394, 0.902439
0.973626, 0.989952, 0.90018, 1.02359, 0.957857, 0.962285, 0.894237, 0.952556, 0.97091, 1.17474, 0.963094, 0.96083, 1.62646, 0.970063, 0.966041, 0.968303, 0.980104, 1.38266, 1.40644, 1.17673, 0.950132, 0.949275, 0.96489, 1.22833, 0.961284, 1.25658, 0.972792, 0.974747, 0.975204, 0.974832, 1.94433, 1.2011, 0.981976, 0.981151, 1.15197, 0.984908, 0.987393, 1.02192, 1.24389, 1.04004, 0.982543, 1.2904, 0.98369, 0.984182, 0.984414, 0.981969, 0.980961, 0.981456, 0.981053, 0.980031, 0.978592, 0.977818, 0.977976, 0.9617, 0.965205, 0.966127, 0.964163, 0.963577, 0.963096, 0.965052, 0.947755, 0.924425, 0.921758, 0.942222, 0.94231, 0.956211, 0.928032, 0.921324, 0.909553, 0.914714, 0.919279, 0.966555, 0.959963, 0.924666, 0.920496, 0.914677, 0.914523, 0.925431, 0.92569, 0.942974, 0.942897, 0.941368, 0.948119, 0.949807, 0.951571, 1.03757, 0.961212, 0.968444, 1.04649, 0.951326, 0.935609, 0.927854, 0.924786, 0.925287, 0.930011, 0.932916, 1.01483, 0.956156, 0.969645, 0.972848, 0.972419, 0.976957, 0.948993, 0.990501, 0.954143, 0.958819, 0.957746, 0.958299, 0.923025, 0.925502, 0.929617, 1.01964, 1.18147, 0.942366, 0.939296, 0.938979, 0.991768, 0.982537, 0.918596, 0.919046, 0.9068, 0.911954, 0.913129, 0.906398, 0.9078, 0.904853, 0.903838, 0.904302, 0.90513, 0.907053, 0.909631, 0.91116, 0.91118, 0.908504, 0.908796, 0.91022, 0.91085, 1.19135, 0.893869, 0.895694, 0.897304, 0.898152, 0.900894, 0.89997, 0.900668, 0.90105, 0.901429, 0.900999, 0.902066, 0.901528
0.970796, 0.970786, 0.988062, 0.896263, 0.89454, 0.89276, 0.959521, 0.963979, 0.949545, 0.987432, 0.960335, 1.05715, 0.964469, 0.963712, 0.969652, 1.0236, 0.974111, 0.977028, 0.985743, 0.987401, 0.943766, 0.944312, 0.950206, 0.952744, 0.981067, 1.16158, 0.970122, 0.971745, 0.972513, 0.973764, 0.973819, 1.20111, 1.13915, 0.972898, 1.21494, 0.980399, 0.977844, 0.979864, 1.02318, 1.04813, 0.978973, 0.980893, 0.98149, 0.983847, 0.985158, 0.984966, 0.980951, 0.980769, 0.980697, 0.979333, 0.977881, 0.976838, 0.97537, 0.973557, 0.969139, 0.969197, 0.966397, 0.966798, 0.963494, 1.00426, 0.943884, 0.94769, 0.995026, 0.931811, 0.989649, 0.921121, 0.931274, 0.913698, 0.900594, 0.895807, 0.907945, 0.964208, 0.981305, 0.924861, 0.919436, 0.914921, 1.00871, 0.916924, 0.921463, 0.919785, 0.943021, 0.933569, 0.933754, 1.12191, 1.13118, 0.958856, 0.969711, 0.96677, 1.03497, 1.04683, 0.930274, 0.927191, 0.925122, 0.929477, 0.929243, 0.930644, 1.11468, 0.968193, 0.940111, 0.972526, 0.946532, 0.980224, 0.944952, 0.953892, 0.950193, 0.956915, 0.961152, 0.97009, 0.932182, 0.925726, 0.927419, 0.925301, 1.01613, 1.04183, 0.977858, 1.13418, 0.928567, 1.15559, 0.986959, 0.985458, 0.90648, 1.21927, 0.906921, 0.907897, 0.907302, 0.905417, 0.904289, 0.905134, 0.904507, 0.90772, 0.909063, 0.909254, 0.909025, 0.907753, 0.908667, 0.909211, 1.06966, 0.891611, 0.893459, 0.897832, 0.898023, 0.899803, 0.900355, 0.901316, 0.901011, 0.902702, 0.904077, 0.902016, 0.902194, 0.901394
0.980583, 0.997977, 0.967966, 0.894197, 0.892449, 0.955824, 0.955591, 0.970736, 0.964285, 0.953818, 0.957464, 1.00419, 1.00578, 0.974128, 0.976237, 1.01904, 0.987701, 0.967917, 0.988103, 0.987837, 0.982647, 0.944509, 1.2478, 0.952148, 1.63736, 0.959793, 0.966435, 0.966973, 0.971608, 0.971867, 0.969097, 0.974131, 0.972699, 0.971427, 0.97524, 0.973832, 0.973421, 0.975326, 0.97877, 0.978429, 0.978759, 0.979377, 0.9804, 0.982758, 0.984583, 0.986025, 0.98668, 0.984984, 0.980142, 0.976684, 0.975205, 0.974861, 0.973607, 0.970696, 0.969559, 0.969743, 0.968171, 0.967242, 0.971145, 0.971404, 1.00656, 1.0496, 0.988179, 0.945054, 0.951123, 0.919511, 0.922936, 0.984757, 0.908919, 0.9021, 0.968068, 0.899902, 0.960768, 0.924203, 0.925736, 0.913156, 0.915024, 0.916771, 0.922195, 0.933489, 0.934081, 0.921717, 1.12812, 0.942107, 1.05102, 0.959171, 0.967071, 1.01774, 0.956181, 0.952608, 1.00459, 0.945569, 0.942979, 1.0887, 0.93102, 0.932002, 0.935491, 0.939076, 0.938904, 0.942467, 0.945095, 0.940254, 0.939726, 0.939931, 0.94631, 0.953691, 0.925309, 0.928642, 0.931558, 0.929594, 0.924056, 0.925152, 0.928668, 0.973257, 0.934497, 0.980528, 0.929271, 0.929624, 1.09838, 1.00039, 0.997617, 0.974553, 0.905308, 0.898954, 0.899597, 0.902416, 0.904127, 0.904726, 0.905003, 0.904932, 0.903841, 0.903963, 0.90541, 0.907455, 1.14399, 1.03704, 0.890308, 0.891446, 0.894852, 0.898717, 0.899033, 0.898295, 0.900309, 0.900646, 0.900375, 0.901627, 0.902188, 0.901072, 0.901669, 0.904076
0.9741, 0.980007, 0.978108, 0.971345, 0.891016, 0.972647, 0.888748, 0.978007, 0.988092, 0.994801, 0.963623, 0.98663, 0.977583, 0.984342, 0.972448, 1.01183, 0.973307, 0.98199, 0.959746, 0.986697, 1.03002, 1.03268, 1.03622, 0.986252, 0.953717, 0.957474, 0.961772, 0.966324, 0.967244, 0.971596, 0.964896, 0.968924, 0.970301, 0.970793, 0.972904, 0.97327, 0.973336, 0.973478, 0.973546, 0.988194, 0.977338, 0.978923, 0.980361, 0.982541, 0.983272, 0.983538, 0.978934, 0.977881, 0.976964, 0.976775, 0.976791, 0.976588, 0.975211, 0.972429, 0.970706, 0.970687, 0.970627, 0.970292, 0.970047, 0.969601, 0.966927, 0.945897, 0.943908, 0.94088, 0.952196, 0.946589, 0.994408, 0.991411, 0.962697, 0.96938, 0.973172, 0.91426, 0.910886, 0.926394, 0.926965, 0.928099, 0.921169, 0.921449, 0.919765, 0.933144, 1.03713, 0.913205, 0.9171, 0.942554, 0.952512, 0.954159, 0.990604, 0.959846, 0.960091, 0.95427, 0.935725, 0.93501, 0.936919, 0.940823, 0.939809, 0.938669, 0.940751, 0.940647, 0.938386, 0.944275, 0.94389, 0.940621, 0.940266, 0.938749, 0.934224, 0.93549, 0.923561, 0.927111, 0.930789, 0.931929, 0.928663, 0.92176, 0.923297, 1.10591, 1.02364, 1.04282, 1.05126, 0.966335, 0.895512, 0.891267, 0.892105, 0.937556, 0.940676, 0.899852, 0.898763, 0.89933, 0.901767, 0.904366, 0.904812, 0.905248, 0.903236, 0.903285, 0.895667, 0.897653, 0.898705, 0.888052, 0.890172, 0.892772, 0.896762, 0.897154, 0.89423, 0.898522, 0.899099, 0.899883, 0.900539, 0.897916, 0.898137, 0.900735, 0.898062, 0.899133
1.22602, 0.975395, 0.977435, 0.892409, 0.960568, 0.889002, 0.978149, 0.963351, 0.988072, 0.884255, 0.949183, 0.978278, 1.00493, 1.01143, 1.00941, 1.00952, 1.00996, 0.983816, 0.995315, 0.99284, 1.00156, 1.01115, 0.985555, 0.985908, 0.987553, 0.957004, 0.958716, 0.959343, 1.30952, 1.00941, 0.965499, 0.967598, 0.967799, 0.968892, 0.968427, 0.97332, 0.973449, 0.971955, 1.18817, 0.981502, 0.990311, 1.08536, 0.978109, 0.978156, 0.982567, 0.981752, 0.978773, 0.977226, 0.974385, 0.976414, 0.97429, 0.974397, 0.972921, 0.970952, 0.969697, 0.968535, 0.968832, 0.96733, 0.965564, 0.963756, 0.967037, 0.939775, 0.941232, 0.939874, 0.941467, 0.946269, 0.947034, 0.940642, 0.940412, 0.92918, 0.923083, 0.922177, 0.930638, 0.920517, 0.928961, 0.929219, 0.919805, 0.918635, 0.926654, 0.934509, 0.994903, 0.923208, 0.924961, 0.965052, 0.949391, 0.949127, 0.945265, 0.959852, 0.960092, 1.03351, 0.936805, 0.936575, 0.954302, 0.939972, 0.940137, 0.939751, 0.94131, 0.939138, 0.940045, 0.943034, 0.940937, 0.942378, 0.94225, 0.938824, 0.935787, 0.935385, 0.95929, 0.925161, 0.930194, 0.931694, 0.928407, 0.947755, 0.922923, 0.922732, 1.07474, 1.04637, 0.964939, 0.952876, 0.890032, 0.890767, 0.886506, 0.942694, 0.892353, 0.895871, 0.897195, 0.887737, 0.894234, 0.897348, 0.901015, 0.895683, 0.89531, 0.895721, 0.897534, 0.899944, 0.90079, 0.891209, 0.890154, 0.893829, 0.896892, 0.897649, 0.895456, 0.898066, 0.900004, 0.900587, 0.900753, 0.899281, 0.897321, 0.898425, 0.898331, 0.897496
0.973884, 0.989226, 0.894562, 0.891138, 0.981439, 0.886748, 0.991787, 0.999585, 0.883683, 0.954789, 0.949829, 0.994193, 0.943053, 0.99146, 1.00809, 0.976315, 1.0054, 0.967817, 1.0919, 1.09491, 1.00153, 1.24812, 0.98452, 0.989128, 0.988612, 0.992211, 0.951193, 0.953286, 0.953233, 0.959759, 0.961167, 0.963543, 0.964031, 0.964616, 0.96484, 0.96629, 1.49796, 0.980406, 1.37474, 0.975508, 0.973702, 0.987936, 0.98768, 0.985196, 0.978957, 0.972143, 0.973967, 0.97372, 0.973602, 0.973919, 0.972057, 0.973379, 0.973304, 0.972856, 0.970743, 0.973953, 0.974908, 0.969123, 0.96719, 0.968495, 0.954246, 0.943477, 0.943734, 0.942506, 0.947305, 0.946167, 0.945881, 0.946149, 0.939825, 0.977193, 0.932878, 0.967055, 0.96681, 0.987094, 0.912842, 0.930443, 0.928789, 0.919448, 0.932915, 0.9347, 0.922688, 0.924176, 0.924464, 0.92747, 0.948863, 0.943627, 0.943831, 0.953338, 0.946721, 0.959218, 0.973688, 0.935301, 0.93102, 0.952532, 0.938217, 0.938572, 0.942306, 0.940487, 0.939969, 0.941989, 0.938303, 0.942404, 0.939545, 0.938837, 0.934344, 0.934958, 0.930631, 0.929254, 0.929572, 0.927896, 0.928135, 0.926707, 0.92199, 0.917985, 0.969821, 0.91635, 0.939644, 0.937596, 0.884819, 0.88385, 0.882441, 0.9973, 0.891693, 0.893401, 1.14304, 0.889025, 0.88862, 0.897106, 0.896894, 0.8948, 0.896024, 0.899418, 0.901372, 0.901729, 0.900636, 0.896814, 0.891768, 0.894122, 0.896082, 0.897211, 0.8976, 0.898733, 0.900707, 0.902214, 0.901214, 0.89867, 0.897376, 0.892395, 0.898154, 0.898755
0.988728, 0.994758, 0.894129, 0.890617, 0.887186, 0.964217, 0.998724, 1.0007, 1.00258, 1.00335, 1.00802, 0.998927, 0.990698, 0.988809, 0.998371, 0.997703, 0.945821, 0.985029, 0.950452, 0.977009, 0.973431, 0.974176, 0.98416, 1.04266, 1.07217, 0.946054, 0.949123, 1.02253, 0.953138, 0.950317, 1.19283, 0.954849, 0.95637, 0.963144, 0.964038, 0.966573, 0.964446, 1.26747, 0.98179, 0.966675, 0.958921, 0.967209, 0.987146, 0.976009, 0.975343, 0.976367, 0.976277, 0.976734, 0.974666, 0.973236, 0.971933, 0.975724, 0.97503, 0.979654, 0.98056, 0.974939, 0.976579, 0.971799, 0.966376, 0.964578, 0.965928, 0.95263, 0.950151, 0.99398, 0.948452, 0.948084, 0.946522, 0.946133, 0.941978, 0.945465, 0.951592, 1.02681, 0.961509, 0.962759, 0.957711, 0.927689, 0.928065, 0.928969, 0.93277, 0.93499, 0.922894, 0.91443, 0.915992, 0.929363, 0.939753, 0.9454, 0.945271, 0.967776, 0.967251, 0.927626, 0.918009, 0.929186, 0.92798, 0.934635, 0.943148, 0.939247, 0.939452, 0.936763, 0.938488, 0.935812, 0.937864, 0.938801, 0.939231, 0.938696, 0.933497, 0.931698, 0.931846, 0.929583, 0.926096, 0.926098, 0.926992, 0.929466, 0.949454, 0.911971, 0.908814, 0.908677, 0.946928, 0.94448, 0.884103, 0.883718, 0.883642, 0.882813, 0.88798, 0.930197, 0.888433, 0.890115, 0.935246, 0.897584, 0.898098, 0.898121, 0.89933, 0.899663, 0.901847, 0.903552, 0.90098, 0.898645, 0.894607, 0.895431, 0.897572, 0.898088, 0.900394, 0.900734, 0.904043, 0.903663, 0.897032, 0.896504, 0.88942, 0.891305, 0.890416, 0.893798
0.973295, 0.974543, 0.974147, 0.973405, 0.967264, 1.00115, 0.963224, 0.99666, 0.998212, 0.984435, 0.983671, 0.977404, 0.94921, 0.990236, 0.885237, 0.999436, 0.980932, 0.943054, 0.968197, 0.97431, 0.954196, 0.986114, 0.998326, 0.998475, 0.928209, 0.929511, 1.00591, 0.938973, 0.940154, 1.08929, 0.989048, 0.955721, 0.956166, 0.956688, 0.956382, 0.956381, 0.960064, 0.960064, 0.984921, 0.946139, 0.947883, 0.95734, 0.985232, 0.974771, 0.975358, 0.976559, 0.976812, 0.976873, 0.975805, 0.976585, 0.976728, 0.981398, 0.981976, 0.980418, 0.980362, 0.97964, 0.971104, 0.971484, 0.967979, 0.966107, 0.961383, 0.96081, 0.956469, 0.954319, 0.952263, 0.948885, 0.94905, 0.949011, 0.946941, 0.945987, 0.94721, 0.946268, 0.946407, 0.935307, 0.94697, 0.944979, 0.943044, 0.960126, 0.959832, 0.959223, 0.913747, 0.911908, 0.911308, 0.92554, 0.932356, 0.943016, 0.935774, 0.935263, 0.929537, 0.928552, 0.918314, 0.9292, 0.928584, 0.935021, 0.937815, 0.939371, 0.940071, 0.937426, 0.936682, 0.936721, 0.936309, 0.937692, 0.962907, 0.958581, 0.931069, 0.931314, 0.929708, 0.924871, 0.923865, 0.921754, 0.929545, 0.946442, 0.925324, 0.909636, 0.908441, 0.950005, 0.931011, 0.946784, 0.874872, 0.875318, 0.882189, 0.883248, 0.88085, 0.929489, 0.887401, 0.914547, 0.907723, 1.16773, 0.898591, 0.898926, 0.900134, 0.901145, 0.903158, 0.903415, 0.902553, 0.900681, 0.894015, 0.896321, 0.89804, 0.898602, 0.899378, 0.90061, 0.900972, 1.07547, 0.896804, 0.888111, 0.89066, 0.890534, 0.891403, 0.893847
0.900643, 1.00429, 1.00614, 1.00076, 1.00222, 1.00092, 1.00231, 0.997086, 0.984561, 1.00025, 0.98867, 0.995507, 0.990943, 0.997674, 0.958529, 0.995701, 0.940706, 0.970347, 0.970782, 0.960139, 0.94757, 0.995201, 0.962797, 0.928264, 0.926832, 0.929677, 0.931536, 0.93887, 0.939539, 0.938066, 1.02439, 0.977652, 0.95357, 0.954034, 0.955024, 0.957342, 0.957128, 0.958111, 0.964971, 0.946282, 0.948211, 0.964076, 0.981306, 0.984598, 0.974772, 0.9774, 0.977283, 0.975369, 0.973369, 0.972238, 0.971492, 0.974205, 0.976484, 0.978556, 0.976116, 0.974941, 0.97016, 0.969706, 0.966827, 0.966403, 0.963799, 0.962673, 0.956193, 0.956831, 0.953292, 0.954799, 0.952709, 0.950775, 0.950413, 0.949458, 0.949361, 0.948103, 0.950682, 0.943299, 0.950213, 0.956553, 0.956319, 0.947647, 0.945876, 0.952835, 0.914241, 0.912575, 0.912326, 0.930906, 0.932769, 0.935835, 0.935147, 0.935163, 0.932993, 0.929396, 0.929928, 0.95705, 0.929129, 0.936149, 0.9378, 0.939141, 0.93911, 0.938741, 0.938345, 0.937995, 0.936345, 0.958264, 0.960594, 0.95913, 0.956315, 1.01118, 0.924839, 0.925392, 0.97451, 0.940188, 0.944357, 0.904864, 0.904763, 0.905575, 0.907133, 0.904315, 0.900104, 0.943316, 0.876309, 0.880262, 0.880713, 0.878492, 0.874479, 0.874789, 0.930054, 0.919697, 0.915589, 0.894224, 0.896798, 0.899053, 0.901519, 0.903222, 0.904059, 0.904157, 0.902717, 0.900824, 0.897673, 0.894948, 0.897083, 0.896035, 0.89843, 0.898827, 1.1727, 0.897736, 0.884944, 0.887519, 0.890278, 0.892063, 0.891464, 0.892806
0.987345, 1.00791, 1.00362, 0.980896, 0.980092, 0.998083, 0.998477, 0.991054, 0.976213, 0.988415, 0.87449, 0.875073, 0.995052, 0.995974, 0.988435, 0.97169, 0.939272, 0.939528, 0.965442, 0.930118, 0.981419, 0.939201, 0.963638, 1.31955, 0.926105, 0.929942, 0.931533, 0.930658, 0.933848, 0.936974, 0.977854, 1.08159, 0.967591, 0.952529, 0.95335, 0.955646, 0.956027, 0.970236, 0.966861, 0.947422, 0.948287, 0.979462, 0.984099, 0.98134, 0.974692, 0.974389, 0.975601, 0.974339, 0.972439, 0.970407, 0.970823, 0.972011, 0.977055, 0.976687, 0.973807, 0.973293, 0.971903, 0.967233, 0.967243, 0.966538, 0.965854, 0.965419, 0.965218, 0.964285, 0.958125, 0.957482, 0.954273, 0.954816, 0.953529, 0.950195, 0.954821, 0.969837, 0.949567, 0.956613, 0.947787, 0.956436, 0.952542, 0.951185, 0.951552, 0.942848, 0.958333, 1.3707, 1.09597, 0.953241, 0.940848, 0.966651, 0.961054, 0.936486, 0.934365, 0.957114, 0.932951, 0.932084, 0.963788, 0.935976, 0.938489, 0.939928, 0.938756, 0.93781, 0.937201, 0.937463, 0.940545, 0.958336, 0.959168, 0.964475, 0.956082, 0.953397, 0.921958, 1.29504, 0.901904, 0.902642, 0.938452, 0.904187, 0.904144, 0.905607, 0.902648, 0.899559, 0.898279, 0.928845, 0.879759, 0.88003, 0.880409, 0.878198, 0.873172, 0.929266, 1.00243, 0.917758, 1.17516, 0.890804, 0.904919, 0.909676, 0.900689, 0.901426, 0.902385, 0.90271, 0.900761, 0.899134, 0.89807, 0.897582, 0.895766, 0.895434, 0.897355, 0.896389, 0.898159, 0.889456, 0.886636, 0.888788, 0.890917, 0.891561, 0.890705, 0.89156
0.988723, 1.03786, 0.999839, 0.993339, 0.995328, 0.998904, 0.993937, 0.996107, 0.966316, 0.874206, 0.874735, 0.995073, 0.875453, 0.99463, 0.987472, 0.939624, 0.939424, 0.938927, 0.940554, 0.984167, 0.981298, 0.964126, 0.963728, 0.981317, 0.928805, 0.929541, 0.929029, 0.929053, 0.931727, 0.931854, 0.932474, 0.932298, 0.944704, 1.30122, 0.952965, 0.981043, 0.963147, 0.990621, 0.948229, 0.948955, 0.947759, 0.978413, 0.978617, 0.978866, 0.975292, 0.975763, 0.974402, 0.973785, 0.981899, 0.984302, 1.30806, 0.965955, 0.974879, 0.975057, 0.973204, 0.971652, 0.970675, 0.970158, 0.969387, 0.968848, 0.968015, 0.967453, 0.966784, 0.964567, 0.965224, 0.969296, 0.969371, 0.959326, 0.967663, 0.95563, 0.955918, 0.989293, 1.20667, 0.959961, 0.960091, 0.956763, 0.954091, 0.952439, 0.952534, 0.943222, 0.967038, 0.9395, 0.939869, 0.949233, 0.949519, 0.949498, 0.94654, 0.942594, 0.942496, 0.954854, 0.945464, 0.946461, 0.935981, 0.938368, 0.938818, 0.939228, 0.936661, 0.935655, 0.936909, 0.949504, 1.18573, 0.95349, 0.953831, 0.952126, 0.9566, 0.918359, 0.918151, 0.904313, 0.902659, 0.903194, 0.898907, 0.904262, 0.904174, 0.904386, 0.9041, 0.900644, 0.897076, 0.888848, 0.885232, 0.882228, 0.881352, 0.874547, 0.872798, 0.870567, 0.869712, 0.915134, 0.911346, 0.91108, 0.911683, 0.90539, 0.899324, 0.899224, 0.90059, 0.900145, 0.899674, 0.897953, 0.898345, 0.896735, 0.894424, 0.896141, 0.894708, 0.897343, 0.888988, 0.890303, 0.888252, 0.889253, 0.8905, 0.884807, 0.885515, 0.886537
1.01462, 1.03428, 1.00056, 0.995487, 0.977438, 0.99564, 0.992239, 0.99755, 0.872323, 0.984426, 0.87293, 0.991349, 0.993928, 0.994472, 0.984145, 0.960742, 0.964703, 0.881584, 0.935954, 0.941341, 0.981438, 0.977302, 1.34696, 0.977807, 0.925962, 0.926779, 0.929116, 0.929242, 0.931002, 0.924767, 0.933043, 0.934272, 0.937063, 0.941599, 0.984982, 0.987211, 0.987765, 0.94711, 0.947375, 0.947988, 0.977058, 0.977922, 0.978399, 1.08495, 0.974477, 0.972512, 0.973723, 0.973161, 0.972605, 0.971987, 0.984234, 1.30389, 0.973078, 0.972567, 0.971081, 0.972736, 0.97217, 0.970955, 0.971187, 0.970989, 0.969229, 0.969969, 0.967236, 0.96511, 0.966018, 0.967141, 0.962743, 0.959638, 0.960954, 0.956575, 0.959295, 0.987231, 0.960941, 0.967464, 0.960283, 0.959416, 0.960628, 0.951781, 0.953227, 0.949528, 0.94624, 0.941679, 0.948538, 0.949333, 0.949618, 0.949766, 0.9509, 0.949775, 0.946247, 0.948393, 0.946464, 0.94584, 0.945898, 0.940835, 0.939217, 0.93851, 0.935518, 0.935147, 0.94367, 0.949447, 0.951448, 0.952898, 0.952281, 0.952709, 0.952764, 0.951223, 0.905667, 0.90629, 0.905917, 0.895884, 0.899389, 0.901911, 0.904698, 0.905797, 0.904638, 0.899243, 0.896969, 0.887743, 0.887938, 0.883524, 0.879842, 0.876157, 0.873062, 0.869388, 0.864373, 0.861498, 0.91919, 0.915364, 0.912841, 0.912569, 0.904657, 0.904159, 0.923041, 0.923983, 0.898197, 0.898031, 0.897832, 0.891648, 0.89364, 0.895414, 0.89535, 0.89718, 0.889673, 0.890401, 0.890634, 0.890459, 0.890288, 0.885872, 0.886695, 0.884378
0.993717, 1.01256, 1.04956, 1.05446, 0.990581, 0.995102, 0.988329, 0.995261, 0.87071, 0.990774, 0.870932, 0.979975, 0.981028, 0.991308, 0.963214, 0.963603, 0.93988, 0.966752, 0.947714, 0.93657, 0.977798, 0.976491, 0.900143, 0.912993, 0.914469, 0.922203, 0.924971, 0.92883, 0.925034, 0.922702, 0.932221, 0.933794, 0.939673, 0.942796, 0.942849, 0.942091, 0.966971, 0.946321, 0.946404, 0.946633, 0.97766, 0.977503, 1.41155, 0.97562, 0.978682, 0.972166, 0.973259, 0.973779, 0.971874, 0.977155, 0.95776, 1.16038, 0.972846, 0.973128, 0.972334, 0.97353, 0.973694, 0.972882, 0.973586, 0.974655, 0.973483, 0.973405, 0.971404, 0.9665, 0.970338, 0.972268, 0.962956, 0.960068, 0.969529, 0.959688, 0.959286, 0.960362, 0.962423, 0.963161, 0.962304, 0.960617, 0.962655, 0.959151, 0.955201, 0.949848, 0.949677, 0.956527, 0.949088, 0.95116, 0.950411, 0.955193, 0.955741, 0.949065, 0.948567, 0.949004, 0.946648, 0.947306, 0.946276, 0.942016, 0.942251, 0.935247, 0.932455, 0.931286, 0.955854, 1.06818, 0.901681, 0.908322, 0.909715, 0.909852, 0.910471, 0.910565, 0.908797, 0.907654, 0.907181, 0.900981, 0.903217, 0.904473, 0.905099, 0.906176, 0.906018, 0.89755, 0.897309, 0.893005, 0.87938, 0.879236, 0.87765, 0.876209, 0.874431, 0.870138, 0.863191, 0.861217, 1.30628, 0.926138, 0.916204, 0.921171, 0.908522, 0.924731, 0.930002, 0.889462, 0.891072, 0.895008, 0.891851, 0.8919, 0.894022, 0.894914, 0.897252, 0.897138, 0.891938, 0.892038, 0.890606, 0.890222, 0.887607, 0.886835, 0.88755, 0.888164
1.01508, 1.00101, 1.04312, 1.04222, 0.97761, 0.994557, 0.9879, 0.988697, 0.869904, 0.870299, 0.869784, 0.981972, 0.869752, 0.978953, 0.961396, 0.964645, 0.963784, 0.957485, 0.946567, 0.974933, 0.981421, 0.887448, 0.887848, 0.907542, 0.909281, 0.924709, 0.922606, 0.923048, 0.923245, 0.92543, 0.932372, 0.93321, 0.939699, 0.941535, 0.94076, 0.939097, 0.935709, 0.943965, 0.945442, 0.945551, 0.979052, 0.980301, 0.97509, 1.46893, 0.980414, 0.978481, 1.49597, 1.47515, 0.96738, 0.965495, 0.959471, 1.30458, 1.31564, 0.971465, 0.972306, 0.975476, 0.975338, 0.973463, 0.97352, 0.970723, 0.973683, 0.973386, 0.971619, 0.977597, 0.966958, 0.964716, 0.96335, 0.96209, 0.961761, 0.961386, 0.961239, 0.961706, 0.963458, 0.966569, 0.96653, 0.963502, 0.962939, 0.95939, 0.959526, 0.959326, 0.953725, 0.955173, 0.949569, 0.958168, 0.956043, 0.956064, 0.955719, 0.950837, 0.94824, 0.946881, 0.949096, 0.947879, 0.94757, 0.945551, 1.29443, 0.935669, 0.934587, 0.926484, 0.923763, 0.915485, 0.902027, 0.906767, 0.907799, 0.909555, 0.910842, 0.908581, 0.909078, 0.907173, 0.905118, 0.90179, 0.903086, 0.904789, 0.906862, 0.906171, 0.906292, 0.897493, 0.899034, 0.89197, 0.939229, 0.878251, 0.878895, 0.874336, 0.874877, 0.874689, 0.86589, 0.85811, 0.857915, 0.985759, 1.19921, 0.919315, 0.881811, 0.883748, 0.884365, 0.890965, 0.891487, 0.894324, 0.893616, 0.893046, 0.904693, 0.896516, 0.897726, 0.893823, 0.893426, 0.89206, 0.889359, 0.888691, 0.88847, 0.890581, 0.890019, 0.889038
0.99173, 1.03414, 1.04255, 1.04266, 1.04248, 0.995014, 0.876493, 0.986688, 0.869789, 0.867498, 0.867292, 0.987988, 0.981331, 0.970015, 0.960676, 0.966548, 0.959243, 0.961312, 0.942431, 0.933908, 0.953287, 0.888571, 0.893216, 0.906851, 0.909396, 0.922029, 0.921568, 0.922607, 0.92354, 0.925886, 0.929201, 0.931887, 0.939625, 0.941271, 0.939768, 0.936546, 0.941825, 0.943982, 0.945546, 0.945167, 0.976395, 0.979418, 1.49808, 0.972355, 0.970917, 0.97152, 1.49596, 0.957275, 1.50955, 0.980742, 0.959588, 1.08975, 1.08953, 0.971045, 0.973201, 0.974703, 0.973843, 0.97403, 0.972362, 0.969149, 0.973326, 0.973251, 0.972467, 0.968625, 0.967756, 0.967666, 0.96541, 0.963831, 0.962897, 0.962588, 0.962173, 0.961816, 0.963968, 0.966406, 0.964328, 0.9632, 0.963493, 0.963914, 0.960638, 0.95837, 0.959902, 0.957814, 0.959698, 0.957048, 0.956605, 0.954053, 0.952218, 0.949664, 0.950559, 0.950565, 0.950015, 0.95018, 0.947132, 0.945878, 1.36087, 0.933146, 0.932322, 0.925878, 0.921564, 0.92052, 0.945544, 0.906485, 0.910813, 0.911187, 0.910922, 0.91004, 0.906831, 0.907069, 0.90253, 0.901854, 0.902554, 0.904229, 0.905078, 0.905437, 0.897777, 0.898767, 0.900053, 0.897483, 0.890447, 0.877245, 0.876307, 0.874819, 0.873668, 0.872772, 0.869776, 0.863497, 0.856298, 0.856211, 0.918997, 0.917694, 0.881652, 0.884338, 0.88548, 0.888459, 0.890851, 0.888508, 0.8904, 0.890485, 1.39085, 0.904661, 0.9936, 0.893771, 0.891786, 0.886021, 0.88672, 0.887832, 0.888778, 0.889307, 0.889421, 0.890536
0.987718, 1.03201, 1.01444, 1.01204, 0.883507, 0.879509, 0.876159, 0.999334, 0.982133, 0.866169, 0.866014, 0.974362, 0.866395, 0.866133, 0.956022, 0.867187, 0.961726, 0.970118, 0.949027, 0.942961, 0.957383, 0.889006, 0.890364, 0.955438, 0.953908, 0.958506, 0.915934, 0.92115, 0.963993, 0.927997, 0.929293, 0.927509, 0.930636, 0.934449, 0.936533, 0.936034, 0.93799, 0.946774, 0.94569, 0.945446, 0.9754, 1.47142, 1.38302, 1.47604, 1.90271, 0.977343, 1.46895, 0.953896, 0.984144, 0.983391, 0.957805, 1.09079, 1.09118, 1.09391, 0.973842, 0.974425, 0.973769, 0.973756, 0.971513, 0.96972, 0.970748, 0.973188, 0.972283, 0.971167, 0.969985, 0.969503, 0.96838, 0.96437, 0.963941, 0.96351, 0.962928, 0.962752, 0.960754, 0.96217, 0.964137, 0.965782, 0.963985, 0.964545, 0.95994, 0.960151, 0.959134, 0.959278, 0.960476, 0.955431, 0.953659, 0.951636, 0.950143, 0.953522, 0.953597, 0.952792, 0.952496, 0.953009, 0.94492, 0.944314, 0.933295, 0.932781, 0.926154, 0.923477, 0.92207, 0.918998, 0.914663, 0.956886, 0.912532, 0.914351, 0.909818, 0.908871, 0.953437, 0.901122, 0.90086, 0.90071, 0.899157, 0.902232, 0.904686, 0.903397, 0.899961, 0.899022, 0.900723, 0.898824, 0.934049, 0.935161, 0.874357, 0.874122, 0.873779, 0.872051, 0.869707, 0.866892, 0.853889, 0.854921, 0.858803, 0.911453, 1.11471, 0.90127, 0.895121, 0.893406, 0.887372, 0.888208, 0.886886, 0.886239, 0.9167, 0.887676, 0.919937, 0.890622, 0.884566, 0.887264, 0.887101, 0.890015, 0.889874, 0.88931, 0.888263, 0.889829
1.06115, 1.02653, 1.01188, 1.00472, 0.882646, 0.879003, 0.875473, 0.980532, 0.992083, 0.865959, 0.865134, 0.864798, 0.865161, 0.865344, 0.865804, 0.866298, 0.962538, 0.967918, 0.970367, 0.968446, 0.956342, 0.943189, 0.964234, 0.956946, 0.961321, 0.973466, 0.967941, 0.922165, 0.922073, 0.928123, 0.927739, 0.92729, 0.929971, 0.935103, 0.935165, 0.935497, 0.940865, 0.94528, 0.948096, 0.944329, 0.942348, 1.46018, 1.3808, 0.974849, 1.48352, 1.46609, 1.46855, 0.952979, 0.976943, 0.973363, 0.978753, 0.979021, 0.98155, 0.987697, 1.31352, 1.2396, 0.9806, 0.985272, 0.970318, 0.969127, 0.970573, 0.972295, 0.971497, 0.970423, 0.970134, 0.969279, 0.967194, 0.966741, 0.964564, 0.963893, 0.959692, 0.962778, 0.959668, 0.965756, 0.966502, 0.966247, 0.95981, 0.962667, 0.963117, 0.961602, 0.95814, 0.957853, 0.955844, 0.953501, 0.953179, 0.951021, 0.953488, 0.955668, 0.956276, 0.951818, 0.952981, 0.946631, 0.946388, 0.945348, 0.935262, 0.930258, 0.929688, 0.967728, 0.922235, 0.955374, 0.959116, 0.960153, 0.913515, 0.913227, 0.907285, 0.907468, 0.902582, 0.899598, 0.951979, 0.897191, 0.897998, 0.898417, 0.902157, 0.902566, 0.90225, 0.900645, 0.900675, 0.919173, 0.917494, 0.934977, 0.873127, 0.873733, 0.874046, 0.872296, 0.866951, 0.866395, 0.855455, 0.854527, 0.851504, 0.85157, 1.15819, 0.895486, 0.908337, 0.901732, 0.892115, 0.886282, 0.883155, 0.878437, 1.14941, 0.898607, 0.887303, 0.883336, 0.884458, 0.886778, 0.88648, 0.886021, 0.888373, 0.888276, 0.885645, 0.888387
1.07131, 1.01313, 1.01151, 1.0061, 0.991588, 0.99236, 0.875728, 0.985712, 0.953148, 0.865217, 0.864163, 0.863579, 0.864375, 0.865344, 0.864079, 0.865859, 0.868453, 0.969451, 0.96922, 0.959623, 0.962884, 0.971617, 0.960358, 0.887716, 0.888346, 0.887602, 1.35741, 1.35255, 0.919873, 0.924957, 0.926803, 0.928172, 1.37918, 0.932211, 0.933138, 0.935603, 0.936667, 0.939536, 0.94632, 0.945492, 0.940566, 0.937407, 0.93722, 1.42973, 1.41256, 1.3966, 0.975238, 0.981699, 0.980295, 1.43437, 0.987962, 0.987168, 0.953446, 0.991887, 0.993724, 0.991393, 0.988629, 0.986127, 0.990791, 0.968744, 0.969786, 1.61448, 0.987729, 0.995598, 0.96768, 0.967274, 0.967499, 0.967229, 0.963518, 0.963496, 0.963569, 0.962829, 0.965471, 0.966794, 0.966383, 0.965123, 0.962808, 0.962868, 0.963154, 0.960912, 0.959412, 0.958005, 0.95746, 0.952999, 0.953852, 0.954135, 0.95583, 0.956892, 0.960016, 0.956489, 0.950887, 0.94792, 0.948387, 0.94602, 0.935104, 0.933014, 0.930095, 0.985044, 0.982036, 0.967452, 0.918639, 0.914382, 0.914497, 0.910888, 0.906366, 0.904931, 0.901766, 0.899807, 0.895761, 0.896934, 0.895619, 0.895464, 0.895585, 0.900634, 0.901635, 0.901198, 0.900656, 0.895349, 0.918868, 0.921749, 0.953292, 0.873423, 0.873126, 0.871337, 0.867856, 0.865736, 0.860036, 0.855646, 0.853049, 0.851398, 0.849422, 0.963952, 0.911669, 0.906464, 0.899241, 0.88362, 0.881785, 0.87706, 0.880218, 0.89195, 0.879246, 0.883117, 0.883134, 0.885638, 0.884126, 0.884203, 0.886403, 0.884723, 0.884582, 0.886644
1.06746, 1.05022, 1.00748, 1.02913, 0.995017, 1.00148, 0.997829, 0.978657, 0.989076, 0.864213, 0.863034, 0.862611, 0.862621, 0.863076, 0.863374, 0.863802, 0.864901, 0.867445, 0.932835, 0.959774, 0.964028, 0.946952, 0.964841, 0.887895, 0.889106, 0.888157, 0.890274, 0.959138, 1.25351, 0.918902, 0.92443, 0.927305, 0.927171, 0.929927, 0.931988, 0.934062, 0.935868, 0.935121, 0.94256, 0.941137, 0.940025, 0.938962, 0.937196, 0.938994, 0.940836, 0.945096, 0.946186, 1.51516, 1.50659, 1.02599, 0.991245, 0.947559, 0.949379, 0.951341, 0.994517, 0.988941, 0.991497, 0.996526, 0.998367, 0.966427, 0.967439, 1.00339, 1.0195, 1.05998, 0.967072, 0.966063, 0.966242, 0.966345, 0.96616, 0.966135, 0.96712, 0.966651, 0.96673, 0.968077, 0.967374, 0.963994, 0.962389, 0.963696, 0.961623, 0.961307, 0.959527, 0.959747, 0.958713, 0.98376, 0.955987, 0.954965, 0.95801, 0.961299, 0.959209, 0.957847, 0.955944, 0.949944, 0.949918, 1.00824, 1.00245, 0.988644, 0.988619, 0.994951, 0.925152, 0.924025, 0.922113, 0.918863, 0.915064, 0.970752, 0.907539, 0.906653, 0.904553, 0.898688, 0.896252, 0.894161, 0.894945, 0.897376, 0.897945, 0.899672, 0.900728, 0.90059, 0.897436, 0.895538, 0.889216, 0.888799, 0.884543, 0.97094, 0.870593, 0.871722, 0.871231, 0.866896, 0.86403, 0.857329, 0.856693, 0.855376, 0.850888, 0.851725, 0.854051, 0.855651, 0.898429, 0.894442, 1.06463, 0.87288, 1.12186, 0.877823, 0.87893, 1.0574, 0.880156, 0.879112, 0.882154, 0.883488, 0.884938, 0.885087, 0.885399, 0.88692
1.04323, 1.01106, 1.00836, 1.04271, 1.01101, 1.00777, 0.989169, 1.00376, 0.985026, 0.985405, 0.86264, 0.862439, 0.86196, 0.862663, 0.863181, 0.863805, 0.863631, 0.865088, 0.932408, 0.957109, 0.954754, 0.96495, 0.962854, 0.924979, 0.892492, 0.891925, 0.892125, 1.31201, 1.37382, 0.918949, 0.924481, 0.927127, 0.927603, 0.966988, 0.929735, 0.97324, 0.935284, 0.932729, 0.931876, 0.939826, 0.940066, 0.940657, 0.941334, 0.940798, 0.939818, 0.945247, 0.944337, 0.946003, 0.947827, 0.949538, 0.948191, 0.94703, 0.949383, 0.950855, 1.42067, 1.12758, 1.13126, 1.13197, 1.00175, 0.966974, 1.01696, 1.02118, 1.00889, 1.01147, 0.964716, 0.96494, 0.964693, 0.96522, 0.965088, 0.966264, 0.967269, 0.968357, 0.969055, 0.96859, 0.964246, 0.964284, 0.96459, 0.963803, 0.960459, 0.96167, 0.961422, 0.964385, 0.961921, 0.955887, 0.956844, 0.959245, 0.962731, 0.961895, 0.95985, 0.959543, 0.958884, 0.954394, 1.0009, 1.09939, 1.00245, 1.01068, 1.09492, 0.927155, 0.925695, 0.92513, 0.92505, 0.984269, 0.973675, 0.916814, 0.977344, 0.908437, 0.904215, 0.90406, 0.90149, 0.894379, 0.894959, 0.897297, 0.897591, 0.899864, 0.899607, 0.898676, 0.897731, 0.896014, 0.890217, 0.888371, 0.886094, 0.946135, 0.866976, 0.870263, 0.87098, 0.869502, 0.866764, 0.857449, 0.857164, 0.856997, 0.856717, 0.854778, 0.854567, 0.857315, 0.860588, 0.913423, 0.907894, 0.907792, 1.20226, 0.877246, 0.901642, 0.870016, 0.870861, 0.877073, 0.880641, 0.939399, 0.881872, 0.884751, 0.884582, 0.883294
1.07431, 1.0878, 1.08726, 1.06305, 0.992917, 1.06685, 1.06432, 0.991018, 0.868479, 1.00185, 0.862321, 0.861483, 0.861009, 0.860727, 0.86152, 0.862807, 0.863028, 0.963676, 0.960748, 0.976491, 0.964623, 0.973846, 0.964422, 0.966954, 0.9667, 0.892642, 0.900284, 0.973363, 0.974597, 0.970903, 1.29343, 1.39625, 1.31925, 1.32037, 0.928772, 0.928689, 0.93288, 0.931859, 0.932786, 0.942041, 0.942132, 0.941146, 0.942241, 0.941749, 0.941158, 0.940551, 0.945527, 0.946168, 0.948242, 0.949247, 0.949167, 0.946102, 0.94889, 0.949166, 0.949273, 0.950094, 1.1333, 1.06254, 1.01759, 1.19204, 1.1928, 1.01615, 1.01599, 0.959053, 0.963194, 0.963898, 0.964576, 0.966967, 0.968582, 0.968226, 0.969298, 0.969747, 0.969818, 0.967691, 0.965533, 0.964558, 0.962761, 0.962611, 0.962838, 0.963447, 0.965244, 0.965334, 0.96309, 0.955634, 0.955953, 0.957039, 0.961555, 0.961954, 0.960288, 0.95947, 0.994366, 0.955142, 1.00184, 1.00311, 1.21859, 1.00775, 1.00576, 0.927209, 0.926148, 0.925743, 0.92514, 0.9501, 0.918618, 0.91801, 0.918105, 0.91725, 0.904027, 0.986744, 0.907434, 0.898765, 0.897539, 0.898119, 0.897662, 0.89863, 0.900379, 0.899232, 0.900408, 0.93638, 0.893715, 0.944499, 0.886585, 0.887148, 0.866955, 0.870985, 0.870439, 0.869904, 0.868056, 0.867488, 0.864484, 0.860872, 0.860069, 0.856777, 0.856683, 0.855867, 0.856645, 0.857859, 0.858673, 0.854027, 0.861077, 0.865942, 0.869308, 0.869639, 0.870524, 1.09253, 1.05159, 0.876229, 0.878988, 0.881541, 0.883513, 0.8841
1.06235, 1.06499, 1.08326, 1.00053, 1.0426, 1.02198, 1.02487, 0.872628, 0.868006, 0.867401, 0.861605, 0.860637, 0.860118, 0.859846, 0.979858, 0.861402, 1.0187, 0.982422, 0.966628, 0.940392, 0.99147, 0.970394, 0.967044, 0.949183, 0.964417, 1.28442, 1.19438, 0.909198, 0.911939, 0.919268, 0.921143, 0.921645, 1.31371, 1.35793, 0.928631, 0.927962, 1.00852, 0.93017, 1.46395, 1.01321, 0.933889, 0.94072, 1.39545, 0.942692, 0.942383, 0.942995, 0.945475, 1.39621, 1.39526, 0.948057, 0.947252, 1.1188, 0.948555, 0.949503, 0.951067, 0.951262, 0.952474, 0.953012, 0.955564, 0.955766, 0.956439, 0.956255, 0.95499, 0.959546, 0.962298, 0.962936, 0.965941, 0.967933, 0.968445, 0.967302, 0.968324, 0.967835, 0.968709, 0.96627, 0.965444, 0.964469, 0.962988, 0.963832, 0.966142, 0.966221, 0.966811, 0.963566, 0.960756, 0.95905, 0.955446, 0.954477, 0.961906, 0.961861, 0.959928, 0.959187, 1.10924, 1.00177, 0.996645, 1.20964, 1.00765, 1.00802, 1.00811, 0.926896, 0.925353, 0.924765, 0.92502, 0.991606, 0.921451, 0.918667, 0.918674, 0.916972, 0.915631, 0.908516, 0.907866, 0.900789, 0.900541, 0.894731, 0.898314, 0.900359, 0.900998, 0.900005, 0.899817, 0.895966, 0.893985, 0.894508, 0.891558, 0.962354, 0.963049, 0.867852, 0.869991, 0.870335, 0.8683, 0.949079, 0.870426, 0.868468, 0.957331, 0.859959, 0.859479, 0.857771, 0.858029, 0.859027, 0.857356, 0.854525, 0.853932, 0.856342, 0.859644, 0.859439, 0.85884, 0.859833, 0.864609, 0.865509, 0.870696, 0.880278, 0.879107, 0.876207
1.06207, 1.1087, 1.04279, 1.00257, 1.06493, 1.03937, 1.03375, 1.07316, 0.86825, 0.865422, 0.862459, 0.859983, 0.859405, 0.858986, 0.859187, 0.997835, 0.860862, 0.9978, 0.998837, 0.971064, 0.997124, 0.983552, 0.970052, 0.980634, 1.42098, 0.97098, 1.1822, 0.910753, 0.916561, 0.920966, 0.921261, 0.920809, 1.27062, 1.00171, 1.29798, 0.927176, 0.927773, 0.92832, 1.0148, 1.37197, 1.43276, 0.992032, 1.21623, 1.21963, 1.00384, 0.944048, 0.944712, 0.942701, 1.35657, 0.945894, 0.945763, 1.0223, 0.949668, 0.949285, 1.01594, 0.953683, 0.981941, 0.961252, 0.959141, 0.959201, 0.957349, 0.957382, 0.954699, 0.954591, 0.95478, 1.01706, 1.01253, 1.01936, 0.967079, 0.967125, 0.967593, 0.967709, 0.96849, 0.970506, 0.97126, 0.984359, 0.961652, 0.961881, 0.966521, 0.966169, 0.965336, 0.963846, 0.959786, 0.961164, 1.05095, 1.02791, 0.960194, 0.961401, 0.959987, 0.956713, 0.998093, 1.47169, 1.2059, 0.997321, 1.00553, 0.932924, 0.928682, 0.970948, 0.924492, 0.923912, 0.925267, 0.92535, 0.922293, 0.921439, 0.921555, 0.921424, 0.918513, 0.910088, 0.910214, 0.907373, 0.900061, 0.895945, 0.898922, 0.901167, 0.90215, 0.900965, 0.901031, 0.895332, 0.895817, 0.894786, 0.893667, 0.953178, 0.94185, 0.933712, 0.938047, 0.939571, 0.875602, 0.876841, 0.868242, 0.870251, 0.869712, 0.869899, 0.86042, 0.858887, 0.863533, 0.86593, 0.858067, 0.856263, 0.854083, 0.857308, 0.85961, 0.860753, 0.860131, 0.859855, 0.865797, 0.865155, 0.868122, 0.869787, 0.872494, 0.870931
