1.09071999267905,1.07629933960474,1.07552175350535,1.07374417290141,1.16004882648069,1.16250046956256,1.59035945452451,1.46626646994709,1.03281150134992,1.01343077929573,1.01968396431012,1.19617068574916,1.02251732878088,1.02236866447822,1.02053518432809,1.0217881493512,1.02125037648975,1.03113135690792,1.02958652829343,1.02671821208713,1.02633392068799,1.02643318788653,1.02785193779963,1.02763682924307,1.01197311076308,1.00978345394086,1.00914668642753,1.28366901742055,1.00454522924477,1.00510533241311,1.00471632517621,1.00454381567525,1.00440440183932,1.00401323098366,1.00425370684879,1.00564157922989,1.00691516573703,1.01311018124795,1.03915921026817,1.00499594640971,1.00468165089976,1.00481834508088,1.00527586823911,1.00443047728347,1.00497156370907,1.00471161720021,1.0051811487913,1.00407680026102,1.00432525651302,1.00431710263445,1.00395303427731,1.00371952894279,1.00352617944598,1.00378658649119,1.00261213437079,1.00285113828194,1.00268287798039,1.00274245056196,1.00259410298856,1.00285367387393,1.00307752080627,1.00315415879478,1.00422255899373,1.00463586251134,1.00265321295316,1.00079053389996,1.00137019201293,1.00181327467311,1.00194689324269,1.00167833630129,0.998915387993713,0.997208121956905,1.17834782145403,1.0016872862124,0.999150072376221,0.998631772439603,0.998629160748892,0.997531015481721,0.997582874724306,0.996587482733648,0.997089844536265,0.996501565558027,0.995173602731362,0.995074718633728,0.994491231724318,0.993778515430961,0.992952076622777,0.992754132324211,0.990997787309734,0.989950570492632,0.989368485080131,0.988975679053088,0.987166147348395,0.987667689812276,0.985892750390638,0.985480779480083,0.984992677987348,0.984905355320064,0.984822820386622,0.983963240800732,0.982187554446822,0.981780922957723,0.980985154400175,0.979224939455034,0.978027268939942,0.976643477564726,0.976011683998295,1.20960594981983,0.974535232413076,0.973635371275928,0.973281021078627,0.972744951753027,0.971003131972919,0.970390156782465,0.969562314205561,0.969553212624,0.969009331273891,1.02612538814524,0.964834753363957,0.964295661900474,0.963932526480168,0.963296979588259,0.962500328099011,0.96258306552173,0.962023076086795,0.96150072067799,0.960355987741456,0.959650791385799,0.958759801440232,0.957512093636174,0.956831633746957,0.955837777365161,0.95425055271911,0.95220047420544,0.951330951904611,0.951506362473195,0.950594364455673,0.94999061646487,0.949575129533585,0.947496214389402,0.946649911210539,0.94516179908266,0.945804848457121,0.943904925586152,0.944893452646176,0.944243775500909,0.943459997593038,0.943285580485396,0.943697380636361,0.94159903522328,0.942756759127664,0.943087549848612,0.944287964269248,0.943422668425494,0.942605740362276,0.942202937381004,0.941837845813686,0.941117842629526,0.940633064013521,0.940103787438802,0.939841544457179,0.939168618794694,0.937469801187275,0.938128276898949,0.939231247907263,0.937083400285758,0.935849926438764,0.935086759832537,0.934466845818467,0.932382721554682
1.08428286165679,1.07503984681233,1.07520144448861,1.11442658997836,1.16366313441296,1.1653083936989,1.16872768594221,1.11334150278809,1.02589437458276,1.02072051028095,1.01930472961422,1.02157269893783,1.02261445894082,1.0229056041586,1.02271974781207,1.02333285208802,1.0243354136527,1.02731977213539,1.02719449649622,1.02632037667943,1.02622598938727,1.02645104832631,1.02719083875168,1.02696124890772,1.0248173904965,1.02358507887478,1.02224860729995,1.01965865499468,1.00623405496212,1.00637517988373,1.00568402983257,1.00483847156184,1.00475178089784,1.00442086877457,1.00500716094462,1.00598131811772,1.0071736406172,1.00899546854625,1.00776368100098,1.00585445834572,1.00493302461652,1.00461894536151,1.00424268274284,1.00442925451077,1.00422782854033,1.00434638144821,1.00411201465633,1.00405699044387,1.00369560574354,1.00385136911173,1.00352836881644,1.00327616275967,1.00324334382133,1.00292444733821,1.00280652570868,1.00256821754952,1.00250236670198,1.00247355523202,1.00252249416843,1.00259326824642,1.00277272990437,1.00319456649248,1.00360445366087,1.00388147535236,1.00248322687897,1.00129390510727,1.00099246587819,1.00101656642154,1.00110975824548,0.998827959029951,0.997767190176261,0.997040890193542,0.997745711986309,0.998057762920693,0.997902562839667,0.997630440943383,0.997147226829572,0.996955409706692,0.99637795525543,0.996106288783586,0.995783682215162,0.995367168707643,0.994498241504721,0.994168727951785,0.99347596193972,0.99280374783009,0.99226675759783,0.991453305910924,0.99068332789626,0.989558574202523,0.989173462224433,0.988570703582167,0.987992460494053,0.987264585779545,0.986410605282055,0.985461711494003,0.984886838576998,0.98448859583683,0.984190570847197,0.981928847549522,0.98130105856442,0.980893133862647,0.980071219051286,0.978771862222006,0.97742989788756,0.975899291145513,0.974615433440947,0.973133976760103,0.972768170044501,0.972166511559595,0.971748180716619,0.971022403438275,0.970362705964693,0.969617960762715,0.969220698139177,0.968974000404075,0.968317772987546,0.966355891300013,0.964644832573237,0.963800414947552,0.963666803140664,0.963085977368499,0.962543032000938,0.962339590350475,0.961970879530884,0.961318560946464,0.960459668037361,0.959004702766138,0.957601912559496,0.956472484743602,0.955560255872369,0.954615485744075,0.953405197411644,0.951174001710276,0.950454353420161,0.949941858562754,0.949213639352394,0.948439658587978,0.947636457151121,0.946531592205602,0.945885663654421,0.945271497232815,0.944689403375747,0.944216042970934,0.943796506602683,0.943661249719294,0.943233344896841,0.943218461025295,0.942711950563532,0.942185756364549,0.942153807863612,0.942406391957656,0.942243453369509,0.94212054372432,0.941225831541668,0.941360134538288,0.940982492870142,0.940545265124888,0.939449380466457,0.93906741759726,0.938364879389787,0.937456449924094,0.936657489167719,0.935817640101541,0.935653702220569,0.93563014942396,0.935266654440243,0.93552539227035,0.934466194680667,0.933390969656298
1.07962500691896,1.07494725494832,1.07494338986893,1.14271172799309,1.16514510566394,1.16585072911682,1.17127577398265,1.03504355127728,1.01792978016591,1.3103704303498,1.11733990163038,1.02451136298259,1.0245588557945,1.02444335288442,1.02426280440175,1.0244380020156,1.02519057531925,1.02675867501798,1.02529553137356,1.02548092975851,1.0259532252819,1.02614522187007,1.02760669652028,1.02758164748912,1.02476728855116,1.02312978955287,1.02176516367286,1.01689329162944,1.00820247726254,1.0087116829447,1.00683610407314,1.00511923109646,1.00430210015217,1.0048681198279,1.00465358123128,1.00617661048317,1.00639835459423,1.0084357785892,1.0077451379183,1.00567154754196,1.00475641002578,1.00369877320837,1.00386971770423,1.00357015388586,1.0040885846421,1.00380814381981,1.0038038709976,1.00310625129932,1.00366781866692,1.00315186260943,1.0030899139068,1.0029661869761,1.00257419285749,1.00254993915515,1.00261736369799,1.00225035425411,1.00214032435757,1.00210384819898,1.00245543768698,1.00213661093263,1.00241931855053,1.00258425434399,1.00425344014712,1.0040329482709,1.0020947415318,1.00086136715707,1.00049862317224,1.00041600772631,1.00236976463282,0.995222759421204,0.996222748202035,0.995470821464968,0.992928179125031,0.995928868506903,0.996661365827259,0.996628138784157,0.996037854637844,0.995653604863715,0.995937304124157,0.994896065310918,0.994807807054179,0.994524963249633,0.993330430017179,0.993657065808528,0.992319706068111,0.991889381639312,0.991185796052562,0.991064768767355,0.989703190045815,0.989140335750825,0.988761367268845,0.988795496788472,0.988063320738807,0.987768374009961,0.986428461817436,0.985109923252995,0.984402353667321,0.984341434228486,0.984299412296894,0.979413733641412,0.979745688708825,0.980652325221285,0.979163777521536,0.978707755216779,0.976608932263729,0.975037703153671,0.973134569527555,0.970068058437793,0.970906149625031,0.970901399671638,0.970198536648474,0.969840142493892,0.968893291718048,0.969449747224401,0.968176051203293,0.968808406253779,0.956330795079163,0.958429470246266,0.963063343648512,0.963652786185488,0.963422415535542,0.96334353318758,0.961473528544837,0.962825156191657,0.96176238665368,0.961211079325465,0.961471937923836,0.957623498499609,0.956745833682572,0.95478017350241,0.954394164987929,0.95367879035353,0.953017660623207,0.949809827343809,0.948894906522857,0.948492995405225,0.947720168052576,0.947029229597385,0.945911233870697,0.945055313063037,0.945229504200291,0.94464613325222,0.944456888348714,0.943444290207959,0.943160077757579,0.943051877327386,0.943053842074963,0.943065357225328,0.94232716540308,0.941805269724329,0.941617535988202,0.941294688355373,0.941330943966871,0.940267214709267,0.939441398007994,0.940346951171835,0.9404910232207,0.940223813470165,0.938082278547383,0.937868241815867,0.937169899485946,0.935319912946709,0.936621048039793,0.932006906948977,0.932479056955642,0.934134969555801,0.935010524554801,0.935911824799654,0.935895532300052,0.933147214884148
1.24164108926777,1.23714674013357,1.53579161276058,1.11892238688181,1.03818911327082,1.03698330099002,1.02934617163295,1.02125446678765,1.02064449364575,1.19282596252544,1.15316308962749,1.02616186181669,1.02538382581041,1.02507653054385,1.02417908245348,1.02477961492678,1.0244779026394,1.0264211922843,1.02544477188248,1.02553971919744,1.02607743690897,1.02623440078526,1.02886033782194,1.02985591891556,1.02863331460892,1.02919255735122,1.02791315729279,1.00801753142909,1.00848754893892,1.00975254738677,1.0082692852808,1.00681818810815,1.00593550868671,1.00515587081983,1.00642544819099,1.00694072058811,1.00824013858829,1.00798308130172,1.00790094074629,1.00487095217657,1.00466313738752,1.00435226706692,1.0038267451334,1.00440720481201,1.00421697370269,1.00375256127967,1.00220473094662,1.00268990187573,1.00221437268524,1.00264100886004,1.00246950921146,1.00258595162489,1.00192287477441,1.00130938995286,1.00177339117123,1.00143719650337,1.0014414709466,1.00053731780983,1.00116036463991,1.00131779590188,1.00209021070482,1.00293466278247,1.00241366385722,1.00191857159229,1.00001613516134,1.00002930084878,0.99893545725728,0.998187286150388,0.997466190089743,0.997071239184362,0.996630920831786,0.995886265380943,0.995688436371044,0.995789765452372,0.997553283630965,0.996318916339855,0.995476526880886,0.9955518189431,0.994392581979005,0.994516536349313,0.994046616614686,0.993548794009369,0.993040788397046,0.991600091158255,0.992012563932849,0.990595057349367,0.989916197300829,0.989038294212286,0.989187205018385,0.988256111884381,0.988336051915132,0.988019615096108,0.988546744846024,0.988125964109978,1.01457021176379,0.983935402784243,0.983592293553536,0.982105968239372,0.982225134245753,0.979646333915434,0.979025187715941,0.978133199072843,0.978079332932186,0.975606117769911,0.975421999781921,0.973567438290273,0.972253626101704,0.970127888749241,0.970240005303817,0.968748781117845,0.969135891167685,0.967991752427432,0.968703814326368,0.966715620531662,0.967676680091467,0.967552299615327,0.967235090309548,0.964857420078231,0.96572451280017,0.963379759228188,0.964089344472081,0.963849112099997,0.963439196826432,0.962084247487019,0.961455639821993,0.960282723426138,0.959260358891338,0.957135450005566,0.95428196537996,0.954362594176323,0.953247548184525,0.952060893688772,0.951423750221297,0.948455198572832,0.948133173441116,0.947195561907709,0.946285407668981,0.946169774231982,0.946085765451921,0.945535674132386,0.945013961858563,0.945004736057044,0.943918196383301,0.943818398408898,0.942642166186573,0.942608374943176,0.942490875281813,0.941976517153287,0.941616457004439,0.940647594667689,0.940796366072957,0.940798975567677,0.939240681597451,0.940654923475027,0.939017098747501,0.940122061276986,0.926030588172132,0.927067247621653,0.937175835952118,0.937264995710144,0.936799869895742,0.936871727936977,0.936432409249994,0.935982227269209,0.934009049359548,0.933985683272126,0.933841111073895,0.935600788157639,0.933922223540248,0.933874256926694
1.25325174097904,1.26013985761756,1.07990752230508,1.09736626563423,1.03208586148921,1.03414238476156,1.03196765974255,1.0326808699493,1.0292468822504,1.30804039853894,1.187147689101,1.31439161428144,1.24268676429005,1.0263656991731,1.02576900214185,1.02609246636528,1.02619990924009,1.02636626166657,1.22951492776702,1.03667630600161,1.03798860467465,1.03917392812409,1.03964437724241,1.03889801718418,1.03878120491416,1.04136791770026,1.04352777247339,1.01142160374506,1.00998436588918,1.00978720597512,1.00909565204435,1.00881084580441,1.00639679605273,1.00915639394287,1.00795888988659,1.0081094968801,1.00825973042321,1.00782367568399,1.00574241097456,1.00536484580342,1.00481482885213,1.00384057396477,1.00486260233388,1.00426728375019,1.0063209210701,1.00367445286311,1.00222510434655,1.00117072130842,1.00227269478403,1.00167181382316,1.00185255744748,1.00176906201216,1.00035544635648,0.999750647565723,1.00016222311619,1.00054989513103,1.00003605477877,0.9997318250985,1.00069225934509,1.00155959599009,1.00177638527262,1.00179979276952,1.00106843527931,0.999925302550906,0.999769148271279,0.999603582153382,0.999338657865878,0.997762658546632,0.998548345943225,0.997281131578405,0.997371712557502,0.997402452329479,0.996006519248549,0.995986618221479,0.995711473177561,0.995425850484943,0.994883371414343,0.99377211080046,0.993915882021582,0.99207570827321,0.993010264562203,0.993598538596496,0.990597329624613,0.990708544225219,0.989131572829867,0.989617008218538,0.988812788069416,0.989255101133516,0.988380926157631,0.988055415997543,0.98779973138866,0.987904377352665,0.987998271046353,0.988095110136071,1.22383041821352,0.982801724364362,0.982501159291221,0.981131497438177,0.979824446425855,0.978371426662043,0.977339713319585,0.977292024209831,0.975208620258287,0.974804885303035,0.973132830276963,0.972817182930194,0.971165644840196,0.970173108564795,0.968030710544387,0.968354081936121,0.968127390197863,0.968346334166746,0.966677480004028,0.968277691657977,0.966753834228764,0.967680335284242,0.966340920778061,0.968276862697256,0.965365872708071,0.965678166139777,0.963954184788906,0.964276022327879,0.962053929844899,0.961432568330069,0.95976734248819,0.95909762508903,0.958222316924409,0.955781459598951,0.954951756798282,0.953333412852832,0.952679789778136,0.951753342707264,0.950093918917323,0.947878075008592,0.946844954767401,0.946141324332227,0.94519567439516,0.944643623817532,0.945007981738198,0.945211199537228,0.944692932853017,0.944609980077224,0.944902174927644,0.942875511258045,0.942721954352913,0.941952232100076,0.941072920897056,0.941439348551166,0.940866053951157,0.940553083870194,0.940659917731154,0.939490307643816,0.939891125940361,0.938964934194924,0.940161225676459,0.939612429845263,0.93963650847098,0.935892638400368,0.935891287761272,0.936109488419477,0.936286127206522,0.936474052294725,0.935845041082953,0.934524135641471,0.933574653978454,0.933121607156008,0.933973270329598,0.933069213134873,0.9338337807658,0.932795577530276
1.1178317318726,1.03357342860461,1.03190299570982,1.03081070196082,1.01901973136469,1.03439750931371,1.03156886973491,1.02940873249173,1.02971680989202,1.03083880343362,1.03115355635915,1.03196275330637,1.03118665909094,1.02892334389551,1.02741904544937,1.02792137150258,1.03020786681948,1.15157981544776,1.19807757001968,1.03749332234991,1.03823168664224,1.03880355563736,1.03895355872671,1.03897161432034,1.03953895827035,1.04199581209382,1.20338626813117,0.00412330082035637,1.01167824573678,1.01153132344695,1.010551760136,1.01065914308192,1.01070286944658,1.00886748155686,1.0091735233382,1.0078835831251,1.00742610045662,1.00656235030777,1.00653118313046,1.00558980448967,1.00525724222026,1.0048385328615,1.00405961166661,1.00520147125988,1.00540415460716,1.00367299811904,1.00183051488832,1.00262646690075,1.00075542970851,1.00124163155139,1.0010176544622,1.00027498774394,1.00035113592886,1.00019983514777,1.00012788257106,1.0002935830505,0.999642615684807,1.00020591139744,1.0002969396521,1.00069362046927,1.00155921204136,1.00118062976801,1.00084962455758,1.00029782949973,0.999712510918785,1.00024461966195,0.998992243799149,0.999701320709706,0.998617412759909,0.999341429290793,0.997802590460953,0.997386204520383,0.997103179185205,0.995558197818948,0.995765201870825,0.994955982321663,0.993714393947722,0.994085870214107,0.992553795301553,0.992783140032049,0.992988159098161,0.991777510586468,0.991928071488294,0.990528849026585,0.989227578572157,0.988581548773966,0.988759895382247,0.988740316693599,0.989734532521656,0.988209126480852,0.987551740065249,0.986438671339041,0.986500133313427,0.984601235722712,0.983567598112278,0.981778908627662,0.980079498474224,0.979275743152471,0.977767587468482,0.976281403143933,0.975727577251371,0.973472997974598,0.974928106725924,0.972059483933681,0.973006794247189,0.971785384355306,0.970559493370326,0.96830058968029,0.968124848984199,0.968131179389365,0.968438743696687,0.968060211791227,0.969689160502322,0.96733947552265,0.968887276763419,0.967547467325611,0.96853899256776,0.966167533611261,0.967954986667043,0.964196619043389,0.963869523338042,0.96202492578132,0.961906030455238,0.959239812931541,0.958836029485243,0.958195452490208,0.95709690031874,0.955344970765044,0.953289238768679,0.953066779547045,0.951685217200902,0.950735865540048,0.949915813618665,0.947024676056581,0.945389704722493,0.945140283990898,0.944839250224041,0.943852553145606,0.943849544904307,0.943665570982736,0.9433320249498,0.942444808944645,0.941227780625746,0.941816877136858,0.939391196197119,0.941728890137656,0.942056579591037,0.942035001956672,0.942313879019743,0.940948846875361,0.94119219346962,0.941311041853653,0.939768063015589,0.941088130451123,0.939462386120235,0.939421375611416,0.93817748591938,0.93727902431174,0.93548099510734,0.935564678588997,0.935150959063135,0.935044528601229,0.93436372915625,0.934392116730321,0.932134978949907,0.932038002472266,0.931321885891188,0.932353297581002,0.930680827908795,0.93100998557466
1.03371955139878,1.03271829776698,1.03263884098116,1.01797014399931,1.01827415407778,1.03555865952486,1.54514932116225,1.02937742740969,1.02993478022521,1.03066822155233,1.0306761056018,1.03082477586031,1.03070137078581,1.02891957560627,1.02730821987532,1.02759859903289,1.02866532109552,1.17160282938952,1.25612201605211,1.29614597426471,1.1395492285386,1.28443943116447,1.08241251945863,1.30182228269678,1.30434648382521,1.03194700136966,1.02734574036629,1.02635995719469,1.07654051311847,1.0115180927809,1.010493826971,1.01029297608668,1.01014391147125,1.01043835338595,1.00840689837252,1.00825297412918,1.00774812328144,1.00769187604685,1.0068732801589,1.00716875089129,1.00627540979584,1.00448061063224,1.00380387518173,1.00319797922519,1.00346763567532,1.00254519445836,1.00214079556145,1.00193567641098,1.00121107996483,1.0007590931496,1.00115654597335,1.00150655610518,1.00045621241705,1.00116883687873,1.00079211599929,1.00105132390267,1.00112817252707,1.00454471732231,1.00259110440987,1.00199507269821,1.0026046401366,1.00213881124376,1.00110590689428,1.00195646964541,1.00218539957483,1.00160506610005,1.0014444955298,1.00080043559087,1.00170004023495,0.998522415218593,0.997794115542985,0.997220596125249,0.996137910318738,0.994623350614582,0.994087833315734,0.994689175414251,0.994715045500053,0.993535543956004,0.993945027843369,0.993174886948971,0.993470583661137,0.992795180121846,0.991963047008367,0.99239495041391,0.984566137569235,0.986989531154308,0.985247878766168,0.989735798175808,0.988812695041483,0.987734538752091,0.987145432484585,0.986738969579375,0.986176944308006,0.981144050867797,0.980688039954868,0.980621508687087,0.979783581813757,0.978848155909616,0.976931649441609,0.975378619409889,0.974498052930514,0.974334755692159,0.973322590318249,0.97441925934978,0.972203130678132,0.972194293968329,1.26872111173075,0.967565883523534,0.967564270889737,0.967916111577297,0.967535043145693,0.96884488985731,0.967139035008987,0.969071944169851,0.967631504091606,0.968078257454207,0.966937052313452,0.967310876061843,0.96474908981188,0.964528585284482,0.962880441083965,0.962645484566057,0.96009522485321,0.96033788936092,0.957811133176075,0.957658708932085,0.957458068382313,0.952227748330061,0.954145565906368,0.950878513825868,0.951087709402715,0.950102391557678,0.948286640886287,0.946892281834404,0.944752969126348,0.944702803081758,0.943859952358193,0.943643805775094,0.943335125352113,0.943339066054985,0.943036093461135,0.941602399339903,0.942625675077032,0.942167666738155,0.943910741022188,0.943000326238436,0.943987506293382,0.94375128252769,0.9431229934642,0.943232907598786,0.942516271184884,0.942611112127764,0.942701413900722,0.94014632352756,0.939932174286167,0.938693328270806,0.937971283235391,0.936788210632664,0.936478807373537,0.935102847582771,0.934204547582202,0.933619634060041,0.933012348953165,0.931555080070074,0.931226156740449,0.93031674251228,0.929984065394998,0.929045798357668,0.92987322019659,0.928865803106634
1.03343198262216,1.03338613086916,1.03292835836594,1.01866697067075,1.53293544473437,1.03340340104679,1.0304652447883,1.03041112973511,1.03056334902,1.03061871316291,1.03011197633745,1.02990772719381,1.02944741887724,1.02830986068505,1.02703503721274,1.02674641523648,1.02695581298834,1.02594737156825,1.02516527028703,1.0239145781058,1.02276601315856,1.02247702596695,1.01955561431962,1.01957258124125,1.02183820688393,1.02427347624296,1.02749135218258,1.02789016048148,1.02791704609778,1.02819197715847,1.01846785879701,1.00967946867707,1.01000097999206,1.00893258751903,1.00872666283271,1.00778019994752,1.0080114230734,1.00722201103284,1.00731366756714,1.00672825673953,1.0069645457569,0.995704209337088,0.996314128611451,1.00257556866012,1.00223171281326,1.00195224134655,1.00017919535953,0.999638379638681,0.9985603991222,1.00022322464378,1.0010239330285,1.00193152718248,1.0881060571387,1.00232226818643,1.00127851862449,1.00194939925145,1.00364390283723,1.00525307059113,1.00518344594011,1.00529103029505,1.00460525190115,1.00476322099651,1.00392280500203,1.00471247209828,1.00486405135476,1.00380930037091,1.00335024256842,1.00305017434358,1.00052140319132,0.998679947916782,0.997249510377607,0.9966271955804,0.996323463690719,0.994335767516252,0.994356829765632,0.995203003519481,0.994669216260773,0.995014600166456,0.994557880984343,0.99493026467542,0.994863872162259,0.994260529907323,1.00110347083255,0.995144563077815,0.996891492846276,0.990734810386426,0.989855910741218,0.989707706373203,0.989407265097743,1.16932150474683,1.07854292476969,1.165325950124,0.978452029135855,0.978633111529843,0.980163567681688,0.97975575761374,0.979541468839534,0.978124046704417,0.975467464907564,0.973632148427173,0.9737061111531,0.973080548180131,0.975233955290803,0.973116091926823,0.973190560081195,0.971342975632911,0.97052760030275,0.962043091099785,1.11863136101128,0.966904433279436,0.966674646458452,0.965781041640216,0.967541757369436,0.966242046362893,0.969224500020014,0.967040038128673,0.966656367077399,0.964291386985157,0.965760492666422,0.962389104606179,0.963020563899659,0.961838471276149,0.961340137676487,0.958809609926196,0.958539752284745,0.957247908380919,0.955957221116434,0.954427295535959,0.952314438143552,0.951744038687265,0.950765439075832,0.949900666144255,0.948876277603044,0.946345484708207,0.945974290923994,0.944928251664743,0.944174672906976,0.943775241973076,0.942762267223282,0.942846604431617,0.943032096982488,0.941786107245434,0.941093991514434,0.943243208172661,0.943122164786307,0.942912631534778,0.94414610234103,0.944688116289371,0.94402010254902,0.943162045147671,0.942216438628951,0.943564711751006,0.940772956634326,0.940801111453593,0.938608612925336,0.938525886809315,0.937747155648387,0.937134540792986,0.935397674183154,0.933518005737606,0.932952972918893,0.932433026964172,0.932022069532233,0.93126953930998,0.92976189442067,0.929347962669474,0.927916610783361,0.928603140914386,0.927066758605818,0.927838361215284
1.03318959128565,1.03183030542822,1.02370456480945,1.02304662430282,1.12062316233917,1.03210744202883,1.03098120652041,1.03030293805176,1.02998178704978,1.02965068288028,1.02928047451752,1.02916779501017,1.02875661372384,1.02673602437194,1.02586064857069,1.02526202276371,1.0248586751387,1.02396933807731,1.02396082151422,1.0226684106449,1.02197185136664,1.02134635437326,1.02016384805664,1.01950362327252,1.0209287782248,1.02356538799782,1.02748136271981,1.02798460149762,1.02794473143487,1.02806308793357,1.02886590964172,1.06709827424986,1.00312473307649,1.00623237425745,1.00646217120689,1.0069230481229,1.00640699484477,1.00703454943558,1.00734684978839,1.00710799396261,1.00695663770057,1.0065721818949,1.00686835227687,1.00395967953633,1.00396584090033,1.00228861891145,1.00124058682774,1.00013771991958,1.04273556755888,1.04433544081661,1.04420137361241,1.04411541527094,1.10952105054782,1.1228695960281,0.00401950166084448,1.0854540549819,1.13937616028935,1.00561703451487,1.00567346954092,1.00627996863906,1.00579521199022,1.00649698278202,1.00698170081763,1.0064187336354,1.00613432697055,1.00496330314034,1.00434834394366,0.999631332135177,0.998732183226997,0.996811088103158,0.996857017224873,0.995765227498069,0.99465581010007,0.994984652102867,0.995396396256509,0.996325812686026,0.995923249437477,0.995284699744266,0.999464702514883,0.99897787752115,0.997633773498491,0.999864780009404,1.00070624270512,0.996022431940111,0.995324017425881,0.99280942377138,0.991555875369213,0.990477166094666,0.990127208200035,1.15512950432143,1.04504587999844,0.98214050375167,0.979264415706664,0.979414301594688,0.978954442097098,0.979101619279674,0.979022088443396,0.978905380528722,1.06573588071883,1.3127850197667,0.972347965180602,0.972625632684575,0.972221263157296,0.97328204281249,0.970526358289323,0.9703394413212,0.970200433873546,0.961849097595624,0.962839746603451,0.964220584353093,0.964956258867895,0.965229515849818,0.964643034708124,0.967542947878562,0.966117529624966,0.96704535225699,0.965422376782881,0.965828547657358,0.962911213405753,0.963919690792987,0.962509745190768,0.9627857187816,0.959901067210687,0.960158092403207,0.958130537501384,0.95671166519699,0.955362831693138,0.953575973574076,0.953055913920857,0.951092104642517,0.951204977077214,0.950143932095693,0.948606787780426,0.947385345650643,0.946229180769232,0.950573860251332,1.06453328365515,1.25981437722796,1.08662004351639,1.08736540317981,0.947606358258867,0.939604316398745,0.942416744482898,0.940648861361468,0.941084559929826,0.941057971834043,0.940753848920015,0.940207560198721,0.937835675405914,0.939582498764166,0.940504325084119,0.940274065281642,0.941403235562952,0.939650167562586,0.939832983274962,0.93805841063183,0.938823783747886,0.937375502536549,0.934505717253341,0.92861206891513,0.930499428866449,0.93129623432681,0.931316278732344,0.928123504184921,0.92902967619674,0.928117250014499,0.928037700377345,0.926342355681701,0.92661351672637,0.925755844487576
1.03321232350315,1.03305207278864,1.02832583764598,1.02860885953746,1.02974592617865,1.03069014813398,1.03073285895903,1.02961468619724,1.02975861994834,1.02841167359146,1.02816036945816,1.02787354794581,1.02716589644085,1.02527359000211,1.02441036606272,1.02400185873404,1.02355105410808,1.0219533075123,1.02117362141154,1.02111682592035,1.02095167617477,1.02036777239655,1.01965852249362,1.01893631976333,1.01945261997374,1.02140184168726,1.02162104723718,1.02349902752034,1.02579611765383,1.02766705438079,1.02866134176138,1.02839694853115,1.00219070384505,1.00473202650728,1.00566372422147,1.00657639389381,1.00663970707084,1.00707472349645,1.00775097906773,1.00746340352959,1.05703847425974,1.17583727161142,1.18347028183111,1.03151035048787,1.18876718624421,1.0801543346689,1.04153925481764,1.04265190738753,1.04354062414468,1.04417047157059,1.04419422096561,1.04425905982836,1.11074462026647,1.19143519260822,1.18263258904785,1.16208894768385,1.29177715231075,1.03226050836062,1.00889278325029,1.00804309740329,1.00629799527693,1.00643375234578,1.00750301413763,1.00479500333624,1.00410332650167,1.0053679176555,0.997666101197242,1.00047555220623,0.998107387594509,0.997617553355995,0.997065404024239,0.996172842284779,1.00905784022232,1.00851320631616,1.00548521664579,1.00113774341649,1.00407323139981,1.00099481367226,0.999914885094103,0.999190293012509,0.996628488448877,0.995165929962855,0.99657449899564,0.996167136269283,0.997083667110823,0.993054389419178,0.992100842147261,0.989753889750191,0.987048027850745,0.983243647717107,0.98200114663916,0.980827001581398,0.97995599368912,0.978091563289389,0.978037809150433,0.978256524199359,0.978335113324065,0.978617173088168,0.982381644898659,1.22059843853472,0.971183290713502,0.970534449923712,0.971665451937803,0.970583049524768,0.96936144245629,0.968254722201826,0.968062050052102,0.96297640988981,0.963015384100397,0.963771265814359,0.964838620056569,0.964184086056806,0.966382545518025,0.966505033924281,0.967252608845458,0.966869898033701,0.9666823034656,0.963957927138936,0.964760415704258,0.963172438700627,0.962380919795154,0.960537703056841,0.960376061123639,0.958835043044354,0.958118863537866,0.956219490753571,0.954080661078266,0.954281834370261,0.95273986974805,0.952550794670804,0.95217224448916,0.95065982698569,0.949335971619913,1.15409857909991,0.963321191380161,0.963630059383256,0.964704386823244,0.965400883731076,0.963630653046066,0.963475994704156,0.950511815256314,0.937697665344105,0.939093188565321,0.939173670298712,0.939761011070513,0.939752859465924,0.939643828309006,0.93922094780979,0.936996905701249,0.938575209353802,0.939158806787927,0.939882049138656,0.939669834320807,0.939798044365337,0.935514085767977,0.935909873305485,0.935337283378866,1.28973837447625,0.933144131919269,0.930270684129056,0.930431326163428,0.931310378981848,0.928935725696381,0.928214861932855,0.927498349009181,0.92715327746341,0.926300028333214,0.925836163773033,0.924618154604838,0.925103483413789
1.03310925988081,1.03242117979353,1.03062385996947,1.03004673955637,1.02974208670016,1.02995691042525,1.02948494567368,1.02779091714389,1.02742906570225,1.0273360704329,1.02697906589906,1.02584640725549,1.02492554974164,1.02330043250427,1.02279485396534,1.02279536592507,1.02221881602271,1.0211452740884,1.02095110676518,1.02012535265554,1.02042166334583,1.01956728751173,1.01856247598234,1.01878948142283,1.01957101685382,1.02121114200054,1.02183172864018,1.02301247683013,1.02473955176957,1.02779423669462,1.02902927320312,1.02885918191104,1.0028002844252,1.0039963457507,1.00641136169252,1.00728385017051,1.00735502742007,1.00789266753236,1.00999788810238,1.13595630730434,1.0925642549935,1.13658574607984,1.49206593514879,1.03576339858825,1.22773888355172,1.11693993401016,1.07730147334846,1.53529366241391,1.11063079401639,1.04490900979308,1.07795448434112,1.11453564659287,1.12429789804178,1.13253610582365,1.14802290118039,1.14754083048286,1.14663260458657,1.19429167173634,1.16184967594376,1.01893098224033,1.01903600734433,1.01728166219022,1.01672114222741,1.00467644323678,1.0080902559103,1.00800618483337,1.00962671753459,1.01092144189288,1.01081393840744,1.00951092125106,1.00905964935164,1.00895659178396,1.00912972235353,1.00865747548992,1.0587270645459,0.998324469802204,0.995833593619141,0.994639623278947,0.993678130196258,0.993998668404528,0.99479052105874,0.994466101082,0.993978323015893,0.994896176613619,1.12532080717793,0.991046911414057,0.989493294693904,0.988288095267683,0.983820742450191,0.982668969469584,0.981692673417729,0.980830515646917,0.979243745769381,0.978351060964606,0.977336075159414,0.977843300694674,0.977899895627212,0.97787568024744,0.976864204176128,0.968073169427188,0.96986488698004,0.970152570706419,0.969681989246042,0.969704756235602,0.968033103386117,0.966297055699156,0.963103310619915,0.962730834726026,0.962534893550829,0.9636263100306,0.96536704726169,0.966256623626083,0.967080579654639,0.968393446416776,0.967586776088407,0.967937425354845,0.966795175981273,0.966341200279017,0.964326351488926,0.963459493901481,0.961683234294837,0.960743916954895,0.958506308798379,0.95777390740881,0.956757742031108,0.955785873683335,0.954871950936669,0.953896906799183,0.954743021132963,0.954768227057396,0.954481342953871,0.955600446049844,0.957063734252552,0.959305967754042,0.961304992943066,0.962932932554508,0.96362641899295,0.963732903815716,0.963440463635829,1.07821282532457,0.95450092431852,0.938308484259819,0.939113712605087,0.938572185156914,0.938535677216355,0.938370936220776,0.937848236393558,0.93822620684908,0.937585203618109,0.938038001238257,0.938226841280639,0.937942338535688,0.938479859029884,0.934295795728097,0.934118493374106,0.933869445212541,0.932385349677485,0.931225051349088,0.930430166758731,0.928675060744955,0.929187963308355,0.929033149021929,0.928550178200525,0.927454583690556,0.925558962479326,0.925882251674453,0.925343103164707,0.924926933648864,0.924925435514819,0.924661079394801
1.03308675429741,1.03246255081955,1.03116426235588,1.03021220963547,1.02971114393434,1.02959085989302,1.02911620905045,1.02808145459207,1.02770824485441,1.02680607825929,1.02637043506532,1.0255881227784,1.02480833807818,1.02382178293256,1.02307995197396,1.02274938343036,1.02223466224865,1.02175481895032,1.02129478701338,1.02079225641619,1.02073479630274,1.02047107659068,1.02017409588879,1.02041908834665,1.02090821682599,1.02177192516366,1.02257195827088,1.02407801916547,1.02600525336421,1.02812479218543,1.02951493517273,1.02992870463709,1.00443988899818,1.00562993015271,1.00801205105772,1.00869423620872,1.00883543170342,1.0104302754853,1.01218114199791,1.05581558127387,1.07458647218675,1.10554018378671,1.20632261594104,1.15800965110092,1.17756817718556,1.15708329332566,1.15735906042226,1.16749688866823,1.1107891463733,1.11099956057627,1.11152240972791,1.12154938623843,1.12660726618438,1.13196558430544,1.13466679162621,1.1355358245167,1.13573883443575,1.13583844988504,1.08313202908921,1.01913866545396,1.01881921302528,1.0173276420492,1.01642065701344,1.01334939183306,1.01035744247948,1.00931484640492,1.00979521802691,1.01053529651803,1.01071753985534,1.0099499868464,1.00957356526273,1.0093368913367,1.00917994119268,1.00503148656024,1.00182281980956,0.997412272159319,0.9949659400047,0.993716706482704,0.992817735472145,0.993222112686647,0.993398581522467,0.993188826382279,0.993072452797319,0.99212606505693,0.990650683509848,0.98995312962678,0.988662607111715,0.986670468102428,0.983963913910172,0.982380100734794,0.981246147683228,0.980224494603654,0.979070095396829,0.97805827436135,0.977518753998584,0.977576712712138,0.977448814809869,0.977276618868516,0.976482154622864,0.969476561972793,0.970019563051198,0.970044636599259,0.969680921925216,0.968562188750623,0.966389072425082,0.965047069129557,0.963345459521732,0.962679276415899,0.962743353393928,0.964552844394875,0.966947839006011,0.968151199682462,0.969153462978623,0.969280334190683,0.969096145464393,0.96863272175481,0.967777931038446,0.966194884223896,0.964197424446694,0.96212750753062,0.960929071789545,0.959746473955449,0.958226019784038,0.956941472496689,0.956096905331515,0.95529297433445,0.954733887948055,0.954450880345932,0.954482376539471,0.954999980223657,0.955353444772607,0.956074620334795,0.957670250639437,0.959380268662649,0.960817593291656,0.962673731396253,0.963554334591392,0.964309239923585,0.965470326026075,0.96742933143779,0.95906021691925,0.949750862473702,0.938905799071729,0.938714995227181,0.938108024391234,0.937451423275543,0.937124777559406,0.937202688801183,0.937212798750799,0.937430201299547,0.937466999248567,0.937561047179122,0.937282429160397,0.93612285318187,0.934135821807089,0.933370462506499,0.932241122157335,0.930866684551822,0.929627978178129,0.928649716558555,0.928414884113959,0.928218047526249,0.927653153150129,0.926994844818157,0.926110706262829,0.925892862679574,0.925402339816019,0.924982264477841,0.924897366051569,0.924703495785818
1.03330920822611,1.03296191347193,1.03153108475123,1.03004259439335,1.0290928177837,1.02944775234039,1.02876478230957,1.02819661377992,1.02734766932788,1.02647676524118,1.02577945626662,1.0248891848021,1.02482044114875,1.02400472792405,1.02320727051374,1.02299852628312,1.02263725218555,1.02242812070501,1.02187382772524,1.02076661792383,1.02096767753859,1.02111620823702,1.02106049728207,1.0215099285616,1.02161127901223,1.02200744023394,1.02249965606473,1.0241545713416,1.02699636148731,1.12179757346717,1.03469704701649,1.03464476722446,0.00373641218987664,1.15500052689766,1.01164763415199,1.01030631268553,1.0088403950379,1.01225286236691,1.01653273158259,1.02470244391257,1.02642868047948,1.02803904781598,1.34932330086516,1.13685763119552,1.21079919157343,1.15709166493074,1.15754302496101,1.19452656839492,1.11036277885503,1.1100074346218,1.11123893608225,1.5733257945524,1.06819744246355,0.999857747928044,0.999033131660856,1.03419191158291,1.05171841484216,1.15082081401704,1.02046850239578,1.01903783270112,1.01862641957242,1.01678507126138,1.01696768427831,1.01374545423603,1.01092069973577,1.00965960618835,1.01047600008538,1.01093466451266,1.01165920948564,1.03246568744787,1.02002560773433,1.04362689927302,1.04542142831534,0.993252162024979,0.994366355820228,0.99344336865875,0.992520060578117,0.992468991900694,0.991022533305894,0.991594124973384,0.992223311326057,0.992614535371025,0.99180275014058,0.990475329926762,0.989340597236051,0.989316315451737,0.988332925770935,0.985530416824988,0.982763993596746,0.981433564759561,0.980439895829009,0.979724067574916,0.978455848829807,0.977399268301012,0.976689890544359,0.977286035117985,0.977082969142546,0.977194259187388,0.97764564523589,0.968045207566858,0.970410545677154,0.969839715273368,0.970366187194883,1.32488615271985,0.963729143665741,0.963797910537558,0.962585350808374,0.961317628587942,0.961356081749392,1.1784699602183,0.969128110870912,0.970264770439458,0.970978108039498,0.970742440619086,0.969493860243805,0.968819317735424,1.07286377376823,1.07394110030445,0.963029497292113,0.960246670570077,0.959699262658214,0.959235300799159,0.957361454635233,0.955800018532814,0.955199151125888,0.954346449724861,0.954590823470226,0.953966094517992,0.954632718853874,0.954388442105937,0.955962100899462,0.955486773891788,0.95801423984215,0.959224841162448,0.959557634497629,0.962392427659114,0.963448752400153,0.964067111888339,0.966734289834251,0.967938073014239,0.970081824691715,0.992807155053044,0.939030056131651,0.939189650738796,0.937563554866469,0.936283065538796,0.935994014244654,0.93628031454389,0.936662598385521,0.936934100317596,0.936761371803182,0.936914745961883,0.937973100205365,0.938128102740066,0.933725764619625,0.932624863153028,0.932331484351547,0.930093103634845,0.928740300661504,0.927649010428664,0.927704441653864,0.927369922358131,0.927352537767419,0.926295197262327,0.926260912730499,0.926270709596007,0.924744780451534,0.925450612949829,0.924235116381755,0.925540959538385
1.03327856832864,1.03296604896127,1.03116880163313,1.03067252514005,1.03049395130304,1.02983621132959,1.03029848187632,1.03035909274412,1.03187966376736,1.0321635472678,1.03263137228591,1.33103067209203,1.03617732227464,1.03751948248443,1.03765974574696,1.03814222264956,1.04370311731933,1.36952317341896,1.28486221905427,1.37308398816216,1.16009765287894,1.42791489803376,1.3008342113763,1.02286042903801,1.13003725963838,1.04170934640038,1.02669927069054,1.32713162692467,1.03309665148889,1.03615169574938,1.0346594451993,1.03319138708097,1.03276169990413,1.0185428269484,1.01289886638027,1.01213291594564,1.01300105066215,1.01590525544342,1.02028425251901,1.0244457473503,1.02585491278162,1.11964605221487,1.24120230853959,0.997541136371795,0.999004911215009,0.999454383360144,0.999257313918424,0.999158002202695,0.998202631020926,0.999287998097413,0.999294079100845,0.9992958648139,0.99823744064463,0.998758249627655,0.998147896419131,0.99910397538268,1.00042222259847,1.00072862605591,1.21144272889369,1.2107850586245,1.01932813504409,1.01948081067675,0.997600402127732,0.99830627566772,0.998600964452602,1.00350502516091,1.01147679985373,1.01251566593246,1.03521200857095,1.23605368993096,1.00621820710603,0.995635855279525,1.04731787270924,0.986701967978066,0.986984103783426,0.989931687443228,0.989755327071165,0.989734899869115,0.991167859389134,0.991734175326412,0.991956301366211,0.991834854982979,0.991239220731618,0.989483589580423,0.989320151676464,0.989444362482576,0.988596269327611,0.984051260277069,0.981763187261915,0.979827890269298,0.979264030059296,0.978222797902143,0.977223609040115,0.975768627159877,0.976058162692417,0.977397419131561,0.977305548500794,0.978964772363649,0.978441649751058,0.977114066939204,0.972762705228806,0.971260026392575,0.970058994165332,0.962656666146166,0.962580893812122,0.964410348483618,0.962424775507716,0.962102450039734,0.970650997697176,0.969991796766058,0.969554417873514,0.970156829216578,0.970968568838868,0.971279104368518,1.18536610275527,0.967240556010126,0.965041622062091,0.965308449812559,0.962591924972876,0.95832287153555,0.95803314612166,0.95810606537105,0.956388159218281,0.95458757582242,0.952643828225254,0.952457301707214,1.15274565740329,0.951187425092606,0.952203601449568,0.954324073001906,0.957441314841857,0.959808420177765,0.960386202867759,0.962995949888817,0.963770625035218,0.964088904636171,0.965197009533393,0.96796968329137,0.96939061411752,0.97139035477967,0.971881599925589,0.973487173988322,0.940142724753134,0.938066176751603,0.932807498994107,0.933541115613925,0.93386796819696,0.934375644639974,0.934595311894525,0.935626020136186,0.935340474401036,0.936782510143762,0.936912390827311,0.937198096904677,0.932460536420633,0.931628940467219,1.24900979423407,0.929096625788306,0.927412914300164,0.927700110492711,0.926944572539832,0.927439684243439,0.927518436735282,0.92829864157109,0.928228764263597,0.927358438896829,0.929172905059463,0.927926373738145,0.925754764335099,0.924502704993788
1.03330021336728,1.03259967363602,1.03119154594405,1.03030794766443,1.02911587633835,1.02951138560016,1.0287141741804,1.02974092291871,1.0302321459613,1.03238528452649,1.0328349616773,1.03455643442835,1.03565409182294,1.03745458916254,1.03832166374796,1.03928474766595,1.03979886378076,1.04070386908276,1.04335426911466,1.04851081769679,1.05012879783974,1.04996454763406,1.05225382372872,1.41043965945234,1.06595389314432,1.06254088274587,1.07360186927037,1.04352140428265,1.04289813068783,1.0395769781517,1.03529853781072,1.2397930151758,1.05879281539755,1.01481721328521,1.01180434271608,1.01165983605034,1.01207433863551,1.01214382157571,1.01527814676258,1.00772406271984,1.0085913078266,1.00710501768919,1.00245495912203,0.999569656968012,0.999652766072461,1.00000867881192,0.999922569547359,0.999105366251428,0.999103929773923,0.99932356326442,0.999567105129054,0.998995476305757,0.998736356929885,0.998150756086031,0.998214796573787,0.998629566375717,0.999683626867254,0.999395418950558,0.99849823292851,0.996598728130662,0.996133409689372,0.995997785205667,0.997215464286508,0.99768790362114,0.996789624977155,0.995586776516939,0.994829315412174,0.995554964825521,0.993965800473709,0.993171540179019,0.992387426142753,0.990897519069099,0.991651098229355,0.989119387777927,0.988671933112259,0.989078444931604,0.988651041178541,0.989212906232137,0.990336070076914,0.991497327186023,0.991692648106695,0.992316090661893,0.992802786904229,0.996602749009166,0.997025035471637,1.00112454818892,1.12042586124702,1.18228444777963,0.981574406316274,0.978595791089014,0.97852637552458,0.977727889720968,0.977713697058084,1.26164645869214,0.979308798026789,0.980686453313804,0.981711063691401,0.980738132113329,0.979413356613193,0.976227229362491,0.97391803614642,0.970598638394364,0.969488580542403,0.963674241324603,0.963870183429977,0.967574753130036,0.972662775625873,0.972110040350265,0.971797197486698,0.969582223849978,0.969247233167587,0.969713888673423,1.12259617320555,1.05420786042881,0.964053817481017,0.963279758856249,0.955860618110898,0.966455600287132,0.966232660868445,0.955598611843358,0.956833274385533,0.956779491404189,0.956522965097789,0.951575432719035,0.950882032913111,0.949844134614024,0.947431988049897,0.948772236237453,0.992471763496972,0.961300637361172,0.960433186491061,0.961812754090751,0.962585117263417,0.962878273866683,0.965210989352148,0.964448100204151,0.965319540978513,0.966591238103015,0.969420660413259,0.969383208640779,0.972009813616074,0.973800100413527,0.932174357767226,0.933606428947569,0.932634992429752,0.932619094146547,0.932336415093439,0.931387934338352,0.93167006370796,0.931996887575391,0.932831236080037,0.932770909037957,0.933499069736715,0.931351877846088,0.928738627664797,0.928890088095663,0.927738656070258,0.927144524316751,0.926859166754542,0.926025994044319,0.925616118434981,0.92560547113996,0.926606855360996,0.926810451323869,0.927291855364537,0.926984849576446,0.928217296444959,0.929481020222122,0.919899275068702,0.921469726578603
1.03329646367728,1.03221021545399,1.03166994103989,1.03057638957157,1.02937621751995,1.0299856568639,1.0290240572606,1.02928999490889,1.03061554148034,1.02991186039128,1.03255909489891,1.03290815474245,1.03475495788476,1.03812114243773,1.04032995103612,1.04064761458602,1.04155004702889,1.04167737288683,1.37540462468346,1.05017983481652,1.05107952990949,1.05250262387491,1.05575169595825,1.05680614875033,1.05654897067105,1.05605844563209,1.05530570872095,1.07135523347905,1.17532257776437,1.04820969295334,1.03281550825226,1.0247035761017,1.0222803842396,1.01475142947073,1.01211726053656,1.01163246666339,1.01065195229412,1.01271800246105,1.01311424068045,1.01144048880259,1.01010179240966,1.01073070821967,1.00783304868247,1.00268709965173,1.00156589979941,1.0015905586284,1.00120835232986,1.00183666033514,1.00091700611688,1.00147470940504,1.00020387628627,1.0000050837556,0.999029392523862,0.99867259377912,0.997855445868217,0.998088343043913,0.997468581747965,0.99777048129955,0.996117847685437,0.995335001095057,0.995342104793138,0.995546628886443,0.996588762569033,0.997686439501589,0.99697501183609,0.996123870388277,0.995200582837896,0.994537956275292,0.993623856227752,0.992439219335859,0.992659236000592,0.991255300769592,0.99207120969617,0.990628688435295,1.09626119740614,1.04388076450386,1.2181180820909,1.43644582095416,1.05088192785442,1.14138675232536,1.00228522181221,1.00001052849783,1.0003019749585,1.00057102402672,1.00263072235268,1.00362378244312,1.0052880353389,1.00519804318602,1.0316724044216,1.03213230435913,1.02969793157381,1.22400892871516,0.987455995327243,0.987951351383019,0.985808772700051,0.983449270791187,1.21689669451831,0.981188758682896,0.978093562235279,0.97593492596575,0.974560676703947,0.974371847169777,0.966924931393698,0.971792079181288,0.972777856753692,0.971334399367174,0.972108738081651,0.973504255379278,0.969760593568936,0.970961769801438,0.966748384110165,0.963828962181396,0.962228682479116,0.961774839044914,0.961433333297044,0.961041898823515,0.958371809036742,0.957531676533067,1.07585460764503,0.956077115958035,0.956074918838452,0.955960279959749,0.954152524903199,0.951631281201966,0.950085673930714,0.949452054090657,0.94757681238107,0.947195336118616,0.946111987875916,0.946408636312708,0.946428692155912,0.946637013065352,0.960921888926604,0.962780304068292,0.937811624858151,0.950560108756198,0.962377176558497,0.96283851568764,0.963173906500117,0.930834790433825,0.931630323802664,0.932482860789931,0.933038396640125,0.932083973405119,0.931967300827903,0.931701433420748,0.930830749315609,0.929368256712245,0.928845223963054,0.929350381785217,0.930493432683625,0.930864752865057,0.930607182942371,0.930692095757197,0.927522052761401,0.928418178138065,0.926785033504588,0.926288868089171,0.92438567599909,0.923381069691288,0.923029324781721,0.922737973079611,0.921574100290264,0.922403022016174,0.923664325867077,0.924260024392712,0.924206981571491,0.920206684765642,0.92165010461675,0.919966858108439
1.03473114180213,1.03394670271606,1.03274529056306,1.03191428392253,1.03082104701807,1.03213774999714,1.03207543479571,1.03131952283455,1.03162821092919,1.03368792057851,1.03423370090319,1.03664046305292,1.0383286746772,1.04014503230903,1.04143323146467,1.04162812073792,1.0420972777913,1.03506221974977,1.03520206784258,1.13317527849539,1.05201308159096,1.05582040823386,1.0570898956965,1.05709282461902,1.05568462457672,1.0558219475931,1.05700156710005,1.21884151938702,1.10869109745099,1.19755180069095,1.03108809492054,1.02314004280417,1.01969167672404,1.0139746736133,1.01095208806139,1.01077815903343,1.01150104510801,1.01121322998238,1.01323912955255,1.01128199087874,1.0110324139187,1.01085831202918,1.00877931569449,1.00371348375497,1.00340010657658,1.00263146835093,1.00263711027674,1.00174350655406,1.0019606777508,1.00079118369756,1.00060232438817,1.00007541194732,0.999607349349169,0.998614112109568,0.997810927046694,0.997586100562293,0.997318274186887,0.995800269587035,0.996921345023758,0.994453139467068,0.995527792478563,0.993863333651182,0.995437082204019,0.996433582998074,0.997736288587218,0.996941517618154,0.993827192177911,0.995477500504845,0.994490562118132,0.993684816758567,0.997770680485177,1.00378308133645,1.00431722300304,1.00378397432688,1.00328413667921,1.00331567748743,1.00336761494246,1.00379180313429,1.00413890170398,1.00336331180158,1.00307627969909,1.00162147997296,1.00180272153444,1.00475798002,1.00666478147631,1.00570948804842,1.00558551071528,1.00611174638135,1.15093236651823,1.02678785529362,1.02723039512569,0.987959762642045,0.987568970859864,0.98691382677095,0.986676831079506,0.983435086689785,0.982615653771087,0.97821600946141,0.977710162740779,0.976203940430702,0.975459467234622,0.973906186171064,0.974257294123233,0.972770907595192,0.973014411174602,0.971494742223643,0.973107578357629,0.973348398554052,0.965306153081267,0.963305616446146,0.964453089269114,0.96264555464087,0.962022653782625,0.960680300611005,0.960354327282042,0.96032030110044,0.959656882273375,0.956700471736155,0.956902319690259,0.956613905752077,0.955821318484411,0.954449156064812,0.952753534118756,0.95022855441093,0.949603518673889,0.949181970532534,0.948964371900152,0.947374767594991,0.947016814703264,0.946290398754364,0.946344737103966,0.945862763053712,0.94547408845052,0.943121795416962,0.938984181046834,0.938416834355955,0.937072024859224,0.935034476802456,0.931621825330215,0.930957301154957,0.931521522283863,0.931625881979549,0.932399299311331,0.93146036510652,0.931635504953196,0.931955383253878,0.928804289685498,0.928906127252384,0.928358135517409,0.928339834812155,0.929437119235733,0.929130521595657,0.929553296415545,0.929821857495157,0.930196674263735,0.929603207082648,0.929433654601768,0.924118919839296,0.922180222075199,0.920867840526921,0.921386071284151,0.920622861764287,0.921326378181128,0.921212510391478,0.922626887652901,0.923241845383364,0.921425014646361,0.921213413995287,0.919321410530912,0.920718338979618
1.03607521216603,1.03626422668096,1.0363976757241,1.03700276486798,1.03738021506066,1.03571779214948,1.03528968832168,1.0376062751109,1.33687767392638,1.33959604437238,1.04895362748595,1.04950800361092,1.3479327980103,1.25863996589257,1.36010909327993,1.1737159031891,1.2716148609152,1.03490269067251,1.07180918487087,1.04807436770603,1.04909273138669,1.04721498756338,1.04799898289213,1.04569097031624,1.04556336973325,1.05467727728084,1.10280969740211,1.27857677040889,1.56129042862616,1.02838369268029,1.03000132384962,1.09202875400328,1.08812943598309,1.0113283514076,1.01038709616471,1.0103394387298,1.01027762287089,1.0119302985967,1.01108619430659,1.01226577224017,1.01095991500832,1.01110956305271,1.00674494774371,1.00478908895629,1.00416371997618,1.00375725483721,1.00300899753485,1.00288474525045,1.00027038656474,1.00172810836072,1.00039815026829,0.999795662202028,0.998957199355097,0.998347115231494,0.997786161873322,0.998109195063743,0.997658892620583,0.997817842927276,0.995885543203699,0.996794223569096,0.996543342507541,0.995159116096385,0.994938070449477,0.998867899066249,0.999025222542155,1.0002646718973,1.00245328740374,1.00014744497593,1.00654446607197,1.00773878122482,1.00690048720889,1.00515658374753,1.00404380265098,1.00376868989741,1.0031899264439,1.00325867938253,1.00311474596432,1.00360379362067,1.00447915133486,1.00529987964915,1.00471088682832,1.00543696222674,1.0058537143571,1.00566696035857,1.11451622411979,1.0629717563293,1.12615699348757,1.01424247178,1.01605607426089,1.02309165025392,1.02630239215009,1.02804144299411,0.987454310357099,0.987370932468622,0.986130654006097,0.981675663315462,0.978598703449923,0.978104828223285,0.976919892301494,0.976488202792162,0.975458950817963,0.97549721463323,0.974245141621124,0.97436519491949,0.973196558096358,0.968878544252878,0.965040568142491,0.964360770453738,0.963348441842361,0.964217475598331,0.963735426049398,0.963560528209012,0.962036065713027,0.961085131482035,0.960784989526148,0.960569070453752,0.960618796713585,1.05401998052375,0.957172616034788,0.956843055594135,0.95562208891562,0.954281887208451,0.950794110261363,0.94962618133163,0.948486347842304,0.94979254006176,0.950070135568597,0.947148402409103,0.946244794643129,0.947122480057962,0.946360152138115,0.947042352123008,0.946035488806599,0.943915872787881,0.941912816415372,0.939128974719357,0.939930197914947,0.927473748355435,0.930618073502753,0.930207516297985,0.947273465380084,0.971667570958322,0.90930690516664,0.942654298661774,0.940354265383692,0.933767735748721,0.920680783867866,0.95326911336018,0.92754776884025,0.929039317238988,0.92945323382689,0.930147245629418,0.929540096529878,0.928894131633386,0.930065276041356,0.929929654884448,0.929212444311155,0.928888328993351,0.920117386362773,0.919481626475647,0.919694371144779,0.92027184429666,0.921009412857223,0.921966549355822,0.922830720938054,0.923047585503759,0.923666906746484,0.918941304503547,0.920401006267493,0.918586634082235
1.03721371045484,1.03713250752444,1.03628819539119,1.03685169611628,1.03747719142686,1.03763449035413,1.03867813954456,1.04057049619378,1.0431921906413,1.04530609035054,1.04778159019249,1.0483202361615,1.05359159694159,1.05466029204446,1.05679179251903,1.05720934942344,1.05833101652398,1.04752323115549,1.04775279043336,1.0491545926488,1.0487720408073,1.04791015053358,1.04811305671725,1.24689572608085,1.04703621599243,1.05123356966694,1.2592882410126,1.14576434061734,1.13779779320265,1.13793925586306,1.02112623862983,1.01340774033934,1.01149406377713,1.0103531748726,1.00913296653832,1.00834039045383,1.00825451930168,1.00935357345787,1.01117771046728,1.01034069559669,1.01074124438067,1.01001682004642,1.00774762076912,1.00606944632132,1.00519733713965,1.00437869686237,1.00445267025288,1.00200676011471,1.00236394560434,0.998893364344459,1.00044703377995,1.00062393213066,1.00027889443597,0.999177211472581,0.998724764097237,0.998277607504691,0.998519296480616,0.998016715611916,1.00192256316378,1.00162773981449,1.00118189418815,1.00304861978895,1.00488572972318,1.00586699172805,1.00491493486421,1.00315396544656,1.00309662887519,1.00319566783643,1.00584325583425,1.00713428368816,1.00747789045092,1.11004406635361,1.00484460172667,1.00425948227948,1.00376049812386,1.024798934614,1.14582132892744,1.24047887131367,1.08737323243488,1.26333761568546,1.04371392036682,1.00599842871536,1.00442733583293,1.11259958504362,1.25643207298639,1.03203079120194,0.983780526113797,0.982884650230443,0.982140596721786,0.978931713080416,0.977166845782484,0.976482115263229,1.20618606442002,0.979759670129813,0.978879742551312,0.978817544491652,0.978175266711609,0.976851980243527,0.977384933574603,0.97649158505277,0.975310302366199,0.975807575514361,0.975690530534841,0.965995906150752,0.965565727209155,0.966032853516102,0.965548980313682,0.964258830511389,0.96663358271757,0.964544193046945,0.964554598127681,0.964533773383139,0.967321597826701,0.973595249657744,0.974244188623948,0.99276022368096,1.40805325590413,1.00336106176022,0.95785361542373,0.956631620867231,0.956105191879531,0.955229685910921,0.953936775868699,0.950970043160511,0.950984848369101,0.950360353054329,0.950726156560336,0.942786371097996,0.945894013461071,0.947079911684549,0.946447832595982,0.946951080153937,0.947505354461124,1.06259785407601,0.940317460890473,0.935990557942974,0.929751578163653,0.930144866040257,0.940302120766016,0.972733038149201,0.962110053248918,0.971480454138098,0.923311934602199,0.942347891120652,0.936672289559882,0.934548479393222,0.934458060604336,0.930663738150528,0.927780608771418,0.924748300528409,0.972400964344588,1.06108364653551,0.918383435059997,0.911713582134345,0.91330331839534,0.922056009592027,0.929110699222666,0.929003631998554,0.940936331395303,0.920027727400083,0.918858089087324,0.920784543371338,0.923631850224013,0.924592999462902,0.92559848964555,0.92368548250949,0.92199026747395,0.920521874486654,0.917526454456424,0.918709897782981
1.03749174130781,1.03753648692043,1.03687484320352,1.0370909287501,1.03749597324096,1.03876241937027,1.03948972873209,1.04196878013747,1.04560105986125,1.04720755638159,1.04842093954678,1.05015290896669,1.05380089429753,1.05586714014655,1.05753775949925,1.05690284422301,1.05840500727677,1.28786871185383,1.04835061897337,1.53475813090899,1.19473660315851,1.23587447488389,1.25808767583845,1.26894472510507,1.01615482580888,1.01583726897837,1.01705796787316,1.01892262874952,1.01650356344436,1.01523386907611,1.01353959956736,1.01182185793202,1.00464646790474,1.0037194039373,1.00479910659521,1.00715332894802,1.00672062301418,1.01177779645243,1.01116352686692,1.01177025199158,1.01076554151329,1.01078487810667,1.00846903772545,1.00713365102146,1.00591020098023,1.00477491970394,1.00382440002144,1.00349233566829,1.00214093364853,1.00194809055539,1.00094910570947,1.00098960392513,1.0009873844815,0.999837402378636,0.998393009355687,0.998686833341899,0.998544955190047,1.00073698860913,1.00048264267423,1.00155087974895,1.00103794180042,1.0020222584851,1.0029400789474,1.00570011248017,1.00479604932989,1.0036540310004,1.00279932078406,0.999772235929196,0.998802877806967,0.997940140704668,0.995742492587844,0.995061410068255,0.993385302651629,0.99226806084628,1.074042085718,1.04749588314114,1.07737953778643,1.08260693100085,1.21225701695486,1.21048131833682,1.06053770764592,1.08983765668964,1.10461078451574,0.991457373560982,0.979602902511762,0.979372062860503,0.979838483101765,0.97972599939069,0.979016789042915,0.977091232669984,0.976242656871002,0.974891136087516,0.973741567216284,0.973102551142742,0.976203096877332,0.976872694791904,0.976241418433328,0.976845015796876,0.975887157777444,0.977556800039604,0.973034252272983,0.964845066438294,0.965156773140148,0.965481487791168,0.964636158241845,0.965286057472285,0.963981867671915,0.96658951070782,0.965754617717349,0.966768198221238,0.971458495429419,0.979788749963062,0.979702228709104,1.13855877016783,1.02673802146161,1.00308860855632,1.25227935493072,0.983337156856242,0.967153308632777,0.955035708727296,0.957066322177243,1.00471356778356,0.954185392095249,0.954683841338794,0.950590719660517,0.950622671468091,0.95086707907384,0.943309535735446,0.939884553804509,0.937078689398888,0.954021676044245,0.977985960448085,0.927834521072934,0.927702563929896,0.926955789557304,0.932429968286973,0.987322851987742,0.929329208364438,0.914380069922116,0.914402554574096,0.917630473248508,0.902447339661767,0.900690121588851,0.897599881303192,0.934240259041269,0.927314152439134,0.903343356037061,0.907712480211225,0.895168748862208,1.06140466184104,1.00149842135881,1.06130286995846,0.931752041029132,0.910161360010945,0.913445359413006,0.915596694891302,0.989408583696787,0.918549503600194,0.987664390035269,0.997456982761798,0.914534128333164,0.91179037961429,0.992894198895051,0.924427548666472,0.924424499535596,0.923019176295319,0.921452076533875,0.919881981282684,0.915749732385806,0.914471159560024
1.03787689206656,1.03747363474032,1.03720931411135,1.03788412315355,1.03897246644661,1.0399582254042,1.2787834668494,1.0435698018854,1.04655547603357,1.23797032900118,1.05688078823836,1.05602053750194,1.05756704898342,1.05692086645217,1.07816948797768,1.07004859377259,1.07755960665927,1.01236034616195,1.12608182032805,1.13883123104424,1.16692773345622,1.23287876666696,1.02036882665437,1.01866829666253,1.00995767262963,1.01130339038091,1.01096826159354,1.01206164312935,1.00959958946455,1.00917805368373,1.01210509944108,1.13849300314236,1.00282686890034,1.00252527792829,1.00723588958892,1.00717143322312,1.00846295577898,1.00911445249199,1.01141380778897,1.011305823204,1.01026367095561,1.01052337032684,1.00820769376232,1.00727760194528,1.00549978707,1.00450728513726,1.00398178131866,1.00355142109863,1.00346608013432,1.00165463082661,1.00106515791201,1.00062524364749,1.00019977725395,0.999354186401215,0.998694932885479,0.998778552755054,0.999060724720682,0.999242294771069,1.00046013975097,1.00015713537418,1.00097446981077,1.00116730962862,1.00209852517514,1.00262998421817,1.00451730971232,1.00386107279595,1.00398650424328,1.00148439461521,0.997618235163716,0.997116979587976,0.995012314096828,0.993931146372445,0.992348801521613,0.991489488516277,0.989211829594362,0.987777904371729,0.986820146236327,0.985580720362155,1.20820284452521,0.985190817525743,1.03191058175742,1.06033362260958,0.987552805142745,1.11359548581809,0.979889367956415,0.979276780982642,0.978095809200855,0.977565391956332,0.97693626112727,0.976389398410704,0.975661502979942,0.974222737153357,0.973953050581619,0.975270904762845,0.976414620422874,0.975884333119845,0.974869567584166,0.973222784308008,0.971303001455369,0.968849232695546,0.969289436896707,0.966750601699902,0.966301186889263,0.964215041360114,0.964741917786452,0.965006033891369,0.966073158083844,0.966019962550207,0.974490684026235,1.07791220611883,0.988904046171622,0.979663595293937,0.979851579811377,1.01042682452514,0.992919509623927,0.985569996049032,0.98036335557362,1.0120164871908,0.966412519557792,0.975941126389509,0.960750458090414,0.963154980650345,0.967077973325736,0.936226592564823,0.948216755810876,0.94937591991969,0.932506517721561,0.968044706249078,0.952269166230442,0.976397560601106,0.958854131373112,0.934338646448897,0.927534245821511,0.995834983156297,0.927000035240489,0.929543746078786,0.923673659698816,0.914367483452568,0.914228197509972,0.923007436498523,0.921015156612819,0.921860341118481,0.939967707514963,0.924960949318461,0.906260343688632,0.917430180431794,0.902207182004273,0.902425755699925,0.895365855748061,0.897309436706264,0.898795194651305,0.899765033718128,0.90199134151932,0.903381223081314,0.910557108295041,0.910636254905617,0.911143487988802,0.975833088193459,0.957755119201296,0.9012902560886,0.910951732706367,0.924956720340274,1.04166515055686,0.92362434923376,0.922740950355402,0.922624504448542,0.920941414216724,0.918249917368475,0.911611490635621,0.912329581683917
1.03814265217238,1.03804458299895,1.03812701763149,1.03893539341641,1.03996849534671,1.04209894775924,1.0443747947279,1.04560332350901,1.04854090744155,1.05364619173498,1.05639112994179,1.05744455502788,1.05862882408269,1.06392069255501,1.06872748029292,1.05216469342816,1.04484028272326,1.03469153868879,1.07566912782176,1.10551733420739,1.14054104702267,1.14069176380688,1.10344471982932,1.0152262976602,1.01052483289864,1.01083792935596,1.01073208247326,1.01095495613921,1.00957198579046,1.0085064278981,1.0072250803243,1.0056644875871,1.00450745423294,1.00436772172449,1.00580528380215,1.00684967051071,1.00747317350695,1.00824723721758,1.00869469849543,1.00865813431521,1.0081383377102,1.00775112137891,1.00608572338998,1.00535075600288,1.00445929777544,1.00386788850455,1.00378557084248,1.00363031988382,1.00209504270052,1.00107507969108,1.00067487558918,1.00028535331294,0.999895455251143,0.999440311590608,0.999179734826096,0.99917384448793,0.999277944278699,0.99979573598269,1.00010645574211,1.00046411145993,1.00067099425397,1.00125606745123,1.00182288698086,1.00294828786398,1.00344843021529,1.00327002547083,1.00294889797212,0.999343944072458,0.996977256274566,0.995358331535337,0.994056847648899,0.992860854212144,0.991469598807973,0.990048298311266,0.988409993969233,0.987081280594449,0.986121507544428,0.984380387588748,0.982857039174917,0.982127936320784,0.979692130637951,0.979989737036679,0.983280610701417,0.983497146415046,0.981113626713569,0.979104355515383,0.978808900165858,0.977889414988256,0.977522094389117,0.976735932203342,0.975962054205332,0.974914281536027,0.974765599745807,0.975542718109695,0.976068225607533,0.975371890020198,0.974262412290866,0.972765522785972,0.9706159163087,0.968979775168756,0.967874419203836,0.966508214807291,0.964860503923498,0.964434979456033,0.964458608124946,0.9652464859978,0.965902167996381,0.966861483452669,0.978721223042241,1.03152838950902,0.994155394544749,0.98727487353483,0.994453879588415,1.00374251608785,0.98546755290955,0.980569183033168,0.974263294536182,0.968304351915741,0.965211403995651,0.964268163037558,0.961432739377264,0.961452091729213,0.962776544727919,0.963032832980516,0.962673841641635,0.96114753576807,0.957262928599244,0.952780313526249,0.952364305452577,0.966602097161941,0.966205414937642,0.964918948627514,0.962778584472864,0.960428871275646,0.952125918829742,0.950816676783817,0.948712209814403,0.945539806949296,0.944869476357352,0.943386001532894,0.941590631728734,0.939521855684599,0.937867848206702,0.930340866121766,0.924549124877251,0.920105428787045,0.915154772865517,0.910310642400727,0.905747938815478,0.898266272823945,0.89910850960221,0.900134113401896,0.902427547182936,0.906156035175341,0.90964030698509,0.910374009221897,0.909940196192994,0.907443995073333,0.906685416726806,0.904890829837489,0.907106561608318,0.911334634924094,0.911667223492991,0.924683472272428,0.923745811735076,0.923248392401875,0.922666474748063,0.915924631547671,0.912333660226952,0.912110102831584
1.03846183964807,1.03812387252019,1.03814175439507,1.03928867530305,1.04019372486249,1.04398076043825,1.0446693179564,1.22689635400176,1.23886920533771,1.05572543955681,1.05674564103978,1.05734799784939,1.05805198895475,1.2917661911045,1.29292494348355,1.04265710972063,1.01657263822328,1.0152236054787,1.01493179455387,1.01625051243845,1.14109321223409,1.14172687289345,1.1444699441898,1.01294871801621,1.0096880771604,1.0098590455376,1.00997367866747,1.01123689717626,1.00972523032337,0.995045094723406,0.995812703674929,0.995517481358659,0.994245734116093,1.00396513395125,1.00543137504791,1.00646398667933,1.00662272942444,1.00695754794338,1.00707201089911,1.00608932652293,1.00609304238419,1.00640133649321,1.00238254923154,1.00425194056857,1.00256127466937,1.00267809335087,1.0035693863371,1.00490858428348,1.00017999001282,0.999768202813245,1.00040339860749,0.999906939940864,0.999711603271194,0.999282877636964,0.999619720487542,0.999518371588968,0.999514857656798,1.00008971365177,1.00030788402741,1.00043488948396,1.00015848952526,1.00110259122397,1.00161697783744,1.00298740949579,1.00335245783397,1.00262277821182,1.00474909525145,0.996748039277537,0.994607312557472,0.993940154137645,0.992706265963071,0.99226187207971,0.989933107602112,0.989129390465338,0.986861836222859,0.986014190477001,0.985757576001889,0.983698991047195,0.982980492873197,0.97760381956902,0.977462156954393,0.97762990750135,1.10575041902999,0.986388286621638,1.13570260214162,0.978368385704393,0.978333495350551,0.978587597607091,0.977517578038876,0.9774986344568,0.976053216016464,0.975064098381361,0.973949442937431,0.976548509970079,0.976483328926742,0.975227021611624,0.974112034884289,0.97255274828853,0.970130777399727,0.968532065280258,0.967076327712033,0.96597037810718,0.963438672366407,0.963249412135518,0.964243975253245,0.965057800478376,0.965779509137831,0.967856913736694,0.994219307403393,1.31723838701809,1.00482022504072,0.979780155887486,1.01532990735023,1.00997567899452,0.965920027451518,0.967462499992559,0.957128420424871,0.955736933241825,0.955480950702627,0.951517020969458,0.9588004068508,0.95515586998639,0.94385784591735,0.962127800119368,0.961871026826524,0.963543287245885,0.975667297458005,0.95101089215132,0.952464580468962,0.967970691448424,0.966511913629829,0.965240705836095,0.969539088285551,0.958218451598234,0.951788052559982,0.950634181601104,0.948767414023273,0.94373860664721,0.946123521481805,0.960813964371314,0.956631229462159,0.948587000304932,0.938533940220666,0.941196943443928,0.940757507716703,0.949577887102679,0.96098533116917,0.947646425834996,0.948344514574452,0.897351006219205,0.898654802575758,0.898999603671744,0.902543248890426,0.908021364175409,0.910975370284517,0.91097691651611,0.910349288373259,0.905005617054395,0.892258840590962,0.900526954579864,0.900534742454687,0.901399604657411,0.902872078998541,1.10989376471699,1.07872014789418,1.00613214945231,1.12602545389492,0.91590858514222,0.911149127276747,0.91119789553102
1.03930670212129,1.03957728148573,1.20363994094929,1.04158119212121,1.04413207535712,1.04639645379995,1.23586578413976,1.05154115870635,1.05365196702632,1.23904138603433,1.18739374778438,1.27594607074924,1.31077444638375,1.12970840726201,1.01953134185033,1.01816153101291,1.01791299365247,1.01442221187121,1.01328598437727,1.17582099372868,1.15651462453005,1.36605631157135,1.23205816809228,1.24609977810582,1.00976749267959,1.0090689306372,1.00966142065639,1.2864688137094,0.996899385958753,0.996328462310173,0.997379214472621,0.996465359589839,0.995539109373443,1.00143048299187,1.12023795545582,1.00666232911868,1.00582852641976,1.0053407008409,1.00338097616585,0.998038916940533,0.999573497092819,0.99818315188278,1.00249435370426,1.00202673231758,1.00272962002094,1.00040092922521,0.995743238701812,0.996345930187399,0.999091534213062,0.999690454067666,1.0012227858779,1.00037839134252,1.00028286729272,1.23517053271233,0.999322786049128,0.999812605212214,1.00026760302074,1.0005314319843,0.999462462534026,0.998462867783922,0.998479610138986,0.998503489203438,0.997904113869111,0.997207484613519,0.999630572341337,0.998957443601233,0.996349398761772,0.994973153460015,0.993705663687197,0.991517096263971,0.991003741618543,0.990147183715482,0.989278965253697,0.98660402427633,0.985973557075309,0.983634833195871,0.981513622543085,0.980791552233239,0.976895385084751,0.976442368493568,0.976524239446668,0.97650479983132,0.977256276033429,0.97659024957821,0.975012470924575,0.974984222875474,0.974778483603111,0.974733723433987,0.977277666490115,0.976702511311835,0.976440817719368,0.976068886433252,0.9763512665711,0.975763526617365,0.976468110737481,0.974813765548368,1.04544207009792,0.970248907528144,0.966089035225166,0.965176549932134,0.965691608448608,0.964439061577395,0.961950206930374,0.961837545659791,1.01225550154494,0.992544225473728,1.01657402112728,1.01891658336123,0.988867682458118,1.02805332802492,1.02141538545893,1.02123504533059,1.01525891054473,0.970312123111323,0.968846700431483,0.968363228840492,0.954470986362228,0.972821570634108,0.95719741080407,0.950911797404291,0.962434701035103,0.967486705151174,0.971057786385448,0.962822381605389,0.964218643228649,0.963984126679254,0.940409930740131,0.989706701863055,1.01122415094956,0.972884693108575,0.984527816270712,0.999511648733904,0.972522054071063,0.973304823662168,0.984331373590242,0.98392156571529,0.983539781414804,0.946493649179251,0.943786549898999,0.961115355096912,0.983295029568705,1.01584851524668,0.999288921175844,0.977482954896488,0.967246369926919,0.964998923822572,0.963073774905958,0.948044746501369,0.919934923503481,1.00514194899586,0.985716093082951,0.983064043217697,1.01825278454599,0.910256925410945,0.912346125670397,0.923461584461579,0.937229563566651,0.903875124489077,0.891342905757349,0.900246150359672,0.900728007661776,0.901603721938686,0.905610441015739,0.906771705310841,0.893442552245865,0.947551512180607,0.948598992319481,1.11032592504032,0.911868866755658,0.911940866206622
1.04065365080273,1.04211655214457,1.04415789682583,1.04433056359678,1.04521620283777,1.05099539589951,1.05368929466968,1.24868095902927,1.08708198891345,1.28438306530142,1.15349975504734,1.09772684150452,1.17277641468586,1.02089024445362,1.01916818244179,1.01718485023074,1.01569521226655,1.01298837220933,1.01188328965102,1.00752333945736,1.00550844142343,1.00159078622807,1.00124213211184,1.01229836923193,1.00260437554453,1.00334479236948,1.00223823254569,0.997473820342829,0.996613633892499,0.997584763388005,1.00117343112991,1.00469492978163,1.0062393507759,1.00609303369336,1.65260324785887,1.006645119856,1.00513337236978,1.00239491257006,1.00161957235617,1.00028670792713,1.00062957152083,1.00150705295055,1.00081050094005,1.00262900489712,1.00137931668491,0.99980529753557,0.995964233483425,0.99773016834069,0.998336033582635,0.99935457010345,1.00523847063946,1.01037938508088,1.01150309484295,1.01137191506455,1.51532867209911,1.01779336553602,1.01618273687903,0.991270463924812,0.99396039044396,0.995916606210938,0.99661023971759,0.996972705876436,0.996790671307467,0.998355985456413,0.998462181035898,0.997349951830459,0.997250333293439,0.993224185021937,0.992036638689996,0.990418917863911,0.98864762673643,0.987994175734573,0.985682118144982,0.985083771460289,0.981218950045132,0.981094414212103,0.979745852281137,0.978146905858943,0.977168195137085,0.975889231306955,0.975962531708511,0.975449456940604,0.974826651625966,0.975580832501091,0.974180381356958,0.97473586392709,0.973264284453249,0.976082095295901,0.974833681098478,0.976865193039951,0.975475156045313,0.976116081843579,0.975372937882741,0.975883850352981,0.975111245587613,0.973323989626708,0.970489158415318,0.969423763335501,0.967334111964873,0.965296808784825,0.97835101442157,1.0071585734861,0.958896743503198,0.985631579982094,1.01528709540051,0.979660531336479,0.947496472754824,0.947491207957873,0.956898154743451,0.999957987399268,1.02180691652905,1.02158756516896,1.01979037361423,1.05835229485983,0.989512690616232,0.990276438929335,0.991097656432016,0.986126037025286,0.959989397454757,1.00911228598694,1.00867480791628,1.0089192672934,0.991562317681415,1.01628010566407,0.98421163099436,0.981800563249647,0.979365493070701,0.980514207070365,1.01029086788815,1.00277303398234,0.991099386834713,0.978349748246444,0.998507985489168,1.00386131039554,1.03381605595736,1.02005419077675,1.00598055005759,0.981634400157542,0.985757966754495,1.0179738202781,1.0110918078049,0.998689725895083,1.01200842500089,1.02056762772119,1.02168879337879,1.00978927189442,0.99589315997725,0.959841544740633,1.00117027776854,0.996097122060996,0.990276273279887,0.98379739013301,0.983659023835357,0.982518728621546,0.915660538893621,0.934437151224397,0.952555694390406,0.953243406885317,0.914521549923647,0.899933122803946,0.905437391127192,1.14163102985392,0.923663646730141,1.00519263479479,0.895834574018725,0.945334055334618,0.939436585327227,0.905625649261322,0.911832364077437,0.912019322226272
1.04086093797137,1.04182956464002,1.04392164895293,1.2438423559756,1.27010224822638,1.16674491673708,1.27108872462964,1.44719837522263,1.45795669096419,1.02886322907669,1.02938462076069,1.02929781625676,1.03161928583286,1.01912826273621,1.01777471524665,1.01601860988565,1.01448369837311,1.01303885788934,1.00972119861221,1.00558438895132,1.00435546008026,1.00273600197596,1.00204290552875,1.00266170848428,1.0018492633993,1.00303670381918,1.00271685112958,1.00316929175946,1.00744547476327,1.00628192779428,1.00456491318225,1.00551029372009,1.00564252227596,1.00604898889981,0.995013928082239,0.996066287502092,0.997211289490553,0.999260164175547,0.999531848192667,1.00063347491062,1.00115298057707,1.00119555280605,1.00242586124439,1.00175454742978,1.00185907960574,1.00127451545505,1.00187482450825,1.002488988854,1.00032245212571,1.21036696827418,1.0129640194697,1.01192589118515,1.01253221894022,1.0123718737307,1.01273877891281,1.0168618111492,0.99022892636788,0.991797113537844,0.993501628965591,0.994730798125346,0.995424880841342,0.995131322556252,0.996763907377939,0.995935940281982,0.998632255143532,0.99501628229437,0.992975763938307,0.989931762964345,0.987563138411391,0.98637998384336,0.986693517624768,0.985372046045211,0.984566207068882,0.981556366229141,0.980556638617882,0.979893921578122,0.97856587339479,0.978464533530671,0.976763581700159,0.976516636144945,0.976598085896631,0.975426994691431,0.976625868591244,0.974822911098732,0.975805047276787,0.974040160644331,0.973530482851296,0.972990854580506,0.975387109028118,0.97321237695513,0.974264288419952,0.973498085416723,0.973784707877799,0.972307881067605,0.97276424110839,0.972396564286127,0.970873161292879,0.968466154168288,0.96575586885177,1.00800181793639,0.986919192755527,0.997781790907896,0.994728722301343,1.01691931912857,0.950464790664042,0.963126391307614,0.947019898527341,0.984031016676688,0.965917462866597,0.987916003097569,1.03285826391755,1.04467191980945,1.0396304257668,1.04132573121903,1.04471980709756,1.02693501784281,1.01292302389928,0.996558845853627,1.02051369637025,1.00740758080455,1.00818253638967,1.00839491087284,1.03781902654449,1.0212694184638,1.04100286634941,1.03557158973137,1.02932239529408,1.06382681971728,1.06513553787769,1.03148855342835,1.02506986662527,1.01896743959182,1.04192579241863,1.04231246415294,1.03267623563176,1.03653055782051,1.04063356233168,1.01923711632646,1.0128495171661,1.03509777667862,1.01627564638479,0.998628724622689,1.01823425863663,1.04744119367794,1.02563715706859,1.01702320383616,1.00949127624779,1.00893227488947,0.995317890532228,0.996403211551219,0.999143574825956,1.001218527429,1.00438699782596,0.990282066467981,0.946199151453081,0.948091443831985,0.950344117000647,0.936265557357506,0.920346217793916,0.918264360591114,0.918452769144655,0.918446489278716,0.920313504370027,1.06799546463165,0.911373022510975,0.948287542513119,0.94970027834454,0.91450688243306,1.08749537133955,0.987407324216565
1.03891337380587,1.03643549833793,1.03341187352928,1.03171715709188,1.02918592953211,1.02802988705391,1.02747051985009,1.02703533187095,1.02492786878101,1.0237308402041,1.02171772969505,1.02146694701666,1.01980617962535,1.01849744466476,1.01550094845495,1.01429008262178,1.01230073116536,1.00979409904417,1.0084813105752,1.0055136999094,1.00504964058809,1.00463176292385,1.00401861272623,1.00402747111318,1.0039264259096,1.00397675996748,1.00417228092534,1.00598841726157,1.00591376858855,1.00600767106243,1.00541709934019,1.00561455839798,1.00600013463485,0.996263520152124,0.995711626650423,0.996615940272017,0.996912020878425,0.998190095355594,0.9994672214769,1.00063823800258,1.00115143693092,1.00213474559522,1.00004864032985,1.00195280597716,1.00128897607522,1.00194629459695,1.00259654349644,1.00385492938586,1.00410205321368,1.0102110629663,1.01266760060992,1.01209857123784,1.01197323777466,1.01263261954422,1.04865311749164,1.05123184056369,1.05405729449661,0.992975713597824,0.993604110266701,0.994744529213038,0.994575963012427,0.99474847848386,0.99212626993951,0.99164568470791,0.990712349035296,0.991401706921112,0.990396207402045,0.989453679146312,0.986270628764652,0.986311962598793,0.984550171132743,0.983608681482921,0.981605661146513,0.981467700286004,0.979334435192447,0.97933745027086,0.979236848735092,0.97760252185116,0.97738400660931,0.976304732338724,0.977535544389084,0.977047981411761,0.975779689701722,0.977438906617811,0.974545793909088,0.974278869638549,0.972231465225308,0.974165909158487,0.971875133755498,0.973655994314243,0.972821842929598,0.973156529699842,0.972026271587631,0.971060329029947,0.970686804990211,0.983068598765869,1.02270018307327,1.09604508490927,1.01615623467289,1.00470614315547,0.980405549185522,0.948668135895419,0.95230587656456,0.952660523837896,0.950598186653355,0.971070558080147,0.982904835544466,1.02349701476426,1.03232121237424,1.03079960342942,1.03661756733248,1.04492387758748,1.05907580365358,1.08816249011154,1.04817293704481,1.04822101128681,1.04813331644759,1.08699005147654,1.05626397358383,1.02763700299129,1.02556773834369,1.02363827295727,1.04975837149655,1.04060928922328,1.04145320600133,1.06350576947535,1.09708669380804,1.05950622138658,1.0777351475633,1.08999112304508,1.0871447906795,1.08393328069197,1.07189005816654,1.04894628902223,1.06808727449607,1.05474332178311,1.03935570661889,1.05189316555905,1.05334253978694,1.03656215163864,1.04863796284191,1.05814694092944,1.07640098736321,1.03652941114487,1.08064735100163,1.08107314403462,1.08152675286911,1.04580901949831,1.02962847772269,1.02799387473281,1.017125041088,1.00662345280598,1.00453940364225,1.02450289994975,0.974345774166267,0.975185277778474,0.976196097346763,1.03297454036625,0.963417780144914,0.917599978905772,0.91849641001727,0.918788931113742,0.919112425020326,1.06174369447516,1.0600508808184,0.987182804893085,0.913274431537252,0.914138932473281,1.17807535802169,1.06441898531784
1.03697012224288,1.03448653767121,1.03208345975903,1.0296320337124,1.02850342386377,1.0273633391368,1.02687091455642,1.02510913957323,1.02421116197338,1.0218534493133,1.02105178581686,1.02038194840709,1.01870729932122,1.01707698062982,1.01408701597826,1.01361821562674,1.01191725700488,1.01147698688993,1.00755262040207,1.00606032735634,1.00512579125657,1.00410070935186,1.00355374296264,1.00354303057926,1.00414522974687,1.00444838330729,1.00529523955731,1.00572343229763,1.00690393268843,1.00585921376703,1.00549799643166,1.00408396288731,1.00284351038337,0.998890511695752,0.997442229944909,0.998248585912893,0.998355368242145,0.999339009612415,0.99937458706537,1.00105583884581,1.00160612572436,1.00154777519355,1.00237900783846,1.00080217883224,1.00247055350265,1.00185809875632,1.00337674124511,1.00466130315861,1.00499249757787,1.01714625379997,1.01631826517991,1.01745538650438,1.01350596222321,1.01348980397848,1.77932691344286,1.17003998637682,1.13665152580705,0.99422601019894,0.994432455396168,0.994340039317475,0.99390300241639,0.993366997845227,0.992669710487592,0.991104507038342,0.989371564046699,0.989276356707983,0.98897679815599,0.986526729520825,0.985750613580464,0.983568140298615,0.983212250837818,0.98138344276825,0.981549506185797,0.979209536594121,0.979039129096019,0.978585416603729,0.9778684358838,0.978608159972363,0.979531033692186,0.985842281368641,0.983165095602833,0.982465940203719,0.980288019631885,0.97780797480984,0.975851846674808,0.973539102528032,0.973592916681463,0.97088838501206,0.972730732801528,0.97144964944277,0.97231267184151,0.972200762579152,0.971158758322152,0.970355750847376,1.0113358344239,0.997071286582119,1.01246149542398,0.954244116858949,0.953696364951857,0.954262490381586,0.971270403491617,0.964347764979875,0.979727714464634,0.990433565730532,0.991595181940696,1.00278470315947,1.01268576298262,1.03423070496357,1.03229958662278,1.07952235767457,1.08171936010472,1.08392686808108,1.13508251289491,1.18900209484078,1.14443244099263,1.14480157259421,1.14512393146686,1.05441315782453,1.05096662947598,1.07593222818488,1.06475958042955,1.05452641477888,1.08438508812424,1.08296376497134,1.07430585715424,1.07078462266175,1.06758248598983,1.12719903974813,1.14730659216893,1.08784578539843,1.08767501893986,1.08810181343462,1.08805309507705,1.0540601250049,1.07936436265391,1.06243349222496,1.05484251930851,1.05529055171125,1.09786886962036,1.07364807843049,1.08611417958165,1.09592185319105,1.09619914180334,1.09585258197994,1.16388848080142,1.12525333993674,1.0987232688029,1.08523998876509,1.06419504249438,1.01947218580821,1.02841772761407,1.03561774675966,1.01219317143364,1.02003320559951,0.996519911299302,0.988412652768852,0.984485432895984,0.969353273314298,0.968612921272145,0.975438721438099,0.973127256299414,0.970715460811361,0.950299395454974,0.956229214312325,1.05853733171632,1.05233108135413,1.07668181140392,1.01152502010667,1.17781228991401,1.06155655362246
1.03564645355258,1.03445917698407,1.02602304765833,1.02718740602498,1.0273291615455,1.02644815167924,1.02569499480158,1.02401465774091,1.02253389622652,1.02159247766941,1.01991960259366,1.01810554267095,1.01703360716461,1.01609826529052,1.01420506323013,1.01386385133244,1.01308493828915,1.01112531497208,1.00911107121593,1.00614374771187,1.0058330214147,1.00465147896248,1.00398704359487,1.00416869763863,1.00473000191994,1.00485985420694,1.00490762360163,1.00565058915779,1.00585227944963,1.00666466512645,1.00647143165509,1.0060949246443,1.00422609847595,1.00234648927154,1.00218265040061,1.00167378780339,1.00178702144079,1.00156885661304,1.0016589788838,1.00151674709207,1.00183462492716,1.00206979925973,0.999512279879439,1.00088991836904,0.999936980540132,1.00071545928917,1.00014510002464,1.00037780774712,1.00097864294548,1.20712648541143,1.10990867414538,1.1590405271075,1.06492788567627,1.27500812622262,1.27486406511603,1.2037902726166,1.70501955386983,1.27622525499115,1.28907400180486,0.993766098604428,0.992981700067522,0.994548423136019,1.03501413732234,1.03712187024324,1.03597621697372,0.987903453423887,0.985698575872028,0.986147259409703,0.983715526381085,0.983769143667502,0.981864638574084,0.981713911787632,0.979039633800208,0.979694709047047,0.977979724033019,0.978273362634413,0.978451147694617,0.978688342922701,0.982624132586446,0.985091499223801,0.983309097374279,0.985156076726848,0.976871851431908,0.97635823152239,0.97352494824754,0.972956863136991,0.97198447774957,0.972483002824653,0.969254355038795,0.97060477154638,0.9707991496775,0.972306587290302,0.971492647962613,0.970900868211832,0.962781690857724,0.964631648878858,0.95913263517645,0.956758321639987,0.974986987931844,0.97568959757063,0.977985770119035,0.97930883949824,0.996820859908667,1.01501741706828,0.999385971656863,1.01462137978675,1.03338866572828,1.0639985785902,1.08459191246571,1.09294498369704,1.13104123021204,1.16288317686676,1.21419084491947,1.24528924632274,1.27562748869361,1.25682735100101,1.24002115366916,1.23988332536271,1.1527362807832,1.12917023466972,1.12175843822952,1.11665031576376,1.11028631814172,1.09413231133273,1.09644353908113,1.11553788557006,1.12905607510732,1.14466580432867,1.17970105877976,1.1526986619204,1.1327919606228,1.11141986783003,1.10526259645488,1.10367397933885,1.10342681696967,1.11917058702355,1.12964508911383,1.13776024732786,1.11523742477203,1.11522067217253,1.11249809680941,1.10973212420323,1.10957053688884,1.1337577965903,1.18798261434578,1.17842679132161,1.16638563365484,1.11745749180681,1.10671999828168,1.05894508602009,1.05376054569592,1.04794615596377,1.04849979129295,1.02752757850999,1.02673766241049,1.02058405121379,1.01345724094737,0.992357679702883,1.08820001805655,1.00068625018506,1.00147017283179,1.00232031509464,1.00297122254671,0.976386351022629,1.06099442712972,1.04834601799712,1.04511883329967,1.05821954033975,0.982908088364758,0.984019547511049
1.033870481781,1.03150293491546,1.02918859035755,1.02733216334447,1.02592761273769,1.02496089607101,1.02429165075604,1.02235953670783,1.02116413774276,1.02056516495265,1.01940741169309,1.0181459180976,1.01809212673394,1.01675661770134,1.01610877367764,1.01463400984918,1.01391323562608,1.01261803639772,1.00871616219972,1.00746538233187,1.00681564215675,1.00646978197573,1.00470422019873,1.00439024023646,1.00486084784416,1.00492511062658,1.00528182324221,1.00570350953593,1.00695769277946,1.00838080255712,1.00771020024125,1.0073074356016,1.00599900424444,1.00376828130232,1.00380897239577,1.00366411544231,1.00329372495953,1.00345129923837,1.00382838263575,1.00312695997072,1.00289284699281,1.00213978956575,1.00175397604391,0.999922185427557,1.00064577313354,0.999919479426417,0.999580838036809,0.999447021860889,0.999388179561654,1.18752612724996,1.09043864359197,1.05796595069404,1.46349485952692,1.74664070106395,1.01999961092347,1.13193668381518,1.74333357351242,1.10428475357251,1.7479184604441,0.992351463741875,0.990039427979913,0.987567635460478,0.984777064738316,0.982457576210715,0.981803902805799,0.980300632591908,0.980731322752343,0.980110983253511,0.98040170574419,0.980167582435977,0.980040255456816,0.978874970535885,0.979155256628839,0.977864563004934,0.977982908778798,0.977872793810066,0.978039046386128,0.979664910623595,0.977828529956462,0.978236511478032,0.979216854120125,0.979637805019138,0.978811099264804,0.968520298831868,0.97222474168708,0.971178993857876,0.970739071272761,0.969458065479033,0.968208762874194,0.967490874804268,0.96952099004645,0.972045045108569,0.972809539033164,1.00670638617394,0.960129745246976,0.966569631676827,0.96907819956542,0.996787364011114,0.976561743102871,1.00258948848767,1.0007059713816,0.999185114978359,1.00867320059608,1.01840992683939,1.0346753448639,1.04571384433327,1.06641868126482,1.06291080196631,1.11604765667904,1.20914558048432,1.24787243169275,1.35063868968538,1.30789113613145,1.30707679475177,1.32774365265059,1.29330007442512,1.26597888135774,1.25750196182076,1.24071618322963,1.16186908196999,1.1435885241189,1.12831127000617,1.12696248193588,1.12721319451111,1.12836180367002,1.13246095691695,1.13595890478023,1.18646346543145,1.17587230926059,1.16846181888461,1.17887925051779,1.18728109314859,1.1422505640545,1.13676639980477,1.1371301407126,1.1409347479597,1.14498482972331,1.10925506443893,1.11048822621685,1.15995577488852,1.1366324502696,1.11547416967615,1.11860228257483,1.21880480650199,1.21723830700075,1.2082248380526,1.19868873374833,1.15532012468061,1.10791580226024,1.1067962239039,1.0997118045466,1.09315930571589,1.07764728023134,1.09446163356517,1.08024966451972,1.10490373118155,1.12351691199375,1.14482643689269,1.15788488917155,1.15240643758762,1.11592981516893,1.08662160262548,1.04870222152321,1.00610160377492,1.00628329451794,1.03024456797447,0.983428034222492,0.98121777520137,0.981447513553398,0.9838823876661
1.03197860959376,1.03034169958178,1.02703751090084,1.02555962007425,1.02411608233175,1.0236403016624,1.02157770421827,1.02060237038869,1.01945727715998,1.01895266618021,1.01839115274677,1.0175022393517,1.01727692147619,1.01707548197763,1.01594344964478,1.01453700827361,1.01360628447332,1.01160561220016,1.010058872829,1.00830338902397,1.00791054106553,1.00745014901928,1.0068060142606,1.0045837813981,1.00386291686723,1.00493696455624,1.00475271592009,1.00645119782556,1.00709761715895,1.0086980994773,1.008524897736,1.00879656923104,1.0087507803478,1.00394984545213,1.00568417419755,1.00585020296084,1.00609209491614,1.00547440468763,1.00503290778056,1.00406505012908,1.00380775000096,1.00412162244837,1.00360015615884,1.00017318972169,0.999374572620007,0.999471106910176,0.998790127309473,0.997611054662768,0.996892968253443,0.9966072217048,0.996719151661195,0.996454706609833,0.996014939115145,0.995695854986905,1.25191293870808,1.09481447691549,0.994150013294621,1.30534395043525,1.00625496831871,1.14423352506201,0.986795663756157,0.983278017262795,0.981982932528492,0.981074726580875,0.980555900991109,0.979396118754966,0.977819100534064,0.978750804414391,0.978766382413747,0.978861296250114,0.978255802763542,0.97793333606067,0.976843121806788,0.978724916190755,0.977805437767656,0.977336841649586,0.976849000443793,0.976549514915975,0.977128711498542,0.976598665165974,0.977083599170584,0.976461643475888,0.977693607709776,0.969969564655842,0.969709488811001,0.970051302774533,0.96909229668188,0.985857322798466,0.966698153073584,0.967729320607887,0.967229042555644,1.01631470850944,1.00546749719119,0.963323639566183,0.962830324375787,0.97422803596018,0.992451686435415,1.00825552178376,1.05860750967475,1.04694465799279,1.04723867543319,1.04758393918758,1.07513163824344,1.07553658180774,1.08300454403179,1.0919024175885,1.10307794194238,1.22309730626742,1.36130231159638,1.30259334352427,1.2976494123167,1.2935117815099,1.30754087821002,1.33804704347104,1.3506470994995,1.35118415146813,1.35109542834327,1.33798228717328,1.22375282303031,1.20405334715698,1.18636861929679,1.16249155953327,1.16283226103886,1.15104584591834,1.14923189783942,1.16814097571767,1.18742142919316,1.18365240885113,1.27387881983996,1.26900010559119,1.25970162323528,1.25545718343615,1.17083235228879,1.15918141372325,1.1583057896945,1.14580617880931,1.12255639946691,1.12539135257591,1.12586943768841,1.15564370437864,1.15877924761926,1.16200664483042,1.16421879369812,1.20415998621722,1.25268379072162,1.23628260964604,1.22941090224152,1.12133563981021,1.11406376156227,1.11594767884208,1.11701127852629,1.1179128323404,1.14390860515381,1.12531648050104,1.17160197741077,1.19506535780544,1.24928998131313,1.24962707163003,1.21282822552664,1.17809414359745,1.15523878444648,1.14060004046577,1.09363104045538,1.03950535199766,1.04979591875874,1.05127845308385,1.05123976968347,0.992681934470469,0.988333838601544,1.00328328195087
1.03142044805414,1.02965177697845,1.02739834952043,1.02570902457271,1.02449681331419,1.02350247723505,1.02233922106969,1.02105123256493,1.01995864901457,1.01871456795772,1.01797666812073,1.01725432245934,1.01682737031026,1.01576479430794,1.01490654237191,1.01394209393429,1.0128404647626,1.01173903302303,1.01042905102808,1.00937519757707,1.00870966914176,1.00809420117531,1.00737028823904,1.00650822983954,1.00592200319256,1.00598407527559,1.00614031230379,1.00681729604058,1.00755880334021,1.00845932648768,1.00916914810524,1.00948655728922,1.00982300681227,1.00938788115007,1.00864009689786,1.00784050974067,1.00735475675231,1.00634896692957,1.00566145308798,1.00469296649628,1.00465763634455,1.00448842265833,1.00418972577639,1.00072368193362,0.999821673800268,0.999243135444733,0.998656117998402,0.997896738775141,0.99725215312973,0.99695607578647,0.99678984119249,0.996726457117057,0.996148878077026,0.995596125728837,0.994525076154223,0.993354686599384,0.992636095293557,0.989293891885597,0.986811532815953,0.985381270646601,0.984475149932759,0.98226173999162,0.981148314152567,0.980209265855281,0.979423681252573,0.978554082481873,0.977664169409015,0.977155117948892,0.976909773574813,0.97680807067188,0.976776013707726,0.976705832376107,0.977076592599087,0.977720849070222,0.97727512206762,0.976712208351416,0.976369701406947,0.976284832345183,0.975982713691438,0.975819623726998,0.975589899702708,0.975297969990168,0.976021399331426,0.973373963051492,0.969938397936951,0.969325384493173,0.969404891985163,0.970091063509132,0.967417828245189,0.966304860093385,0.96520602999553,0.964246314519797,0.964261010200598,0.963887909740589,0.963462195922791,0.982345955235019,0.994819974842764,1.03000960823194,1.05405782545282,1.06412179318532,1.07363833603743,1.08142384973395,1.09552282292815,1.11502043773314,1.14689742054815,1.17687274207379,1.2091502137701,1.23627795745948,1.30487019138685,1.30536958863339,1.31049106170185,1.31334144779764,1.31559280137465,1.34124435212438,1.35180901807444,1.351898406487,1.35213556803226,1.34082612510241,1.29999570612917,1.26995543689043,1.24307585864566,1.2181868159396,1.19969929384006,1.20077968407555,1.20764536062691,1.20985062843933,1.21261744987922,1.24331106026904,1.27167525901304,1.26974331499246,1.26279525394858,1.26024507344672,1.23125332204079,1.21118682802611,1.19457445025143,1.17779611167781,1.15563353486245,1.15960002530509,1.1618649919353,1.1629052374515,1.1677227317161,1.17216193956423,1.186558275424,1.22200276393567,1.24628661334893,1.23967040730049,1.23663051218109,1.16447784049911,1.14176840699751,1.14212356852842,1.14937235839078,1.15234441948464,1.15573599075444,1.15863718182753,1.1938240914549,1.22159546784265,1.25030946683077,1.25041723291528,1.22781894842369,1.20320715058368,1.1714872958392,1.1406221250452,1.10459001764377,1.06190641650141,1.05883686053092,1.05248035848445,1.05075125003807,1.03619995049787,1.02238989543471,1.00996320820668
