1.52310300990943,1.52450136870103,1.54258584305162,1.58787343556402,1.60812250339846,1.61684768831805,1.6291280524383,1.67896589991467,1.67232899627321,1.66542845778884,1.68422830116962,1.71548885202289,1.70451185901606,1.68919725223092,1.68998579238183,1.69040773652865,1.69933384098406,1.80414330488038,1.77378844050826,1.79050538558294,1.79196224971322,1.79194122897075,1.79750840130347,1.79747705751879,1.80453590495306,1.82313174437143,1.81844700829511,1.76758129453631,1.7685070771446,1.76875562442623,1.76916510381966,1.77072037121905,1.77853902298888,1.78091336446977,1.78180432739086,1.77994217110735,1.79996316258109,1.85119550803217,1.84850712178035,1.85083521609214,1.8503658080787,1.85839597676526,1.85871939374886,1.89194738973691,1.83306335645253,1.82253131134204,1.82594336821043,1.81969491778831,1.80566089885481,1.77728700517135,1.77210092055626,1.76159992107622,1.75885415733106,1.74854848138915,1.72955390599691,1.71207416536564,1.70844254345901,1.7055193486096,1.71325970240315,1.71391452014541,1.72780597347102,1.7285298067447,1.75088604766414,1.76959311704226,1.76670517010434,1.77819288508257,1.78604197145777,1.79719113173662,1.76711492033553,1.75886930754042,1.73486922406569,1.72806576707784,1.68653340543213,1.6375134075355,1.63450167469281,1.58599456426801,1.60160218163978,1.61898639247361,1.57937909486691,1.55803851071445,1.54138106377831,1.51504914726681,1.51706013869094,1.5194401195469,1.48322513452216,1.45552240835158,1.44287332708498,1.42765719292846,1.423325913251,1.41710922692499,1.43254202629599,1.44664672831692,1.44907356946717,1.44854597409077,1.44719432701209,1.48163204134536,1.42813514108064,1.41945827891053,1.39673258228427,1.38980102940644,1.27946869802584,1.22535108515493,1.20241405453672,1.18099680216636,1.16873896137112,1.15799315586847,1.1323282690535,1.08674508577188,1.08557970385709,1.06313916332667,1.01993586940607,0.989745383017167,0.980219174469064,0.973681906289462,0.941893595310951,0.928658158474591,0.894806625971582,0.877985165225091,0.867409582944971,0.85613790607339,0.857109752534743,0.830461445294451,0.804925023917889,0.801564002320083,0.804242383613244,0.846689374430193,0.835229126560056,0.836332120869307,0.835171540406179,0.834869036959998,0.835801298102153,0.837223024078275,0.839322265833724,0.841563920919105,0.842951453255277,0.84530256601272,0.845792658694565,0.847182747190511,0.848534262077901,0.849795050003461,0.851214793614608,0.852717487565221,0.853623684560063,0.854908526935861,0.854881640176867,0.855418940741893,0.855098090573621,1.33962571867403,0.840866476090512,0.839986782438203,0.838916714550123,0.83974752603626,0.85189734090001,0.852154397786717,0.853663249460882,0.852959671236776,0.854830230862983,0.852113362111755,0.852894125667481,0.850690612951859,0.853506666768244,0.853158256836758,0.856238321324516,0.854859317172928,0.861520329396205,0.86160627076848,0.862183511663641,0.861651813410768,0.862283268614246,0.858114039003171
1.44498324440606,1.4937665735785,1.50933845337462,1.52647009038119,1.55919523350601,1.59176506151891,1.60980348029238,1.66619996051342,1.66658602305743,1.66651830392336,1.66796559618713,1.66963441641598,1.66951930268107,1.66951236801105,1.66586674748486,1.66262999996301,1.69506684934481,1.78412373785177,1.75738531811807,1.72480708845162,1.76132450498279,1.81232076079057,1.79739228345889,1.7984009396599,1.80100802639672,1.8231335226643,1.82048449269929,1.82539868507488,1.77936003825149,1.76526458725378,1.76733351269881,1.76155210483992,1.77518517377607,1.7721991263068,1.78637693445689,1.79006880350025,1.79084174064836,1.79174472754245,1.78989734880036,1.78995759679692,1.8377787850274,1.85598671041489,1.85732084195966,1.90340444844969,1.83193791988594,1.83042971513754,1.82915712009279,1.86633345481543,1.79899338579416,1.79388252990467,1.76573330168971,1.70392148587845,1.7031691140832,1.7042646044816,1.70462226757126,1.70232341603931,1.70760030171246,1.7127623143341,1.71249342245609,1.72458644904258,1.72691608064056,1.75702202855826,1.74748296579418,1.73819046779672,1.75372444266843,1.77412197634218,1.76430913463903,1.75176674940834,1.73864560262088,1.70994036521123,1.72010468326412,1.73070142377211,1.6839624808814,1.62817919205783,1.63143187510811,1.60262842273554,1.59547281712611,1.53455198348481,1.52843603573129,1.5214775830908,1.51751906013132,1.51299491011603,1.50528680789642,1.44935415383735,1.44801543618916,1.44649315939305,1.43149000302721,1.39368484885541,1.41141728997294,1.42753481474652,1.42587860578737,1.42591396309827,1.3895336564612,1.35559460582742,1.35267533166001,1.34979051790474,1.32750653636916,1.29679270767289,1.34420122422618,1.40180557792434,1.24958359782199,1.20881953064892,1.17483931364741,1.1316040650781,1.12240913474349,1.11302342112384,1.12871332105177,1.14040943423829,1.08584404037812,1.0107409924755,1.0063807173913,0.957214378786621,0.946455962005164,0.941104450689614,0.931807003120878,0.89114946586383,0.877963324638999,0.872187235922614,0.86591300244869,0.858216660757623,0.857016950486804,0.808998998535687,0.806227692290265,0.802209390455907,0.806728942725808,0.810996573055223,0.835536709650113,0.837069319715492,0.836158057087684,0.836105487158862,0.836610829248077,0.837088549977475,0.839580237989704,0.841241840963133,0.843019082367509,0.843795665076825,0.845451188049298,0.846318079252273,0.848112017361823,0.849185777709448,0.851023027284123,0.852068231436605,0.853488585445171,0.853985323624861,0.854576748320819,0.853847200660717,0.855289051886625,0.841399585117361,0.840808103101818,0.8398314445598,0.839661994931011,0.840062822904373,0.854117918148798,0.853384808241922,0.855747084619541,0.859210263130956,0.858676251689996,0.862231435086815,0.861058852944624,0.863540224162978,0.860428637814164,0.860870079943977,0.859333264182053,0.859353300614447,0.860819229610081,0.860455267848662,0.862749872306053,0.86212646959312,0.862425984090168,0.862727597809696
1.40113802031294,1.4686847244324,1.48594470157931,1.51512291634515,1.51997470746915,1.52486011138281,1.5587964501473,1.57883256500311,1.5858205169015,1.59182845085634,1.61210276719568,1.62414311141218,1.64510855132026,1.66403474007863,1.6651757381715,1.68834827279737,1.6924651225628,1.69567349410198,1.71323721786426,1.73675685119047,1.73905615185866,1.74439738219635,1.76582796691641,1.79614614155452,1.76659954864475,1.73474988925928,1.77044265582712,1.80610589439697,1.78794564298046,1.79986508839898,1.78881011220412,1.79916536081802,1.77952573706221,1.77224482364945,1.79073399046812,1.79536384024532,1.79193300619528,1.78870724676397,1.78991765171885,1.7895717246645,1.82735722407364,1.83127818297727,1.82988731572841,1.83041951195153,1.82834177611735,1.82982344340774,1.81881604397758,1.77452964436085,1.77611160289054,1.73953624559127,1.75104931844094,1.69911758448394,1.70173887420754,1.69494422801879,1.69582828057161,1.69516134859975,1.69285615205325,1.68775047100894,1.69392670583502,1.69790215954078,1.68650635354045,1.66968560391686,1.66958170649511,1.6697235066592,1.66847709858013,1.66966057104418,1.71543550610408,1.75601123956357,1.7289512650932,1.71014927228549,1.70257492820381,1.68675234242971,1.68212872701148,1.64431577932104,1.63175804778888,1.63165550561019,1.57831004664753,1.52063051998636,1.52570080701982,1.58568480019162,1.51460448307658,1.51099126010657,1.49015922081528,1.45156013137538,1.44318642605908,1.43417776797191,1.41775133238503,1.3932741402094,1.3715564996554,1.35441473950697,1.35393881386211,1.331919992685,1.32721852334788,1.29739756150172,1.2983057469062,1.29972612147326,1.28725284583675,1.27730447217823,1.27215818601308,1.26773424644906,1.21952749455572,1.14846623654994,1.13434512196946,1.11423954152571,1.11274594335184,1.11622985752644,1.12482670184932,1.129557793515,1.08648517957753,1.02102747366215,1.00239622706976,0.967402686165893,0.939008370258118,0.927346725358173,0.923829696892431,0.866533801912348,0.865222578580529,0.863386860403115,0.863021784102059,0.857143643396405,0.857678943399021,0.875160524724843,0.869967649667211,0.859319209774362,0.847052625723848,0.834841016534268,0.834993025607484,0.834838395658971,0.835732901771565,0.834588409801842,0.83698439633686,0.837967604675566,0.840041449237574,0.841781454592546,0.842676893541344,0.843411999871793,0.84485746096616,0.846574701281756,0.847873839098838,0.849130063776123,0.85068149842634,0.852200838991664,0.853133659613138,0.854038861114832,0.853702923987065,0.852703336792901,0.854581846094887,0.840511557322827,0.840442239941711,0.840623611970737,0.849602960599492,0.859299571390569,0.857875614865924,0.859685749609971,0.857073357200934,0.859320453277785,0.860088489607163,0.860726374068243,0.861581078539414,0.86105192144861,0.861153711369916,0.860103335398032,0.860142575656817,0.859365947375768,0.860604487166271,0.860736920355596,0.862005991706391,0.861652234016973,0.85392230752274,0.846433650440221
1.34979343539005,1.36534994934488,1.43926848268168,1.46131717470438,1.48909629137421,1.51748766875492,1.53359758776813,1.55090523665779,1.5720192122534,1.60693657714528,1.60203303746212,1.58860271366962,1.63822017926675,1.64814905272069,1.63738411101106,1.63174815882331,1.63927878150181,1.64065232032586,1.68163784044785,1.69963895674559,1.71921523418095,1.74137270480954,1.7414619578394,1.74083877274905,1.73782724404018,1.73519955640727,1.73449044215287,1.73441377157142,1.73221244429274,1.7294152395755,1.76056361830085,1.79654834431909,1.78937139740472,1.79652780228051,1.79459163297386,1.80354723926413,1.80318044306246,1.80377901132544,1.80027664902945,1.79796548675495,1.82197874466964,1.83067486494819,1.82931346887135,1.82684785941763,1.82780063422419,1.82620171852521,1.80924892977067,1.79714145562191,1.77746710493934,1.75103203458676,1.75048430422326,1.76776956890687,1.70131847860323,1.69839188735948,1.69746536947696,1.68519389516714,1.69001821317457,1.67966772791071,1.68053561461176,1.68240563088905,1.68038349977959,1.66927837969678,1.66981940226845,1.73533941435553,1.66579757689976,1.66273345650767,1.66108816657665,1.65809297859883,1.70595386211677,1.75933260791358,1.6939936205287,1.67891256210095,1.6803222980321,1.67933481150008,1.63347747271865,1.63796305540911,1.56250648943244,1.51791732539503,1.51475228750289,1.4956841002519,1.49078359205501,1.48543616273138,1.47596004319997,1.4691975059725,1.44008255562166,1.42878540850064,1.40419971171933,1.35754525431578,1.35591452539751,1.3556658879278,1.35283263247524,1.34901061421194,1.32142020629819,1.28571634949539,1.27186142087778,1.26169175151681,1.24309289091625,1.22222278446387,1.22221472161139,1.22247032881011,1.18916185578217,1.13452503385637,1.12889510915355,1.12599802535549,1.11127991865654,1.11165566408147,1.10082702839497,1.08649694500648,1.0866091450217,1.11522428528241,0.993886806090392,0.930215268263091,0.93046837079195,0.927126205724575,0.912605261772035,0.884593833573812,0.857894740316175,0.846544575328514,0.842179344350429,0.799405479794194,0.844177757686532,0.891957505218688,0.87969956079332,0.901670039530307,0.860906796617149,0.860101115899669,0.839311400383361,0.835807766884106,0.835971428955289,0.837326142277865,0.838816541474913,0.839518001619447,0.841388961888823,0.841681190870427,0.843769148834748,0.842976151685577,0.844833755052854,0.84625323591209,0.847907078608385,0.849533967920102,0.879153666173146,0.939660438227258,0.861832610867035,0.853819001705021,0.859740467427628,1.16733944868033,1.05440280872393,1.06455765180109,0.860153756219302,0.859888395246156,0.859524425474069,0.857560954156587,0.858285773071389,0.859155855129341,0.853508819117398,0.840434235249553,0.840711657885613,0.839290835523494,0.837979465587741,0.833692695248546,0.833978193002838,0.833118923882295,0.845495813499802,1.11436005956382,0.882094553406163,0.917381983810027,0.849516114313945,0.845079726972143,0.843943800227388,0.848136083839846
1.34171190966007,1.36792908342013,1.40593405218556,1.43241117693504,1.4582814987359,1.48332778987796,1.50393851893099,1.5262340099223,1.5526841882548,1.59464880157784,1.59674518578117,1.60844596363895,1.6231730422357,1.62450522137634,1.62740101561933,1.63346122427766,1.63695080825379,1.63896839705433,1.66608379680513,1.68265154703816,1.68748064424263,1.69571406277806,1.69742072042843,1.70293496347559,1.70739888852768,1.71143389278283,1.71470286843502,1.71866329144136,1.72116877528099,1.72520094006776,1.74121183165311,1.75178274937043,1.76219023943431,1.77284700809886,1.78272722555813,1.80262299007402,1.80231797288466,1.8011115433492,1.79977012785161,1.79807794034301,1.81187596608677,1.82913376657596,1.8282378716599,1.82746970516244,1.81484337851438,1.80682093906422,1.79948607661929,1.79008261601269,1.77894154671116,1.77203640085497,1.75073684146809,1.75096647997151,1.70153002385594,1.69929708754639,1.69752556988712,1.69544869366212,1.69289436715223,1.67941296342895,1.67963183094765,1.68018643040466,1.67999561113091,1.66833448159812,1.66680093553083,1.66538023142857,1.66388474512084,1.66299055362016,1.66113782239659,1.65968549402258,1.68694411667336,1.71055679284128,1.68611843142727,1.67595259772551,1.6735892657651,1.67075013758915,1.63108371232735,1.59037502325514,1.54740471894977,1.51557252095244,1.51422912541011,1.48498296154752,1.47911030147923,1.47444630533794,1.46989856118988,1.45285269138177,1.43676292772753,1.4290805976759,1.38643762185903,1.35585405126293,1.35588470658875,1.3542637944937,1.35275756871423,1.35022097759603,1.31606423446289,1.2701690991944,1.26654804709726,1.24855611202621,1.23391176492964,1.21049769695215,1.19696079284008,1.18344408633388,1.16327249576485,1.13255475250598,1.11765083069377,1.11042377072352,1.10091762292253,1.08808841923077,1.07872095674943,1.06709189563938,1.05804492870939,1.04862733170269,0.984927574334211,0.950595220953999,0.915592953837647,0.913562927220042,0.901931748105819,0.877222459126013,0.855255747677479,0.845986352233727,0.839264197617542,0.838828506865756,0.843972358336837,0.847334658440308,0.848934179609797,0.860147944014449,0.861396319596911,0.861388963796794,0.849421478406318,0.846840237794905,0.843749468443569,0.840791875198893,0.841153414407846,0.842060937647414,0.843260675452318,0.844740486484212,0.846388771218482,0.849586426958324,0.851911952773074,0.853798498948182,0.856283080077711,0.884260060953212,0.895593289978695,0.906218090007731,0.880735266484017,0.880715453762069,0.88132525582255,1.04015217138298,1.04800311298605,1.05440280872179,0.859607802556564,0.858873170809719,0.857798247152026,0.855999659590207,0.853632460137634,0.851177077978029,0.851137530516734,0.841370347129023,0.841369413731543,0.838524151761453,0.837081421408875,0.83494540648449,0.83501943780326,0.833935522805077,0.835520233271834,0.836567120156725,0.837620579373648,0.83925848725724,0.840204857458453,0.842829526764034,0.842824307155485,0.843391285794701
1.33209245069251,1.37080906478154,1.38745493142653,1.40431967254212,1.42849197634512,1.46315711078119,1.48000268804119,1.49193646210471,1.52864426693774,1.59359290378264,1.59472180694312,1.61930222884606,1.62027308431855,1.62188400246187,1.62587881902521,1.70723450689995,1.62798202506238,1.62448078898061,1.64318417236406,1.65111774519845,1.6853091380557,1.69516905539905,1.69372659158293,1.6764683968086,1.69073308843778,1.70601151942545,1.71254072810195,1.72005985804215,1.71186644449639,1.70040584267983,1.72980085796196,1.74902177283813,1.74212992402319,1.73547794773361,1.76460237529359,1.80313088938785,1.80214849107708,1.80280952674864,1.79960348714179,1.79717851972195,1.80584311209304,1.82872439941723,1.82834480147359,1.83843977941942,1.80472161046522,1.78931192172294,1.78734175746561,1.78412219350305,1.78056100098633,1.78266891715043,1.75232291143183,1.75416392710622,1.7034785362381,1.70078326829863,1.70455148625561,1.70912338186007,1.70056976104874,1.67919678022129,1.67914492683447,1.67911454168767,1.67965088748293,1.65706162905562,1.6554769487354,1.6150318277293,1.61042811136562,1.60562256058197,1.61470686040215,1.62435189223603,1.6684611788633,1.75660937261131,1.67889530741103,1.65771560191295,1.66474744625293,1.66540770905203,1.63040488961962,1.518942262073,1.52365679473922,1.50602239060483,1.51153989298484,1.46004598684479,1.47430850628888,1.45847465295902,1.45837913964998,1.43554422857227,1.4334090850151,1.4290384991906,1.36974758307243,1.35382258482475,1.33600147121421,1.30593290593626,1.32757955134819,1.34858881325487,1.31069343681047,1.25828882356194,1.2561992095207,1.23182239496141,1.22132922084363,1.20165015158709,1.17747410638406,1.14412024122148,1.13665364870564,1.13105255133256,1.1083716462571,1.09696746585303,1.09278592411774,1.07907217053334,1.05596087990667,1.03311233825677,1.03557931003024,1.03775621351731,0.98276588452788,0.979392165884918,0.911008258505051,0.902176735767167,0.892040690937932,0.869881724132114,0.852724009579876,0.845867742243105,0.836744612358194,0.830907470139123,0.819139813458388,0.807237178714152,0.833401847618101,0.857589787787406,0.859956647369569,0.862621609561012,0.858264565516846,1.09624343667213,0.842738632671486,0.841113743651386,0.842375673786229,0.8431338235264,0.845013616167246,0.8456627262394,0.84747604239627,1.12494842790603,0.865716169039344,0.865903847145782,0.866297475054116,0.934949983708864,0.907208015103497,1.2746593203616,0.878333469671459,0.877746343676039,0.879423686150179,1.02452637520841,1.04015217137168,1.3135584324273,0.858069561989494,0.858169976065799,0.855442289849337,0.8511846096496,0.851236682218537,0.847909637766655,0.848350421799912,0.844793249058593,0.8447447359845,0.836017534280226,0.835793838934475,0.835689585527892,0.835555381459944,0.834856792580105,0.835252143946221,0.834213062316194,0.836750950435385,0.836766889428418,0.839068241096483,0.838110890962915,0.841325228788517,0.841799917010894
1.30440733646532,1.30604691141429,1.28874736863746,1.27412987120827,1.28418266945928,1.2937600671617,1.43079649485343,1.47270253766443,1.50137442748235,1.5861257972171,1.57466706572733,1.55350282251056,1.56658979130169,1.56888059367639,1.58353541174642,1.58261858450894,1.62253998328868,1.62372187154963,1.63650856927977,1.67610885348435,1.68174673322414,1.68486417622439,1.6903428238561,1.67681956977412,1.67820936046376,1.67890025577181,1.6793777925287,1.67937993283099,1.70725324943609,1.73110750291107,1.71615774311653,1.69918466029868,1.72373150833121,1.73602352507762,1.75839530004186,1.76474257635994,1.77785302070482,1.78802059657305,1.77586533368723,1.761699806862,1.78907820591254,1.82005082812349,1.78969086923589,1.76323610804299,1.78231004432038,1.80171400390795,1.78608282790946,1.77845780468268,1.73578700039307,1.68709804237235,1.72109687561654,1.77132621231128,1.70597429688398,1.70637464342079,1.7079113455802,1.7057956727709,1.70823481343264,1.70860978016207,1.70675425659229,1.70916311979602,1.69323531360376,1.65962518362148,1.65618662552311,1.67720744568835,1.60207694589565,1.57515167363142,1.57566663582655,1.57627058590738,1.6442872793839,1.69912406191624,1.67275716313085,1.66275619706248,1.66422476168158,1.66632155884149,1.62703223038627,1.62057299197609,1.52924209281637,1.49397417479874,1.51158371854903,1.5155816502825,1.4836043273845,1.45701368638254,1.45841422655005,1.44648006173612,1.41833540357891,1.37238868781627,1.35905303007011,1.32666156703652,1.3204137716743,1.30513950562154,1.30515034449985,1.30427684558112,1.30229792138622,1.26979673217155,1.25376974886134,1.24814102485446,1.20510428086628,1.17718643182052,1.15613289445146,1.13519352839314,1.11858957050497,1.1007111704634,1.09659168397431,1.09197074953484,1.06396389429386,1.0335091087512,1.03349057995444,1.03367836764134,1.01898012831564,1.0064791938954,0.967800165868054,0.953348831535241,0.906413024623919,0.897377836267901,0.879368029789952,0.873767356616632,0.849386366717816,0.801922950432996,0.800725049319336,0.801433256808091,0.80266839297051,0.808364413641472,0.809995465369611,0.796736435440827,0.812369251104574,0.807388702384655,0.855704111169842,1.20863220784467,0.843434242741162,0.841875377915902,0.843395856886737,0.845303579606169,0.845710772924205,0.848056887467558,0.848604317677966,0.850120214315687,0.863759539404344,1.24697749567971,0.864837164030508,0.863799575100752,0.869904536994297,0.871056771530142,0.874957555369806,0.876521702928252,0.877780521510433,0.877699110136866,0.877060347722813,0.854253690762599,0.855607987692628,0.854849351857418,0.85371431548284,0.850653389497413,0.849839139928491,0.850161077248978,0.848179331588018,0.847726822049274,0.846206678715154,0.846528072495205,0.843992864038359,0.84147901111188,0.841182408952276,0.84011444064111,0.840921611297478,0.840868232439836,0.839642577911888,0.837799624238598,0.839167877646254,0.840389367507263,0.841121718630417,0.842362916029416
1.23616216276519,1.2361298231165,1.24981028721897,1.26903755262941,1.2607528957346,1.25245639419578,1.25460508498155,1.25746575162393,1.25978757895759,1.27114051202026,1.4827066544684,1.5822343409591,1.56602900306279,1.5666057553255,1.58429827951688,1.63823698458722,1.62268802993496,1.62398357600308,1.62790839246566,1.63218261219717,1.66636814080085,1.75050832160004,1.70528828366036,1.72818216646201,1.67876272620473,1.67904419024854,1.67951183909966,1.70217381632021,1.70443749681197,1.73107898858161,1.70942577695334,1.69353778373262,1.71468784447646,1.73587802806402,1.75024510423788,1.76453482109676,1.7242314499523,1.68430123475945,1.73381653160685,1.78959751816243,1.77525918624578,1.76355713467499,1.76405850908829,1.76374939149798,1.77742236640814,1.78454519541847,1.78436541387819,1.78283114668303,1.7052064653239,1.65050180536125,1.68315204946906,1.70548681766936,1.70551063700856,1.706234923629,1.70622697360227,1.72237547335408,1.70604053562617,1.70303859652954,1.70401386434204,1.70305925825105,1.69909011194754,1.71181571337582,1.63832864321144,1.55630274759397,1.55393225414539,1.55154870481688,1.55411943953998,1.55679134120378,1.57652023351797,1.59251202800935,1.60196084514603,1.61172094349731,1.61140007328884,1.61131430816693,1.59149420901204,1.56658332795792,1.53674271138975,1.5178937311032,1.50998384441127,1.50215421322231,1.49762195309468,1.49683550312172,1.45996959511902,1.46082769485187,1.40260252988794,1.37325125634081,1.34183017690226,1.32871185967902,1.31573596436531,1.30638739559259,1.30624766221634,1.33924102956063,1.29751249354043,1.28785218549909,1.25106813862846,1.24901699313738,1.19140563992966,1.14318327047954,1.13161975072682,1.0993462471023,1.09959503389203,1.10059636158545,1.08312875010446,1.06704270034528,1.05182032305737,1.00279155718777,1.00405183662239,1.00506453036911,0.99895262314112,0.993244987515943,0.959347457236137,0.952723644305263,0.902516221431413,0.892162523640482,0.868653123117896,0.863194336118389,0.846415453301176,0.79897306245145,0.799453525378282,0.798046755794003,0.801131498758683,0.794169131184579,0.811520967324605,0.880277937586172,0.822860155750541,0.834584298402833,0.851601444243295,0.848497275079849,0.845233124829406,0.843616447301219,0.844421121621126,0.845448950183836,0.84702909125946,0.845696026922641,0.85081664292377,0.851049778284223,0.860641696150089,0.857219288001678,0.864711360489678,0.862462326347206,0.869487986462764,0.870112382984687,0.873850579581439,0.876583561090138,0.877308188197615,0.877393664157577,0.876606784394127,0.853363741760843,0.854555026255933,0.854082847403172,0.85429628352679,0.848671636055443,0.849674886074519,0.848713056851542,0.848530170403725,0.846929644524712,0.847167594416025,0.845175527469372,0.845009798279044,0.844166333919305,0.843224605585349,0.842181656663052,0.843091553430532,0.843852344169989,0.842098692817876,0.840407692488737,0.840902821517854,0.840673877278941,0.842076461034085,0.842731839227426
1.22238906347416,1.22174176205353,1.2102665235255,1.20184001849756,1.22850144252784,1.25471937685972,1.23706551462346,1.22541358241855,1.25037785215705,1.30311125349247,1.44743529669222,1.52103525948393,1.53874836596031,1.58360457970847,1.58439887310268,1.59348004203959,1.57991084924663,1.56913198420014,1.60866667055273,1.6569047065372,1.66166556389041,1.70727625298322,1.69315283447728,1.66644252152665,1.65643705183214,1.63793599083042,1.63780697673523,1.63895892853416,1.63791111972648,1.63926826917205,1.65555760842414,1.65603050698968,1.66623792553923,1.6830910376374,1.65574331560956,1.63324054746442,1.63403681563578,1.6314242896942,1.6413536272407,1.64221888146057,1.69030168119343,1.70889691993805,1.71792806352787,1.72817780711933,1.72693390976168,1.72605922223287,1.70403886245231,1.66931203993538,1.6570961082813,1.65012021438127,1.62345574261153,1.58674640258885,1.57248047766488,1.53909646050146,1.55297219593019,1.55385778555524,1.65809991025223,1.70816445316539,1.69812419827241,1.69226499890761,1.69292867588268,1.69353300784797,1.61960135347233,1.53823181945902,1.52647400331509,1.49888948374091,1.49836470055648,1.49777421041147,1.51595969158394,1.540590995314,1.54047498943633,1.54058340300438,1.55740384882895,1.58209569514477,1.58183846530558,1.58097662084742,1.54518405676236,1.55544899683331,1.50731786630148,1.50392474478705,1.4977398063403,1.49753019106954,1.46095351575461,1.46212862695298,1.38825064081545,1.37714968151202,1.32771629536625,1.27569341913041,1.27556408420653,1.27502211850569,1.28668490222585,1.3036899038513,1.29131422795238,1.28450548633729,1.2314400318745,1.21229294606777,1.17684340719485,1.13768753968389,1.12185568976243,1.09643838208724,1.08433035553712,1.05027170733634,1.0498433482682,1.04794760921481,1.03417936204883,1.02477232821455,0.99400690334329,0.983562571669591,0.96946505034413,0.959603195539906,0.953768541521404,0.945667072925127,0.897494383210326,0.869033419052884,0.857268451461536,0.853233417075651,0.845107181240969,0.808246328919866,0.808857156507849,0.853197875350289,0.810203330849144,0.807383938059961,0.810870133833353,0.811347153285663,0.819660999977581,0.818753485391474,0.850512506026154,0.849237722595241,0.870577594206834,1.40533367824447,0.878804369685561,0.846903623636691,0.848112761101107,0.851766494828474,0.853301816052047,0.856000936119784,0.858895405549791,0.860082668024978,0.863436244908043,0.864504737981935,0.867628294303486,0.870267857905227,0.872982011854898,0.875515462584633,0.8758660980961,0.878605953709892,0.873884879970454,0.870870630088086,0.87299862568661,1.07785459459676,0.853504132952322,0.848481477456783,0.849295791579556,0.848191569559335,0.848095213246184,0.848580904019433,0.847551342525777,0.847469754100209,0.846679096016994,0.846863642366692,0.847274585424705,0.849614289024366,0.846583322750985,0.845920197676356,0.84418121876094,0.843356101924113,0.842355813048711,0.842366568031951,0.842663033184689,0.843813187024817
1.21724610282371,1.21447907453713,1.21107998671145,1.20649756431754,1.20811793827957,1.20993597292916,1.21277729158606,1.21694468151335,1.24729819198104,1.27710302188821,1.38752086970818,1.42551988609578,1.46700719995272,1.49703843371714,1.51780451381209,1.53078472880874,1.54679018907333,1.56315390463991,1.58352454633717,1.6131792070535,1.64330274350079,1.69392226732481,1.68615043816339,1.66682048129183,1.64764571126562,1.63724081416207,1.6370823610734,1.63718193620934,1.63680216343454,1.63713024414233,1.65494583608296,1.65585350950295,1.64450881002718,1.6396784229206,1.63766011584286,1.63584334147278,1.63628854402756,1.63589870695811,1.64031022240174,1.64046070641188,1.67225662179981,1.69320853559764,1.69396224767984,1.69482949273537,1.69570902986877,1.69633258788298,1.68577310724131,1.66861101624636,1.64302771960655,1.61776911574983,1.59437389381717,1.57443146229984,1.56443025357702,1.55298933354659,1.55264492154801,1.55348615179171,1.62577646151723,1.65135139462132,1.63731270032953,1.62534477026945,1.61627461277221,1.60795628305002,1.59199234460736,1.538577053798,1.51786469136358,1.49961967113963,1.49890765733563,1.49798348175495,1.50919659494767,1.51482772865499,1.51629995325456,1.51734245829322,1.51991294392772,1.52506951501464,1.52633547815089,1.52743857048781,1.52052836227721,1.51738215649559,1.50583903211447,1.50379912309024,1.47491611324589,1.46245556325622,1.4537241271395,1.44484270716069,1.37944024543628,1.33922857176428,1.30961280776002,1.275690907248,1.27584320454288,1.27610624086327,1.27669529051618,1.27586129112092,1.26215313515344,1.25381095512102,1.21633558210946,1.19346962088613,1.16201315698414,1.13883820219706,1.10539590643315,1.08124068488927,1.07061141134126,1.0503901485343,1.04263383230195,1.03907060191521,1.02022137017237,1.00285721772248,0.985776637744754,0.974544408731329,0.963790824877996,0.954023510098717,0.936921206282898,0.915520966458937,0.890153609167726,0.855709444004325,0.849953953103128,0.846124480145795,0.842397661249505,0.807550333269167,0.808517581056086,0.810196419911931,0.811280207539637,0.811520173653961,0.812554560126679,0.812060078667167,0.82179559009512,0.845675219682655,0.865821450761037,0.877948256538159,0.890892971610922,0.905961540444591,0.896349579612676,0.882069397823957,0.870534684405912,0.8568795664759,0.856355618458835,0.85724986962488,0.861034745515884,0.862678981797055,0.864724498963736,0.866532530804673,0.868330490487615,0.870970366355499,0.872819827821064,0.873979744584143,0.873401004060931,0.873322653642811,0.872730630625835,0.872118689347452,0.874210616407516,0.875792969243766,0.856297011478852,0.852210843439092,0.850985964114991,0.847221568468207,0.847931121255322,0.848069493430989,0.848224245674509,0.847732862548614,0.847826147452523,0.848697864477332,0.848700815719278,0.849552954578643,0.848118339035184,0.847299416589428,0.845609248629682,0.844164305578245,0.843328220583884,0.842881056979152,0.842913935732051,0.843134967590577
1.17237947258369,1.16760940243216,1.17905914576243,1.18806015466082,1.19792899186543,1.20904714522269,1.20886498790171,1.20887438054165,1.23450173182955,1.23612717366684,1.26067961432795,1.28117341497977,1.43509137343092,1.47420443574375,1.49224037526291,1.51108834783986,1.51978248962029,1.52721356678859,1.53635760842069,1.55460148624845,1.61511547650747,1.74140213097509,1.67888483666255,1.66665520194833,1.63923313962924,1.62360131379699,1.59781320058626,1.57068239783114,1.5910651277107,1.60039885519748,1.65272012624766,1.66386404871625,1.64027962219767,1.61491913718584,1.61522929335035,1.6143007650954,1.62562429987047,1.6380352818224,1.63910952000636,1.63899891103456,1.65904733911247,1.6924205072806,1.69371022885555,1.69465001683424,1.69576335126639,1.69682695647595,1.67842246871036,1.66793731219808,1.61453018789154,1.56848571611259,1.54614773349073,1.53437859740353,1.54143643046543,1.55039832781128,1.55018713770762,1.54723949989831,1.59775825687678,1.670290103553,1.61984734385106,1.58260013933343,1.58282095191686,1.58299110883964,1.56931031368116,1.53952201091817,1.51064001463591,1.50171128610293,1.49937932209411,1.4979807451281,1.48661164604082,1.47583569308998,1.48185375604946,1.4880279607739,1.51108603322911,1.52865726706754,1.52777535934154,1.52776086801039,1.51904847622217,1.51255885423907,1.50835348911228,1.53596300235343,1.45944539909013,1.43118571565072,1.43134851772104,1.43112499557076,1.36850678352123,1.28494257309678,1.27301858207374,1.25162367945484,1.25220537747001,1.23935729405427,1.26650942636651,1.27383367871902,1.25630049309405,1.2392937521477,1.19350473962593,1.17570258689768,1.15103602002419,1.13880556080469,1.08868289083321,1.07360311884782,1.05938368847288,1.04910850439499,1.03922543976202,1.0326440764294,1.00719804870937,0.965689985136578,0.958117754129966,0.937509372577401,0.939396324471338,0.944585506811687,0.924645014740897,0.894936718209744,0.880562147406328,0.849810011644432,0.842542924807196,0.836184168318717,0.834135787133955,0.80601721148814,0.807160380677928,0.794586650575609,0.81256452170045,0.817126312414372,0.815207086501147,0.812757098157043,0.822720286814476,0.920223335872419,0.887272463193425,0.928987420912767,0.911453241695726,0.930684450691425,0.907369492765055,1.17697505173228,0.896289861070565,0.856062597592678,0.856471677960774,0.856679073849874,0.864133553053241,0.865482034678282,0.866339119250672,0.866608114479631,0.869494534263048,0.870315783093849,0.873252566680278,1.22704921022713,0.869890694119644,0.866358803755437,0.869815617957259,0.870474935547908,0.872894857653422,0.873006105553555,0.875754902347396,1.08351486597118,0.853997135925747,0.846336756564794,0.847491870877665,0.847758610177897,0.84849547289436,0.848513929076563,0.848894323496203,0.848032768866315,0.851080739365662,0.849629948159847,0.849477530009099,0.849809987769165,0.846497895206586,0.844388067489982,0.843894582365118,0.84285024994276,0.843052531771748,0.842330337421629
1.16322391574842,1.17061791232951,1.17472147162582,1.17947918506925,1.18056982557035,1.18251746549915,1.19388449547042,1.20347541293415,1.23235560971328,1.23533601941976,1.23527432926046,1.23534005876703,1.40181861743458,1.43576555730121,1.45361830078319,1.47232770345985,1.49270825323591,1.52699233160536,1.52848541856956,1.53002587462292,1.55569936257515,1.59272401625618,1.54460172316143,1.49264077288189,1.55228542459814,1.59807338065354,1.5816957240279,1.55374870415094,1.57810916189369,1.65121214640168,1.64995630906526,1.64561010821314,1.63542507635937,1.61420123648646,1.61479309032908,1.61471284883145,1.60195976664052,1.55250898949562,1.55910799087423,1.5657735132423,1.53963552502584,1.52026501928913,1.59103854040706,1.6290875617105,1.65086439628392,1.68423197313435,1.65004371582871,1.630739522328,1.58699727394749,1.52983348304799,1.52878198553005,1.50881968785934,1.50128708815725,1.49900417637231,1.5123712043993,1.52347677117075,1.53111472423229,1.54273486942764,1.56401160975956,1.58244384762721,1.5835060003145,1.5804739606411,1.55528657687586,1.51031657567709,1.49158009026172,1.4587638640577,1.46919290722136,1.48010823422907,1.47841646449695,1.47666421226923,1.47340754149704,1.46991603358512,1.4898722342717,1.53000795118927,1.52875537150344,1.54174339321308,1.50761474086316,1.49175727029303,1.4883542852503,1.4848447246605,1.44683232826217,1.43070597393612,1.4232628057113,1.40080076278316,1.3616620981165,1.35252279010188,1.26551725047888,1.2493110250385,1.25109280547342,1.24893676080782,1.25817803190642,1.29928000724774,1.20675339277855,1.1730378400563,1.15362466825138,1.13137688629966,1.12150364020935,1.10966926693218,1.07724460382982,1.04227950242171,1.04230403945835,1.04315876760123,1.03176859213428,1.00253197548681,0.998159202208374,0.975243912845653,0.952024000023231,0.948149748477682,0.937982517595883,0.937522704467062,0.91758168258721,0.890060366301508,0.865387926689376,0.852388672863941,0.835283572885952,0.828527665076852,0.832121367525361,0.833702019130995,0.807266421847974,0.796089889790033,0.815747647088699,0.815136480170337,0.818102629044424,0.819110997783123,0.821977096956048,0.846049228355316,0.835030404235549,0.821796236954584,0.823438753468936,0.822997476815712,0.877339143698571,1.17383984337563,0.907345399261913,0.933136249391033,0.910940534163647,1.19065638747647,0.886787516989759,0.922140810781562,0.866422055533031,0.867949658996668,0.867028691864319,0.865166973294189,0.862394670168971,0.863100246949654,0.868713284966094,0.866895100143181,0.869373851556945,0.871117323270062,0.872795319173292,0.87315711393981,0.875241906388299,0.875084100394072,0.877038221021148,0.957863284635878,0.904682913620526,1.00807274153295,0.850717784689917,0.84870029902613,0.849043860921792,0.851969639380612,0.850411221206968,0.851236932926277,0.847837832869437,0.848028172758449,0.846269378910517,0.84573390162326,0.844430921442593,0.84475425625483,0.843230068380186,0.84322112041632
1.13041493723875,1.14748288351551,1.1476884720057,1.1479327457088,1.15013326208708,1.15208149706563,1.15799874405127,1.1693959186314,1.22178564316432,1.22188624055929,1.23491674998325,1.26936614487533,1.36777901056982,1.41927418313814,1.4197598693514,1.42022375499807,1.42275359947001,1.42527163304963,1.46646565218853,1.51514168090399,1.47949005124741,1.45183805079205,1.44869508332495,1.44644514505436,1.45262964526665,1.45745767324695,1.46167968178642,1.46679389049656,1.48742865832122,1.50451559411573,1.53652038649189,1.56712515195191,1.58949353156097,1.63967568474565,1.62051126984315,1.62923091232302,1.58365313065369,1.55391248183056,1.54138968533851,1.53250608024188,1.52283737607393,1.51254468309452,1.51499034332351,1.51711169109509,1.60858384926227,1.68481497808688,1.60599398968997,1.56967748464556,1.55317394714146,1.52886277600559,1.52849389240111,1.54732814895559,1.49280297877428,1.47904179714309,1.47752867734277,1.47674450903486,1.50099656560463,1.51450896146419,1.55195857780223,1.60927775854812,1.58532246536906,1.58899712371341,1.5385960882429,1.46296953116477,1.46426157160629,1.44336205711633,1.433423312211,1.39751538394319,1.39696316936394,1.39763587674605,1.38404480853571,1.35160203360317,1.40461926791935,1.46781215202542,1.49265513567724,1.57379142359941,1.49576860426393,1.48135905943934,1.47419280388549,1.45385581621509,1.41957038264266,1.39780506927811,1.37060723613198,1.34024580657287,1.33353358778895,1.32735440069939,1.25412084667171,1.22741325919093,1.23875697816146,1.27212826277171,1.19149501503823,1.15280858106541,1.1355068879216,1.12177604522049,1.10403363554473,1.08357938120095,1.07770326946819,1.07132757494519,1.0551865638134,1.04145228239831,1.03166239180791,1.02211991643892,1.01833799821459,0.995515980860015,0.98766015322012,0.959536800863729,0.946120426694789,0.930245944660025,0.928365341901269,0.925770141955394,0.910983295181288,0.852491660084969,0.851119476507429,0.835526939250316,0.828673136485663,0.79101138858297,0.803367133427794,0.800328791458144,0.807904955602216,0.820282405284625,0.81993486068052,0.821005354305243,0.820216913305535,0.820999268092838,0.822478915648544,0.823301902107174,0.829152049177173,0.829775042962022,0.8268692069482,0.824270515467336,0.824828054895119,0.824269078706285,0.898215065914188,1.06696584725781,0.896218002705622,0.848967587388673,0.848771517510785,0.848635623186917,0.854065251911472,0.855730097947708,0.858075708275529,0.860495282120551,0.862229264917751,0.86358834696938,0.882042662877367,0.981517410677423,0.884740392598975,0.872076022837049,0.872870783983411,0.873410669543255,0.875087449622218,0.875004472118999,0.877276878128689,0.878122262274724,0.881338834268635,0.883862590193648,0.851301854171489,0.851652976925716,0.845518540392205,0.837342401777282,0.838613758448306,0.838417218421398,0.843471712605274,0.845308620256109,0.845150276597459,0.845364388345929,0.84436324919971,0.843443541385877,0.843325952086624,0.842670951301827
1.11424917918421,1.11802586736629,1.12093113874693,1.12340330670756,1.14093435327589,1.14777495767569,1.15169612210492,1.17063969724819,1.22156723328859,1.22057726530429,1.23387741968579,1.23063939604475,1.31839238413419,1.35856190201592,1.34694045868688,1.33499834798981,1.34184385190996,1.35486826208968,1.3747142260691,1.39733281033726,1.40316948848791,1.42487112501821,1.41665505424226,1.40830033830135,1.41160147707051,1.41419608628425,1.42092095201205,1.42737263636608,1.42309697675056,1.41943138036804,1.49708517392518,1.52626434939279,1.53310927156011,1.54588816119555,1.58460612128635,1.62806725089372,1.56938141034625,1.52136416385722,1.52277850436974,1.49126734455763,1.49052675851088,1.48308905969998,1.48567049506418,1.48792030325588,1.52332439070555,1.54423960492197,1.54365933127553,1.5431050602628,1.54244980613643,1.52977185912557,1.5309264064006,1.52063954618301,1.48923910589849,1.46486874070243,1.46462892242091,1.46559142146404,1.49042999519188,1.52415367272365,1.53775207763523,1.57045930058574,1.57418451630869,1.57808672808946,1.52419363543008,1.47048838847247,1.46552905305729,1.46992897393669,1.41898359769648,1.35947697176642,1.38358392639616,1.46535385943155,1.37425951035468,1.35080575263559,1.35867114453327,1.36557255264095,1.37483439325858,1.38843851580647,1.38658945356882,1.38510423306372,1.38588929868258,1.38676717539626,1.36315874281703,1.33999164362835,1.32165018139364,1.30443152273535,1.30381660218842,1.30319245815702,1.23293019529517,1.21182313545947,1.18521784596329,1.1589385515767,1.13601694774271,1.0951032709674,1.07546715202323,1.058637779616,1.06542251225529,1.07387988963075,1.05120915415661,1.02360929585044,1.02386873839009,1.02465279241968,1.02563581066572,1.0265014251158,1.01625293578652,1.01523023435386,0.978705593396175,0.947798027025392,0.939366074862969,0.924230891613099,0.91686871422631,0.9135063067046,0.904869749402687,0.865612638803977,0.85006583897459,0.821309349715357,0.813591571816366,0.804917015696209,0.803511282272346,0.80448400144986,0.809191744756313,0.810509596873753,0.822870393799082,0.949151473076295,0.822104462594758,0.822545424251778,0.822990559478284,0.823407225792501,0.828412717214099,0.830601092215583,0.827960454779461,0.824176658223778,0.82522935938082,0.824241103789868,0.876947840091297,1.2444899800674,0.879807919125192,0.848085590338649,0.848061664815709,0.848613920171576,0.850124821690915,0.858238260848338,0.85848513641884,0.859346795608263,0.860999095119991,1.06976312871823,0.892914644936764,0.915173212996894,0.901089639942109,0.990623340230438,0.942308619915089,0.996706672913176,0.943085175650682,1.0078944927813,0.856029634299259,0.838460595309241,0.839152949198865,0.838864005293621,0.839811255157671,0.838955371202034,0.841608511006906,0.841029623953522,0.838438948378936,0.841082295529805,0.841230480688196,0.842603612255613,0.843209655494285,0.843258355327657,0.843058540702605,0.843125798641401,0.842459681124398,0.842412168571576
1.10445506886945,1.10999141382468,1.11375463412206,1.12890050826905,1.13606043252748,1.14146768241918,1.14646996820307,1.15790397914966,1.23143612514152,1.2334555813447,1.23583338373113,1.23836050058219,1.29132813523775,1.30261321509834,1.31056358513949,1.32449819761801,1.33389960209664,1.34106250710767,1.36472228744448,1.38062148925408,1.39228278488907,1.41304012776189,1.41241286430679,1.41152782397262,1.41254121595442,1.41488111453258,1.41804273165259,1.42005518380579,1.42056609636044,1.4201736780283,1.46745627143098,1.51948796006209,1.52595695226241,1.54851955673325,1.54902354945386,1.5487797751053,1.5488937408466,1.52247046207146,1.52313241721483,1.50851487321571,1.4886891018633,1.48598429877503,1.4861453957858,1.48705852579233,1.50162955036631,1.51042518057405,1.52106765052254,1.54343052532769,1.54262237172008,1.53964454867127,1.53500253753701,1.52821688335561,1.48395279716797,1.46364680747119,1.46405130228731,1.46446292591517,1.48475916273519,1.49043214329517,1.49527359878986,1.50098872003922,1.52847773654682,1.52723263273608,1.50760837058581,1.47523366697292,1.46182753374835,1.45973901875984,1.40032324539812,1.35816118217761,1.35621965584085,1.35362764741614,1.35096638900431,1.34902926578686,1.34603458428379,1.34460959400211,1.34463432770166,1.34581278301228,1.3440311396576,1.34245071628292,1.34056740766853,1.33914190832021,1.32408869211871,1.31149291218304,1.29655380681076,1.27729767710408,1.25271581321186,1.22691056389001,1.20058943261607,1.17628930512254,1.15325125604835,1.13185045874856,1.10991838932395,1.08123808697495,1.06870184467123,1.05230181884961,1.04508435616408,1.03668515329542,1.02913346829524,1.02236198173271,1.01540928232769,1.0115493534188,1.0062254449365,1.00086494513378,0.996184577905519,0.991165169513436,0.9713974243654,0.952511861779266,0.926666679293696,0.916807181443938,0.914336635011064,0.910433113588465,0.89733069212595,0.853194443383682,0.849300570396578,0.814195041877344,0.810407279295084,0.804456641031188,0.804222316554513,0.804627431481165,0.809271471691733,0.80976267796736,0.824888952331513,0.824020928872898,0.823078696123914,0.821992630151856,0.822598209499557,0.822646837035934,0.829589412198413,0.830400368870618,0.829777955678404,0.829388309778567,0.827110355465095,0.825751425283016,0.833597532590252,0.834843295538681,0.843625907980975,0.84299627167025,0.844556352438831,0.846849426096319,0.848885419077829,0.851691322843143,0.855032810420186,0.858350568593084,0.860465538487122,0.867199755166938,0.878215807009572,0.886259676065296,0.892788163871961,0.914279737214408,0.928907882629336,0.947930670941592,0.91872403156907,0.895155020116715,0.848777105145059,0.839280812575676,0.839798052283039,0.839826831032342,0.840104513054329,0.840687792603346,0.841126592724162,0.840371435612143,0.840015099784264,0.839004905893556,0.840511426674153,0.841316322414608,0.842017715785512,0.842210856879419,0.842407022315649,0.842196524831934,0.842071144311377,0.841819272997123
1.08926713486344,1.08818089024479,1.10031004115704,1.18082996805812,1.13029276097445,1.12436699083454,1.13783822701342,1.15092355275446,1.23265490601996,1.23588792775321,1.23694895709604,1.23873719526972,1.27631913008438,1.29777676890926,1.3063018902381,1.31497103224602,1.31693954962949,1.31875277625905,1.33985772002949,1.35217734499409,1.3788018668214,1.41324180934018,1.4128984154061,1.41240794717129,1.38905420778463,1.36780775427493,1.38062706948761,1.39427658432599,1.39506073286279,1.39623569652493,1.43812861549154,1.51111677591202,1.52035723360589,1.55005464661723,1.54983069462553,1.5503595434582,1.54896679246051,1.52230466194651,1.52399241757751,1.52580256468206,1.47623600606286,1.46987351108205,1.45383001341877,1.44115418840881,1.45467614794279,1.46498750868256,1.50059042175494,1.54466521473512,1.54457681270293,1.5456681821515,1.53889201850371,1.58454840313965,1.47247006604564,1.46203370159317,1.45212523351954,1.43655924398713,1.43620252003625,1.43597380137366,1.48251405254641,1.48840515955007,1.52733999781749,1.52497249615753,1.49835224007097,1.48143339149811,1.46009861142627,1.45630629524617,1.38570334266484,1.34016785811469,1.33366219381995,1.32299314536057,1.31563472895179,1.30823995540578,1.30920101972467,1.31057972585532,1.33059695579167,1.34840370152885,1.33675396115484,1.32280607945571,1.32955440131202,1.33731077767343,1.30263924920658,1.28431671397757,1.27266404130358,1.25721030065287,1.22236691698417,1.19596905096245,1.16370936182116,1.12857857047077,1.11632629863948,1.10622814597442,1.08454569233033,1.0608915358327,1.04433137359346,1.02078693742746,1.02559193430415,1.03041265117453,1.02401144227283,1.01981167677894,1.01354277917008,0.997557947954362,0.994191434290652,0.991174310669833,0.98832826999144,0.985314067433428,0.964770958049402,0.957804301652954,0.918673608142267,0.914355284542349,0.911752008942744,0.902255086194119,0.8910381483645,0.844653411924817,0.848159655501621,0.796969798508861,0.796708438246782,0.798524899024674,0.802447243929917,0.816028669538464,0.812703007985129,0.813423907609497,0.825030025125326,0.823826413365159,0.822711303956457,0.821117502051459,0.821141104104275,0.820587385672788,0.830946415247229,0.8321092252719,0.831783530517127,0.831866906003466,0.828677670313677,0.824275543329627,0.831096252256609,0.828427351054264,0.842591458543576,0.839802202425607,0.843007958829558,0.842647794265142,0.845562923521139,0.845069145352625,0.846313014416777,0.84786310318996,0.847342714480706,0.846105030150194,0.846024318662173,0.845143603933002,0.84556705721081,0.845071477216219,0.892713630678259,1.06797024010709,0.888494513663333,0.838548377342519,0.839697418095675,0.839403204602325,0.840547014224486,0.840277316399496,0.841026647528488,0.840515713516772,0.841670040883274,0.842123881105904,0.839792481554443,0.837517529464889,0.83923097132847,0.840475733072569,0.841060403761945,0.841879313167294,0.841663230227246,0.841935247224061,0.841390780881306,0.840828192856639
1.06361987173442,1.06640900394427,1.07316708509589,1.07971133135388,1.08392889743776,1.0824777884867,1.1287259884965,1.2416579777701,1.23891645975914,1.26082202647242,1.25252003606342,1.24824958063941,1.25843494975205,1.27011137606828,1.27792108919985,1.28827114966586,1.31145579598994,1.31496316094023,1.33060467890566,1.35480246197976,1.36616159616104,1.37470172600567,1.39297734003725,1.40731842019705,1.37407485527984,1.35075915885996,1.35694365681659,1.36234313136112,1.36853946848525,1.37913830624347,1.38862228718005,1.40986704155935,1.5028745444016,1.55635411666985,1.55109924409113,1.55047050988771,1.54887359066607,1.6097613100459,1.51998837747261,1.47281835937482,1.46316771076868,1.43743601796166,1.43982529694702,1.43985486092609,1.44903293253787,1.46297455133877,1.46714706082262,1.47066104573358,1.50621801486597,1.57188314003563,1.50344668223353,1.46423751806317,1.46748318484524,1.47135773571827,1.43700014897051,1.40069206936674,1.40910974592676,1.42691274780351,1.46405955614801,1.5370082875898,1.52655203491129,1.52274046658187,1.48544254226165,1.45872484486605,1.4310888325069,1.38258894227619,1.37215074053857,1.34127378111496,1.32782321313849,1.2785534723573,1.28673201839627,1.30388901596317,1.2885327606936,1.27475679152719,1.2828917641137,1.29037270502085,1.29861027139964,1.30792992156638,1.28079425382782,1.25998507799952,1.26271534996597,1.26544447429992,1.2527208672772,1.23196819460562,1.19008022136522,1.15695782859638,1.12971898297807,1.09378207682771,1.07383631088408,1.06665294629326,1.05235510454709,1.03651988830927,1.03482080174925,1.0078990620105,1.00275888198014,0.982724764310163,0.982818803911656,0.984757134656853,0.966486742813572,0.948739188941913,0.948551841914242,0.948638729213342,0.948468561793442,0.94807865245511,0.938542402919145,0.931555536968619,0.91363539371564,0.898328788760021,0.900417285435287,0.902147050030245,0.887025298683111,0.878610752719978,0.850013323306871,0.796179724118936,0.797735816962258,0.798097819063735,0.801263602084974,0.800560257749678,0.812083732148869,0.807348629471029,0.827450642516465,0.828442469064711,0.82658585417438,0.81799617267749,0.824934986594907,0.884488188848588,0.856320157754188,0.832434672079057,0.83234029121128,0.832438213651528,0.829644796624796,0.828046092093992,0.828893898919183,0.830286932279444,0.841694287363016,0.840586057483874,0.842195452791507,0.843487293968915,0.845580699002212,0.846761825803527,0.848070318968361,0.848570885456011,0.848420888571059,0.846685180520461,0.847156611062352,0.846247808684634,0.846614274352394,0.846420511438814,0.847603472251249,0.837260672260801,0.839347474042816,0.837126026834974,0.841170443811454,0.842851667509065,0.842910678043799,0.843221404472226,0.843182922735916,0.84331790717443,0.843106149769951,0.842587949563214,0.840604399740314,0.837284264338829,0.839279541746802,0.839496603846007,0.84075379890143,0.840630684463994,0.841177861218914,0.840386328924371,0.841087124219319,0.840709082562508
1.06073199131141,1.06699043076756,1.06709384094678,1.0894136363001,1.08685136924187,1.10512023519221,1.11571414105819,1.11741627462028,1.19798050883841,1.25949817167635,1.25599965538918,1.22195756839983,1.22822173997638,1.2356062205241,1.25321798057478,1.26240362172643,1.30738784143045,1.3098346208716,1.32381430312971,1.33014090096309,1.33865611133696,1.34817654961884,1.34483364054333,1.34412242046782,1.3454499517295,1.34810976513169,1.34784225649612,1.34838185050651,1.35046013658228,1.33731365199209,1.37683913014775,1.39322393143399,1.48259788002011,1.527609070043,1.54671811314753,1.54309875981671,1.54505077833852,1.54364042357805,1.51649839222184,1.4596092103264,1.46003892065976,1.43535363377896,1.43879749051075,1.44426064971849,1.43946441593092,1.43004303756913,1.44774354188949,1.45340083941306,1.47583499369683,1.4781858514399,1.46211941737748,1.44140652460785,1.45417848322693,1.46499337136491,1.41936930523429,1.39515174390356,1.40260491685293,1.41400101036358,1.44681322155014,1.50202957650037,1.51650701622615,1.52362317783273,1.47580893889306,1.46785505448965,1.4178116173848,1.36472425170246,1.35961233143796,1.30718427766397,1.32040723449075,1.35467302215084,1.28045424654737,1.27042379835144,1.28436282065395,1.2986067768314,1.28108982861884,1.26803458513834,1.24355472829219,1.22047603466007,1.22185548036685,1.22270107709717,1.21766045047251,1.21251138485758,1.18362137077385,1.14477940739276,1.13074056745371,1.10355349755522,1.08667590448574,1.07850189692925,1.06501231402278,1.0549140503884,1.04864263220847,1.0362223801091,1.0329398724799,1.03118924833862,0.998251281300106,0.99433924884386,0.976397673450014,0.965974433171803,0.954117059162419,0.940147646139911,0.943592762926376,0.9655335510845,0.940644502203387,0.935076673647904,0.93331070634593,0.894435310042941,0.893391570010846,0.85384938086643,0.871825900395015,0.881140948832565,0.86979205912162,0.858012178769705,0.850763051011663,0.797260674070566,0.79679906436745,0.79692886508634,0.800467922055928,0.800760788591532,0.814068613059694,0.814090529508781,0.828941705371512,0.831502839887469,0.830952229838634,0.830599986156313,0.832017779460029,1.32203475921188,0.9102903100645,1.22252474786814,0.83296498721286,0.831389316505161,0.830693953357986,0.82822028532599,0.829451800012993,1.25526608543695,0.841936786422568,0.840108186680997,0.843561081117354,0.845687498799212,0.846989030883764,0.848030043786304,0.849291137612552,0.850738778305784,0.850185216858691,0.850905388370952,0.849206274122394,0.849536019134113,0.848073794918639,0.848218178214793,0.847701072135102,0.845322984180467,0.843534436420572,0.844298559183,0.843293912016248,0.844716847203132,0.844282021947862,0.844939572380856,0.844054497934131,0.844889803216084,0.843482972834076,0.843745423544275,0.841222245349324,0.839994869657218,0.839697070478138,0.840197819962057,0.840437982766457,0.840707175678258,0.841057353773288,0.840542985723174,0.841522880247806,0.841559220185659
1.05158275696895,1.05838490120123,1.06266705141098,1.06892776594852,1.08657428568364,1.08148903207822,1.1135515335497,1.11907076567384,1.17879350442419,1.28134134151154,1.27819839347324,1.28142897310291,1.22277221398107,1.2058015434758,1.24691128212458,1.32272089279586,1.29888730177617,1.28581750820445,1.28543115889827,1.2860247327127,1.31338816478708,1.32169628319109,1.33495875734563,1.35589637633729,1.3428441042792,1.33563089545662,1.34348627653403,1.34921315209725,1.35056817452503,1.35068734203946,1.35045730440153,1.35982200419965,1.46005804202376,1.57989899094482,1.56747249197259,1.57921447425485,1.56869659923482,1.58284695440334,1.51311501404112,1.45350707207885,1.458533080246,1.43434921325671,1.43743883406748,1.44485519869104,1.4369526721265,1.43373893134622,1.44160094045657,1.47234801815776,1.47262998698972,1.47229616075445,1.45623093485676,1.44544390903546,1.42806717324717,1.38250208481428,1.39654634399611,1.38920723108791,1.39608466865271,1.39637765434422,1.43213286226118,1.47194780509372,1.47802794284582,1.48439609084622,1.45214347139137,1.43466707877055,1.40332020842508,1.34243673292079,1.35286615655644,1.36135746196068,1.30813636625613,1.268319957928,1.25059057858445,1.22030653805116,1.22263778437421,1.22530922076929,1.21664499197284,1.20784202218496,1.18656880749464,1.16150833417002,1.17020578676691,1.18048268648455,1.17169178026469,1.16530772685184,1.15966239607379,1.15435191978406,1.11085230416069,1.06184978271477,1.05139284103092,1.04728011325043,1.04312854012125,1.03738024236691,1.02432674905233,1.00831349170281,1.00290508534515,0.997921676619982,0.983450275046099,0.957813325763319,0.950278094350549,0.943956625611858,0.944479887948634,0.944883715961049,0.937414191794095,0.921080637123442,0.934035416032036,0.939519765570846,0.931326898014897,0.888185243647386,0.89127538709927,0.856911958213056,0.864442228329554,0.890957942591551,0.852886224560449,0.80411767511405,0.850507305243979,0.871524943540402,0.825175622554576,0.796592610511456,0.815510114311596,0.830709499739809,0.859721435539155,1.10828676672924,0.833923072849461,0.830118899652491,0.836537196474181,0.84770291445888,0.849401682280619,0.848528574399826,0.850529124998135,0.848530810265198,0.832670567954897,0.832865783789979,0.831090053845493,0.831550989264761,0.831113675517601,0.84241419034337,0.842876795103879,0.845634235882827,0.846062736371464,0.847787425409654,0.84759101768487,0.849135242746617,0.849342150826575,0.851220158006262,0.850243257120609,0.851063795318672,0.849308435968218,0.848803695569337,0.847894840209802,0.847359216835548,0.8469194606651,0.846553397727065,0.844884645135162,0.844780062994231,0.844565018377488,0.844810589194748,0.844769597990823,0.844396586149618,0.844089692520816,0.842995218441362,0.843321347329871,0.842293844489189,0.841728374817303,0.840361494215669,0.840483028060388,0.83997892047196,0.841290649139414,0.841409951353298,0.842278951091302,0.840534503352187,0.842913647560873,0.843273219975278
1.04969352838221,1.05202161087799,1.05399968425442,1.0768502839523,1.08988825664019,1.0880205718833,1.11035008119267,1.11124311967617,1.16020079985837,1.25911487358293,1.2599092361174,1.26131624048036,1.21889108014294,1.21782458022538,1.23952378517758,1.24780556769116,1.258747110402,1.27167780500516,1.2800550853982,1.2971585189016,1.30598745245166,1.3085972112575,1.3127964278336,1.31576687217458,1.3209638842615,1.32690597394504,1.33313893064665,1.33851044756363,1.34355707012646,1.34782154850315,1.34950821340863,1.36022392997433,1.43566073267225,1.53127913807455,1.535540089663,1.54399186542538,1.52735842268996,1.51149649807651,1.51008016689353,1.48142129713426,1.46119711344323,1.44513753210146,1.43732965074393,1.43657253369527,1.43636733553914,1.43662380620491,1.43837703068382,1.43956973461512,1.44013998967146,1.44054738213457,1.42961664623172,1.42059316919534,1.40983687216748,1.40297701791523,1.39992239334603,1.39702873281282,1.39564970651622,1.39650188454467,1.39750622709003,1.39823598813061,1.39910802389484,1.4008584965047,1.40295430583155,1.40779763786973,1.39028216237181,1.33986127226595,1.33303219024561,1.32343349252284,1.29280874406648,1.25068169433931,1.24067969040072,1.2183670910598,1.21022654093218,1.20148541271035,1.19180425906797,1.18157343054733,1.17148065459398,1.15692453906343,1.15429921380024,1.15205132348344,1.1495836419988,1.14680057029992,1.12528741660467,1.10741625467461,1.08748097300488,1.0517184163999,1.05059838403493,1.04609312324645,1.03148352940427,1.02336090073426,1.01393498655019,1.00328733348531,1.00021035028696,0.994563780699609,0.970794046854825,0.95127230525116,0.948810604096568,0.944422771375925,0.945581342635796,0.945134966568591,0.933975883965766,0.924055219105767,0.926862162547968,0.92980166991365,0.929238560314816,0.909615975843703,0.89269571987424,0.877781477627904,0.859704471567133,0.850271106393514,0.837006988617879,0.826329348207785,0.849373378951297,0.849814246355124,0.854659802106673,0.856734103104736,0.858393972252483,0.859863475223042,0.871561675202166,0.920297669230869,0.851123987755984,0.850363618859777,0.850794429294613,0.849671487717243,0.850436716240298,0.850792925688056,0.852114354596016,0.851768984961487,0.833378229135368,0.832032852550574,0.832598535322298,0.831908704311602,0.832862405394506,0.837524895117524,0.840413624498328,0.845109317051487,0.846159084098355,0.847031447480093,0.84746234221149,0.848089714249934,0.848825739005231,0.849416876821302,0.849462247189028,0.849227713185079,0.84863308929501,0.847969112438352,0.847350413459473,0.846709286899884,0.84640272959501,0.845707056327826,0.845357566883075,0.845048978863507,0.844979907832578,0.844883530923483,0.844885659670835,0.844589877955398,0.843876385738401,0.84351849346284,0.843233475899184,0.84273715199387,0.841808949787569,0.840893920052866,0.84050180526313,0.840684535375488,0.842679205586112,0.844125424725886,0.844366008028912,0.843876341069943,0.845010604146192,0.845612197912159
1.04805472373619,1.04791331308173,1.04860833618159,1.09238281728326,1.09201636489806,1.18001553651441,1.10807643528242,1.09737642177671,1.13892675186986,1.26019509713297,1.26113461867823,1.26458004816951,1.21778227296561,1.2173592826677,1.21855810042779,1.21967554440828,1.23769703600701,1.25034268990297,1.27595476965656,1.30683364184623,1.30433637773548,1.30047285136605,1.31279797886431,1.31214415000325,1.31336757160415,1.31322547624857,1.31150231273724,1.31025664551573,1.31640900079096,1.32292869957513,1.33442024315143,1.36073170747972,1.41049154279613,1.52331271363444,1.5311489873697,1.55350648723784,1.51523971221835,1.49348568011895,1.50727045280024,1.51379236880581,1.46195764555057,1.46107718568954,1.42501453019219,1.40801923170411,1.42159992907206,1.42683288243496,1.43347545124694,1.43885711226471,1.4402754536508,1.44087047185913,1.41609296906127,1.38421575600186,1.39511171472245,1.40495929532559,1.40373876429002,1.40440575474093,1.38026336886879,1.35929982777947,1.38361434214253,1.39752178971444,1.39784093501407,1.39632578165154,1.39942882299852,1.41286512719074,1.38218484142463,1.33896557404249,1.3212128275794,1.3042964286752,1.27804124557787,1.23663948871913,1.23240119307284,1.21702586207624,1.19623210453027,1.1758904724414,1.16017959028412,1.14101969940054,1.13999815889672,1.14039495343452,1.13558553271774,1.12838693217042,1.13673129915094,1.1429272069748,1.10236901265531,1.06136697584564,1.04998885612676,1.04287348458816,1.04443191466204,1.04531429112854,1.02365941555017,1.01408735666815,0.999306618312049,0.985251535235182,0.985661405970578,0.985664815666566,0.957600695376855,0.94325945191154,0.937100545878928,0.922503275115815,0.934437529554919,0.973332861131865,0.906827338994,0.888585773408825,0.90994790746603,0.932384022440194,0.926203874650677,0.923272694100763,0.893991530038445,0.895300766876767,0.848713327786399,0.800206141414372,0.806397022844323,0.798817889928947,0.847152864686298,0.844546440318907,0.856480672651936,0.858069518200621,0.859512861308663,0.861356502834052,0.886821125902737,1.10549887187318,0.849414776943665,0.847283775946958,0.84874995088427,0.848309046703398,0.849713984338221,0.849496746974421,0.852380331895046,0.946692120442939,0.83305883775085,0.833272037349947,0.832001911548978,0.832802337509492,0.833955191048676,0.834134224206559,0.837501893243322,0.846166736291089,0.846520976637287,0.847072540376529,0.846781480732129,0.847643660263854,0.847889039422793,0.849172319991795,0.848342762738674,0.848425101490633,0.847668264053829,0.847297834817638,0.846650487339504,0.846015099120241,0.845809844626516,0.845492302563355,0.845344942491565,0.845218427803747,0.845185057363739,0.844432756723067,0.845227503284296,0.844290358164626,0.843803229110107,0.843038852475344,0.843195363864819,0.84272470588624,0.841641758629285,0.839872434967327,0.840011276931241,0.839226040121163,0.845617166000803,0.847619991938882,0.848152019369619,0.85050972948391,0.848275566418149,0.84814537310799
1.04671584953209,1.0416429797748,1.04535831732975,1.07393799990756,1.0779766999176,1.1871138464277,1.10336732335815,1.09910395248586,1.10514351593209,1.11222421000865,1.11703848727629,1.1195126166118,1.16558672595575,1.18665100542943,1.19123077728321,1.19584712811079,1.22205572627424,1.25990513723297,1.26988506346045,1.27688268488115,1.29033912868277,1.29378401159297,1.31153351751565,1.30649107652348,1.30398222857207,1.3043571366262,1.298778881525,1.29296003116056,1.3005505718828,1.30341181878272,1.32630669854306,1.38721692542378,1.37399144125614,1.36466859870431,1.47500419070611,1.49163173545348,1.49713103823691,1.50516078488105,1.50478119946584,1.50320611826388,1.44225549298117,1.429458510133,1.39486447361289,1.35813849843183,1.36349585864806,1.36868258169201,1.39416770687869,1.41616462362027,1.41472772193892,1.41340945740882,1.40587142089865,1.39573873757477,1.38377449588442,1.36245347089924,1.35972222607841,1.35677705930079,1.353332306585,1.34976133186573,1.37224451063305,1.39756523213382,1.39713116242007,1.39658370939707,1.39839192734278,1.42761521648808,1.37306362945234,1.36455500789621,1.30592688092693,1.29537288555252,1.26287031864758,1.24952087978604,1.19163067324666,1.14158893360663,1.13839864889061,1.13535385510302,1.13326192098708,1.13107815384944,1.13152519170399,1.13176443084549,1.1200103856458,1.10542230852469,1.10374625748827,1.10173545744229,1.08207055769927,1.06621707687723,1.04340433255606,1.03697927985384,1.03612609749758,1.03670693861365,1.00865577013911,0.992394749122881,0.981708455111172,0.96719403320918,0.948795400558352,0.930948390352696,0.933191034102584,0.935470138723188,0.91657978753273,0.891310893644688,0.892160218436894,0.893391796443875,0.889783272819758,0.884674493597729,0.872140465569202,0.853361815064774,0.854266860358083,0.826718818726488,0.826395110946752,0.825493838379608,0.828666524122702,0.821434133366191,0.811311644432555,0.798203319030561,0.85929857471681,0.87894508212847,0.885430587867979,0.890995403882225,0.870063919555588,0.932769983713993,0.907819834602341,0.950277990399516,0.847721535519495,0.846164999537474,0.847423654563462,0.847195159032501,0.849031040034641,1.11301773981831,0.828443326038099,0.819459103379799,0.819540128284781,0.820293611631466,0.832149639164924,0.827332942824725,0.835683959477899,0.834180851024112,0.835733918961522,0.835525079102083,0.845186455500548,0.844240955117285,0.845368410721821,0.845243307030389,0.846643982886055,0.846293692139236,0.847123411585704,0.846335713929251,0.846783810781682,0.846091158776494,0.846439060095522,0.845588193078542,0.84623029884169,0.845456770398849,0.84621201978297,0.845485381488881,0.84630847201207,0.84597743091211,0.84652329188751,0.845159519069319,0.848628884007517,1.06389634661372,0.876371059255789,0.910307596910571,0.877556936218832,1.21185189786362,0.890499522939741,0.914809443954275,0.851299958215835,0.850116910056134,0.849475818201015,0.850052250370701,0.848946453850021,0.848687191334896
1.00585015712339,1.01339341772471,1.03076129326048,1.03797783363188,1.0548767545443,1.07349861744851,1.0739251685565,1.07454217670539,1.08639948509318,1.09949593241871,1.10729525972542,1.12912820385737,1.13843235994388,1.15738050016062,1.16693421912518,1.17809263302888,1.20165048401253,1.23219045788744,1.24012334714428,1.24474030141083,1.28352813115167,1.31675048710121,1.31505352128354,1.31559053239281,1.29601944524829,1.27829718510195,1.27789595103988,1.27725325821966,1.29690461989041,1.2926227120482,1.30865047397476,1.32178436877569,1.36560070103923,1.45276607477003,1.46351031442152,1.48869919944217,1.48409386872678,1.47961768510823,1.45021336741005,1.430602428076,1.36923150778062,1.32001628116583,1.32202658288085,1.32398120123475,1.34248655434416,1.35550743885252,1.37616155269158,1.39777849301325,1.36933787867561,1.3493814990345,1.35119375125462,1.35300107047831,1.32744393573457,1.29955648165704,1.29006604992824,1.28139790162073,1.3254034380865,1.3456448507359,1.35827737937355,1.39828606648422,1.37018424804313,1.33757255316182,1.33812911071501,1.32332788770532,1.30968147235817,1.30136781076257,1.29716266782927,1.29336988139658,1.25478561235521,1.24211100673017,1.16366202132241,1.11578889068343,1.10313855857655,1.08899009701482,1.08751336014261,1.08693046293888,1.09377309570726,1.09968814026645,1.08337133561827,1.07391567635635,1.06464624347392,1.05722153615237,1.04460562528346,1.03646157007686,1.037047192996,1.03740717397976,1.01752959418859,1.00201843561661,0.985659793395175,0.970155812005389,0.959077620756909,0.926612847571833,0.929692233072301,0.93296867032571,0.920388748884096,0.901856775851842,0.896459003084663,0.89210868315651,0.89215431149415,0.89296462753774,0.876931593106109,0.859912969281865,0.858928414938021,0.856380276236774,0.855209239004223,0.826952080041205,0.826331199915598,0.826099280779626,0.830152314186585,0.963373622880247,0.916983725523189,0.930693115274402,0.909718752102401,0.931908715042139,0.897842748326248,1.11598398485035,0.858781282818281,0.8427266643798,0.842963830086846,0.843758553020872,0.846007050333307,1.01174300041753,0.83420773159614,0.820794067390909,0.821102534578026,0.820651451096749,0.822924263032861,0.820205357214422,0.819657295201529,0.819745346103497,0.83494744131008,0.835699203303793,0.836638546362174,0.836205624561506,0.837543784647966,0.838310238213747,0.843216453043018,0.843937886829793,0.845208429637794,0.845176762371929,0.846284026284351,0.846475749137201,0.846523798711451,0.84613289598511,0.846303743948255,0.846206956586553,0.846522246034231,0.846792244316681,0.846729369468081,0.847228637833045,0.847124652068665,0.847664571957761,0.847979886311372,0.846904916769249,0.848935123341872,1.01307593331167,0.854801418855122,0.854221323566582,0.854903413312996,0.855555153765951,0.8563285716315,0.856905376724056,0.878549912806929,0.904781515174716,0.851037054175713,0.850188077688965,0.849254070199898,0.848389008407506,0.848568613992295,0.848215972531689
1.00113136228314,1.01207913990908,1.02298075618701,1.05475053965309,1.04658280347936,1.03841730749513,1.05010412844901,1.06057730196581,1.06382369029843,1.06462742755832,1.10466118169222,1.10755713402166,1.11691479639984,1.12987422925159,1.13338332779374,1.14821109287512,1.16197747519715,1.17817568232134,1.21965460801692,1.26576897520484,1.27658755682324,1.2796899407288,1.29543574801311,1.31335812938565,1.28697373593221,1.24583934579046,1.27743071608211,1.352045935034,1.3272787092144,1.35152148165407,1.29992423621165,1.28380120942987,1.36025004349708,1.3677100891271,1.45454874019007,1.45593547244842,1.45750656736464,1.45914708725482,1.40628542258347,1.32509600132264,1.30623741208603,1.25392092964309,1.28048593649295,1.28379296285882,1.30280099586763,1.32678684923201,1.31633972502794,1.30628793357675,1.28624289418,1.2494014847352,1.2484799614509,1.24071855312486,1.25714176284314,1.28064901646644,1.28096126369582,1.28159529875017,1.30555902834758,1.34584295868659,1.34751226669114,1.34942889270142,1.34908123736681,1.34898507006415,1.3396738723693,1.34203444770644,1.29778756883474,1.27145665488162,1.26035273799293,1.24556156175698,1.18750044794482,1.12519061244505,1.14053400304086,1.15772092689328,1.09490390723184,1.08506910374281,1.0795785948139,1.07451652300178,1.07000728233422,1.06306937817064,1.06236050877253,1.0628378719209,1.04729043215852,1.03497415164168,1.02946132995402,1.02353269718129,1.01468026878126,1.00113969104095,0.989512697950072,0.978692165752338,0.96484194787945,0.956962216530178,0.951368573315963,0.918116863587547,0.918539683778943,0.918095855412206,0.914971443601629,0.899961082413328,0.891440538887047,0.866031537826856,0.86169246654054,0.853837710652433,0.857200010835665,0.859364549019162,0.860212156278147,0.971699112489162,0.876269958233496,0.835525849223627,0.836700098077044,0.836932331869353,0.838745431624524,0.930941251498132,0.905474159305356,0.89447309681732,0.885764601255624,0.8620662472394,0.857004171649764,0.850117212550992,0.850223142945491,0.841987707425914,0.843776381115632,0.841374026130241,0.841215224453784,0.826167239983108,0.830025996150316,0.823398414527119,0.821867832718353,0.821548563364123,0.827166153962974,1.13236404048612,0.915717412956576,1.18631027529345,0.840837537956201,0.837977101866384,0.838534661519528,0.836093122278362,0.840261814776413,0.843532850224825,0.844239857687929,0.845648714882582,0.846378768815267,0.846886222277236,0.847666608885275,0.847948481668521,0.84726390670461,0.845782629855906,0.846729922993476,0.847076474757429,0.847511789561647,0.847811782416109,0.847972483318807,0.847296144853516,0.848690615334815,0.849063955267445,0.850295674999909,0.853032751676824,0.851914824118131,0.853667007496497,0.854208234662183,0.854539935390998,0.855146948819455,0.855741161933177,0.856588116465534,0.857533365425581,0.857218747436005,0.857083762404446,0.850983948815366,0.847784222005741,0.848707311527071,0.847962011779365,0.8483828879525,0.848459295223349
0.996341227063811,0.999924841819779,1.01580575209784,1.02845083497386,1.03161188084188,1.03966683664546,1.0455534164738,1.05011631548618,1.0549625352959,1.0666882804932,1.0994279302911,1.10611529638938,1.11249038310211,1.12089896280223,1.1281323233456,1.1417481330454,1.15314890977665,1.16150575995039,1.20094932154868,1.21568973752928,1.23257000139067,1.24746423851178,1.26041468016716,1.27124785995618,1.27251749925338,1.27454593570738,1.27576465923598,1.28181433355207,1.28484792492649,1.2887481543683,1.29373686597892,1.30050657102862,1.35113485114569,1.40391383588084,1.45295360589721,1.45291626315244,1.44440567520032,1.43735393981533,1.3731272082047,1.30604705212338,1.282570610789,1.26676181506091,1.27670597121444,1.27980123751973,1.2911453820749,1.29731863627107,1.29866410380719,1.30023664159817,1.2724670411901,1.2470876272854,1.24605263326006,1.24268367993838,1.25635149003261,1.26446080087267,1.27106009538806,1.27820433750202,1.28832980039417,1.30013635566742,1.31781203256011,1.34918439767518,1.34904155986314,1.34890007011589,1.30733040567133,1.28577983820509,1.27028833150971,1.26233293687982,1.20613501083883,1.17425549984938,1.14481834930402,1.11814207751535,1.10845052251731,1.09652463997722,1.08826309462567,1.08264267301791,1.07619399756244,1.06794756394337,1.05895946634188,1.05082336025792,1.0434097194976,1.03878084717657,1.03429828615193,1.03191825361842,1.02880922322039,1.02224046256543,1.01016640871086,0.998854203405122,0.981867942048579,0.966809997205258,0.957040904127555,0.947112506439352,0.938710709876989,0.919101346613783,0.918488907160215,0.915021950450296,0.913091171833827,0.898255516482182,0.881479352029506,0.861101841210035,0.860178114661765,0.857516564158533,0.857962736974605,0.85956803684462,0.860460821409478,0.913525063955873,0.89370551401027,0.835962379470914,0.836643546967692,0.836779137451485,0.839796050535249,0.864780197387171,0.868818597873363,0.878623304045749,0.871049052642314,0.856849528188695,0.854308910021969,0.851054312676446,0.849202329590657,0.846777474799752,0.845771369892532,0.841304191821899,0.839985234125491,0.828244672051033,0.831906042530226,0.837761628172449,0.841725573222477,0.8444188086084,0.845692381323285,0.847615811318272,0.847114669691742,0.844572569277055,0.843129681810277,0.840820887286819,0.841394905095423,0.843128977098144,0.843010072557625,0.844393984113919,0.845964352109328,0.847034599673394,0.84802589296339,0.84869024531118,0.848948674763143,0.848993009630908,0.848046302373033,0.847233754295169,0.847060514993241,0.847445698714376,0.847737193552177,0.8485558708834,0.848840686523133,0.849506839993832,0.850064623087551,0.850979612239854,0.851734377132979,0.852719594005501,0.853247040638967,0.853940592916925,0.854243188903469,0.854378430554561,0.854959921049432,0.855620933452308,0.856365993365588,0.856923982040683,0.857005968798009,0.856234361877884,0.851744391961328,0.849615321755194,0.849139614192067,0.848658747650759,0.848950788060954,0.849093155352488
0.991201470376404,0.995264766884824,1.00695933530968,1.02267821574984,1.02848165881263,1.04020203756955,1.03912609523094,1.04012602465133,1.05490161353741,1.06980530479705,1.09252085647622,1.10510044508685,1.10383272985355,1.10301581742302,1.12110464363082,1.13655192855855,1.13891243045411,1.14526852677125,1.19374010945762,1.20391231455265,1.22602008893202,1.23582943182747,1.25665678922245,1.27005463506283,1.27138479597427,1.35527361442233,1.2646897072075,1.24014745918391,1.2434057384932,1.2471165144858,1.28868438720188,1.30573628520369,1.33955492198374,1.45096814160785,1.4515649997391,1.4538147876167,1.43821262571694,1.42460516814476,1.34008666278177,1.26137850741965,1.25032238408513,1.24164962476532,1.22539781848282,1.20529108862083,1.24575187470382,1.29696724347165,1.29903607333792,1.30188198470284,1.25814864725002,1.2395092108439,1.23228061197707,1.21770169665923,1.22374187838101,1.23051439099337,1.23309443061398,1.234603197334,1.25515257303371,1.2715344811712,1.29536147724487,1.34953990144364,1.34899388349238,1.34878080632195,1.28017907516687,1.24675542337815,1.24634498448637,1.2457290454797,1.14877258342064,1.0837166826668,1.07905864430521,1.07378015008173,1.07247801209883,1.07193925786627,1.05603325973391,1.0414558503583,1.04165723032712,1.04158575441382,1.04160280332424,1.04092951950758,1.03357307596541,1.0271316371077,1.02025914428283,1.00763275128388,1.01452183658437,1.02151385302521,1.00467044986345,0.996701932155517,0.971750421289156,0.960569850420982,0.946942440235126,0.934310910697527,0.92592396305617,0.918267457734213,0.919040877123428,0.904610251622259,0.906115522117695,0.896185201681373,0.870451827032536,0.85662729664115,0.843513963311888,0.816484577346599,0.814988550473723,0.81428731879377,0.844308750610488,0.97174696957956,0.908907481556581,0.835730652394392,0.836011843484371,0.836950551110812,0.843244615776855,0.843397155901956,0.864610828606562,0.936867182521866,0.859088120972544,0.848961202678993,0.850114101915241,0.849044588602299,0.849116867412237,0.847367736676854,0.847500070742559,0.832894605321781,0.837670784201119,0.826835701177042,0.837449641223959,1.06322049331528,0.847232056288899,0.844191640691559,0.846308326889651,0.845150334186202,0.844489497926426,0.846404051102804,0.841907998275578,0.845132362739619,0.842082041855195,0.843960338860276,0.845268559699529,0.846285749890263,0.847762584464498,0.84924836926756,0.849855499343014,0.850747190799167,0.850749427017822,0.8502668485852,0.849200786875719,0.847103401463612,0.847476646388608,0.846628431202936,0.848140439413454,0.848677152916406,0.85012544962755,0.850190726263426,0.851830942059773,0.851888123909241,0.85319406682094,0.85367375780914,0.854255198903404,0.854740532968934,0.85438215135602,0.853887733211575,0.854386241293548,0.855368634735302,0.855414055406719,0.858520574719096,0.8562564238222,0.858508050003607,0.849845827408499,0.848958435431472,0.849130057495974,0.8485875280196,0.849453642690675,0.849953707754483
0.984522175893734,0.997969993491826,0.997814473420915,0.996413223103897,1.02304976966633,1.03315030166974,1.03782882635858,1.05124155876284,1.05368010401483,1.07636488541823,1.07823985827322,1.08230094806236,1.08771311572868,1.09529424903989,1.11055125618929,1.13116956147693,1.13581006102257,1.19915389032758,1.18749659517852,1.1630680007806,1.17890846745737,1.19100009016941,1.18342497567402,1.17435824964365,1.18336770226722,1.19148320021972,1.22646403315426,1.2770045282308,1.23478977677732,1.22038535842505,1.2735638397958,1.31340086428546,1.32850488360259,1.44619596687644,1.4498936628466,1.45047404454512,1.43252302576131,1.42505418955368,1.30692560572674,1.23611548198286,1.22571681605155,1.21561750113861,1.19701772213841,1.16632173205359,1.17044178878697,1.1728411774715,1.17321532228993,1.17338886327418,1.16581163768262,1.15924492722064,1.15262423613382,1.14243938004782,1.15166774652723,1.15901756481626,1.18732360890311,1.21526844941492,1.23312110951902,1.2665109255193,1.25575283030006,1.24360152981983,1.24598374154094,1.24795868931221,1.2478977859233,1.2477960058393,1.12541769273245,1.07648895706352,1.07542375004065,1.07583881716072,1.06343513764657,1.05511821441362,1.03895249097323,1.028430313498,1.02441542773508,1.0192296439343,1.02344636461654,1.02650168227945,1.01965115099452,1.01431969477673,1.00886793718772,1.0039251527283,0.999312915464722,0.99439135869827,0.993148786507245,0.991560999184664,0.977764623323837,0.966149555806474,0.958602942976065,0.93560177353257,0.927042980700681,0.91707247081291,0.916157040631047,0.919134186829892,0.917919662293472,0.904871384071777,0.905667575296197,0.918578396298174,0.860532922242309,0.819973670347015,0.827990067581891,0.814216895661349,0.813949416958923,0.814690799462516,0.840166192246527,0.935012658577566,0.93483920948579,0.932936405691861,0.880617546612409,0.827625845738036,0.8452397346608,0.845271560657617,0.846140714208641,0.845972768643281,0.846912332614883,0.848043397395073,0.848545963090414,0.84730089766511,0.848406062527423,0.848494250447128,0.847440060855031,0.847666231633628,0.846629674126744,0.846433522835249,0.847120668825069,0.847274236256279,0.847339604811502,0.846397413457656,0.847082971667199,0.845658581561424,0.844456494595225,0.841702151036501,0.844008084141167,0.84096390762003,0.843535607153165,0.846069028158752,0.847823353607193,0.849792423273614,0.850314244973037,0.851113646983951,0.851821345259653,0.852553089330667,0.852563188707302,0.853643613987018,0.850222162348355,0.848104654901426,0.847322056285006,0.847465250446605,0.847813704691574,0.848988384193565,0.850980911642226,0.854253954659415,0.853211241919275,0.85478902307447,0.854386491031748,0.855567243580152,0.855100441411843,0.85543798924212,0.855007848870313,0.854593945593649,0.853880541889656,0.851702625978328,0.853307819084978,0.851163100954722,0.853038158750263,0.850818061484598,0.850387873937158,0.849453257435853,0.849843814276054,0.850626176151773,0.850555909548381,0.851444445376349
0.98065143638198,0.983496842241306,0.985655741595473,0.98843558300672,1.01466748776657,1.01869325883374,1.02749119423295,1.03772282410137,1.04117318748623,1.10126096055889,1.07570615723858,1.07474477451825,1.0863691761918,1.09216308209265,1.09473674070427,1.09641455728447,1.11030933686957,1.11877842763068,1.12577912423751,1.13556873966094,1.13571118154618,1.13621917570851,1.14427801468722,1.15488100013565,1.14821146384841,1.1413733564323,1.16936558839812,1.18021104447405,1.22968611273556,1.23573571944445,1.25535779958456,1.31393487592271,1.3196581051421,1.39877231664394,1.41621442604241,1.46834714031062,1.41270993800616,1.3939376840703,1.2735912685613,1.20642762258936,1.19510232827788,1.18203217551558,1.18259309618474,1.1830707155187,1.16416980957333,1.15986574710683,1.15519016353348,1.15090515076061,1.13262348293935,1.12084497564637,1.12061307906302,1.12061672663265,1.11660426479199,1.11272717062021,1.1327602454606,1.15130662525622,1.18260932954645,1.22639245580186,1.15113439249371,1.10311232291361,1.08238783181229,1.06966052888932,1.07896558497097,1.06297933022715,1.055258989719,1.05164975486156,1.06116545372534,1.18457370779052,1.05097418991749,1.02560159570336,1.02381236102107,1.02102709159777,1.0095309617076,1.00688987121749,1.00172865722715,0.988619705425631,0.983011600778738,0.977458162132667,0.975318089524556,0.974251838296134,0.974876132740853,0.975689369790247,0.972166199063708,0.965380990704257,0.950078083200518,0.941463276973209,0.951600760094358,1.03122072451262,0.921174782208104,0.915217808133862,0.915378678912663,0.947652246552496,0.935919961813757,0.947544001684661,0.889721892565907,0.878137282307194,0.852006114222861,0.842454034126321,0.834877374000593,0.958134692281243,0.811127922358803,0.801936655769237,0.838533775017682,0.958714721544743,0.95092438178477,0.948615802275802,0.903106102261856,0.845347847640154,0.846201835252988,0.846576540219999,0.846730161288465,0.845659920605896,0.847151478825337,0.846962509708796,0.848251768911235,0.848334716633644,0.84923765289133,0.849435967818393,0.850449479423343,0.848076829157356,0.849486120779663,0.845354153906634,0.849125669321654,0.848470153356061,0.850076803948039,0.851067109426233,0.851173859610519,0.85251976521097,0.855582941211555,0.858760918254041,0.855056716095427,0.854249852627706,0.851017566779044,0.847996243663941,0.85016078824631,0.851314380575852,0.85153045528997,0.853083914680444,0.853143261730269,0.854436983721587,0.853865578353658,0.853984334563148,0.851444967984957,0.848538882561224,0.848583381174781,0.847116727068629,0.848497257598442,1.18933284143369,0.852485056331172,0.853422448640697,0.854452130064992,0.854836995657153,0.855339534585555,0.855306129894164,0.855305056193716,0.855399451268932,0.854867930534822,0.855585818906755,0.853433192053947,0.85240040674461,0.852047487925031,0.852740116153249,0.851131370640055,0.851212501070173,0.850008112312121,0.85051961524279,0.849853792046479,0.85068234362615,0.850232326859163,0.852874736450484
0.978236561640893,0.978688026915238,0.983747918024929,0.998811199608583,1.00416152759499,1.00872876453457,1.01005569092184,1.01098178800537,1.03456680754212,1.05577741002165,1.05367923445099,1.05163966847355,1.06586320394665,1.07850634111681,1.08876909457965,1.10038956931402,1.10835596311381,1.1126975003611,1.09831647381224,1.08857875189667,1.08903103745416,1.08999302250083,1.09015978264436,1.09011229349715,1.12137646038302,1.14151046411766,1.15868921572146,1.21877634302568,1.22529698298929,1.23744258076351,1.24152118720823,1.24846397385034,1.30557587566485,1.38333493196873,1.3838766045218,1.38491762858381,1.31367355778464,1.18407902365238,1.16698466920113,1.13322274600855,1.13519681031846,1.13736356645101,1.12216796477732,1.11431989924174,1.11154280183548,1.10950687838104,1.11788208142966,1.12516789704719,1.11296765900992,1.07942645495065,1.08284710931223,1.07992544985219,1.08105715452892,1.08162365912542,1.09153661316697,1.09681629404253,1.10790487741806,1.13221188598941,1.10161590487589,1.05202618290003,1.06728327800416,1.08915742919263,1.08422239282958,1.08726417633952,1.05303753756619,1.04926990522505,1.0328757049869,1.01029470662146,1.01314455584956,1.01656756301446,1.01607682523019,1.01587129266775,1.00682456366778,1.0018417310584,1.00037588065022,0.961446742915014,0.966968934156145,0.975627296347268,0.967123401791818,0.962549021716351,0.963302316724906,0.96297705966997,0.952306249866315,0.946857526383687,0.946127241126612,0.946217473247835,0.928408666233198,0.917678362345708,0.908376525498835,0.900401137805951,0.902745228925226,0.903676630740272,0.905659468618807,0.907516942945777,0.879669396359015,0.843606199878736,0.842947156526185,0.814038843877511,0.815098113646813,0.806167685550979,0.806994447945877,0.804506592002259,0.827910471828932,0.800737276771119,0.953643227066616,0.959218322257357,0.952710136768185,0.95230737092702,0.847832973281195,0.847820223973623,0.847684014481023,0.847201367536548,0.847711268522036,0.847571410598219,0.849105931081492,0.849512619767569,0.850857493708293,0.851691207329405,0.851513378138588,0.853038545736473,0.851344088020336,0.851413085825657,0.850971074006217,0.85119542249531,0.850906300055722,0.851904232392079,0.852293612566323,0.853387470850617,0.856128857403041,0.853236884948771,0.85827132295867,0.856681280729148,0.858589568672597,0.857283427674388,0.85327076292878,0.852131500859038,0.852740017469138,0.853335594848739,0.853929791208211,0.854724808221582,0.853977565642304,0.853936883823639,0.851569812329264,0.84995025983341,0.849126767122998,0.848981656060534,0.849351194184469,0.850423205550046,0.851741914446583,0.853386789925676,0.853903815008115,0.855767401451935,0.855327459458581,0.856236250370216,0.855096248671578,0.854767672913444,0.854182315539995,0.853722381591819,0.853171615370288,0.852845376683105,0.852239044454492,0.851950114765967,0.850752575411702,0.848872319295649,0.849079994553267,0.848381363632598,0.848256177497193,0.847544679320218,0.847945236325004,0.84622130085314
0.973186850386475,0.981570164405814,0.982368845488185,0.992859998156298,1.00293748850775,1.00830838146766,1.00932033765446,1.00935037762004,1.01949126948336,1.02711582086557,1.03625744830042,1.04644191326594,1.0546743245954,1.06096458097549,1.06239541963299,1.06468156245235,1.06746758885181,1.07066265718729,1.07401668001927,1.07766593440757,1.08127341102342,1.08431508893071,1.08668097434261,1.08864282314158,1.10836804610396,1.12451593268078,1.14496570595456,1.17190072513149,1.19280688792523,1.22082594358889,1.23115594300834,1.25071791399948,1.28757493039963,1.38362330820986,1.38372861820579,1.38404157791989,1.2744698578543,1.1718203586949,1.15610392771373,1.12789612336316,1.12440107800924,1.12180280800801,1.1192709833774,1.1137427178494,1.11124480456537,1.1071554978176,1.10150262696233,1.09642356012684,1.0933511704431,1.0879257404679,1.08426942693938,1.08169109987434,1.08183224544503,1.08248037679446,1.08778390392864,1.0929939944448,1.07647270953806,1.06710294189016,1.06004892531009,1.04680042145415,1.04253868563702,1.03904178139987,1.03732611587115,1.03418730520653,1.03077894277555,1.02654294574699,1.02091864280801,1.01257342916188,1.01361719099242,1.01336073186087,1.00508970601728,1.0010115266117,1.00048313814274,0.998993536285935,0.99601407643307,0.963765238581645,0.963071603691321,0.961790717566009,0.960067058742695,0.958365851435471,0.95714377502335,0.956336815769331,0.946381376950358,0.939715375052026,0.930075346556658,0.921280270786884,0.914510324845681,0.910816783471101,0.907036465461735,0.901891641602276,0.903008789210041,0.903345116308812,0.888661576085274,0.87722499807028,0.87069816248706,0.843079259714256,0.842130262615306,0.815192756433544,0.816002806074956,0.806233113015941,0.806673260861374,0.80480752216168,0.841650201601655,0.889731899012745,0.955599833957509,0.956715563415452,0.954634382654105,0.902313552214763,0.848679208273742,0.848697991123435,0.849285319976151,0.849231427032686,0.849390059975408,0.849735047338075,0.850764324633762,0.851116469114249,0.852082757914412,0.852893852508306,0.85288794461226,0.852814699013784,0.852651947964846,0.852625433806634,0.852039610024827,0.851618414930424,0.851977979889908,0.85239055459647,0.853089810585375,0.854267576209682,0.855113244257357,0.857059669767671,0.856736637203201,0.858259814979485,0.857086631325498,0.856543277887609,0.854257172706726,0.85309946623575,0.85309829246416,0.853737885681359,0.853931228108449,0.854268405738267,0.853631818096081,0.85286579945308,0.851796487927434,0.850719567264352,0.850301996768352,0.850021132355728,0.850352596118405,0.850823101764203,0.851655682593374,0.852271588472962,0.853568817038425,0.854445755130602,0.854878140446059,0.854919882461109,0.854068082174289,0.853465880376273,0.852693003439436,0.852332649866251,0.851591027344064,0.851270786633236,0.850523448507519,0.850166143664546,0.849261987591564,0.848657342571022,0.848141410283242,0.847815678310502,0.847367246838261,0.846932735337104,0.846771905620872,0.846788635222596
0.970050737018122,0.984331105452522,0.9791957195747,0.975535231549387,1.00084810765056,1.00561117402054,1.00740810148281,1.00764776309187,1.0133907622907,1.01688761923589,1.0181908885309,1.02592535186997,1.0434539134786,1.0601909618406,1.05615839542073,1.05190309735429,1.06186059611683,1.0708275845518,1.06867287630275,1.06636911964303,1.06338620890583,1.05971558604127,1.06096644866946,1.06060987037951,1.06969492379851,1.08042622144805,1.12018242381086,1.14096190337761,1.17236877585112,1.2056411280271,1.22138237321808,1.25311314520075,1.26733444914665,1.38415770610158,1.38378757815771,1.3838255755641,1.2150544115416,1.16394440744257,1.13954000327225,1.12114205762864,1.11295906180208,1.09506885645564,1.09243161463173,1.08947401124209,1.08964419139122,1.08940880519873,1.09013479234616,1.0903493506135,1.09056263229915,1.14533513635612,1.12637115636451,1.16445872347886,1.08025166987321,1.07820135123655,1.08332805675865,1.09978717909993,1.07148844960678,1.04895715067478,1.04746014438028,1.04698336664555,1.03030088651988,1.02189401049537,1.01765057790928,1.00663221436039,1.00241642456676,0.998262187544487,1.01114990865231,1.0168322390825,1.01255411665465,1.0133373873139,1.00311005277761,0.999509763998642,0.997011580452285,0.985213898709485,0.988904398086295,0.965605162411478,0.95694585773463,0.948460666299492,0.947463694083434,0.945904021898014,0.950355944093905,0.954748704235049,0.935892587754689,0.924899830789013,0.913361923969734,0.904272725019512,0.898993410303971,0.897563178934022,0.889967697443571,0.868978298626124,0.885010550852573,0.902060558519732,0.882755306746712,0.861773451900124,0.854229529890035,0.842720711899847,0.840981583408508,0.815620283763771,0.81579761285763,0.80757495395559,0.80654201855379,0.802696396905482,0.851787864919322,0.962405602933371,0.959657744313563,0.95843291232735,0.955595792151273,0.845801920572769,0.847940148931337,0.848524213991565,0.849844419223828,0.851360333414556,0.849892124832127,0.851710357082114,0.850907032213662,0.852268175173904,0.853656386651717,0.854412647878079,0.853901324465428,0.854028069402801,0.85337464816724,0.853444128200341,0.85253368485145,0.852376761157365,0.852307521398324,0.852757878711712,0.853459356904317,0.854661664741956,0.855486129148895,0.856826908719958,0.85706097169762,0.858301343484696,0.856903021621378,0.856816963756082,0.854450747650182,0.852292967920661,0.853321597438387,0.853724025950499,0.854197972825609,0.85444650813528,0.853475086643063,0.852125952089,0.851911365729656,0.850888600574175,0.851132625474335,0.850632431832621,0.851124278426015,0.850649502175832,0.851524817813925,0.851186230343945,0.853019035216835,0.854392538121454,0.854240072800406,0.85513690258754,0.852445887861314,0.853215023018085,0.851132620607582,0.850585374225485,0.85005258828798,0.84933144592397,0.848946842529758,0.847941332390357,0.848038184767753,0.847429296425292,0.847314364764062,0.847266515260132,0.84635129407745,0.846344047316773,0.845587547054294,0.845726024439229
0.967246352602482,0.976038626468416,0.975864734951309,0.975466220687847,0.993863944678192,0.993947077902154,0.993467268857368,0.995265166497821,1.01163680425949,1.00985646298479,1.01495355717702,1.02801910607477,1.03001710843826,1.03087760680325,1.03447301305589,1.03757840659966,1.04097716191847,1.04376124557046,1.03550810916682,1.02787515343632,1.05120201662666,1.09559461377267,1.06155813954795,1.06189804780434,1.05750671485715,1.05361478235773,1.10065423718386,1.15140606641472,1.15439743697107,1.15684999193232,1.15892512992255,1.16165171315115,1.15760061801071,1.15366432785989,1.13638475807304,1.11881611126984,1.11667551122064,1.11443814706806,1.09422458897085,1.07331677505242,1.06421771632846,1.05531400334821,1.05170269105746,1.0488136256992,1.05477002468361,1.06027953189156,1.05888584447968,1.05707100688618,1.05364240766335,1.05052327501722,1.04959678452879,1.0489436786869,1.04791751829073,1.04716455759257,1.04730984308032,1.04762104673564,1.03992558735486,1.03400030515654,1.03334498196576,1.03318455959538,1.02255449658541,1.01734274027762,1.01378818397002,1.00991756065246,1.00077304160054,0.992962569291733,1.0093779201701,1.01107922366367,1.01225735813015,1.0095931056501,0.998188839100244,0.990476284514103,0.990085927439693,0.991770742022925,0.990566412498753,0.949514426798007,0.949220907021242,0.951160465497841,0.948586183755625,1.14592804071173,0.945729947621359,0.939914770214458,0.922542368315835,0.903733812648738,0.903556293163239,0.902867665780848,0.893706430423138,0.887939061208297,0.885545019446706,0.870725078361397,0.867417846321247,0.865271871910293,0.860895015963432,0.842608265307991,0.840571213040123,0.835947547635449,0.838404431612169,0.950738753092061,0.837152036561881,0.812599767153488,0.81702600946909,0.855096972663136,0.860422020842967,0.960648617336351,0.959157168707601,1.10957276536655,0.976919952582521,1.04441863015583,0.946260315839757,0.952744535193843,0.862962541101462,0.860463509397993,0.862208897628841,0.859781242552114,0.860403733398748,0.858108939845001,0.856305193861276,0.855158534640765,0.854352311268334,0.853831904495313,0.853455939580256,0.853584172837383,0.852760779487428,0.853011946202397,0.852184610530249,0.854180976768063,0.85268889038818,0.854380208630175,0.854678941476755,0.856271068488443,0.856332144230314,0.856944640057967,0.854262854489951,0.851714406723997,0.852155871245191,0.85293214971019,0.853237502915541,0.854777549505691,0.853901595436866,0.85420730052776,0.853154584877266,0.852712305211318,0.852126399520213,0.852307411261289,0.851737752659329,0.852288936202314,0.851909640012504,0.852639093285939,0.85214484153511,0.85175548383801,0.85327099946959,0.854230733560677,0.854085735130896,0.845831653846212,0.848935433453487,0.846883852663364,0.848741241673231,0.847949377332655,0.84811201808502,0.847106339472037,0.847423423790475,0.847012466435835,0.846741076476031,0.846546566366208,0.845833454313444,0.845013507741789,0.844615284980082,0.842917198401322,0.843705530544028,0.843712789720673
