1.04337220492763,1.04225862467948,1.04142606305449,1.04171329112113,1.04124747235779,1.04116670484697,1.04226473231934,1.04031395545639,1.03869208331909,1.03889577827162,1.03955155502177,1.03988987141125,1.04005049272471,1.03969999832259,1.03992635169437,1.0386457431346,1.03853266219558,1.03810079632636,1.03957619819504,1.03900223346409,1.04095082339334,1.04048507806565,1.04102832254676,1.04022026150573,1.04296913940823,1.04263599772207,1.04426389939358,1.04663168250348,1.04779471453711,1.04823177361814,1.04942400162122,1.04835008318729,1.0486952299118,1.04806411975754,1.04795422086238,1.04563705335301,1.04313700229822,1.04234338645242,1.04296090204102,1.03989351916317,1.04114480463519,1.04045366657015,1.04195737682067,1.04257985757605,1.04600199212955,1.04688356036836,1.04973267934844,1.04948616133781,1.04908229532038,1.04872791385267,1.04895470603607,1.0729437633579,1.12702713885008,1.04288202479492,1.04353533116853,1.05176647469334,1.05050625773447,1.04793118466747,1.0541658267684,1.05459397084113,1.05527580834142,1.05655121317797,1.05676228726461,1.05713711015334,1.05764611586054,1.0590572643598,1.05911026637611,1.05757616559238,1.05782893406321,1.05620411522442,1.05820055673204,1.05731461777702,1.05763397687106,1.05648260101714,1.05727537022732,1.05509267241155,1.0539412197337,1.05384043776207,1.05423610096902,1.05696101254369,1.09763012585373,1.35805892515676,1.12828364100049,1.0635364755951,1.06494046014593,1.22349034457994,1.12917367688615,1.22580266943099,1.05690838904846,1.22577649216852,1.13815683894933,1.10473280961316,1.04661057886978,1.1190196032569,1.08989462803162,1.05696823260521,1.06738158218505,1.06729041801054,1.29587047529481,1.06466192368211,1.06502226676488,1.06540280802552,1.06449668858821,1.08089106846639,1.36285808994195,1.06609325191572,1.06654113354029,1.22999103142534,1.13095331240222,1.15688558548475,1.08042279577374,1.08027048907708,1.08527313725179,1.14996804640174,1.1503676041229,1.17047761402265,1.20660839069835,1.09777867773016,1.10061081675588,1.10290393867456,1.10446247855362,1.10374503403749,1.10531668366999,1.10489489839736,1.10560373454893,1.10481698651058,1.10360393112264,1.10310741733824,1.20218206319991,1.14201436707062,1.19510842056226,1.17934387811605,1.2140752974316,1.13172624925052,1.13126079641224,1.13127558111265,1.11950261583883,1.12194260027137,1.1221792476304,1.12113110574234,1.29964000108972,1.15092687328304,1.15114333823406,1.291734502105,1.24565754804075,1.09132982196351,1.08429519245871,1.08325351409354,1.07779049347924,1.07764663144057,1.07735187843601,1.20251363159157,1.06657591308424,1.06677597904318,1.06656483565566,1.06411520523572,1.06400337314236,1.06116839538869,1.06148668487563,1.05915282690947,1.06023194062583,1.05809537753409,1.06075256709955,1.05759983923521,1.0598614187931,1.0574657712634,1.05996884743919,1.05770238693437,1.05903452511851,1.05628136618919,1.05609749794483,1.05464485225847
1.04533088941397,1.04267983804804,1.04299877320421,1.04296436670254,1.04278997404875,1.0427496164223,1.04343320873363,1.0426237496921,1.04143868216545,1.04084210945356,1.04059602009715,1.04037481121925,1.03974446462557,1.03956174931337,1.04118096431113,1.04143186105969,1.04091206599634,1.04132109925325,1.04126548280064,1.04066616988698,1.04220498179713,1.0427415267461,1.04211505224324,1.04217148595678,1.04258030081353,1.04318041756223,1.04409481909551,1.04659785663555,1.04743726024893,1.04847321016377,1.04898301154241,1.04917775495073,1.04879916971075,1.04855606929334,1.04767610028304,1.04611603664201,1.04569534370561,1.04580331973885,1.04535656596309,1.04491589065745,1.04209029802208,1.04147858940985,1.04189580461357,1.04258442009338,1.04415299357288,1.04677259117349,1.04841851499961,1.04912607401938,1.04965145375006,1.05030093145762,1.05162143460362,1.05336355781107,1.05446647250267,1.05528719033096,1.05606686737558,1.05438294376941,1.05392621155902,1.05345753515636,1.05440069930158,1.05585429478189,1.05645090814437,1.05694280317591,1.05756488294531,1.05783264478021,1.05815111142118,1.05925120667079,1.05904948646764,1.05895433569708,1.05812342227423,1.05807934412441,1.05772397137357,1.05819275575844,1.05745964852701,1.05761156291474,1.05700182368212,1.05529121559239,1.05384851011922,1.05241201812836,1.05212406678156,1.05278586878721,1.05343977314586,1.05577051366392,1.05886997204826,1.06251518318586,1.06420402803426,1.08922378291157,1.11058245808414,1.17421765966887,1.16568667321432,1.15541913256705,1.14736067509512,1.13173274135341,1.11892501694583,1.09357348808129,1.07701813204299,1.06844704342973,1.0683082484054,1.0682752152025,1.06799610985621,1.0670553365423,1.0667147961975,1.06607835314993,1.0736514482489,1.07909951134686,1.16612660640914,1.13554828997284,1.07922360813645,1.08215431953503,1.09031703795006,1.08913111806729,1.08579939082645,1.08538481939603,1.1072248305745,1.1604609335962,1.16536008958859,1.17367601834108,1.1872565966988,1.15987235075429,1.10718634057019,1.10601157422723,1.10640416964506,1.10691765614045,1.10671350872999,1.1063182339907,1.10659366039754,1.10698503744631,1.10632178505274,1.10672594984791,1.12108256257981,1.13168010615485,1.15096783015254,1.16862085311219,1.16789002045507,1.13131849891271,1.13163725076365,1.1320423143702,1.12040282005404,1.12159414043528,1.12185623365016,1.12151995687077,1.14660317912476,1.15062039256825,1.1584678643252,1.17023786506731,1.17143769651214,1.16802313919358,1.14039184732629,1.08016916748321,1.07752063846962,1.07696144644242,1.07670544749741,1.07585635922013,1.07396127543246,1.07058278754838,1.06860673161814,1.06545662639117,1.06383774494456,1.06281265264972,1.06097693435243,1.06091443004544,1.0591394000294,1.05958864893107,1.0582062558865,1.05876961800479,1.05760962299512,1.0584789932754,1.05768044477628,1.05854215104822,1.0574506319683,1.05802453673415,1.05698374947678,1.05768899193958
1.04805528118286,1.04013616026785,1.1805596341368,1.06750330243768,1.30073945197791,1.26371606537088,1.04584499455472,1.04539393384551,1.04296801137629,1.04238283063345,1.04138465993874,1.04101821432702,1.04067373132888,1.04804454764288,1.04478113931764,1.0437708931847,1.04340895301003,1.04354016098084,1.04402975770148,1.04711174095927,1.04504459026665,1.04442736217372,1.04386500189621,1.04238401602724,1.04306656117761,1.04249000525284,1.04212772793654,1.04844939317626,1.04760113264063,1.04830840989396,1.04967545662489,1.04955216931003,1.04985717798221,1.04963319295501,1.04967984660798,1.05708115342614,1.0548840620573,1.05229192036695,1.04915577537217,1.04718955515566,1.1625758548246,1.04124328533698,1.0417027483727,1.04050732215441,1.04169853394414,1.04706903534603,1.04783993304101,1.04909580964103,1.05012139260478,1.05106924278613,1.05226963426052,1.05197252945218,1.05245675222226,1.0539275217694,1.12308309229994,1.41481123018021,1.06157328253338,1.06253892566946,1.06228177397405,1.05669079290265,1.05658121071836,1.05638491522794,1.0783425416655,1.15986214627141,1.25607231059432,1.06029861203875,1.06034956023706,1.05924627792811,1.05972932681702,1.05776375034174,1.05866654901815,1.05793688735424,1.05817334386251,1.05820114352285,1.05880830455355,1.16300991568741,1.15644387723074,1.08236011239548,1.15817952959563,1.16052384853921,1.04267582317928,1.04170302292957,1.04105252789068,1.04092812755523,1.04011475161051,1.04012658602783,1.04022545925136,1.18067959987102,1.18056672485525,1.04209064146168,1.22421248330406,1.22329385528624,1.22218810834012,1.07603744393991,1.06806389677758,1.06857850350787,1.06763133408322,1.06828397594693,1.06816317938253,1.0687064075833,1.06895808670223,1.0683731932054,1.07832897661904,1.07724462929823,1.49782806945196,1.47432085927607,1.07165127189414,1.07362766351979,1.09208441497689,1.09236914845804,1.12493644146769,1.08797459837019,1.12792923627885,1.22369685568968,1.22333618806059,1.38376499689862,1.51733011574609,1.25622064842647,1.10636717655278,1.10686954689496,1.1086486668668,1.10940402808301,1.10987534870133,1.10645859054679,1.10910858761896,1.1086598010881,1.10864821030803,1.10863362861256,1.10898404113707,1.10791048320584,1.10634489785305,1.16817847939155,1.16542416664617,1.13146259772022,1.13142468316731,1.13020231650965,1.12254556473386,1.12280086926771,1.12194271685618,1.1214004713559,1.14244478391967,1.14049886258369,1.23963299973599,1.16325594472031,1.18626753234757,1.27078394410046,1.23764156708241,1.08011743402064,1.2305723627555,1.07726355928437,1.07675387335926,1.0766612024166,1.20567947273843,1.20367934615835,1.19487501505628,1.07475242625916,1.06346868030746,1.06188878490841,1.06248999758001,1.05999609324768,1.06070420311765,1.0578446393661,1.05881224544771,1.05667201900834,1.05810102280843,1.05648656081866,1.05838355563879,1.0567158805191,1.0585825286133,1.05716029923827,1.05997506811734,1.05834628258611
1.05476298307333,1.05489418184666,1.11854082745584,1.05865533996968,1.05577463341338,1.05517664340304,1.04699546186107,1.04621174347657,1.04528414470634,1.04430220712659,1.04381649039243,1.0434022666822,1.04401894900925,1.04639677991625,1.0456927301244,1.04478151356707,1.04389917698116,1.04428414459431,1.04547432199952,1.046513721381,1.04609957612461,1.04540603460064,1.04427301863211,1.04300714645075,1.04259301081769,1.04282143347475,1.04401247320725,1.04637546361139,1.04736244959159,1.04766401066804,1.04840810955789,1.04888539362598,1.04931123235752,1.04974406189885,1.05120936782502,1.05394681544392,1.05381115252329,1.05271824933605,1.05092407972856,1.04950992255114,1.04932389674609,1.04822761634258,1.04539006174484,1.04550292541473,1.04501708687697,1.0465992564085,1.0480852090582,1.04916019827913,1.05069225313385,1.05131169412197,1.05277271940563,1.05303976142486,1.05425506181626,1.05528422825074,1.05749292303267,1.06021297439801,1.06228033216522,1.06381392199802,1.06341048569312,1.06072674074397,1.06420792315473,1.06948189857622,1.07893975640888,1.11252757819751,1.09793291851506,1.06018987931404,1.06000090378773,1.06005309618322,1.05948546943853,1.05964461400813,1.05913532801198,1.05951775152205,1.05913259521272,1.05968362646455,1.05956822005954,1.08402073245694,1.08524544843066,1.08870740959489,1.09717467640468,1.08416564623224,1.04223969827949,1.04152079206881,1.04084468336289,1.0403855752809,1.03989512937729,1.03962771230821,1.03952782559034,1.09509732103993,1.15843549033976,1.15091982956856,1.15614419205653,1.1818593865229,1.14302436477338,1.0795625773241,1.07398660576848,1.06894371764789,1.06874904320765,1.06883481135404,1.06940369055901,1.0696960409495,1.07082052829582,1.07155365136265,1.07496619713365,1.07581698672373,1.07649066790638,1.07739777534974,1.07876765464533,1.08110439678259,1.08786670840871,1.0925474085431,1.09340002731808,1.09353039165336,1.10963596009578,1.13612042580226,1.15341999217514,1.16243031185649,1.17467056548386,1.1915191486511,1.11128786148447,1.10989532573787,1.11019823103688,1.11133051693012,1.11192867650269,1.11365535104259,1.11190568924758,1.11135263691054,1.11023657368146,1.11032018006587,1.11108740122463,1.12961958565623,1.14439091305672,1.15542607174833,1.1462604321825,1.13219428031079,1.13243429550335,1.12631291833496,1.12340620843295,1.12251964028741,1.1219412344226,1.12144893678207,1.15624733826337,1.16142862270717,1.1776935372243,1.17174237094812,1.17571961068315,1.19521803240069,1.2323837279814,1.22962389138403,1.22928453216485,1.14683049787173,1.07867631324184,1.07964788638244,1.08215630784884,1.08402930061439,1.0847195958489,1.06578694479334,1.06217874418668,1.06210817792935,1.06073193198296,1.06012299880564,1.0586316615257,1.05862534640594,1.05739135877806,1.05777957070777,1.05710543693172,1.05789401586256,1.05752549365655,1.05856749482309,1.05791070431335,1.05836476658636,1.05778790961297,1.05816706199806
1.05372050718304,1.05448431595325,1.31518056923959,1.05182092244229,1.05190097528511,1.05151840891961,1.05000569580287,1.04806727733104,1.04644339100449,1.04611198754331,1.04524849273629,1.04550409966598,1.0455403637464,1.04663163470937,1.04598994183446,1.04588282365867,1.04352058396273,1.17384952919273,1.04733682339588,1.04763308213923,1.04771691456814,1.04623199594405,1.04532872475512,1.04230525566722,1.0417911987206,1.04225888610157,1.12348447687014,1.04701637996371,1.04732453938438,1.04718948928943,1.04677026838553,1.04863233117734,1.04839673685561,1.0492215400925,1.05123994133604,1.05245727291097,1.05269257058708,1.05314845671923,1.05172229218571,1.05038168185541,1.04935684054008,1.11851080299697,1.22041887911742,1.14924290247746,1.04606603710557,1.04544812875536,1.04704716479685,1.05008542168847,1.05069442452488,1.05232923259114,1.0524890651555,1.0547420958916,1.05500721262771,1.05663194903943,1.05645573860207,1.05059933436036,1.04975358447412,1.0499084108316,1.05040397315356,1.09585220538102,1.07691123964434,1.11858064793715,1.07666436567946,1.15034236708229,1.06688782878176,1.06009737113165,1.06080949390021,1.05966224289451,1.06058918548222,1.05969400699286,1.06088205970944,1.05981785646619,1.06090410282892,1.06112662729944,1.06089726410536,1.08403564793121,1.08320586814776,1.09034191862197,1.1158357428178,1.04354475486,1.0423703289298,1.04108777979645,1.0403592871272,1.03996789207647,1.03967693906093,1.03934551354419,1.03923829790221,1.03917072671032,1.18717376705249,1.13472076843785,1.07226458675947,1.31817350291472,1.08913251972559,1.08978223999739,1.09807571982577,1.06775926119639,1.06802499209289,1.06975354435852,1.07001009790538,1.07085633716087,1.07159590261072,1.07242811194737,1.07296431784512,1.07387968355008,1.07439782540713,1.07604487955451,1.192705883923,1.31460466946537,1.08748172748829,1.12516476983598,1.09419794287007,1.09430760136116,1.09662588127266,1.09741632623571,1.09949147167573,1.15461651326581,1.15488991526641,1.21239998455714,1.11182890932463,1.11114320624213,1.11233532622274,1.11254538517459,1.11431482294598,1.11416221262293,1.11476103777514,1.11400262927186,1.11192075175894,1.11194762510128,1.11332982039422,1.19266167974158,1.18205187265542,1.17033121451596,1.13132110027084,1.13090875987055,1.15521092670254,1.12394305367348,1.12228541756636,1.12280159367688,1.12265300956884,1.12122271720747,1.23475895935088,1.24831146440611,1.18264278551563,1.14726524005414,1.1453308709694,1.08719405389819,1.24215715624265,1.24293867934508,1.2302090075323,1.2001338551972,1.07918396946138,1.08029065082281,1.08087615695008,1.08240544037957,1.08188995430898,1.06218841808504,1.062627542584,1.06103475756232,1.06057928969723,1.05820837093323,1.05834572036436,1.05720897998178,1.05779995346202,1.05642667038303,1.05810665231998,1.05692699035783,1.05866334622364,1.05857067246173,1.05943080829954,1.05742950936214,1.05784232431317,1.05621692218769
1.06047184325087,1.05687352357284,1.05589079821639,1.05430193531754,1.05369784619523,1.05291741865315,1.05151848579705,1.04993572106234,1.04875772093941,1.0478161372404,1.04702465026672,1.0473351610574,1.04761566323029,1.04736280886648,1.04662244745888,1.04605997997839,1.0458339208392,1.04731086732687,1.0477905190767,1.04803918662923,1.04787142755318,1.04725007401872,1.04638713951726,1.04497987393646,1.04445314261095,1.044698827648,1.04624419732595,1.04683565277024,1.04760082120172,1.04720393013075,1.04807170081447,1.04819717945439,1.04893406224224,1.04909905693488,1.05051164268209,1.05148563520041,1.05254588451603,1.05312484469154,1.05271609785835,1.05169468878986,1.05148588401613,1.05255774079674,1.05265740111502,1.0514359966169,1.04949606428431,1.04963313584994,1.04955474552943,1.05070911031904,1.05248764513628,1.05287318283066,1.05418488489668,1.05432770973086,1.05539000702239,1.05513900223978,1.05481340250146,1.05161643171275,1.05079471984458,1.05073658927992,1.0516778584326,1.05405656914135,1.05542739409388,1.05635723457851,1.05615923502518,1.05567562411112,1.05603111443457,1.05816797872077,1.05885758754453,1.0597052634449,1.05946394927852,1.06033383733564,1.0600451400038,1.06061191283876,1.06050606315365,1.06129725285334,1.0613924699517,1.06820763785118,1.08216022916781,1.08083504631495,1.07866721716267,1.04946349462492,1.05120812517522,1.05238455439266,1.05443833458477,1.05768275828978,1.06148805925375,1.06529454830449,1.06668185736971,1.06686086539177,1.0721624447347,1.07136666874418,1.07132069293989,1.07635025692643,1.08032211582033,1.09660682567078,1.09832847906334,1.06783586060772,1.06833675880004,1.06883418058865,1.06995295416159,1.071156752725,1.07234982431438,1.07259753133499,1.0730656141826,1.07358442816403,1.07489289435079,1.0771830067913,1.11071938377478,1.12567533089691,1.09404049345004,1.09374827309336,1.09412397635429,1.09490909170912,1.09673031822127,1.09845450660178,1.09946755457303,1.10914841959244,1.10904606787489,1.1099576574349,1.11125941639244,1.11219388730365,1.11288746853628,1.11402985703246,1.11430657283101,1.11567293703511,1.11624510957957,1.11812560497052,1.12112449306894,1.12264098892387,1.12307597383085,1.16666014783499,1.1744319623007,1.17297267169107,1.13061609521384,1.12825930591227,1.12480176137253,1.12387738453526,1.12505660365516,1.12562994877968,1.15933411912725,1.17726386591517,1.20241322364435,1.18360724479999,1.16607920218288,1.14625745363669,1.14557740219522,1.13331304307039,1.24192031921788,1.24253153280011,1.23674438652969,1.1992251673467,1.12223959045808,1.08297575458583,1.08379467051458,1.08479065065362,1.08464103385739,1.06228926252829,1.06149788984922,1.06029626329887,1.05894242995719,1.05831754459532,1.05756857720765,1.05772918972896,1.05717223314486,1.05753526458532,1.05797314829054,1.05855920532811,1.05853958876041,1.05945429546062,1.05991816555002,1.05957358778512,1.0562407497608,1.05633588621144
1.06026466425434,1.05805896186838,1.05705115163602,1.05655290886728,1.05614281743809,1.05581324510586,1.0520144973787,1.05128492544152,1.05001116820755,1.04925719186778,1.08511743744506,1.04958307833686,1.04953086734658,1.04915071929743,1.0465637121188,1.04625155291098,1.04639166238037,1.04849811202977,1.04873445476196,1.04874423761572,1.04871365606232,1.04829394033519,1.04783845039381,1.04710781131144,1.04575940645034,1.04686588102415,1.04640737495811,1.04825988829829,1.04701625866408,1.04839011940296,1.04755659099518,1.04950044242154,1.0479116297632,1.04930029857778,1.04898353938186,1.05118574130405,1.05225595122883,1.05427492738628,1.05395422760955,1.05197380508941,1.05164774996095,1.05281375203541,1.05274872208271,1.05102093531994,1.05015210567929,1.05100458261703,1.05005149005636,1.05188308157653,1.05362325006763,1.05458452941854,1.05420181085253,1.05572426163664,1.05421907760918,1.05543914119836,1.05369584301431,1.05356999153859,1.05165514758574,1.05207761213478,1.07238528477874,1.05618938054595,1.0562520888853,1.05735937848686,1.05618306768538,1.05613815624497,1.05725914828914,1.05729090044753,1.05863844133515,1.05845360894536,1.05968764597825,1.05932926501341,1.0609378341208,1.05998105015564,1.06128991799913,1.06083364852334,1.06158832291921,1.06165634634031,1.0795211300655,1.05098023352468,1.07839081538923,1.04713721481593,1.06973037432252,1.06710235014157,1.06112045410448,1.05835351001844,1.0883720468374,1.13281422232188,1.08831100025488,1.07164574655335,1.07038153505666,1.06994258820098,1.04775847957405,1.05129198143039,1.05273551754539,1.31045121048917,1.35961210939633,1.06787785594587,1.06842444985928,1.06819112558941,1.06888804243122,1.07216998986796,1.07294799319932,1.07315437690924,1.07296486362876,1.07304024392014,1.1812402429614,1.08096254419135,1.08238085300036,1.15448714022836,1.09313989298262,1.09277831158783,1.09397382142899,1.09319972218296,1.09655681859151,1.10208705743006,1.10308682166368,1.10558076819336,1.1076480941688,1.10888381661296,1.112156192673,1.11200254595021,1.1146993796984,1.1140523122215,1.11563729325302,1.11580165940087,1.11887014640188,1.11952526339216,1.12081469533286,1.12131719871395,1.12166595097496,1.15867752760197,1.17463068142526,1.17347599008248,1.13309027090358,1.2052448166875,1.11959118509635,1.14857177634988,1.12595313149791,1.12611437971714,1.2115151085186,1.200407287338,1.34336475515991,1.14353625453499,1.09425334263046,1.09297561835034,1.29232781910792,1.07899130198996,1.25694921793572,1.24169091135018,1.24135619246013,1.19778139241703,1.16587419233084,1.0579940118421,1.0575288860267,1.0575940196997,1.110046864636,1.06096657540074,1.06059803698477,1.05847651647816,1.05766517337988,1.05712676419771,1.05743153063109,1.05729563210554,1.05729192102885,1.05676947322098,1.05942403236919,1.05885307650942,1.05928273679294,1.05931230116598,1.06187849181778,1.0621975195571,1.053712213033,1.2369629089951
1.0592337666291,1.05831477326426,1.05801358588286,1.0574291188717,1.05655292906035,1.0561556194979,1.05771467633538,1.05828583618026,1.0577110722425,1.05718202430448,1.05533047709806,1.05212669152958,1.04990869707079,1.04775879960697,1.04645465313596,1.04623286646832,1.04685743657703,1.04802160443742,1.04833603856558,1.04850840448678,1.0482730848246,1.04793891784018,1.04738577621635,1.04656296307026,1.04640728369666,1.04651830004519,1.04757634685051,1.04794958968191,1.04863318149663,1.04794006515861,1.04914835796941,1.04878214106702,1.0496551907163,1.04954060611747,1.05077838573177,1.05103133996779,1.05217299966662,1.05259100146464,1.05289587992962,1.05241014812399,1.05291570764953,1.05410673956726,1.05451517708219,1.05350884429879,1.05193432862713,1.05052240794829,1.05068675858299,1.05192255718386,1.05337809727109,1.05387646971927,1.05470780225256,1.05469128935231,1.05517518871001,1.05445646958387,1.05494602208723,1.05422602269039,1.05448037384552,1.05462508156899,1.05675381881413,1.05697459651687,1.05660906798355,1.05675700664414,1.05642245758113,1.05664787543811,1.0567246017878,1.05767277711406,1.057845405272,1.05910276835842,1.05914777710727,1.06032337699307,1.06006812270134,1.06080486704517,1.06040886631674,1.06091934935432,1.06087534046913,1.06135614606466,1.07853168825358,1.07864887101179,1.07954444936785,1.07128115275955,1.07010286447459,1.06781645148495,1.08487481405553,1.09586661940274,1.10452841785375,1.11494356516903,1.10806451745747,1.10245569264252,1.09089327257602,1.0825033817515,1.08674394641598,1.09168313594817,1.09702204784946,1.1027583705066,1.09284147819592,1.0672617437883,1.06711386894616,1.07014203146076,1.07186474906544,1.0729949971169,1.07326312006278,1.07276356610717,1.07235076222441,1.07224450978032,1.08191463976118,1.0826620970832,1.08332737578426,1.09224573882967,1.09247606442657,1.09331584045711,1.09443223384828,1.0960561827479,1.09861565856301,1.10194128974731,1.10366840380288,1.10575818267212,1.10831024963974,1.11039580575956,1.11208003529085,1.11394065541641,1.11518463119255,1.11663731705705,1.11683304303225,1.11780328656395,1.11852608104393,1.120045486838,1.12078571156997,1.1207497186593,1.12716887987991,1.13617937672281,1.13622462480003,1.13604569135321,1.13524636380045,1.16940983578971,1.13825112291289,1.13134991710664,1.1251475742244,1.12578691513888,1.20593119836117,1.20272254620508,1.26276250747941,1.20995557510884,1.16653805161574,1.09014184292739,1.08609011095513,1.0831947876239,1.15679277175646,1.22642101409814,1.23436136591329,1.15924413476381,1.11513470356887,1.05788574933271,1.05791913660482,1.05840659449855,1.05894562985609,1.05909839484079,1.05849776947687,1.05768000734556,1.05720927826299,1.05734890586603,1.05758286673027,1.05781960929461,1.05768473093621,1.05762214014269,1.05818615960971,1.05856194862265,1.0592383996046,1.05958030247309,1.0612998743722,1.05793522365984,1.05412208088806,1.05399017104789
1.26642687219223,1.2648795051221,1.08583695186771,1.14656411543971,1.10683427051173,1.09656707513904,1.06013670965945,1.05980251592222,1.05741359440395,1.05785184673722,1.05660101992674,1.05340628375748,1.09456743738579,1.04602963062238,1.04558967634718,1.04568425440617,1.04717326748151,1.04812167909848,1.04869653459943,1.04799964955976,1.04830376279381,1.04755505659743,1.04683497369554,1.04617541564394,1.04523458067362,1.04738785285714,1.04663970752428,1.0507195798432,1.04771599415055,1.04977033984864,1.04795672653229,1.05098196604084,1.04852664345412,1.05174788562674,1.05082107052124,1.05209147737239,1.05113127488574,1.05207701179155,1.05139657970937,1.05190445404948,1.05193988296375,1.11244640955233,1.153780294638,1.22676831955823,1.22424366802275,1.06112027498792,1.05025896055686,1.15153777738038,1.27793032475234,1.05419498863218,1.05414705242091,1.05558327252044,1.05423978256402,1.05519024818865,1.05435990591679,1.05648373428001,1.05588841795211,1.05669880332986,1.05766735279617,1.05894913458776,1.05702507249059,1.05685544584339,1.05683893793602,1.05623007771747,1.05688183923345,1.05661795450417,1.05849434504792,1.05779804355103,1.06072633688827,1.05934152035084,1.06134350263759,1.06002138549961,1.06142520549658,1.06048289222427,1.06125659585202,1.06103543619684,1.07788024581152,1.07744840558205,1.25918740482762,1.07201247443954,1.07132889951859,1.06118748492493,1.13645095045733,1.23509559760749,1.28821798890096,1.14513318123229,1.13893772119949,1.11243770711027,1.31682101102072,1.07136999955708,1.31377196299189,1.32583847489303,1.10758794622496,1.11036146758727,1.0615493199164,1.06277890846377,1.06472664909204,1.07257730606591,1.07444353825711,1.07493582420295,1.07393900308803,1.07280371340252,1.07172141741395,1.07104287412295,1.07935953180936,1.08397959105915,1.08631944138408,1.0893055580711,1.09098567480334,1.09349245815061,1.09506334045453,1.09713631012285,1.09893348233346,1.10445083429186,1.10456450707653,1.10452249010393,1.11005499320887,1.10984865286995,1.11375302620497,1.1140568881392,1.11762367484981,1.11783416868511,1.11949590567724,1.11770681547802,1.11889858849524,1.12002768921541,1.1216615661016,1.12283362952518,1.13525317069455,1.13498506140819,1.13558614310209,1.13583637494845,1.13605732772332,1.24601151607302,1.14462636238224,1.1260707896767,1.12534023320514,1.12624225578594,1.22601214023773,1.15620926403504,1.34810284494119,1.31012835231028,1.21521832964263,1.08599046136243,1.08482053002075,1.07963769282012,1.07967586962795,1.21303838461127,1.31560813119318,1.12816148698446,1.05833483131801,1.05789976697774,1.05756152333834,1.05946890386977,1.05894777242109,1.05793417475978,1.05637300641551,1.05637001914568,1.05625598773068,1.05721536710293,1.05793775797885,1.05839274832748,1.05825302027907,1.05741778148316,1.05757317087213,1.05755845078443,1.24403076986057,1.06663828371037,1.05189450320212,1.05231702502866,1.05301766036047,1.05285074757755
1.0836986854862,1.09450371971437,1.07723643123719,1.07131245730637,1.06720958331837,1.06587843483253,1.06108299813815,1.05940353907357,1.05823248409144,1.0573415158456,1.05689224634266,1.05541195630181,1.06900595409039,1.04537659347724,1.04553994899364,1.04648055551061,1.04769444477833,1.04853516272289,1.04818583403441,1.0480464721459,1.04770366528984,1.04738733018712,1.04665000369861,1.04631835378909,1.04669877337629,1.04721725450008,1.04839506000718,1.04869623455737,1.04965847586699,1.04933050585602,1.05074120491623,1.05026778121237,1.05164956892058,1.05174281971085,1.05301979258611,1.05213081153329,1.05257690678399,1.05214829120201,1.05232341355801,1.05178666992121,1.05176049323667,1.05121019131895,1.05225849553334,1.05635586629817,1.05962729227695,1.0619945206445,1.06241688669176,1.10650531114298,1.14284741023612,1.10631021133257,1.05433465670621,1.05448531552594,1.05493226985869,1.05496925983853,1.05614031805254,1.05624800570589,1.05685190452906,1.05677931591605,1.05747717003014,1.0576772703411,1.05753528746015,1.05712946195256,1.05680189252299,1.05707749620498,1.05684622408411,1.05769814273157,1.0576642261826,1.05919207465788,1.05945495464787,1.06077844323172,1.06043930443728,1.06129092212049,1.06064313259851,1.0610879833588,1.0606035778558,1.06149803641255,1.06225043866497,1.06378005962122,1.06567923492507,1.06853799626911,1.06856864332177,1.06841084904142,1.06748568392083,1.06517146274296,1.06297042500915,1.06119558556089,1.05983524534802,1.06057998114484,1.06285891882059,1.06664793121177,1.14671377746565,1.20178377577276,1.17151337434561,1.14193564871202,1.08241463741591,1.08101923933669,1.07796463512494,1.07607972477826,1.07648410382111,1.07621931852593,1.07548753100491,1.07460130773447,1.07431635911053,1.0744538647109,1.08009390363535,1.08082646769176,1.08817368686307,1.08820611586511,1.08839567424773,1.09578904376718,1.09667693425497,1.09809595766263,1.1004160918071,1.10314115597934,1.10449834192651,1.10506772836844,1.11175873149276,1.11229633480425,1.11501021036845,1.11716582981788,1.11809408281597,1.11939524057719,1.11924951394848,1.1187944838231,1.11789681127247,1.12265319125415,1.12541804797163,1.13076813757397,1.13536160327575,1.13430446162781,1.15120276968916,1.16390319973508,1.17640110565426,1.18937522085822,1.13198435425073,1.12481605391848,1.12512440024472,1.1467972776226,1.18593096042813,1.14833285288772,1.14312239863638,1.13878288077252,1.13360201409457,1.12586348588008,1.11581398640903,1.08664908106514,1.08972552632518,1.09573597821748,1.11648019724284,1.1137798717307,1.05749920020979,1.0573959585463,1.05788575032894,1.05874092732487,1.05883377370726,1.05771934881919,1.05680956349275,1.05615408142745,1.0559853982218,1.0560642233134,1.05644093548128,1.05640863591836,1.05634072221205,1.0556512089747,1.05516855873166,1.05424288388603,1.05270158224022,1.05209704208443,1.05152617820286,1.05142419823199,1.05160850774988,1.05185885140287
1.07410107854174,1.12004931138842,1.06924349411123,1.06749213559656,1.06721527308779,1.06461789449949,1.06325982419348,1.05816078767784,1.05759040489823,1.05769698817936,1.05679994011855,1.05511618998596,1.34428968510033,1.0449810875593,1.04508174532912,1.06110036510496,1.05065213437729,1.04980598877614,1.04885175497057,1.04695355404767,1.04821711141102,1.04677036891134,1.04625560992299,1.04623317175655,1.04663551213592,1.04859899991196,1.04792286244536,1.04980989677283,1.048407352326,1.0520281645006,1.05024516668266,1.05283610934282,1.05114236972764,1.05503148599127,1.05347250745658,1.05410469800018,1.05218389357991,1.05368938242853,1.05215274724318,1.05211243290556,1.05089812596247,1.04925493104669,1.04830774293391,1.046660820513,1.0449396719034,1.06399911863779,1.06358269915203,1.06403618494043,1.21791462877828,1.19922398117338,1.05397522975236,1.05459694548314,1.05420998562526,1.05572693837739,1.05659748949166,1.0575493491422,1.05679208945314,1.05760564649792,1.05715159337112,1.05738113740844,1.058670298644,1.05678557207928,1.05723243370607,1.05672556306382,1.0579300365754,1.05683248668504,1.0585773534859,1.05801274498725,1.0611786097847,1.05964034067583,1.06240599718879,1.06015307114558,1.06223105079877,1.06022996029105,1.0616790296878,1.06127740197318,1.06318140998623,1.06377721632944,1.06744066774193,1.06732155635765,1.06754360469417,1.06732539149895,1.06765324328312,1.06727654628884,1.06606621691781,1.06516889331624,1.0582342820852,1.05889410598879,1.05842900278828,1.0581634614117,1.09974172107224,1.2556970667847,1.27245522973784,1.2639382986313,1.08484294210048,1.26341066983859,1.07564599299279,1.07560551782958,1.07785662313959,1.07753415538552,1.07685976233725,1.07572363511082,1.07541152016437,1.07676811473621,1.07904510999109,1.0802088259823,1.08756432374465,1.08777269695178,1.08822586947198,1.21501766016618,1.09792225174486,1.09880871954932,1.10146415662201,1.10297155661572,1.10452184234945,1.10631210140157,1.11333683238849,1.11253256377547,1.11759826891578,1.11884750071266,1.12024665027458,1.12042517237584,1.12087419388256,1.11810520975893,1.11785618617211,1.21448949882596,1.21456854300025,1.13333074225858,1.13343967553766,1.13351878529383,1.23283562731989,1.28899458111755,1.20365614329817,1.2035656091192,1.12524105978504,1.12553570972728,1.12641390294722,1.16914646360965,1.33977847020225,1.1360072835318,1.0928057123735,1.09578302111943,1.09252143838239,1.19671100817321,1.15249761572677,1.07807927696958,1.18158054746925,1.08002791032363,1.11569338016337,1.10848556619254,1.05727413949402,1.05738760196166,1.05645682718808,1.0592689157336,1.05905080319458,1.05783596643548,1.05628728150093,1.05585696575321,1.05489894045759,1.05506066368358,1.05478269997978,1.05499962335203,1.05441432288189,1.0544476498335,1.05314677876655,1.0527945673999,1.0518662442137,1.0515477010556,1.05105873178253,1.05159271265683,1.05102475540453,1.05119849349981
1.07382173780017,1.07329369004897,1.07140537433776,1.06965361556439,1.06791108147381,1.0666722238924,1.06066020253067,1.05936071095671,1.05848187374202,1.05731157689842,1.05724939223704,1.05685094103088,1.05789542753234,1.05841654500318,1.06075688962525,1.06174946609284,1.04867958310256,1.04903323800039,1.04809580615409,1.04774607944676,1.0474734171671,1.04767612261819,1.0472319025942,1.04775478375897,1.04875641944879,1.04953685530561,1.0502984163533,1.05003758270375,1.05101028960854,1.05096341701735,1.05238952724947,1.05205596944927,1.0539420646998,1.05408001114815,1.05561303134962,1.05468698411909,1.05512307667984,1.05415350601418,1.05382334572165,1.05304763951401,1.05228415163036,1.04948860799063,1.04853114836995,1.04712870669345,1.04526886811493,1.05269084348692,1.05792447330136,1.06201893179318,1.06992510820982,1.07228319255363,1.05766202252981,1.05568947401255,1.05598502128141,1.05650044580699,1.05761901422731,1.05802054830215,1.05845201077895,1.05810135977646,1.05723784062265,1.05707439009704,1.0572493984299,1.05687268939325,1.05679128225791,1.05735867155313,1.05774612882011,1.05870377232053,1.05886963657934,1.06073128736757,1.0606608547683,1.06235221224252,1.0618614609496,1.0631513202192,1.06250935501865,1.0631450330487,1.06225183619545,1.06328243842428,1.0631358209126,1.06461258389061,1.06563833788609,1.06686061843781,1.06692716820981,1.0675681524208,1.06787359454516,1.06844987533193,1.06818456108793,1.06725015649252,1.06486490794019,1.0613198377191,1.05972566706305,1.05954650585125,1.07946976308856,1.08093471179376,1.10097956489186,1.10115069020897,1.09111933350427,1.07834074737147,1.07522600217955,1.07639848516005,1.07723479061154,1.07678726642732,1.07610447474182,1.07568426903868,1.07606142594507,1.07730288230143,1.07875586315962,1.0792704103724,1.08578899819023,1.12695609289817,1.15487188906526,1.18625296014808,1.1712448363229,1.16075637503685,1.15162102717025,1.14090494808631,1.12874775746594,1.11245284081709,1.11398708591844,1.1155153945776,1.11764160154914,1.11915371025095,1.11973103516234,1.12036501480131,1.11993943367385,1.11937141822557,1.16001198610362,1.19877658493204,1.18953542772368,1.13280380217343,1.13305372854318,1.13327194236902,1.1796488698251,1.2065283775472,1.17769238627414,1.15928752966786,1.1337740859068,1.1300313722631,1.12780445457914,1.145468229193,1.21170088795053,1.13027763633857,1.12219208902787,1.08962501811289,1.08486603959384,1.08205019925725,1.08149100935812,1.07841498166199,1.07521558069854,1.07336804895016,1.07093052967279,1.06946264998052,1.06716023070616,1.06550743433276,1.06356136380267,1.06087599978689,1.06037346680994,1.05841482185036,1.05729302617812,1.05568093075507,1.05519186802324,1.05451463896334,1.05465343677697,1.05436808349659,1.05423137249181,1.05354840577046,1.05305021061891,1.05211063849026,1.05171853266085,1.05111337899389,1.05094853976407,1.05063147961527,1.050093147136,1.04944870707826
1.07435762679306,1.07442805651715,1.0735357353437,1.07161353834152,1.06865259453817,1.06661809614115,1.05995560576965,1.05935932783784,1.05812050687319,1.0576819618701,1.05635849234754,1.05721170959502,1.05698444551491,1.05631020198138,1.06460627081827,1.06462955840845,1.05077352041997,1.04916925236557,1.0479624623332,1.0459164134759,1.04839914039201,1.04745416731167,1.04847522821775,1.0483970738947,1.05064018045177,1.05187978850516,1.05136470830562,1.05215698648763,1.05071380614574,1.05289813732079,1.05134629704261,1.05416566800019,1.0533811246752,1.05657400736456,1.05577374484745,1.05777033381009,1.05607767022925,1.05662085507878,1.05371886362387,1.05575519714615,1.05556594373795,1.2459591615288,1.09399147009182,1.06433937456289,1.04277665203792,1.04323262704735,1.04367996557257,1.04381174101879,1.06649901329265,1.07939373865858,1.20008787193651,1.05716107800405,1.05715965656662,1.05764523647402,1.05845064501319,1.05908895910408,1.06006343508434,1.05970805575478,1.05574993824719,1.05621267917723,1.05576186876869,1.05663737356063,1.05675877091665,1.05669329394833,1.05835402529281,1.05886080287532,1.05963742558716,1.06170098473741,1.06290509969621,1.0622626008394,1.06457258212095,1.06304292362438,1.06614659401219,1.06329187618396,1.06485775235634,1.06343237098199,1.06469342355231,1.06369489806087,1.06611021472415,1.0657163887861,1.06729124743105,1.06694403710303,1.06867567606334,1.06951824227914,1.06987855142284,1.0699099358205,1.10109321242486,1.09403866672674,1.05884574047666,1.05967636240935,1.06158674259826,1.06374401525053,1.09773297189105,1.09599245470829,1.09515607283564,1.07482768986122,1.07482892800082,1.07762984467538,1.07787244659587,1.07564695138237,1.07500245985123,1.07461478033667,1.07558294227563,1.07743534143903,1.07890497081559,1.08045758905982,1.0829959233406,1.22657053579815,1.27498979109336,1.23929724746172,1.2516304906463,1.51650116910137,1.17597509298789,1.16285229020166,1.16342200459156,1.10961382832313,1.15570576310335,1.1176722589612,1.11821617743665,1.11871548566286,1.12047725990893,1.12035548020043,1.11999798371147,1.11987726739262,1.22248138011685,1.23097383183944,1.17312496303194,1.13214564454468,1.13277062247392,1.13390854095182,1.13938056668428,1.26059225683195,1.11201184139703,1.11199078467774,1.1351929303592,1.13145815348787,1.12752766689004,1.12643214727813,1.32210009228443,1.12213591506704,1.17033308874794,1.08007215504105,1.07549427187702,1.0750644541149,1.07389856496418,1.0725720900985,1.07085096883229,1.0695040381663,1.06931149790112,1.06862702765809,1.0664039415422,1.06610898157007,1.06419221020852,1.0632241828812,1.06291295296263,1.0582284790182,1.05754384431022,1.0553683745252,1.05487770569297,1.05393384037285,1.05427242845591,1.05470282059297,1.05389268415763,1.05378117082715,1.05257567798341,1.05231918243533,1.0512220536617,1.05118223055981,1.05023796894409,1.04986109819715,1.04923407676233,1.04893056908983
1.07423227622162,1.07392858499951,1.0728756233256,1.07106274585062,1.06930861750109,1.06863065560378,1.06222732191682,1.05787839859824,1.05797473304901,1.05664555689274,1.05601325824734,1.05552758185022,1.05547957394787,1.05426802453917,1.05165188903651,1.05059394665938,1.04994638451684,1.04948840012785,1.04775850925152,1.047672458084,1.04722377505496,1.04807213592681,1.04844451727971,1.04973152403862,1.05102516814441,1.05203524006768,1.05259081333315,1.05235791411742,1.05297658438358,1.05267419490369,1.05349837959071,1.05341620110974,1.05524198057606,1.05560822448576,1.05737804641195,1.05687343629138,1.05750086690447,1.05676385333398,1.05682102512271,1.05680705134473,1.05803862779866,1.06028825666573,1.06204542215815,1.062890784777,1.05177432709789,1.04341829066949,1.04323908207625,1.04323455389392,1.06676219839513,1.10312427313362,1.13031581851621,1.10185935038788,1.05780026708203,1.05822753561082,1.059074413944,1.06026086291475,1.06075384604308,1.06075499688713,1.06053789403885,1.05867874721396,1.06025649300992,1.05936914180499,1.05910083187134,1.06000517492694,1.06026992948099,1.0602364186825,1.06117300481373,1.06371388458827,1.06356555013527,1.06500070388888,1.06430710028486,1.06580781975694,1.06521738503467,1.06623473269913,1.06528264205931,1.06638421714174,1.06518795358988,1.06586719707623,1.06547005023804,1.06635942454895,1.06693690176019,1.0678482539375,1.0684676538705,1.06978403212961,1.07037680925688,1.07100196718052,1.0988136946851,1.09634389686358,1.06256978308187,1.06281079805916,1.06339482243882,1.06413245763188,1.09325934878559,1.09549593446938,1.09441216821362,1.08455462152493,1.08128816966038,1.07960857052675,1.07798631374837,1.07603377241244,1.07502988138475,1.07487717194934,1.07502779917297,1.07896927142764,1.08040108021021,1.08306065561312,1.08441603213252,1.15059500531306,1.25857439929944,1.24275687739573,1.24469851534986,1.29237533433204,1.17057173850576,1.16273472570185,1.16240414038158,1.15184980918297,1.15256445595663,1.11879542938695,1.11840173576669,1.11921816928052,1.12000983223053,1.12043399897339,1.12045037162917,1.1209287851437,1.17460122732313,1.17549696589976,1.17410567303615,1.14347351997677,1.13877265841103,1.1388667169448,1.13967893153895,1.14259626909226,1.14041354382906,1.13435886828272,1.13434252311575,1.13219847344202,1.15064147458418,1.15911808372701,1.21604993970345,1.1336927795549,1.14102011017284,1.07781976308242,1.07607839010845,1.07497170494289,1.07396208457957,1.07287220897225,1.07176346874008,1.07073840668453,1.06985274007611,1.06819818266169,1.06682526406857,1.06559103869574,1.06479295813774,1.06321491503675,1.06230012992183,1.05993149249253,1.05894433498291,1.05742010913206,1.05697030396459,1.05562512683052,1.05582453593152,1.05502053867894,1.05385098573683,1.05288201168947,1.05246717380152,1.05196286239482,1.05153011284252,1.05094105646484,1.05095608879097,1.05130988572738,1.0664507639117,1.07626096335121
1.07451829146605,1.07389254384638,1.07310693265332,1.07033976829416,1.06985621045352,1.06914936408579,1.09599424321432,1.05844979397003,1.05717933901756,1.05647349779974,1.05407781219238,1.05410252082104,1.05441243006475,1.05469323269277,1.05495081131357,1.04985545534882,1.05071017999259,1.04812129624222,1.04881642091351,1.04667373518103,1.04776032934313,1.04663926740059,1.04928882027922,1.04982901661716,1.05162489598839,1.05277921669223,1.05290771205272,1.05349408404113,1.05323246391024,1.05465349167335,1.0525399082559,1.05503247030315,1.05400576281077,1.05764237025431,1.05699593355027,1.05866397864569,1.05682352922726,1.05889050070413,1.05750271462138,1.05789405691924,1.05733132157778,1.05887664095778,1.06121961942107,1.06296302726026,1.06190149693467,1.04267630665972,1.04262462503552,1.04310309168418,1.06664833119848,1.12843199450007,1.17667086059415,1.17647307431603,1.05845880729194,1.0590053149244,1.05996959629699,1.06211826878637,1.06248516014872,1.06297393406585,1.06205548618245,1.06965309077092,1.06124826632319,1.14486257402084,1.06389342401326,1.08156190255876,1.08788053498461,1.20884852910802,1.06787260008681,1.0659999906312,1.06708000329468,1.0647788989436,1.06733350270944,1.06502300618063,1.06810426712702,1.06596905400231,1.06835808522854,1.06729552596254,1.06762878513943,1.06560886715322,1.06645986127127,1.06462424024849,1.06827710684398,1.06737172642733,1.06861166383208,1.06957745338505,1.07046107665095,1.07146194623567,1.10058590436075,1.09859805172525,1.06369227876062,1.08116732420593,1.06510941210999,1.06513354907805,1.09069235759066,1.28051314798219,1.09122557406884,1.27147326667772,1.08150375262849,1.08043543561395,1.4326117686562,1.07515057787368,1.07440375963369,1.07404621892169,1.07450134140103,1.28888987197089,1.08643898432773,1.08571023596217,1.08695109430844,1.08740826567546,1.42243753931159,1.17983247673755,1.17894827364417,1.3683814988404,1.16488414462948,1.16186982209422,1.16243775333193,1.15174432226516,1.45209637768408,1.12050619449163,1.11781642777957,1.11949113998617,1.120453583188,1.12041546708516,1.1209233147403,1.12230819751061,1.17562545677448,1.18047774605741,1.18936083870637,1.15341930083059,1.15327175310522,1.12790748684972,1.12820594263889,1.14962089276641,1.14132530107719,1.1357916964966,1.12552740869842,1.12464501739402,1.18783551283482,1.1679380764899,1.2890731128778,1.09211537172074,1.14942554201607,1.07749858739665,1.0763289504477,1.07501280883092,1.07390650597201,1.07317161756626,1.0718048701985,1.07211511519265,1.06994876939544,1.06850220681394,1.0656532441925,1.06639507648502,1.06439135788865,1.06472866878582,1.06183794233173,1.06133942324465,1.05889884105849,1.0603204417892,1.06006768579519,1.20484340795093,1.05900454970941,1.0725670445367,1.05324110385902,1.05282697716477,1.05184784935134,1.05165927474753,1.05103661428957,1.04997876162464,1.04992549037395,1.05151564705499,1.0811290092129,1.08965630816222
1.07562777338224,1.07364512570317,1.07177573220368,1.07071229835737,1.07072942513455,1.07126957594957,1.07291364729228,1.06172676983724,1.05659391649128,1.05581967822233,1.05519006223949,1.0544963645469,1.05434977377715,1.05438519913375,1.05375205972129,1.0523293008135,1.04948971738243,1.04842220767952,1.04700903097022,1.04662764339283,1.04610601851013,1.04696155603929,1.04701887339505,1.05215129880306,1.05273949953994,1.05348133393799,1.05377214212544,1.05358387372338,1.05342111945706,1.05351234427259,1.05477311382632,1.05507406452879,1.05646324946854,1.05696061253635,1.05854216222368,1.05825465123933,1.05893015950878,1.05851892406388,1.05867567891199,1.05791997770731,1.05832480331388,1.05914806688514,1.06180864926825,1.06280994459692,1.06313994944463,1.04304217452808,1.0428134239869,1.04279193427601,1.06626443405656,1.06632110373502,1.06653056016206,1.06593529400474,1.06314013431786,1.06195118161255,1.06180191114504,1.06284188942094,1.06384847574171,1.06457005683414,1.0648952680389,1.06642583471749,1.06489891261507,1.06454681892961,1.06450279595922,1.07188998323056,1.08099923373516,1.07823788452573,1.06779133167559,1.06722534340291,1.06591259945191,1.06684355974487,1.0662749224728,1.06785472420529,1.06763907599057,1.06921678366069,1.06879669186193,1.06989943683373,1.06854325797522,1.06874583989107,1.06799624220839,1.06833096385853,1.06842871565276,1.06910330119251,1.06956272687072,1.07043723991888,1.07083236708207,1.07090859222095,1.10106421082052,1.10065392503805,1.10181079842403,1.10090179613001,1.10003622532579,1.09773553166754,1.09415313047765,1.09259563240081,1.09097760594671,1.09120300446036,1.09288777286733,1.09183387735278,1.12726107385676,1.11588652133473,1.0799876240566,1.07460405793194,1.07600805650575,1.08098588875954,1.08291059509061,1.08811242133482,1.08871000603217,1.0892076676987,1.22423380929614,1.21632972275602,1.23447304875723,1.357121512563,1.35656084381579,1.35596318101509,1.35586648819167,1.35628747475428,1.35673567995989,1.2044346873105,1.17325763763783,1.11911188775885,1.11988546039809,1.12071399154642,1.12150485093352,1.12233479531754,1.13965358020959,1.1527537608276,1.16483511667057,1.14931397571164,1.13997264265109,1.12862223577883,1.12902159158081,1.12726660335124,1.12575319363986,1.12404206984246,1.12423200984315,1.16488034773795,1.19476564869381,1.20149948051084,1.20765542879455,1.17463190254584,1.15980235230592,1.07488649524694,1.07421468289361,1.07350581587112,1.07279940096258,1.0723010226147,1.07184278590103,1.071168558645,1.07030364513578,1.06840889937281,1.06691221622302,1.06552125939132,1.06540721880159,1.06371248359302,1.06310006495315,1.06120174729357,1.0612321460865,1.06083228687495,1.06173060788118,1.06165930829592,1.06107731113339,1.06188420721015,1.06525776803199,1.06752063737252,1.0714693488158,1.0734939480415,1.07426494386175,1.0754800740777,1.0773474486758,1.07906804425677,1.0886292374294,1.08792155933658
1.07772603375796,1.30247587119007,1.0699896681999,1.06996093886274,1.06977600142442,1.07078121031854,1.07119505760074,1.22143979235354,1.05537611126769,1.05572063858628,1.05602183569943,1.05487905462852,1.05388321975792,1.05415195001161,1.05440628509066,1.054351175464,1.04818323049358,1.04668545163242,1.04736527085024,1.04329199708572,1.04593038631266,1.04503094448507,1.04549163884375,1.0837038320496,1.15774178702299,1.08548951662049,1.12180481218405,1.13032110452533,1.05179640005464,1.0528185808776,1.05553856994217,1.05704001996384,1.05638188734886,1.05863031794317,1.05837955672193,1.06006245401418,1.05911785561283,1.0599519100213,1.05865701465302,1.05810530523279,1.05739636990913,1.05737673951039,1.16830654851036,1.25911759883151,1.06521374669895,1.04294222282793,1.04239647924007,1.04232070234923,1.06616210406453,1.0661856506214,1.04725639658884,1.0490867032607,1.08126800708436,1.06466538671751,1.0626734419622,1.06368983923049,1.06671160833737,1.06643669704299,1.06693085799801,1.06674593162108,1.06643693386212,1.06572644313348,1.06652598056377,1.06695688546224,1.08001885787113,1.07998962934876,1.06819368399777,1.06636475074552,1.06707106485673,1.06586760988104,1.06848724439959,1.06701199760628,1.07064704885178,1.06945577738279,1.07226836409938,1.07074048374812,1.07154674804236,1.06939568958589,1.07113786628985,1.06975358655066,1.06989741341687,1.06967668331659,1.07124887370677,1.07076744584718,1.0712350608996,1.06943862508861,1.10206121502154,1.10195339841778,1.14887644909657,1.09791975492217,1.09621459652052,1.09521644418482,1.0744177247742,1.0913518136819,1.08791814679239,1.08830508470629,1.40283076972553,1.08882749477036,1.15145058569933,1.27497229409383,1.09419365028222,1.07313287022045,1.07272401684024,1.07236490386466,1.07282692708281,1.2838202088069,1.07597395472236,1.0757244049524,1.23442328792448,1.20653044582132,1.24977232692501,1.46480600132313,1.6062630020928,1.40209132615426,1.40147815800646,1.40116951484032,1.40136505383987,1.40183697348492,1.35346045271866,1.11803749437502,1.1197002924889,1.12052255528669,1.12217257536634,1.12253426870806,1.12267642539231,1.12226683164778,1.18536762146369,1.14424644873602,1.12766557968417,1.12849945456334,1.13338105614583,1.12424043481062,1.12510997898342,1.12528967100776,1.12441859240118,1.25436210294942,1.20536820277551,1.20860736382767,1.22259719404512,1.19582548030222,1.23994712949268,1.07399518307025,1.07270215058804,1.07222297074901,1.0712964056391,1.07176814100844,1.0710664802361,1.07151972165092,1.06988773757758,1.07069708009109,1.06471214349123,1.06636946120871,1.06460893895983,1.06516060260554,1.06193605121871,1.06272524710322,1.0605678102967,1.06307158666752,1.06210894295099,1.06382459511074,1.06244263110252,1.06312935472689,1.0633483302289,1.06337077936288,1.0702542156034,1.07176870041943,1.07330099315663,1.0794665669496,1.07964714178432,1.08181324966441,1.09059137275092,1.09995889083599
1.07955337050209,1.08114239066897,1.07121838789666,1.06964856401592,1.06995334365663,1.07043729581006,1.07135546145823,1.07193468035399,1.06660850065171,1.06193255739659,1.0568117192653,1.05671700063114,1.05551691027311,1.05527965455343,1.05539373527343,1.05577016034803,1.04690230603632,1.04716660845578,1.04643311871541,1.0455112792624,1.04501355925182,1.04536141056746,1.04508453229897,1.06187300247998,1.07271634326749,1.08910340408319,1.09018873068139,1.07865167232444,1.06623511479656,1.06095424297655,1.05543388030402,1.05561473354952,1.05681372830543,1.05733909583579,1.0588530486702,1.05898281051016,1.05970940511633,1.05909484420681,1.05885384756511,1.0579368645124,1.05754929360439,1.05710970012261,1.18540368537752,1.19235667156287,1.05063991041287,1.04322891043308,1.04267167675229,1.04277068014106,1.04453728039586,1.04626804421172,1.0471071928311,1.04778340521239,1.05351605466558,1.05608233633138,1.06499921502824,1.06546344763462,1.06646583905339,1.06779206526459,1.06742244987094,1.06794128529152,1.06770103261797,1.06795811984478,1.06806820457132,1.06903620282904,1.07021122726337,1.07037613707036,1.06940169271895,1.06873874503709,1.06777812448945,1.06887324603149,1.06857395929912,1.07027548682029,1.0701548185773,1.07172351552833,1.07181269473493,1.07290114761924,1.0723279989981,1.07232830704969,1.07083694915351,1.07023264824525,1.06969522495032,1.07028378397295,1.07147138468908,1.07286041587485,1.07311513348616,1.08850288756407,1.10172143626364,1.10120400047404,1.1000264892451,1.09843638902526,1.09690346715438,1.09490933954783,1.09274036595341,1.09110995779386,1.08949318616081,1.08929966066509,1.16763202635698,1.11229046808315,1.13145294103575,1.11585526393062,1.08128179636537,1.07418087336174,1.07324124546134,1.07258115542808,1.07287230181575,1.07386786020946,1.07497171779647,1.07562697574501,1.19486092561585,1.20149524539552,1.30441733115769,1.4610747840828,1.4586363522107,1.42236106829717,1.41820799352399,1.34519889893228,1.3191239910366,1.29928522417468,1.29008508423813,1.16351329937512,1.12068872883236,1.12174635591932,1.12250944198408,1.12303260458457,1.12303792962878,1.12275350019834,1.12807333401532,1.13628275038737,1.13033585155718,1.13089469166766,1.12934393244301,1.1255654673604,1.12492436484612,1.12490934054736,1.12491330740532,1.23269722018971,1.21869395805194,1.20170247121016,1.1997871277059,1.19379015335212,1.14008066893371,1.07882472050241,1.07185440380315,1.07163819765809,1.07105610194946,1.07068463012353,1.07063829691457,1.07007434319349,1.07000035696043,1.06866323070126,1.06727332579571,1.06537543645257,1.06623492102396,1.06471324103265,1.06477771006623,1.06294126330025,1.06339312212043,1.06244319181847,1.06383266114212,1.06385032273409,1.0646894167233,1.06413034945092,1.06520032184796,1.06647728105437,1.06901305441174,1.07201488306065,1.07387489958472,1.07679717149017,1.07850598052941,1.08094090282192,1.08460599257546,1.08606224824165
1.07966120778115,1.07989720917029,1.09969203004121,1.06916264750354,1.06907710105207,1.06954239799734,1.06957949648412,1.07093637396802,1.06990457547303,1.26327978352627,1.05833386226021,1.05753709891011,1.05625003408847,1.05635154438746,1.05589015146913,1.17865741973208,1.04807617102634,1.04756122475752,1.04802595576553,1.04427596976527,1.04557557930715,1.04407602430085,1.04455191185722,1.04480720980525,1.04555871579868,1.10366625788062,1.09255394405594,1.07479130106509,1.07360573820031,1.12473234647233,1.05519753301962,1.05590836984963,1.05595131539578,1.05761660134664,1.05809327736335,1.05953786247833,1.05944671989743,1.05949833592505,1.05834319595871,1.05814038787321,1.0573644148423,1.05667762726122,1.18774990331362,1.204119253128,1.04519748727427,1.04344058180213,1.04241663811674,1.04174632588841,1.04368988076991,1.04586046372807,1.04730432106586,1.04850330374991,1.05041202225782,1.05555560368469,1.0846990422228,1.08277600526078,1.28491092807626,1.07040758249414,1.06838002477463,1.06833898967255,1.06985998854062,1.06905965645673,1.06995176065947,1.07069175421355,1.07244944858977,1.07153702920182,1.07073028297107,1.0690909416634,1.07011014160668,1.06932771592158,1.07124121284172,1.07082511672099,1.0722556362153,1.07150127556162,1.07386724193244,1.07348638093656,1.07517345747899,1.07415653858964,1.07146853561645,1.07018405973244,1.22309768564297,1.13630261534553,1.07178522300435,1.07373892180894,1.0737439705115,1.10351033784999,1.10263590764247,1.10053007250597,1.09957964549539,1.09901405266295,1.09784295450251,1.09564648708738,1.09395056756571,1.0905473895388,1.0894717325547,1.08924303914149,1.40130376274843,1.09569428549115,1.15760224032299,1.07719782819158,1.07690652157238,1.07550625272724,1.07321252407292,1.07272891725666,1.07276847447672,1.07410671244836,1.07543276572886,1.07668524110589,1.18698211003777,1.14494977054267,1.47990606496876,1.47984362588578,1.45759466540112,1.44763752003491,1.42865903057475,1.11997672291699,1.23126521339388,1.23044677841778,1.28109035793985,1.19981739290592,1.12109504443479,1.12332027612021,1.12380611054743,1.12378150343858,1.12330513474547,1.12175726093666,1.12109774992324,1.17636263266016,1.14910752547389,1.12138411478192,1.12164612664524,1.1379025410657,1.12642688641931,1.12499333122564,1.12481849436568,1.26393422101695,1.26309654776319,1.10885692109884,1.19763084187351,1.19202711476332,1.08164893537793,1.09393556653792,1.07088812987287,1.07096584281106,1.06981324995529,1.07017410042446,1.06928424905903,1.07005596659743,1.06878371528837,1.07050873973719,1.06591851355175,1.06587304382699,1.06557774387495,1.06760815824464,1.0643855389308,1.06595616734205,1.06256269957825,1.06419432573618,1.06261559999728,1.06640948956374,1.06502719708658,1.06572183347018,1.0647477167401,1.06774448671451,1.06762313449662,1.07412478980808,1.07442106923741,1.07559401720411,1.07664485185648,1.07894880781168,1.06175604050287,1.0617055237081
1.08223931413527,1.08294572002,1.08406484682385,1.08339397708253,1.08262449358461,1.08122693550291,1.07748832728273,1.07270988877996,1.07140419326876,1.12491450686371,1.06344577006617,1.05849858734593,1.05762187111384,1.05717909430871,1.05807429188289,1.06218493698271,1.04826101976909,1.04824893958943,1.04720646983108,1.04614436495825,1.04538027055646,1.04549191761254,1.04532198074133,1.04589397203349,1.0464364124142,1.05212253031738,1.05885741911095,1.06619449303115,1.08503291764847,1.10097541790197,1.05551642790185,1.05625242007103,1.05702344515493,1.05741175637185,1.05856540717572,1.05886233372225,1.05942420872232,1.05909394788489,1.05866879152487,1.05771297790962,1.05689890769596,1.05634903570865,1.09328304876206,1.10293555097608,1.09342377467806,1.08327597976646,1.08360343434349,1.08411318784774,1.08516544913135,1.08496375188383,1.08374182715907,1.08156624177246,1.07896955238511,1.07701668980808,1.08837850504578,1.09215897754061,1.1002498216129,1.0931946954294,1.08490153363942,1.07197022981472,1.07127507389018,1.07113226234923,1.07069359413108,1.07129698537678,1.07094414017965,1.07030139888224,1.06958062820908,1.0699331704064,1.07031031134319,1.07198858572403,1.07152132744624,1.07241756411107,1.07227744853871,1.07360995420249,1.0740880440722,1.07511676593721,1.07520590906074,1.07550433803715,1.07553915203166,1.07693606700622,1.08127794626633,1.07977868630811,1.07827857042279,1.08092747189362,1.08254391019835,1.08999621374854,1.09146519257709,1.09426035121385,1.0970171813615,1.09820527890593,1.09767815341143,1.09514518460267,1.0926580212467,1.09058200541341,1.08942047182916,1.08964717221419,1.09120595487086,1.09485458087078,1.09668623475437,1.08838104390134,1.08217737904968,1.07490858776717,1.07403770092331,1.07352965696716,1.07431838390627,1.07531081848538,1.07597710478352,1.12083645014463,1.12827140351062,1.13359285955562,1.20076792045973,1.43476530738354,1.43514272997675,1.39365251592741,1.31314406317831,1.28791375498503,1.26534745644769,1.23060329133361,1.23066690697067,1.17477270713522,1.15846901467251,1.12273867493494,1.12293649915898,1.12314321514129,1.12330974646293,1.13234451936329,1.1413081534111,1.15241309868591,1.15180919817971,1.12274635428194,1.12268301130312,1.12363991922719,1.12610812174387,1.12417777068623,1.12418756136838,1.10711073315551,1.10082308205138,1.09784834572711,1.08957982907436,1.08658411299867,1.08145908278342,1.08091148402837,1.07772506448664,1.0740326123028,1.07138064562577,1.07098344413335,1.07075301085915,1.06999481743717,1.07022734827954,1.06899384869045,1.0681814292683,1.06624356293578,1.06719339031575,1.06578676539862,1.06636745680411,1.0645129847306,1.0650100021555,1.06356556040124,1.06467676765228,1.06432710993906,1.06490449246422,1.06551437930683,1.06698478304816,1.06782393868599,1.06957602463773,1.07190823211546,1.07353087372074,1.0750718941634,1.0760491971857,1.07703313867411,1.07521538016671,1.07543998946048
1.08522146660953,1.08370481199658,1.0836946973049,1.08327363608589,1.24855826981979,1.2597731968047,1.07637812410006,1.07907193207698,1.06825531349232,1.590670079418,1.07650348246492,1.05965065997424,1.0577814165656,1.05760474786898,1.05802564482544,1.0641786134894,1.04806795693991,1.04808183319947,1.04805354088623,1.04566980997209,1.04620636546736,1.04577888428865,1.04608981202283,1.04620198863342,1.0468216906783,1.04801384233854,1.04982838388931,1.05059553351374,1.14301271462832,1.2311777339904,1.05464294991,1.0578937512523,1.05716169041312,1.0580026975641,1.05825332303162,1.05926246993659,1.05890642722813,1.05966183878198,1.05868261685331,1.05761904896916,1.0560094079445,1.05576998211765,1.05576394630974,1.12599755896175,1.19678954032756,1.08315535397645,1.08296597207975,1.08274998768291,1.08418437809355,1.10922667745858,1.28676951371125,1.08406023957089,1.09527145398827,1.0761246676485,1.26182258258394,1.37681057083563,1.11749363044018,1.1069534343165,1.10734062246039,1.07266209346191,1.0729265303446,1.0729814493527,1.12718423707892,1.08552059289359,1.14825691114705,1.10905213621744,1.08457597830844,1.08592062114386,1.07047096002658,1.07480766922085,1.07353595592067,1.07208710727594,1.07362075964087,1.07402524021779,1.07578787898446,1.07577138617951,1.07650434224411,1.07629928357384,1.07693852867218,1.07743160980584,1.07956524814231,1.08020631613257,1.08749944291821,1.08040752276407,1.07973227133429,1.09001733264648,1.0920926383544,1.09129966745653,1.09604240330888,1.09754144911601,1.09907830838209,1.09348759591506,1.09121666338526,1.08841682958804,1.08847310190595,1.08806447067836,1.08869827233774,1.09531126555557,1.09724474797851,1.09791564676797,1.09819451917542,1.07412023830811,1.07382458206144,1.07296203158188,1.1067241826356,1.10768897081643,1.07585612841774,1.19923274802933,1.1116801756628,1.11075516200829,1.10964774557575,1.43565497993624,1.43680036467276,1.36485628344268,1.09989402156075,1.421460254847,1.42086690356447,1.23042682009891,1.23033483614517,1.12235448572177,1.25736372220925,1.12249162695401,1.12253593276029,1.12147004185695,1.12141928449776,1.14998557142951,1.15234775953506,1.15221394792094,1.15329261600924,1.12293298397685,1.24754724878499,1.12055137034573,1.20562872664367,1.1218859786644,1.12279629088474,1.09826580465765,1.09704042676921,1.08876571136431,1.08773772265369,1.08567528033994,1.0848031597812,1.07954727872602,1.07901223580166,1.08068541276981,1.0797509586404,1.0721302453998,1.07091827393663,1.07139329891685,1.06986882653034,1.0709310306911,1.06706090197486,1.06879065460341,1.06565176698426,1.06781528069798,1.06471484952074,1.06676706031548,1.06369602552412,1.06538987444487,1.06374103188851,1.0652708444727,1.07718971606437,1.06716574274333,1.06719148758627,1.06907289346203,1.06940381754849,1.07105160775265,1.07167236510469,1.43449653155365,1.07442147038511,1.07763018365154,1.07124867468907,1.13653822373308
1.08666424188185,1.08633951075177,1.08543005992591,1.08444564835151,1.08485259747129,1.07967545990232,1.07663184844904,1.07620393049706,1.07599230509172,1.07538420408932,1.07663573753732,1.06147282750615,1.06034113889753,1.05975923051452,1.06127162891204,1.06549916972654,1.0528235556592,1.04914406039664,1.04896189997785,1.04853742054185,1.04770843506228,1.04766891317228,1.04764029765587,1.047820441133,1.04813414485819,1.04879142009198,1.0496950578527,1.05015023206997,1.0827441104865,1.08226430698326,1.05998636758601,1.05879209500978,1.05858727522231,1.0581858661151,1.05844869202666,1.058522305683,1.058866798164,1.0587915581445,1.05829030751429,1.0574856455629,1.05668596334945,1.05634735513504,1.05624141592367,1.09759735332741,1.13949984909246,1.08990003299001,1.08833938194387,1.08336860824833,1.08448845372318,1.08582852068576,1.08600876329171,1.08577307710161,1.08528940083349,1.08634343414338,1.08782724041254,1.0921856896115,1.10056916213759,1.09401483342239,1.08640476293326,1.07487771285641,1.07482599233423,1.07520131381332,1.07561141347868,1.07603630991078,1.07807749736294,1.07980817496874,1.08018202469414,1.07802668390483,1.07658891181466,1.07602542830577,1.07484905936319,1.07511430829274,1.07579207591051,1.07701475887855,1.07762323731895,1.07828349328589,1.07848736464326,1.07882960076011,1.07908725085527,1.07987064436534,1.08082666834629,1.0822353669074,1.08514767076778,1.083468934248,1.0847894238542,1.08752773262307,1.08703990203846,1.08761403430814,1.08658611312136,1.08654550711743,1.08714576924249,1.08638926570084,1.08799698514351,1.08830893116668,1.08830773999449,1.08911500711487,1.09044993479377,1.09351478633719,1.09673480139465,1.09849800804216,1.10007319140293,1.10353614908398,1.10599676377998,1.10703696376693,1.10678866718902,1.10637880572398,1.11257591988712,1.11256591960372,1.1119407668927,1.11039819589649,1.1088740478998,1.10752255298538,1.10469462517657,1.10261109556994,1.10103699952107,1.12911507068046,1.13675111607282,1.14668438910571,1.15889074578505,1.12170901914499,1.12194127343793,1.12073885895766,1.12029739513628,1.12048895646985,1.12196515974135,1.15032542827436,1.15028235933431,1.14907243082234,1.13354162198594,1.12361864588879,1.12321817469438,1.12310838461639,1.12610423667235,1.12672520406834,1.12668998768986,1.10110378216922,1.09754162623962,1.08645448924356,1.08585089528044,1.08465248804194,1.08339828363384,1.08181631627469,1.08110158752842,1.08059616715577,1.07895588926571,1.07546551068472,1.07323183855173,1.07158045723319,1.07130064144683,1.06936409485759,1.06889347762831,1.06721460732909,1.06750289000558,1.06598106824277,1.06665247848921,1.06503780695475,1.06544754675224,1.06397786013742,1.06462527329344,1.06505623728084,1.06607025903603,1.06751837301399,1.06852890775348,1.06940278235496,1.07071902914518,1.07103771672064,1.07217667382405,1.07255064294927,1.07357264895984,1.07375682663048,1.07255370644806,1.07178985441964
1.09001242202799,1.08807324106386,1.08908259117823,1.08452752839252,1.0851118499569,1.07426971853076,1.07514465634663,1.07496006941291,1.07516452667405,1.07509424994626,1.08065253673517,1.06235594865291,1.06109909852484,1.06029171727683,1.22967986533603,1.21507575651742,1.41608519028682,1.05118109294522,1.05035889490813,1.05046756363749,1.04912651931419,1.04878081093341,1.04920742834904,1.04942584943796,1.04896530676071,1.05002505975936,1.05035090769735,1.051064415577,1.08006895836741,1.07909029991355,1.06067865604453,1.06007755092399,1.05941932979348,1.05867306496126,1.05785845173483,1.05825788755282,1.05841492939766,1.05878750338285,1.05769446227063,1.0575739251674,1.05681164160499,1.05687434190074,1.05679642041874,1.05740878665053,1.3170566063829,1.09966876315585,1.23360349364546,1.08449878391823,1.08408159437829,1.08466390525113,1.08519101962914,1.08702231901707,1.08508166599545,1.08398106560115,1.08711557021835,1.07420674873268,1.18063816888629,1.07301731782134,1.07287298999284,1.07466076599387,1.07564076290578,1.07639138825474,1.07689945013643,1.07637415155371,1.07815408519013,1.07825335682391,1.0795066101325,1.07714458808941,1.07719221403152,1.07596581826492,1.07630677945572,1.07565195203951,1.07839989420175,1.07898103879042,1.07970629755274,1.08020209586014,1.08058061286867,1.08086159974226,1.08109909557306,1.08144416619332,1.08248133472391,1.08310450878506,1.0844945521492,1.08460644912178,1.08529466168486,1.08602604776673,1.08612252374209,1.08543668458777,1.08457254241989,1.08469165137487,1.08520549804304,1.08581876406188,1.08695892179958,1.08714663612187,1.08831556766809,1.08887360467738,1.09079844914916,1.09126679837224,1.09758321198001,1.09885174407213,1.10215491403986,1.18162989522862,1.27323586901701,1.20358689935569,1.27483268202735,1.08071074223107,1.11538197576998,1.11518081079682,1.11431075295146,1.12710828775715,1.1617382412468,1.10890894995753,1.10324494180732,1.10125891610352,1.1012902091112,1.10256470993925,1.10366112603976,1.10477669399674,1.17644180237704,1.12108441148751,1.11783527794029,1.118050123618,1.11784224721742,1.11782002491559,1.11544238087567,1.15122891788322,1.15041349618913,1.14785872322746,1.11838111702712,1.11801568500783,1.10250226004353,1.10184842979629,1.10150321455606,1.10141555811381,1.24912662002196,1.20281029755315,1.28108032200226,1.08466271132698,1.08445232155423,1.08383104008666,1.08307893545997,1.08267144245676,1.08193106759575,1.08219040735492,1.07943553805981,1.079287520347,1.07312316245597,1.07319197260748,1.07087178624458,1.0703150210353,1.06732897530209,1.06868226969093,1.0657367463809,1.06767587835179,1.0650989118443,1.06708393296677,1.06417315034646,1.06488209493802,1.06348181435747,1.0640613226459,1.06647295754296,1.06773941210949,1.06817229294608,1.07167129011,1.07065202870154,1.07217471967738,1.07220539348592,1.07284592697301,1.07233006630777,1.07266021232055,1.07253705468638,1.07226133445858
1.08912178218879,1.08905368111123,1.0884007544713,1.08801777266798,1.08782930096168,1.07871081158339,1.07361604201029,1.0743055318917,1.07537619029689,1.07723722212917,1.08112526682466,1.06977469775275,1.06354153056875,1.0642382493217,1.11925644750209,1.15072029437647,1.10737500968527,1.05298478237582,1.0524593599814,1.05231578424811,1.05185810362731,1.05144417211874,1.05129216879532,1.05095974149025,1.05074418711751,1.0510484504732,1.05164846529473,1.05227714625922,1.05926626565641,1.05951400541892,1.06024104034555,1.05987335820284,1.05959028407033,1.05881383225538,1.05852000621521,1.05837864302992,1.05843672647622,1.05846301219017,1.05867192324425,1.05821126953496,1.0585952529732,1.05853594803796,1.05865481427952,1.05909561894453,1.06334981917285,1.06539798680538,1.06983124277203,1.08764155162611,1.0840984220038,1.08367674467503,1.08423459358576,1.08531578370583,1.08387972796649,1.08196329405171,1.07675872305222,1.07541195399368,1.07556437023411,1.07521069957508,1.07504639694987,1.07592015925498,1.07616841919246,1.07699792162732,1.07714138736897,1.07752418506134,1.07793102417242,1.07847149804897,1.07763583199625,1.0768674186929,1.07574858022267,1.07554840899168,1.07528463991164,1.07516776791884,1.07942875431872,1.0797471904403,1.0804304729703,1.08093432147909,1.08116879485562,1.0817470216549,1.08267056497305,1.08349999530719,1.08447871152551,1.08524401294439,1.08588508612506,1.08648017794526,1.08675924736903,1.08672668901326,1.0858339014206,1.0851812099095,1.08463312757624,1.08461326501607,1.08496767149127,1.08584302984314,1.08677101468142,1.0882223679879,1.0892619174594,1.09093199229943,1.0918308912667,1.09327562269109,1.09572146879758,1.09730585161837,1.14087994815421,1.16650809324761,1.15516003682981,1.14571433763631,1.13192222909572,1.11887321959454,1.1181460339155,1.11810751568799,1.11753801216568,1.11714325711077,1.11428770377851,1.10632252791611,1.10459361921358,1.10200753175829,1.10143317391798,1.10228165342918,1.10311945588355,1.10381592604435,1.11339259402964,1.1140256091426,1.11524729861065,1.11568281578146,1.11599505110831,1.11581740139393,1.11490027873619,1.11483518899249,1.11569705579205,1.11763938130245,1.11965450678051,1.10874930036484,1.10223741591123,1.10146102031185,1.10064231289801,1.10006136413812,1.14552355503678,1.16606614918976,1.13512709759287,1.08291410033097,1.08291332826217,1.08264356485474,1.08233064814689,1.08186448458197,1.08180501627107,1.08150626211442,1.0807725065145,1.07895509924465,1.0764598792946,1.07422728152511,1.07319674013648,1.07095285252086,1.06913296433951,1.06721239820007,1.06718533567163,1.06577530682951,1.06616040639847,1.06529338730346,1.06591574426308,1.06382015476515,1.06227161833622,1.06230114158778,1.06503854057526,1.06714065251302,1.06944107754332,1.07086321389454,1.07188862429372,1.0720793605221,1.07300286289295,1.07286466299956,1.07316159977596,1.07280418173191,1.07301243474493,1.07260558537913
1.0896908258125,1.08911885012426,1.08942845023873,1.08885757605464,1.08949066170616,1.29238017363285,1.07320128901645,1.0733117951018,1.07316073066348,1.07478854096486,1.08166479807396,1.08239915799228,1.06392682184159,1.06439751124705,1.0755157287541,1.26187493710733,1.05708021962169,1.055583154166,1.05305343686212,1.05467297495446,1.05403012797921,1.05423699194725,1.05194189989805,1.05208307691466,1.05253330808736,1.05225403624252,1.07157878898286,1.05479765853094,1.05790036899622,1.05904875704155,1.06079585861124,1.06063883514034,1.05985401939207,1.05938633102887,1.05829962918445,1.05892258429156,1.0578703687524,1.05843903777584,1.06009566346252,1.20011404919897,1.06076690790761,1.06002262700688,1.05992497289332,1.06096370219655,1.06232174399259,1.06280772050498,1.06851845019852,1.23331554375835,1.0795075604866,1.08147201753159,1.08251790581678,1.08531999064063,1.08331049183235,1.08347517619211,1.07594300407696,1.07000775937642,1.078421745125,1.07693309976668,1.07692639172008,1.07681579061051,1.07707604737458,1.07702439616223,1.07819374496866,1.07711708865771,1.07862550707854,1.07788866319315,1.07694424515814,1.07487021014461,1.0747479888013,1.07327073252843,1.07405382740647,1.0737294403791,1.12263195957845,1.11011474439129,1.21786223315003,1.12683452110242,1.08090967828924,1.08193252231121,1.08424015835271,1.08528816621129,1.08681580771374,1.0873167807827,1.08782314662152,1.08843256195878,1.08868640662415,1.08785095123002,1.08588255996915,1.08354327548626,1.0833195301357,1.08469705200197,1.08502938520398,1.08523115296439,1.08701540854269,1.08828246530186,1.09077372832608,1.0924552579312,1.09355636535486,1.09358057836319,1.09511569673357,1.0968752744953,1.27568886613269,1.2682611289521,1.08406005391987,1.08363539824008,1.11782548845664,1.11867525921184,1.11906989040267,1.12104498067903,1.11956679906467,1.11798804475273,1.11337587472789,1.10494247725212,1.10667416351725,1.10218422062847,1.101720759231,1.10227919369753,1.10409981506516,1.10499116129633,1.1117864180777,1.11262348029837,1.1136396159583,1.11408942206211,1.11457705120702,1.11443722649776,1.114158905071,1.10776046145884,1.10861570772927,1.10945066388739,1.12181583493046,1.10331179328247,1.10257343919608,1.10144121241343,1.09934982313126,1.09834335013428,1.11018462342315,1.21396183147335,1.08141265361643,1.08157302497863,1.08148998484217,1.08189898319724,1.08122231713856,1.08107361767529,1.08120896606724,1.08209244458387,1.08193912331303,1.08047434516903,1.07756774598067,1.07645208790731,1.0737963938973,1.0738239707478,1.06789654315203,1.0678929255098,1.06572052837152,1.066397763376,1.06438693848072,1.06505877136462,1.06786944605348,1.06504882185406,1.07906053007589,1.07949240420986,1.0808676261905,1.09629999194372,1.0713208761564,1.07240632165422,1.07210676942738,1.07315329917957,1.07300607502898,1.07410553370159,1.07300850888665,1.07376245337141,1.0727439507021,1.07370470059926
1.09089122793638,1.09012018882607,1.089363851501,1.08932936396733,1.08957077000443,1.09054733365488,1.08235569450468,1.08213082665619,1.07960717053417,1.07783532208248,1.07944055332969,1.08077745052109,1.08207610575565,1.0799911207982,1.07361759561325,1.06964653998463,1.05884416212541,1.05765961494311,1.05852999241663,1.05744729386342,1.05728650365318,1.05722833479643,1.05853209249648,1.05950040764751,1.06092191639228,1.06050708797708,1.05896468318808,1.06021012057387,1.06005798180375,1.06038759808969,1.06131520928301,1.06120612721961,1.06106626783095,1.06052952961925,1.06010980805872,1.0597475874136,1.05958291075198,1.05961755895941,1.06035582609886,1.06082300508468,1.06115529119753,1.06135874722757,1.06171118164038,1.06215238149384,1.06308108881739,1.06427788389024,1.06711267492494,1.06997855224178,1.07446630462539,1.07676303677051,1.07742986552535,1.07867448906539,1.08270378636909,1.08494035442571,1.07359912081761,1.07406414885562,1.0763762308274,1.07720840259304,1.07733779528698,1.07775616877516,1.07766441514661,1.07797327783506,1.07746123406297,1.0774399157673,1.07742444483103,1.07735510648872,1.07527073856248,1.07397138058021,1.07248051432754,1.07210928424793,1.07165300199228,1.071693242192,1.09450888184346,1.1244371403847,1.13625144368558,1.13404342982316,1.112177295854,1.10745655809723,1.10368309909123,1.09677909887415,1.08766998807232,1.08762073727202,1.08806036752422,1.08904810264639,1.08965615512739,1.08954232191918,1.08902405833751,1.08956837746409,1.08873041494434,1.08617189650652,1.08742719890505,1.08829473257492,1.08904409276628,1.09060772575302,1.09191503107629,1.09360152634123,1.09435008341813,1.09500859064926,1.0954568011104,1.09609186112427,1.1487283306158,1.18116697902907,1.09704612611238,1.10146431875137,1.11600497737955,1.12136359903016,1.12180205150869,1.1222881660807,1.12186711509065,1.12120554851922,1.11111927671076,1.10589861814232,1.1063217215985,1.10448880616113,1.10399439110643,1.10415579655417,1.10516706761315,1.1066132681354,1.10969598965311,1.11134063376509,1.11250518616431,1.11309330179818,1.11372658914409,1.11351431052021,1.11249147360711,1.11002069057218,1.10966091277995,1.11077066696516,1.11335850512433,1.10604899842512,1.10494012059202,1.09985308659426,1.09840595532624,1.09702289309019,1.10412980447157,1.0894383089019,1.08108589929718,1.0807618785838,1.08049694931783,1.08028181736158,1.08032952230804,1.08051665978543,1.08106312446199,1.08166444144441,1.08172141683197,1.08048554710865,1.07856300521916,1.07698096078443,1.07368188425826,1.0725420058555,1.07045935598287,1.06861105969132,1.06762440110275,1.06665713702581,1.06733871866488,1.06826245604362,1.069695897264,1.07061491221016,1.07654516643723,1.075849652244,1.08076493478039,1.08227141360107,1.0786627414999,1.07504258573563,1.07442808210665,1.0744086477038,1.07486346274385,1.07436665475782,1.07447704528561,1.07405567942694,1.0742412936903,1.07396067318103
1.09343894481588,1.08982441125951,1.08962505294479,1.08882128362017,1.08871319224969,1.08728409288195,1.14787296716115,1.291036407493,1.07823267082514,1.07801521390205,1.0772075797124,1.07777852074666,1.32541587886329,1.20880490033878,1.06972729655209,1.06471870276677,1.06094516169631,1.05908673681343,1.06194044306575,1.06056400545538,1.06040038378645,1.06017906548175,1.06121079012611,1.06036356921998,1.06031638026413,1.06091351810105,1.06016356825922,1.08315140372861,1.06056861851801,1.06120404161199,1.06265080371678,1.06301408791252,1.06207067348432,1.0622941969949,1.06113629812587,1.06091725253642,1.06052226216779,1.06060966205829,1.06064512133421,1.06134880197154,1.06142873292258,1.06293208382474,1.06284952484455,1.06334625180411,1.06358114414951,1.06480080700264,1.06568217523112,1.06637324778492,1.06552210993464,1.06458745037924,1.06434326732617,1.07711432142869,1.08402077514274,1.20918010776591,1.07415084838297,1.0743294074895,1.07702289611556,1.07735332507829,1.07819639754682,1.07813403477809,1.07902043294059,1.07829991461207,1.07772757273237,1.07601737141765,1.07801366632215,1.07688933783008,1.07461903352845,1.07133102950196,1.07058491220638,1.06959681064202,1.06975378664654,1.06971535856527,1.07445967176251,1.13679954276626,1.14330370135473,1.19682444610875,1.11987689198472,1.36859091042172,1.11135760335617,1.11215948843569,1.08822393830117,1.08816752741361,1.08879544108089,1.09004690502002,1.09152460494996,1.09152326039646,1.09158601368251,1.09273375360694,1.09236337688407,1.09299544942384,1.09065909688623,1.09040293841962,1.09127117982845,1.09180770091042,1.09398478499913,1.09427352125016,1.09635711188568,1.09584979256003,1.09626629856453,1.09598872934183,1.09523319680597,1.28218849277993,1.08850174583801,1.19670229929995,1.11309639848605,1.19991476437494,1.20257305654809,1.20260983515462,1.27592340180551,1.29889833131315,1.10881069260343,1.10742620972797,1.10694813709138,1.10600288522069,1.10609035932677,1.10484757272732,1.10595918907313,1.10685314893859,1.10887003183596,1.11061405067894,1.11140190276707,1.11262546625917,1.11316113921783,1.11331149588503,1.11205637922612,1.11022686350939,1.10916174060156,1.10886652671316,1.15571749386037,1.12799827731286,1.19598676764571,1.09760775711896,1.09701586705887,1.09703397869296,1.2090841244702,1.08301395610354,1.08141023783135,1.08024753441824,1.07906038776611,1.07867678744043,1.07880991594786,1.07975901081975,1.08038991543349,1.08167490723233,1.08175731938519,1.1007888190091,1.1294220963085,1.13821374826651,1.07368827360074,1.07290604821561,1.07122326895851,1.07089965841835,1.06718938044375,1.06737446151032,1.06877674900147,1.09441872182836,1.0715062964652,1.07181523415205,1.0731899084802,1.07485778545988,1.09206534657305,1.08486505119427,1.08120126945004,1.07600350218332,1.07556585576194,1.07664681877322,1.07591859196996,1.07571741668456,1.07472262861164,1.0753177884607,1.07456721048162,1.0751901265227
1.09420977987875,1.09319205046913,1.09186776364165,1.09074503910622,1.08937203162568,1.08749874739557,1.08708301689736,1.08687264782228,1.07783134707885,1.07778240261301,1.07767034994687,1.07788927966141,1.07778638660088,1.07785512902524,1.07000493966852,1.06900857107935,1.06931163843413,1.0676013965622,1.0646552041793,1.06264380383013,1.06221128274339,1.06226117103137,1.06379661739427,1.06802109219239,1.0711820015196,1.0735624625959,1.07531444222185,1.0745788896523,1.07101513997547,1.07042201460134,1.06650647731615,1.06441115802814,1.06361527209202,1.0631976655834,1.06298735838249,1.06256820024763,1.06211701592248,1.06180762478084,1.06185350488981,1.0619726377303,1.06256401865642,1.06331741324705,1.06400030123677,1.06433949365339,1.06520028325906,1.0653727640301,1.06587069283793,1.06563286866208,1.06540001295282,1.06470333522517,1.06439234767283,1.06540345173034,1.06872773628111,1.07088198848825,1.07289604719667,1.07415586648151,1.07587101488302,1.07679296768315,1.07747162389445,1.07816199624308,1.07826831119224,1.07880693477407,1.07814664366291,1.07759536978847,1.0769089641073,1.07640373781758,1.0744893180592,1.07269122340976,1.07093412365005,1.06974694793273,1.06873579144532,1.06903452963492,1.07149566479578,1.10033257503346,1.11618185218543,1.1314935509876,1.12316003029526,1.11315664760168,1.1124698684142,1.11133394648604,1.09749525815041,1.09309878160018,1.0917420759896,1.09177737435174,1.09229861696742,1.09249969961845,1.09252342495184,1.09265918531615,1.09281070702657,1.09316146522682,1.09219071882993,1.09208106261118,1.09222141807834,1.09287786576163,1.09376032575154,1.09503372512443,1.09550271598909,1.09582681862586,1.09586311190557,1.09604195501169,1.09604180972666,1.09767392501777,1.10126368047681,1.16569268842611,1.14521962929804,1.21182010350159,1.22235083758199,1.23754034812363,1.25435070030286,1.18958341537178,1.10865014723965,1.10816565680413,1.10791837895443,1.10763738032826,1.10774993850341,1.10777444241313,1.10806857723582,1.10824663587307,1.10930217927877,1.11057234718486,1.11139524831416,1.1119724650703,1.11253842078665,1.1121269254697,1.11128625673875,1.10968165718555,1.10788304358192,1.1066864643317,1.10459148548274,1.10349844513134,1.10330857907778,1.09775826059395,1.09751645536749,1.09744169580513,1.09786642174432,1.0878682204361,1.0803408274153,1.07954947748126,1.07870005640998,1.07755139654926,1.07769425939325,1.07911389259183,1.07991619205866,1.08068036885983,1.08109471566045,1.11109638879909,1.13308273824012,1.13561058395452,1.07277136437896,1.0721125767991,1.07152977588697,1.07030566530025,1.06960851653612,1.06952610421562,1.07050888919017,1.07131058719226,1.07224874677948,1.07264562477944,1.07393453903219,1.07506587790457,1.07684400671885,1.07724857251511,1.07880773414018,1.07714419938799,1.07680659105938,1.07653461102749,1.07604480050282,1.07493213445115,1.07480803963123,1.0743515713667,1.0747241393176,1.0749360945709
1.09615886025073,1.09572500954094,1.09305970996245,1.09159993569117,1.11661894017156,1.08509669362263,1.08530711041451,1.08541618262281,1.07807617348926,1.07811618050333,1.07814145279851,1.07806622151592,1.07668519139918,1.07551274843841,1.07281713363228,1.07135197741386,1.06819981292286,1.06806650650163,1.06677957089779,1.06453554300851,1.06338177086562,1.06355387906262,1.06534702220418,1.06733879861679,1.07061597199196,1.07148500235696,1.2239441506747,1.18819956110319,1.09126269806803,1.0709469750188,1.06522192038677,1.06427265907486,1.06435866301945,1.06433100938835,1.06446371622033,1.06434106879026,1.06312496872425,1.06266744174987,1.0624741627157,1.06237024609244,1.06296068522032,1.06427103246544,1.06459564853499,1.06559592270434,1.06633660584998,1.06689495031045,1.0657207950136,1.06583293555458,1.06499262766491,1.06497180225404,1.06441412081502,1.06512400045662,1.07046264787732,1.07170059611286,1.0727153678872,1.07414684333488,1.07522025259525,1.0764152970679,1.07694505715058,1.07815467238279,1.07782326604038,1.07951896073732,1.07954567173262,1.07802856277169,1.07692484537088,1.07586745186911,1.07568610904694,1.07265502004887,1.07188336831641,1.06881990592831,1.06692124275677,1.06752798523004,1.06766252513143,1.07316713612077,1.07369368286498,1.1462011213237,1.1265171697419,1.0874236972179,1.10599432797423,1.3527885696472,1.10404113456788,1.09392069948195,1.09314939455343,1.09266915521518,1.0932844014004,1.09364373462013,1.0935333649761,1.0933792137736,1.09349845372602,1.09396788010236,1.09279410358743,1.09303632808848,1.09357786062184,1.09263261272471,1.09420740767126,1.09541194448082,1.09567057102129,1.09528404751875,1.09563129645225,1.09564572286886,1.09327498688161,1.0949292798732,1.10350257007394,1.28093198418162,1.10993317806586,1.55703229715087,1.30347278669442,1.30303903756845,1.31573038582662,1.11041082797179,1.10903946694301,1.10896616308018,1.10875887506054,1.10888425669611,1.10918533727621,1.11044653704314,1.10993999885997,1.10890886524992,1.10904216628909,1.11133674363247,1.11102157279355,1.11183845712163,1.11224438004595,1.11190985578174,1.11106733228525,1.18345660472122,1.10583874416914,1.10532216199783,1.1028460245076,1.10183309944246,1.1018069625418,1.09767531642572,1.09686915334202,1.09572130253469,1.09573527513699,1.19932873132503,1.0801332243123,1.07906296797722,1.07811380812743,1.07548468467827,1.07398590294849,1.08014938888943,1.0791198466798,1.08035485532294,1.08082129721037,1.16904000343865,1.17119494623428,1.17142737037206,1.0724538515002,1.0723048180268,1.07161407718386,1.0705162771507,1.07100598274006,1.07161630059913,1.07149201481958,1.06939886729429,1.10124269343812,1.07323897960059,1.07449934774551,1.0758188351242,1.07607308533669,1.07821341107067,1.07843219164234,1.07817277814348,1.07764720192815,1.07774045806488,1.07534540993666,1.07457144251514,1.07375413047973,1.07399254622034,1.0736036900179,1.07572436535614
1.09579312726094,1.09617678254702,1.09565529651922,1.10168804117865,1.10408503540436,1.09527126033205,1.08704419829427,1.08634857510372,1.07736143260359,1.07771385589711,1.07794985746499,1.07783826921592,1.07688802038828,1.07605991890257,1.07472955504534,1.07352489186454,1.07364384468891,1.07161074005002,1.07138472010934,1.071838484093,1.072654974929,1.07348529057191,1.07227464075021,1.07009547539928,1.07045845991197,1.07004057362057,1.21168939526145,1.20191882478474,1.07565975247138,1.06945124980298,1.06894103997278,1.06705912209086,1.06647567288563,1.0662111953551,1.06613889118042,1.06544607920996,1.06347292971571,1.06423440463376,1.06446864341325,1.06498596930806,1.06581429566694,1.06622636075455,1.06663735551551,1.06649284604977,1.06696428153674,1.06664062157863,1.06650881283121,1.0657463755831,1.06590844343464,1.06525177237275,1.06513496351161,1.06586489901976,1.0695405687152,1.07114325779055,1.07242860994348,1.07332657998031,1.07465045261025,1.07571748823358,1.07714305948728,1.07788389063459,1.07851786707527,1.07912482013639,1.0788744718148,1.07814977477106,1.07700690298976,1.07630530141637,1.07558173037055,1.07504603730228,1.07454624785181,1.06748770148119,1.06705328152941,1.06759543686122,1.07000664480289,1.07255651471107,1.07396635641925,1.08435034303772,1.08522607127007,1.08663233171106,1.08781411865347,1.08888999947397,1.09038808309266,1.09197754102367,1.09272369147208,1.09297470528041,1.09351828684649,1.09394329337315,1.09428036543649,1.09442998208363,1.0947087200489,1.09502687175516,1.0947318849796,1.09509492946743,1.09516032196932,1.09481682906853,1.09495022897508,1.09601872201837,1.09663685233715,1.09729238536022,1.09762149467397,1.09851534533315,1.10205772936064,1.10413570154645,1.10477024136375,1.10580274919385,1.10868968886536,1.18731280148675,1.30688003424539,1.31057020617217,1.31266923228818,1.1091677540259,1.10914585439482,1.10922127505704,1.10922253159053,1.10919396940163,1.10972731233218,1.11045612717859,1.11064546141976,1.11031918299358,1.11022040002431,1.110520236771,1.11096977456485,1.11154343786004,1.11186692442853,1.1173696141291,1.12012870820955,1.12517020979267,1.12291250412447,1.12267295903161,1.10016733992862,1.09930348695056,1.09851441062012,1.09731594169363,1.09708177519789,1.09707810655722,1.09792713095491,1.09120999511888,1.08158065067593,1.08057471296561,1.07949318348641,1.0781187059378,1.07821836458153,1.07952382109648,1.08018620984515,1.08037612223385,1.08027916710357,1.09249572203918,1.10288075059104,1.11673120155836,1.07226430994694,1.07190188801315,1.07145972534136,1.07070360186562,1.07099282762121,1.07135443673489,1.07154237607064,1.07109741398628,1.07184040524495,1.07258073629046,1.07400644743469,1.07505998109327,1.07647037223933,1.07784294534141,1.07886217051228,1.07884544417268,1.0787805632806,1.07829441644496,1.07756978344661,1.07583193879919,1.07543991512132,1.07498809827752,1.07538191113608,1.07602849867844
1.09515446316502,1.0961286137772,1.09684678031191,1.26005125448896,1.10750970169951,1.1076630867383,1.0874430725566,1.29939567997339,1.07688252273604,1.07813253210386,1.0785549741213,1.078545390537,1.07704430209854,1.07709679409084,1.07653953291448,1.07562742807246,1.07499896306176,1.07606762564961,1.07686031317087,1.07600489926823,1.0738341646467,1.19620491133758,1.07086266785057,1.20215587567122,1.13623378249487,1.06717724927944,1.30026098392785,1.29977815886461,1.06822730472608,1.06870625963069,1.07169211251261,1.07414606334686,1.0658685859445,1.06846388698758,1.06858631197671,1.06874071697966,1.07176009489832,1.06702692875888,1.06625747838134,1.06607459192726,1.06851579352412,1.06882522011221,1.06832257748357,1.06785432966416,1.0669803311281,1.0676737444478,1.06621694176775,1.06640583221041,1.065967384628,1.06630240281729,1.06505709608444,1.06487972866099,1.07014654203311,1.07082962847894,1.07186426045459,1.0731300360454,1.07313320130197,1.07536269659805,1.0774677909374,1.07794377533702,1.07918967353797,1.07942343591995,1.07894852628454,1.07820430628906,1.07719980190404,1.07623045083008,1.0761057368726,1.07650202780366,1.24638672348239,1.06159428641119,1.06101628136928,1.25411774166363,1.07106809884006,1.07175378685874,1.07553235552785,1.08244002440058,1.08314691029669,1.08506757147014,1.08685278676151,1.08919251632113,1.09079082011009,1.09205541274956,1.0928012945055,1.09347223573272,1.09383540369342,1.09436666180717,1.09531675882011,1.09511872679661,1.09623883914405,1.09635822303584,1.09656032394747,1.09681445270004,1.09782094989217,1.09575620505296,1.09545489712692,1.09630761281212,1.09801848419984,1.09913341295879,1.09935688919062,1.10013621334096,1.10107058915846,1.10410471109891,1.1050329993544,1.1042161152624,1.10428876876056,1.10428925996987,1.5618052846736,1.35681986806983,1.42644266046868,1.10810097332935,1.10923210530729,1.10974987378844,1.10941638300517,1.10917469406584,1.10956023383293,1.11121844173459,1.11133841323962,1.11168901887635,1.11055142928962,1.10974060068607,1.11032887614245,1.11150126398083,1.11128202334381,1.25305320652106,1.21511362322666,1.1355358382136,1.17269568110564,1.14087488301037,1.09754273440362,1.09656038393742,1.0951584728529,1.09566165253599,1.09646178678811,1.09671383508332,1.18473927038108,1.08538994384299,1.08392608386864,1.08194004491797,1.08063863872156,1.07979647499914,1.07981484383824,1.08076331361317,1.08092164455208,1.08091946700963,1.07908255653404,1.07829080093561,1.07746966568143,1.13615634461301,1.07245743291665,1.07219961490806,1.07108432657046,1.07050717448039,1.07054583101183,1.07204565271705,1.07184671488695,1.07168817330543,1.0712260571568,1.07160320026585,1.07367622484176,1.07477812515324,1.07668461710938,1.07872850427335,1.07997082687122,1.08014769118996,1.07972547100875,1.07959751249636,1.0814567383991,1.0751451377743,1.07647441482631,1.07596505880027,1.07599556150614,1.07700874556272
1.09532622472827,1.09623945943599,1.09668729880251,1.13280834820443,1.14914632423944,1.1664866786575,1.18501746829516,1.20421512006762,1.1148405453743,1.08862426634485,1.08633670310044,1.08300725633045,1.08195562761173,1.07958676111399,1.07751664627963,1.07590321004091,1.07656132901929,1.07867606158482,1.07818216471034,1.07647184655881,1.0750331366973,1.08234123242928,1.0865811546076,1.12638880335071,1.14539756110557,1.15337204726789,1.16077862885093,1.14714534268517,1.07600562691386,1.07518994810046,1.07345145711159,1.07139884377264,1.07224260659654,1.07375673517349,1.07386444320915,1.07315092296753,1.07287325428133,1.07417573580072,1.0736211095037,1.07299690086868,1.0703665243391,1.06881039488754,1.0679354114717,1.06723665891889,1.06707266869755,1.06702627102519,1.0674088033242,1.06724223854491,1.06742871044063,1.06679133396136,1.06681849423954,1.06725569898396,1.06912303302958,1.06973093169726,1.07087492987043,1.07340639611371,1.07483735992265,1.07561386516211,1.07713535107469,1.07812601756442,1.07958373639555,1.07963697472766,1.07885345800818,1.0781912946332,1.07765520573317,1.07668974252359,1.07697969123864,1.07893813692718,1.08045777974101,1.08056036558867,1.07996516591344,1.07871460342935,1.07791828173907,1.07794588201888,1.07838469400611,1.08183094537794,1.08350412616123,1.08485298603015,1.08621666665961,1.08767690003577,1.08931489419839,1.09018131633216,1.09133889705646,1.09281618329714,1.09375846881957,1.09449892114296,1.09567090611465,1.096660508376,1.09728547909854,1.09770159209541,1.09777367899659,1.09798624711748,1.09798566438614,1.0972360776573,1.09630284897411,1.09748487142217,1.0986180575141,1.09954938388493,1.10042766517685,1.10154875721102,1.102712386021,1.10390608760631,1.10447141130853,1.10424300805319,1.10420436709221,1.10448795417163,1.10594073308425,1.10715547393437,1.10868419012315,1.10932647161782,1.11000291682269,1.10993637825908,1.10946508763938,1.10904806109994,1.10961852838656,1.11047226419395,1.11119037704425,1.11116845780863,1.11066686332339,1.10977067242358,1.10925335577102,1.1426455024488,1.15373107070826,1.1603050478214,1.17668976359679,1.17801828668708,1.1767830944211,1.15420130273342,1.1057027543915,1.09540271797279,1.09503702720353,1.09495172505657,1.09540811993884,1.09585025631312,1.09571271180604,1.08460369891614,1.08418663645333,1.08275834176155,1.08183573704364,1.08106225170315,1.08085974296596,1.08085461879063,1.08086591172883,1.08007787957841,1.07915174600367,1.07817978574,1.07737424544392,1.07591949982913,1.07365730128991,1.07230460758299,1.07143784156227,1.07075445704842,1.07095109633527,1.07171514325768,1.0720514529933,1.07167797377332,1.07157619850844,1.07164614106347,1.07359526118767,1.07572625562436,1.07727042208212,1.07909706713085,1.08019918241278,1.08044650235011,1.08038691790827,1.08015596650768,1.07969735271278,1.07855386415353,1.07856243882433,1.07832381862082,1.07838614660273,1.07820311948754
