1.13647801080897,1.05190648323625,1.08457880369247,1.08476287310349,0.93841095775902,0.930537807042169,0.943631835598887,0.90146320689227,0.894736306598595,0.895313615205888,0.894937109592436,0.893648623715289,0.89568175402793,0.897171042898917,0.900032485561152,0.898593397438625,0.897472247389679,0.895581352531009,0.902199484536353,0.902693125229546,0.903320634585299,0.904734622333596,0.904391583885785,0.905086027572818,0.906583683235216,0.906182077247534,0.89575705515062,0.895572985739599,0.896091726807022,1.058022607757,0.940636524274091,0.895447483868449,0.895405649911398,0.901739311008801,0.898451161984654,0.901404639352399,0.903964877523872,0.904391583885785,0.906876520934567,0.915427381755631,0.916146925816895,0.92091599692062,0.923894574662595,0.925350396367942,0.926187075508947,0.926354411337148,0.926053206846386,0.926153608343307,0.923894574662595,0.94821683729159,0.946752648794833,0.904148946934893,0.925266728453842,0.948936381352854,1.0232836898225,1.07186128074921,1.08679600341613,1.0881012228761,1.1018478611628,1.11265775566458,1.11190474443767,1.1382517705879,1.20163858231038,1.18454522745967,1.15748702403959,1.15162190326115,1.23399296469302,1.22232129067601,1.23723091296871,1.25200666659884,1.31477433575699,1.26051569346286,1.27832859237484,1.24862648286919,1.2510528523781,1.27536674821568,1.28369170566868,1.31720907205731,1.38492151493879,1.36819629891011,1.37770097395192,1.37510726861481,1.37846235197023,1.41854764961575,1.4188404873151,1.46587858862236,1.45600577475851,1.47646257975607,1.55660807467287,1.519392586481,1.522555233634,1.55048358336072,1.62492292653587,1.71072437244586,1.6419409802639,1.62440418546845,1.57744975207529,1.50285980665475,1.46160315821183,1.45852417897294,1.44256034096257,1.44078658118365,1.43067949716031,1.38981608791366,1.39706172927476,1.37667185860849,1.36024784707057,1.34122176340413,1.28967396152686,1.27130885438181,1.2665481500695,1.21607129749271,1.24089556760631,1.24133064075963,1.21511748327196,1.2421422195264,1.13427754466813,1.13345759910994,1.13887927994365,1.10473440419927,1.06571168906282,1.04389946385684,1.03873715355685,1.01811301273109,0.982169276833545,0.98502235270437,0.997974145807116,0.979475169999511,0.965979535455112,0.928989950631311,0.941171998924334,0.951663955352528,0.974170624245544,0.957186037683156,0.951496619524327,0.950333635518331,0.949463489211687,0.995037402022191,0.951781090432269,0.952969174812495,1.00742025330905,0.951245615782026,0.950860743377164,0.968364071006974,0.934838337826931,0.942770056083652,0.937850382734547,0.941347701543945,0.94241028405302,0.943506333727736
1.12711557122113,1.07720766046022,1.08480470706054,1.07778496906752,0.939055200697593,0.931198783563563,0.944744618856422,0.898149957493892,0.898643598187085,0.897848753003131,0.895865823438951,0.893205183770557,0.895397283119988,0.898442795193244,0.901672376677521,0.902651291272496,0.897321645144298,0.894819974512695,0.903872842818362,0.903320634585299,0.903864476026952,0.905111127947048,0.905236629818199,0.905889239548182,0.904625854045266,0.90145484010086,0.89570685440216,0.895330348788708,0.895355449162938,0.897765085089031,0.942477218384301,0.906943455265848,0.903312267793889,0.902291519241864,0.902023781916742,0.902182750953533,0.903312267793889,0.904391583885785,1.11564470019796,0.91314324770069,0.914766405234238,0.91897490131349,0.923928041828235,0.925467531447683,0.92494042358885,0.927868800582365,0.925208160913972,0.925057558668591,0.92286545931916,0.921493305527913,0.912607773050447,0.915837354534724,0.939858412672957,0.939046833906183,0.968623441540685,1.05147141008293,1.10731137595356,1.09127223682051,1.10065140999116,1.11291712619829,1.11195494518613,1.16944316896454,1.19935444825544,1.19670217537846,1.18295553709176,1.15859144050571,1.16051580253002,1.23052074625785,1.23124865711053,1.21781995689741,1.25828176015638,1.3151173742048,1.34411667323201,1.24823324367291,1.25296048081959,1.28651131437386,1.29794871823139,1.31751864333948,1.34718728567949,1.37620331828952,1.36666517608207,1.36576156260979,1.40393086502241,1.41080836756146,1.46069117794814,1.47684745216093,1.4565747165744,1.45596394080146,1.55733598552555,1.53005187873739,1.5174765912481,1.53641064020903,1.63872813236244,1.62110766965289,1.65004840114023,1.59662643798711,1.4978146314345,1.46001346784392,1.460239371212,1.45804727186256,1.44199139914669,1.43987460091995,1.42688934065156,1.40452490721252,1.38788335909794,1.37694796272502,1.34337202879651,1.36791182800217,1.30836537353689,1.26832190984843,1.28779980025101,1.2732164828233,1.22945816374878,1.24035172616465,1.22234639105024,1.17013761265157,1.13026148479131,1.13259581959471,1.12027990263913,1.11214738138856,1.07414541480415,1.04554772176462,1.03544063774129,1.0037890658371,0.995305139347312,0.984202407146185,0.99291223700404,0.993347310157362,1.0027097497452,1.00332052551813,0.962624452099684,0.9967107603042,0.965276724976668,1.01916722844876,0.950869110168574,0.95007426498462,0.948526408573762,0.963101359210057,0.950844009794344,0.954901903628215,1.00822346528442,0.950618106426272,0.949932029530649,0.941523404163556,0.970606371104865,0.943464499770686,0.939758011176037,0.939289470857074,0.942954125494673,0.945455796126276
0.995104336353471,0.991406214550232,0.990494234286538,1.06054937876283,0.939841679090137,0.935884186753187,0.945765367408448,1.02291555100045,0.902659658063906,0.899170706045918,0.898099756745432,0.896853104825336,0.898936435886437,0.903069630842998,0.901981947959692,0.903839375652722,0.900927732242027,1.01685799401958,0.905169695486919,0.90156360838919,0.905119494738458,0.906675717940726,0.90737016162776,0.908466211302476,0.906592050026626,0.900994666573307,0.95399829015593,0.944652584150912,1.10911023610672,1.10927757193492,0.905671702971521,0.907495663498911,0.907537497455961,0.904508718965525,0.904006711480923,0.902224584910584,0.903052897260178,0.908616813547856,1.1145904844803,0.914573969031807,0.915343713841531,0.920472556975887,0.925810569895495,0.926212175883177,0.925752002355625,0.931073281692412,0.925760369147035,0.925894237809595,0.922522420871348,0.92283199215352,0.944945421850263,0.910741978566007,0.951605387812658,0.961921641621241,1.02261434650969,1.06473277446785,1.08330705139815,1.07759253286509,1.10163869137755,1.11313466277495,1.1148414882226,1.11623037559666,1.20247526145139,1.17725775214152,1.18005226047247,1.1921506408514,1.16274136904509,1.1936566633052,1.23179249855218,1.31761067804499,1.25695144032218,1.26319306671407,1.30061772469119,1.24894442094277,1.25766261759203,1.27117498571925,1.29376532252637,1.32647947693964,1.32617827244888,1.43405968088997,1.36664007570784,1.36563606073864,1.40356272620036,1.41951819741932,1.4444177686556,1.50308571002283,1.45845724464166,1.45722732630438,1.45722732630438,1.56262379769669,1.52578481511827,1.53826806790206,1.58463682589652,1.6615192721634,1.70632344016418,1.62138377376942,1.5548845156424,1.46186252874554,1.46121828580697,1.46037323987456,1.44538831645917,1.45032472339109,1.42508211370699,1.45262559102886,1.42671363803195,1.37815278068806,1.34146440035502,1.29724590775295,1.29733794245846,1.39711193002322,1.32755042624012,1.22243005896434,1.22209538730794,1.23827676189496,1.19264428154459,1.15480128399696,1.13841073962469,1.17300742210522,1.11920895333864,1.113176496732,1.07833717730058,1.0353653366186,1.02924084530645,1.02955041658862,1.00471777968361,0.981909906299834,0.96566159738153,0.954157259192721,0.953529749836967,0.953722186039399,0.947614428310067,0.942694754960962,0.982269678330465,0.982035408170984,0.95209066171444,0.950944411291264,0.967201087000978,0.964398211878613,0.953404247965817,0.95990524489142,0.956299157793692,0.951002978831135,0.951128480702285,0.941464836623685,0.967845329939551,0.944978889015904,0.942217847850589,0.942853723997753,0.942510685549941,0.94825867124864
1.15045891925515,0.991464782090103,1.07227962031971,1.05826524470789,0.939557208182196,0.928312240527098,0.92493205679744,0.949965496696289,0.904399950677195,0.900885898284977,0.900509392671525,0.899413342996809,0.900157987432303,0.901421372935219,0.902073982665203,0.903906309984002,0.904174047309124,0.905788838051262,0.906709185106367,0.901705843843161,0.906868154143157,0.906751019063417,0.909528793811551,0.909629195308472,0.908608446756446,1.1862353193245,0.953169977806336,1.09204198163023,0.901254037107018,0.903195132714148,1.10520294451823,0.909796531136672,0.909829998302313,0.91709237324623,0.919167337515921,1.10904330177544,0.908148273228894,0.908918018038618,0.916816269129698,0.915594717583832,0.916004690362925,0.922505687288528,0.925233261288202,0.925283462036662,0.926329310962918,0.93066330891332,0.925685068024344,0.925584666527424,0.921418004405222,0.922053880552385,0.969050147902597,0.971652220031121,0.951396218027407,0.970606371104865,1.00050928360436,1.07157680984127,1.08535691529361,1.07748376457676,1.10332878324238,1.10716914049959,1.11235655117381,1.18520620398106,1.21341902461573,1.17913191341737,1.20583871159823,1.16431432583018,1.16787857897086,1.19018444487004,1.23585039238605,1.41426385241381,1.23345749004278,1.26407994660354,1.26161174313757,1.24931255976481,1.24668538726206,1.29554744909671,1.2947107699557,1.29425059642815,1.33708020165616,1.38532312092647,1.37719059967591,1.37984287255289,1.39947136520085,1.45723569309579,1.46547698263468,1.46511721060405,1.45885048383793,1.45725242667861,1.4505757271334,1.57175196712505,1.57247987797772,1.53137383178018,1.59881017054513,1.6899245290005,0.00359669119097508,1.61202133418159,1.54551370926315,1.46197129703387,1.46109278393582,1.46028120516905,1.45070959579596,1.44963864649547,1.42487294392174,1.42435420285432,1.44875176660601,1.36781142650525,1.34332182804805,1.35850755445728,1.29876866378957,1.30332019831664,1.30665018129783,1.24281992963062,1.26976936476237,1.22043876260875,1.151170096525,1.15012424759875,1.14988161064786,1.15793046398432,1.11522636062746,1.08178429536152,1.11474108672568,1.03615181501114,1.02334225736237,0.989498586108743,0.983441029127871,0.981491566729331,0.978881127809398,0.968238569135823,0.946769382377653,0.956575261910223,0.947714829806988,0.976354356803565,0.976345990012155,0.980855690582168,0.951504986315737,0.950777075463063,0.950316901935511,0.951312550113306,0.953211811763386,0.959578940026429,0.955822250683319,0.946401243555611,0.93855319321299,0.939080301071823,0.942109079562259,0.943673669555937,0.942895557954803,0.941414635875225,0.942878824371983,0.948944748144264
0.996150185279727,0.986335938955746,1.11530166175015,1.06084221646218,0.938118120059668,0.927241291226612,0.918765731528238,0.909428392314631,0.906859787351747,0.899748014653211,0.900885898284977,0.898777466849646,0.898400961236194,0.901998681542512,0.90146320689227,0.903303901002479,0.90338756891658,0.90539559885499,0.906433080989835,0.906633883983676,0.906692451523546,0.907579331413011,0.909645928891292,0.910524441989346,0.957662944793529,1.19046054898657,0.901237303524198,1.10203193057382,0.902241318493404,0.951270716156256,1.14138931736666,0.912607773050447,0.910315272204095,0.907922369860823,0.908407643762605,0.910532808780756,0.911653958829702,0.912365136099556,0.915444115338451,0.915452482129862,0.916297528062276,0.924630852306679,0.923509702257733,0.936812900599702,0.930270069717048,0.929408290201813,0.927199457269562,0.92492369000603,0.921426371196632,0.921468205153682,0.95601468688575,0.919694445374753,0.946894884248803,1.01066656837615,1.01333557483596,1.07508249544207,1.07596100854013,1.09246868799214,1.11326853143751,1.11137763657884,1.1330894602879,1.14562291382015,1.14632572429859,1.1625824000083,1.16580361470117,1.16520120571965,1.16623032106308,1.22800234204343,1.19611649997976,1.24686945667308,1.20180591813859,1.24611644544617,1.28372517283432,1.25116998745784,1.2574701813896,1.31323484613754,1.28736472709769,1.33974084132456,1.33399285562586,1.38556575787736,1.38769092289551,1.41987796944995,1.40759551966,1.47113293362787,1.46313428103987,1.46494987477585,1.46386219189254,1.47338360051717,1.53540662523982,1.48582501934391,1.55858263744564,1.57360939481808,1.59646746895032,0.00374859865581582,0.00366496420888103,0.00350108386553252,1.55183063677774,1.56653108928518,1.460239371212,1.4849883402029,1.49369817006076,1.42951651315432,1.42542515215481,1.42428726852304,1.45092713237262,1.39041013010378,1.34535495836069,1.33331514552164,1.31619669029669,1.31556918094094,1.27157659170693,1.26585370638246,1.26316796633984,1.21574499262772,1.14970590802825,1.14466073280799,1.15419050822403,1.1539144041075,1.12499877299439,1.15311955892354,1.11393787475031,1.0316170140669,1.02989345503643,0.986126769170495,0.98518968853257,0.983775700784273,0.98508092024424,0.949312886966306,0.946844683500343,0.979943710318473,0.97156018532561,1.00890954218004,0.974572230233226,0.984327909017336,0.953504649462737,0.951638854978298,0.95202372738316,0.952350032248152,0.953496282671327,0.970706772601786,0.959302835909897,0.94616697339613,0.939297837648484,0.939942080587058,0.943087994157234,0.947363424567766,0.945782100991268,0.945388861794996,0.944903587893213,0.948350705954151
1.12662193052794,0.984394843348616,1.10970427829683,1.0636116244189,0.9385615600044,0.929366456244763,0.919627511043473,0.91121888567638,0.908231941142994,0.906700818314957,0.901647276303291,0.900618160959855,0.900434091548834,0.902408654321604,1.03618528217678,1.03956546590644,0.9054039656464,0.907043856762768,0.905947807088053,0.906826320186107,0.908290508682865,0.908817616541697,0.909679396056932,0.911026449473949,0.955178007744746,1.18578351258835,0.904475251799885,1.18061283549695,0.904425051051425,0.904542186131165,0.941213832881384,0.915352080632941,0.911921696154823,0.908892917664388,0.909578994560011,0.911771093909443,0.911754360326623,0.914548868657577,0.915879188491774,0.916088358277025,0.916523431430347,0.924087010865026,0.922070614135206,0.927550862508784,0.929065251754002,0.929031784588361,0.927534128925964,0.924664319472319,0.921317602908302,0.922212849589176,0.957445408216868,0.919660978209113,0.965812199626911,0.982378446618796,1.01107654115524,1.07555940255245,1.08680437020754,1.10432443142017,1.1101811854072,1.114339480738,1.11574510169488,1.14982304310799,1.14952183861723,1.16300073957881,1.16659009309371,1.16739330506908,1.19335545881444,1.22587717702528,1.19849266874021,1.24781490410241,1.25196483264179,1.24379884422559,1.25496014396659,1.25258397520614,1.27376869105637,1.29478607107839,1.34281982056345,1.36286665278191,1.3726892658973,1.38600083103068,1.38369159660151,1.44257707454539,1.53678714582248,1.45938595848817,1.4571603919731,1.49117976584633,1.46604592445057,1.46479927253047,1.47647931333889,1.51186247421196,1.59249324303055,1.59732088167414,1.59407456660704,1.59208327025145,0.00372282893827289,1.54333834349654,1.52052210332136,1.55584669665456,1.54476906482766,1.48512220886546,1.43185921474913,1.42936591090894,1.42698974214848,1.44489467576598,1.44194119839823,1.48568278388994,1.35557917746377,1.35028299850121,1.36146939861644,1.3710159076153,1.26316796633984,1.26695812284859,1.26123523752412,1.21605456390989,1.15220757865985,1.15004894647606,1.13715572091318,1.13494688798093,1.14392445516391,1.08663703437934,1.09278662606572,1.0577799708061,1.00101965788037,0.999128763021702,1.00594769802089,0.992468797059308,0.983750600410043,0.942611087046861,0.945623131954477,0.952492267702122,0.965845666792551,0.98508928703565,0.974898535098217,0.976998599742138,0.954366428977972,0.952299831499691,0.951245615782026,0.953220178554796,0.954701100634374,0.955311876407307,0.968815877743116,0.947321590610715,0.94811643579467,0.945957803610878,0.945715166659987,0.947413625316226,0.947129154408285,0.945773734199858,0.945731900242807,0.950802175837294
1.11271632320445,1.08954031099863,1.2685478132165,1.06129402319832,0.937883849900187,0.931441420514454,1.07171904529524,0.91133602075612,0.90939492514899,0.905261730192429,0.902609457315445,0.901019766947537,0.901379538978169,0.903019430094538,0.906642250775086,1.03782517329315,0.906658984357906,0.907905636278003,0.907771767615442,0.908039504940564,0.909671029265522,0.908809249750287,0.908273775100044,0.909754697179622,1.34205007575373,1.18129054560116,0.904918691744617,1.02044734753449,0.908031138149153,0.908926384830028,0.915410648172811,0.91522657876179,0.911428055461631,0.909085353866819,0.910624843486267,0.911578657707012,0.91321854882338,0.913670355559522,0.916431396724837,0.918907966982209,0.922380185417377,0.924681053055139,0.921233934994201,0.927919001330826,0.928981583839901,0.929073618545412,0.927057221815591,0.925107759417051,0.921827977184314,0.924488616852708,0.924764720969239,0.923877841079775,0.948710477984783,1.00132086237113,1.00227467659188,1.08645296496832,1.09802423748841,1.10698507108857,1.15162190326115,1.11535186249861,1.11490005576247,1.14473603393068,1.14994854497914,1.16597931732078,1.16506733705709,1.16407168887929,1.17793546224573,1.24999863666043,1.1993209810898,1.18404321997506,1.25424059990533,1.21765262106921,1.37857948704998,1.26884901770726,1.34379036836702,1.31576161714337,1.34122176340413,1.34056915367415,1.3955138728639,1.44080331476647,1.38386729922112,1.47951645862073,1.47191104522901,1.4624063701872,1.46160315821183,1.48016070155931,1.43582507387749,1.42749174963309,1.48098064711749,1.49287822450257,1.58924692796345,1.58722216444222,1.5938737636132,1.59198286875453,0.00369413921052785,1.54146418222069,1.54876002433025,1.53535642449136,1.49487788764957,1.46500007552431,1.43230265469386,1.43006035459597,1.44543851720763,1.44343885406063,1.44308744882141,0.00375976832234823,1.35304403966652,1.34895267866701,1.31415519319264,1.31507554024775,1.27483964035685,1.26826334230856,1.27958361108635,1.23291364860113,1.17291538739971,1.17802749695124,1.1739947034916,1.13211891248434,1.14445156302274,1.08406842941646,1.07057279487206,1.08636093026281,1.00363009680031,1.00286035199058,0.988837609587349,1.01363677932672,0.970623104687686,0.942970859077493,0.944978889015904,0.939908613421418,0.968380804589794,0.985700062808583,0.97157691890843,0.977659576263532,1.01377064798928,0.951053179579595,0.950618106426272,0.953487915879917,0.955278409241667,0.95598958651152,0.957386840676997,0.948484574616711,0.946668980880732,0.945664965911527,0.945087657304234,0.949187385095155,0.948032767880569,0.947530760395967,0.947396891733406,0.948476207825302
1.00275995049366,1.08996701736054,0.964783084283475,1.06295064789751,0.940025748501158,0.933173346336333,0.918640229657088,0.911796194283673,0.911135217762279,0.905964540670873,0.90347960362209,0.90156360838919,0.901772778174441,0.903270433836839,0.908457844511066,0.908533145633756,1.00633257042575,0.909143921406689,0.90937819156617,0.910281805038455,0.909955500173463,0.909662662474112,0.909913666216413,0.908892917664388,0.905094394364228,0.905546201100371,0.927592696465834,0.910114469210254,0.91319344844915,0.912867143584158,0.915670018706523,0.915494316086912,0.913871158553363,0.909804897928082,0.91116031813651,0.911394588295991,0.914808239191288,0.913971560050284,0.918180056129536,0.920171352485126,0.92294912723326,0.924087010865026,0.921275768951252,0.927935734913646,0.928404275232608,0.92874731368042,0.927124156146872,0.927416993846223,0.923158297018511,0.924488616852708,0.922739957448009,0.924195779153357,0.965845666792551,0.976371090386385,1.08040377477886,1.07524983127027,1.11565306698937,1.11799576858418,1.14835885461123,1.12322501321546,1.11802086895841,1.18998364187619,1.20178081776436,1.20161348193615,1.18297227067458,1.17415367252839,1.19345586031136,1.22470582622787,1.22466399227082,1.18267106618382,1.2149836146094,1.22568474082285,1.23150802764424,1.27409499592136,1.29174892579655,1.30888411460432,1.36971068815533,1.36086698963491,1.35041686716377,1.38379199809843,1.39041849689519,1.44508711196841,1.44133878941671,1.46200476419951,1.46176212724862,1.44892746922562,1.43657808510439,1.43400948014151,1.48142408706222,1.48260380465104,1.51985276000855,1.58825127978565,1.61675693811967,1.59271077960721,1.59148086126993,1.57266394738874,1.50540331124341,1.53511378754047,1.53703814956478,1.45362123920665,1.44866809869191,1.43933912626971,1.47709008911182,1.44153122561914,1.44327988502384,1.41039839478237,1.41533480171429,1.32097412819183,1.31448986484905,1.31464883388584,1.28354947021471,1.28002705103108,1.28020275365069,1.24184101503564,1.24949662917583,1.1695770376271,1.12381905540557,1.10080201223655,1.10650816397819,1.09590743926167,1.06840579589686,1.07000385305618,1.00972112094682,1.00969602057259,1.00526162112526,1.01794567690289,0.986335938955746,0.93854482642158,0.94813316937749,0.957328273137127,0.964632482038095,0.964824918240526,0.970756973350246,0.974195724619774,0.97342597981005,0.949413288463226,0.951412951610227,0.953764019996449,0.955822250683319,0.956165289131131,0.953345680425947,0.948501308199532,0.948752311941833,0.947472192856096,0.947162621573925,0.947848698469548,0.948074601837619,0.947196088739565,0.947965833549289,0.949856728407959
1.17618680284103,0.96571179812999,0.965310192142308,1.05731979727855,0.936971869636492,0.930144567845897,0.918757364736829,0.911879862197773,0.912432070430836,0.90549600035191,0.90539559885499,0.899957184438462,0.903964877523872,0.903805908487082,0.910022434504744,0.909712863222572,1.03214412192573,0.909955500173463,0.910290171829865,0.912507371553526,0.912992645455309,0.909696129639752,0.909779797553852,0.908993319161308,0.906868154143157,0.907135891468279,1.26090056586772,0.915670018706523,0.916013057154334,0.915954489614464,0.915477582504092,0.91510944368205,0.914808239191288,0.912532471927757,0.913553220479782,1.00878404030889,0.915946122823054,0.916833002712519,0.918221890086586,0.921275768951252,0.926940086735851,0.927007021067131,0.921434737988042,1.19704521382627,0.931156949606512,0.929826629772315,0.927400260263403,0.927726565128395,0.925316929202302,0.964557180915404,0.93855319321299,0.925208160913972,0.972990906656728,1.01208892291586,1.00844100186108,1.07903162098761,1.12673906560768,1.11739335960266,1.11464068522876,1.12512427486554,1.11535186249861,1.13863664299276,1.20634908587424,1.20571320972708,1.18827681642855,1.19328852448316,1.20900972554263,1.22484806168184,1.22502376430145,1.21092572077553,1.20900972554263,1.2213089089154,1.23903813991328,1.27481453998262,1.2858754382267,1.32342559807497,1.35331177699165,1.35549550954967,1.35048380149505,1.34855107267933,1.36535995662211,1.41336860573293,1.44329661860666,1.46233943585592,1.46208843211361,1.44188263085836,1.43877855124524,1.45093549916403,1.48838525751538,1.48131531877389,1.51325972837744,1.66771069780683,1.61914984046294,1.59225060607965,1.59169003105518,1.56592031351225,1.51190430816901,1.53810073207386,1.54175701992004,1.45339533583858,1.46140235521799,1.43992480166841,1.76870623691746,1.44858443077781,1.41699142641348,1.41616311406389,1.39121334207914,1.34167357014028,1.34265248473525,1.33248683317205,1.33031983419685,1.27765088227063,1.24862648286919,1.24752206640306,1.20004052515107,1.13301415916521,1.12372702070006,1.10273474105227,1.10437463216863,1.10027490437771,1.07853798029442,1.0833488853552,1.01438979055362,1.05059289698488,1.00282688482494,1.00499388380014,0.995966115868706,0.94425934495464,0.941464836623685,0.971794455485091,0.963427664075048,0.965201423853978,0.973861052963372,0.974789766809887,0.976320889637925,0.953571583794018,0.953136510640695,0.953697085665168,0.95603978725998,0.956583628701633,0.96752739186597,0.949823261242318,0.950383836266791,0.948409273494021,0.947179355156745,0.948886180604394,0.949195751886565,0.94810806900326,0.948375806328381,0.950275067978461
0.984419943722846,0.978295452410695,0.965477527970509,0.951011345622545,0.936863101348162,0.93075534361883,0.921802876810084,1.02254741217841,0.912908977541208,1.07267285951598,0.898300559739273,0.898526463107344,0.904416684260015,0.903680406615931,0.910792179314468,0.910106102418844,0.910691777817547,0.912038831234564,0.911151951345099,0.914331332080916,0.914456833952066,0.909888565842183,0.910273438247045,0.908951485204258,0.906876520934567,1.30100259709606,0.912750008504418,0.916439763516247,0.916983604957899,0.916841369503929,0.915569617209602,0.914465200743476,0.915301879884481,0.914649270154497,0.918405959497607,0.915469215712682,0.916665666884318,0.918347391957736,0.921083332748821,0.92295749402467,0.927140889729692,0.921627174190473,0.921275768951252,1.13853624149584,0.931081648483822,0.930880845489981,0.928881182342981,0.928981583839901,0.929676027526935,0.927760032294035,0.937524077869555,0.933382516121584,0.941640539243296,1.01664882423433,1.01938476502542,1.05845768091032,1.10633246135858,1.11618854163961,1.12950010677299,1.12722433950946,1.11573673490347,1.16433942620441,1.14071997405386,1.14335551334802,1.25943637737096,1.27955014392071,1.22260576158395,1.35390581918176,1.19703684703486,1.20872525463469,1.22055589768849,1.22628714980437,1.25926904154276,1.34643427445259,1.28485468967467,1.30460031740237,1.35289343742114,1.35582181441466,1.35315280795485,1.35025789812698,1.36383720058548,1.39414171907266,1.4407447472266,1.46259880638963,1.46818782305154,1.44151449203632,1.44055231102416,1.47649604692171,1.47616137526531,1.48163325684748,1.52309070828424,1.63285464479259,1.8683714561939,1.86715827143944,0.00367748929562187,1.52695616591568,1.51057398833481,1.46182069478849,1.4484170949496,1.45381367540908,1.45405631235997,1.47367643821652,1.64972209627524,1.46691607075721,1.41637228384914,1.41576150807621,1.41971900041316,1.3506093033662,1.35050053507787,1.33495503663801,1.32938275355892,1.27151802416706,1.27140088908732,1.21696654417358,1.21667370647423,1.14951347182582,1.15322832721188,1.10281004217496,1.11319323031482,1.15009078043311,1.08091414905487,1.11048238989797,1.0503586268254,1.01757753808085,1.00204877322381,1.00244201242008,0.979977177484114,0.955420644695637,0.937591012200836,0.945581297997427,0.955387177529997,0.96374560214863,0.964766350700655,0.97351801451556,1.04941317939606,0.954993938333725,0.954550498388993,0.956215489879591,0.957144203726106,0.957562543296608,0.951438051984457,0.950024064236159,0.95020813364718,0.948810879481703,0.948426007076841,0.949739593328218,0.949597357874247,0.949020049266954,0.950526071720762,0.953019375560955
0.98323185934262,0.97735837177277,0.96377906931427,0.949747960119628,0.937624479366476,0.930002332391926,0.926689082993549,0.920522757724348,0.91508434330782,0.956834632443935,0.956960134315085,0.899421709788219,0.901396272560989,1.00076865413807,0.914180729835535,0.912950811498259,0.912716541338778,0.914707837694368,0.914682737320137,0.916372829184966,0.916707500841368,0.910750345357417,0.910783812523058,0.909880199050773,0.908273775100044,0.910365472952555,0.916766068381238,0.917703149019163,0.918405959497607,0.918899600190799,0.918297191209276,0.917510712816732,0.916297528062276,0.918347391957736,0.918280457626456,0.91899163489631,0.919251005430021,0.919602410669243,0.923258698515432,0.925752002355625,0.928421008815428,0.922564254828398,0.92294912723326,0.931299185060483,0.939599042139246,0.939004999949133,0.936018055415747,0.932830307888521,0.93065494212191,0.933315581790303,0.924513717226938,0.926622148662269,0.92284035894493,1.00091925638345,0.991071542893831,1.10761258044432,1.11005568353605,1.118338807032,1.11804596933264,1.15944485322954,1.15830696959777,1.14415872532339,1.14153991961205,1.20883402292302,1.25106121916951,1.28277135861357,1.20464226042659,1.22173561527731,1.19789025975869,1.22294880003176,1.22608634681053,1.23181759892641,1.25634066454925,1.34796539728063,1.34394933740381,1.2914560880972,1.37265579873166,1.48663659811068,1.43757373328219,1.35671706109553,1.35651625810169,1.41059919777621,1.44167346107311,1.45793850357423,1.5207229063152,1.43645258323324,1.43551550259532,1.4774916950995,1.47655461446158,1.4828213412277,1.48231096695169,1.62807720689746,1.59689417531223,1.83552343311807,0.00363350507317927,1.55479248093689,1.4851556760311,1.46950140930291,1.44643416538542,1.45453321947035,1.52850402232654,1.4708233623457,1.46986954812496,1.48154958893338,1.47801043616693,1.41306740124217,1.38910491064381,1.34138909923233,1.31002199823608,1.32479775186622,1.32282318909345,1.32437941229572,1.26837211059689,1.21399633322302,1.19313792223778,1.14646795975256,1.10925247156069,1.10312798024854,1.10354631981904,1.10389772505826,1.11363667025955,1.10607309082487,1.02069835127679,0.997430304365463,0.997564173028024,1.01044903179949,0.994066854218626,0.958976531044905,0.925559566153194,0.970974509926907,0.953178344597746,0.953044475935185,0.967334955663539,0.972647868208916,0.970915942387037,0.956366092124972,0.955638181272298,0.957662944793529,0.958583291848633,0.9578888481616,0.956591995493043,0.949789794076678,0.95012446573308,0.949078616806825,0.94812480258608,0.95012446573308,0.950693407548963,0.949990597070519,0.95198189342611,0.954617432720273
0.983825901532733,0.966238905988823,0.959411604198228,0.941925010151238,0.937565911826605,0.93268807243455,0.924229246318997,0.923601736963244,0.915544516835372,0.97341761301864,0.910666677443317,0.910859113645748,0.93077207720165,0.919393240883992,0.913402618234401,0.912858776792748,0.912967545081079,0.915695119080753,0.917770083350443,0.916874836669569,0.91714257399469,0.911369487921761,0.915586350792422,0.909863465467953,0.92672255015919,0.926655615827909,0.91716767436892,0.917703149019163,0.919401607675402,0.920347055104737,0.921401270822402,0.917970886344284,0.916531798221757,0.918272090835046,0.919627511043473,0.92093273050344,0.921167000662921,0.921225568202791,0.925249994871022,0.929818262980906,0.929943764852056,1.11077522759732,1.13111489751513,0.933650253446705,0.934453465422069,0.939147235403104,0.930847378324341,0.931960161581876,0.930864111907161,0.924764720969239,0.924061910490796,0.922087347718026,0.919836680828724,0.957286439180077,0.996576891641639,1.02924921209786,1.10098608164757,1.11592080431449,1.12168552359601,1.15812290018675,1.1576627266592,1.20562117502157,1.17862990593277,1.21490831348671,1.2400588884653,1.28414351240482,1.21707531246191,1.19246021213357,1.20531160373939,1.22551740499465,1.23953178060647,1.23338218892009,1.24119677209707,1.27103275026528,1.33204339322732,1.30860801048778,1.31617158992246,1.35557917746377,1.35684256296668,1.35598078345145,1.37827828255921,1.38858616957639,1.4809053459948,1.45772096699757,1.51099232790532,1.4369964246749,1.43540673430699,1.47719049060874,1.47568446815493,1.4833233487123,1.51000504651893,1.57831989838193,1.59060234817188,1.61370305925501,1.6074530660717,1.55697621349491,1.48832668997551,1.50811415166026,1.44622499560017,1.52661312746787,1.46183742837131,1.46069117794814,1.46895756786126,1.45413998027407,1.430754798283,1.40831506372127,1.38690444450297,1.31826328777497,1.30652467942668,1.29109631606656,1.35859958916279,1.27952504354648,1.24704515929269,1.24596584320079,1.19783169221882,1.15595590121155,1.11038198840104,1.10655836472666,1.09333046750738,1.0960998754641,1.11543553041271,1.07996870162554,1.03846941623172,1.00159696648766,1.02058958298846,0.988310501728517,0.984093638857855,0.935080974777822,0.929684394318345,0.947430358899046,0.951287449739076,0.957771713081859,0.964749617117835,0.970054162871803,0.967435357160459,0.957746612707629,0.95593101897165,0.958223519818002,0.958650226179914,0.95598121972011,0.955822250683319,0.950793809045883,0.95009099856744,0.948392539911201,0.948333972371331,0.949179018303745,0.951429685193047,0.952249630751231,0.950718507923193,0.953345680425947
0.9831314578457,0.963143193167107,0.958558191474403,0.943748970678627,0.938017718562748,0.932805207514291,0.924053543699386,0.914507034700527,0.914599069406037,0.913988293633104,0.910265071455635,0.909520427020141,0.911879862197773,1.03188475139202,0.914783138817058,0.913979926841694,0.914624169780267,0.914590702614627,0.915912655657414,0.918288824417866,0.927023754649951,1.14327184543392,0.901722577425981,0.911085017013819,0.924747987386419,0.911478256210091,0.918531461368758,0.916983604957899,0.918205156503766,0.919175704307331,0.918799198693879,0.919468542006682,0.918715530779778,0.918447793454657,0.919635877834883,0.921125166705871,0.922329984668917,0.923643570920294,0.924965523963081,0.928931383091441,0.929081985336822,0.932236265698408,1.05998043694695,0.93269643922596,0.933374149330174,0.931140216023692,0.931985261956107,0.935624816219475,0.937917317065827,0.933633519863885,0.939406605936815,0.91325201598902,0.955462478652687,0.95602305367716,1.01685799401958,1.02724954895086,1.09085389725,1.11054932422925,1.17153486681705,1.16838895324687,1.15640770794769,1.21371186231508,1.14095424421334,1.21377879664636,1.25971248148749,1.22020449244927,1.21044044687375,1.19212554047717,1.19077848706015,1.20583871159823,1.23704684355769,1.25210706809576,1.25256724162332,1.32702331838129,1.33210196076719,1.30969569337109,1.32605277057772,1.39855938493716,1.34658487669797,1.34959692160559,1.40433247101009,1.39456005864316,1.47847897648589,1.55198123902312,1.50900939834114,1.5033116133909,1.5333065605959,1.475073692382,1.47373500575639,1.58350730905616,1.60390554651384,1.60151264417057,1.59046847950932,1.58085503617918,1.57724058229004,1.53243641428926,1.50811415166026,1.47263895608168,1.53715528464452,1.54615795220173,1.46112625110146,1.46046527458007,1.45913495474587,1.48021926909918,1.40768755436551,1.40253361085693,1.3683552679469,1.33907149801175,1.27252203913627,1.26889085166431,1.31650626157887,1.26258229094114,1.27073154577452,1.23621853120809,1.16377885117994,1.13308109349649,1.123174812467,1.10544558146912,1.14470256676504,1.09745529567253,1.10537864713784,1.09305436339085,1.03970770136041,1.01834728289057,0.993230175077622,0.999781372751686,1.01558624172526,0.950877476959984,0.956081621217031,0.947865432052368,0.976488225466126,0.9909627746055,0.965544462301789,0.959127133290286,0.957010335063545,0.956458126830482,0.956767698112654,0.959235901578617,0.957244605223027,0.955654914855119,0.95589755180601,0.952893873689804,0.951563553855607,0.948877813812984,0.949538790334377,0.95004079781898,0.95016629969013,0.951463152358687,0.951212148616385,0.952969174812495
0.980479184968716,0.973844319380552,0.956274057419462,0.944401580408611,0.940561223151401,0.93458733408463,0.925609766901654,0.922087347718026,0.915670018706523,0.915787153786263,0.910365472952555,0.90933635760912,0.91120215209356,0.912699807755957,0.915695119080753,0.915921022448824,0.914917007479619,0.916515064638937,0.916439763516247,0.918815932276699,0.919886881577184,0.963277061829668,0.912047198025974,0.912691440964547,0.934829971035521,1.01121877660921,0.918322291583506,0.918313924792096,0.918297191209276,0.919485275589502,0.920288487564866,0.921150267080101,0.920137885319486,0.921091699540231,0.921719208895984,0.922622822368268,0.924229246318997,0.925894237809595,0.926655615827909,0.92875568047183,0.929851730146546,0.932888875428391,1.05201525152458,0.933332315373124,0.933257014250433,0.932211165324178,0.939163968985924,0.936043155789978,0.933926357563237,0.982813519772118,0.918196789712356,0.913754023473623,0.909846731885133,0.950994612039724,1.0376160035079,1.1148414882226,1.1017641932487,1.12037193734464,1.13299742558239,1.13214401285857,1.15889264499647,1.16877382565174,1.21142772826013,1.16800408084201,1.24596584320079,1.20070150167246,1.18931429856339,1.2519731994332,1.19840900082611,1.23396786431879,1.20836548260406,1.20999700692902,1.26115156961002,1.25926904154276,1.38095565581043,1.31035666989248,1.31004709861031,1.35562101142082,1.3550269692307,1.35643259018759,1.40155469626195,1.47268079003873,1.48253687031976,1.47004525074457,1.4720700142658,1.52790998013642,1.48717207276092,1.4801523347679,1.47202818030875,1.58910469250948,1.60180548186992,1.62545003439471,1.60334497148937,1.56125164390545,1.61035634269099,1.58355750980462,1.47471392035137,1.47425374682382,1.46592042257941,1.53527275657726,1.53825970111065,1.49501175631213,1.51076642453725,1.449078071471,1.4114275101258,1.39756373675936,1.36999515906327,1.30670874883771,1.27455516944891,1.26049059308863,1.26044875913158,1.3378583132573,1.24674395480193,1.23601772821425,1.21674064080551,1.15323669400329,1.10656673151807,1.1045168676226,1.09272805852585,1.10476787136491,1.05570500653641,1.06948511198875,1.00563812673872,1.0007937545123,1.017703039952,0.993372410531592,1.0284543669139,0.954759668174244,0.944970522224493,0.957679678376349,0.995171270684752,0.969794792338091,0.968221835553003,1.02325022265686,0.95600632009434,0.957771713081859,0.960482553498713,0.960683356492554,0.959118766498876,0.956792798486884,0.956767698112654,0.963553165946199,0.951262349364846,0.951521719898557,0.959570573235019,0.952902240481214,0.950994612039724,0.952893873689804,0.953077943100825,0.95404849090439
0.977718143803402,0.971702420779581,1.10179766041434,0.943171662071334,0.941883176194188,0.931734258213805,0.925283462036662,0.923074629104411,0.918715530779778,0.916230593730996,0.912607773050447,0.910775445731647,0.913628521602472,0.991138477225111,0.915293513093071,0.915971223197284,0.916054891111385,0.916155292608305,0.916138559025485,0.919476908798092,0.919962182699875,0.962649552473914,0.912582672676217,0.912557572301987,1.02834559862557,1.0999318659299,0.918330658374916,0.918305558000686,0.919184071098741,0.919736279331804,0.921259035368431,0.921250668577022,0.921359436865352,0.921401270822402,0.921618807399063,0.927015387858541,0.92683968523893,0.927659630797114,0.927768399085445,0.928663645766319,0.931466520888684,0.933206813501973,0.935800518839086,1.1168411513696,0.935365445685764,0.935976221458697,0.939306204439894,0.938829297329522,0.933533118366965,0.941473203415096,0.928889549134391,0.945070923721414,0.914858439939748,0.976931665410858,1.01230645949252,1.08654499967383,1.09988166518144,1.13568316562502,1.13037861987105,1.14018449940362,1.19730458435998,1.16877382565174,1.16003889541965,1.1647493989835,1.16512590459696,1.20193142000974,1.19696154591217,1.19758905526792,1.20813957923599,1.22475602697633,1.20716066464101,1.20829854827278,1.26028979009479,1.25924394116853,1.38114809201286,1.31161168860399,1.30992996353057,1.34025958239198,1.39831674798627,1.35574651329197,1.39700316173489,1.41563600620506,1.47487288938816,1.53745648913528,1.54622488653301,1.56306723764142,1.51502512136496,1.51711681921747,1.47247998704489,1.59348889120834,1.60116123893135,1.63250323955337,1.57270578134579,1.56182058572133,1.59949624744075,1.54353077969897,1.47529122895866,1.47436251511215,1.46629692819287,1.46564431846288,1.53573293010481,1.46934244026612,1.61987775131562,0.00380809490953264,1.43718049408592,1.4368374556381,1.36487468272032,1.29767261411486,1.29823318913933,1.22235475784165,1.22175234886013,1.25151302590565,1.24906155602251,1.19017607807863,1.21630556765219,1.13812626871675,1.12202856204382,1.10455870157965,1.0958488717218,1.08105638450884,1.07166884454678,1.04617523112037,1.00564649353013,0.990000593593345,0.989624087979893,0.997580906610844,0.946459811095481,0.957144203726106,0.938009351771338,0.940644891065501,1.00547915770192,0.968606707957865,0.969669290466941,0.968564874000815,1.092016881256,0.960080947511031,0.960658256118324,0.961126796437287,0.961386166970998,0.960281750504872,0.95793904891006,0.964624115246685,0.957219504848796,0.954391529352202,0.95407359127862,0.951973526634699,0.951404584818817,0.953328946843127,0.953287112886076,0.955855717848959
0.976019685147163,0.972011992061753,0.953195078180566,0.948635176862092,0.941615438869066,0.936821267391112,0.928220205821587,0.921953479055465,0.919276105804251,0.918397592706197,0.912758375295828,0.91516801122192,0.914640903363087,0.916565265387397,0.917351743779941,0.918431059871837,0.917560913565192,0.917376844154171,0.916489964264707,0.920639892804088,0.921225568202791,1.02929104605491,1.18661182493795,0.913402618234401,0.918355758749147,0.918263724043636,0.918481260620297,0.918255357252226,0.920849062589339,0.920506024141528,0.921284135742662,0.921911645098415,0.921685741730344,0.921652274564704,0.918313924792096,0.922647922742499,0.92482328850911,0.927985935662106,0.928596711435039,0.932411968318019,0.932755006765831,0.935340345311534,0.935741951299216,0.936277425949459,0.935892553544597,0.947196088739565,0.947187721948155,0.939758011176037,0.935541148305375,0.938737262624011,0.939465173476685,0.918422693080427,0.916456497099067,0.970840641264347,1.01999554079835,1.10992181487349,1.08970764682683,1.09834217556199,1.1480827504947,1.17645454016615,1.19179086882076,1.15895121253634,1.15807269943829,1.16613828635757,1.1626660679224,1.19793209371574,1.19902814339045,1.19868510494264,1.23390092998751,1.20530323694798,1.21479117840697,1.20641602020552,1.26348590441342,1.26274962676934,1.44650946650811,1.30673384921194,1.34855943947074,1.35029136529262,1.35622342040234,1.35572977970915,1.39664338970426,1.3931795380605,1.48252013673694,1.53801706415976,1.53834336902475,1.52775937789104,1.50367975221294,1.50891736363563,1.57238784327221,1.55525265446444,1.64686902040442,1.64687738719583,1.55825633258065,1.56744306954888,1.58151601270057,1.51712518600888,1.52906459735101,1.48295520989026,1.54145581542928,1.47080662876288,1.47627014355364,1.47428721398946,0.0036578524361825,1.57618636657237,1.41107610488658,1.38339039211075,1.36823813286716,1.31043197101517,1.27628709527079,1.22801070883484,1.22108300554732,1.25282661215703,1.25264254274601,1.19144783037295,1.19041034823811,1.14019286619503,1.12736657496343,1.10279330859214,1.09619191016961,1.0950121925808,1.04278668059931,1.01467426146156,1.00059295151846,0.991933322409065,0.990176296212956,0.977015333324958,0.948785779107473,0.949229219052205,0.997129099874702,0.974455095153485,1.00535365583077,0.96560302984166,0.968924646031447,0.968138167638903,0.966565210853815,0.964322910755923,0.962607718516864,0.960992927774726,0.962381815148793,0.961553502799199,0.959135500081696,0.962130811406492,0.957495608965328,0.955780416726269,0.953764019996449,0.954383162560792,0.950977878456904,0.953395881174407,0.95400665694734,0.954701100634374
1.02132586063255,0.96566159738153,0.957052169020596,0.944987255807314,0.944744618856422,0.938226888347999,0.93072187645319,0.923175030601331,0.918832665859519,0.918832665859519,0.917326643405711,0.918723897571188,0.918322291583506,0.918364125540557,0.918456160246067,0.918723897571188,0.91905856922759,0.918790831902469,0.915820620951903,0.919635877834883,0.919594043877833,0.937582645409425,0.939247636900024,0.916238960522405,0.918790831902469,0.918397592706197,0.918765731528238,0.918698797196958,0.920489290558708,0.921317602908302,0.921744309270214,0.921602073816243,0.9228989264848,0.922714857073779,0.923501335466323,0.923216864558381,0.924413315730018,0.929341355870533,0.928914649508621,0.931416320140224,0.93463753483309,0.936670665145731,0.937917317065827,0.937189406213153,0.933800855692086,0.933432716870044,0.946426343929841,0.944619116985272,0.938093019685438,0.937415309581225,0.939013366740543,0.940318586200509,0.917611114313653,1.00706048127842,1.04293728284469,1.08529834775374,1.08913870501095,1.09860991288711,1.14903656471544,1.12217916428921,1.19581529548899,1.18263759901818,1.15704358409485,1.16701679945563,1.15915201553019,1.19972258707748,1.20043376434734,1.21626373369514,1.23417703410404,1.18986650679645,1.211812600665,1.2682968094742,1.26049059308863,1.26311776559138,1.42524108274379,1.30833190637125,1.35050053507787,1.34970568989392,1.36441450919277,1.35586364837171,1.38686261054592,1.39124680924478,1.48293010951603,1.48619315816595,1.47752516226514,1.59682724098095,1.50390565558101,1.50285143986334,1.49705325341618,1.50072627484519,1.4971452881217,1.63795002076131,1.56889052446281,1.56813751323591,1.51890731257922,1.52949967050433,1.50972057561099,1.4883183231841,1.45028288943404,1.48067107583532,1.47369317179934,1.55296015361809,1.5564658392189,1.37873008929536,1.37733283512988,1.43861958220844,1.31853939189151,1.31057420646915,1.28313949743561,1.26935102519186,1.25581355669041,1.30904308364111,1.2400588884653,1.20004889194248,1.19107969155091,1.13920558480864,1.10552088259181,1.10695160392293,1.09021802110284,1.07251389047919,1.0195353672708,1.00143799745087,0.999873407457196,1.01226462553547,1.0142057211426,1.01746040300111,0.955136173787696,0.977860379257373,0.93855319321299,0.984679314256558,0.999488535052334,0.966983550424317,0.968690375871966,0.970623104687686,0.965502628344739,0.965452427596279,0.963469498032099,0.960925993443446,0.961980209161111,0.962298147234693,0.961637170713299,0.959411604198228,0.958491257143123,0.955638181272298,0.956968501106495,0.955613080898068,0.952383499413792,0.954667633468733,0.956876466400985,0.958825928799525
0.973760651466452,0.968213468761593,0.958474523560303,0.95004079781898,0.94037715374038,0.939289470857074,0.932796840722881,0.92673928374201,0.918472893828887,0.916105091859845,0.918497994203117,0.919217538264381,0.919476908798092,0.920472556975887,0.920648259595498,0.922137548466486,0.923359100012352,0.918715530779778,0.921091699540231,0.91705890608059,0.920104418153845,1.28251198807986,0.94241028405302,0.919125503558871,0.920087684571025,0.918481260620297,0.918497994203117,0.919619144252063,0.920656626386908,0.922572621619808,0.923936408619645,0.923476235092093,0.924589018349628,0.921192101037151,0.922472220122888,0.924496983644118,0.92486512246616,0.929876830520776,0.931014714152542,0.932780107140061,0.935599715845245,0.937072271133413,0.938887864869392,0.940101049623848,0.934135527348488,0.933959824728877,0.947104054034055,0.945807201365498,0.944585649819632,0.938243621930819,0.930261702925638,0.915820620951903,0.996593625224459,1.01833054930775,1.04122209060563,1.08718924261241,1.08661193400511,1.12788531603085,1.09998206667836,1.12774308057688,1.17855460481008,1.18564127713438,1.1535797324511,1.14522130783246,1.14474440072209,1.18780827610958,1.22535843595786,1.23998358734261,1.18242842923293,1.1898246728394,1.18938959968608,1.25954514565929,1.25976268223595,1.30385567296688,1.31298384239524,1.31850592472587,1.32088209348632,1.35467556399148,1.36243157962859,1.36086698963491,1.38402626825791,1.3828465506691,1.5073109396849,1.48683740110452,1.47996826535688,1.59799859177835,1.59599056183994,1.57785135806297,1.49768912956335,1.49517909214034,1.4654100483034,1.47134210341312,1.57017901033996,1.56867298788615,1.51973562492881,1.50255023537258,1.49441771412202,1.50866635989332,1.45186421301054,1.47424538003241,1.48852749296935,1.55356256259962,1.55710171536606,1.38119829276132,1.41268252883731,1.43927219193843,1.32793529864498,1.30444971515699,1.28347416909202,1.22545047066337,1.22601941247925,1.23618506404245,1.27560938516658,1.20900972554263,1.2168159419282,1.14426749361172,1.10632409456717,1.10421566313184,1.09807443823687,1.05513606472053,1.01653168915459,1.02552598992039,1.02631246831293,1.03231982454534,1.01717593209317,0.962448749480073,0.961536769216379,0.960599688578454,0.939682710053346,1.00797246154212,0.953094676683645,0.969937027792062,0.968297136675694,0.971066544632418,0.966548477270994,0.970313533405514,0.969117082233878,0.9638041696885,0.963820903271321,0.962775054345065,0.962331614400333,0.959210801204387,0.95786374778737,0.956265690628052,0.957202771265976,0.955663281646528,0.955244942076026,0.953864421493369,0.957420307842638,0.961068228897416
0.976521692631766,0.964699416369375,0.957554176505198,0.950710141131783,0.944443414365661,0.938988266366313,0.930571274207809,0.927115789355462,0.927366793097763,0.917560913565192,0.919502009172322,0.920631526012678,0.921794510018674,0.923434401135043,0.922806891779289,0.924145578404896,0.926061573637796,0.919460175215272,0.921192101037151,0.918146588963895,0.916841369503929,0.935131175526283,0.936260692366639,0.921208834619971,0.922120814883666,0.920204819650766,0.916690767258548,0.919527109546553,0.922104081300846,0.923877841079775,0.924371481772968,0.927099055772642,0.929282788330663,0.921484938736503,0.922045513760975,0.927157623312512,0.92687315240457,0.93070514287037,0.931349385808943,0.934001658685927,0.935909287127417,0.937549178243785,0.941615438869066,0.943397565439405,0.939163968985924,0.93659536402304,0.937256340544434,0.940611423899861,0.94241028405302,0.935290144563074,0.919142237141691,0.917569280356602,0.930370471213968,1.02117525838717,1.03331547272314,1.11802923574982,1.12494020545452,1.0932635331761,1.09374880707788,1.11291712619829,1.13890438031788,1.14103791212744,1.16789531255368,1.16250709888561,1.16151981749923,1.18745687087036,1.18288023596907,1.20943643190454,1.18723096750229,1.2485511817465,1.24912849035379,1.24354784048329,1.32873014382894,1.35487636698532,1.41987796944995,1.32442961304418,1.35834858542049,1.35741987157398,1.35132048063605,1.3920165540545,1.46775274989821,1.38313938836845,1.40198976941528,1.4809890139089,1.48054557396417,1.48749837762592,1.48661986452786,1.57975061971305,1.49700305266772,1.48205159641798,1.48060414150404,1.47386887441896,1.58649425358954,1.70998809480178,1.51967705738894,1.50366301863012,1.52651272597095,1.49864294378409,1.45316943247051,1.45434915005933,1.48204322962657,1.44128858866825,1.49253518605476,1.38187600286553,1.3795165676879,1.45624004491799,1.32668027993348,1.30576330140837,1.29488647257531,1.23411846656417,1.22837048086547,1.1939076670475,1.19092908930553,1.17539195765708,1.14148135207217,1.13976615983312,1.18812621418316,1.1245051323012,1.09538033140284,1.05755406743803,1.04109658873448,1.00857487052364,1.02655510526382,1.02715751424535,1.01698349589073,0.994627429243099,0.96561976342448,0.945020722972954,0.956332624959332,0.95783864741314,0.973626782803891,0.973852686171962,0.968748943411836,0.972597667460456,0.967811862773911,0.970531069982175,0.969828259503731,0.9638041696885,0.964222509259002,0.962590984934044,0.963260328246848,0.960616422161274,0.958123118321081,0.958633492597094,0.957763346290449,0.958876129547985,0.95785538099596,0.959570573235019,1.02275658196366,0.962022043118161
0.974095323122853,0.962674652848145,0.959302835909897,0.953245278929026,0.942510685549941,0.936411294612019,0.926948453527261,0.927174356895332,0.92480655492629,0.922438752957248,0.921660641356113,0.922204482797766,0.922396919000197,0.923317266055302,0.924204145944767,0.924321281024507,0.925827303478315,0.921133533497281,0.920681726761138,0.917443778485452,0.918590028908628,0.965820566418321,0.933298848207483,0.928077970367617,0.921484938736503,0.921066599166,0.919694445374753,0.921225568202791,0.921426371196632,0.923225231349792,0.92487348925757,0.927768399085445,0.932453802275069,0.920623159221268,0.927517395343144,0.9287305800976,0.928454475981069,0.929952131643466,0.931039814526772,0.934219195262588,0.936344360280739,0.936662298354321,0.93851135925594,0.94231824934751,0.942527419132761,0.938352390219149,0.938695428666961,0.939791478341677,0.939515374225146,0.928479576355299,0.919510375963732,0.91705890608059,0.94244375121866,1.00849120260954,1.06914207354094,1.09740509492407,1.07948342772376,1.07388604427044,1.08630236272294,1.10138768763525,1.11397134191595,1.12969254297542,1.16863159019776,1.1724133799151,1.16492510160312,1.17578519685335,1.20501039924863,1.21146956221719,1.19095418967976,1.1878250096924,1.24638418277129,1.24051069520144,1.33613475422683,1.32283992267627,1.35989644183135,1.34800723123768,1.35752863986231,1.35587201516312,1.3493626514461,1.38710524749681,1.46971894587957,1.38214374019065,1.41956003137637,1.46621326027877,1.48054557396417,1.48657803057081,1.48602582233775,1.47437924869497,1.48386719015396,1.48269583935655,1.47969216124035,1.52962517237548,1.63030277341253,1.62545003439471,1.62593530829649,1.5435558800732,1.51412987468408,1.50566268177712,1.46176212724862,1.47325809864602,1.47359277030242,1.47334176656012,1.49260212038604,1.37207849012437,1.41859785036421,1.41315106915627,1.32417024251047,1.31374522041355,1.29466893599865,1.24302073262446,1.23886243729367,1.1917406680723,1.17185280489063,1.18346591136777,1.14785684712663,1.21213053873858,1.21191300216192,1.14118851437282,1.10347101869635,1.04846773196673,1.00618196818037,1.03124050845345,1.03095603754551,1.03043729647808,1.03713072960612,1.04155676226203,0.957068902603416,0.945388861794996,0.970974509926907,0.976237221723824,0.977099001239059,0.960080947511031,0.96770309448558,0.97152671815997,0.968004298976342,0.969711124423991,0.970062529663212,0.966071570160622,0.964766350700655,0.961955108786881,0.962231212903412,0.959102032916056,0.956826265652524,0.957562543296608,0.958005983241341,0.959428337781048,0.960382152001793,0.958934697087855,0.959436704572458,0.962775054345065
0.976345990012155,0.965552829093199,0.956198756296771,0.95196515984329,0.939992281335518,0.94036878694897,0.927157623312512,0.928069603576206,0.925668334441524,0.924647585889499,0.923978242576696,0.922530787662758,0.92477308776065,0.922087347718026,0.92678948449047,0.925793836312675,0.926078307220616,0.924170678779126,0.921317602908302,0.920288487564866,0.917477245651092,0.919426708049632,0.927734931919805,0.928487943146709,0.923518069049143,0.921108433123051,0.921200467828561,0.922078980926616,0.92299932798172,0.923066262313001,0.927182723686742,0.930052533140387,1.05910192384889,0.924689419846549,0.928856081968751,0.929784795815265,0.929927031269236,0.930211502177178,0.93272153960019,0.933968191520287,0.936988603219312,0.936980236427902,0.936620464397271,0.943205129236974,0.942995959451723,0.94041898769743,0.939138868611693,0.939975547752698,0.939732910801807,0.935892553544597,0.924622485515269,0.932755006765831,0.988092965151855,0.989297783114902,1.00350459492915,1.05614844648115,1.1065918318923,1.0723549214424,1.08815142362456,1.11254062058484,1.13244521734933,1.14530497574656,1.1949033152253,1.17586886476745,1.16421392433326,1.17644617337474,1.17663860957718,1.16197162423537,1.16203019177524,1.1871556663796,1.24261075984537,1.24241832364293,1.32434594513008,1.33495503663801,1.35875019140817,1.34832516931126,1.358440620126,1.3560226174085,1.35844898691741,1.3581896163837,1.39522103516455,1.39390744891317,1.46516741135251,1.47947462466368,1.46562758488006,1.48635212720274,1.52824465179283,1.52586011624096,1.52927376713626,1.74064401852818,1.66489108910165,1.58933059587755,1.6015377445448,1.56474059592343,1.62449622017396,1.54349731253333,1.50050873826853,1.5139792724387,1.45421528139676,1.45368817353793,1.45373000749498,1.42749174963309,1.43013565571866,1.41679062341964,1.40924377756778,1.41266579525449,1.31895773146201,1.3233670305351,1.33013576478583,1.24902808885687,1.23501371324505,1.19335545881444,1.17397796990878,1.15750375762241,1.14099607817039,1.17592743230732,1.1372561224101,1.13895458106634,1.11254062058484,1.037699671422,1.02593596269948,1.00064315226692,1.02181950132574,1.02052264865718,0.99474456432284,0.982964122017499,0.961963475578291,0.938753996206832,0.94627574168446,0.97140958308023,0.976864731079578,0.962390181940203,0.967268021332258,0.969694390841171,0.980378783471796,0.972589300669046,0.970330266988334,0.968138167638903,0.964749617117835,0.964774717492065,0.96367030102594,0.95798088286711,0.95783864741314,0.956717497364194,0.959286102327077,0.962072243866621,0.96171247183599,0.96362010027748,0.961988575952521,0.962532417394174
0.976421291134845,0.967385156411999,0.961645537504709,0.951454785567277,0.942083979188029,0.93850299246453,0.92878078084606,0.925500998613323,0.927065588607001,0.926387878502788,0.926689082993549,0.927258024809432,0.927182723686742,0.922430386165838,0.925994639306516,0.927651264005704,0.927919001330826,0.928354074484148,0.92284872573634,0.920497657350117,0.920280120773456,0.921443104779452,0.927952468496466,0.928270406570048,0.927442094220453,0.922254683546227,0.92295749402467,0.924045176907976,0.924229246318997,0.926446446042658,0.929249321165023,0.931767725379446,1.21153649654847,0.927165990103922,0.931366119391764,0.931441420514454,0.932186064949948,0.933223547084793,0.933357415747354,0.93645312856907,0.938109753268258,0.937942417440057,0.938369123801969,0.942611087046861,0.942795156457882,0.943414299022225,0.941573604912016,0.941339334752535,0.939289470857074,0.937306541292894,0.956223856671001,0.951396218027407,0.99672749388702,0.998074547304037,1.00470104610079,1.06766115146136,1.07842921200609,1.08067987889539,1.08717250902959,1.15706868446909,1.16633072256,1.13201014419601,1.14371528537866,1.17656330845449,1.16242343097151,1.17130059665757,1.18209375757652,1.1912386605877,1.16592911657232,1.18471256328787,1.22607798001912,1.27444640116058,1.32660497881079,1.35551224313249,1.35280140271563,1.34567289643428,1.3473629882991,1.35900956194188,1.35868325707689,1.36462367897802,1.39539673778416,1.395597540778,1.45915168832869,1.44767245051411,1.5096452744883,1.50850739085653,1.70634854053841,1.52423695870741,1.74012527746076,1.74030934687178,1.80394716233656,1.54449296071113,1.55064255239751,1.60530280067932,1.54048526762572,1.55810573033527,1.51490798628522,1.51443944596625,1.43865304937408,1.50826475390564,1.47728252531425,1.42114972174427,1.41716712903309,1.41886558768933,1.40737798308334,1.44230933722027,1.33718060315308,1.30541189616915,1.2810477995831,1.24825834404714,1.22859638423354,1.2241452512034,1.17761752417215,1.15786352965304,1.12640439395128,1.12509917449131,1.1367541149255,1.14431769436018,1.06911697316671,1.06911697316671,1.03187638460061,1.00028338023629,0.990485867495128,0.992058824280216,0.970254965865644,0.968330603841334,0.965201423853978,0.971953424521882,0.945798834574088,0.946903251040213,0.974789766809887,0.973810852214912,0.967134152669698,0.971217146877799,0.972380130883795,0.974563863441816,0.970715139393196,0.966858048553166,0.9657201649214,0.965167956688337,0.961904908038421,0.958089651155441,0.957537442922378,0.959595673609249,0.960014013179751,0.963494598406329,0.962172645363542,0.964038439847982,0.963327262578128,0.964197408884772
0.973869419754782,0.96957725576143,0.959194067621567,0.954634166303093,0.944150576666309,0.936218858409589,0.927693097962755,0.925015724711541,0.927115789355462,0.925986272515106,0.926605415079449,0.928312240527098,0.928931383091441,0.924287813858867,0.925157960165512,0.927350059514943,0.927634530422884,0.927517395343144,0.927032121441361,0.923585003380423,0.921928378681235,0.922112448092256,0.92286545931916,0.927693097962755,0.928446109189658,0.916757701589828,0.925157960165512,0.92489022284039,0.925024091502951,0.927977568870696,0.930512706667939,0.9325625705634,0.967853696730961,1.1360847716127,0.950827276211524,0.932110763827257,0.932738273183011,0.934269396011049,0.935248310606023,0.935976221458697,0.937340008458534,0.938352390219149,0.941180365715744,0.940218184703589,0.942678021378142,0.94431791249451,0.94231824934751,0.942117446353669,0.939423339519635,0.94420914420618,0.956424659664842,0.973141508902108,0.957227871640207,0.997070532334832,0.997020331586371,1.02033857924616,1.13659514588871,1.0814328901223,1.10008246817528,1.10558781692309,1.1132601646461,1.1200958332281,1.14724607135369,1.15634077361641,1.16267443471381,1.17866337309841,1.17285681985984,1.20462552684377,1.16527650684234,1.19010077695594,1.21685777588525,1.24041029370452,1.32622847319734,1.34115482907285,1.32301562529588,1.34512905499262,1.34590716659376,1.3450286534957,1.36142756465939,1.37805237919114,1.4218357986399,1.3929285343182,1.42662997011785,1.44720391019515,1.45393081048882,1.48060414150404,1.70368790087002,1.76735918350045,1.74011691066935,1.739497768105,1.75376314745913,1.81808703981954,1.55016564528714,1.62450458696537,1.61906617254884,1.65413976213974,1.53331492738731,1.4917319740794,1.43360787415383,1.4604067070402,1.42974241652239,1.42367649275011,1.41003025596033,1.40485957886892,1.40953661526713,1.38461194365662,1.30860801048778,1.36638907196554,1.30205681281372,1.33776627855179,1.25712714294179,1.20737820121767,1.17196993997037,1.16879055923456,1.1247561360435,1.16575341395271,1.12754227758304,1.09841747668468,1.10542048109489,1.04564812326154,1.02873883782184,1.01108490794665,0.98699691547714,1.00533692224795,0.991849654494965,0.969083615068238,0.976128453435494,0.947480559647506,0.942092345979439,0.98309799068006,0.945941070028058,0.950325268726921,0.968246935927233,0.970288433031284,0.97545074333128,0.975015670177958,0.970388834528204,0.966130137700492,0.965134489522697,0.96566996417294,0.960716823658195,0.95789721495301,0.957094002977646,0.958591658640044,0.961645537504709,0.962515683811354,0.963360729743768,0.96178777295868,0.962348347983153,0.964724516743605
0.978161583748134,1.02077365239948,0.956550161535993,0.957177670891746,0.94615860660472,0.9423098825561,0.928638545392089,0.92876404726324,0.929232587582202,0.923886207871185,0.9248149217177,0.931123482440872,0.931692424256755,0.924488616852708,0.926362778128558,0.929174020042332,0.927408627054813,0.927375159889173,0.925593033318834,0.924053543699386,0.923124829852871,0.923936408619645,0.923886207871185,0.926998654275721,0.927132522938282,0.936888201722392,0.927877167373775,0.926170341926127,0.926998654275721,0.930077633514617,0.931290818269073,0.932035462704567,0.970380467736794,0.965477527970509,0.948894547395804,0.947781764138268,0.935792152047676,0.936679031937141,0.938017718562748,0.938084652894028,0.938586660378631,0.939716177218986,0.941515037372146,0.940050848875388,0.941991944482518,0.944769719230652,0.943138194905694,0.942167647102129,0.941498303789326,0.928103070741847,0.928253672987227,0.977927313588653,0.957788446664679,0.960273383713462,0.967736561651221,1.00500225059155,1.13572499958207,1.08122372033704,1.14228456404754,1.10115341747577,1.14727117172792,1.13429427825095,1.14159848715192,1.15677584676973,1.15918548269583,1.15922731665288,1.19349769426841,1.23183433250923,1.22816967787163,1.17377716691494,1.18703853129986,1.22925736075494,1.31033993630966,1.3406946555453,1.32152633642489,1.31849755793446,1.35906812948175,1.34720401926231,1.36174550273297,1.39297036827525,1.42223740462758,1.39510390008481,1.41928392725983,1.43026115758981,1.52664659463351,1.47365133784229,1.72307375656709,1.82767538277545,0.00300637222303949,1.83850201086004,0.00358915271191463,1.716664794347,1.59260201131888,1.64984759814639,1.58067933355957,1.52821118462719,1.53551539352815,1.47414497853549,1.46867309695332,1.46498334194149,1.42001183811251,1.41745996673245,1.40951988168431,1.34338039558792,1.36572809544415,1.37041349863377,1.38357446152177,1.34055242009133,1.33864479164984,1.35338707811434,1.25969574790467,1.22183601677423,1.17338392771867,1.14464399922517,1.17325005905611,1.1568344143096,1.12116678252859,1.0746055883317,1.04066988237257,1.02945838188311,1.03467925972298,0.994267657212467,0.984378109765796,0.974321226490924,1.00083558846935,0.985382124735001,0.981290763735491,0.946384509972791,0.953554850211198,0.958901229922215,0.959436704572458,0.968180001595953,0.968899545657216,0.975910916858833,0.976203754558184,0.97545911012269,1.01489179803822,0.966916616093036,0.974413261196435,0.966648878767915,0.964038439847982,0.95593938576306,0.962749953970835,0.961603703547659,0.962155911780722,0.963151559958517,0.963536432363379,0.963854370436961,0.964632482038095,0.96764452694571
0.980002277858344,1.02189480244843,0.955161274161926,0.953487915879917,0.947882165635189,0.959210801204387,0.929893564103596,0.930194768594357,0.928538143895169,0.925576299736014,0.951371117653176,0.934043492642977,0.934687735581551,0.930127834263077,0.930855745115751,0.931416320140224,0.92873894688901,0.928487943146709,0.927182723686742,0.927684731171345,0.924120478030666,0.92494042358885,0.925492631821913,0.92677275090765,0.926898252778801,0.931006347361132,0.929927031269236,0.93272153960019,1.02558455746026,0.932830307888521,0.933399249704404,0.933901257189007,0.978379120324795,0.991958422783295,0.976312522846515,0.947756663764038,0.936344360280739,0.938293822679279,0.939665976470526,0.939414972728225,0.939615775722066,0.939916980212828,0.942134179936489,0.942644554212501,1.10145462196653,0.947405258524816,0.946141873021899,0.942493951967121,0.941749307531627,0.94423424458041,0.944485248322711,0.97143468345446,0.973208443233389,0.948325605579921,0.984880117250399,0.998367385003388,1.0686902668048,1.12809448581611,1.08652826609101,1.10188969511985,1.09992349913849,1.13097266206116,1.14381568687558,1.13787526497445,1.16148635033359,1.16025643199631,1.157495390831,1.17857970518431,1.17322495868188,1.19258571400472,1.19719581607165,1.23016097422722,1.30644937830399,1.32770939527691,1.32697311763283,1.36975252211238,1.33918026630008,1.36216384230347,1.38200987152809,1.37327494129601,1.45755363116937,1.39513736725045,1.39961360065482,1.43590874179159,1.43585854104313,0.00355907409679553,1.64012538652792,0.00366495584208962,1.81269045936006,0.00351750787707043,1.74359749589592,0.00356478024853718,1.58965690074254,1.65203969749582,1.49952982367356,1.50008203190662,1.53049531868213,1.50140398494941,1.48281297443629,1.47735782643694,1.40241647577719,1.42542515215481,1.4033451896237,1.3440246385265,1.37036329788531,1.37552560818531,1.36117656091709,1.34322142655113,1.25127875574617,1.32993496179198,1.28143267198797,1.19543878987554,1.18983303963081,1.17840400256469,1.1450874391699,1.10716914049959,1.09239338686945,1.07469762303721,1.03826024644647,1.03933119574696,1.02234660918457,0.994694363574379,1.00251731354277,0.974848334349757,0.965544462301789,0.975208106380389,0.9539731897817,0.946351042807151,0.94420914420618,1.00561302636449,0.96964419009271,0.96964419009271,0.97152671815997,0.97335067868736,0.978906228183628,0.976245588515234,0.990092628298856,0.986494907992537,0.969250950896438,0.969744591589631,0.964272710007463,0.963988239099521,0.962314880817513,0.96181287333291,0.96366193423453,0.964607381663865,0.96560302984166,0.966498276522534,0.965385493264999,0.971192046503568
0.982671284318148,1.01643965444908,0.954918637211035,0.950735241506013,0.948986582101314,0.933424350078634,0.930571274207809,0.931876493667776,0.929207487207972,0.929918664477826,1.25019943965427,0.936729232685601,0.935474213974095,0.930119467471667,0.933968191520287,0.93455386691899,0.925869137435365,0.928019402827746,0.927734931919805,0.928178371864537,0.926178708717537,0.926998654275721,0.927107422564051,0.927450461011863,0.928605078226449,0.930320270465508,0.930521073459349,0.93257930414622,0.954768034965654,0.939214169734384,0.934419998256429,0.933943091146057,0.933215180293383,0.933549851949785,0.935708484133576,0.944786452813473,0.939565574973606,0.941991944482518,0.941615438869066,0.938996633157723,0.940034115292568,0.941632172451886,0.943715503512987,0.945271726715255,0.962825255093525,0.947748296972628,0.946961818580084,0.944744618856422,0.94434301286874,0.947271389862255,0.97350964772415,1.01476629616707,0.950969511665494,0.962825255093525,1.00374723188005,1.01949353331375,1.08684620416459,1.09257745628047,1.09805770465405,1.0950121925808,1.11048238989797,1.14321327789405,1.14454359772825,1.15538695939567,1.1606664047754,1.15861654087994,1.15763762628497,1.17909844625173,1.17391940236891,1.1792406817057,1.2145652750389,1.21232297494101,1.33423549257675,1.2964594293604,1.32776796281678,1.34913674807803,1.34881881000445,1.34138909923233,1.36510895287981,1.43226918752822,1.46249840489271,1.44430063357586,1.43825981017781,1.41682409058528,1.43918015723292,1.55662480825569,0.0033652741073647,0.00402518804624903,0.00367979853005104,0.00382477829160426,1.7315827834311,1.70451621321961,1.58138214403801,1.53494645171227,1.4994796229251,1.49907801693742,1.51813756776949,1.42535821782353,1.51919178348716,1.39527123591301,1.39716213077168,1.3966768568699,1.38761562177282,1.39014239277865,1.41839704737037,1.36621336934593,1.29194136199898,1.34404973890073,1.24323826920112,1.25556255294811,1.27935770771827,1.20449165818121,1.15377216865353,1.1288391302516,1.08631909630576,1.07844594558891,1.05518626546899,1.03505576533643,1.02120872555281,1.0192006956144,1.03254572791341,1.00175593552446,0.996183652445367,0.9947947650713,0.988335602102747,0.967795129191091,0.953847687910549,0.952760005027244,0.943138194905694,1.00418230503337,0.974346326865155,0.976371090386385,0.972095659975853,0.974689365312966,0.980713455128197,0.977224503110209,1.13598437011578,0.97350964772415,0.970715139393196,0.969987228540522,0.964657582412325,0.964373111504383,0.96183797370714,0.962055510283801,0.964540447332584,0.967201087000978,0.967192720209568,0.965377126473589,0.968380804589794,0.971853023024962
0.98518132174116,1.09174077713947,0.956449760039073,0.951228882199206,0.942017044856748,0.941506670580736,0.926396245294198,0.929801529398085,0.929659293944115,0.930203135385767,0.93652842969176,0.935825619213316,0.93652842969176,0.930060899931797,0.934043492642977,0.934035125851567,0.925534465778963,0.928948116674261,1.00313645610711,0.928998317422721,0.927651264005704,0.927935734913646,0.927216190852382,0.926463179625478,0.929927031269236,0.930571274207809,0.932830307888521,0.9346459016245,1.1179288342529,0.933884523606186,0.936637197980091,0.936076622955618,0.983407561962231,0.967728194859811,0.951463152358687,0.941247300047024,0.94041898769743,0.942134179936489,0.94232661613892,0.938661961501321,0.941690739991757,0.941899909777008,0.942176013893539,0.94826703804005,0.949128817555285,0.948844346647343,0.947781764138268,0.94436811324297,0.945413962169226,0.939197436151564,0.945815568156908,0.991155210807931,0.958867762756575,0.95003243102757,0.986879780397399,1.07545900105552,1.07552593538681,1.09506239332926,1.09636761278922,1.09680268594254,1.0963508792064,1.13289702408547,1.15354626528546,1.14507907237849,1.16687456400166,1.16059110365271,1.19954688445787,1.17671391069987,1.17735815363844,1.17945821828236,1.18006899405529,1.21751038561524,1.30860801048778,1.30870841198471,1.28767429837986,1.34861800701061,1.32048048749864,1.3566082928072,1.37038839825954,1.43165004496388,1.44426716641022,1.43427721746663,1.44509547875982,1.41439772107637,1.44246830625706,1.56755183783721,1.66461498498512,1.80494281051436,1.78684544069444,1.98338137091635,1.70066748917099,1.68697941842416,1.68863604312335,1.47370153859075,1.49867641094973,1.55102742480237,1.52611948677467,1.42554228723455,1.40070965032954,1.39732109980847,1.38991648941058,1.39293690110961,1.36650620704528,1.36782816008807,1.32333356336946,1.30310266173998,1.28588380501811,1.29153138921989,1.24041029370452,1.24062783028118,1.21504218214927,1.24906992281392,1.22390261425251,1.13322332895046,1.13062962361335,1.09978126368452,1.05795567342571,1.03490516309105,1.0171257313447,1.02633756868716,1.00082722167794,1.00091925638345,1.00903504405119,0.963846003645551,0.950459137389482,0.950224867230001,0.955780416726269,0.939021733531953,0.937398575998404,0.937808548777497,0.970840641264347,0.973902886920422,0.972179327889953,0.973149875693519,0.980914258122038,0.975835615736142,0.973760651466452,0.972857037994167,0.972949072699677,0.968472839295304,0.965435694013459,0.963268695038258,0.961662271087529,0.962473849854304,0.965937701498061,0.968238569135823,0.965904234332421,0.964532080541174,0.965368759682179,0.97730817102431
0.984863383667579,1.03721439752022,0.961545136007789,0.947982567132109,0.946551845800992,0.938787463372472,0.927408627054813,0.928270406570048,0.927877167373775,0.930546173833579,0.931826292919316,0.935909287127417,0.935725217716396,0.929960498434876,0.933290481416073,0.933198446710563,1.11958545895209,0.930194768594357,0.94037715374038,0.934394897882199,0.929876830520776,0.92882261480311,0.928002669244926,0.926981920692901,0.930119467471667,0.931307551851893,0.933491284409914,0.935398912851404,0.951730889683808,0.938921332035032,0.938753996206832,0.937323274875714,1.01213912366432,1.00806449624763,0.962114077823672,0.941406269083815,0.940996296304723,0.941816241862907,0.942945758703263,0.94050265561153,0.944016708003749,0.943523067310556,0.942937391911853,0.947539127187377,0.950358735892561,0.950325268726921,0.949262686217846,0.953144877432106,0.949438388837456,1.03816821174096,0.941289134004075,0.944752985647832,0.962231212903412,0.987733193121223,0.98320675896839,1.02644633697549,1.07054769449783,1.14972264161107,1.10046734058014,1.09730469342715,1.1474134071819,1.2010696404945,1.14571494852566,1.14499540446439,1.1730743564365,1.16321827615547,1.16210549289793,1.1725807157433,1.27228776897679,1.27290691154113,1.205813611224,1.25411509803417,1.3097877280766,1.25442466931635,1.28350763625766,1.30695975258001,1.32560933063299,1.35506880318775,1.35397275351304,1.44437593469855,1.44426716641022,1.44385719363113,1.41985286907572,1.43861958220844,1.47363460425947,1.47601077301993,0.00336272223598464,0.00387487027177619,0.00376620238494255,1.72078962251215,1.79169817971226,1.68746469232594,1.68763202815415,1.44456000410957,1.54220045986478,1.43713029333746,1.43321463495756,1.43113130389646,1.4010108548203,1.40755368570295,1.405595856513,1.46242310377002,1.46198803061669,1.37795197769422,1.41362797626665,1.35597241666004,1.27686440387808,1.27814452296382,1.24345580577778,1.22115830667001,1.21475771124133,1.24890258698572,1.18370854831866,1.18376711585853,1.09606640829846,1.05110327126089,1.06828866081712,1.02816989600596,1.02607819815345,1.02554272350321,1.01638945370062,0.998158215218137,0.965067555191417,0.962632818891094,0.954215826732591,0.950894210542804,0.951973526634699,0.942209481059179,0.933466184035684,0.970171297951543,0.971978524896112,0.972865404785577,0.97344271339287,0.97934966812836,0.978245251662235,0.973693717135171,0.972497265963535,0.972271362595464,0.973292111147489,0.96756085903161,0.966238905988823,0.963502965197739,0.962833621884935,0.959194067621567,0.964716149952195,0.969962128166292,0.96567833096435,0.965209790645388,0.967853696730961,0.971309181583309
0.980169613686545,0.979901876361423,0.95595611934588,0.951755990058038,0.945422328960636,0.937122471881873,0.9287305800976,0.928613445017859,0.928170005073127,0.93269643922596,0.933851056440546,0.936034788998568,0.935624816219475,0.935675016967936,0.934110426974258,0.93452039975335,0.938636861127091,0.932211165324178,0.940017381709748,0.933809222483496,0.932085663453027,0.93071350966178,0.929818262980906,0.929793162606675,0.931223883937793,0.932144230992898,0.933508017992735,0.936971869636492,0.94037715374038,0.940301852617689,0.938753996206832,0.939004999949133,0.939741277593217,0.938954799200672,1.00357152926044,0.942226214641999,0.941699106783167,0.942770056083652,0.943790804635677,0.950919310917034,0.953830954327729,0.947070586868414,0.945497630083326,0.949614091457067,0.950626473217683,0.951195415033566,0.954157259192721,0.95603978725998,0.951655588561118,0.949990597070519,1.04246874252573,0.936068256164208,0.940845694059342,0.965084288774237,0.98319839217698,1.04358152578326,1.10541211430348,1.14319654431123,1.09530503028015,1.09747202925535,1.14394955553814,1.1130928288179,1.14656836124948,1.22437952136288,1.14523804141528,1.19743845302254,1.17421224006826,1.17401980386583,1.2715514913327,1.26747686391601,1.22937449583468,1.20835711581265,1.28025295439915,1.25490994321813,1.3231996947069,1.30238311767871,1.32075659161517,1.35567957896069,1.35388908559894,1.37560927609941,1.44503691121995,1.44109615246582,1.42110788778722,1.41733446486129,1.44589869073518,1.48354088528897,0.00376285566837854,0.00368569711799512,0.00394930124815993,0.00353634989132585,1.73680366127097,1.68963169130115,1.6876738621112,1.48511384207405,1.45613964342107,1.45454995305317,1.43339033757717,1.43272099426436,1.41614638048107,1.41613801368966,1.44793182104782,1.46306734670859,1.36374516587997,1.37857948704998,1.3562736211508,1.2942087624711,1.24876035153175,1.22828681295137,1.22089056934489,1.22036346148606,1.25923557437712,1.18567474430002,1.18455359425108,1.14159848715192,1.11196331197754,1.04585729304679,1.03006079086463,1.02652163809818,1.02241354351585,1.01464916108733,1.00111169258588,0.98499725233014,0.967435357160459,0.961076595688826,0.974865067932577,0.951287449739076,0.942167647102129,0.954199093149771,0.950400569849612,0.969426653516049,0.973283744356079,0.973041107405188,0.98890454391863,0.978010981502753,0.977734877386222,0.97730817102431,0.97335904547877,0.973618416012481,0.973760651466452,0.966506643313944,0.964766350700655,0.964314543964513,0.965176323479747,0.966732546682015,0.96576199887845,0.969702757632581,0.970522703190765,0.968933012822857,0.96764452694571,0.970171297951543
0.983499596667742,0.971869756607782,0.957562543296608,0.955119440204876,0.945003989390134,0.938954799200672,0.934102060182848,0.929927031269236,0.927985935662106,0.934235928845408,0.933717187777986,0.936335993489329,0.936243958783819,1.14141441774089,0.937716514071986,0.937524077869555,0.936838000973932,0.933750654943626,0.939272737274254,0.932872141845571,0.933089678422232,0.932897242219801,0.931349385808943,0.93062147495627,0.932972543342492,0.933014377299542,0.935549515096785,0.94036042015756,0.941264033629844,0.943188395654154,0.941414635875225,0.940937728764853,0.940678358231141,0.940795493310882,0.944008341212338,0.944769719230652,0.944619116985272,0.94431791249451,0.945296827089485,0.947221189113795,0.948835979855933,0.947773397346858,0.946551845800992,0.950015697444749,0.95207392813162,0.953119777057875,0.956491593996123,0.955613080898068,0.95584735105755,0.950325268726921,0.949271053009256,0.944075275543619,0.964716149952195,0.988611706219278,1.00530345508231,1.06001390411259,1.06782012049816,1.09430938210235,1.0973465273842,1.09758916433509,1.15147966780718,1.10821498942584,1.13830197133636,1.14584881718822,1.14288697302906,1.17309945681073,1.17444651022774,1.17251378141202,1.27218736747987,1.26340223649932,1.26917532257225,1.22901472380405,1.23740661558832,1.3003750877403,1.2752998138844,1.29626699315797,1.32213711219782,1.32898114757124,1.3551943050589,1.36534322303929,1.491397302423,1.4234171222164,1.42218720387912,1.42774275337539,1.47548366516109,1.63134025554738,0.00377574052715,0.00351455439970269,0.00357200915631545,1.73957306922769,1.685180558271,1.69939573687667,1.439916434877,1.48597562158929,1.38092218864479,1.3992621954156,1.49763892881489,1.43294689763244,1.44300378090731,1.41619658122953,1.49703651983336,1.44896930318267,1.36402963678791,1.37265579873166,1.29198319595603,1.29393265835457,1.24125533963694,1.24220078706627,1.22124197458412,1.24242669043434,1.2579721888742,1.22469745943646,1.21078348532156,1.15301079063521,1.09877724871532,1.05573010691064,1.02977631995669,1.02571842612282,1.02276494875507,1.08644459817691,1.08648643213396,1.04970601709541,1.00230814375752,0.956366092124972,0.95598121972011,0.978119749791084,0.94809970221185,0.990025693967575,1.04666887181357,0.970731872976016,0.97156855211702,0.973886153337602,0.980336949514745,0.979550471122202,0.977785078134682,0.975266673920259,0.974396527613615,0.974346326865155,0.974195724619774,0.968046132933392,0.967393523203409,0.966607044810865,0.966858048553166,0.966732546682015,0.965285091768078,0.96948522105592,0.970146197577313,1.01126061056626,0.969058514694007,0.970698405810376
0.983031056348779,0.975308507877309,0.959419970989638,0.951479885941507,0.944861753936163,0.939138868611693,0.935223210231793,0.933173346336333,0.929015051005541,0.9267309169506,0.933792488900676,0.935850719587547,0.93652842969176,0.941874809402777,0.940511022402941,0.937256340544434,0.936402927820609,0.931449787305864,0.933717187777986,0.932771740348651,0.932805207514291,0.93270480601737,0.931483254471504,0.93262950489468,0.934085326600027,0.935382179268584,0.937498977495325,0.940234918286409,0.942042145230979,0.943456132979276,0.943539800893376,0.941858075819958,0.942167647102129,0.943732237095807,0.945012356181544,0.944811553187703,0.94428444532887,0.944903587893213,0.945321927463715,0.947329957402126,0.948693744401963,0.95006589819321,0.944970522224493,0.952266364334051,0.952801838984294,0.954768034965654,0.957596010462249,0.957537442922378,1.05378901130351,0.954424996517842,0.95009099856744,0.941372801918175,0.941255666838434,0.982378446618796,0.957529076130968,1.00533692224795,1.0990951867889,1.08034520723899,1.12831202239277,1.09472772167285,1.10926920514351,1.10828192375712,1.12994354671773,1.14647632654397,1.14373201896148,1.14696160044575,1.17663024278577,1.17125876270052,1.29302067809087,1.26062446175119,1.28420207994469,1.21312618691637,1.19886080756225,1.30449154911404,1.30019938512069,1.3772659007986,1.37550050781108,1.32482285224045,1.33881212747804,1.42519088199532,1.48566605030712,1.42442950397701,1.42345058938204,1.41997837094687,1.45064266146468,0.00365226341952059,1.54011712880368,0.0035067314497343,1.76782772381941,1.74037628120306,1.6832645630381,0.00362235214022968,1.41860621715562,1.44061924535544,1.4564073807462,1.40036661188173,1.44010050428802,1.43248672410488,1.38099748976748,1.47869651306255,1.37865478817267,1.45097733312108,1.33309760894498,1.32796039901921,1.34301225676588,1.29476933749557,1.24850934778945,1.24534670063645,1.21530155268298,1.21386246456046,1.17356799712969,1.20027479531055,1.21510911648055,1.17264765007459,1.06464910655375,1.0460329956664,1.0295336830058,1.02463911003092,1.04639276769704,1.00696844657291,1.01465752787874,0.983415928753641,0.970882475221397,0.977927313588653,1.00158859969626,0.974580597024636,0.940736925771012,0.979165598717339,1.01101797361537,0.97145141703728,0.97345944697569,0.976061519104213,0.979609038662072,0.976295789263695,0.977517340809561,0.97549257728833,0.973927987294652,0.974262658951054,0.974798133601297,0.970522703190765,0.966740913473426,0.968456105712484,0.968648541914915,0.968338970632744,0.963938038351061,0.968606707957865,0.969744591589631,1.01182118559074,1.00672580962202,0.973543114889791
0.982947388434679,0.978362386741975,0.959035098584776,0.95606488763421,0.943372465065175,0.935557881888195,0.935867453170367,0.932068929870207,0.929291155122073,0.931625489925475,0.933114778796462,0.934980573280902,0.937699780489166,0.941615438869066,0.942460484801481,0.938653594709911,0.937699780489166,0.933574952324015,0.937490610703915,1.01987840571861,0.933181713127743,0.931868126876366,0.932470535857889,0.934235928845408,0.935248310606023,0.935817252421906,0.938226888347999,0.9385615600044,0.942744955709422,0.94435974645156,0.943464499770686,0.943079627365824,0.94433464607733,0.944192410623359,0.946627146923682,0.945865768905368,0.945171325218334,0.999513635426564,0.946417977138431,0.947304857027896,0.948543142156582,0.944803186396293,0.944468514739891,1.14515437350118,0.953387514382997,0.956608729075863,0.958817562008115,1.33234459771808,1.0754422674727,0.955487579026917,0.955270042450256,1.0112104098178,0.98127403015267,0.945773734199858,0.970422301693844,1.02316655474276,1.05524483300886,1.0775172317424,1.12955030752145,1.12940807206748,1.12944153923312,1.10836559167122,1.11510922554772,1.13344086552712,1.14153991961205,1.1394231213853,1.18472093007928,1.21601272995284,1.25701837465346,1.25127038895476,1.22870515252187,1.20998864013761,1.20286850064766,1.25203176697307,1.27292364512395,1.28289686048472,1.37327494129601,1.30855780973932,1.33349921493266,1.41576150807621,1.43598404291428,1.42330835392807,1.42198640088528,1.41915005859727,1.45056736034199,1.56865625430333,1.5663804870398,1.78677013957175,0.00385576888698706,1.660021616501,0.00334570418225661,1.76319252137824,1.40690107597297,1.43637728211055,1.3855155571289,1.40132042610247,1.44202486631233,1.42641243354119,1.3873478844477,1.4169244920822,1.35929403284983,1.36997842548045,1.44081168155788,1.3705222669221,1.36479938159763,1.39263569661885,1.31855612547433,1.24312113412138,1.20525303619952,1.19109642513373,1.16921726559647,1.15698501655498,1.15576346500912,1.15547899410118,1.06959388027709,1.06183786463998,1.03430275410952,1.04698680988715,1.05857481599006,1.02274821517225,1.02300758570596,0.984227507520416,0.981742570471633,0.976596993754456,0.969418286724639,0.974404894405025,0.968531406835175,0.95984667735155,0.989205748409391,0.972639501417506,0.973911253711833,0.976722495625607,0.979960443901293,0.977768344551862,0.976396190760615,0.976270688889465,0.974563863441816,0.974011655208753,0.973810852214912,0.972898871951217,0.967820229565321,0.968397538172614,0.968874445282986,0.968941379614267,0.97156855211702,0.972380130883795,0.97141794987164,1.01300090317955,1.00467594572656,0.999781372751686
0.984871750458989,0.982713118275198,0.961888174455601,0.954667633468733,0.947388524941996,0.935800518839086,0.936043155789978,0.930462505919479,0.930228235759998,0.931608756342655,0.932219532115588,0.935992955041517,0.939214169734384,0.942694754960962,0.943573268059016,0.941456469832275,0.940142883580899,0.94036042015756,0.939398239145405,0.945439062543456,0.945857402113958,0.932311566821098,0.933089678422232,0.936084989747028,0.937423676372635,0.936745966268421,0.937674680114936,0.940611423899861,0.942836990414933,0.944535449071171,0.945238259549615,0.945070923721414,0.944886854310393,0.946576946175222,0.946844683500343,1.00797246154212,0.947689729432757,1.07494862677951,0.947087320451234,0.947338324193536,0.948417640285431,0.945556197623197,0.956115088382671,0.958315554523512,0.95593101897165,0.956717497364194,0.960290117296282,0.960775391198065,0.964783084283475,0.960273383713462,0.955512679401148,0.965854033583961,0.967803495982501,0.963553165946199,0.953780753579269,1.01741856904406,1.03800924270417,1.09040209051386,1.09623374412666,1.09517116161759,1.1276761462456,1.10629062740153,1.11746029393394,1.11416377811838,1.1384191064161,1.16269116829663,1.210649616659,1.21130222638898,1.27971747974891,1.22862148460777,1.23323158667471,1.21401306680584,1.20297726893599,1.21699164454781,1.22988487011069,1.30112809896721,1.29761404657499,1.36983619002648,1.32816120201306,1.3454469930662,1.48539831298199,1.47179391014926,1.42207843559079,1.42144255944363,1.46689097038298,1.59550528793816,1.56817098040155,1.52524934046803,0.00360252284458788,0.00388994722989709,1.68798343339337,1.59268567923298,1.47236285196515,1.38670364150913,1.41493319572661,1.43694622392644,1.38297205254025,1.38177560136861,1.43139904122158,1.34450154563687,1.34432584301726,1.33537337620851,1.32855444120933,1.32900624794547,1.36379536662843,1.32196140957821,1.29801565256267,1.24786510485087,1.20240832712011,1.17954188619646,1.15362156640815,1.15328689475175,1.14316307714559,1.10996364883054,1.08923073971646,1.05195668398471,1.05000722158617,1.03813474457532,1.03697176056933,1.01151998109998,0.98111506111588,0.982119076085085,0.967811862773911,0.938118120059668,0.9404775552373,0.933307214998893,0.968606707957865,0.973802485423502,1.00128739520549,0.97336741227018,0.97345108018428,0.976622094128686,0.979583938287842,0.977450406478281,0.976086619478444,0.97723286990162,0.975659913116531,0.976178654183954,0.975383809,0.997363370034183,0.969234217313618,0.969886827043602,0.971300814791899,0.970455768859485,0.970413934902434,0.969401553141819,0.970137830785903,0.971116745380878,1.00358826284326,0.995924281911656
0.991456415298693,0.976521692631766,0.992585932139048,0.957713145541989,0.941841342237137,0.940193084329359,0.937164305838923,0.930152934637307,0.931056548109592,0.931943427999056,0.9327299063916,0.934269396011049,0.939607408930656,0.942703121752372,0.943297163942485,0.941498303789326,0.939523741016555,0.941406269083815,0.940845694059342,0.939523741016555,0.945229892758205,0.946526745426761,0.93449529937912,0.936662298354321,0.9385615600044,0.939373138771175,0.940611423899861,0.940293485826279,0.942560886298401,0.945062556930004,0.945924336445238,0.946008004359339,0.944803186396293,0.945171325218334,0.947196088739565,0.949538790334377,0.93843605813325,0.939975547752698,0.947095687242644,0.947589327935837,0.949856728407959,0.955495945818328,0.957386840676997,0.95790558174442,0.959051832167596,0.959553839652199,0.960524387455764,0.961059862106006,0.960156248633722,0.960122781468081,0.956466493621893,0.956215489879591,0.971618752865481,0.965561195884609,0.972823570828527,1.00258424787405,1.06425586735748,1.03920569387581,1.09241012045227,1.09198341409036,1.13278825579714,1.14184112410281,1.11586223677462,1.11724275735728,1.15127886481334,1.18214395832498,1.15327016116893,1.14430932756877,1.25234133825525,1.20901809233404,1.20188121926128,1.20104454012027,1.20404821823648,1.2107332845731,1.22932429508622,1.28560770090158,1.28628541100579,1.28020275365069,1.32140083455374,1.36096739113183,1.39972236894315,1.39963870102905,1.42053057917993,1.42536658461494,1.45472565567278,1.51470718329138,1.58641895246685,1.52360944935166,1.52600235169493,1.52991801007483,1.53369979979217,1.56115960919993,1.47620320922236,1.46160315821183,1.46186252874554,1.44555565228737,1.42324141959679,1.42370995991575,1.37923209677996,1.34441787772277,1.40050048054429,1.40980435259226,1.34543025948338,1.32863810912343,1.32765919452845,1.32100759535747,1.2423095553546,1.24411678229917,1.24093740156336,1.17133406382321,1.14978957594235,1.1366704470114,1.143497748802,1.08019460499361,1.06695834098292,1.08059621098129,1.05176424778228,1.0431966533784,1.0421173372865,0.994125421758496,0.998517987248769,0.983608364956072,0.953320580051716,0.941975210899698,0.94036878694897,0.990703404071789,0.980621420422687,0.963502965197739,0.98319002538557,0.976345990012155,0.981399532023821,0.975542778036791,0.97926600021426,0.980027378232574,0.976053152312803,0.978178317330954,0.977626109097892,0.977743244177632,0.97934966812836,0.982855353729168,0.97334231189595,0.971041444258188,0.971041444258188,0.971359382331769,0.970321900196924,0.969250950896438,0.968230202344413,0.971869756607782,1.00274321691084,0.989473485734513
0.999630770506305,0.977969147545703,0.960767024406655,0.951069913162415,0.94623390772741,0.941498303789326,0.940787126519472,0.963000957713136,0.934319596759509,0.934269396011049,0.931374486183174,0.935490947556915,0.944752985647832,0.943974874046698,0.944711151690782,0.943665302764527,0.941791141488677,0.943280430359665,0.942703121752372,0.93851972604735,0.938954799200672,0.945849035322548,0.935934387501647,0.942192747476359,0.941983577691108,0.941213832881384,0.942485585175711,0.940912628390623,0.942535785924171,0.946627146923682,0.947656262267117,0.947363424567766,0.947246289488025,0.947363424567766,0.948978215309904,0.948626810070682,1.14988997743927,0.945003989390134,0.947254656279435,0.94820847050018,0.950509338137942,0.950417303432431,0.957186037683156,0.958633492597094,0.959035098584776,0.961118429645877,0.95988014451719,0.962247946486232,0.962197745737772,0.960106047885261,0.959537106069378,1.034863329134,0.964498613375534,0.965318558933718,0.965176323479747,0.966205438823183,1.02347612602493,1.03385931416479,1.07581877308616,1.08783348555098,1.11916711938159,1.13615170594398,1.13036188628823,1.13234481585241,1.15059278791771,1.1660797188177,1.15142110026731,1.14912859942095,1.17834543502482,1.26076669720516,1.173492696007,1.19376543159353,1.19926241354993,1.22258902800113,1.23083868433143,1.24138084150809,1.44706167474118,1.36089209000914,1.31976931022878,1.34105442757593,1.32923215131354,1.3520232911145,1.4218357986399,1.42497334541866,1.47145923849286,1.54988954117061,1.51082499207712,1.67931543749256,1.52582664907532,1.53027778210547,1.53398427070012,1.55434067420075,1.45031635659968,1.46142745559222,1.41287496503974,1.41152791162272,1.39902792525612,1.40545362105903,1.35205675828014,1.34766419278987,1.33288843915973,1.33207686039296,1.33862805806702,1.32931581922764,1.33381715300624,1.32134226701387,1.25803075641407,1.24768940223126,1.1765716752459,1.17617006925821,1.15526982431593,1.12227956578613,1.11526819458451,1.06888270300723,1.06925084182927,1.03073850096885,1.04255241043983,1.03516453362476,1.02044734753449,0.996911563298041,0.995505942341153,0.981734203680223,0.958641859388504,0.942117446353669,0.941414635875225,0.953655251708118,0.953722186039399,0.986018000882165,0.987942362906475,0.978253618453645,0.978596656901457,0.984386476557206,0.979567204705021,0.97923253304862,0.980897524539218,0.97933293454554,0.976563526588816,0.981734203680223,0.982888820894809,0.979014996471959,0.97156018532561,0.970480869233715,0.97157691890843,0.971844656233552,0.970188031534363,0.968464472503894,0.967937364645062,0.974513662693356,0.976312522846515,0.981424632398051
0.99283693588135,0.975517677662561,0.967912264270832,0.952316565082511,0.943113094531464,0.943313897525305,0.944761352439243,1.03169231518959,0.948911280978624,0.937063904342003,1.0654439517377,0.93649496252612,0.944828286770523,0.944803186396293,0.946685714463552,0.944627483776682,0.942644554212501,0.943372465065175,0.943815905009908,0.938636861127091,0.938695428666961,0.946083305482029,0.945572931206016,0.941699106783167,0.944225877789,0.943104727740054,0.943656935973117,0.940686725022551,0.943104727740054,0.947672995849937,0.948961481727084,0.949170651512335,0.948953114935674,0.949404921671816,0.950258334395641,0.949647558622708,0.948476207825302,0.94427607853746,0.943548167684786,0.949137184346695,0.950618106426272,0.951128480702285,0.957152570517516,0.959486905320918,0.960557854621404,0.961377800179588,1.04093761969769,0.964356377921563,0.962415282314433,0.961896541247011,0.961653904296119,0.963837636854141,1.01111000832088,0.947196088739565,0.978521355778766,0.968071233307622,0.974396527613615,1.06431443489735,1.13032005233118,1.09056105955065,1.0979322027829,1.1095118420944,1.19059441764913,1.14380732008417,1.13411020883993,1.18580024617117,1.15111152898513,1.14988997743927,1.19591569698591,1.21359472723534,1.17960045373633,1.19497861634799,1.21479117840697,1.23578345805477,1.21652310422885,1.26344407045637,1.44742981356322,1.29475260391275,1.36131042957965,1.31367828608227,1.32954172259571,1.33321474402472,1.3775169045409,1.4275001164245,1.47959175974343,1.47150107244991,1.62437908509422,0.00407543062866633,1.66145233783212,1.62713175946812,1.78991605314192,1.60150427737916,1.45557070160519,1.42427053494022,1.37607781641837,1.41313433557345,1.44481100785188,1.37933249827688,1.35316954153767,1.37212869087283,1.3318676906077,1.33224419622116,1.31114314828503,1.34406647248355,1.35916016418727,1.2986264283356,1.30122850046413,1.24763083469139,1.18219415907344,1.13299742558239,1.15268448577022,1.13965739154479,1.06962734744273,1.06848109701955,1.06330205313673,1.05034189324258,1.05029169249412,1.0204557143259,1.02132586063255,0.998233516340828,0.979374768502591,0.981658902557532,0.975936017233063,0.944527082279761,0.945188058801155,0.957068902603416,0.953479549088507,0.968941379614267,1.00851630298377,0.979424969251051,0.98119872902998,0.982470481324306,0.980521018925766,0.980813856625118,0.982420280575846,0.980914258122038,0.979441702833871,0.982043774962394,0.981617068600482,0.97919069909157,0.971903223773422,0.970539436773585,0.972145860724313,0.972798470454297,0.970204765117183,0.968849344908756,0.970171297951543,0.969292784853489,0.994008286678756,0.981566867852022
